# .PCD v0.7 - Point Cloud Data file format
VERSION 0.7
FIELDS x y z rgb
SIZE 4 4 4 4
TYPE F F F U
COUNT 1 1 1 1
WIDTH 1201
HEIGHT 1
VIEWPOINT 0 0 0 1 0 0 0
POINTS 1201
DATA ascii
92.289757 -45.982689 -98.848526 7629669
92.982986 -46.099865 -98.147346 9011836
93.538712 -46.334335 -97.443634 10590867
87.951904 -44.458546 -105.33838 6511186
88.704056 -44.457905 -104.70453 6116172
89.139969 -44.549606 -103.95404 7169117
89.746574 -44.605785 -103.20689 8617075
90.246796 -44.735733 -102.24338 9208185
90.641685 -45.001625 -101.28165 8352878
91.344185 -45.11475 -100.54556 10523532
92.03669 -45.288273 -99.757935 8287341
92.656494 -45.425961 -99.098282 7563619
82.694267 -43.652557 -113.69569 8682867
83.212517 -43.828564 -113.26635 8945783
83.960411 -43.856709 -112.50461 8221292
84.574081 -43.949615 -111.79715 9471358
85.185875 -44.165913 -110.87604 9143680
85.714043 -44.16518 -110.46684 9867660
85.765656 -44.163742 -108.91631 8025199
86.542831 -44.162655 -108.29716 10853781
87.163933 -44.208424 -107.3819 9537665
87.569679 -44.276394 -106.42011 7761509
88.327393 -44.274601 -105.7863 7761509
88.831375 -44.27404 -105.36232 5919050
82.858963 -42.875767 -113.92258 9209211
83.565964 -42.974327 -113.36906 9998984
84.23864 -43.09811 -112.71695 9011322
82.312469 -41.735474 -114.60564 8814711
82.988968 -41.984768 -114.2166 9406591
83.776329 -42.157963 -113.57946 10130572
81.778076 -40.498348 -115.31068 9735812
82.338547 -40.877979 -114.93213 8748920
83.08519 -40.996277 -114.58018 9604228
81.782784 -39.880405 -115.55169 9472640
82.510712 -39.900555 -115.24596 8880246
81.189903 -38.745895 -116.24034 10261132
81.877571 -38.992966 -115.86185 9209468
82.547981 -39.171768 -115.51727 7498593
62.88401 -38.054611 -146.02364 9012350
63.314968 -37.999073 -145.58553 9472639
64.028664 -37.906811 -144.85388 9209211
64.73687 -37.81493 -144.12047 8682867
65.438858 -37.723461 -143.38512 9208954
65.996658 -37.650574 -142.7957 10261641
81.229202 -37.914425 -116.55115 9077884
81.950684 -38.201797 -116.14301 10327692
67.031097 -37.403564 -139.31155 8682867
67.568314 -37.33252 -138.7271 9931910
68.234497 -37.244141 -137.99489 8089963
68.895424 -37.156139 -137.26118 9010808
69.550308 -37.06852 -136.52589 9406078
70.199921 -36.981224 -135.7892 7300446
71.149101 -36.783981 -132.54047 10064782
71.653862 -36.718422 -131.96429 7433059
72.405365 -36.620655 -131.09892 8551537
73.026276 -36.539753 -130.37694 8880247
73.3965 -36.491409 -129.94325 8616563
80.749359 -36.775623 -117.19518 7366752
81.429245 -37.073383 -116.79996 8551026
82.11747 -37.42519 -116.3801 10262156
73.764648 -36.443363 -129.50931 7564651
74.374252 -36.363628 -128.7854 10262417
74.979263 -36.284473 -128.06073 14341834
75.367737 -36.199043 -125.61059 8288621
75.837601 -36.137337 -125.03635 7433824
76.421059 -36.060658 -124.31798 10524556
76.999451 -35.984447 -123.5988 11445399
77.687424 -35.8937 -122.7348 9669248
78.2556 -35.818573 -122.0141 8551281
78.65551 -35.670406 -121.04192 9932166
79.291397 -35.56728 -120.12804 9406078
79.832062 -35.600323 -119.20569 9406335
80.207306 -35.837162 -118.29488 9077625
80.806076 -36.099518 -117.67824 7629924
81.565994 -36.269661 -117.17772 8288110
125.22495 -62.71191 -46.162819 9208435
125.78229 -62.697174 -45.47084 8748141
126.17786 -62.490646 -44.633999 7497825
124.16129 -61.633526 -47.89613 7433055
124.8073 -61.785572 -47.116398 8090727
125.45562 -61.941036 -46.33234 8682348
126.14516 -61.762936 -45.515633 8616556
126.4678 -61.720505 -44.650696 8550769
126.77888 -61.675274 -43.781403 9011320
127.15173 -61.375896 -43.017353 9011320
122.70094 -60.611408 -50.228188 8092019
123.31153 -60.568676 -49.616615 10065550
123.82337 -60.844833 -48.791077 13354166
124.48382 -60.919876 -48.019409 6775126
125.18273 -60.795952 -47.371017 7893349
125.80512 -60.935101 -46.574429 6840917
126.4267 -60.992352 -45.658882 7893090
126.88579 -60.769806 -44.753983 11709089
127.20923 -60.730198 -43.885826 10327180
127.51878 -60.730507 -42.970188 7498337
127.86884 -60.646271 -42.115875 8814965
128.33932 -60.437786 -41.202126 8814965
119.06059 -59.406021 -56.23138 8090728
119.48443 -59.451447 -55.559113 9866623
119.99052 -59.50713 -54.749512 9734780
120.73208 -59.485958 -54.041985 9273972
121.25016 -59.552452 -53.231499 9603196
121.72877 -59.74136 -52.358711 9406846
122.23975 -59.866505 -51.583508 11512478
122.8522 -60.014729 -50.735561 9736585
123.54686 -59.95322 -50.053699 9670793
124.15268 -60.074833 -49.262604 11841444
124.65825 -60.178276 -48.600365 7959142
127.72923 -60.131649 -43.721355 9340798
128.01518 -60.057919 -43.049782 6446422
128.41893 -59.925354 -42.197083 7893355
128.78065 -59.848423 -41.341591 6709594
129.08447 -59.854599 -40.418461 10589322
129.70567 -59.6119 -39.590164 9207928
130.1619 -59.494678 -38.70834 8879732
130.70413 -59.418812 -37.847843 6510930
130.989 -59.427666 -36.912205 9406846
101.81099 -58.474831 -84.422577 7564642
102.36217 -58.696938 -83.851807 8089957
103.01006 -58.856823 -83.104492 8089955
103.69051 -58.946777 -82.401917 8682352
103.96504 -59.126431 -81.292679 10130060
104.63828 -59.125179 -80.417648 9537924
105.20927 -59.124111 -79.66304 8092019
105.77485 -59.123035 -78.90432 8092019
106.33492 -59.121967 -78.141525 9275006
106.88942 -59.120895 -77.37471 7959144
107.52922 -59.119644 -76.474937 8682356
108.02891 -59.118313 -75.38282 8484974
108.34115 -59.117344 -74.547035 7432543
108.86973 -59.11628 -73.765839 8090472
109.2858 -59.115288 -72.985924 7235677
109.54806 -59.114178 -71.956779 6906712
110.14214 -59.112942 -71.034828 7959401
110.72874 -59.111702 -70.108139 9604226
111.22516 -59.110645 -69.309776 8551542
111.71579 -59.109585 -68.507896 9143680
112.20068 -59.108528 -67.702469 9143680
112.75876 -59.107285 -66.758339 7563618
113.30924 -59.106056 -65.809708 8814197
114.10617 -59.104874 -65.107765 8353647
114.61123 -59.103878 -64.382248 7169372
115.06615 -59.102821 -63.556026 7235936
115.66824 -59.101818 -62.897583 9078914
116.41319 -59.100456 -61.95549 13684680
116.92308 -59.09922 -60.976234 10328208
117.35344 -59.098167 -60.133457 10328208
117.77764 -59.097111 -59.28754 9603714
118.01024 -59.197388 -58.347775 8418927
118.54183 -59.264622 -57.455078 6972254
119.24871 -59.26115 -56.70229 7433055
119.95605 -59.294815 -55.775555 10261124
120.46455 -59.350605 -54.963039 10129025
131.21223 -59.249725 -37.991901 6510930
131.49889 -59.258884 -37.052826 8024681
131.91 -59.226753 -36.146603 9274749
132.32794 -59.182636 -35.336746 14605262
132.85132 -59.12392 -34.356731 13814723
133.4032 -59.108215 -33.544613 9406853
134.01677 -59.062214 -32.945938 8353394
134.24426 -59.061184 -31.980448 9405049
134.92584 -59.05994 -31.116167 8616048
135.60153 -59.058693 -30.244696 11315359
135.80948 -59.057667 -29.267874 10789016
136.5909 -59.056561 -28.633764 8682101
137.07806 -59.055496 -27.820856 9536894
137.29935 -59.054295 -26.668608 9866115
138.40315 -59.052959 -26.017355 9669251
138.58052 -59.051933 -25.020361 9011579
139.05403 -59.050858 -24.18675 11380380
139.82597 -59.049725 -23.512266 8354933
139.98524 -59.048702 -22.505064 6841181
140.75716 -59.047554 -21.817732 5392706
141.21463 -59.046471 -20.96324 5392706
141.35544 -59.045456 -19.946077 6117714
142.43895 -59.04422 -19.396494 9209982
142.58905 -59.043034 -18.199408 8880760
143.67818 -59.041779 -17.632154 7563874
143.79446 -59.040764 -16.597292 8617075
143.88646 -59.039917 -15.734324 10851980
144.99405 -59.038471 -14.969782 6511954
145.09195 -59.037457 -13.925547 6183246
146.1881 -59.036163 -13.316824 7169629
146.27316 -59.035152 -12.263933 9077114
147.38838 -59.033672 -11.461187 8089963
147.43703 -59.032997 -10.753542 8089963
147.85153 -59.031876 -9.8308506 10786958
148.60791 -59.030647 -9.0416508 9735036
148.65411 -59.029812 -8.149847 9208435
149.77209 -59.028286 -7.3036475 10458250
149.81409 -59.027275 -6.2250381 9011063
150.92938 -59.025898 -5.5390563 9668993
151.14032 -58.988075 -4.4564071 10261132
151.86203 -58.72612 -3.9264159 9537664
152.06865 -58.755394 -2.9446578 9209211
152.30286 -58.668671 -2.0153213 9735811
101.40275 -57.756535 -85.112083 6511954
101.88278 -57.79895 -84.687614 9077881
102.6036 -57.864666 -84.04937 9669502
103.28313 -57.971916 -83.425919 8879728
103.82961 -58.325691 -82.795631 8089955
152.12878 -58.040344 -3.8713546 9800580
152.38864 -57.846779 -3.0228515 9538176
152.58282 -57.91531 -2.0312514 9275260
152.85104 -57.691933 -1.194719 9735553
100.85506 -56.803944 -86.031693 9077622
101.39584 -57.007442 -85.478561 10525327
102.16999 -56.80196 -84.926048 12104359
102.78056 -56.970261 -84.331207 12433323
103.27881 -57.244057 -83.779984 12433322
152.66711 -57.093742 -3.0274215 9866886
152.94183 -56.817032 -2.2510695 9209467
153.1658 -56.8433 -1.1959397 9735043
153.36604 -56.830914 -0.31280673 10129544
153.59306 -56.57172 0.27765501 8681843
100.29644 -55.766159 -87.001549 7563610
100.91451 -56.017414 -86.36042 10130308
101.66916 -55.965607 -85.750259 14275784
102.32484 -56.04945 -85.158165 15723486
153.30145 -56.038124 -1.9330307 9538176
153.52869 -55.776859 -1.3449417 9537664
153.72977 -55.763313 -0.45985568 9668738
153.9545 -55.792397 0.60343778 9142394
99.689476 -54.686295 -88.032326 6774868
100.37602 -54.9916 -87.307549 9208949
101.1967 -55.023331 -86.601677 12762543
101.75787 -55.135712 -86.075272 15000020
154.04515 -54.913788 -0.45961916 9866117
154.29597 -54.754269 0.40531003 9339773
154.52098 -54.711929 1.35018 8485751
154.79819 -54.438717 2.1438355 7564651
98.666885 -53.496944 -89.465683 5920074
99.169945 -53.753235 -88.918861 6906711
99.904976 -53.915039 -88.222397 6182988
100.75192 -53.975285 -87.480667 9077363
101.25452 -54.238052 -86.93116 13815489
154.57622 -53.926525 0.28343809 9669252
154.83601 -53.848988 1.3261322 8025201
155.08127 -53.753422 2.2731233 8617080
155.34448 -53.49268 3.0245271 9867401
98.212547 -52.463753 -90.345573 12431524
98.648102 -52.782959 -89.825287 9603195
99.454422 -52.875534 -89.10215 7038040
100.26129 -52.971123 -88.377129 6643540
100.69566 -53.296204 -87.85498 7563610
155.12137 -52.978699 1.1559204 9999244
155.37158 -52.872566 2.1073976 9998987
155.62431 -52.848274 3.205565 9143934
155.83435 -52.668121 3.8474717 7564651
97.709549 -51.599354 -91.185081 10787211
98.150101 -51.790867 -90.722115 12234145
98.975067 -51.808346 -90.01947 9603194
99.672363 -52.025597 -89.328056 8616556
100.2449 -52.254715 -88.735901 8419434
155.6687 -52.030193 2.034575 9670536
155.93513 -51.840054 2.9134049 8091757
156.16467 -51.871651 3.9977937 8092011
156.44603 -51.598888 4.8053422 8092011
97.081146 -50.732288 -92.130226 8485229
97.675262 -50.929398 -91.535927 11510679
98.516258 -50.777325 -90.901642 11510678
99.211678 -51.070839 -90.175522 9076849
156.25639 -51.094608 3.1083207 8092011
156.53685 -50.711258 3.7264466 9604992
156.7319 -50.838112 4.8153901 8092014
157.00009 -50.6502 5.7058091 13024949
96.626007 -49.822163 -92.950157 7959142
97.136009 -50.068169 -92.403091 7498592
97.968254 -49.897236 -91.785217 9997954
98.585869 -50.008751 -91.21225 9602939
156.83203 -50.008717 3.8759599 13157042
157.08746 -49.741371 4.5758042 8092015
157.30983 -49.751614 5.5921922 9144449
157.51714 -49.743305 6.5101228 8749691
96.036049 -48.821037 -93.927155 8879730
96.667709 -49.047428 -93.287186 7564641
97.400597 -49.080875 -92.654724 7432800
98.036133 -49.111671 -92.1054 8419697
157.3382 -49.111237 4.6471467 8092015
157.63089 -48.784584 5.4151216 7828847
157.85944 -48.776165 6.4280305 8486006
158.0983 -48.654514 7.2977662 9537150
158.3336 -48.394493 7.9196992 8089963
95.571335 -47.895256 -94.762611 10261383
96.195419 -48.030117 -94.172974 9537660
96.930077 -48.060677 -93.540398 7235679
97.554031 -48.199444 -92.948982 8748920
157.88348 -48.225986 5.6146607 8815227
158.14096 -47.95805 6.3226914 9012605
158.42932 -47.730843 7.2379975 8813685
158.67389 -47.721115 8.3206768 8089963
158.99359 -47.331665 9.105093 7761514
94.601677 -46.657837 -96.223167 9537918
95.032204 -46.954041 -95.684219 9011831
95.724182 -47.018318 -95.065384 8946039
96.458527 -47.045086 -94.43045 9800579
97.065506 -47.317924 -93.783211 7367013
158.4653 -47.13438 6.4002595 10261643
158.6884 -46.998009 7.1744905 9669507
158.97427 -46.821281 8.0637722 8682100
159.22043 -46.758385 9.1191158 9011323
93.577255 -45.642475 -98.106468 12433069
94.090561 -45.812687 -97.503464 8090734
94.753937 -45.918575 -96.838684 6906716
95.357994 -46.121731 -96.126099 7564645
95.960098 -46.326431 -95.413162 7564647
96.469002 -46.417664 -94.892998 8813944
159.41057 -46.158237 8.1703701 9142907
159.68089 -46.035061 8.9552288 9932167
159.97057 -45.805912 9.4549313 9274495
90.325912 -44.460377 -103.32183 8485233
90.94696 -44.462803 -102.78632 8682100
91.593887 -44.545406 -101.89494 7234654
92.136871 -44.6087 -101.17214 9405565
92.578194 -44.751404 -100.20582 8418671
93.104088 -44.968468 -99.338013 8352877
93.666306 -45.112446 -98.571754 6643546
94.426292 -45.045563 -97.990685 7300962
94.904503 -45.176651 -97.456375 8484464
85.160065 -43.603447 -111.6676 9735302
85.684456 -43.785664 -111.13086 8815229
86.421692 -43.84906 -110.35364 7565675
87.055756 -43.914642 -109.73844 8025712
87.67627 -44.162437 -108.90869 9011321
87.828239 -44.160839 -107.25293 7563619
88.338676 -44.160107 -106.8307 6182222
89.100754 -44.159008 -106.19296 6840151
89.598274 -44.204304 -105.34729 6510930
89.961029 -44.274681 -104.40354 7958633
90.836472 -44.276833 -103.65367 8419184
91.335373 -44.278805 -103.22348 8813686
84.635445 -42.717144 -112.55226 10261388
85.179871 -42.927094 -111.97124 11708573
85.942924 -42.908001 -111.30951 8617850
86.664719 -42.93454 -110.66458 9538951
87.14183 -43.222496 -110.11719 7565675
83.990807 -41.695686 -113.6147 9209727
84.638618 -41.92971 -112.931 8485751
85.404381 -41.908916 -112.26698 10458766
86.058922 -42.005184 -111.64417 10261645
86.60231 -42.217823 -111.06274 14603214
83.602554 -40.809357 -114.37103 9933193
84.17807 -40.929958 -113.82084 9078398
84.989456 -40.906704 -113.11786 7894127
85.572914 -41.144669 -112.48892 9735302
83.139542 -39.668285 -115.08006 7827558
83.723312 -39.954601 -114.65169 9209726
84.529297 -39.947384 -113.98779 10459536
85.120316 -40.114109 -113.3867 7960175
83.14946 -38.821922 -115.40881 6511954
83.969513 -38.944248 -114.9465 11314588
84.461197 -39.23 -114.39533 9933193
63.608547 -38.074245 -147.70526 9932419
64.043472 -38.018044 -147.25963 8682867
64.763573 -37.924686 -146.51541 11907492
66.274094 -37.61422 -142.50055 8090987
66.825729 -37.541676 -141.9093 8485488
82.552078 -37.909801 -116.01181 8485488
83.323097 -37.841377 -115.7233 7959400
83.889069 -38.221447 -115.34225 12433069
67.510712 -37.45137 -141.16884 9538175
68.189468 -37.361477 -140.42673 11051411
68.862862 -37.271961 -139.68297 9931910
69.397263 -37.200657 -139.0869 8813686
70.843552 -36.894363 -135.0509 6840154
71.60878 -36.790672 -134.16309 10064782
72.240494 -36.70459 -133.42174 8814716
72.866325 -36.618977 -132.67896 7037533
73.486938 -36.533752 -131.93495 8616563
82.63353 -37.034199 -116.32275 7893352
83.389557 -37.040195 -116.01112 6840919
74.101654 -36.448891 -131.18956 11314588
74.711212 -36.364471 -130.44299 8880251
75.579025 -36.205791 -127.33524 8288621
76.29245 -36.112125 -126.46365 9209211
76.881699 -36.03458 -125.73652 7564643
77.465858 -35.957607 -125.00869 9537918
78.160553 -35.865944 -124.13433 8551281
78.734406 -35.790062 -123.405 8090987
79.303085 -35.714775 -122.67494 9143162
79.979324 -35.625088 -121.79809 9998212
80.539696 -35.488232 -120.75693 9406590
80.870995 -35.507221 -118.78196 7433056
81.631271 -35.592705 -117.95057 6577236
82.250122 -35.880863 -117.22821 9603970
82.87291 -36.251389 -116.604 7630182
80.958252 -35.419449 -120.1382 9406590
81.580193 -35.316856 -119.20953 8419695
126.54108 -60.539501 -46.110619 6972503
126.94512 -60.433292 -45.329956 9537917
122.62498 -59.389015 -52.435394 12630959
122.95782 -59.430119 -51.882324 13289145
123.45495 -59.492764 -51.05027 11249567
124.18031 -59.497906 -50.237617 10920858
124.71101 -59.553432 -49.481064 11051929
125.23393 -59.712624 -48.600304 9801344
125.7057 -59.894314 -47.795563 8880244
126.31258 -60.021931 -46.98896 7498852
127.08821 -59.877319 -46.195492 9932937
127.43682 -59.844715 -45.331497 9472384
127.75095 -59.842312 -44.41217 9340798
128.38757 -59.595036 -43.600594 7827304
128.86769 -59.476368 -42.732723 9077115
129.42328 -59.394608 -41.885925 7301474
129.7254 -59.39806 -40.956318 10457736
129.92476 -59.401096 -40.33601 11378324
104.33322 -58.720886 -82.181564 7038307
104.83157 -58.815979 -81.713921 7959151
105.50339 -58.83036 -81.077568 12564140
106.12508 -58.91658 -80.400925 10459793
106.54421 -59.089066 -79.572716 11643040
107.04008 -59.121956 -78.655411 8287853
107.69065 -59.120693 -77.754318 8287342
108.33393 -59.119408 -76.848 8287342
108.8791 -59.118355 -76.066803 9536891
109.41856 -59.117283 -75.28167 8287594
109.95244 -59.116207 -74.492691 7695971
110.34197 -59.115051 -73.513763 9012088
110.73873 -59.113976 -72.623154 8485744
111.22128 -59.112762 -71.643272 8025194
111.82958 -59.111584 -70.798187 9143675
112.33099 -59.110512 -69.991905 9735300
112.82652 -59.10944 -69.182007 9406080
113.31618 -59.108376 -68.368568 9932423
113.79174 -59.107208 -67.442223 9801092
114.44455 -59.105972 -66.566559 9932934
115.05694 -59.104866 -65.807877 9274493
115.75125 -59.10368 -65.015411 8551025
116.21074 -59.102612 -64.180962 7696231
116.66427 -59.101543 -63.343212 9539721
117.11165 -59.100479 -62.502174 11644841
117.62579 -59.099236 -61.516869 10130829
118.13197 -59.097996 -60.527435 7039331
118.55903 -59.096935 -59.675919 9537406
118.97995 -59.095879 -58.821308 8879221
119.39466 -59.094814 -57.963715 9865600
120.03676 -59.093616 -57.124687 8879217
120.63349 -59.10603 -56.437107 9273461
121.09177 -59.14436 -55.495323 9273460
121.62447 -59.170815 -54.610901 7760733
122.18384 -59.213074 -53.735489 8287592
122.71658 -59.269943 -52.89045 10656913
123.44724 -59.272072 -52.086105 9340797
123.94713 -59.334808 -51.250648 9670793
124.27889 -59.377312 -50.692039 8092019
129.97639 -59.225662 -41.890057 7893355
130.22885 -59.228657 -41.112259 10062979
130.75723 -59.168381 -40.178211 8549999
131.0797 -59.155048 -39.31712 8879733
131.47404 -59.118568 -38.492203 6905944
131.91484 -59.08535 -37.508305 7695716
132.68353 -59.077255 -36.76321 7695205
133.29251 -59.065323 -35.832195 14605262
133.54085 -59.064281 -34.87191 14604494
134.34055 -59.063202 -34.275597 11182230
134.85744 -59.062138 -33.489632 8813683
135.08887 -59.0611 -32.518017 8550770
135.77946 -59.059849 -31.649988 8813942
136.46413 -59.058586 -30.774652 10262929
136.67583 -59.057552 -29.79159 12433326
137.46733 -59.056438 -29.155481 9998986
137.96135 -59.055363 -28.338446 8682100
138.15549 -59.054329 -27.34461 9997186
139.04878 -59.053017 -26.56526 10458765
139.48566 -59.051773 -25.523073 10984852
139.63115 -59.050922 -24.685793 11182488
140.74828 -59.049553 -24.008245 7565675
140.91104 -59.048519 -22.994341 7039073
141.53677 -59.047394 -22.222696 5721928
142.15782 -59.046268 -21.445471 6116943
142.30212 -59.045242 -20.421446 8618103
143.39954 -59.043999 -19.871267 9209982
143.53241 -59.042973 -18.838381 9341568
144.14738 -59.041828 -18.036901 9143675
144.75737 -59.04068 -17.229856 9011832
144.87103 -59.039665 -16.187212 6840663
145.9767 -59.038372 -15.595736 6840663
146.07864 -59.037354 -14.544336 6314575
146.85152 -59.03614 -13.787066 8156526
147.28018 -59.035027 -12.875559 8814198
147.70795 -59.033901 -11.958925 10260873
148.47565 -59.032673 -11.180765 10458251
148.8378 -59.008217 -10.248846 9734786
149.69914 -58.875034 -9.5338955 8551024
150.0325 -58.729198 -8.6383724 8287851
150.54553 -58.740719 -7.7710853 8090731
150.88971 -58.773617 -6.9159217 8551025
151.32776 -58.634789 -5.9668136 9142906
151.64761 -58.65416 -5.0148559 9866374
103.79201 -57.750095 -83.104492 10261638
104.33185 -57.990124 -82.534637 7958887
105.07995 -57.880993 -81.957596 8419956
105.776 -57.938843 -81.344017 12368044
106.22344 -58.234581 -80.825035 14605262
150.53482 -58.066582 -8.4231625 7564643
150.80499 -58.01646 -7.831903 8617075
151.2128 -57.873219 -7.0021987 8024938
151.62018 -57.8008 -6.1076598 9537664
151.94981 -57.753208 -5.1605697 9208187
152.19598 -57.640347 -4.2384353 10129289
103.11844 -56.659672 -84.196434 12762544
103.77999 -56.918674 -83.514999 11446169
104.58463 -57.028347 -82.785042 8353643
105.24707 -57.038155 -82.222816 9078138
151.83949 -57.137264 -6.206758 9800836
152.23418 -56.881958 -5.3369079 9471359
152.47699 -56.777271 -4.4162841 10129289
152.71123 -56.755817 -3.3947387 9735043
153.01776 -56.365284 -2.6655669 9209467
102.56271 -55.61058 -85.169296 15723486
103.30361 -55.880394 -84.415855 14999764
104.1516 -55.958557 -83.664597 11446174
104.76591 -56.131744 -83.064293 8288366
152.51216 -56.200741 -5.2234969 8681843
152.78729 -55.920254 -4.4515777 10129289
153.021 -55.890457 -3.4464965 9538176
153.26292 -55.81263 -2.4847732 9538176
153.44112 -55.661228 -1.9342133 9209467
102.19844 -54.764397 -85.883316 15723486
102.84077 -54.787239 -85.331802 15394526
103.65652 -54.923088 -84.57991 14538962
104.217 -55.16711 -83.99073 13617343
153.33527 -54.921326 -3.6519027 9603713
153.5753 -54.858852 -2.6730437 10064008
153.8013 -54.881889 -1.614061 9143162
154.07784 -54.605 -0.82975924 10261132
101.59079 -53.925591 -86.798645 14210247
102.23805 -53.976234 -86.229553 15262682
103.11028 -53.852165 -85.555298 15197150
103.78622 -54.218948 -84.809875 14013133
153.88898 -54.011284 -2.6773391 9472639
154.16599 -53.732323 -1.8942963 9341055
154.35796 -53.85017 -0.83004153 9208958
154.64386 -53.522846 -0.087838769 8814971
100.63855 -52.618088 -88.229614 7169626
101.07349 -52.943825 -87.706741 8814195
101.76067 -53.036549 -87.083839 14077894
102.54348 -52.995163 -86.445007 15064790
103.22157 -53.151131 -85.799278 15197150
154.51424 -52.912357 -1.6962372 10064267
154.73738 -52.764362 -0.93693697 9341058
154.95134 -52.723061 -0.040238976 8025969
155.18906 -52.574295 0.78374326 7565675
100.07381 -51.683205 -89.155075 8814451
100.62237 -51.901497 -88.588402 8552053
101.31107 -51.990978 -87.965744 7564906
102.09131 -52.047298 -87.28199 11051420
102.4362 -52.411186 -86.816544 12959415
155.0036 -51.943829 -1.110109 11050391
155.27573 -51.822033 -0.085664392 9209472
155.50739 -51.830193 0.9733566 9670536
155.78435 -51.527538 1.7122253 10130830
99.522957 -50.614422 -90.133186 8089963
100.12541 -50.902786 -89.487511 7368295
100.85757 -50.949757 -88.848755 10262415
101.54829 -51.038338 -88.224831 8091506
101.98585 -51.364098 -87.699707 10261905
155.50882 -51.12051 -0.20944369 10064267
155.78384 -50.875534 0.61759794 7565675
156.06839 -50.812832 1.7913879 9670536
156.32463 -50.688305 2.7343202 8092011
99.044136 -49.721642 -90.964661 8089963
99.666054 -49.868584 -90.371078 8089963
100.39998 -49.912529 -89.732727 9012349
101.02214 -50.063641 -89.136787 7828590
101.5319 -50.321304 -88.583946 7039331
156.09531 -50.18121 0.8542465 8090991
156.3698 -49.846947 1.5276016 7958891
156.58026 -49.865551 2.5046601 9604482
156.84035 -49.724068 3.4363923 14012094
98.066803 -48.44582 -92.399345 8090992
98.528137 -48.707283 -91.885803 8814714
99.202583 -48.838146 -91.255768 8089963
99.938034 -48.878971 -90.617584 8287342
100.57027 -49.117252 -89.97142 10919572
156.70677 -49.106236 1.8009857 7563619
156.96095 -48.764317 2.3705964 8616818
157.14803 -48.82835 3.3184037 9340285
157.39511 -48.771538 4.333693 7038814
98.068886 -47.778988 -92.717865 9933192
98.735275 -47.811302 -92.141914 10130570
99.472343 -47.849155 -91.503822 10524814
99.985703 -48.100006 -90.951584 8089963
157.28294 -48.016956 2.5656495 8090730
157.47517 -47.910324 3.2508073 7104091
157.75354 -47.693996 4.1393647 7630694
157.96045 -47.766373 5.1903672 8354677
158.24599 -47.489475 6.0097184 8815227
97.119461 -46.589767 -94.172165 5920082
97.555641 -46.832771 -93.649757 8090479
98.242256 -46.862141 -93.053192 8683128
98.951134 -46.919445 -92.40654 8814714
99.405952 -47.176945 -91.88253 10262156
157.71848 -47.306267 3.3324571 6511954
158.05046 -46.881519 4.1008058 7762538
158.32672 -46.723797 4.9975648 8815227
158.57719 -46.684013 5.9761872 9012349
158.93755 -46.430271 6.9955125 10261643
95.879517 -45.60223 -96.209259 7301477
96.548508 -45.822273 -95.42511 8814201
97.201668 -45.953094 -94.743721 9471617
97.935349 -46.02095 -94.057945 6380376
98.463936 -46.191692 -93.441101 7893357
158.56989 -46.298889 4.8791261 8815227
159.06102 -45.919357 5.757689 11446174
159.39236 -45.767384 6.7162461 9274749
159.66306 -45.674133 7.607779 9142907
159.92398 -45.599472 8.5205135 10261132
92.800438 -44.474541 -101.16863 9339515
93.415245 -44.480103 -100.62534 9931395
94.040054 -44.561466 -99.75843 9011063
94.594223 -44.605659 -99.105743 7892585
95.102219 -44.764977 -98.032127 8484464
95.561264 -44.95602 -97.254288 9011579
96.214966 -45.062584 -96.467957 9143678
96.887794 -45.11319 -95.851013 7104098
97.363823 -45.249039 -95.314148 8813944
160.20471 -44.952866 7.5076737 8485237
160.40787 -44.951603 8.4198895 9866631
160.71716 -44.92411 9.367239 9800582
161.3174 -44.580811 9.6390362 9340289
87.578812 -43.555416 -109.58893 11511711
88.050751 -43.718613 -109.10623 9866630
88.735489 -43.85976 -108.35628 7629409
89.499695 -43.854385 -107.70516 9866112
90.101494 -44.086254 -106.99151 7958374
90.610909 -44.156818 -104.90112 7169117
91.358948 -44.155716 -104.2471 7958633
92.053238 -44.196472 -103.28471 8813686
92.329849 -44.284218 -102.35915 7892584
93.073212 -44.289581 -101.70769 8352878
93.691002 -44.294937 -101.16266 9340284
87.034271 -42.546337 -110.52332 9867660
87.509491 -42.83408 -109.97334 9012606
88.231453 -42.865475 -109.33065 9734781
88.953278 -42.899063 -108.68884 7892579
89.537994 -43.077583 -108.10135 9668732
86.480484 -41.629665 -111.455 13813437
87.069382 -41.828171 -110.84043 10591123
87.822304 -41.856003 -110.16412 9077625
88.532455 -41.988953 -109.47461 8484714
85.994965 -40.76804 -112.29989 10722195
86.650955 -40.865589 -111.67514 13486788
87.416138 -40.849701 -111.00926 12630959
88.069809 -40.950344 -110.38512 8682867
84.901794 -39.556103 -113.84947 9933193
85.451416 -39.767017 -113.26341 8815224
86.110336 -39.863377 -112.63672 9341312
86.878456 -39.845947 -111.96899 13552583
87.52433 -40.086552 -111.28384 12894647
84.350815 -38.555557 -114.81931 12433069
84.834091 -38.838299 -114.2569 9539200
85.623886 -38.825729 -113.56769 9210491
86.358871 -38.884037 -112.89247 8222573
86.884636 -39.055702 -112.34643 9999243
65.478134 -37.831726 -145.7695 10262411
66.186356 -37.739166 -145.02165 10524302
66.889023 -37.646961 -144.27223 9867139
67.585487 -37.555256 -143.52098 8090987
84.001541 -37.710415 -115.49728 12433069
84.498055 -37.872993 -115.02042 11314844
85.273102 -37.851536 -114.34854 12367525
85.988693 -37.930202 -113.68051 11249302
86.486954 -38.160683 -113.13024 12104353
68.276382 -37.463905 -142.7682 13814201
69.795761 -37.147327 -138.63918 8089963
70.323471 -37.076462 -138.04131 9076858
70.978523 -36.988205 -137.29277 8879478
71.627441 -36.900349 -136.54265 7037274
72.271118 -36.812866 -135.79121 9472383
72.908737 -36.725857 -135.03841 11184028
73.415176 -36.65646 -134.43529 7038307
83.970047 -36.795273 -115.87 7762022
84.71936 -36.847889 -115.32234 8814454
85.385216 -36.943062 -114.69009 12433063
75.07428 -36.313911 -129.99446 10262417
75.435226 -36.263615 -129.5455 12960183
76.035065 -36.181313 -128.80083 9735812
76.755257 -36.08646 -127.9178 9340542
77.350449 -36.008121 -127.18181 9735043
77.940399 -35.930386 -126.44498 9340541
78.642021 -35.837742 -125.55997 9998212
79.221512 -35.761112 -124.82185 12432037
79.681442 -35.700214 -124.23083 11708315
80.42662 -35.565624 -121.21307 8090987
82.781738 -35.478096 -117.32159 8485235
83.484917 -35.683964 -116.78799 7432807
84.213158 -35.929462 -116.22649 7235934
84.867035 -36.163723 -115.52386 8090987
82.32756 -35.271317 -118.47038 6445909
83.156319 -35.262718 -117.85068 7959149
83.838745 -35.253685 -117.32373 8485235
126.09636 -59.39521 -48.63311 9932163
126.42348 -59.440941 -48.064354 9932163
126.91195 -59.51067 -47.208618 7959407
127.67755 -59.424629 -46.656975 8748665
128.17656 -59.393776 -45.590496 9406334
128.49402 -59.392021 -44.66629 8748405
106.60714 -58.624149 -80.314514 10130057
107.19166 -58.828083 -79.669144 10722194
107.89177 -58.89883 -78.880905 8090475
108.5847 -58.773926 -78.198044 8747893
109.20594 -58.80838 -77.461632 8682100
109.73917 -58.994419 -76.662537 9800063
110.14754 -59.117237 -75.77874 8287594
110.68491 -59.116154 -74.984482 8090729
111.21655 -59.115067 -74.186317 9012088
111.82933 -59.113804 -73.250206 8814452
112.43453 -59.112541 -72.309235 9604226
112.94682 -59.111458 -71.498535 8419440
113.45324 -59.110378 -70.684158 8879478
113.95374 -59.109295 -69.866165 8681843
114.44833 -59.108215 -69.044556 8681843
114.93694 -59.10714 -68.219406 9932934
115.4993 -59.105873 -67.252144 8682867
116.0539 -59.104618 -66.280472 8156267
116.52254 -59.103546 -65.44381 9011320
116.98513 -59.102467 -64.603752 7696231
117.4417 -59.101391 -63.760433 7565675
117.89207 -59.100323 -62.913765 7565675
118.33636 -59.099251 -62.063881 11577243
118.77454 -59.098179 -61.210838 9471866
119.27769 -59.096931 -60.211601 7827300
119.77283 -59.095688 -59.208282 9537149
120.42623 -59.094479 -58.368767 9866113
121.05885 -59.093498 -57.764313 10391942
121.81666 -59.092281 -56.983238 9010289
122.21806 -59.091209 -56.10516 9404790
122.61307 -59.090149 -55.224297 8352870
123.00172 -59.089085 -54.340527 8352870
123.38402 -59.08802 -53.453995 9998727
123.78274 -59.09779 -52.574257 8682867
124.618 -59.131264 -51.773563 8551541
125.13552 -59.16235 -50.862534 8945784
125.60668 -59.214821 -50.005257 8945269
126.10361 -59.258854 -49.259918 9340285
126.76724 -59.258503 -48.540031 7038307
127.25919 -59.327824 -47.682251 8485494
128.56674 -59.225246 -46.073387 9143164
128.93956 -59.222878 -44.991264 8419440
129.44592 -59.185417 -43.953705 7169374
129.84291 -59.148739 -43.222939 6709594
130.23419 -59.111111 -42.487637 6972766
130.71645 -59.072151 -41.435192 7629669
131.5856 -59.070919 -40.726158 6840663
132.13635 -59.069859 -39.972084 6512212
132.41467 -59.06881 -39.019947 9011579
132.68605 -59.06776 -38.065868 6644058
133.61224 -59.066505 -37.376049 7234910
134.12119 -59.065273 -36.393974 8616307
134.37361 -59.06422 -35.427631 12958384
135.18318 -59.063133 -34.829906 9142390
135.70706 -59.062057 -34.040119 10458249
135.98076 -59.060841 -32.899231 8089963
136.8243 -59.059563 -32.117455 9998728
137.33592 -59.058479 -31.311277 12039081
137.55154 -59.057438 -30.321905 9210242
138.20506 -59.056335 -29.59519 9735299
138.85408 -59.055229 -28.862837 9142393
139.05202 -59.054192 -27.862486 9931394
139.84981 -59.053051 -27.205408 8353392
140.37016 -59.051792 -26.200693 11445144
140.57816 -59.050579 -25.020884 11051158
141.68074 -59.04937 -24.510714 9932163
141.84715 -59.048332 -23.490145 9932163
142.32327 -59.04723 -22.632727 7368037
143.11147 -59.046062 -21.934053 7038298
143.2592 -59.045029 -20.903193 11380380
144.39435 -59.043598 -20.179216 11051415
144.50725 -59.04274 -19.312536 10261899
144.61523 -59.041882 -18.445196 9472383
145.75009 -59.040432 -17.696146 7498849
145.86713 -59.039398 -16.646349 8353391
146.95673 -58.920403 -16.050673 8418928
147.29301 -58.754803 -15.193033 8945529
147.70334 -58.710285 -14.338602 9471874
148.18793 -58.773701 -13.307463 9932168
148.54703 -58.75787 -12.404608 8551282
148.98654 -58.608055 -11.575674 10130053
149.37054 -58.688103 -10.594549 9406332
106.06057 -57.525818 -81.303345 13289402
106.6097 -57.888744 -80.66655 13222840
107.38811 -58.008636 -79.900261 10919573
108.14482 -58.058334 -79.065521 8814198
108.78745 -57.964302 -78.422806 9142651
109.21983 -58.13216 -77.864403 7563619
148.00279 -58.105091 -14.366343 8682873
148.4261 -57.889244 -13.567392 9471874
148.80234 -57.882221 -12.685564 8551283
149.22775 -57.898888 -11.665651 9537918
149.63817 -57.726898 -10.856321 10524555
150.00241 -57.893833 -9.8411007 8222317
150.40631 -57.815758 -8.9598675 7564643
150.87064 -57.507912 -8.1498318 8156780
105.63857 -56.562588 -82.122421 10328461
106.13934 -56.844643 -81.565178 12565679
106.99121 -56.93705 -80.803772 12696497
107.7619 -57.050533 -80.028008 11182745
108.31849 -57.298862 -79.291672 9406334
149.14801 -57.216461 -12.488539 8682867
149.50841 -56.982471 -11.855024 9077624
149.95732 -56.844402 -10.923487 10458763
150.35326 -56.700901 -10.121901 9208700
150.69594 -56.867798 -9.1575222 7696229
151.1283 -56.83968 -8.1628742 9077369
151.5484 -56.72543 -7.2770743 9406078
151.97377 -56.61393 -6.3763366 10853012
105.10719 -55.822308 -82.926056 6841176
105.67505 -55.878883 -82.42099 7169884
106.4981 -55.814503 -81.759323 8288365
107.14529 -56.14785 -81.054192 10656913
150.1693 -56.290115 -10.938326 10590347
150.64551 -56.022545 -10.062643 9012091
151.05354 -55.872501 -9.2386379 7893611
151.42741 -55.799107 -8.4240704 9537666
151.81921 -55.856617 -7.4455237 9537920
152.26433 -55.78529 -6.460794 10524303
152.57794 -55.750313 -5.6380477 9274236
152.86182 -55.471783 -4.866899 10129289
104.55759 -54.857117 -83.853409 12169897
105.17452 -55.029381 -83.251259 7827815
105.97233 -54.878666 -82.652466 8814709
106.60287 -55.085434 -82.022263 7038298
151.74638 -55.118755 -8.3036556 9471871
152.0889 -55.017773 -7.5886626 9603457
152.50143 -54.887417 -6.7358413 9669250
152.89313 -54.896614 -5.6761642 9537408
153.1655 -54.676132 -4.8293548 9800836
153.40155 -54.522118 -4.0219054 9472383
103.61339 -53.523495 -85.290207 15197150
104.06697 -53.805683 -84.772591 13486790
104.73637 -53.96278 -84.133667 10722451
105.46927 -54.03059 -83.484215 9538176
106.00717 -54.196125 -82.951828 12300965
152.7888 -54.194195 -6.7017608 9735043
153.16524 -54.032795 -5.8569884 9603457
153.4857 -53.780712 -4.8843474 10459022
153.70493 -53.847614 -3.7825255 9998725
154.03781 -53.461895 -2.9260955 9209467
103.0552 -52.572357 -86.217987 14407377
103.60374 -52.800667 -85.646439 14868185
104.2944 -52.901215 -85.016792 10461084
104.98574 -53.004234 -84.385399 9472898
105.535 -53.238819 -83.810196 10656656
153.71555 -53.08424 -5.013948 10129801
153.97923 -52.884457 -4.1582122 10064263
154.22858 -52.841118 -3.10531 9735553
154.46318 -52.754971 -2.1904998 11576988
102.62511 -51.748905 -86.976517 10261905
103.11416 -51.786396 -86.54686 10525334
103.84859 -51.844524 -85.900803 11316133
104.54131 -51.94408 -85.269928 9605000
104.97791 -52.279076 -84.741173 8092019
154.35263 -52.020916 -3.9197326 10459019
154.57631 -51.869125 -3.1642165 9932934
154.7912 -51.823086 -2.2714553 10787729
155.02954 -51.670254 -1.4517304 9669766
102.05083 -50.693943 -87.967789 10261905
102.52015 -51.065205 -87.394035 11314592
103.39911 -50.792465 -86.785728 7169375
104.02202 -50.953674 -86.183868 9999756
154.89615 -51.067776 -3.0632796 9340801
155.15692 -50.779934 -2.3686233 8616821
155.36842 -50.793106 -1.3915421 9603201
155.62289 -50.62067 -0.53306735 10655887
101.44901 -49.726864 -88.939583 7433832
102.06618 -50.020733 -88.279022 8223091
102.89511 -50.011326 -87.586029 9603714
103.55123 -50.042465 -87.018921 9340798
155.4631 -49.980625 -2.3255553 10129030
155.68196 -49.837112 -1.5800415 11576473
155.94905 -49.762287 -0.5049454 9668480
156.1846 -49.643688 0.35485685 9339773
156.41562 -49.435822 1.0449737 7563619
100.8042 -48.6782 -89.985489 12958897
101.5341 -48.975437 -89.228874 7433317
102.39505 -49.031769 -88.477722 7696489
102.96736 -49.138458 -87.945183 7497825
155.93021 -49.281761 -1.3944184 11576473
156.25467 -48.791428 -0.75805819 10063494
156.47842 -48.819172 0.29404294 9866374
156.71555 -48.768131 1.274115 9076601
156.91968 -48.536945 1.8042358 8616307
100.32226 -47.78384 -90.820381 7695205
101.0717 -47.938934 -90.115585 7629667
101.93439 -47.991592 -89.364754 5984843
102.44804 -48.248959 -88.809151 6379859
156.54042 -48.204205 -0.45777285 8616307
156.77368 -47.938179 0.1450485 9471359
156.99074 -47.868649 1.0040344 8616307
157.27817 -47.759186 2.1122041 9077113
99.273903 -46.526474 -92.422295 8090992
99.866562 -46.801182 -91.719284 10919829
100.64165 -46.942829 -90.97641 10261643
101.43525 -46.998138 -90.276459 10787987
101.99572 -47.322697 -89.634384 5919050
157.30151 -47.065086 1.0543731 9274237
157.60855 -46.789619 1.862204 7498849
157.80725 -46.853783 2.9082322 6511954
158.09785 -46.57476 3.7221208 6511954
98.18222 -45.579296 -94.294403 5920082
98.90609 -45.795647 -93.467545 6774875
99.608734 -45.938114 -92.732613 7103837
100.31007 -46.082806 -91.996613 9933190
100.90682 -46.300327 -91.275291 12432812
158.28696 -46.030491 2.6627107 5920074
158.59673 -45.925556 3.6887422 6841693
158.87601 -45.818863 4.5718446 8749434
159.31728 -45.530014 5.5446305 11841189
159.58948 -45.32972 6.0672441 11379356
95.128769 -44.499687 -99.093681 8484464
95.61602 -44.506489 -98.65303 7497825
96.408951 -44.556557 -97.774185 9800838
96.987572 -44.623447 -97.006752 9735558
97.45816 -44.771854 -96.045563 6972512
97.976196 -44.95578 -95.226837 7629927
98.550003 -45.072411 -94.53331 7827305
99.262321 -45.218582 -93.747032 7564130
99.821129 -45.342514 -93.152588 7367007
159.18443 -45.193596 3.7531114 7565675
159.38852 -45.151352 4.5252976 8749691
159.66148 -45.023064 5.3022904 10525330
160.09766 -44.836548 6.2816606 9208960
160.72131 -44.592331 7.0832658 7564651
161.17854 -44.518162 8.0763988 9011581
161.73175 -44.393272 8.7563915 9932168
162.04306 -44.346752 9.4913311 9340289
90.471283 -43.638527 -107.04027 7826532
91.152023 -43.84893 -106.29054 6840152
91.949348 -43.846413 -105.59268 7761255
92.529465 -44.096821 -104.86838 7893354
93.085938 -44.153137 -102.70007 8155756
93.818031 -44.152031 -102.02819 9604481
94.424164 -44.187817 -101.22195 9735555
94.833405 -44.253487 -100.45172 8682867
95.535347 -44.315758 -99.515228 8945015
96.269302 -44.326065 -98.851158 7958376
162.80901 -44.126816 9.7369137 8813936
89.448532 -42.510853 -108.43239 7563614
90.031189 -42.749138 -107.81992 10655884
90.713226 -42.87632 -107.17088 9076597
91.490997 -42.881897 -106.49307 7892839
91.963524 -43.179546 -105.94975 8419184
88.931648 -41.61285 -109.30541 7300443
89.471794 -41.83131 -108.7253 6181964
90.233147 -41.823597 -108.06229 9471354
90.953819 -41.861145 -107.41672 10327947
91.428131 -42.157349 -106.87146 10855060
88.401619 -40.60651 -110.25961 8682867
88.943787 -40.823631 -109.67713 8748145
89.706337 -40.813492 -109.0108 7432030
90.426529 -40.84795 -108.36014 8090219
90.896233 -41.139957 -107.80515 8288627
87.742653 -39.625416 -111.31512 12828597
88.411789 -39.816677 -110.63336 9340797
89.235977 -39.770191 -109.93044 9406590
89.843628 -39.999355 -109.28447 10063493
86.925423 -38.48999 -112.5846 8090987
87.384476 -38.722553 -112.06789 11381155
88.072586 -38.84021 -111.40511 12631220
88.860558 -38.962589 -110.65219 9670022
89.443916 -39.010509 -110.11542 9998987
64.349182 -38.094398 -149.42442 9932419
64.933716 -38.018551 -148.81964 8682867
65.659599 -37.924076 -148.06224 10261132
66.235779 -37.848888 -147.45497 9471608
66.950363 -37.755196 -146.69429 9537402
67.518158 -37.680523 -146.08467 9734782
86.250961 -37.487572 -113.66411 10657422
86.861336 -37.77063 -112.98967 8683379
87.532852 -37.896015 -112.33778 7893352
88.323639 -37.953995 -111.61359 9669765
88.932144 -38.36805 -110.87727 9670023
68.961037 -37.372887 -142.01369 9735555
69.640152 -37.282356 -141.25769 9735555
70.313065 -37.1922 -140.50008 9340286
70.98056 -37.102421 -139.74113 9142651
71.641861 -37.013084 -138.98064 9669250
72.167213 -36.941879 -138.37123 8485488
73.666885 -36.621819 -134.1333 7038307
74.167366 -36.552933 -133.52885 7037792
85.718552 -36.594639 -114.56544 11578267
86.230392 -36.851185 -113.99059 12433318
87.008873 -36.960991 -113.25204 8946295
87.785736 -37.072525 -112.51417 7827046
88.293327 -37.332085 -111.94163 7695204
74.911743 -36.449905 -132.62067 7037274
75.526093 -36.364502 -131.86259 6511954
76.134491 -36.279533 -131.10316 7169884
76.737717 -36.19495 -130.34277 9143675
77.334961 -36.110806 -129.58119 6511954
78.044708 -36.010296 -128.66592 8617075
78.513718 -35.943623 -128.05496 8617075
80.024445 -35.654732 -123.78731 9537918
80.478729 -35.594418 -123.19557 9998212
81.04274 -35.519482 -122.45549 10984849
81.378807 -35.474697 -122.01118 12432037
84.761246 -35.546333 -116.2502 9143675
85.323029 -35.678413 -115.56476 8419952
85.935471 -35.814034 -114.85545 9603969
86.667046 -35.922237 -114.10011 11117464
87.318161 -36.147018 -113.37434 9538433
87.767899 -36.435547 -112.83861 9143163
81.712967 -35.430172 -121.56651 11643036
82.266121 -35.356422 -120.82515 11380121
82.775681 -35.266552 -120.02679 7367262
83.254654 -35.167011 -119.19344 7630181
83.8647 -35.065605 -118.25278 9932163
84.53389 -35.085907 -117.40387 9208699
84.980904 -35.147308 -116.72615 9603713
85.537323 -35.206062 -115.85464 10260872
86.296593 -35.177479 -115.14664 9208954
109.9772 -58.533604 -76.828003 7037786
110.57036 -58.753944 -76.067436 5722695
111.21555 -58.808563 -75.341003 8550766
111.96886 -58.875797 -74.490929 9208695
112.77059 -58.774719 -73.669388 8419436
113.23839 -58.999588 -72.897835 8748661
113.7028 -59.111374 -71.972382 8156012
114.21262 -59.110287 -71.15255 8879478
114.71646 -59.109196 -70.329063 9142393
115.21436 -59.108109 -69.501938 10129030
115.7063 -59.107025 -68.671242 9932934
116.19225 -59.105934 -67.837029 8682867
116.75134 -59.104671 -66.859253 9208699
117.30254 -59.103409 -65.877022 9208955
117.76825 -59.102325 -65.031334 10458761
118.22782 -59.101238 -64.18232 10524297
118.6813 -59.100163 -63.330048 8551022
119.12853 -59.099087 -62.474449 11248019
119.56966 -59.098003 -61.615673 8879730
120.00452 -59.096928 -60.753723 7367006
120.43318 -59.095856 -59.888687 8813422
121.26194 -59.094685 -59.216461 8945008
122.08728 -59.093506 -58.535351 12432037
122.56778 -59.092247 -57.50827 10589577
123.04005 -59.090992 -56.477356 11246994
123.43771 -59.08992 -55.590492 7563610
123.82903 -59.088844 -54.700775 11115925
124.21386 -59.087776 -53.808262 10590351
124.95418 -59.086536 -52.993759 7038307
125.80858 -59.085381 -52.361214 9208440
126.17649 -59.084312 -51.454472 8353133
126.5378 -59.083244 -50.545097 7366499
126.89254 -59.082176 -49.633156 7498600
127.51658 -59.095242 -48.734795 7367271
128.11035 -59.123631 -47.995979 8222322
128.50864 -59.151115 -47.095215 7761772
129.1162 -59.077614 -46.266983 8880248
129.44008 -59.076553 -45.336472 8419440
130.26729 -59.075359 -44.644402 8353389
130.95468 -59.074097 -43.759636 7038298
131.26038 -59.073032 -42.815948 7038298
131.5592 -59.071972 -41.870075 6643540
132.38931 -59.070908 -41.316978 7433055
132.94707 -59.069839 -40.559464 9406587
133.27573 -59.068607 -39.441551 7499110
133.59552 -59.067371 -38.321049 6052178
134.69516 -59.066277 -37.933308 6445909
134.95871 -59.065212 -36.962784 7695205
135.21513 -59.064163 -35.990372 8550513
135.89249 -59.063068 -35.29689 7497567
136.56569 -59.061981 -34.597614 7826532
136.84399 -59.060753 -33.449467 8155755
137.55234 -59.059475 -32.572906 10985879
138.21713 -59.058376 -31.854834 13157047
138.43666 -59.057323 -30.859068 9736585
138.94896 -59.056236 -30.040117 8815227
139.75659 -59.055099 -29.393938 9932675
139.95834 -59.054054 -28.38706 9406589
140.61333 -59.052933 -27.640047 8880247
141.26379 -59.051804 -26.8873 8879477
141.47702 -59.050583 -25.699865 7300958
142.58185 -59.044071 -25.18881 9932163
142.901 -58.965378 -24.185869 12760492
143.42931 -58.792542 -23.345644 12629673
143.98232 -58.845253 -22.486021 8419693
144.37372 -58.749493 -21.589285 11051413
144.79803 -58.699471 -20.764162 10459278
145.30821 -58.758446 -19.769197 9735555
145.659 -58.89077 -18.820349 9209467
146.16705 -58.595188 -18.099989 6709333
146.59903 -58.718536 -17.08145 8419184
146.93927 -58.612556 -16.405725 8418928
109.10305 -57.551304 -78.306961 9011065
109.57722 -57.771389 -77.675064 8287081
110.1837 -57.860065 -76.971901 7695457
110.83025 -57.911297 -76.245789 6248782
111.4772 -57.965248 -75.517807 7038041
112.16829 -58.09528 -74.70076 10590091
144.15617 -58.255825 -22.618834 9340795
144.58072 -58.067024 -21.885054 12893102
145.15041 -57.916977 -20.813269 8946039
145.56802 -57.771114 -20.057859 9077625
145.94061 -57.928871 -19.140276 10656657
146.44406 -57.866779 -18.133345 7498849
146.87534 -57.78627 -17.291433 7037787
147.24898 -57.839718 -16.394434 9208444
147.62936 -57.881275 -15.456171 8945272
148.14548 -57.535217 -14.559248 8879995
148.4789 -57.428066 -13.871599 8879995
108.11761 -56.687504 -79.841614 10130057
108.55202 -56.851658 -79.283142 8682612
109.16316 -56.869213 -78.613632 9405047
109.84499 -56.802448 -77.913742 9602425
110.49328 -56.850311 -77.187622 9997184
111.1019 -56.94072 -76.481209 8813681
111.65849 -57.202126 -75.737785 6840662
145.92624 -57.124268 -19.851183 9144449
146.287 -57.120613 -19.09516 11840674
146.70445 -57.013165 -18.307673 8485744
147.20187 -56.782028 -17.456419 8222061
147.5959 -56.824619 -16.52146 9931907
147.95837 -56.8736 -15.617777 10129287
148.35739 -56.782459 -14.759001 9208701
148.78418 -56.817173 -13.718863 9471618
149.15796 -56.673126 -12.970167 9340286
149.56163 -56.519032 -12.160231 9340539
107.52583 -55.751686 -80.924736 10854034
108.10262 -56.00359 -80.230408 10063494
108.75146 -56.043205 -79.508194 8353135
109.45149 -55.917446 -78.820786 9470840
110.09204 -55.88789 -78.145203 9470839
110.59127 -56.169308 -77.452774 8681835
147.90575 -56.051502 -16.510195 9931905
148.28748 -55.866276 -15.779657 9800320
148.67104 -55.906437 -14.834173 9208955
149.03885 -55.823059 -14.042139 9603458
149.48824 -55.795773 -13.00614 9866373
149.87521 -55.842682 -12.048758 10458254
150.24617 -55.764256 -11.245718 9603202
150.65138 -55.714439 -10.33531 8617335
151.13127 -55.343803 -9.5468044 7564651
106.99073 -54.738373 -81.862984 7827814
107.71939 -54.944035 -81.150787 10195849
108.40365 -54.997543 -80.4534 9537150
109.05451 -55.036499 -79.729317 8550513
109.54631 -55.238701 -79.088127 9800063
148.98334 -55.131233 -14.819159 8682867
149.33167 -55.064911 -14.056532 9077369
149.75095 -54.938118 -13.183374 10326924
150.16794 -54.811768 -12.316111 10655633
150.60025 -54.772915 -11.331446 9406335
150.94518 -54.933601 -10.367567 9604226
151.34479 -54.788181 -9.5592861 9012091
151.79474 -54.718163 -8.561842 9274748
152.23645 -54.438881 -7.7785964 9735043
106.51122 -53.702423 -82.765427 11643294
107.22527 -53.893665 -82.072426 8090986
108.02233 -53.941387 -81.378571 7893607
108.60083 -54.190556 -80.680069 9208186
109.03908 -54.352428 -80.118713 8089963
150.42094 -54.148106 -12.335875 10063496
150.88568 -53.830173 -11.534147 9208443
151.29427 -53.742599 -10.650869 9472641
151.66585 -53.903072 -9.6241589 7893615
152.0423 -53.825951 -8.8069515 9208956
152.48254 -53.801422 -7.7902923 9406334
152.86734 -53.661995 -7.0113235 9472127
153.20657 -53.628151 -6.2269378 10129801
105.37118 -52.654747 -84.229378 11182743
105.87838 -52.928783 -83.670532 10656656
106.69789 -52.863369 -83.012383 10525070
107.54138 -52.902817 -82.283577 9341054
107.9776 -53.24773 -81.750427 6511954
151.71338 -53.0415 -10.313051 7564651
151.98749 -52.98354 -9.7197018 8814714
152.36574 -52.870682 -8.9315701 10853523
152.74454 -52.793056 -8.1092625 10129801
153.20735 -52.773903 -7.0342498 8682355
153.55627 -52.82029 -6.0992446 9340029
153.82742 -52.589741 -5.3376098 10129801
104.92629 -51.593651 -85.114723 9736585
105.36356 -51.929417 -84.585045 11972515
106.18161 -52.045139 -83.840889 9801605
107.02798 -51.895428 -83.200745 11708830
153.03104 -52.083542 -8.0925236 10261641
153.4333 -51.974174 -7.2444396 8946040
153.85016 -51.807083 -6.3740554 9340541
154.14574 -51.802109 -5.2203994 9471871
154.37975 -51.667168 -4.3901534 9538179
154.60909 -51.400536 -3.8014998 10261132
104.36371 -50.641411 -86.046753 10789271
104.87378 -50.90918 -85.488503 9868427
105.71143 -50.948761 -84.764595 11907235
106.41676 -51.187798 -84.055855 10525070
154.064 -51.245914 -6.3821197 9866630
154.3992 -50.924965 -5.5462737 9735043
154.66975 -50.793041 -4.5459991 9406337
154.89102 -50.815308 -3.5095916 9340801
103.79025 -49.603405 -87.029182 10722707
104.4232 -49.854687 -86.375526 10657429
105.22261 -49.884033 -85.688667 8552569
105.91993 -50.170143 -84.964081 10394513
154.72949 -50.187103 -5.2913222 9735043
154.97749 -49.95929 -4.5539184 9340801
155.20312 -49.904282 -3.6275344 8946300
155.45787 -49.727634 -2.7734466 9341057
103.41309 -48.764473 -87.749878 7037274
103.96877 -48.804417 -87.263329 11973030
104.71046 -48.859631 -86.612854 10525843
