# .PCD v0.7 - Point Cloud Data file format
VERSION 0.7
FIELDS x y z rgb
SIZE 4 4 4 4
TYPE F F F U
COUNT 1 1 1 1
WIDTH 1194
HEIGHT 1
VIEWPOINT 0 0 0 1 0 0 0
POINTS 1194
DATA ascii
-150.81902 -68.127052 -20.244228 10129545
-151.54477 -68.04747 -21.085541 9274748
-151.91982 -67.96817 -22.0093 8485488
-151.92012 -67.883743 -23.006363 11117208
-152.65681 -67.808456 -23.870975 10722191
-153.02234 -67.72789 -24.810471 8090987
-153.07191 -67.657616 -25.638901 8090987
-153.74008 -67.56559 -26.703655 9734788
-154.09607 -67.483688 -27.659035 7894126
-154.13297 -67.412636 -28.496586 7892581
-114.04608 -66.407539 70.269066 8353909
-114.55191 -66.790375 69.853729 7235686
-154.83281 -67.31987 -29.397972 9274229
-155.4236 -67.194023 -30.481262 6840151
-155.5927 -67.10051 -31.293808 7827298
-155.75545 -67.006889 -32.107937 7958884
-156.33704 -66.878494 -33.210575 8617074
-157.00647 -66.769028 -34.144466 8814711
-156.96207 -66.672211 -34.994087 7499112
-157.23561 -66.563744 -35.983616 8222065
-158.07587 -66.506706 -36.777634 9931651
-114.17583 -65.574295 70.548965 7235429
-114.87354 -66.004776 70.016556 10985625
-113.65723 -64.423637 71.289322 8616823
-114.28642 -64.808075 70.810768 8419702
-113.836 -63.605923 71.537979 9406080
-114.49293 -63.988213 71.04615 8024942
-113.30785 -62.628174 72.211456 9076601
-114.00993 -62.701477 71.825005 9471874
-112.82292 -61.198776 73.050446 8814201
-113.47264 -61.71714 72.505844 8287857
-113.05906 -60.51149 73.329666 9011580
-113.59814 -60.927231 72.777046 9735046
-112.40902 -59.247288 75.103745 11510937
-112.72858 -59.640812 74.275726 10392972
-113.19519 -60.024147 73.674843 8222321
-107.60493 -58.3466 85.965195 10326924
-108.25877 -58.578632 85.435654 9998213
-108.5015 -58.840004 84.528816 10458762
-108.98448 -58.849007 83.542526 9603711
-109.58456 -58.851082 82.752762 8223089
-109.8635 -58.852875 81.861542 9406848
-109.91688 -58.854713 80.74115 11248279
-110.59299 -58.857113 79.811653 8288109
-111.16616 -58.859177 79.010361 7039331
-111.1041 -58.860638 78.031204 8090990
-111.3522 -58.863876 77.142494 8287342
-111.99301 -58.996113 76.1978 7958377
-112.04491 -59.145805 75.643188 8813942
-107.74193 -57.527039 86.234077 9669250
-108.3736 -57.71191 85.838623 9077369
-107.22253 -56.474644 86.930618 10129545
-107.88708 -56.649376 86.522705 8814453
-108.49094 -56.935787 86.099541 8682867
-107.3201 -55.606956 87.239212 10458509
-107.96473 -55.76107 86.849945 9603459
-106.89351 -54.504711 87.909416 10524301
-107.60124 -54.700832 87.470917 10261128
-107.10429 -53.572197 88.187584 9274491
-107.65022 -53.911072 87.771927 12103072
-106.61482 -52.53091 88.864365 10327179
-107.12405 -52.81258 88.490921 9340539
-106.06236 -51.166214 89.706459 8814201
-106.73409 -51.622871 89.178711 11182230
-107.40618 -52.082451 88.649506 9340539
-106.36022 -50.500141 89.830704 7498857
-106.9457 -50.675526 89.462555 11971487
-105.806 -49.356922 90.582352 11051416
-106.31912 -49.744995 90.162949 8814458
-105.90918 -48.619781 90.834229 12565167
-106.58531 -48.829494 90.406097 9932936
-105.43893 -47.469826 91.546188 8484721
-106.11554 -47.675888 91.119308 9077114
-105.56506 -46.543575 91.864594 8353650
-106.21698 -46.673599 91.481659 8617079
-105.19982 -45.472233 92.621994 8025199
-105.6781 -45.757393 92.165817 8353909
-104.64612 -44.147747 94.48912 8287597
-104.74704 -44.525826 93.669693 8419699
-105.29253 -44.839237 93.098953 7893359
-100.13728 -43.333626 104.48479 10129799
-100.81265 -43.609779 104.07344 7432800
-101.28661 -43.809288 101.93627 9669762
-102.01989 -43.811466 101.20174 9801092
-102.50599 -43.81292 100.70921 9537664
-102.43995 -43.815578 98.962593 8813683
-103.03334 -43.817379 98.343781 8287341
-103.62325 -43.81918 97.721672 8813683
-103.56741 -43.837769 96.033493 9011576
-104.13229 -43.882885 95.628922 9011576
-104.28867 -44.043919 95.004639 9011319
-100.21444 -42.579239 104.7519 10064010
-100.93452 -42.769913 104.35484 8551283
-99.725052 -41.410053 105.43735 8814203
-100.50139 -41.612183 105.01061 9143167
-99.983192 -40.449516 105.70663 9011837
-100.55479 -40.743679 105.33421 8814203
-99.433136 -39.443016 106.3551 8090987
-100.00556 -39.734787 105.98325 8485747
-98.97049 -38.209293 107.05579 10262156
-99.540329 -38.617485 106.63841 9012089
-100.26378 -38.77248 106.25423 9341054
-99.041512 -37.428669 107.33722 10130570
-99.766991 -37.607674 106.9425 9341054
-99.276085 -36.486111 107.61081 10459022
-99.840485 -36.8522 107.21274 9603969
-98.792755 -35.452446 108.24044 10064521
-99.286385 -35.730839 107.9091 11511455
-98.321472 -34.223412 108.94321 11906725
-98.896431 -34.625446 108.526 9406334
-99.517784 -34.853409 108.15798 10261643
-98.389015 -33.441315 109.22673 12564138
-99.063843 -33.614574 108.85687 10787729
-98.545715 -32.489704 109.5386 10326660
-99.021873 -32.843002 109.18504 10655625
-97.993713 -31.551273 110.16069 10063488
-98.559998 -31.73385 109.8354 10326660
-97.591675 -30.261482 111.04325 9011059
-98.136803 -30.675949 110.49693 9405815
-98.809799 -31.033411 110.00514 10655625
-97.302406 -29.328444 112.06413 8353130
-97.7313 -29.691544 111.47047 8616302
-98.26265 -29.964289 110.99488 9011059
-93.140976 -28.457706 122.39211 8419701
-93.752686 -28.523279 122.09456 8617080
-94.221558 -28.771929 119.40004 10064006
-94.938217 -28.773821 118.83051 9800320
-95.629112 -28.7798 115.64465 8089963
-96.184448 -28.781301 115.18246 8814709
-96.875999 -28.783178 114.60144 8090986
-96.926765 -28.980042 113.27224 7696228
-97.556335 -29.0068 112.90334 10261124
-92.755882 -27.300873 123.02528 10195852
-93.370834 -27.658653 122.60941 8090994
-92.869324 -26.483957 123.30136 11445918
-93.485733 -26.650036 122.96156 8617080
-92.247353 -25.573742 123.94106 11445918
-92.903244 -25.631243 123.62708 11050904
-92.466621 -24.47337 124.28347 9669509
-92.999466 -24.950798 123.85626 10327438
-91.976784 -23.541607 124.87313 7367271
-92.640976 -23.440895 124.6187 8485230
-92.073555 -22.588213 125.21116 7103837
-92.634399 -22.691208 124.92119 6511954
-91.64814 -21.45689 125.85197 8222060
-92.218948 -21.675898 125.51123 7498591
-91.69957 -20.594213 126.17463 8617074
-92.35569 -20.803032 125.80011 8485229
-91.242264 -19.488415 126.82111 10129798
-91.821762 -19.781904 126.44658 9143161
-90.799332 -18.306396 127.49189 9406332
-91.45787 -18.513126 127.11713 9472125
-92.074791 -18.908543 126.68505 10129798
-90.789185 -17.54982 127.80013 8946039
-91.490234 -17.567871 127.48226 9406332
-90.551376 -16.216955 128.44057 11906725
-91.044891 -16.65057 128.04779 10196106
-90.539658 -15.410855 128.89107 9603969
-91.141838 -15.725373 128.39914 9011832
-90.199295 -14.493505 129.78384 10392717
-90.90538 -14.606667 129.37721 9078141
-88.763428 -13.741931 133.60136 8881278
-89.285339 -14.001715 131.28018 9406078
-89.978455 -14.012918 130.93875 9866373
-119.45525 -75.359055 59.607494 7564642
-120.08704 -75.599197 59.067524 7827814
-120.43735 -75.926643 58.119141 8222573
-120.80476 -75.898132 57.224121 6840408
-121.13803 -75.852371 56.313995 6840408
-121.46497 -75.806931 55.40221 9077882
-121.83813 -75.754257 54.336487 8353647
-122.20312 -75.702019 53.268776 7300702
-122.5089 -75.657593 52.351974 11312789
-123.14037 -75.599205 51.572495 8879737
-123.43404 -75.555283 50.650307 7038050
-123.72139 -75.511665 49.726799 7431776
-124.14613 -75.464684 48.944405 7760741
-124.60812 -75.408813 48.003155 6839895
-124.83108 -75.338448 47.056046 8418928
-125.034 -75.260307 46.103462 9932167
-118.82748 -74.378906 61.270958 8288627
-119.31754 -74.58271 60.746521 8617591
-119.75846 -74.942001 59.937542 7762279
-125.58908 -75.193718 45.736004 11380126
-125.62841 -75.139229 44.952202 9341314
-126.15051 -75.044205 44.113091 8354677
-126.34035 -74.972031 43.157444 11906725
-126.82918 -74.89489 42.235157 8683898
-127.13527 -74.836052 41.454296 9012606
-127.61139 -74.759338 40.524071 9341059
-127.79301 -74.698601 39.567497 13024949
-128.31567 -74.623238 38.715164 9077627
-128.64453 -74.560524 37.886063 7432545
-129.02086 -74.478104 36.733994 9209467
-129.37662 -74.400948 35.658703 8814457
-129.77161 -74.314468 35.095581 7761255
-116.68707 -73.482529 65.974762 15722454
-117.32589 -73.611237 65.45697 8024943
-117.8227 -73.872139 64.57267 8551283
-117.90153 -73.851051 63.513416 8354163
-118.50243 -73.981735 62.463467 7038307
-118.95589 -74.093056 61.771767 7762284
-119.60684 -74.12355 61.307434 8288627
-129.94147 -74.209099 34.470261 7037274
-130.2108 -74.087524 33.803852 10853266
-130.63416 -73.942513 32.974773 15984604
-131.00198 -73.837402 31.995098 13879999
-131.31491 -73.754585 31.217779 9538691
-131.56609 -73.655128 30.191481 9210238
-132.05522 -73.557755 29.367058 7038047
-132.40024 -73.455353 28.374577 8418921
-132.80968 -73.355385 27.459789 6774357
-133.20007 -73.283401 26.871685 7958120
-116.79704 -72.614716 66.282242 9801608
-117.561 -72.700302 65.78299 9012093
-133.21794 -73.241508 26.374723 7234397
-133.54253 -73.155212 25.537203 7300703
-134.01572 -73.063492 24.691824 11840677
-134.34113 -72.967468 23.682154 13880772
-134.80537 -72.876129 22.827578 13156536
-135.11801 -72.780197 21.810047 9011579
-135.57217 -72.68866 20.946123 9932421
-135.75909 -72.602776 19.971476 8288111
-136.33818 -72.524994 19.218288 8879991
-136.54071 -72.442322 18.07402 9800581
-137.06282 -72.348801 17.471348 9538176
-116.37658 -71.658112 66.908875 9406590
-117.10527 -71.676674 66.504036 10261900
-117.49565 -72.168709 66.055237 8814715
-137.019 -72.283485 16.795189 9209467
-137.36154 -72.215401 16.333393 9209467
-137.67599 -72.114784 15.530375 9341055
-138.05568 -72.000237 14.630389 10130063
-138.4476 -71.862663 13.509006 6971997
-138.74887 -71.761772 12.695155 6840151
-139.09563 -71.643936 11.741847 8353902
-139.50266 -71.525322 10.817931 7695972
-140.02489 -71.43396 10.010047 8683124
-140.13834 -71.349998 9.0006666 8025196
-116.5457 -70.622154 67.251991 8748660
-117.16035 -70.800011 66.85717 10854036
-140.49901 -71.299065 8.5144491 7564651
-140.85667 -71.247948 8.0247488 7564651
-140.95801 -71.16391 7.0088763 8880509
-141.4798 -71.080307 6.1807475 10787985
-141.92009 -70.990288 5.2292018 9472380
-142.08788 -70.914787 4.3217959 9669761
-142.59442 -70.826256 3.3912499 8748660
-142.95009 -70.737648 2.3948243 6511954
-143.39705 -70.661224 1.5962174 8418925
-143.66933 -70.57238 0.56026393 8813171
-143.93332 -70.48362 -0.47851631 10392458
-144.66016 -70.399796 -1.1781967 7039331
-144.50737 -70.330208 -1.8733871 7039331
-116.02644 -69.583084 67.947289 8880246
-116.7398 -69.707985 67.533707 7235421
-144.85895 -70.282494 -2.2271278 7039331
-145.08368 -70.180222 -3.1045196 7433062
-145.74045 -70.065468 -3.9972122 7893356
-145.79863 -69.960526 -4.9366803 8222321
-146.36774 -69.843658 -5.8684239 6775133
-146.77162 -69.724464 -6.8585477 7169891
-147.13885 -69.622017 -7.7052884 7827303
-147.17264 -69.516525 -8.6551867 6379601
-147.8606 -69.416084 -9.410924 6051151
-115.6344 -68.210739 68.715508 9143425
-116.17998 -68.69381 68.23835 8156526
-116.81294 -68.729385 67.902611 7959144
-147.65741 -69.343857 -10.112668 5393738
-148.44638 -69.27858 -10.526143 5722703
-148.46425 -69.171852 -11.486768 7893099
-148.80659 -69.065529 -12.354859 9011323
-149.42822 -68.941887 -13.313195 11970720
-149.99106 -68.798843 -14.45704 7761772
-150.04102 -68.708084 -15.252995 7038307
-150.36894 -68.599869 -16.140553 7827817
-151.0415 -68.491676 -16.949425 10459278
-150.79395 -68.41832 -17.65789 9735555
-115.74338 -67.562263 68.92926 8485496
-116.40849 -67.723633 68.524979 7564650
-151.58954 -68.345856 -18.121464 8617331
-151.33504 -68.272552 -18.830894 7958376
-151.95581 -68.152512 -19.838253 7037274
-152.70644 -68.078041 -20.685261 7498081
-152.46786 -68.018105 -21.401516 7498593
-153.09328 -67.9133 -22.618584 8946039
-153.84267 -67.837585 -23.48756 11050899
-153.58873 -67.77742 -24.206474 12037793
-154.26941 -67.685738 -25.266857 8288367
-154.63574 -67.603981 -26.220581 8485749
-154.68085 -67.532784 -27.059238 8814457
-155.35492 -67.439201 -28.14249 7893096
-115.28362 -66.424698 69.634338 12432045
-115.81812 -66.708473 69.24556 8551288
-116.46419 -66.930206 68.825905 7564651
-156.00482 -67.334251 -29.231731 8353130
-155.75681 -67.273994 -29.768227 7892581
-156.43607 -67.167038 -30.679966 8550763
-156.94498 -67.018799 -31.959415 8879471
-157.62494 -66.909706 -32.889862 7762027
-157.36087 -66.849297 -33.428394 8485747
-157.94777 -66.718903 -34.548519 8222576
-158.57556 -66.605042 -35.687992 8484979
-158.3266 -66.555847 -36.233536 9931651
-159.17963 -66.499504 -37.034504 9931651
-115.37467 -65.576935 69.939873 12695985
-116.08006 -65.825478 69.479027 9933196
-114.90519 -64.401474 70.665649 8814457
-115.52382 -64.761589 70.202515 10393487
-116.17122 -64.97628 69.785126 7564651
-115.08074 -63.581547 70.916794 7038047
-115.71507 -63.816006 70.497841 9735558
-114.57327 -62.625099 71.570946 9866374
-115.26704 -62.703815 71.186478 6314581
-114.68198 -61.640781 71.924194 8222579
-115.3065 -61.791672 71.544876 7169635
-114.28468 -60.563251 72.683083 9866375
-114.94849 -60.738079 72.217659 8222579
-113.56092 -59.27462 74.431007 8814201
-113.97682 -59.542587 73.792419 7038307
-114.5323 -59.861507 73.138878 10129803
-109.4871 -58.520264 84.906357 10327177
-109.9135 -58.820976 84.085968 9011833
-110.53892 -58.851933 83.055458 8156787
-110.81639 -58.853733 82.156601 9933195
-110.76764 -58.855236 81.160248 9143679
-111.35049 -58.857311 80.357597 8814969
-111.92754 -58.859383 79.550781 7039331
-112.2303 -58.8615 78.472061 9077371
-112.295 -58.863293 77.395409 8813942
-112.85062 -58.865345 76.581818 7958377
-113.22664 -58.976707 75.648529 9603458
-113.71123 -59.07692 75.05204 10590351
-108.99637 -57.6996 85.52906 11511193
-109.72769 -57.593143 85.203445 9012088
-108.56998 -56.346741 86.302521 8616822
-109.22328 -56.702991 85.825485 8353649
-109.84769 -56.814175 85.464157 7038298
-108.70671 -55.527081 86.571533 8156272
-109.34467 -55.709373 86.174026 7301477
-108.18069 -54.477142 87.270401 10655886
-108.85174 -54.64925 86.860367 9142909
-109.46171 -54.933201 86.435028 6511962
-108.27773 -53.609329 87.579391 10919056
-108.9286 -53.760803 87.187958 8748407
-107.84544 -52.508766 88.251747 9340539
-108.49654 -52.656925 87.861641 8879989
-109.06787 -53.063328 87.405251 9340539
-108.00097 -51.578621 88.556824 9274747
-108.5918 -51.789948 88.171165 7564643
-107.41495 -50.585194 89.262756 12037280
-108.05603 -50.752956 88.869614 10458765
-107.00204 -49.172565 90.05397 8814201
-107.68047 -49.626747 89.523911 11840159
-108.35941 -50.083832 88.992348 9208443
-107.28197 -48.442772 90.213623 11775139
-107.79839 -48.717777 89.839279 12696240
-106.58426 -47.341564 91.020378 8090995
-107.26049 -47.659786 90.547546 11183772
-106.84482 -46.624733 91.184967 8090995
-107.50119 -46.757439 90.798965 9407364
-106.3837 -45.455254 92.03125 9603973
-107.08784 -45.693966 91.50106 9670535
-105.48808 -44.217682 93.875031 9406339
-106.09397 -44.461823 93.125992 7959152
-106.63033 -44.725616 92.542007 10261390
-107.20647 -45.007793 91.991867 10262670
-101.55283 -43.122604 103.93832 6512211
-102.0004 -43.553905 103.47962 7038299
-102.44086 -43.809841 102.60181 8748917
-103.05639 -43.811676 101.98322 9076857
-102.86877 -43.814007 100.33815 9537664
-103.47044 -43.815826 99.716827 9011319
-104.18764 -43.818001 98.96653 9734270
-103.97543 -43.820259 97.346756 9537403
-104.4425 -43.821701 96.844543 10721164
-105.13895 -43.82386 96.087357 9010806
-105.4433 -43.91523 95.069534 9010806
-106.10308 -44.043022 94.192642 10064011
-101.6071 -42.551998 104.14227 8946296
-102.30243 -42.57077 103.82494 8748917
-101.15443 -41.461727 104.7798 10721683
-101.77112 -41.70414 104.4081 9669763
-101.25089 -40.482151 105.12919 9866632
-101.84486 -40.810703 104.73306 10392717
-100.68057 -39.439152 105.80137 7564651
-101.40399 -39.54353 105.43746 9735046
-100.89719 -38.638073 106.02619 9340798
-101.58542 -38.624477 105.72527 8617075
-100.43796 -37.382305 106.73419 12432037
-101.02222 -37.753441 106.32529 9866883
-100.48834 -36.503689 107.06416 11774108
-101.16428 -36.696621 106.68587 11379607
-100.00021 -35.609905 107.63989 10788243
-100.66322 -35.529915 107.3768 9866883
-100.14297 -34.643932 107.96371 9274492
-100.90519 -34.785172 107.56783 10261643
-99.721359 -33.433586 108.63678 9142907
-100.32323 -33.749317 108.24222 8221549
-99.205933 -32.138542 109.38555 9208435
-99.785492 -32.539959 108.9666 8879731
-100.41185 -32.766453 108.59698 9142907
-99.390427 -31.432907 109.58643 10655625
-99.976868 -31.594425 109.26059 9077109
-98.914764 -30.343403 110.38667 9208435
-99.426666 -30.720913 109.88966 11445400
-98.454079 -29.412437 111.38927 7760994
-99.039352 -29.714659 110.85881 8419180
-99.590912 -30.046574 110.33575 9932681
-94.443085 -28.556007 121.77515 9143678
-95.209389 -28.648624 121.34996 8681843
-95.793846 -28.776096 118.14149 8418928
-96.644424 -28.778374 117.44629 7826791
-97.426514 -28.784681 114.13349 8090986
-98.111427 -28.786564 113.54472 7959143
-98.186424 -29.034126 112.53238 8550509
-98.974274 -29.06884 112.06655 7037274
-94.007759 -27.418409 122.42293 7564646
-94.603355 -27.678709 122.05463 8354159
-94.12439 -26.408268 122.77477 8880247
-94.742126 -26.767485 122.35721 7893607
-93.638329 -25.47473 123.36348 10064010
-94.356506 -25.604406 122.99306 8617076
-93.739395 -24.522875 123.69901 9208959
-94.359367 -24.88076 123.28094 8288116
-93.318619 -23.390938 124.33803 8617080
-93.888878 -23.612478 123.99651 9537667
-93.373451 -22.529764 124.65784 8485230
-94.029106 -22.741453 124.28235 8617080
-92.919846 -21.423542 125.30136 7301212
-93.560776 -21.703474 124.90504 10129797
-92.523636 -20.054707 126.02615 8485229
-93.06955 -20.448957 125.62598 9142903
-93.755203 -20.848682 125.1617 12432037
-92.474609 -19.486967 126.27573 8682867
-93.175903 -19.508173 125.95656 9932420
-92.68502 -18.547598 126.5596 9208440
-92.192459 -17.586374 127.16371 8945525
-92.896027 -17.605358 126.84441 9997185
-91.605705 -16.241974 127.96336 9735555
-92.296783 -16.63933 127.4977 8354159
-92.846588 -17.033966 127.09566 8616560
-91.270256 -15.10849 128.79665 8288627
-91.883331 -15.446966 128.26678 7959663
-92.549774 -15.758174 127.75802 7169891
-91.561676 -14.46535 129.20523 9867911
-91.964836 -14.75267 128.78694 9538947
-89.886108 -13.744678 132.84882 8223604
-90.684135 -13.746644 132.3055 7564651
-90.672089 -14.02422 130.59641 9143681
-91.366058 -14.03596 130.25273 10196367
-120.72275 -75.407257 58.973736 7564642
-121.27692 -75.577499 58.52243 7169884
-121.7476 -75.83046 57.669628 7564131
-122.20538 -75.805023 56.706615 9011833
-122.48535 -75.756676 55.612099 7695717
-122.88421 -75.704994 54.624577 7564131
-123.1982 -75.659897 53.701523 7564131
-123.50585 -75.615105 52.777016 8616566
-124.14185 -75.556297 51.990913 9668738
-124.4373 -75.512039 51.060974 6840669
-124.72633 -75.468102 50.129765 6971225
-125.00902 -75.424431 49.197174 7432032
-125.27957 -75.377747 48.261204 7168861
-125.8341 -75.286652 47.433205 10129541
-125.668 -75.238533 46.508583 10261132
-120.05378 -74.219643 60.808239 7038307
-120.48315 -74.523132 60.298553 7564645
-120.93311 -74.890594 59.487736 6906712
-121.56818 -74.970955 59.022903 6511954
-126.37384 -75.190437 46.596256 9208435
-126.60302 -75.098991 45.472176 10459537
-127.01456 -74.995987 44.328293 9999243
-127.37383 -74.929352 43.509563 10788245
-127.73211 -74.865349 42.68877 9143165
-128.11707 -74.791252 41.705597 9734787
-128.49609 -74.717308 40.718761 11182745
-128.83786 -74.65387 39.890137 10590608
-129.36392 -74.577927 39.03059 8222316
-129.53317 -74.517357 38.062672 7366751
-129.98947 -74.440659 37.110229 7695972
-130.26639 -74.382423 36.308437 9011320
-130.62421 -74.281525 35.494251 9208443
-118.60838 -73.448715 64.816216 8748920
-119.06004 -73.795967 64.004303 7893614
-119.48395 -73.856102 63.07132 7235685
-119.8933 -73.893738 62.257545 7499113
-120.18702 -74.066147 61.239098 7959663
-120.8278 -74.127922 60.652031 8354163
-130.62442 -74.210533 34.987968 9208443
-131.03491 -74.097809 34.489246 9011320
-131.32455 -73.942368 33.485168 14406086
-131.8311 -73.842247 32.668449 14866380
-132.20007 -73.738686 31.680357 9538435
-132.52132 -73.628769 30.578114 8552051
-133.05734 -73.537094 29.858667 7827817
-133.26799 -73.428787 28.694191 7300702
-133.8922 -73.335449 28.019325 7564651
-133.92003 -73.279037 27.352367 6971738
-118.14005 -72.657028 65.448296 8025201
-118.90297 -72.673698 64.975113 8354164
-119.38857 -73.089706 64.496704 8814713
-133.94521 -73.223221 26.685955 5919050
-134.53098 -73.147987 26.129103 6971738
-134.75165 -73.060951 25.162729 10392974
-135.22853 -72.968941 24.308529 14143687
-135.55087 -72.87233 23.289343 10985111
-136.01773 -72.780144 22.425674 8485236
-136.32715 -72.68367 21.398699 11379606
-136.78384 -72.591263 20.525503 9274748
-137.11293 -72.512077 19.495411 8090987
-137.5024 -72.428528 18.537457 8879991
-137.83025 -72.327316 17.737389 9209467
-117.75684 -71.472359 66.200165 8814715
-118.33534 -71.631821 65.777199 9077886
-118.84942 -71.967506 65.316498 7564651
-137.79745 -72.277985 17.227173 9209467
-138.27461 -72.208588 16.835506 10854548
-138.44904 -72.091927 15.78617 10524817
-139.14714 -71.970573 15.016929 14076870
-139.36079 -71.850067 13.953708 9998219
-139.73299 -71.734596 13.039634 6840151
-140.10179 -71.618889 12.120929 7169372
-140.30919 -71.506676 11.049987 8288365
-141.07234 -71.431023 10.42612 7104091
-140.98439 -71.35228 9.3956823 8617332
-117.78088 -70.66494 66.538475 10722451
-118.59248 -70.779671 65.992706 11380124
-141.77655 -71.302116 9.1050711 8092011
-141.71143 -71.249603 8.4156599 8156787
-141.89642 -71.171623 7.5118518 7696747
-142.3439 -71.080917 6.561729 8485742
-142.79018 -70.990257 5.6053996 7893354
-142.96118 -70.914215 4.6927104 6643542
-143.53149 -70.832626 3.8805192 7761254
-143.8356 -70.735916 2.7559464 8222060
-144.2885 -70.659004 1.9534104 8089963
-144.59091 -70.58213 1.0864441 8418671
-144.86034 -70.492729 0.041583341 8682613
-145.58063 -70.401169 -0.83531255 6510930
-145.45383 -70.343788 -1.5354431 6510930
-117.39566 -69.591766 67.238289 7959144
-118.11826 -69.656845 66.773117 11841187
-118.56932 -70.159554 66.277908 13024949
-145.8098 -70.295738 -1.8907058 8090218
-146.0385 -70.192818 -2.7733047 8485490
-146.70393 -70.077385 -3.670285 7433572
-146.7646 -69.97171 -4.6157231 8222319
-147.14235 -69.869751 -5.4555707 6380632
-147.75172 -69.734184 -6.5479817 7827819
-148.12463 -69.631035 -7.3994336 7234653
-148.16068 -69.524826 -8.3554468 6313551
-148.85771 -69.423798 -9.1146898 8550768
-148.65367 -69.350983 -9.8214655 8090986
-117.01017 -68.215248 68.015907 7038307
-117.497 -68.730385 67.544601 8486005
-118.22665 -68.796371 67.083084 8946556
-149.4521 -69.285385 -10.235959 6972762
-149.4724 -69.177979 -11.202859 8288625
-149.82034 -69.07106 -12.075986 7762797
-150.50778 -68.965065 -12.861726 7762797
-150.50858 -68.855392 -13.836671 8617077
-150.84607 -68.747093 -14.723054 6643543
-151.46838 -68.620712 -15.705323 8879990
-152.02806 -68.474846 -16.875099 9800581
-151.77847 -68.401077 -17.587975 9143675
-117.12154 -67.563736 68.229683 7104100
-117.83379 -67.72953 67.782738 7169893
-152.64668 -68.346535 -17.875286 9340030
-152.39096 -68.272736 -18.589863 8287600
-153.11646 -68.183441 -19.427666 7893099
-153.32253 -68.101036 -20.393459 8682355
-153.52113 -68.018578 -21.360931 8485488
-154.27977 -67.943291 -22.224842 9011832
-154.03125 -67.882851 -22.947113 10459278
-154.72267 -67.791458 -24.003414 8946039
-155.41484 -67.699188 -25.070374 9603713
-155.15074 -67.638496 -25.795361 9734788
-155.83569 -67.545219 -26.874565 9274494
-156.59093 -67.466225 -27.782642 8156012
-156.31154 -67.40538 -28.510445 8353130
-116.72393 -66.247429 68.977501 9143681
-117.13152 -66.692696 68.585991 7827823
-117.85133 -66.931442 68.121948 7038307
-156.93974 -67.287918 -29.602673 8221544
-157.54498 -67.15995 -30.700783 8747885
-157.71886 -67.065147 -31.524734 9208435
-157.8875 -66.970215 -32.349686 7827298
-158.48468 -66.840012 -33.467735 7762027
-159.26164 -66.749298 -34.233654 7038307
-158.90643 -66.671402 -34.95903 7038307
-159.60062 -66.581978 -36.120766 9405565
-160.29665 -66.492226 -37.294518 8616561
-116.75263 -65.566223 69.245522 8354166
-117.46511 -65.819046 68.779274 9933196
-116.27086 -64.25573 70.033501 8617336
-116.83762 -64.734818 69.547333 7696237
-117.55888 -64.965714 69.085777 12433069
-116.45932 -63.559025 70.226982 9735558
-117.09996 -63.797283 69.803246 7564651
-115.9648 -62.321945 70.99102 12433069
-116.50582 -62.715702 70.553299 9209213
-116.06017 -61.60638 71.239525 10853780
-116.69093 -61.760521 70.855721 11050641
-115.66448 -60.493034 72.020508 8353905
-116.22591 -60.761871 71.559235 9209210
-114.67613 -59.280384 73.852707 7038307
-115.28323 -59.455853 73.217171 9735297
-115.72576 -59.891251 72.508972 8814196
-110.85931 -58.512363 84.252518 8090733
-111.30325 -58.852089 83.629021 7564651
-111.76125 -58.854328 82.613518 11643298
-111.72622 -58.856113 81.44912 11380123
-112.31114 -58.858204 80.639542 12432037
-112.89017 -58.860287 79.825806 7631210
-113.31665 -58.862492 78.805191 9011834
-113.25124 -58.864216 77.652222 10064265
-113.8087 -58.866283 76.831726 10064265
-114.36027 -58.868351 76.007217 6840925
-114.67847 -58.954319 75.030403 7301217
-115.15405 -59.125195 74.159637 6840919
-110.19989 -57.515255 84.996971 8485488
-110.8774 -57.731232 84.565567 8748660
-110.52397 -56.571533 85.222534 8617074
-111.10323 -57.041367 84.736053 9932934
-109.95709 -55.62262 85.900345 7695977
-110.60455 -55.675465 85.55143 10854036
-109.52478 -54.220779 86.696991 9734788
-110.13768 -54.686722 86.195152 7564648
-109.67715 -53.523865 86.907524 9011578
-110.32143 -53.703503 86.507889 9275773
-109.14454 -52.47604 87.608849 8156525
-109.79299 -52.717957 87.181381 7959916
-109.24113 -51.607685 87.918243 8814459
-109.92384 -51.832668 87.480476 7564651
-108.80325 -50.508575 88.592865 13221813
-109.46061 -50.654057 88.200706 9735303
-108.87502 -49.624443 88.921288 10458509
-109.5555 -49.786217 88.510696 10064268
-108.36617 -48.585552 89.606911 13683392
-109.01347 -48.750797 89.211761 10590352
-107.94829 -47.173737 90.401215 11381404
-108.60003 -47.588219 89.900955 13025206
-109.16045 -48.057266 89.42421 10458766
-108.18146 -46.42363 90.593933 10920598
-108.70641 -46.685284 90.220901 10261644
-107.77641 -45.402081 91.361237 10262670
-108.18302 -45.715027 90.938248 10722706
-107.20609 -44.128468 93.341385 10064011
-107.37414 -44.39949 92.583801 10590610
-107.95239 -44.8102 91.788162 10262412
-102.71492 -43.247017 103.37083 9735812
-103.42115 -43.531094 102.94255 9997960
-103.42392 -43.812775 101.61035 8681843
-103.91159 -43.814243 101.1107 9011577
-104.63884 -43.816441 100.35718 9602942
-104.89943 -43.820183 98.211067 9142390
-105.60576 -43.822361 97.450539 9799808
-106.1902 -43.824181 96.813004 9734527
-106.05926 -43.826744 95.070129 10458249
-106.72108 -43.866203 94.510742 10064011
-106.99979 -44.037205 93.766846 9603717
-102.93784 -42.444485 103.59228 9077626
-103.53894 -42.75713 103.19946 10063753
-102.53388 -41.421387 104.18146 7038298
-103.06966 -41.55706 103.8886 9143163
-102.50318 -40.644684 104.50658 8156523
-103.20756 -40.646832 104.19212 9143163
-102.0627 -39.390217 105.2057 9735043
-102.68468 -39.63084 104.83237 10195338
-103.25855 -40.048931 104.40918 8090730
-102.27379 -38.463303 105.4835 8222317
-102.79896 -38.798775 105.1152 10458510
-101.58467 -37.363823 106.23118 8090987
-102.27798 -37.626617 105.81716 8090731
-101.82959 -36.619553 106.42065 8880246
-102.44875 -36.719193 106.10506 8814709
-101.32823 -35.450207 107.11276 8880246
-102.00826 -35.64286 106.73279 8814709
-101.57198 -34.438789 107.40991 8419952
-102.08482 -34.882046 107.00381 8618099
-101.02644 -33.473858 108.03963 8550514
-101.54201 -33.694599 107.72163 8353391
-100.55219 -32.236618 108.74692 9537665
-101.13393 -32.640659 108.32596 10261644
-101.76328 -32.869247 107.95413 8813686
-100.62299 -31.448547 109.03149 8617335
-101.3067 -31.621952 108.65761 9735044
-100.33392 -30.263767 109.82312 10392718
-100.70306 -30.55776 109.43187 8617849
-101.26646 -30.844532 108.98733 8089963
-99.447067 -29.089989 111.7859 7563619
-99.959015 -29.222029 111.17062 8222577
-100.27028 -29.748602 110.2838 9341058
-95.923584 -28.374212 121.15388 7563362
-96.324036 -28.698215 120.56387 7958120
-96.822273 -28.774599 119.99842 7234397
-97.489983 -28.780651 116.74498 8550770
-98.330437 -28.782938 116.03759 7367264
-99.015549 -28.813847 112.93149 9998214
-99.808052 -28.848722 112.46309 7563619
-95.263733 -27.289455 121.9172 8617331
-95.785225 -27.687634 121.52673 7827046
-95.374588 -26.493206 122.1862 8419952
-96.024506 -26.669903 121.82728 8090986
-94.825394 -25.399593 122.86684 6511954
-95.479279 -25.615051 122.49071 8090986
-95.051895 -24.61236 123.08096 7038302
-95.69606 -24.685932 122.76576 7169885
-94.491013 -23.416468 123.80768 8617080
-95.201797 -23.585165 123.42491 7761512
-94.677643 -22.550404 124.07097 8616565
-95.42926 -22.793913 123.6402 7958376
-94.219002 -21.524454 124.68501 9076857
-94.874268 -21.69577 124.3259 8221548
-94.318413 -20.447683 125.07317 9603202
-94.808411 -20.884205 124.68082 8813686
-93.87854 -19.529802 125.63655 9537409
-94.582489 -19.551939 125.31577 9866374
-93.296989 -18.185938 126.43365 10851980
-93.916374 -18.583296 125.99974 9866116
-94.578568 -18.793051 125.62213 8813686
-93.643631 -17.435585 126.58131 10260357
-94.139099 -17.601566 126.29519 9734271
-93.015869 -16.276739 127.32471 7564643
-93.604172 -16.625252 126.92412 9142647
-93.142754 -15.362623 127.77151 8748405
-93.686066 -15.722476 127.27248 9405562
-92.408203 -14.053924 129.7352 10855060
-92.738831 -14.464749 128.77408 9143934
-93.374855 -14.659188 128.24191 8288627
-89.199646 -13.518899 138.92484 7564651
-91.161362 -13.747825 131.9772 9143681
-91.795639 -13.749399 131.53642 11314590
-92.428055 -13.750978 131.09314 10788247
-122.62794 -75.505005 57.981499 6182478
-123.22763 -75.748917 56.922771 7366752
-123.56564 -75.708481 55.999153 7103324
-123.88799 -75.66272 55.069794 7037274
-124.20403 -75.617325 54.138954 7564131
-124.51354 -75.572189 53.206619 8089963
-124.81667 -75.52739 52.272884 9406079
-125.11332 -75.482903 51.337711 8221805
-125.69582 -75.423943 50.447922 7958633
-126.02917 -75.379974 49.597725 7037274
-126.29468 -75.328987 48.651302 8484714
-126.81335 -75.247566 47.975784 9208435
-121.79635 -74.513924 59.67638 8090731
-122.27468 -74.906593 58.846043 6577491
-123.00301 -75.069351 58.261326 6972762
-126.91672 -75.207771 47.491421 9208435
-127.05177 -75.155029 46.845627 8814451
-127.53573 -75.056549 45.910053 8552313
-127.79133 -74.985077 45.031013 8881021
-128.34996 -74.907234 44.187645 11380638
-128.58754 -74.834297 43.060429 10261387
-129.11151 -74.74585 41.959476 9142906
-129.41661 -74.68631 41.16423 10656657
-129.89409 -74.608604 40.216309 9603969
-130.0703 -74.547386 39.243156 7761765
-130.59621 -74.470947 38.374172 6642516
-130.92429 -74.407448 37.529778 7366751
-131.26872 -74.331978 36.519135 9208443
-131.31296 -74.259827 35.850739 8484720
-119.78438 -73.463959 64.091431 9077884
-120.48868 -73.604683 63.599789 9735812
-120.87023 -73.864777 62.597961 8617591
-121.1169 -73.875061 61.711582 8157042
-121.5107 -73.992874 60.81123 9933192
-122.05589 -74.134262 59.98502 10064265
-131.72935 -74.175049 35.555592 8287341
-132.00212 -74.02317 34.675316 8419183
-132.41011 -73.896622 33.761185 9209470
-132.85571 -73.795128 32.853939 9012091
-133.11923 -73.693825 31.814865 9669251
-133.54269 -73.606743 31.066895 8090730
-133.79185 -73.505882 30.023001 7367269
-134.2861 -73.406998 29.183472 9406853
-134.63185 -73.3032 28.173655 10656663
-119.36475 -72.306114 64.853745 9735812
-119.91811 -72.658112 64.362022 9077884
-120.57388 -72.749527 63.921604 9867398
-135.05373 -73.206947 27.244488 8024426
-135.47064 -73.112 26.311008 8616307
-135.69385 -73.024338 25.338051 10392974
-136.28482 -72.935234 24.599751 9669251
-136.49931 -72.834389 23.451736 8616307
-137.08089 -72.758194 22.872004 8682357
-137.2428 -72.656479 21.677269 10721678
-137.85765 -72.567627 20.957964 8814199
-137.88904 -72.50856 19.944363 9603458
-138.36339 -72.427139 19.060677 8813941
-138.61496 -72.322365 18.177479 9209467
-119.41473 -71.610458 65.127365 8880506
-120.13343 -71.747841 64.628441 9604226
-138.96724 -72.253387 17.712887 8946039
-139.11856 -72.185829 17.136166 11249306
-139.42264 -72.05899 16.066635 13748673
-139.93336 -71.946854 15.272002 13090999
-140.36816 -71.826614 14.350043 10524817
-140.72903 -71.707077 13.388251 6708822
-141.0408 -71.60788 12.561118 7498337
-141.15346 -71.510071 11.458312 7893614
-141.91101 -71.420769 10.659667 8551542
-141.8231 -71.34156 9.6227827 7038307
-119.01126 -70.407196 65.899796 10788243
-119.64955 -70.710129 65.377571 8814453
-120.19146 -70.988945 64.924721 8814454
-142.63863 -71.304184 9.5051413 8092011
-142.57405 -71.251381 8.8112059 8092011
-142.88977 -71.159874 7.7938991 8092011
-143.19725 -71.068405 6.7734561 6840926
-143.7514 -70.996788 6.1054721 7827307
-143.84256 -70.913673 5.0681987 7893356
-144.58517 -70.823814 4.2224689 11314328
-144.72925 -70.734245 3.1214402 8089963
-145.18822 -70.656853 2.3151009 9274235
-145.64673 -70.579041 1.5031388 8682099
-145.76949 -70.48941 0.39266136 8945271
-146.49872 -70.397293 -0.48800346 8090218
-146.38702 -70.346741 -1.192971 8090218
-119.1434 -69.595741 66.173813 9932934
-119.80006 -69.801575 65.682808 10064264
-146.76398 -70.306282 -1.5498016 8879990
-147.04526 -70.224045 -2.2613189 8353903
-147.47704 -70.104797 -3.2459152 7959402
-147.74034 -69.983116 -4.2905278 7236194
-148.12378 -69.880501 -5.1349683 8288369
-148.50604 -69.777374 -5.984612 5920082
-149.00224 -69.657066 -6.9640546 7498082
-149.15895 -69.53334 -8.0516062 10392457
-149.86511 -69.431679 -8.8143206 12103329
-149.66026 -69.358421 -9.5261736 9209467
-118.64798 -68.526031 66.943977 8880763
-119.30949 -68.763184 66.436363 9406847
-150.46849 -69.292404 -9.9418802 5920074
-150.25659 -69.21907 -10.655057 7696228
-150.89998 -69.095306 -11.614533 7039331
-151.48454 -68.951355 -12.7618 10524560
-151.54427 -68.859634 -13.564092 9800577
-151.88741 -68.750587 -14.45567 8090216
-152.51913 -68.623329 -15.443448 8221804
-152.56653 -68.531036 -16.253422 9603202
-152.89935 -68.420692 -17.158401 9340030
-118.31094 -67.426559 67.63047 7038307
-118.91695 -67.629066 67.171822 10789268
-119.49483 -67.984795 66.663422 9801605
-153.58778 -68.310524 -17.985565 7827564
-153.79005 -68.222015 -18.949566 9735302
-153.99857 -68.139526 -19.916832 8288116
-154.76822 -68.064697 -20.775116 9143418
-154.97156 -67.981277 -21.754066 9538432
-155.1673 -67.897713 -22.734501 10590864
-155.87048 -67.805702 -23.797447 9998727
-156.12505 -67.736366 -24.607323 9077625
-156.30779 -67.651764 -25.601048 10391944
-157.07272 -67.57312 -26.504124 9931651
-156.79868 -67.511948 -27.235531 8484979
-157.56067 -67.432358 -28.150513 9537409
-118.32795 -66.627747 67.9692 7564650
-119.00493 -66.769577 67.493805 9933705
-157.27242 -67.368805 -28.881695 9537409
-158.22087 -67.322464 -29.253017 9866374
-158.20227 -67.225258 -30.104595 8814198
-158.49463 -67.112175 -31.084064 8089960
-159.19154 -67.002586 -32.017986 7958892
-159.48062 -66.888077 -33.010372 7038307
-159.53217 -66.810318 -33.68927 7038307
-160.1823 -66.697906 -34.83535 8748150
-160.97531 -66.625183 -35.821091 9405566
-160.63747 -66.558578 -36.558994 9208187
-161.42719 -66.484802 -37.55764 6906711
-117.91206 -65.561653 68.659462 11314590
-118.60693 -65.660126 68.221848 8616821
-119.11954 -66.117249 67.709015 9142907
-117.5024 -64.200394 69.431892 9143681
-118.06219 -64.675476 68.950706 10656146
-118.76173 -64.773186 68.515045 9273980
-117.68246 -63.498173 69.63192 6839895
-118.28787 -63.707527 69.237022 8352878
-117.19651 -62.256649 70.393448 8090987
-117.67952 -62.703579 69.963058 7827046
-118.3401 -62.917683 69.539223 6510930
-117.30016 -61.613651 70.607643 8814452
-117.94083 -61.821827 70.19635 8288110
-116.83072 -60.465931 71.451538 9340539
-117.3968 -60.783562 70.942955 9800833
-118.0283 -60.975227 70.503143 10590347
-115.99828 -59.24155 73.327713 9340539
-116.49516 -59.511623 72.535049 8156523
-117.092 -59.777237 71.916153 9077368
-117.52633 -60.167183 71.358322 9340539
-111.9659 -58.486156 83.704155 8748923
-112.58856 -58.728046 83.014847 9801353
-112.69578 -58.857002 81.740356 11972002
-113.28275 -58.859104 80.923767 9736068
-113.86382 -58.861202 80.10302 10130310
-114.439 -58.863308 79.278053 7301214
-114.03065 -58.86446 78.18586 9340285
-114.59193 -58.866547 77.359787 8156267
-115.14729 -58.868622 76.529625 9011320
-115.69657 -58.870697 75.695496 8156267
-115.93763 -58.920933 74.663094 7104091
-116.36261 -59.068752 73.753387 8748403
-116.84686 -59.136112 73.274139 9340539
-111.62027 -57.502766 84.284424 8156526
-112.19875 -57.656906 83.928574 8222579
-112.77145 -58.087395 83.461678 7563874
-111.56442 -56.655437 84.662163 9077883
-112.3298 -56.625523 84.287811 8683127
-111.1879 -55.505447 85.326782 9603970
-111.81844 -55.754581 84.905418 9406848
-111.4184 -54.544025 85.606895 8420211
-111.94019 -54.999912 85.155243 7564651
-110.79813 -53.620571 86.301254 13486781
-111.39683 -53.752163 85.944458 9933703
-110.34238 -52.188435 87.122276 8092011
-111.02501 -52.661789 86.582047 12960437
-111.7083 -53.138443 86.040253 12434093
-110.63419 -51.452991 87.278183 9012603
-111.15462 -51.741463 86.896202 11118233
-110.09789 -50.347904 88.00499 10064268
-110.6189 -50.748978 87.576263 9538180
-110.14619 -49.556469 88.307068 10064268
-110.84676 -49.833111 87.839066 9471874
-109.76766 -48.503178 88.933411 9405823
-110.43158 -48.646091 88.539383 8879736
-109.83978 -47.61829 89.263153 7827308
-110.52711 -47.777363 88.850616 7103326
-109.32561 -46.580681 89.95182 8749433
-109.97924 -46.743366 89.55481 7564649
-108.87975 -45.318008 90.878662 11708571
-109.48647 -45.617905 90.346725 9472898
-110.11262 -45.927975 89.829254 8288627
-108.03252 -44.193932 92.69767 11314071
-108.68058 -44.301483 92.079025 10261641
-109.21707 -44.704033 91.257004 10130055
-109.86613 -45.000389 90.65834 8288627
-104.05036 -43.393398 102.71722 9340286
-104.73506 -43.510609 102.34039 8288110
-105.33888 -43.815586 101.51582 9340286
-105.12082 -43.817905 99.852158 9734270
-105.59998 -43.81937 99.344421 8616303
-106.3145 -43.821571 98.578751 7301214
-106.78793 -43.823036 98.065704 8813942
-106.53912 -43.825268 96.428719 10458249
-107.11689 -43.827087 95.785126 9800835
-107.92003 -43.829632 94.878906 10064777
-108.01156 -43.911549 93.889648 9735812
-108.52185 -44.006512 93.116623 10590863
-109.07556 -44.050903 92.683617 11314071
-104.13401 -42.604118 102.99547 9471872
-104.73888 -42.670204 102.69954 8025194
-103.63618 -41.173431 103.79022 10261132
-104.32325 -41.641193 103.29673 9208956
-103.92942 -40.478779 103.93826 9274749
-104.56684 -40.63501 103.59183 9340542
-103.40523 -39.520554 104.55586 8353902
-104.01034 -39.658123 104.23134 10129798
-103.42294 -38.565578 104.93098 9538176
-104.04768 -38.76807 104.57162 11051411
-102.9784 -37.309105 105.63271 10525071
-103.55111 -37.588181 105.26587 10459790
-103.24185 -36.531582 105.82727 9473663
-103.80109 -36.840931 105.45431 10262667
-102.68939 -35.414932 106.52101 9341565
-103.15957 -35.748363 106.17801 10065032
-102.74287 -34.529976 106.85209 8486513
-103.31873 -34.804634 106.48566 9736067
-102.29821 -33.453476 107.48177 8618099
-102.86662 -33.550777 107.18973 7960425
-102.39843 -32.601913 107.77866 9209212
-101.97392 -31.438438 108.43422 8813686
-102.46176 -31.776522 108.08145 9537665
-101.4216 -30.277809 109.32816 8682871
-102.03452 -30.59322 108.82356 8089963
-102.62827 -30.942743 108.34172 9537665
-100.70885 -29.147831 111.03235 9932681
-101.24317 -29.245537 110.54735 9209472
-101.59565 -29.593615 109.86651 9143678
-102.11328 -29.86701 109.36607 8089963
-97.037033 -28.272888 120.73755 7300191
-97.455399 -28.558712 120.04156 8813943
-97.972916 -28.777676 119.05991 9735812
-98.545151 -28.779217 118.58687 8814710
-99.165779 -28.785221 115.32417 9011577
-99.995956 -28.787512 114.60471 9340286
-100.44259 -28.877247 112.08621 9340286
-101.07736 -28.906179 111.70767 9012350
-96.481461 -27.346886 121.35404 6510930
-97.228722 -27.597347 120.92242 7564135
-96.711777 -26.561195 121.56581 10063751
-97.421745 -26.735437 121.18122 8616567
-96.155457 -25.363028 122.29141 8156778
-96.866348 -25.535433 121.90712 11971744
-96.37867 -24.489185 122.54153 6972248
-96.922119 -24.738358 122.20088 8814451
-95.898163 -23.314655 123.22409 6511954
-96.461792 -23.682755 122.82694 6511954
-96.068466 -22.440882 123.49794 7300958
-96.527031 -22.647514 123.2118 6511954
-95.513649 -21.412914 124.15614 8155755
-96.042412 -21.684076 123.81302 8024169
-94.981438 -20.133289 124.90568 10261132
-95.599648 -20.532835 124.47134 7958632
-96.261612 -20.745455 124.09268 7235165
-95.111404 -19.568851 125.07471 10261132
-95.738472 -19.62727 124.77341 8616563
-94.708015 -18.22691 125.79211 8813686
-95.328705 -18.625877 125.35691 8813685
-95.949249 -19.025908 124.92143 6511954
-94.756653 -17.390461 126.10632 8418670
-95.412704 -17.48543 125.77753 7827044
-94.920532 -16.517143 126.38429 9274489
-94.414932 -15.499901 127.11362 9208954
-95.112259 -15.645495 126.70047 9406332
-93.800201 -14.078952 129.0412 8024944
-94.128784 -14.433094 128.19218 10195592
-94.659943 -14.719175 127.62383 10129798
-89.606865 -13.325176 138.82207 9735046
-90.098816 -13.599092 138.48489 8485747
-92.900772 -13.752163 130.75832 10130829
-93.533096 -13.75429 130.31488 7564651
-89.584862 -12.523142 139.15218 8814202
-90.208389 -12.632668 138.8326 8090735
-89.787323 -11.521165 139.46286 9406338
-89.886978 -10.109932 139.98245 8617080
-89.87468 -10.783264 139.71896 9735046
-123.43975 -75.38633 57.7425 8090986
-123.9835 -75.550339 57.270512 8222829
-124.24081 -75.680244 56.30447 6643540
-124.5646 -75.634293 55.369896 7103834
-124.8819 -75.588608 54.433739 7103834
-125.535 -75.528656 53.64209 10064265
-125.83989 -75.483528 52.700394 11051416
-126.13838 -75.438698 51.757359 7958377
-126.57835 -75.390434 50.96048 7432032
-127.06044 -75.335014 50.002605 7563618
-127.31966 -75.279083 49.045155 9011059
-127.46148 -75.225708 48.395878 9208435
-122.54828 -74.259682 59.496143 6510930
-123.19163 -74.521866 58.955383 6709078
-123.64896 -74.879173 58.262856 8222829
-124.16145 -75.081024 57.714832 8090986
-127.56544 -75.185715 47.908833 10458246
-128.07957 -75.101395 47.223602 10853520
-128.43689 -75.021469 46.390793 10459537
-128.84247 -74.941566 45.400558 8881021
-129.05402 -74.878372 44.429382 11380638
-129.55658 -74.799492 43.487949 9734787
-129.87076 -74.739265 42.690224 9932166
-130.36014 -74.660751 41.740582 10130057
-130.54559 -74.598724 40.762295 9143418
-130.99286 -74.516434 39.692932 7695460
-131.61491 -74.444458 39.017311 6116685
-131.80757 -74.373093 37.86858 6576979
-132.16144 -74.287689 36.766838 6840152
-121.65472 -73.55619 62.908943 9209984
-122.33788 -73.871834 61.96209 13550517
-122.54543 -73.888695 60.885628 10787988
-122.918 -73.974442 60.114101 8287597
-123.29121 -74.142471 59.30661 6510930
-132.70668 -74.143814 36.058685 6445650
-132.88683 -73.970177 34.906956 8419953
-133.48364 -73.881805 34.376774 8485749
-133.57874 -73.779778 33.203041 8288371
-134.09146 -73.683159 32.405849 9340542
-134.45177 -73.589752 31.534264 8814197
-134.77206 -73.478287 30.412823 7367269
-135.31519 -73.385109 29.679798 11446178
-135.36671 -73.301109 28.667437 14604238
-121.22769 -72.645752 63.567711 8617333
-122.00176 -72.806473 63.024754 10196364
-136.14491 -73.245743 28.489147 9867404
-135.98219 -73.205154 27.857189 10261132
-136.21771 -73.109901 26.796316 10261132
-136.70999 -73.016647 25.936119 8353391
-137.04588 -72.918564 24.90707 9537409
-137.52808 -72.825096 24.0371 8814454
-137.85088 -72.727089 23.000006 9405819
-138.2455 -72.631218 22.039503 8551026
-138.64047 -72.539551 21.076534 9142391
-138.88959 -72.483818 20.088524 8878963
-139.45641 -72.401131 19.484814 8221547
-139.40643 -72.317474 18.622562 8090475
-120.86034 -71.370377 64.349533 10262156
-121.31904 -71.738785 63.908386 8946040
-139.89935 -72.252754 18.288277 9406590
-140.1042 -72.161957 17.514408 13749440
-140.50287 -72.045006 16.602043 13749697
-140.72691 -71.922935 15.529647 12762546
-141.25674 -71.826149 14.899268 11051672
-141.54935 -71.699471 13.810035 6182222
-142.0791 -71.593666 12.912173 8090730
-142.33408 -71.499008 11.829516 7564648
-142.75803 -71.410393 10.895774 9406848
-142.96976 -71.340363 10.104014 7630442
-120.79422 -70.692406 64.686317 8814454
-121.65054 -70.880432 64.081108 7827303
-143.50873 -71.306442 9.910079 8092011
-143.44458 -71.253288 9.2115469 8815477
-143.85672 -71.163948 8.2636404 10657167
-144.0775 -71.069038 7.1626544 7696489
-144.85088 -70.990555 6.5013537 8616822
-144.73222 -70.913277 5.4482951 8616822
-145.48387 -70.822823 4.5991473 9142906
-145.63141 -70.732628 3.4916031 9537407
-146.09645 -70.654739 2.681289 8682099
-146.56116 -70.576401 1.8652871 11050643
-146.68719 -70.486183 0.74818736 8945271
-147.42567 -70.393425 -0.13629217 9735299
-147.31421 -70.342491 -0.84605092 9735299
-120.48959 -69.526764 65.381866 11380124
-121.09139 -69.856705 64.870163 9340798
-147.69637 -70.302231 -1.2041137 9735299
-148.01016 -70.23278 -1.9199035 8024682
-148.41959 -70.13472 -2.7601783 7959402
-148.68785 -70.012291 -3.8106086 7038816
-149.11531 -69.891525 -4.8099942 8814712
-149.50345 -69.78772 -5.6644063 5920082
-149.59906 -69.698792 -6.4499516 6182738
-150.2171 -69.560524 -7.5646672 11181972
-150.883 -69.439751 -8.50982 8156266
-150.67726 -69.365967 -9.2267733 9209467
-119.8763 -68.402977 66.247688 8880503
-120.5204 -68.730988 65.710907 11511453
-121.28955 -68.972733 65.135582 13023917
-151.03433 -69.314316 -9.6140146 5920074
-151.28267 -69.225693 -10.361863 5920074
-151.93573 -69.101219 -11.326604 10524816
-152.00305 -69.009178 -12.130025 9341057
-152.35582 -68.90004 -13.02023 8156782
-152.93982 -68.754181 -14.184365 10786444
-153.28738 -68.643829 -15.086591 7366751
-153.33543 -68.551178 -15.899606 8879479
-154.032 -68.440819 -16.722294 7760998
-120.15778 -67.564072 66.442505 8551286
-120.8388 -67.79541 65.925461 9340545
-154.63554 -68.306862 -17.919804 7564651
-154.40665 -68.245842 -18.647575 10787731
-155.18547 -68.171448 -19.500603 11905953
-155.84706 -68.06559 -20.729187 8288365
-155.60263 -68.004387 -21.460014 7038298
-156.31656 -67.912712 -22.518627 9932934
-156.57936 -67.843544 -23.327206 9998727
-156.83592 -67.774132 -24.138279 9209211
-157.54565 -67.680565 -25.219872 8484979
-157.79977 -67.610268 -26.041565 7761515
-157.9796 -67.524445 -27.048824 9931651
-158.75357 -67.444351 -27.969402 9274237
-119.63184 -66.473434 67.240448 11577760
-120.24561 -66.78183 66.730804 9011580
-158.46951 -67.38269 -28.707199 9537409
-159.17876 -67.275497 -29.62849 9932423
-159.8017 -67.145744 -30.741451 9340798
-159.98232 -67.049629 -31.576916 9340798
-160.15759 -66.953339 -32.413315 7038307
-160.7729 -66.821548 -33.546967 8090735
-161.55942 -66.742043 -34.524357 7958120
-161.3102 -66.69194 -35.080963 7958120
-162.02773 -66.601936 -36.260212 7958120
-161.68579 -66.534943 -37.002628 9405566
-162.57146 -66.47731 -37.823997 6511954
-119.08232 -65.35305 68.065857 7563619
-119.85504 -65.620087 67.477173 9800837
-120.49831 -65.895142 66.964127 9142907
-119.37605 -64.56398 68.231331 7826534
-119.90633 -64.876495 67.770897 7827047
-118.77166 -63.588188 69.026993 9405566
-119.48923 -63.707569 68.536644 8616306
-120.19062 -64.115692 67.929794 7563619
-118.98776 -62.66901 69.289185 10195082
-119.74724 -62.694523 68.821915 9405566
-118.60405 -61.489185 69.997978 9142650
-119.24307 -61.803158 69.515602 8682355
-118.12202 -60.297855 70.943542 8880245
-118.66972 -60.768398 70.304855 8945782
-119.4254 -60.940701 69.785126 8420720
-117.45132 -59.221302 72.671783 13023917
-117.9648 -59.406761 71.933632 10919312
-118.43111 -59.762035 71.256821 7629667
-118.94872 -60.139553 70.662224 8287597
-113.34796 -58.501076 82.977272 6642516
-113.77619 -58.721554 82.452782 7695971
-114.06987 -58.859314 81.485306 11709340
-114.65501 -58.861427 80.658875 12498855
-115.23414 -58.863544 79.828171 6906456
-115.00822 -58.865402 78.448975 8551025
-115.57137 -58.8675 77.615829 8156267
-116.12858 -58.869591 76.77858 9800837
-116.67957 -58.871685 75.937401 6906456
-117.22457 -58.873772 75.092194 7630179
-116.97259 -58.928738 73.941811 10261383
-117.63986 -59.078049 73.081535 10524814
