# .PCD v0.7 - Point Cloud Data file format
VERSION 0.7
FIELDS x y z rgb
SIZE 4 4 4 4
TYPE F F F U
COUNT 1 1 1 1
WIDTH 1210
HEIGHT 1
VIEWPOINT 0 0 0 1 0 0 0
POINTS 1210
DATA ascii
-190.24411 -17.952694 52.547726 9273976
-190.80875 -17.88096 51.518978 8353133
-191.30072 -17.951521 50.517277 9405306
-191.74435 -17.971985 49.648205 9340021
-192.18875 -17.992876 48.777241 9931646
-192.72099 -17.775202 47.925579 9208435
-193.45432 -17.322742 46.87281 10787723
-160.01088 -16.478563 93.016762 10064011
-160.56108 -16.732574 92.563011 8156531
-161.4062 -16.775772 92.017799 7696229
-161.96002 -17.031734 91.560905 7564643
-178.3344 -17.083231 69.191154 8813686
-178.68681 -17.094357 68.586563 7563619
-179.23758 -16.878513 67.809334 8484716
-179.74112 -16.896923 67.012482 8353130
-180.33481 -16.924 66.246712 9406332
-180.93057 -16.951664 65.478729 9143163
-181.52811 -16.979757 64.708336 9603458
-182.04245 -17.240688 63.906082 9077368
-182.64313 -17.270018 63.130924 9537662
-190.89516 -17.207138 51.886471 9207671
-191.42508 -16.987476 51.041725 8089705
-191.91882 -17.05755 50.037014 9076596
-192.42606 -17.031538 49.082451 10457478
-192.9595 -16.811928 48.229954 10918798
-193.44165 -16.736225 47.362034 10787982
-159.16493 -15.5383 94.067307 8420470
-159.98003 -15.755401 93.409698 10064011
-160.91754 -15.844744 92.766518 8485239
-161.44064 -16.095985 92.293739 8287854
-192.24173 -16.293577 50.021126 8682867
-192.68019 -16.150108 49.310398 10721676
-193.21823 -15.848351 48.540134 10458505
-158.34608 -14.403789 95.910683 9340801
-158.73753 -14.779535 95.020012 8683383
-159.44012 -14.884068 94.487419 8880502
-160.3138 -15.145754 93.706535 9208960
-145.98561 -13.384185 112.48826 9143675
-146.64012 -13.408173 112.151 9670019
-147.22324 -13.655274 111.75748 8090987
-156.24217 -14.116191 98.008949 8089963
-156.81242 -14.136971 97.579308 9669504
-157.76677 -14.172147 96.86084 8682867
-145.04195 -12.227355 113.43697 12432037
-145.80925 -12.574341 112.91039 9603199
-146.83539 -12.588353 112.39176 8090987
-145.18642 -11.51186 113.66032 10458250
-146.09485 -11.698459 113.12939 7958376
-144.55663 -10.562228 114.36739 12827052
-145.44681 -10.708153 113.86233 10326921
-143.97549 -9.645134 115.03658 7564651
-144.74817 -9.7405424 114.6112 10524559
-145.52342 -9.8365726 114.18422 9406079
-143.51498 -8.8070269 115.61298 8090991
-144.25258 -8.688838 115.29334 7564651
-144.94005 -8.9166718 114.85578 9537923
-142.7141 -7.2099695 116.67305 14077637
-143.51042 -7.6213632 116.10521 11709089
-144.4164 -7.6968374 115.62137 9472387
-142.85486 -6.488925 116.90063 9735555
-143.75987 -6.6639495 116.37617 14735567
-142.22392 -5.5426984 117.60681 11906726
-143.11076 -5.6774216 117.10812 10130572
-141.64162 -4.6280017 118.27565 10262416
-142.41127 -4.7136822 117.85576 11775140
-143.18347 -4.7998514 117.43436 8092019
-141.1797 -3.7907267 118.85236 8354158
-141.82796 -3.797816 118.52566 9209984
-142.59906 -3.8822818 118.10551 9736329
-140.37579 -2.1930614 119.91413 7762021
-141.17052 -2.5971351 119.35021 7893607
-142.03748 -2.7751925 118.8435 8288366
-139.79317 -1.279098 120.58288 7037274
-140.58559 -1.5109646 120.09122 7959143
-141.57137 -1.5925708 119.56504 9275004
-139.32469 -0.36547822 121.35107 12432807
-139.95773 -0.51947433 120.91888 11511706
-140.81126 -0.64404726 120.39921 12630186
-138.79808 0.3979243 122.26807 8748917
-139.53981 0.32079959 121.83215 7037274
-140.25911 0.090201259 121.27582 12432807
-128.72459 1.519385 136.31303 8682867
-129.5742 1.5199959 135.89616 10985879
-137.01947 1.0144634 124.66099 9537150
-137.66537 1.014714 124.34295 10787984
-138.31296 1.0149609 124.02416 8090987
-128.13356 2.2932913 136.89011 8222322
-128.91164 2.217608 136.50902 9537920
-129.54955 2.2188272 136.19629 9537921
-127.61628 3.4952359 137.60097 7828079
-128.35223 3.3820219 137.23077 9143680
-129.06985 3.073328 136.78409 8353650
-127.12968 4.5436349 138.23662 8420211
-127.78705 4.5480065 137.9483 8551544
-128.44586 4.552475 137.65936 10459281
-127.04002 5.5270109 138.67099 8156782
-127.94289 5.4093328 138.22534 8090993
-126.53071 6.4151282 139.2523 8354159
-127.40803 6.4239655 138.86873 8288369
-125.7449 7.5840945 140.06839 8813936
-126.55946 7.3578644 139.61815 8617332
-127.37533 7.1311316 139.16704 7762027
-125.85475 8.3415432 140.32402 6117453
-126.64066 8.2256861 139.93077 7498597
-125.1747 9.3109026 141.0134 8156266
-126.07717 9.1976862 140.56967 6380625
-124.6526 10.530392 141.73334 9669246
-125.38898 10.423688 141.36559 9735042
-125.98586 10.195164 141.01042 9077114
-124.03645 11.671735 142.46353 11379349
-124.81931 11.606633 142.09187 11379607
-125.47813 11.61888 141.80609 10524556
-123.59167 12.779655 143.10461 13023917
-124.18769 12.552032 142.7502 11379607
-124.97192 12.4877 142.37825 9143417
-123.43659 13.544724 143.48021 10130055
-124.43332 13.518001 143.02965 9735297
-122.92038 14.576064 144.24098 8880247
-123.74287 14.389791 143.74051 9143161
-124.39808 14.24023 143.33513 10129798
-121.62373 15.663763 145.70979 10261132
-122.49048 15.485448 145.17892 8748661
-123.35015 15.206938 144.56725 8814452
-117.08781 16.844448 152.54889 13483957
-117.94382 16.86018 152.14233 10787729
-119.66123 16.211628 148.36905 9010808
-116.49771 17.623198 153.14696 10853011
-117.38064 17.508066 152.6748 11839903
-115.79762 18.674311 153.90773 9669251
-116.69997 18.518431 153.40977 9932423
-117.42622 18.334272 152.98535 10261132
-115.20032 19.781946 154.65462 9341054
-115.99924 19.549101 154.17291 9340542
-116.79878 19.316153 153.69095 9537665
-114.58074 20.769938 155.37543 9341054
-115.38013 20.53647 154.89337 9735812
-116.2405 20.555201 154.49062 8419696
-114.68604 21.576305 155.6721 10064777
-115.59055 21.420162 155.17311 10262156
-114.01527 22.603884 156.43452 10130057
-114.90163 22.489279 155.96205 9603969
-113.39307 23.603117 157.16153 7235421
-114.37807 23.5415 156.66475 8288109
-112.89353 24.524378 157.79643 11182231
-113.75523 24.544888 157.39384 7827817
-114.55803 24.309082 156.90907 8682867
-112.32847 25.789207 158.61046 11182231
-113.05703 25.601976 158.18202 10392974
-113.71883 25.310551 157.74062 7564651
-111.7528 26.814135 159.41579 10459787
-112.4535 26.619295 158.94612 12103329
-113.09438 26.321659 158.47385 11182231
-111.13202 27.70262 160.43719 10854288
-111.88038 27.629211 160.00459 10131079
-112.63277 27.377134 159.44151 11709084
-110.59882 28.586782 161.31789 9734786
-111.53075 28.426968 160.7346 10459787
-111.2961 28.961199 161.22203 10787729
-165.76648 -22.27775 86.74118 8486262
-166.22282 -22.284861 85.963081 9209727
-164.72713 -21.298954 87.971039 11182484
-165.38791 -21.496145 87.473228 8880761
-165.98529 -21.603308 86.854164 7762796
-166.55653 -21.612091 85.880287 8223090
-167.1279 -21.621595 84.905678 13156792
-167.65892 -21.404549 84.161934 13420732
-168.11646 -21.413168 83.380753 12236202
-164.20656 -20.351393 88.709679 6511954
-164.76637 -20.615879 88.245384 9406331
-165.62866 -20.672152 87.683746 8814451
-166.2776 -20.702276 87.005219 7762796
-166.73546 -20.709019 86.224838 7302503
-167.30794 -20.718142 85.248688 9472898
-167.88055 -20.727894 84.271759 12236202
-168.33879 -20.736292 83.489578 9274749
-168.7972 -20.74511 82.706833 7959401
-169.2558 -20.754383 81.923401 8617331
-169.90422 -20.540615 80.978378 9472896
-163.68613 -19.406437 89.447189 8682867
-164.24503 -19.668793 88.98436 7564642
-165.10559 -19.722107 88.425117 8814451
-165.86966 -19.846424 87.894882 9736069
-166.4973 -20.025112 87.118706 8157811
-167.04312 -19.881536 86.297218 7960432
-167.5423 -19.858913 85.467949 9012861
-168.12265 -19.777464 84.54335 10327693
-168.63582 -19.831947 83.635002 8682612
-169.09511 -19.840498 82.850876 8880503
-169.55467 -19.849451 82.06617 8156780
-170.12946 -19.861351 81.084297 10261642
-170.70477 -19.873894 80.101494 9143165
-171.16531 -19.88448 79.314369 11576987
-171.7021 -19.66853 78.56076 10458505
-172.0482 -19.676981 77.96907 9011574
-163.50974 -18.711771 89.860886 8551281
-164.47052 -18.722216 89.258018 8682867
-165.34531 -18.896154 88.637192 9736069
-168.39926 -19.144445 84.528809 9867142
-168.94714 -19.001657 83.70314 7563619
-169.39389 -18.933615 82.995369 8287855
-169.92268 -18.806358 82.191582 7958633
-170.39081 -18.724058 81.458351 8879222
-170.96756 -18.735958 80.473656 9143422
-171.54468 -18.748457 79.487854 9669508
-172.00673 -18.758944 78.698273 8748405
-172.46906 -18.769867 77.90789 10458505
-172.93173 -18.781223 77.116631 10721677
-173.52155 -18.664892 76.201836 9143417
-174.1673 -18.583372 75.167381 9998727
-174.70918 -18.367643 74.405113 9011576
-175.05777 -18.377306 73.807999 9405822
-162.87437 -17.687786 90.704491 8748661
-163.63071 -17.805441 90.18203 7696229
-164.60245 -17.905474 89.533104 8551796
-171.27058 -17.825335 80.614426 9143422
-171.82924 -17.721975 79.743103 7959151
-172.38844 -17.619041 78.870567 7893353
-172.85194 -17.629435 78.078522 8682866
-173.31583 -17.640177 77.285614 9340539
-173.78011 -17.651398 76.491768 8617331
-174.36099 -17.665947 75.498123 9538176
-174.94244 -17.681095 74.503067 8616819
-175.40814 -17.693695 73.705803 10459022
-175.87427 -17.706724 72.907433 9932422
-176.32823 -17.642496 72.185234 8814969
-176.88693 -17.504316 71.338829 9143680
-185.2166 -17.400284 59.807495 11183001
-185.67445 -17.424204 59.215778 10525072
-186.28661 -17.456472 58.424492 9275004
-186.9007 -17.489296 57.63036 10129798
-187.517 -17.522577 56.833256 10195594
-188.13538 -17.556414 56.033184 9537662
-188.74786 -17.751226 55.145897 9537662
-189.27817 -17.861399 54.395554 9931906
-189.83948 -17.645784 53.568474 9011318
-162.35394 -16.748796 91.439423 9011321
-163.10884 -16.86393 90.918907 8419696
-163.97388 -16.771917 90.420433 9012090
-164.52777 -17.167915 89.90226 7039331
-173.19843 -16.94591 77.982864 8090987
-173.54694 -16.953772 77.387314 9998211
-174.10231 -16.812628 76.5485 8617331
-174.55499 -16.746367 75.829956 8880503
-175.13765 -16.760798 74.833427 9406334
-175.72093 -16.775751 73.835426 9275004
-176.18806 -16.788185 73.035767 10656141
-176.65575 -16.800993 72.234978 9406851
-177.1239 -16.814203 71.433052 9143680
-177.59261 -16.827818 70.629967 8222323
-178.14832 -16.797827 69.711006 9011065
-178.84686 -16.632721 68.647133 8155756
-181.78192 -16.283123 64.797508 8353646
-182.29744 -16.543285 63.994282 9537662
-182.89929 -16.571592 63.218182 9997699
-183.50308 -16.600328 62.439575 9012088
-184.1087 -16.629549 61.658325 9538688
-184.7162 -16.659199 60.87439 9933446
-185.32568 -16.689333 60.087711 8682867
-185.93715 -16.719995 59.298313 9538176
-186.55058 -16.751116 58.506035 9209213
-187.16614 -16.782694 57.710888 10261391
-187.78374 -16.814753 56.912819 9406340
-188.40343 -16.847269 56.111774 12038050
-189.02536 -16.880342 55.307732 10787728
-189.62924 -16.912075 54.494747 9931906
-190.0965 -16.932056 53.639675 9011318
-190.53864 -16.950083 52.775505 9471355
-191.06775 -16.729942 51.932487 9207671
-161.99525 -15.581322 92.299347 8090733
-162.64685 -15.792906 91.739906 8090733
-163.35068 -16.038805 91.137909 7762026
-175.25497 -16.068468 75.131798 10064263
-175.83913 -16.082863 74.132782 8485488
-176.53839 -15.87035 73.179161 9932675
-177.00543 -15.882411 72.376183 9670023
-177.47292 -15.894875 71.572014 9143680
-177.94087 -15.907692 70.766701 9143680
-178.40933 -15.920835 69.960152 9076858
-178.92763 -15.982289 69.023003 8879478
-179.59393 -15.80156 68.106949 7826790
-180.15131 -15.743662 67.328072 8813941
-180.81354 -15.704742 66.526199 8748148
-181.42679 -15.797543 65.656128 7761509
-182.13992 -15.593476 64.923859 9274493
-182.73282 -15.619123 64.145424 9997699
-183.32877 -15.645301 63.364929 10918030
-183.92969 -15.67219 62.583057 8682867
-184.5325 -15.699483 61.798546 9735297
-185.13708 -15.727232 61.011379 8419950
-185.7435 -15.755415 60.221451 10261899
-186.35178 -15.784053 59.428818 9209211
-186.96198 -15.813097 58.633366 9143422
-187.57416 -15.842599 57.835014 7827566
-188.18832 -15.872558 57.033779 9471876
-188.80449 -15.902998 56.229553 13946301
-189.42279 -15.933894 55.422314 10129799
-190.01262 -15.962664 54.603294 9734527
-190.46751 -15.980481 53.742741 9931649
-190.90799 -15.997413 52.876125 10853009
-191.50304 -15.780549 52.049202 9471612
-191.94446 -15.797927 51.178135 9471869
-192.4155 -15.720114 50.362057 8879989
-192.84546 -15.592389 49.68174 10918798
-158.91666 -14.215099 95.994087 5920074
-159.49355 -14.236898 95.558159 8090986
-160.26474 -14.266285 94.974701 9209467
-160.73451 -14.500375 94.210968 9406339
-161.42551 -14.927277 93.21257 8024945
-162.31049 -14.787259 92.78801 9210491
-178.49185 -15.233545 70.735863 9143680
-178.84277 -15.242972 70.128822 9537918
-179.31116 -15.255845 69.318382 10458505
-179.6626 -15.265677 68.709694 8682867
-180.59744 -14.832561 67.823372 10261899
-181.02881 -14.849078 67.240669 10854036
-191.4808 -15.2998 52.785519 12432045
-192.71701 -14.866143 51.134254 11182228
-147.61388 -13.36887 111.68035 8090987
-148.58517 -13.478697 111.10848 11051416
-149.50482 -13.584503 110.49284 8025194
-147.22575 -12.300446 112.31566 8090987
-147.81178 -12.54673 111.92116 7235421
-148.58389 -12.648744 111.47794 11643296
-146.64194 -11.376876 112.98895 7563619
-147.2272 -11.621631 112.59547 7563874
-148.1084 -11.650014 112.14352 7037274
-146.05815 -10.454705 113.66165 9142649
-146.64264 -10.697907 113.26919 8221805
-147.52232 -10.723886 112.81895 8682356
-148.11024 -10.96885 112.42411 7037274
-146.15549 -9.7025423 113.92379 9406077
-146.93639 -9.799036 113.4938 10064006
-147.52347 -10.04247 113.09995 10064006
-145.27866 -8.3205175 114.93297 10459022
-146.20444 -8.6445742 114.33656 9472639
-147.01059 -8.8916283 113.83169 7564651
-144.88791 -7.2530236 115.56924 7564651
-145.47205 -7.4920239 115.17865 9538689
-146.25259 -7.5842724 114.75063 9604482
-144.30312 -6.3331523 116.24148 16775151
-144.88647 -6.5709257 115.85181 9209471
-145.7634 -6.5869923 115.4071 8881015
-143.71829 -5.4141808 116.91342 8682867
-144.30092 -5.6506519 116.52457 11445663
-145.17648 -5.6645656 116.08145 9406339
-145.76241 -5.9024944 115.69041 7565667
-143.81212 -4.6565084 117.17957 9011580
-144.58972 -4.7429147 116.75546 10524305
-145.17482 -4.9796147 116.3653 11379356
-142.98375 -3.5825899 118.03713 10261132
-143.78468 -3.819478 117.53915 9537409
-144.65996 -3.8292711 117.09783 10787477
-142.46962 -2.4363496 118.76762 8748148
-143.05173 -2.6694262 118.38052 9866374
-143.9505 -2.8298521 117.86523 8682100
-141.95493 -1.289608 119.49854 9406590
-142.53673 -1.5215747 119.1121 9011832
-143.31297 -1.6024326 118.6909 10261132
-141.4848 -0.37138277 120.269 10854036
-142.00836 -0.60214943 119.83392 9406590
-142.76427 -0.68133807 119.39751 7433056
-143.40637 -0.83702099 118.96053 6511954
-140.54872 0.54953694 121.52506 10326920
-141.48911 0.31866592 120.85831 9734785
-142.2133 0.086947486 120.29864 7959144
-130.20966 1.520414 135.57922 8089963
-130.84677 1.5208782 135.26155 8814200
-131.6983 1.5215263 134.83691 10064006
-138.96266 1.0153034 123.70437 10064777
-139.83177 1.0156705 123.27668 8090987
-140.48586 1.0159534 122.95483 6511954
-130.18581 2.2200441 135.87927 8813942
-131.03638 2.2217195 135.45561 8419185
-131.6122 1.9888163 135.07237 10064006
-129.62082 3.5434709 136.70592 8945785
-130.50053 3.3909581 136.20441 8813942
-131.01315 2.9237242 135.75621 8089963
-128.88606 4.5555525 137.46634 11183003
-129.75107 4.5610046 137.06018 9866887
-130.53986 4.3302135 136.57153 8089963
-128.31979 5.726109 138.18619 9011838
-129.13756 5.497951 137.73145 10196109
-129.93947 5.2684269 137.25746 10459281
-128.28827 6.432972 138.48393 8025199
-129.29018 6.39604 138.02487 8419702
-127.75237 7.4507413 139.12907 7762027
-128.66045 7.3354616 138.68204 7827820
-127.24769 8.3127737 139.69781 7038307
-127.90923 8.3217878 139.4095 7169893
-128.69873 8.2533789 139.03371 7366499
-126.67921 9.4918385 140.42215 5920074
-127.27784 9.2633104 140.06616 6511957
-128.06662 9.1959352 139.69107 7695720
-126.64616 10.206133 140.72345 6840664
-127.52905 10.221014 140.33981 6511698
-128.1297 9.9920549 139.98285 7037274
-126.14538 11.487932 141.45903 7696229
-126.95913 11.407527 141.06767 7695459
-127.49665 10.937884 140.64192 7037274
-125.56807 12.820074 142.2487 9735297
-126.24358 12.545683 141.84045 9537919
-126.98908 12.368403 141.44029 8286826
-125.53423 13.54201 142.55344 8880245
-126.41787 13.561631 142.17137 6511954
-124.19331 14.729344 143.79547 11576729
-125.02094 14.625805 143.35294 8617075
-125.72115 14.2707 142.76353 8156521
-123.65252 15.717991 144.91992 8288108
-124.41752 15.48835 144.40385 9406332
-125.12678 15.251058 143.82188 9011578
-118.37265 16.868258 151.9388 10787729
-119.23179 16.884787 151.53105 9471872
-117.74188 17.844833 152.63606 10787729
-118.32901 17.608995 152.25797 10064008
-119.30666 17.578981 151.77437 9011576
-117.78823 18.672737 152.94713 10129546
-118.67624 18.558804 152.4744 9406078
-117.16701 19.657156 153.66194 9537664
-118.07971 19.644007 153.22041 10063752
-118.52425 19.353569 152.88321 10129545
-116.67146 20.564734 154.28899 9800837
-117.31891 20.579376 153.98618 10853012
-118.0909 20.513355 153.58917 9077369
-116.11224 21.809933 155.0918 9341054
-116.69919 21.571613 154.70897 9208435
-117.47143 21.505743 154.3119 9932422
-115.49129 22.806629 155.81705 10591121
-116.07854 22.567583 155.43378 9406073
-116.94366 22.588562 155.02983 9405815
-115.45701 23.56741 156.16075 10787988
-116.32226 23.588888 155.75685 10721680
-116.91087 23.349188 155.37273 10063747
-114.9266 24.658689 156.88353 8420726
-115.69997 24.593168 156.4861 9078398
-116.2889 24.35269 156.10141 9341313
-114.30308 25.667164 157.61513 7038560
-115.07668 25.601627 157.21759 8881019
-115.72715 25.61871 156.91438 9801606
-113.69051 26.682844 158.36574 10392973
-114.45437 26.614758 157.95386 8354675
-115.22747 26.549006 157.55321 10656656
-112.61901 27.91366 159.82817 9210491
-113.26431 27.74929 159.3829 9933191
-113.9085 27.584896 158.9357 9998727
-114.55164 27.42046 158.48676 10590607
-112.59977 28.450836 160.20836 9210491
-113.45683 28.470881 159.78706 7893871
-114.3322 27.95385 158.98616 8814969
-111.93798 28.975508 160.90605 9802371
-112.79507 28.995152 160.48441 9078651
-113.43887 29.010359 160.16814 7564651
-166.27312 -19.565271 87.766624 9144448
-166.64403 -19.572935 87.194527 9407875
-166.98817 -19.577776 86.608025 8815739
-165.74759 -18.613798 88.510056 10262414
-166.30753 -18.876614 88.039261 10525329
-166.86441 -18.893568 87.308357 10394512
-167.32404 -18.899895 86.525345 9078911
-167.78372 -18.906643 85.741829 10065803
-168.44254 -18.558456 84.87574 7892840
-169.06934 -18.394844 83.931511 7564134
-169.61868 -18.252064 83.104095 8616820
-169.96461 -18.258362 82.513954 8089963
-165.69957 -17.767967 88.910034 9473412
-166.64282 -17.676603 88.324219 10065036
-167.23271 -17.758366 87.498634 10065548
-167.69344 -17.764477 86.713936 10262926
-168.15428 -17.770922 85.92878 7367525
-168.68977 -17.550306 85.180244 7300961
-169.26678 -17.559378 84.197075 8617334
-169.84402 -17.569036 83.213058 7827305
-170.30608 -17.577272 82.425133 8089963
-170.76833 -17.585831 81.636497 10457996
-171.21762 -17.518015 80.924759 11116440
-171.76979 -17.375977 80.092155 7564651
-164.43446 -16.245569 90.363861 11380121
-164.99034 -16.641434 89.844505 7434088
-165.77106 -16.682165 89.340477 7894382
-166.43318 -16.809666 88.872337 10262414
-168.10519 -16.855295 86.668678 10261132
-168.45168 -16.859993 86.078812 7037274
-168.98853 -16.638315 85.329216 7695718
-169.50542 -16.692034 84.415871 9209214
-170.09073 -16.609562 83.484291 8748406
-170.60808 -16.664242 82.569389 8089963
-171.0713 -16.672482 81.779442 13550265
-171.53477 -16.68112 80.988792 11774625
-172.05281 -16.737291 80.071648 8485232
-172.64035 -16.657074 79.134758 7695717
-173.14615 -16.637054 78.293007 8090987
-173.70126 -16.495363 77.455162 9340539
-174.05034 -16.503277 76.858665 9340539
-163.2433 -15.279519 91.764702 7564648
-163.83675 -15.457317 91.235558 6972768
-164.55856 -15.566683 90.688507 11906208
-165.29031 -15.677659 90.143417 9209726
-165.90465 -15.859484 89.61718 9209726
-170.25555 -15.968493 83.665558 8814199
-170.83508 -15.977967 82.677856 8089963
-171.42123 -15.836695 81.86039 10459023
-171.88799 -15.769263 81.153694 10459278
-172.35175 -15.777808 80.360207 7893095
-172.86079 -15.833172 79.435623 8156010
-173.46698 -15.754094 78.503456 10590347
-173.97676 -15.810372 77.576653 9669247
-174.44171 -15.820473 76.779366 7827815
-174.907 -15.830953 75.981102 9143419
-175.49033 -15.615044 75.231812 10458507
-175.95508 -15.625951 74.43042 8682867
-176.30379 -15.634368 73.828636 9340539
-161.8138 -14.326232 93.799416 9012347
-162.7729 -14.474865 92.921654 9209724
-163.56374 -14.618835 92.202446 6709597
-164.25801 -14.724092 91.641273 6972768
-164.84956 -14.901727 91.106369 13550517
-173.71516 -15.123804 78.967369 10590347
-174.29669 -15.135394 77.96949 10787727
-174.87784 -15.147388 76.969925 10195592
-175.4866 -15.008523 76.147453 10919057
-175.96646 -14.943101 75.434578 10458507
-176.43321 -14.953639 74.631248 9340539
-176.9003 -14.964552 73.826866 11905692
-177.40564 -15.022475 72.887321 10130057
-178.03156 -14.946521 71.945045 10261901
-178.55263 -14.929204 71.090958 9998726
-179.45781 -14.532258 70.518333 9735040
-179.92741 -14.588598 69.555344 11379348
-180.38864 -14.600596 68.737267 8879733
-181.1445 -14.396575 68.027992 9735299
-181.57138 -14.564241 67.110313 7892584
-182.008 -14.657246 66.360237 6511954
-182.58159 -14.67937 65.575294 7629923
-183.15627 -14.701849 64.787956 9406078
-183.73207 -14.724735 63.998135 9341054
-184.38019 -14.798662 63.081528 9604225
-185.07603 -14.781024 62.22686 10787728
-185.67857 -14.806825 61.436138 9537918
-186.2829 -14.833035 60.642673 10985623
-186.88893 -14.859649 59.846474 10261899
-187.49683 -14.886693 59.047508 8222575
-188.10655 -14.914144 58.245632 7038307
-188.71815 -14.942004 57.440918 7432808
-189.29033 -14.888465 56.786198 11050643
-189.79333 -14.991644 56.025406 10590605
-190.40625 -15.020366 55.21122 7827563
-190.91849 -15.087955 54.215904 9999495
-191.42267 -14.9784 53.430683 10591120
-191.94417 -14.837614 52.663891 9998471
-192.38556 -14.853729 51.790424 11774364
-149.87152 -13.294093 110.39175 9735812
-150.40593 -13.538634 109.95038 7762278
-151.21837 -13.565775 109.4312 8551026
-151.75511 -13.811897 108.98766 8089963
-161.5141 -13.91042 95.714302 8682867
-149.17123 -12.515471 111.17181 7103836
-149.88847 -12.613014 110.68102 9406847
-150.70009 -12.638153 110.1632 9077882
-151.2366 -12.883049 109.72044 8420208
-149.16859 -11.682367 111.54025 7037274
-150.18147 -11.711204 110.89513 7433313
-150.71768 -11.9549 110.45313 7170141
-148.50462 -10.677382 112.3475 7695204
-149.45988 -10.779677 111.75585 8353134
-150.19838 -11.027549 111.18559 7170141
-147.91692 -9.7499342 113.02434 10458762
-148.7941 -9.7126951 112.60149 9142649
-149.4568 -9.9429865 112.12616 9076855
-147.45239 -8.5605879 113.7478 7564651
-148.19029 -8.6924229 113.32471 8814457
-148.78169 -8.9357071 112.92876 7565159
-146.88908 -7.4455824 114.48997 9604482
-147.67531 -7.5381684 114.05886 8156529
-148.341 -7.5523496 113.72054 11512221
-146.86522 -6.60741 114.8482 8749429
-147.87381 -6.7027564 114.30495 7697003
-146.15366 -5.604084 115.61829 7828839
-147.05717 -5.7408037 115.11045 9933448
-145.56516 -4.6800022 116.29414 10590354
-146.3494 -4.7669806 115.86641 9078142
-147.01311 -4.7761545 115.53103 9736329
-145.09909 -3.8342297 116.87643 9143424
-145.84799 -3.7047689 116.55579 9735559
-146.54546 -3.9274607 116.11534 7565675
-144.53355 -2.3758748 117.76158 9537409
-145.24336 -2.6877718 117.27807 9801351
-145.90538 -2.6933656 116.945 8683897
-143.70053 -1.2983112 118.62298 10261132
-144.50664 -1.532459 118.12353 10195594
-145.51073 -1.6150553 117.58778 9735813
-143.22884 -0.37608123 119.39526 7959144
-144.08971 -0.56293756 118.82559 9735043
-144.95905 -0.68895197 118.29772 11380380
-142.70157 0.39429718 120.31854 7959144
-143.45607 0.31652731 119.87571 9801348
-144.18607 0.083753318 119.3122 9538432
-132.76674 1.5224525 134.30418 11183260
-133.62421 1.5231878 133.87666 13353915
-140.92308 1.0162064 122.73975 9537150
-141.80054 1.0166059 122.30817 9997700
-132.20152 2.2709067 134.89442 9472645
-133.17422 2.2261465 134.39069 8814715
-131.42174 3.4885409 135.78496 9471351
-132.35402 3.3396821 135.25845 9209215
-133.15311 2.9307728 134.69135 7038307
-130.90904 4.6464152 136.51759 8681835
-131.8868 4.5739484 135.99985 9537144
-130.30807 5.5858288 137.20425 9932938
-131.07095 5.5129976 136.79369 9208179
-131.83554 5.4400287 136.38211 11905692
-129.89104 6.685998 137.86549 7564651
-130.46912 6.4546151 137.48167 9011838
-131.23329 6.3826141 137.07072 8879991
-129.2677 7.6274195 138.53125 7563619
-129.86415 7.3974099 138.16751 7564651
-130.72339 7.4068265 137.7469 8617081
-129.33231 8.4208031 138.82127 7563619
-130.11909 8.3522997 138.43602 10261646
-130.69992 8.1208143 138.05263 9011838
-128.66792 9.5232296 139.55716 8089963
-129.34662 9.2477074 139.14699 9011065
-130.09618 9.06814 138.744 9734531
-128.73839 10.289634 139.83376 8484721
-129.65344 10.177821 139.38499 9339773
-127.84455 11.424209 140.68369 7300446
-128.79008 11.154021 140.15794 7629154
-127.36864 12.697579 141.40495 8089704
-128.3208 12.396379 140.86385 8286826
-129.08369 11.929773 140.33981 10851980
-126.86082 13.571556 141.9799 6511954
-127.6731 13.638497 141.64838 9076856
-128.13042 13.358327 141.334 9536635
-126.1963 14.778544 142.95461 6511954
-126.95984 14.548923 142.43237 8353646
-127.71735 14.31805 141.9017 9603458
-125.31053 15.770612 144.38226 9340289
-125.94952 15.61857 143.94835 7038307
-126.46737 15.285383 143.26031 6775130
-127.14019 15.30289 142.97876 6511954
-120.30832 16.906012 151.02032 9011577
-121.17187 16.92346 150.61087 9998472
-121.91971 16.443848 150.05714 9340285
-119.89307 17.888527 151.61612 9406078
-120.48264 17.652853 151.23691 9340798
-121.25592 17.58643 150.83723 9537152
-121.82091 16.936869 150.30324 9734531
-119.26578 18.870306 152.32121 8682867
-119.85442 18.634083 151.94032 9208699
-120.72112 18.653381 151.53308 9471616
-119.23549 19.620016 152.65829 9208699
-120.10324 19.640167 152.25267 9998216
-120.69233 19.403141 151.86949 10261132
-118.70966 20.695496 153.37212 7827558
-119.4846 20.630302 152.97404 8682355
-120.07386 20.392828 152.5905 10261132
-118.09005 21.688988 154.09541 9077369
-118.86509 21.623945 153.69734 8485490
-119.51731 21.640327 153.39308 8354163
-117.5936 22.604702 154.72643 9208435
-118.24483 22.621189 154.42259 9471869
-119.02129 22.556541 154.02408 8485749
-117.03388 23.861616 155.5345 10063747
-117.62364 23.622236 155.14986 10261127
-118.40023 23.557707 154.75134 9735300
-116.88363 24.675232 155.9563 10261384
-117.77843 24.562778 155.48068 9998470
-116.37872 25.636246 156.61082 9801606
-117.249 25.660143 156.2056 9998729
-117.84061 25.419359 155.81956 10261644
-115.81622 26.909348 157.42715 10262156
-116.48248 26.618153 156.98376 9735556
-117.2172 26.432171 156.55299 10261387
-115.19324 27.435768 158.16833 12432037
-116.05007 27.456804 157.74348 10130057
-116.69382 27.473009 157.42464 9735299
-114.5304 28.496943 159.25998 9406848
-115.35742 28.194681 158.63176 9998470
-116.05199 27.996927 158.14288 9340027
-114.0836 29.026114 159.85156 8617847
-114.94474 29.047649 159.42934 9670020
-166.92506 -16.603247 88.618668 9867399
-167.54765 -16.573322 87.815086 8024425
-168.05038 -16.549036 86.981331 8089962
-168.6008 -16.403568 86.15406 7037274
-165.79265 -15.399218 90.071869 7039331
-166.40408 -15.580409 89.541588 9077626
-167.14349 -15.692513 88.990654 8682867
-167.83575 -15.709582 88.067177 9472382
-168.41429 -15.71647 87.082298 8089962
-168.87726 -15.72238 86.293892 9142651
-169.34032 -15.728718 85.504883 10129802
-169.80342 -15.735306 84.715324 10393486
-170.50916 -15.51965 83.789215 9668995
-171.08734 -15.528692 82.798935 8945528
-171.43442 -15.534398 82.204254 11709089
-164.7623 -14.44428 91.575592 7564648
-165.36028 -14.622155 91.041862 9012090
-166.08868 -14.730744 90.490143 9406334
-166.77766 -14.990536 89.827515 9537662
-168.72284 -15.045778 87.497902 9603455
-169.30278 -15.052871 86.509895 8616307
-169.76672 -15.05896 85.718765 10524816
-170.36995 -14.916802 84.910797 9931910
-170.84596 -14.848405 84.208801 9931910
-171.35005 -14.90124 83.281502 10853268
-171.96864 -14.82059 82.357246 8089963
-172.47305 -14.874294 81.428024 8616819
-172.93828 -14.882394 80.631874 8485232
-173.4037 -14.890821 79.834846 8090474
-174.02344 -14.675441 79.10656 9932678
-174.77164 -14.54642 78.34893 10525071
-175.31467 -14.52834 77.514 8682613
-175.93484 -14.42526 76.844856 9011579
-176.70087 -14.295764 75.999947 9471872
-177.26903 -14.306976 74.983505 9340539
-177.72313 -14.316281 74.168968 9340796
-178.17705 -14.32584 73.353264 8880757
-178.63066 -14.335649 72.53627 9472379
-179.08405 -14.34581 71.717995 10459017
-190.22708 -14.305783 57.149265 9997958
-190.79578 -14.329534 56.320122 7564392
-191.34152 -14.351762 55.481327 9143161
-191.7739 -14.365812 54.607239 10788243
-152.12662 -13.520465 108.88403 7563874
-153.05746 -13.628354 108.25536 8221804
-153.93831 -13.732388 107.58701 9142651
-154.44551 -13.885277 106.74715 8089963
-154.95752 -13.88698 106.00236 8090221
-155.46602 -13.888831 105.25511 8090736
-156.09633 -13.890918 104.31744 8485492
-156.72137 -13.893101 103.37635 9997187
-157.21718 -13.894896 102.62057 9536894
-157.70932 -13.896585 101.86249 9471359
-158.31918 -13.898758 100.91148 9866630
-158.92372 -13.900926 99.956978 9471871
-159.40302 -13.902658 99.190727 8090730
-159.87863 -13.904388 98.422119 8616818
-160.35062 -13.906115 97.651283 8090730
-160.93506 -13.908302 96.684456 8814709
-162.16875 -13.928886 95.050163 9210491
-162.95038 -13.958349 94.45742 10460559
-163.73445 -13.988223 93.861755 14211277
-164.32416 -14.010807 93.413185 10854036
-181.61723 -13.987751 69.705246 8814452
-182.08812 -13.999892 68.882164 7563619
-182.63428 -14.018064 68.085503 7563619
-183.19211 -14.037405 67.290794 7037790
-183.75046 -14.057047 66.493736 8485235
-184.30951 -14.076945 65.694283 8485235
-185.00929 -14.102371 64.691475 8485745
-185.71011 -14.128206 63.685093 9998728
-186.27158 -14.149268 62.877136 12037794
-186.83368 -14.170584 62.066559 8288108
-187.39667 -14.192305 61.253456 9603968
-187.9608 -14.21433 60.437943 11906725
-188.52609 -14.236711 59.619785 7564651
-189.09225 -14.259397 58.798988 7038298
-189.65916 -14.282437 57.975521 7630179
-151.60732 -12.590514 109.61771 8485233
-152.3322 -12.6895 109.12156 8353646
-153.2612 -12.765176 108.50822 7959145
-151.08775 -11.661329 110.35128 8747893
-151.8119 -11.758545 109.85633 9340030
-152.63167 -11.782778 109.33388 7761509
-153.173 -12.028484 108.88767 7761509
-150.56779 -10.732842 111.08475 7892581
-151.29129 -10.828315 110.59097 9011065
-152.11015 -10.850492 110.06992 9340030
-152.65108 -11.095024 109.62449 7761509
-150.00975 -9.4988241 111.97646 9076596
-150.84431 -9.6711607 111.37955 8616045
-151.592 -9.781168 110.86427 9274237
-152.12897 -10.162265 110.36119 9011065
-149.2532 -8.4131517 112.90818 9143418
-150.19247 -8.509613 112.29797 9800322
-151.12152 -8.6060762 111.67541 9208182
-148.78615 -7.5618734 113.49417 10262924
-149.45128 -7.5760112 113.15019 8881527
-150.18987 -7.6671891 112.67049 9339769
-148.26955 -6.4043221 114.23056 10262924
-148.86351 -6.64502 113.83443 12960437
-149.65285 -6.7367549 113.39528 12039335
-147.67818 -5.4754314 114.90984 11380639
-148.27126 -5.714777 114.51466 9867913
-149.16451 -5.7295284 114.06233 10920854
-147.67931 -4.7854848 115.1944 9276035
-148.57092 -4.7979574 114.74375 10525588
-149.16664 -5.0375328 114.34723 10262924
-146.89023 -3.3172469 116.19521 10262156
-147.82956 -3.6345296 115.59487 9867915
-148.57245 -4.1054349 115.02915 8092019
-146.42168 -2.4672666 116.78053 9341313
-147.31076 -2.4744053 116.33344 9801606
-148.12825 -2.7128129 115.82658 8092019
-145.90347 -1.309311 117.51791 10459278
-146.49522 -1.5436008 117.12545 8881019
-147.28624 -1.6253915 116.6965 9341313
-145.42961 -0.38217449 118.29266 11380380
-145.96182 -0.61518544 117.85296 10459278
-146.73196 -0.6951803 117.40928 8683897
-144.74271 0.43113261 119.33234 9538176
-145.53893 0.23668264 118.76869 8682867
-146.17746 0.080518618 118.31645 10459278
-134.05405 1.523553 133.66238 7564643
-134.70018 1.5240976 133.34013 9011833
-135.56415 1.5249687 132.90939 11052188
-142.90201 1.01722 121.76656 8089963
-143.78749 1.0177026 121.33125 8025193
-134.03407 2.2280266 133.96239 9275263
-135.01334 2.1830821 133.45526 9275521
-132.98172 3.8722546 135.16461 8814715
-133.56679 3.4979396 134.71852 7367271
-134.36035 3.4071875 134.28517 7893611
-134.87741 2.9369254 133.83351 9736073
-132.96072 4.580708 135.46681 9011835
-133.82301 4.5862846 135.03882 8617333
-134.40591 4.3530164 134.65198 7564643
-132.45152 5.6027765 136.14178 9339765
-133.22003 5.5300326 135.72835 9669248
-133.80261 5.2972383 135.34171 9143675
-131.81985 6.7047119 136.91074 8681835
-132.47461 6.4260573 136.46922 8681839
-133.38655 6.4029746 136.00473 9076601
-131.79784 7.4186125 137.21567 8156015
-132.78236 7.3500676 136.69617 9076601
-131.07169 8.4437466 138.00014 9011838
-132.05577 8.3766527 137.48149 8419185
-130.46745 9.3923063 138.69226 11182233
-131.45093 9.3264484 138.17444 10064009
-132.2496 9.0977716 137.6817 9340286
-130.0367 10.504521 139.34703 9734531
-130.63017 10.274404 138.9743 9471874
-131.39925 10.20622 138.56245 10261389
-129.40141 11.454356 140.0088 9734531
-130.00703 11.225589 139.64963 8419444
-130.88686 11.241818 139.2446 8485238
-128.89413 12.891578 140.80971 9536635
-129.43549 12.420042 140.38144 8813681
-130.26601 12.196081 139.92503 7038307
-130.86385 11.966137 139.55431 8485238
-128.86357 13.617601 141.11464 10064258
-129.76448 13.493268 140.66714 7433055
-130.23642 12.921676 140.22943 6511954
-128.25859 14.706162 141.9857 9998214
-129.08247 14.51902 141.46594 10261893
-129.74283 14.369202 141.04942 8090984
-127.22517 15.83326 143.76784 7235683
-127.81494 15.320743 142.69655 8814197
-128.71718 15.344876 142.31943 10261895
-122.56955 16.457205 149.74911 9011576
-123.22075 16.470709 149.44046 10392461
-123.87308 16.484512 149.13138 8090987
-121.78086 17.68045 150.62193 9471359
-122.53043 17.200006 150.06699 9340285
-123.30731 17.134041 149.66571 9932166
-121.74586 18.42709 150.94743 9273980
-122.77212 18.200972 150.35989 9602945
-123.36275 17.964695 149.9756 9932166
-121.1908 19.666019 151.74457 9142394
-122.1541 19.187532 151.07878 9471359
-122.74526 18.95088 150.69472 9208187
-120.60383 20.783836 152.50575 9142651
-121.45846 20.301229 151.89008 8813686
-122.12703 19.940266 151.41554 8681843
-120.11909 21.740093 153.14865 9405823
-120.79356 21.546608 152.74336 8945272
-121.57198 21.187511 152.21721 9537409
-119.39513 22.905104 153.99551 7894126
-120.10504 22.619097 153.53355 9143165
-121.17081 22.190439 152.84027 8813686
-118.77402 23.907904 154.72359 10261644
-119.48408 23.621075 154.26111 8617078
-120.55021 23.191288 153.56726 8814457
-118.15186 24.914507 155.45375 10261644
-118.65019 24.586784 155.07475 10590353
-119.85126 24.321699 154.38725 8354163
-118.12114 25.68471 155.79974 9998728
-119.1882 25.252333 155.10426 10919061
-119.90016 24.96438 154.64046 8814457
-117.65363 26.444744 156.35004 9735299
-118.49664 26.340399 155.9026 10261644
-119.05854 25.969604 155.47482 10524560
-117.12357 27.484179 157.21201 10853012
-117.8149 27.287861 156.71828 9932422
-118.43504 26.985216 156.20949 9735555
-116.4739 28.367237 158.18396 8879477
-117.34153 28.246914 157.66052 9866885
-116.12489 29.350067 159.03868 10721421
-116.88857 29.099157 158.47804 9340027
-167.12093 -14.549466 90.011467 9537662
-167.77037 -14.805958 89.322548 9932932
-168.2915 -14.815819 88.562881 14933196
-169.02112 -14.599031 87.651611 7892839
-169.60208 -14.605975 86.661873 7564645
-170.06705 -14.61192 85.869446 9011835
-170.41573 -14.616629 85.274742 9931910
-173.85179 -14.245927 81.056488 7564643
-174.3089 -14.253229 80.25032 8617331
-174.76529 -14.26073 79.443016 9932678
-175.10747 -14.266595 78.836723 10854036
-154.36781 -13.444399 107.51815 8089963
-154.98845 -13.465962 107.12126 9142651
-155.81857 -13.494922 106.59023 8748150
-164.71857 -14.0261 93.113594 5920082
-165.31189 -14.049193 92.662903 6709082
-166.30396 -14.088191 91.90799 8287853
-167.10014 -14.119799 91.301041 9537662
-170.86108 -14.204256 86.269447 8288112
-171.32239 -14.209954 85.46981 7037274
-171.78331 -14.215902 84.669365 9208187
-172.24371 -14.222102 83.868065 9010808
-172.7037 -14.228602 83.06591 8089963
-173.16325 -14.235303 82.262825 8089963
-173.50769 -14.240565 81.659904 8288366
-179.63206 -13.966143 74.204445 7564643
-179.89868 -13.967398 73.555313 6512978
-180.33778 -13.969483 72.471291 9801343
-180.77086 -13.971564 71.384895 10984849
-181.15875 -13.976821 70.531677 10918798
-153.84599 -12.508636 108.25603 10261132
-154.38969 -12.755901 107.80773 9011065
-155.2182 -12.783132 107.27843 9274494
-155.76463 -13.032028 106.82773 9143422
-153.75841 -11.770505 108.63575 8485232
-154.69463 -11.84479 108.0185 9208958
-155.24057 -12.092359 107.56867 10261132
-152.53999 -10.172832 110.10001 8287342
-153.07866 -10.554875 109.5954 7761509
-153.96921 -10.72876 108.96283 8617590
-154.71631 -11.15359 108.30935 9933193
-152.01712 -9.2396708 110.83725 9011065
-152.55945 -9.4827042 110.39169 9537921
-153.38464 -9.5025959 109.86767 8090477
-153.92941 -9.7470379 109.41988 8092019
-151.49396 -8.3071079 111.57455 9208182
-152.03589 -8.5489655 111.12966 8747893
-152.86017 -8.566906 110.60709 8748661
-153.40465 -8.8101673 110.16007 9144187
-150.78453 -7.5250311 112.36176 9339769
-151.51213 -7.6157269 111.86759 9339769
-152.33554 -7.6317134 111.34644 8879735
-152.87959 -7.8738999 110.90018 8617075
-150.03748 -6.4364209 113.30761 10262924
-150.78304 -6.6794052 112.73507 8682865
-151.81062 -6.6969194 112.08576 9143163
-152.35419 -6.9380312 111.64015 8617075
-150.04781 -5.7440071 113.59731 13749697
-151.07993 -5.759419 112.95478 8090475
-151.8287 -6.0025616 112.3802 8617075
-149.56664 -4.7350402 114.27238 10788756
-150.34773 -4.8229427 113.82214 9537665
-151.07811 -4.9096408 113.33006 8089963
-149.02205 -3.5552151 115.03194 9472898
-149.84593 -3.6569798 114.5783 11248794
-150.55223 -3.9748702 114.06999 9142907
-148.52682 -2.4069481 115.75381 13157559
-149.325 -2.4906971 115.32049 11183513
-149.92467 -2.728431 114.92258 11183513
-147.93147 -1.4744135 116.43655 15261912
-148.72832 -1.5563172 116.00462 15460058
-149.40312 -1.5601628 115.66596 12170408
-147.20732 -0.38704646 117.40199 10458511
-147.96785 -0.62187988 116.84772 10919062
-148.95499 -0.85870713 116.17968 13683392
-146.03821 0.54664481 118.78545 9538176
-146.67888 0.39080977 118.33241 9866886
-147.44717 0.31236732 117.88197 8682356
-148.18886 0.077340245 117.31066 9011065
-136.21391 1.5255555 132.58543 13157821
-136.86559 1.5262384 132.26064 9538435
-137.51866 1.5269181 131.93504 9538435
-144.89995 1.0184267 120.78442 9538432
-146.01826 1.0191219 120.23508 9077881
-135.61156 2.4673748 133.27388 9736073
-136.1962 2.2329762 132.88562 9012351
-137.06607 2.2350855 132.45244 5919050
-135.42035 3.3328917 133.72565 11512738
-136.46225 3.1795588 133.14265 8354422
-137.04887 2.9449062 132.75336 7038307
-135.00481 4.6414695 134.47188 8485745
-135.85454 4.2673388 133.89381 11315360
-136.44449 3.8907318 133.44441 7038307
-134.17838 5.6170602 135.28595 12433069
-135.16907 5.5462003 134.76248 8617331
-135.97287 5.3145275 134.26596 7564643
-133.76215 6.7243977 135.94969 9932166
-134.49052 6.5411544 135.51077 10590865
-135.14993 6.2611284 135.06644 9143675
-133.15733 7.6727262 136.64203 9932166
-133.74193 7.4406786 136.25468 8681843
-134.61058 7.4507942 135.82547 9735043
-133.13661 8.3906593 136.94792 8681843
-134.00456 8.4021273 136.51958 8681843
-134.59109 8.1696768 136.13123 8681843
-132.62483 9.423398 137.62862 8155756
-133.3983 9.3547363 137.21437 11774883
-133.9845 9.1226091 136.82634 8681843
-132.0188 10.376597 138.32349 10524560
-132.79178 10.308797 137.90991 7958633
-133.44342 10.319484 137.58916 11116696
-131.53503 11.253039 138.9258 9208703
-132.18491 11.264432 138.60623 10853525
-132.9592 11.197494 138.19229 9208443
-131.46075 12.268022 139.38081 7564650
-132.35156 12.155668 138.89011 9866630
-130.78976 13.33879 140.14584 8288111
-131.83777 13.198732 139.576 9998474
-132.4245 12.967281 139.18787 10590609
-129.5697 14.86541 141.54192 11380372
-130.23189 14.71599 141.12497 9209206
-131.1241 14.208464 140.36609 7630179
-131.8159 13.929526 139.88779 12433069
-128.43175 15.873604 143.38377 8682867
-129.15971 15.898343 143.15335 8682867
-129.62289 15.369452 141.94124 10261894
-130.66519 15.230278 141.36555 8617327
-124.30862 16.493778 148.92506 8092019
-125.18177 16.512844 148.51158 8814451
-129.64668 15.914998 142.99976 8682867
-123.67726 17.47366 149.62398 9011576
-124.41451 17.291332 149.19501 9341314
-125.19787 17.176359 148.77089 8092019
-123.74037 18.307114 149.94258 10656401
-124.64127 18.195362 149.46437 9933193
-123.12261 19.294893 150.66249 8419702
-124.02341 19.183445 150.18449 9538180
-122.50414 20.285818 151.38417 8945273
-123.43093 20.276356 150.93762 8025201
-123.87983 19.985126 150.59799 8419702
-122.00957 21.199028 152.01326 8418928
-122.667 21.216599 151.70689 7827307
-123.45041 21.153341 151.30562 7564651
-121.4535 22.452227 152.81789 9537409
-122.04705 22.21452 152.43224 9142651
-122.83051 22.151567 152.03117 8287342
-120.83279 23.454227 153.54539 8814457
-121.4265 23.215969 153.15944 8748149
-122.3048 23.24122 152.75095 10063753
-120.80514 24.221094 153.88857 8748662
-121.68339 24.246946 153.48039 9537665
-122.27872 24.008036 153.0934 9537409
-120.27731 25.318604 154.61282 9406077
-121.06132 25.256479 154.21172 8617075
-121.65678 25.016939 153.82445 9143163
-119.65437 26.33198 155.34622 10655630
-120.43846 26.269936 154.94519 9603455
-121.03407 26.029648 154.5574 8617075
-119.0731 27.359303 156.13744 9735555
-119.83988 27.293205 155.71317 10064005
-120.61366 27.228786 155.29622 10392456
-117.98357 28.588236 157.56989 9735299
-118.5313 28.334034 157.11656 9472127
-119.29258 28.265951 156.68312 9537920
-119.94776 28.105104 156.23965 9209467
-117.30936 29.654074 158.64696 11181972
-118.0752 29.404198 158.08592 10327179
-118.83786 29.335709 157.65157 9735043
-156.65196 -13.524287 106.0569 7367013
-157.69868 -13.561658 105.387 8682351
-158.53938 -13.591941 104.84869 8681843
-167.4994 -14.135705 90.996315 11378324
-168.09946 -14.159868 90.537552 9537662
-168.77901 -14.182091 89.858177 9932932
-169.2426 -14.186589 89.061981 11380380
-169.70564 -14.191287 88.265068 6973277
-170.16818 -14.196335 87.467354 10263180
-170.51485 -14.200194 86.868652 8092016
-177.88832 -13.95814 78.292473 9866629
-178.35603 -13.960255 77.220451 12827051
-178.81766 -13.962362 76.145775 8419952
-179.18207 -13.964046 75.28405 11183001
-179.45293 -13.965305 74.636635 11183001
-156.14517 -12.737015 106.72001 8748921
-156.88513 -12.838787 106.21316 7761512
-157.72363 -12.867216 105.67713 8287595
-158.27583 -13.118351 105.22182 8484973
-155.70653 -11.64459 107.47486 9143422
-156.43707 -11.66676 107.00896 9143422
-157.2018 -11.783168 106.48029 9603197
-157.74861 -12.171971 105.96763 8484973
-154.60669 -10.226599 108.7859 8092019
-155.14954 -10.611052 108.27769 8091505
-155.90007 -10.6317 107.79997 8091248
-156.72969 -10.593144 107.29898 9537666
-154.51897 -9.4841042 109.16757 9144192
-155.46155 -9.5536594 108.54846 9472899
-156.20221 -9.6497316 108.04374 8091248
-153.78194 -8.5100451 110.05664 8946552
-154.72649 -8.6082106 109.42367 9933193
-155.67455 -8.707118 108.78824 9275777
-153.25618 -7.5726066 110.79763 8748917
-153.99162 -7.6643806 110.29805 9012345
-154.93439 -7.7298441 109.68064 8485491
-152.73022 -6.635602 111.5386 9142907
-153.46492 -6.7256813 111.04023 9275773
-154.20184 -6.8163161 110.54025 9736836
-154.84581 -6.9832854 110.06467 8682867
-152.20404 -5.6989632 112.27957 8222573
-152.93802 -5.7874079 111.78236 9143163
-153.67413 -5.8763719 111.28357 8617075
-151.67761 -4.7625251 113.02051 7564131
-152.4109 -4.8494067 112.52444 9143163
-153.14627 -4.936728 112.02686 8814197
-150.88765 -3.3580656 114.13215 11314332
-151.75194 -3.6769495 113.45213 10064265
-152.61823 -3.9973834 112.77018 9340285
-150.32771 -2.4212749 114.8482 10525327
-151.09219 -2.5049179 114.38009 12433069
-151.82584 -2.5884161 113.88525 10985620
-149.85432 -1.562796 115.43942 11183513
-150.5332 -1.5667255 115.09869 10393741
-151.2973 -1.6491036 114.62885 12037537
-149.22655 -0.3925944 116.39032 9801093
-149.99393 -0.62869292 115.83247 9867654
-150.7795 -0.70956314 115.38091 8814710
-148.76076 0.42814034 117.32624 9734788
-149.57082 0.23180811 116.75404 10656146
-150.22055 0.074117959 116.29486 10064777
-137.955 1.5274692 131.71744 5919050
-138.83035 1.528432 131.2811 6709850
-139.70824 1.5294563 130.84344 7958632
-146.91789 1.0197747 119.79374 7169629
-147.82159 1.0204189 119.35059 7169629
-138.08382 2.2849782 131.96512 5261891
-139.00038 2.1212409 131.44037 5657419
-137.42949 3.2627168 132.69434 6314837
-138.32736 3.1400104 132.19572 4671038
-136.27554 4.8405123 133.9198 7038307
-136.86688 4.4640021 133.46967 8025455
-137.67122 4.374208 133.03136 9538434
-138.38496 4.0606699 132.54613 7302758
-136.35284 5.6358075 134.20874 6445911
-137.13231 5.5631394 133.78984 6643547
-137.72232 5.3290286 133.39906 10262156
-135.74684 6.5858054 134.9023 9472384
-136.5257 6.5142226 134.48422 8090219
-137.18277 6.5211468 134.15919 6643547
-135.26373 7.4585776 135.50272 8287598
-135.91879 7.4664321 135.17912 9143419
-136.69901 7.3957715 134.76073 9011577
-135.19405 8.4662056 135.95247 9406591
-136.09131 8.3501101 135.45697 8024426
-134.58679 9.420722 136.64851 11248283
-135.5787 9.3877363 136.14 10064265
-136.16896 9.155076 135.74977 7563619
-133.87877 10.326693 137.37486 14603206
-134.75191 10.341317 136.94527 13024438
-135.56032 10.112718 136.44769 12037799
-133.33693 11.52722 138.13965 9208443
-134.14357 11.299759 137.64346 11248024
-134.95148 11.071759 137.14636 10064265
-132.72868 12.486858 138.83823 8813941
-133.3167 12.255455 138.44962 9603201
-134.30833 12.226423 137.94289 9537408
-132.80252 13.300138 139.1364 9998471
-133.69913 13.189109 138.6436 9800579
-132.21622 14.266281 139.86131 11775139
-132.99231 14.202179 139.44461 12433069
-133.56171 13.96835 139.03391 8813941
-131.21573 15.413558 141.27686 6511954
-131.74202 15.174835 140.82095 7104090
-132.50185 15.109168 140.38666 9406078
-126.27606 16.537167 147.99358 13223352
-127.15424 16.557135 147.57808 11314071
-130.13513 15.931855 142.84599 9735552
-130.87074 15.957532 142.6154 9537144
-125.8027 17.273375 148.51933 9208435
-126.46211 17.289015 148.2094 9538172
-127.24789 17.224472 147.80469 8747889
-125.24692 18.51096 149.31099 10854036
-125.84184 18.27515 148.92549 9604485
-126.62852 18.211258 148.52242 9339769
-124.62872 19.500744 150.03195 9933193
-125.2237 19.264532 149.64635 10854036
-126.10598 19.287727 149.23508 10064778
-124.60492 20.256998 150.36876 9669509
-125.48701 20.280991 149.95796 8814711
-126.08358 20.044325 149.57123 9341054
-124.0806 21.339792 151.08501 8748409
-124.86744 21.277433 150.68248 8814454
-125.46406 21.040321 150.29555 8682867
-123.46048 22.339155 151.81107 8156014
-124.24725 22.277132 151.40871 9932424
-124.84399 22.039616 151.02167 8682867
-123.02986 23.518145 152.52391 9537409
-123.48111 23.224792 152.18227 9406079
-124.41453 23.218704 151.73402 9341054
-122.40829 24.525448 153.25414 9537409
-123.00494 24.286957 152.86662 8813686
-123.79306 24.225674 152.46397 8419184
-122.2634 25.345161 153.67596 8814198
-123.17088 25.236309 153.19588 8089963
-121.64056 26.359592 154.40984 8880247
-122.64362 26.340294 153.92259 9012089
-123.242 26.100546 153.53377 9209467
-121.23048 27.598927 155.18762 10261127
-121.88075 27.303644 154.71161 9142905
-122.61852 27.118662 154.26949 7563619
-119.7211 28.638584 156.72244 9735043
-120.5962 28.448858 156.14745 9603711
-121.47117 28.331579 155.62242 9735300
-119.26696 29.711145 157.69258 9735043
-119.93039 29.187088 156.99445 9735043
-120.80372 29.213936 156.56963 9932419
-158.96124 -13.607337 104.57858 10457481
-159.59573 -13.630535 104.17217 9997442
-160.42723 -13.505643 103.70799 9011573
-175.95259 -13.949622 82.551369 8617331
-176.34798 -13.951334 81.703346 8617331
-176.73921 -13.953041 80.853401 9669765
-177.12639 -13.954744 80.00161 10261132
