# .PCD v0.7 - Point Cloud Data file format
VERSION 0.7
FIELDS x y z rgb
SIZE 4 4 4 4
TYPE F F F U
COUNT 1 1 1 1
WIDTH 1169
HEIGHT 1
VIEWPOINT 0 0 0 1 0 0 0
POINTS 1169
DATA ascii
-2.4495192 -41.263378 -172.55551 9406080
-1.5673933 -41.128765 -172.5096 8418927
-1.7860212 -40.204548 -172.87321 8155755
-0.91054821 -40.039829 -172.8391 7629410
-1.4949751 -39.312504 -173.16988 7037274
-0.87342358 -39.090031 -173.18442 9011062
-0.25152111 -38.868095 -173.19876 10260358
-0.83584118 -38.138748 -173.53029 7498593
-0.087977409 -37.955208 -173.51688 8223083
-0.048792839 -37.071835 -173.83762 8683891
0.57532978 -36.78154 -173.87685 11381404
0.018658638 -36.241684 -174.13565 9407614
0.78294849 -36.155552 -174.08466 10986646
0.71250629 -35.212234 -174.43925 9933959
1.5478792 -34.825775 -174.49104 10920088
0.85111713 -34.14732 -174.81599 10262413
1.74368 -34.018501 -174.7668 8420726
1.5292406 -33.083046 -175.13411 7564648
2.4154634 -32.923504 -175.09688 8091505
1.8298464 -32.183788 -175.43234 7564648
2.3339739 -31.924204 -175.47328 7696490
3.0901308 -31.743948 -175.45778 8420470
2.4625673 -31.134851 -175.79079 7959919
3.2339602 -31.054855 -175.75372 9603716
3.1845369 -30.371004 -176.26305 8420470
3.842824 -30.034725 -176.51109 8880507
-165.47914 -64.304375 -63.399891 11906725
-163.9725 -64.272972 -63.284843 11511449
-163.60571 -64.219093 -63.824581 12498087
-162.99113 -64.129555 -64.720482 11116950
-162.49683 -64.058144 -65.434029 10459023
-160.89983 -64.011482 -65.476768 8287342
-160.28197 -63.923248 -66.355064 10063753
-159.66042 -63.835285 -67.228981 11379612
-158.09375 -63.791042 -67.25206 11379612
-157.72105 -63.738865 -67.768639 8947070
-157.22185 -63.669361 -68.454857 9143420
-156.84587 -63.617374 -68.967659 8616048
-156.59445 -63.582718 -69.308418 8616048
-154.93347 -63.523983 -69.477257 11576217
-154.43109 -63.455547 -70.148857 8682867
-153.80025 -63.370277 -70.984558 10260872
-153.41998 -63.319263 -71.483803 9011320
-151.66246 -63.246727 -71.78923 9603458
-151.15529 -63.179611 -72.444008 9143163
-150.51787 -63.095924 -73.257957 9010808
-150.00575 -63.029209 -73.906113 7563619
-148.53313 -62.993252 -73.857674 9801349
-147.8934 -62.910851 -74.65522 9604226
-147.25034 -62.828735 -75.448395 9340798
-146.72063 -62.757832 -76.072922 8288365
-144.90334 -62.64156 -76.251915 11906725
-144.47099 -62.573776 -76.693344 9209211
-143.74826 -62.461102 -77.424767 7169627
-143.02316 -62.348808 -78.151146 10458505
-142.29538 -62.236942 -78.871742 8551025
-141.56526 -62.125446 -79.587273 6511954
-139.50247 -61.971985 -79.993797 11182230
-138.7737 -61.862236 -80.692162 7563619
-138.06221 -61.761765 -81.396469 7039331
-137.25635 -61.664463 -82.265091 7828846
-136.71886 -61.600685 -82.841896 8682867
-135.05013 -61.524799 -82.956268 10656654
-134.51292 -61.461842 -83.522316 9933444
-133.83855 -61.383308 -84.225441 9210491
-133.16139 -61.305008 -84.924103 9210491
-132.47559 -61.224442 -85.614159 9209213
-131.73634 -61.120827 -86.26693 8814711
-129.36165 -60.896358 -86.74189 9011321
-128.756 -60.807693 -87.238892 9274749
-127.84517 -60.675064 -87.978104 8090986
-127.08397 -60.564846 -88.588196 7499106
-126.32066 -60.454948 -89.192451 9273463
-125.5555 -60.345341 -89.791489 10062979
-124.78824 -60.23605 -90.384621 7958120
-123.86517 -60.105381 -91.089424 9932674
-123.09398 -59.996784 -91.670761 10524297
-122.32086 -59.888508 -92.246346 11445141
-121.54614 -59.78056 -92.816765 8681324
-120.91974 -59.691833 -93.264969 8089959
-120.41145 -59.606865 -93.569977 8090987
-119.89001 -59.515717 -93.862534 8813945
-119.02112 -59.364525 -94.34549 7235423
-118.03996 -59.2146 -94.966415 7827299
-117.28162 -59.120251 -95.5261 6709078
-116.52132 -59.026157 -96.080132 7563619
-115.60652 -58.913544 -96.738243 11248282
-114.84228 -58.820015 -97.281082 10261388
-114.07611 -58.726768 -97.818237 11906465
-113.40372 -58.622337 -98.194466 6512978
-103.16053 -58.621517 -104.5176 8617075
-101.96387 -58.930714 -105.31393 7564392
-101.27135 -58.895256 -105.86494 7564392
-100.53254 -59.04401 -106.36628 6577494
-99.841026 -59.012226 -106.91483 6643282
-99.011467 -58.976429 -107.57175 7103576
-98.18222 -58.943394 -108.22719 7168858
-97.276718 -58.978878 -108.87122 6313551
-96.443977 -59.045494 -109.44371 6510930
-95.674843 -58.984127 -110.09519 6510930
-94.976265 -59.057388 -110.57945 3682608
-94.251144 -58.994026 -111.19401 3814193
-93.425941 -58.977947 -111.84521 4011055
-92.591698 -59.053978 -112.40656 3945260
-91.593536 -59.046879 -112.92387 5064510
-90.651382 -58.963005 -113.42548 6051663
-89.867752 -58.895222 -113.84185 6906460
-89.085571 -58.829552 -114.25665 7234653
-88.262932 -58.945766 -114.61671 9208182
-113.03139 -58.552006 -98.350716 6512978
-112.28017 -58.407681 -98.652779 8683120
-111.49658 -58.246922 -98.923225 8683120
-109.46864 -57.995979 -100.2307 7630180
-108.78745 -57.953609 -100.8168 8880245
-108.0024 -57.922001 -101.548 10130054
-107.3416 -57.861427 -102.25477 7630436
-106.53983 -58.002041 -102.61636 8090987
-105.5779 -58.054581 -103.23241 9011317
-104.79458 -57.998413 -103.83208 9932418
-104.02139 -57.984737 -104.37671 8879988
-103.19112 -58.097469 -104.86047 8222317
-102.31072 -58.218323 -105.41537 8879737
-101.47363 -58.173607 -106.07379 7564392
-100.63721 -58.131584 -106.73043 8813685
-99.940109 -58.098339 -107.27617 7629666
-99.24334 -58.066975 -107.82048 7958630
-98.407318 -58.031658 -108.47219 7037274
-97.576607 -58.001854 -109.12784 7563618
-96.770386 -58.021729 -109.74332 8286826
-95.872253 -58.132492 -110.38584 6510930
-95.180389 -58.113857 -110.92854 4471865
-94.535141 -58.134716 -111.41695 5326915
-93.615067 -58.261166 -112.06864 5721672
-92.656731 -58.366299 -112.67207 5392708
-91.760254 -58.184879 -113.19567 5853258
-90.865875 -58.060425 -113.69028 6774359
-90.080177 -57.99353 -114.1073 7037788
-89.253845 -58.108849 -114.46956 7103067
-88.273354 -58.213352 -114.91272 8945265
-87.385933 -58.098522 -115.39989 7564126
-86.442398 -57.890812 -115.95311 6840662
-85.548508 -57.644058 -116.49715 9472380
-106.81638 -57.585686 -103.12553 8814710
-106.09324 -57.529236 -103.66782 9866882
-103.18639 -57.589012 -105.29516 9735043
-102.62102 -57.555298 -105.73108 9011322
-101.77325 -57.506466 -106.38306 8814199
-100.92579 -57.460068 -107.03274 8353391
-100.07852 -57.416096 -107.68007 7695204
-99.37088 -57.38026 -108.21622 7563619
-98.945206 -57.358932 -108.53596 6510930
-96.559036 -57.602798 -110.10107 6510930
-96.143272 -57.590649 -110.4276 6510930
-90.879822 -57.325035 -113.98569 7037274
-90.034485 -57.162285 -114.47006 7037274
-89.360916 -57.251526 -114.76608 7234652
-88.520264 -57.132114 -115.22973 7103066
-87.579521 -57.059631 -115.72345 6906454
-86.640259 -56.989685 -116.21479 7038040
-85.664177 -57.102859 -116.65247 9011830
-84.728668 -57.038219 -117.13984 6775382
-83.987923 -56.806301 -117.59666 7038307
-83.365685 -56.766315 -117.91963 7038307
-88.680283 -56.408573 -115.43517 7037274
-87.688515 -56.246799 -116.00906 6840662
-86.851837 -56.097576 -116.49465 7432540
-85.864433 -56.205967 -116.92133 7959142
-84.923088 -56.139946 -117.40479 7696227
-84.139778 -56.086845 -117.80613 7827560
-83.359421 -56.036968 -118.20874 8156271
-82.514473 -55.985584 -118.64621 7235685
-81.648392 -55.935112 -119.09374 11378324
-85.94558 -55.5275 -117.32274 7235677
-85.152756 -55.469196 -117.71777 8617072
-84.197121 -55.270927 -118.30122 7762020
-83.483498 -55.189308 -118.68156 7038298
-82.651527 -55.082676 -119.14715 7958887
-81.744621 -55.177887 -119.47518 10063492
-80.796227 -55.143307 -119.92023 7169116
-79.929893 -54.931988 -120.45114 7433056
-78.975769 -54.748203 -121.02141 6840919
-78.346344 -54.713379 -121.32623 6511954
-81.797256 -54.592903 -119.918 7892582
-80.975517 -54.469795 -120.41404 7695460
-80.149246 -54.345535 -120.90175 8090987
-79.189186 -54.224556 -121.434 7038298
-78.332146 -54.090378 -121.93956 8879986
-77.392632 -54.072128 -122.32703 7367006
-76.770935 -53.81918 -122.85495 6511954
-75.940086 -53.773094 -123.23158 7630179
-75.303963 -53.62006 -123.65622 10853012
-76.952194 -53.437016 -123.33646 6511954
-76.146034 -53.390011 -123.69234 8419183
-75.091446 -53.33271 -124.16354 12235432
-74.316452 -53.209606 -124.61243 10919572
-73.344856 -53.098873 -125.11921 10591121
-72.48011 -52.921417 -125.70926 8814714
-71.634842 -52.807274 -126.15903 8354418
-70.862274 -52.839848 -126.38519 8813936
-71.532463 -52.594391 -126.50527 7301986
-70.886383 -52.564648 -126.77959 9734779
-70.066002 -52.518921 -127.09726 8485228
-69.205383 -52.382088 -128.42442 8616822
-68.493248 -52.193329 -128.2131 8090479
-66.089127 -52.199024 -130.78545 7959656
-65.412598 -52.035633 -130.61542 11907748
-63.518574 -51.873703 -132.32951 8288365
-62.605766 -51.774979 -132.46124 8288365
-61.862225 -51.684334 -132.53235 8289133
-61.64613 -51.625771 -133.72664 8090987
-61.095257 -51.566555 -133.79739 8090987
-60.177929 -51.468018 -133.91096 6643029
-59.376537 -51.336578 -135.13875 11380380
-58.454041 -51.238098 -135.23845 10327692
-57.716927 -51.159607 -135.31483 7038298
-57.075787 -51.045773 -136.51123 7827558
-56.149181 -50.947582 -136.59413 8681835
-55.303692 -50.812363 -137.80214 9010800
-54.372456 -50.714214 -137.87099 11378324
-53.881622 -50.616604 -139.04851 9142392
-53.506824 -50.577244 -139.0717 9142392
-52.758221 -50.498886 -139.11551 9143930
-51.919384 -50.380405 -139.92586 9210491
-50.933628 -50.26231 -140.35172 9209979
-50.218342 -50.141521 -141.53304 10590091
-49.465073 -50.065765 -141.5627 10195078
-48.717495 -49.995037 -141.60339 10655630
-47.826763 -49.88961 -142.88402 8681843
-46.888065 -49.80196 -142.92282 8682355
-46.163757 -49.711704 -144.19075 8813683
-45.406792 -49.639721 -144.20627 8682611
-44.650875 -49.567833 -144.2189 8090987
-44.281982 -49.50996 -145.4724 9011576
-43.521305 -49.437881 -145.47578 9274749
-42.761559 -49.365936 -145.47643 7037274
-41.991394 -49.270027 -146.72798 8287592
-41.227478 -49.197887 -146.71806 8287592
-40.247002 -49.082146 -147.96446 7564392
-39.479534 -49.00983 -147.94283 8616822
-38.671295 -48.910465 -149.19162 8090987
-37.707458 -48.819908 -149.15059 12893103
-36.879398 -48.718613 -150.397 8090987
-36.104843 -48.646103 -150.35294 7039331
-35.258194 -48.543079 -151.59828 7039331
-34.479969 -48.470383 -151.54347 8091244
-33.614861 -48.365601 -152.7878 8288365
-32.833069 -48.292812 -152.722 8354159
-31.16404 -48.113323 -153.88841 7959405
-29.472889 -47.932053 -155.04245 11905694
-27.759701 -47.748863 -156.18391 9670020
-26.62011 -47.618759 -157.39555 9143934
-26.024231 -47.563824 -157.31305 11381404
-25.627674 -47.527298 -157.25688 11381404
-24.6656 -47.413597 -158.48956 9473668
-23.86887 -47.340328 -158.36723 9341822
-22.887646 -47.224838 -159.59811 8420464
-22.088196 -47.151608 -159.46437 8420464
-21.288265 -47.052635 -160.72945 12104872
-20.686169 -46.997597 -160.62135 13684160
-19.668289 -46.878654 -161.85271 11709858
-18.862713 -46.805183 -161.6976 11709858
-17.825222 -46.684414 -162.92685 9998728
-16.365833 -46.525108 -164.07561 7038298
-15.554477 -46.451488 -163.89874 8814203
-14.47951 -46.327168 -165.12831 7959152
-12.97948 -46.164253 -166.2662 10459025
-11.459666 -45.999554 -167.40112 6511186
-9.5083189 -45.795979 -168.42358 9603200
-7.9470472 -45.627529 -169.54729 10920340
-7.185008 -45.472103 -170.68515 11380380
-6.3695784 -45.160706 -170.76051 9932935
-5.5574141 -44.733475 -170.93898 8617331
-5.5751677 -44.296429 -171.41756 9801348
-4.7632475 -44.03043 -171.72641 9011832
-3.9405851 -43.91486 -171.74144 9932934
-4.7060652 -43.254513 -172.06714 10196106
-3.9514952 -42.928246 -172.10556 8551539
-3.9609861 -42.063992 -172.42456 9011834
-3.1348448 -41.832729 -172.4202 8814201
-3.8310423 -41.30431 -172.68996 9406336
-3.2123213 -40.942104 -172.75621 7630443
-3.0123396 -40.111111 -173.04027 8617592
-2.3212843 -39.95401 -173.02327 8880507
-3.0202742 -39.216286 -173.37027 10328208
-2.2446318 -39.084705 -173.33475 8419696
-2.2826719 -38.144863 -173.68459 10261132
-1.3984632 -37.966724 -173.65445 7301470
-2.341342 -37.266258 -174.01416 10853012
-1.5079679 -37.03791 -174.00797 9997959
-0.6746397 -36.810417 -174.00151 8486512
-1.4288054 -36.24799 -174.2899 8748404
-0.53819561 -36.116203 -174.24207 8486512
-1.5161467 -35.585758 -174.54308 9735555
-0.68125439 -35.150623 -174.61275 8486257
0.15437794 -34.716457 -174.68207 9933958
-0.54532146 -34.177055 -174.95613 8946296
0.15273762 -33.988541 -174.94997 9143675
0.20338917 -33.102085 -175.27051 7235424
0.99004841 -32.825615 -175.28712 7564648
0.14903736 -32.21632 -175.60225 6510930
0.9896822 -31.990932 -175.59419 6446425
1.0737276 -31.199883 -175.90575 9538178
1.831502 -31.145649 -175.85313 9209214
1.9189119 -30.391165 -176.3851 8551798
2.6833849 -29.856739 -176.78534 7960176
3.5461245 -29.458918 -177.75038 7565675
3.9714632 -29.454197 -177.71771 7565675
-164.98576 -64.231949 -64.125626 9669505
-164.36578 -64.141594 -65.028923 9933193
-163.99181 -64.087563 -65.568581 8486262
-162.24867 -64.022408 -65.789619 9011321
-161.75005 -63.951279 -66.498131 8484977
-161.12367 -63.862553 -67.379829 9537665
-159.03459 -63.747589 -68.097755 12235690
-158.40483 -63.660049 -68.961891 9405307
-157.89803 -63.590187 -69.649658 8616048
-156.34242 -63.548157 -69.648491 8616048
-155.83632 -63.479164 -70.326035 10589836
-155.20067 -63.393154 -71.169128 9406076
-154.6893 -63.324608 -71.84008 8747891
-153.03807 -63.268341 -71.981003 6511954
-152.52718 -63.200623 -72.641457 7563619
-151.88506 -63.116264 -73.462685 9734274
-151.36903 -63.048977 -74.116539 9734531
-149.7487 -62.995907 -74.228951 9734531
-149.23274 -62.929405 -74.872108 9471871
-148.58504 -62.846596 -75.672249 7958633
-148.06416 -62.780579 -76.308777 7629668
-146.28815 -62.690365 -76.521935 8682867
-145.99748 -62.644676 -76.819237 8682867
-145.70644 -62.59919 -77.115593 8682867
-145.12285 -62.508247 -77.705406 10722190
-144.39137 -62.394924 -78.438408 8485229
-143.65718 -62.282059 -79.165504 8485229
-142.92061 -62.169559 -79.887466 9603201
-140.8325 -62.014408 -80.296967 8485233
-140.09746 -61.903728 -81.001701 8550514
-139.36665 -61.796455 -81.704567 9011834
-138.68001 -61.710056 -82.429558 10789528
-138.13887 -61.645721 -83.012093 8289396
-137.73166 -61.597561 -83.446953 7039331
-136.44928 -61.568813 -83.128975 8682867
-135.90843 -61.505283 -83.70063 8682867
-135.22989 -61.426056 -84.411232 8682867
-134.54814 -61.347069 -85.116806 9603973
-133.72607 -61.252586 -85.95726 8354166
-133.17583 -61.189762 -86.513908 7762027
-131.28006 -61.053467 -86.648521 9209467
-130.82289 -60.986153 -87.027824 9077626
-130.05928 -60.874271 -87.655609 8485233
-129.29362 -60.762672 -88.278084 8287854
-128.67966 -60.673641 -88.771912 8617330
-128.21829 -60.606991 -89.140137 9209467
-127.75621 -60.540447 -89.505959 8681843
-126.98441 -60.429787 -90.111366 8484463
-126.21086 -60.319473 -90.711487 8155499
-125.43521 -60.209442 -91.305717 7563619
-124.50208 -60.077827 -92.01165 8024169
-123.72258 -59.96854 -92.593994 10459017
-122.94118 -59.859573 -93.170403 10852492
-122.1582 -59.750889 -93.741707 7760739
-121.51694 -59.657581 -94.184204 7432548
-120.99506 -59.568089 -94.482689 9734788
-120.46831 -59.476433 -94.775154 9734788
-119.59238 -59.325367 -95.25914 8485234
-118.77892 -59.205738 -95.787354 10261124
-118.01292 -59.110703 -96.348648 6380368
-117.0914 -58.996964 -97.015427 9735301
-116.32142 -58.902519 -97.565369 12433069
-115.54964 -58.808365 -98.109634 11314844
-114.62119 -58.695683 -98.755989 10459535
-114.00095 -58.620811 -99.182907 7565675
-113.69029 -58.583351 -99.394905 13023917
-113.06833 -58.508732 -99.816269 10853518
-112.13344 -58.397148 -100.44229 10195846
-111.35269 -58.304428 -100.95828 6510930
-110.57028 -58.212029 -101.46871 8288110
-109.67654 -58.06229 -101.87397 7564651
-108.649 -57.842411 -102.14761 9669766
-94.255035 -57.908993 -111.73773 5919050
-93.701241 -57.897587 -112.17052 5721672
-92.840439 -57.864075 -112.78286 5919050
-92.212929 -57.809715 -113.12543 5919050
-105.24438 -57.436081 -104.58482 7959142
-104.48573 -57.328327 -105.18769 7893351
-103.62687 -57.20293 -105.73867 9012091
-102.84274 -57.12022 -106.36238 7761769
-102.08801 -57.124683 -106.80987 9274749
-101.29356 -57.039577 -107.41761 8616306
-100.41288 -56.978825 -108.0351 7892582
-99.537453 -56.923107 -108.65501 7958375
-98.714195 -57.032932 -109.06719 7563618
-97.993698 -56.994293 -109.58816 8616307
-97.128014 -56.949318 -110.20982 10523787
-96.123833 -57.144508 -110.74773 8023654
-95.284134 -57.215027 -111.31615 6314064
-94.585197 -57.195679 -111.85309 6182992
-93.885979 -57.178062 -112.38877 6248786
-93.020813 -57.143322 -112.99918 5984843
-92.073959 -57.060879 -113.50829 6248015
-91.242416 -56.926136 -113.96947 7892582
-90.332458 -56.910099 -114.42255 7037274
-96.433968 -56.591125 -111.0241 10918802
-95.582352 -56.559933 -111.65997 6709593
-94.727585 -56.529293 -112.29041 6315092
-94.015175 -56.505394 -112.81431 6577493
-93.244423 -56.385342 -113.40484 6576723
-92.40799 -56.227898 -113.91464 7432032
-91.36689 -56.205093 -114.38831 12432039
-90.409897 -56.216297 -114.80007 7629154
-89.614708 -56.149433 -115.20881 7366238
-88.891144 -55.922501 -115.70583 7366238
-88.014786 -55.818413 -116.17561 6971992
-87.216393 -55.624271 -116.68697 7235162
-90.597023 -55.589066 -115.31676 7037274
-89.785255 -55.51498 -115.70903 7497823
-88.976936 -55.443733 -116.10207 7366238
-88.207367 -55.267464 -116.65726 7498592
-87.242744 -55.22522 -117.09467 7827557
-86.374062 -55.094929 -117.60607 7103839
-85.528938 -54.918556 -118.15663 7762027
-84.563141 -54.872715 -118.53979 7498850
-83.724243 -54.732803 -119.01923 6511954
-83.241722 -54.696796 -119.24437 6511954
-85.430862 -54.597179 -118.6903 7762027
-84.77562 -54.541962 -118.9828 6906714
-83.992668 -54.390549 -119.49618 6643540
-83.274048 -54.289371 -119.89657 7367263
-82.297943 -54.21479 -120.33386 8221546
-81.411514 -54.121872 -120.77393 8089961
-80.45974 -53.94173 -121.36322 8090987
-79.730415 -53.753422 -122.03456 7433056
-78.750076 -53.560673 -122.58085 9471866
-77.931702 -53.503082 -122.92442 10064003
-77.440781 -53.46912 -123.1294 6511954
-76.607796 -53.301907 -124.43079 8288366
-75.719742 -53.099453 -124.32841 9736068
-73.143456 -52.883629 -126.49483 8091505
-70.611717 -52.742195 -128.79515 8813936
-70.171829 -52.644894 -128.72902 7038298
-69.688103 -52.513592 -128.57803 8616822
-68.27272 -52.438084 -130.40085 8616822
-67.544266 -52.358234 -130.53221 9866629
-66.634491 -52.25869 -130.69211 8682867
-65.897285 -52.132092 -131.96126 12565421
-64.798515 -52.012589 -132.13568 12565421
-64.06678 -51.933098 -132.24789 8288365
-63.486122 -51.824238 -133.47636 6972505
-62.381618 -51.705021 -133.62897 10195848
-61.5961 -51.574348 -134.8774 13156018
-60.670368 -51.475037 -134.98988 12169381
-59.930714 -51.395756 -135.07645 9143675
-59.305607 -51.282917 -136.29121 8419952
-58.189636 -51.164085 -136.40506 8287853
-57.357922 -51.029457 -137.6328 7038298
-56.423302 -50.930573 -137.71278 8681835
-55.759346 -50.813995 -138.91954 9734523
-55.007542 -50.734921 -138.9734 9734013
-54.256657 -50.655968 -139.02443 8089963
-53.570881 -50.537514 -140.22281 8418927
-52.627323 -50.438858 -140.27371 11643036
-51.733894 -50.298946 -141.47696 9275772
-50.786167 -50.200443 -141.5135 9340027
-49.89727 -50.083305 -142.77901 11379095
-49.143646 -50.012768 -142.82005 9537145
-48.390766 -49.942322 -142.85814 8681843
-47.678276 -49.853447 -144.14037 9931902
-46.731522 -49.765083 -144.17442 8813683
-45.997902 -49.672916 -145.45134 8418927
-45.42524 -49.618469 -145.46043 8813683
-44.853378 -49.564217 -145.46732 8551281
-44.289841 -49.487617 -146.7382 9011576
-43.330963 -49.396751 -146.73732 9011574
-41.785892 -49.227329 -147.99696 7564383
-40.823425 -49.136482 -147.97849 8616822
-40.02446 -49.037754 -149.23959 7169891
-39.250652 -48.964878 -149.21364 8616822
-38.433292 -48.864414 -150.47411 9012088
-37.461433 -48.77319 -150.42751 9538175
-36.624062 -48.670856 -151.68562 10262415
-36.038052 -48.616009 -151.64952 11906725
-35.647926 -48.579548 -151.62442 7039331
-35.183197 -48.512001 -152.90868 8618105
-34.398354 -48.438759 -152.84956 7367263
-32.53941 -48.241249 -154.01973 7630440
-31.051579 -48.078419 -155.21404 7893613
-30.261189 -48.005089 -155.13026 9735297
-29.344734 -47.895443 -156.37782 8617074
-28.551136 -47.822056 -156.28279 9735297
-27.615536 -47.710583 -157.52907 10196107
-25.864037 -47.523808 -158.66754 8420983
-24.492085 -47.372116 -159.85655 9999495
-23.688709 -47.298393 -159.7292 8420464
-22.697361 -47.181648 -160.97476 8090731
-21.891369 -47.107868 -160.83597 7563619
-20.880367 -46.989296 -162.07977 13486522
-19.447193 -46.832096 -163.25137 8090987
-18.634964 -46.758137 -163.09096 8814454
-17.586666 -46.63604 -164.33534 8617075
-16.112804 -46.475143 -165.49657 7893613
-15.294864 -46.401039 -165.31422 7564651
-14.413699 -46.29385 -166.60732 10064011
-13.79803 -46.238186 -166.46251 9143678
-12.693454 -46.110752 -167.70958 7038307
-11.15842 -45.944313 -168.85735 6510930
-10.331996 -45.870049 -168.64217 6510930
-9.3955641 -45.757454 -169.94618 9341820
-8.7736235 -45.701588 -169.77649 13157042
-8.5584364 -45.379204 -170.82544 8092011
-7.8120146 -45.038723 -170.92603 8222829
-6.9970045 -44.664249 -171.03918 9670019
-7.6321135 -44.325768 -171.43513 10261899
-6.8206205 -44.110474 -171.69038 10919829
-6.0067472 -43.98502 -171.93909 8748917
-6.1370497 -43.224663 -172.23294 8090987
-5.4006605 -42.934559 -172.25999 9209211
-6.0352812 -42.131439 -172.62413 8682867
-5.2048521 -42.103813 -172.54445 9406590
-5.2863646 -41.212429 -172.88121 10327692
-4.4584913 -40.911045 -172.90251 9670020
-5.2301893 -40.246597 -173.23036 10130057
-4.3998899 -40.014366 -173.22598 11380125
-3.5697279 -39.783066 -173.22124 9012606
-4.5478621 -39.260536 -173.51927 10985881
-3.7843809 -39.169117 -173.47031 12498606
-4.4170866 -38.566605 -173.76038 10985881
-3.6383238 -38.181774 -173.81767 9209985
-2.9642439 -37.697189 -173.92294 10919318
-3.5969725 -37.092178 -174.21397 8485491
-2.844615 -37.030636 -174.15524 8419696
-2.7683973 -36.150902 -174.4706 6709333
-2.0735197 -35.737709 -174.54739 8551281
-2.776248 -35.200706 -174.82094 6511954
-1.9390059 -34.972176 -174.81444 9143674
-2.0282469 -34.183079 -175.11435 9801348
-1.245059 -34.053867 -175.07716 8946296
-1.9498854 -33.305382 -175.42874 10525328
-1.1098433 -33.077858 -175.42155 8617075
-0.27050304 -32.642593 -175.49081 6510930
-1.2548933 -32.106186 -175.79469 8222317
-0.35672283 -31.975878 -175.74541 6774616
-1.1177855 -31.405748 -176.03754 7038307
-0.27502728 -31.184462 -176.05972 7301218
0.56795216 -30.964882 -176.08717 9209214
-0.27766705 -30.587061 -176.47212 8485494
0.56705952 -30.290932 -176.61494 8485493
1.4138079 -29.873501 -176.88564 8025198
2.0570879 -29.476244 -177.86215 9405819
2.9084444 -29.466152 -177.79874 10063235
4.0061769 -29.296885 -179.51041 10064777
-167.33289 -64.034103 -64.214058 8222834
-166.38564 -64.244934 -64.430801 8091248
-165.75957 -64.153877 -65.341034 8486262
-163.61623 -64.033669 -66.106339 9472642
-163.11327 -63.961861 -66.820648 11182746
-162.48091 -63.872475 -67.709053 10195593
-160.49301 -63.774147 -68.256416 9866623
-159.85844 -63.685822 -69.128357 14078918
-159.47569 -63.632938 -69.649147 10459017
-159.21977 -63.597782 -69.995247 10260358
-157.26108 -63.503162 -70.504768 8616048
-156.62053 -63.416412 -71.3554 13022893
-156.10535 -63.347275 -72.032318 11378324
-154.30446 -63.273293 -72.341393 10786703
-153.91798 -63.222073 -72.840759 9931652
-153.271 -63.136955 -73.669174 8616049
-152.62068 -63.052135 -74.49308 8352878
-151.11012 -63.015381 -74.442169 9734531
-150.59036 -62.948318 -75.090981 8221549
-149.93779 -62.864834 -75.898186 7564130
-149.28154 -62.781597 -76.700195 6511954
-147.67229 -62.731159 -76.78434 7761509
-147.25296 -62.670876 -77.244469 8682867
-146.51735 -62.556152 -77.989243 8682867
-145.77939 -62.441822 -78.72892 12235684
-145.03867 -62.327976 -79.462624 9208954
-144.44447 -62.237068 -80.046028 8814457
-142.18147 -62.057526 -80.6036 8024169
-141.44005 -61.945858 -81.314674 7563619
-140.69606 -61.834667 -82.01992 7563619
-139.98727 -61.740181 -82.741829 11511711
-139.3053 -61.659111 -83.475807 13881283
-137.32326 -61.5495 -83.879883 7828331
-136.64009 -61.469582 -84.597649 7565675
-135.81635 -61.373928 -85.452629 8354677
-135.12659 -61.294472 -86.15992 10393486
-134.57249 -61.231136 -86.722107 9011838
-132.89993 -61.15847 -86.790916 7762027
-132.30647 -61.077499 -87.316322 8222576
-131.53641 -60.964512 -87.951515 9472127
-130.7641 -60.851845 -88.580597 8748149
-129.98981 -60.739418 -89.20443 7827814
-129.36891 -60.649776 -89.699196 7958120
-128.90248 -60.58268 -90.068123 9405566
-128.43517 -60.515675 -90.434692 9405566
-127.65483 -60.404259 -91.041199 7694948
-126.87268 -60.293179 -91.642418 7563619
-126.08856 -60.182426 -92.237679 8352877
-125.14529 -60.049965 -92.944817 7695204
-124.35737 -59.939915 -93.528053 10260358
-123.56755 -59.830189 -94.105362 10391686
-122.77615 -59.720802 -94.677467 8484205
-122.29412 -59.652122 -95.013054 7037274
-121.76154 -59.559563 -95.307869 7038307
-121.05173 -59.436573 -95.697868 7038307
-120.17316 -59.287678 -96.186569 7630183
-119.37204 -59.177528 -96.73159 7564129
-118.59805 -59.081882 -97.293854 6511954
-117.66695 -58.967434 -97.961586 9406851
-116.88906 -58.872383 -98.512383 10591124
-116.10929 -58.777542 -99.057411 10261900
-115.32787 -58.683033 -99.597488 12958895
-114.85838 -58.6264 -99.918945 9736070
-114.38799 -58.569958 -100.2382 10261898
-113.60281 -58.476051 -100.76617 12629672
-112.81614 -58.382439 -101.28912 16247774
-112.02785 -58.289085 -101.80639 7366752
-111.07981 -58.177414 -102.42027 9735812
-110.28824 -58.084686 -102.92613 8814715
-109.49512 -57.992271 -103.42643 7959408
-108.54198 -57.881977 -104.02041 6446421
-107.74058 -57.787354 -104.50429 7367264
-107.09431 -57.709736 -104.88345 10262156
-106.52956 -57.608929 -105.08806 10458505
-105.91611 -57.481918 -105.2416 7498591
-102.63235 -57.008957 -108.29874 8813942
-101.98904 -56.86858 -108.40383 9406335
-101.31945 -56.713409 -108.47817 8813942
-100.70839 -56.590061 -108.60885 7826789
-99.963394 -56.537273 -109.11402 8221545
-99.089684 -56.487068 -109.7395 9734788
-98.374336 -56.389854 -110.53861 9537666
-97.675827 -56.295769 -110.93009 13220787
-96.863708 -56.215122 -111.5122 9669248
-95.970467 -56.162231 -112.10725 7104350
-95.070587 -56.107452 -112.69151 5986127
-94.397545 -55.908257 -113.47332 6906715
-93.669228 -55.897964 -113.86897 7431776
-92.729828 -55.799309 -114.3061 8352878
-91.744698 -55.701149 -114.77491 10590093
-91.08847 -55.63673 -115.08538 9734528
-93.031219 -55.563431 -114.67255 8023913
-92.04229 -55.465366 -115.14227 8813683
-91.054909 -55.369236 -115.60782 8748144
-90.167458 -55.203274 -116.30959 6643541
-89.324211 -55.048283 -116.72179 7169629
-88.618141 -54.964905 -117.07726 7762021
-87.727402 -54.79715 -117.65262 10261899
-86.906326 -54.724522 -118.02579 8288366
-86.125191 -54.623116 -119.64237 7762027
-85.293602 -54.459702 -119.69958 7498853
-84.462006 -54.29538 -119.75047 7038298
-82.010086 -54.168789 -122.4017 8090987
-81.052078 -53.924046 -122.24377 7564642
-78.308464 -53.75169 -124.81849 10262155
-77.624336 -53.590572 -124.72854 14078918
-75.486649 -53.363659 -126.64388 8682867
-74.365692 -53.214386 -126.83523 11972512
-72.986526 -53.016926 -128.32802 8617592
-72.06958 -52.908985 -128.50691 9077367
-71.155251 -52.802532 -128.68361 8353642
-70.461662 -52.67894 -129.98445 7828076
-69.548965 -52.578388 -130.16185 8089963
-68.819481 -52.498142 -130.29968 10260872
-68.099236 -52.372494 -131.58887 9603711
-66.997482 -52.252045 -131.77896 9143161
-65.700256 -52.06414 -133.14792 9208435
-64.592392 -51.943943 -133.31604 9735553
-63.823147 -51.814079 -134.58522 7959144
-62.894382 -51.713932 -134.71056 7959401
-62.152142 -51.634071 -134.80742 10590606
-61.543598 -51.522144 -136.04057 14866122
-60.423615 -51.402233 -136.16972 8419952
-59.60751 -51.268387 -137.41873 9735555
-58.669189 -51.168594 -137.51149 10853012
-57.919506 -51.08902 -137.58223 7038298
-57.266392 -50.973042 -138.80112 8090213
-56.323982 -50.873528 -138.87677 9734523
-55.652641 -50.755848 -140.09308 7761253
-54.705395 -50.65641 -140.15514 7892584
-53.825203 -50.516979 -141.3788 9011065
-52.873566 -50.417656 -141.42648 10721682
-52.164425 -50.296387 -142.63524 7695973
-51.407539 -50.224857 -142.68547 9011319
-50.463188 -50.136349 -142.74562 12168610
-49.766514 -50.048527 -144.04668 9997697
-48.816425 -49.959686 -144.0925 9931902
-48.099663 -49.870029 -145.39275 8681835
-47.335052 -49.798782 -145.4184 8287083
-46.571095 -49.727367 -145.44057 8089963
-45.828243 -49.633453 -146.72757 9537403
-45.443184 -49.596943 -146.73152 10853012
-44.866199 -49.542183 -146.73573 9932166
-43.909855 -49.428078 -148.02025 9011576
-43.136402 -49.354935 -148.01472 9142645
-42.353428 -49.257259 -149.29808 9208435
-41.575874 -49.183891 -149.28188 8682352
-40.799454 -49.110729 -149.26274 8616822
-39.992638 -49.010948 -150.53789 6840926
-39.212132 -48.937618 -150.50798 10985364
-38.190346 -48.817596 -151.77284 8090987
-37.406376 -48.744125 -151.73094 8090987
-36.560623 -48.640755 -153.00328 9406849
-35.772987 -48.567059 -152.95036 10262415
-34.710136 -48.443462 -154.20631 9537665
-33.919456 -48.369732 -154.14131 6511954
-33.034206 -48.262661 -155.41026 9406590
-32.239971 -48.188805 -155.33406 8025198
-31.33567 -48.079914 -156.6019 7959144
-30.538059 -48.006001 -156.51463 7367269
-29.013779 -47.839764 -157.70737 9801347
-27.468433 -47.671658 -158.89348 10392453
-26.665104 -47.597565 -158.78241 8090987
-25.700512 -47.483143 -160.04189 9537918
-23.909954 -47.292778 -161.17738 10262667
-22.503506 -47.137718 -162.37152 10130824
-21.690681 -47.063362 -162.22755 10985876
-20.669193 -46.943558 -163.48645 8814709
-19.016972 -46.766155 -164.62964 8090987
-18.403019 -46.710224 -164.50487 7564643
-17.754879 -46.624138 -165.85268 8617075
-17.138058 -46.568188 -165.72066 9735043
-15.648746 -46.405636 -166.89217 7564651
-15.030467 -46.34972 -166.75066 8814203
-14.139514 -46.241295 -168.06099 8090992
-13.518764 -46.185265 -167.91156 7038307
-12.402308 -46.056347 -169.17476 8024941
-10.643176 -45.869492 -170.28072 8682355
-10.018634 -45.81332 -170.11436 10591630
-10.002994 -45.286354 -170.95137 13157043
-9.1858397 -44.991096 -171.02191 9341820
-9.280139 -44.355839 -171.45663 8618101
-8.2684355 -44.202885 -171.79945 8091243
-7.5859861 -43.795132 -172.17978 9801348
-7.5998869 -43.053207 -172.45427 8090987
-6.8526106 -42.984909 -172.39857 8090987
-7.4205351 -42.248508 -172.73091 9341054
-6.6588697 -42.152851 -172.68372 8682867
-6.7644911 -41.182735 -173.05203 9538176
-5.9486341 -40.993 -173.03355 8682867
-6.4812193 -40.286865 -173.35089 8682867
-5.8597059 -39.990883 -173.39256 9143418
-5.8309965 -39.106415 -173.71477 8682867
-5.1060362 -39.139362 -173.62425 9932935
-5.6770735 -38.189453 -174.03539 8682867
-5.0500898 -38.118805 -173.99361 9406848
-4.4269133 -37.73774 -174.06633 9012606
-5.0629683 -37.133305 -174.35748 9735299
-4.224925 -37.109489 -174.27556 7234653
-4.8612776 -36.504066 -174.56712 9406334
-4.2363234 -36.12286 -174.63976 8484976
-3.470439 -35.773209 -174.68547 8024937
-4.1777601 -35.097935 -175.01038 6971481
-3.2823286 -34.963711 -174.96292 7433056
-3.4154081 -34.244606 -175.24179 7301470
-2.7867308 -33.951004 -175.28175 8090986
-3.3195829 -33.233154 -175.6035 7564643
-2.4931669 -33.049446 -175.58167 9077625
-2.5912275 -32.065903 -175.95406 7893097
-1.8179579 -31.978889 -175.90237 8748920
-2.3848143 -31.432959 -176.16457 8288371
-1.7545576 -31.013111 -176.33089 7630443
-0.91210461 -30.598911 -176.53192 8880507
-0.91627026 -30.072708 -176.93987 8288371
-0.069727898 -29.796267 -177.08 7038307
0.56638813 -29.494902 -177.96962 8485494
1.4184694 -29.48403 -177.90877 8485494
2.2864809 -29.299227 -179.53554 8813939
3.1462069 -29.298061 -179.5247 8813939
-167.62071 -63.717632 -64.902039 8617335
-167.07048 -63.97224 -65.385902 8617335
-166.60677 -64.04052 -66.133461 9933193
-165.12968 -64.06308 -66.246704 9933193
-164.4955 -63.972675 -67.147087 9143935
-163.85753 -63.882477 -68.042847 8682099
-161.84477 -63.783264 -68.592888 10590091
-161.20418 -63.694321 -69.471367 10459017
-168.22623 -62.858902 -64.436813 7039331
-167.99825 -63.142776 -64.907341 7433832
-160.68901 -63.623245 -70.170937 8681835
-158.96318 -63.562626 -70.340698 10260358
-158.57719 -63.51009 -70.85717 8616048
-157.93068 -63.422638 -71.714104 9471869
-157.41109 -63.35294 -72.396492 9932163
-155.71745 -63.295513 -72.538033 7563619
-155.32806 -63.243847 -73.041817 7563619
-154.67622 -63.15799 -73.877625 9010807
-154.02092 -63.072426 -74.708847 9142393
-151.96657 -62.967571 -75.311913 8287085
-151.30913 -62.883347 -76.126198 9537406
-150.64792 -62.799423 -76.93531 9340028
-148.62209 -62.698685 -77.49778 7103835
-148.22478 -62.64901 -77.973991 7761509
-168.46608 -62.199478 -64.528122 7565675
-168.35599 -62.215996 -64.951263 7828333
-147.78369 -62.581738 -78.426178 8682867
-147.18767 -62.489502 -79.022636 8682867
-146.44029 -62.374557 -79.763054 8419953
-145.84076 -62.282955 -80.351868 7894126
-144.14674 -62.191761 -80.336266 7894126
-143.69926 -62.12394 -80.769829 9010806
-142.95164 -62.011219 -81.488045 7563619
-142.20171 -61.898922 -82.201118 7563619
-141.45872 -61.791142 -82.913734 10788246
-140.76337 -61.70541 -83.65049 12894389
-140.34999 -61.656456 -84.093338 11710117
-168.77892 -61.317402 -64.647041 9144449
-138.62029 -61.578281 -84.205208 8092011
-137.93193 -61.497639 -84.929337 7894635
-137.24066 -61.417236 -85.648994 7565675
-136.54614 -61.337116 -86.363304 7565675
-135.84872 -61.257187 -87.072983 9472387
-134.15582 -61.183636 -87.141823 8090995
-133.7379 -61.136337 -87.559555 7893615
-133.0267 -61.051998 -88.243729 7038307
-132.25719 -60.942459 -88.886368 7563619
-131.47609 -60.829021 -89.51683 6775126
-130.69304 -60.715847 -90.141914 7827814
-130.22224 -60.648102 -90.514198 7367263
-129.75072 -60.580498 -90.884262 7234397
-129.12093 -60.49054 -91.374641 9405566
-128.33189 -60.378365 -91.982208 6839895
-127.38266 -60.244144 -92.704071 8682100
-126.58971 -60.132713 -93.299568 9734788
-125.79485 -60.021572 -93.88903 7037274
-124.99832 -59.91082 -94.473183 7037274
-124.35986 -59.822407 -94.936302 7037274
-122.35791 -59.519894 -96.241753 7893358
-121.64059 -59.396091 -96.631256 8946555
-120.76842 -59.253876 -97.131844 7235683
-119.97099 -59.148899 -97.687019 9011320
-119.18889 -59.052666 -98.250153 10261132
-118.40514 -58.956608 -98.808212 8814715
-117.61938 -58.860844 -99.360466 8222579
-116.67432 -58.746326 -100.01627 8091505
-115.88498 -58.651207 -100.55703 8880760
-115.09382 -58.556339 -101.09203 7696232
-114.30114 -58.461792 -101.62199 8551287
-113.50672 -58.367466 -102.14614 8024944
-112.55151 -58.254715 -102.76833 7827303
-111.75381 -58.161095 -103.28106 9538177
-110.95466 -58.067738 -103.78812 9604228
-109.99372 -57.956112 -104.38966 8354165
-109.20177 -57.868721 -104.89499 7828333
-108.39137 -57.772842 -105.37864 10919831
-107.41263 -57.655663 -105.94753 8617078
-106.59576 -57.558315 -106.41574 7958632
-105.77769 -57.461353 -106.87825 8419183
-104.79471 -57.345337 -107.42627 8815227
-103.9744 -57.249035 -107.87728 7894383
-103.26567 -57.143848 -108.18052 10064265
-101.60261 -56.884258 -110.34986 10260867
-100.93699 -56.807941 -110.69151 8681835
-100.21113 -56.698544 -110.966 8681835
-99.777374 -56.603958 -111.02302 7039331
-99.096375 -56.44458 -111.07133 8091248
-96.714645 -56.120785 -113.51196 10064006
-95.771637 -55.890022 -113.51101 7630438
-92.727951 -55.539337 -116.27242 7300958
-91.724197 -55.355709 -116.4462 6775125
-90.9198 -55.207527 -116.57742 6511954
-87.422569 -54.897602 -119.60976 6511954
-86.748779 -54.745014 -119.59402 8814711
-84.323936 -54.531715 -122.00616 8616819
-83.60331 -54.44381 -122.21635 7893351
-82.700539 -54.332684 -122.47103 7301470
-81.029137 -54.079304 -124.12352 7039331
-80.121689 -53.969791 -124.36104 8288883
-79.214783 -53.860569 -124.5924 7037274
-78.408546 -53.712231 -125.97108 9208955
-77.8601 -53.646667 -126.10158 9736068
-77.311905 -53.5811 -126.23029 7564643
-76.581429 -53.494011 -126.3982 9736068
-75.37516 -53.29937 -127.8362 9735553
-74.271965 -53.168747 -128.06787 10787474
-73.471123 -53.048645 -128.81445 9077884
-72.66465 -52.928291 -129.55284 9143677
-71.558304 -52.800335 -129.76523 7039331
-71.043892 -52.695984 -131.04343 8486262
-70.491035 -52.635017 -131.15002 8089963
-69.938499 -52.574257 -131.25478 8089963
-69.202354 -52.493404 -131.39084 9997700
-68.476784 -52.366692 -132.69333 10853264
-67.55027 -52.265499 -132.85022 11576729
-66.624664 -52.164639 -133.00201 9208435
-66.057259 -52.055817 -134.26175 9208435
-65.125565 -51.954853 -134.40013 9274486
-64.380959 -51.87434 -134.50743 7959144
-63.789417 -51.763409 -135.75888 8419695
-62.85268 -51.662624 -135.88025 8090987
-62.291348 -51.602291 -135.95045 10590606
-61.865494 -51.509449 -137.1738 8090731
-60.923717 -51.408749 -137.27945 8090987
-60.171146 -51.328445 -137.36049 8090987
-59.534359 -51.213463 -138.59824 12235946
-58.399261 -51.092995 -138.70354 8091502
-57.742599 -50.976074 -139.93774 9736326
-56.981754 -50.895786 -139.99695 8222060
-56.073563 -50.776352 -140.65428 8485232
-55.160759 -50.656765 -141.30292 9734788
-54.397091 -50.576786 -141.34772 8287342
-53.698605 -50.456093 -142.56911 7300959
-52.739185 -50.356117 -142.61205 7695973
-51.86187 -50.24477 -143.92603 8089963
-51.099159 -50.173328 -143.97278 8616306
-50.337212 -50.101986 -144.01651 9734529
-49.632317 -50.013206 -145.32983 9997440
-48.673973 -49.923656 -145.37077 9931902
-47.755909 -49.815067 -146.68922 8089963
-46.984749 -49.743038 -146.70901 9274232
-46.213486 -49.670059 -146.72264 10261124
-45.848854 -49.611771 -148.01808 9012089
-45.266407 -49.556538 -148.02094 9011832
-44.490749 -49.483055 -148.0218 9011576
-43.717628 -49.38612 -149.31754 8814710
-42.937572 -49.312408 -149.30772 8287592
-41.949524 -49.195229 -150.59848 8682867
-41.16581 -49.121376 -150.57668 8024687
-40.353397 -49.020748 -151.87048 7038307
-39.565681 -48.946739 -151.83778 7169635
-38.779209 -48.872833 -151.80211 8090987
-37.942741 -48.770096 -153.08731 8353391
-37.152267 -48.696053 -153.04076 8617075
-36.694267 -48.628666 -154.3533 8617075
-36.098133 -48.572948 -154.31134 7564643
-35.304459 -48.498837 -154.25255 8551026
-34.428364 -48.392441 -155.53473 8089963
-33.631115 -48.318207 -155.46478 8089963
-32.93618 -48.228531 -156.76599 9406590
-32.135166 -48.154152 -156.68532 7959144
-31.221615 -48.044083 -157.968 7038307
-30.417236 -47.969616 -157.87608 7301478
-29.484146 -47.857773 -159.15762 7893614
-28.676594 -47.783146 -159.05434 10984590
-27.521008 -47.650795 -160.30637 11905692
-26.710659 -47.576111 -160.19095 9537918
-25.533691 -47.441849 -161.4362 9537918
-24.720669 -47.367153 -161.30867 10262667
-23.726204 -47.249706 -162.58183 9867909
-22.100773 -47.074287 -163.75188 10064775
-21.48637 -47.018173 -163.63945 9209467
-20.454147 -46.897064 -164.91399 9735297
-19.631939 -46.822083 -164.75288 8090987
-18.785847 -46.717888 -166.06866 9143418
-18.166805 -46.66164 -165.93974 8617075
-17.096226 -46.536842 -167.21544 9340544
-16.268116 -46.461746 -167.03206 7564651
-15.384685 -46.353863 -168.35449 8814203
-14.761363 -46.297523 -168.20868 7564651
-13.860187 -46.187832 -169.53662 8090992
-13.234363 -46.131378 -169.38284 8090992
-12.246219 -45.86594 -170.70836 7695718
-11.49126 -45.76865 -170.68419 7629924
-11.314555 -45.120079 -171.08276 9143420
-10.632205 -44.895634 -171.13466 10657171
-11.342517 -44.396393 -171.47324 6840925
-10.51723 -44.37981 -171.46794 8683641
-9.7450056 -44.023159 -172.32947 9736329
-8.9170866 -43.783943 -172.32793 8486262
-9.7619276 -43.300781 -172.59711 9736329
-8.9328184 -43.061882 -172.59526 9275777
-8.1038847 -42.824055 -172.59314 9341054
-8.8826017 -42.164219 -172.9201 10525328
-8.1205397 -41.998169 -172.89876 10591121
-8.0857649 -41.117863 -173.21883 11577760
-7.3054914 -40.935318 -173.20157 10591121
-8.016551 -40.200729 -173.54872 10854037
-7.2376966 -40.063641 -173.51489 9209469
-7.2859526 -39.122066 -173.86644 10722191
-6.3985777 -38.937763 -173.83827 11182227
-7.3542891 -38.24197 -174.19751 10787726
-6.5185957 -38.007816 -174.1933 10064260
-6.4473906 -37.215954 -174.47687 9735296
-5.6922102 -37.151676 -174.41884 9537919
-6.3319578 -36.546722 -174.71056 9735296
-5.6556196 -36.058434 -174.817 9801091
-4.8719358 -35.672096 -174.87431 7958632
-5.5117369 -35.06448 -175.16702 10459278
-4.740428 -34.973934 -175.11688 7432288
-4.8906736 -34.212933 -175.41304 7958631
-4.0498457 -33.982304 -175.40694 6511954
-4.6900587 -33.37188 -175.70078 7498592
-3.9902906 -33.005669 -175.75974 7761254
-4.0706282 -32.100521 -176.10138 10130314
-3.2248411 -32.080429 -176.01729 9340798
-3.8656874 -31.466635 -176.31233 9340798
-3.1840239 -30.993639 -176.50417 9340798
-2.3944349 -30.628027 -176.67058 9538435
-3.2495146 -30.250622 -177.05627 9340798
-2.4027739 -30.035351 -177.1302 9735813
-1.5553541 -29.82081 -177.20351 8288371
-1.5664701 -29.523968 -178.11623 9538435
-0.71293926 -29.511963 -178.05855 7827821
0.99641132 -29.300962 -179.54317 10392716
1.8564653 -29.299805 -179.53928 8813939
-167.23822 -63.751083 -66.147667 9669509
-166.66467 -63.903736 -66.853127 9341057
-165.89763 -63.983597 -67.47802 7039331
-165.38271 -63.910885 -68.200645 7565161
-163.34419 -63.810547 -68.755806 10590091
-162.69859 -63.720837 -69.64222 10984848
-162.1794 -63.649139 -70.348076 12236199
-167.89571 -62.909813 -65.705238 9143422
-167.65285 -63.18969 -66.169983 8946043
-167.34877 -63.383087 -66.890251 9340801
-160.43053 -63.587795 -70.519493 8681835
-160.0414 -63.534756 -71.040619 9012344
-159.38988 -63.446579 -71.905174 10721166
-158.73479 -63.358681 -72.765297 8682867
-157.15028 -63.318165 -72.736473 8813171
-156.62672 -63.248711 -73.413643 9207928
-155.9693 -63.162159 -74.256264 11378324
-155.44066 -63.093143 -74.926682 10261383
-153.3618 -62.987183 -75.53495 10327692
-152.69931 -62.902203 -76.356438 9537406
-152.03313 -62.817574 -77.172745 7563619
-149.98349 -62.715767 -77.739922 9011320
-149.44937 -62.649086 -78.379982 10261132
-168.19048 -62.241398 -65.586525 9275008
-167.96109 -62.346764 -66.352905 9603716
-149.04741 -62.599205 -78.858162 9011320
-148.61665 -62.537964 -79.319878 10261387
-147.86246 -62.421967 -80.067039 9011832
-145.54039 -62.237148 -80.644661 9734788
-145.08885 -62.168739 -81.082222 8814457
-144.33458 -62.055004 -81.806953 7958634
-143.57794 -61.941666 -82.526505 10590606
-142.82024 -61.829376 -83.240807 8551543
-142.10321 -61.735947 -83.974998 8157043
-140.07368 -61.623783 -84.387413 12433325
-168.8353 -61.006474 -65.018074 10328465
-168.54631 -61.208912 -65.824303 9143421
-139.797 -61.591217 -84.680763 10262668
-139.38078 -61.5425 -85.119186 12433325
-138.68465 -61.461327 -85.845924 12498862
-137.8454 -61.364346 -86.711647 9933451
-137.14265 -61.283669 -87.427788 9341313
-135.14816 -61.177544 -87.777473 9538180
-134.30373 -61.082241 -88.616432 8222064
-133.59683 -61.003021 -89.310341 9735299
-132.82759 -60.897213 -89.959343 8485233
-132.03729 -60.782948 -90.590355 7827814
-131.24489 -60.669083 -91.215141 7696228
-169.36827 -60.12952 -65.244476 9735301
-130.45059 -60.555542 -91.83461 7958120
-129.65425 -60.442314 -92.447884 7958632
-128.85616 -60.32943 -93.055878 7169373
-128.37648 -60.261852 -93.417831 9734788
-123.88036 -59.756302 -95.281403 7037274
-123.40013 -59.690243 -95.624207 7760739
-122.89595 -59.613014 -95.947136 8484205
-122.05363 -59.323906 -97.67202 8288627
-121.37364 -59.221676 -98.091484 8946043
-120.57587 -59.119892 -98.653862 9603458
-119.78554 -59.022999 -99.217834 10261132
-118.99356 -58.926285 -99.776711 8814715
-118.51749 -58.868416 -100.1094 7038307
-114.84741 -58.428265 -102.59397 7038307
-114.04503 -58.333366 -103.11875 7038307
-113.24114 -58.238789 -103.63839 9538177
-112.43576 -58.144466 -104.15231 10196364
-111.46738 -58.031708 -104.76207 9078654
-110.66414 -57.940762 -105.26936 8618359
-109.86909 -57.855198 -105.78017 10328461
-108.88542 -57.738434 -106.35986 8485751
-108.06189 -57.640083 -106.83468 7564651
-107.23723 -57.542126 -107.30363 6510930
-106.24618 -57.424911 -107.85934 7432288
-105.41927 -57.327663 -108.3167 7039331
-104.5912 -57.230671 -108.76821 7631211
-103.59634 -57.114746 -109.30312 10656398
-102.76626 -57.018536 -109.74304 9208435
-102.10156 -56.941738 -110.09104 10590088
-101.52704 -56.786419 -111.59743 10260867
-100.6865 -56.690624 -112.0205 8484972
-99.845322 -56.5951 -112.43851 7039331
-99.003304 -56.499989 -112.8508 9143422
-97.986526 -56.38311 -113.33232 8353902
-97.18679 -56.236004 -113.50946 7564643
-95.660461 -56.040211 -115.60027 7761253
-94.925392 -55.934376 -115.84316 7563618
-93.729355 -55.720787 -116.08579 8418928
-90.774284 -55.380478 -118.70793 9734788
-89.70208 -55.247242 -119.07786 6906713
-88.808655 -55.136406 -119.37979 6511954
-88.08989 -55.045441 -119.61161 6511954
-87.388916 -54.907478 -121.07006 7038302
-86.48716 -54.796604 -121.35221 7301989
-85.405296 -54.663979 -121.68321 7630181
-84.684372 -54.575714 -121.89956 8616819
-84.118546 -54.453892 -123.27402 8879991
-83.209381 -54.343338 -123.53069 7367263
-82.118912 -54.21109 -123.83128 7038557
-81.337814 -54.064205 -125.23982 7039331
-80.788071 -53.998009 -125.38123 7039331
-79.872368 -53.887844 -125.61242 7037789
-78.957275 -53.777985 -125.83824 11380636
-78.507767 -53.672184 -127.13604 8616819
-77.954277 -53.60611 -127.26453 11709345
-77.216675 -53.518242 -127.4322 10459535
-76.295471 -53.40863 -127.6372 11709341
-75.816238 -53.300064 -128.92366 9472382
-74.888115 -53.190285 -129.11534 9998726
-73.960892 -53.080879 -129.30174 8090987
-73.268456 -52.947823 -130.61447 9538177
-72.522263 -52.860802 -130.7536 10854293
-71.597 -52.756935 -130.93469 8486262
-70.890678 -52.631332 -132.25903 10984593
-70.518898 -52.59045 -132.3284 8089963
-69.77581 -52.508919 -132.46391 8550513
-69.033211 -52.427525 -132.59654 8089963
-68.298065 -52.299561 -133.9066 9406332
-67.363647 -52.1978 -134.05824 8814195
-66.616798 -52.116566 -134.17606 9208435
-66.042648 -52.00666 -135.44583 8615534
-64.915115 -51.884754 -135.60634 7959144
-63.942463 -51.73225 -136.922 7038307
-63.186489 -51.651031 -137.01636 10064008
-62.431179 -51.570049 -137.1078 8617075
-61.621193 -51.435673 -138.3853 9604228
-60.671764 -51.334423 -138.48524 8223348
-60.031654 -51.218391 -139.73859 9538950
-59.267712 -51.13739 -139.80812 9012605
-58.314045 -51.036453 -139.89067 9736326
-57.458141 -50.898178 -141.14886 7761253
-56.499653 -50.797283 -141.21695 8485232
-55.815639 -50.677364 -142.45663 7563619
-55.237354 -50.616844 -142.49004 7563619
-54.659756 -50.556431 -142.52126 8287342
-53.390209 -50.388268 -143.82085 7695973
-52.434601 -50.298573 -143.88826 8616818
-51.745857 -50.210907 -145.22055 8945783
-50.78426 -50.120907 -145.27347 10260872
-49.301144 -49.959175 -146.63655 9210491
-48.334915 -49.869057 -146.67113 9210491
-47.599728 -49.777321 -147.99478 8089963
-46.626755 -49.685627 -148.01079 13353395
-45.868874 -49.589714 -149.32661 9012089
-45.085606 -49.51556 -149.32614 9472640
-44.303333 -49.441513 -149.32269 9012089
-43.521225 -49.343491 -150.63087 8682867
-42.538273 -49.25069 -150.61226 8682867
-41.735641 -49.150726 -151.91881 8879995
-40.945343 -49.076382 -151.89244 8287859
-39.924858 -48.956013 -153.18977 9537667
-39.130955 -48.881489 -153.15117 7563619
-38.288597 -48.777767 -154.45551 8813942
-37.490795 -48.703152 -154.40588 9011577
-36.027718 -48.541496 -155.66451 9735043
-35.227203 -48.466869 -155.60132 9537665
-34.342232 -48.359287 -156.89839 8089963
-33.538212 -48.284481 -156.82397 8748148
-32.633694 -48.175072 -158.12035 8682867
-31.826145 -48.100197 -158.03448 10854036
-31.105103 -48.007671 -159.35387 7038307
-30.293854 -47.932655 -159.25719 7301478
-28.536713 -47.744453 -160.44579 10655625
-27.574108 -47.629494 -161.74162 10063744
-26.756588 -47.554302 -161.62178 11445399
-25.363598 -47.399818 -162.85103 10459533
-24.543728 -47.3246 -162.71837 9143931
-23.538883 -47.205841 -164.00705 11709855
-22.716198 -47.1306 -163.86259 14604230
-21.897663 -47.028751 -165.18883 10195850
-21.278099 -46.972225 -165.07245 9209467
-20.235004 -46.849716 -166.36278 10459277
-19.405949 -46.77433 -166.19608 9735297
-18.550404 -46.668846 -167.52937 10590356
-17.92622 -46.612183 -167.39616 9735043
