# .PCD v0.7 - Point Cloud Data file format
VERSION 0.7
FIELDS x y z rgb
SIZE 4 4 4 4
TYPE F F F U
COUNT 1 1 1 1
WIDTH 1178
HEIGHT 1
VIEWPOINT 0 0 0 1 0 0 0
POINTS 1178
DATA ascii
-72.258118 -69.329254 -115.37128 8681068
-71.4674 -69.533714 -115.64754 8089962
-25.44594 -69.345604 -122.2769 5984587
-24.626152 -69.088913 -122.29121 5853257
-23.565886 -69.007042 -122.21789 6971993
-22.600742 -69.110504 -122.08578 8748405
-21.622066 -68.924614 -122.05864 9603714
-20.762384 -68.608025 -122.09118 8615534
-76.665977 -67.751396 -114.00839 8813171
-75.864288 -67.94574 -114.29375 9208443
-75.029953 -68.065079 -114.62427 8681841
-73.957291 -68.163651 -115.07148 7760224
-73.161301 -68.330345 -115.36543 7234652
-24.325541 -68.41098 -122.51099 5392706
-23.569174 -68.142738 -122.5358 6249038
-22.64506 -68.076111 -122.47015 8222314
-21.567816 -68.048096 -122.3754 8747635
-20.53771 -67.960388 -122.30718 8615534
-19.743786 -67.822289 -122.28046 8615534
-77.717644 -66.874855 -113.88564 10259588
-76.965858 -67.054466 -114.15425 9470843
-76.093658 -67.031189 -114.55972 9142136
-75.071243 -67.166328 -114.96927 8616048
-74.346886 -67.455925 -115.18094 7365466
-22.487974 -67.393204 -122.70576 8813934
-21.592093 -67.089546 -122.72994 9274235
-20.532465 -66.994934 -122.66135 8945014
-19.633625 -67.150482 -122.51657 8945012
-18.693951 -66.917389 -122.51059 9076595
-17.836571 -66.614754 -122.53819 9208182
-78.983704 -65.868149 -113.71887 6380367
-78.042648 -66.024445 -114.08256 9601661
-77.169281 -66.093163 -114.451 9141624
-76.225845 -66.217262 -114.82911 9799039
-75.463623 -66.459694 -115.07707 9799039
-21.221575 -66.353889 -122.9641 8813945
-20.557728 -66.142036 -122.97723 9142909
-19.730106 -66.109856 -122.90832 9537408
-18.631773 -66.049088 -122.82354 9668736
-17.571535 -65.930779 -122.7636 9208181
-16.81637 -65.848801 -122.72009 10128771
-80.524567 -64.827332 -113.44147 5920074
-79.861099 -65.02784 -113.66124 7235161
-78.981888 -65.09288 -114.03384 6446162
-78.048813 -65.025902 -114.48436 9010038
-77.084236 -65.336678 -114.79608 9470331
-19.539972 -65.387764 -123.15508 9537408
-18.646881 -65.098297 -123.17434 8879477
-17.626707 -64.956467 -123.12697 10194823
-16.734344 -65.122231 -122.97904 9668734
-15.763772 -64.964638 -122.9423 9603198
-14.907991 -64.67527 -122.96519 8092019
-81.675072 -63.845093 -113.31738 5919050
-80.957291 -64.09787 -113.54066 5919306
-80.071098 -64.066849 -113.95534 6314574
-79.186676 -64.03846 -114.36816 5985867
-78.146332 -64.389526 -114.69796 7761000
-18.271784 -64.373489 -123.40407 8287341
-17.609961 -64.171776 -123.41367 9274237
-16.761723 -64.050079 -123.37565 9471615
-15.693891 -64.103889 -123.25172 9866370
-14.637952 -63.999805 -123.187 9538435
-13.804189 -63.726048 -123.20625 8092019
-82.739738 -63.000942 -113.17638 8616563
-81.935028 -63.145813 -113.48278 7169373
-80.967789 -63.097786 -113.94115 9274491
-80.073761 -63.106663 -114.34321 7959398
-16.492674 -63.372143 -123.5985 8813686
-15.700076 -63.160202 -123.59906 10326665
-14.683845 -63.032085 -123.54704 10985364
-13.715668 -63.006126 -123.46214 8749434
-12.840908 -62.898186 -123.41651 11512217
-11.974878 -62.786247 -123.37318 9538430
-83.841888 -62.11277 -113.03618 7103067
-82.992699 -62.156151 -113.40389 6971738
-82.069496 -62.074715 -113.85579 7564387
-81.162704 -62.213448 -114.21101 7893095
-15.320236 -62.445457 -123.82469 11379607
-14.659918 -62.253365 -123.83081 10064005
-13.821771 -61.982212 -123.84874 8880759
-12.748894 -62.010685 -123.7336 12499111
-11.699803 -62.118759 -123.59161 9538430
-10.757659 -61.826683 -123.60699 8550769
-85.839539 -60.792915 -112.67387 6511954
-84.803032 -61.13279 -112.99711 9340284
-83.953537 -61.158398 -113.37221 8682100
-83.067497 -61.124554 -113.78793 8418927
-82.381104 -61.380356 -113.99573 8419440
-13.547678 -61.312439 -124.0681 8617075
-12.704553 -61.034786 -124.08932 9143417
-11.769415 -61.096245 -123.97593 9538174
-10.684083 -61.071632 -123.87727 9076858
-9.6728373 -60.952801 -123.82232 8616307
-8.895236 -60.614548 -123.8708 8155756
-89.033096 -59.645775 -112.3047 7234909
-87.764519 -59.897087 -112.50368 7037274
-86.847099 -59.968082 -112.85957 6051404
-85.963966 -60.148449 -113.11417 6117452
-85.078529 -60.326263 -113.35866 9340540
-84.169754 -60.402149 -113.70657 8748149
-11.568724 -60.418648 -124.26403 9800836
-10.759258 -60.279629 -124.28291 9142651
-9.787549 -60.083591 -124.3286 8484721
-8.756875 -59.95377 -124.35759 8353135
-7.7702956 -59.956944 -124.22318 8616307
-6.7492023 -59.756565 -124.27197 8748149
-5.7992272 -59.609318 -124.33315 9143163
-93.780273 -58.888798 -111.6882 4340277
-93.008545 -59.086418 -112.14408 3945260
-92.00914 -59.199757 -112.38794 4537654
-90.843323 -59.402668 -112.34146 5591110
-90.076515 -59.460812 -112.49785 5591110
-88.939331 -59.495243 -112.87596 7760739
-87.865433 -59.584587 -113.04672 8945011
-87.280754 -59.554909 -113.41515 8090469
-7.9193807 -59.52166 -124.80407 9603202
-6.8710618 -59.48666 -124.80032 8682612
-5.7545295 -59.413151 -124.90888 9143163
-4.8498731 -59.359108 -124.98155 8879990
-3.8259625 -59.309357 -125.03307 8156267
-2.8420081 -59.302856 -124.99664 9734784
-1.8014272 -59.235577 -125.27718 10260871
-0.75354517 -59.234158 -125.2929 9537150
0.20396292 -59.233414 -125.61962 9537151
1.0446154 -59.232414 -125.69923 7826790
2.1008725 -59.231541 -126.09077 7629669
3.1555142 -59.230137 -126.07358 8420469
4.0593419 -59.228828 -126.05164 12367786
5.1497197 -59.227604 -126.17818 9932680
6.014998 -59.2271 -126.62937 14210515
7.1125436 -59.225811 -126.73916 12170670
8.0210714 -59.224533 -126.68859 8288366
9.1219778 -59.223137 -126.7823 13617602
9.8819666 -59.222702 -127.1794 15131874
10.962241 -59.221481 -127.29989 10788758
12.026765 -59.219933 -127.20805 9670019
13.117627 -59.218719 -127.38103 9735814
13.936206 -59.218304 -127.85119 10196107
15.005216 -59.21666 -127.73382 10459022
16.098639 -59.215347 -127.81522 9406334
16.890114 -59.214817 -128.17885 13880771
18.014914 -59.213295 -128.19829 13091255
19.040911 -59.212067 -128.26678 8682867
19.870115 -59.211426 -128.57074 9472383
20.901073 -59.210125 -128.62439 11183001
22.020052 -59.199455 -128.70877 9670536
22.948711 -58.923668 -129.26997 9538950
23.850935 -58.910275 -129.19174 9340542
24.790022 -58.940704 -129.09032 9340542
25.91853 -58.860203 -129.13235 9603969
26.692394 -58.671921 -128.99261 7037274
-94.542656 -58.057041 -111.50067 5392964
-93.864243 -58.129971 -111.99319 5655879
-92.946251 -58.368843 -112.51044 5458501
23.984945 -58.184792 -129.49562 8550513
24.907404 -58.021488 -129.50702 9340285
25.820719 -58.026535 -129.4574 9801095
26.779285 -57.932453 -129.24948 7037533
-103.47044 -57.003277 -110.54304 9208435
-102.80016 -56.925953 -110.89191 11906205
-101.74883 -56.850037 -110.82888 10260867
-100.86207 -56.789925 -110.66757 8681835
-100.25433 -56.672256 -110.80402 7039331
-95.688629 -56.904984 -111.30116 6315092
-94.85585 -57.221405 -111.68478 6182992
-94.07756 -57.320549 -112.218 6116943
25.232042 -57.329754 -129.74297 9932678
25.939669 -57.232635 -129.74144 10853012
26.870749 -57.043011 -129.56467 7367014
27.657459 -56.735863 -129.314 7103841
-99.585487 -56.519806 -110.86853 7039331
-98.663895 -56.299152 -110.9157 9669509
-97.720078 -56.140106 -111.19645 10919058
-96.837708 -56.223961 -111.53983 8814196
-95.888535 -56.461773 -111.64578 6841178
-95.112488 -56.45652 -112.16293 6315092
27.060387 -56.071697 -129.86617 7038307
27.835985 -55.931374 -129.55347 7893098
28.541925 -55.537262 -129.37624 9735044
27.886135 -54.983879 -129.91176 7563619
28.707718 -54.826157 -129.58418 9077114
28.212366 -54.093258 -130.11565 7563619
28.873137 -53.935467 -129.86467 7827047
29.501999 -53.923542 -129.57002 8484721
29.070118 -52.936275 -130.17392 7695204
29.737009 -53.074917 -129.80043 8089962
30.380848 -52.759109 -129.62132 7760997
29.881802 -52.106579 -130.12206 7432032
30.650852 -52.037189 -129.78389 8418927
30.102123 -51.366615 -130.31564 6905688
30.757082 -51.063148 -130.12617 7958632
31.488619 -50.95644 -129.82089 7761509
30.977371 -50.145691 -130.39136 7761509
31.788376 -50.036598 -130.04918 8024937
32.410576 -49.664001 -129.90315 9012344
31.810663 -49.089233 -130.42072 7629923
32.684383 -48.945938 -130.06247 8551793
32.078587 -48.384415 -130.57741 7761509
32.746288 -47.980865 -130.4223 10460046
33.528667 -47.874531 -130.09271 11709601
32.930851 -47.112995 -130.685 11906724
33.77673 -46.929932 -130.35645 11117720
34.458675 -46.592148 -130.16852 7564651
33.844326 -46.113445 -130.68961 9801862
34.692417 -45.868076 -130.4294 10064011
34.01754 -45.367096 -131.04408 8814203
34.763775 -45.13958 -130.86343 10392719
35.66573 -44.869514 -130.79214 10458768
36.654148 -44.611584 -130.87399 10590864
37.334251 -44.492558 -130.89397 9406334
37.682388 -44.350361 -131.12863 7497825
38.799282 -44.105167 -131.27 7564132
39.714069 -43.858627 -131.23207 9933189
40.426548 -43.694481 -131.00253 14604230
38.933491 -43.412624 -131.73166 7039331
39.725609 -43.122013 -131.51897 10262154
40.642811 -42.885803 -131.23291 11775133
39.863937 -42.279739 -131.79387 10985620
40.710037 -42.063629 -131.52916 10787726
41.547123 -41.761719 -131.30202 10787469
40.771702 -41.30191 -131.86104 10985620
41.658978 -41.045696 -131.6619 10721677
42.413486 -40.819508 -131.49496 8156265
41.947437 -40.438084 -132.03102 8090728
42.772026 -40.287041 -131.89342 7629410
43.648197 -39.913071 -131.96783 7826790
44.653305 -39.601685 -131.87953 10064008
44.831253 -39.289181 -132.30681 11642784
45.413502 -39.244534 -131.94559 11051159
49.73682 -39.188499 -133.04965 7959144
50.284809 -39.119251 -132.58028 6511954
51.554947 -38.987286 -133.05002 8024681
52.838947 -38.853737 -133.51799 8618105
53.383144 -38.784611 -133.0313 8420210
54.679153 -38.64949 -133.48885 9340798
55.853981 -38.530113 -134.07056 7038307
56.12484 -38.495487 -133.81871 10853012
56.394802 -38.461063 -133.56674 8287859
57.717472 -38.322773 -134.01402 8288116
59.322834 -38.148499 -134.19882 9340545
60.807144 -37.989773 -134.50546 9340544
61.20731 -37.938221 -134.1078 9208443
62.437588 -37.812336 -134.6709 8485232
63.683483 -37.684837 -135.23639 9012600
64.081535 -37.633217 -134.82584 9604994
65.47393 -37.486767 -135.24791 8681843
65.869682 -37.435337 -134.83055 8681843
66.749245 -37.355972 -135.80901 8681843
67.275787 -37.287292 -135.24396 8484723
68.566193 -37.154633 -135.79881 10262156
68.959015 -37.103291 -135.36821 8814710
-63.073681 -73.806892 -116.95425 9209467
-62.278446 -73.837242 -117.15806 8090991
-61.29652 -73.917213 -117.39259 7038307
-60.284412 -74.065918 -117.61034 7235428
-59.27972 -73.936821 -117.9323 8353388
-58.357586 -74.027443 -118.07117 8024682
-57.438251 -74.035507 -118.38919 7630183
-56.374729 -74.114983 -118.468 8287853
-55.508533 -74.100449 -118.75179 8419441
-54.408325 -74.257515 -118.71545 8683125
-53.506023 -74.295341 -118.85079 8748661
-52.473042 -74.294151 -118.99126 8287853
-51.376797 -74.293015 -119.20781 6971738
-50.468037 -74.291588 -119.06502 6511187
-49.470417 -74.290894 -119.49061 6840151
-48.414532 -74.289665 -119.61317 9669506
-47.476505 -74.288277 -119.52034 9735299
-46.475353 -74.287491 -119.92117 10787988
-45.614475 -74.286858 -120.25777 8814198
-45.039333 -74.2864 -120.47903 9734788
-66.14473 -72.727852 -116.53791 7038298
-65.149597 -72.908386 -116.73772 7696229
-64.105736 -73.160843 -116.92328 8419695
-63.203564 -73.102425 -117.19023 8814965
-62.272907 -72.99881 -117.4823 8354163
-61.255322 -73.144859 -117.70181 7367271
-60.35577 -73.152847 -117.94252 7827305
-59.431953 -73.059021 -118.22896 8682351
-58.536755 -73.072922 -118.46619 7958633
-57.446041 -73.366104 -118.64886 8616558
-56.707775 -73.51149 -118.79296 8484973
-35.496544 -73.127556 -121.86742 8089963
-34.633522 -72.938545 -121.85271 9471612
-33.661594 -72.826881 -121.79897 8945781
-32.623878 -72.731468 -121.73283 8156011
-31.83576 -72.596191 -121.70574 9405566
-68.041687 -71.841545 -116.26908 6510930
-67.192436 -72.088104 -116.49761 7760997
-66.280609 -72.02282 -116.77288 7695972
-65.246628 -72.156601 -117.00123 7958889
-64.333984 -72.153183 -117.2496 7168860
-63.398014 -72.047287 -117.54382 10065032
-62.49052 -72.049911 -117.78865 9735812
-61.500744 -72.244385 -117.98198 7762025
-60.572113 -72.371147 -118.18482 8419437
-59.861927 -72.388344 -118.37067 8484973
-34.441433 -72.363602 -122.04528 10261129
-33.554821 -72.207878 -122.01601 9406074
-32.694256 -72.059219 -121.98671 9274492
-31.729918 -72.066132 -121.89012 9405566
-30.682779 -71.993935 -121.81453 8090219
-29.8473 -71.755104 -121.82082 7038307
-69.054047 -70.941513 -116.17368 8616307
-68.271225 -71.101135 -116.46446 8550513
-67.323578 -71.066048 -116.85399 8155756
-66.388443 -71.045349 -117.12048 8484976
-65.367905 -71.195015 -117.33903 8419440
-64.413727 -71.239456 -117.5802 8024681
-63.527576 -71.345016 -117.77936 9406846
-62.372311 -71.577164 -118.00266 8419952
-32.693909 -71.29055 -122.26911 9800577
-31.663923 -71.135139 -122.22575 9537408
-30.614458 -71.064957 -122.14919 9669508
-29.593298 -71.092667 -122.03943 8748922
-28.727339 -70.865845 -122.03833 9340801
-28.054512 -70.626495 -122.06065 10261132
-70.15509 -70.015915 -116.04829 9471615
-69.262016 -70.117355 -116.41276 8880506
-68.283218 -70.099373 -116.86446 11051927
-67.342972 -70.205925 -117.18565 11907236
-66.270187 -70.402107 -117.4004 9011321
-65.606102 -70.50441 -117.54076 7038298
-31.566637 -70.506943 -122.44707 9274235
-30.598375 -70.108109 -122.49921 8354160
-29.688084 -70.092598 -122.41612 8748665
-28.738409 -70.057419 -122.33643 10327438
-27.703913 -69.967125 -122.26871 9603201
-26.715921 -69.752594 -122.25119 7563618
-71.831345 -68.959259 -115.71477 9142136
-71.065079 -69.104965 -116.00376 7958376
-70.205551 -69.097824 -116.39691 8945271
-69.346992 -69.093407 -116.78855 8091249
-68.58429 -69.245445 -117.07333 7038307
-29.599009 -69.34716 -122.6813 8156781
-28.829899 -69.060829 -122.71149 8485490
-27.720985 -69.062294 -122.60286 8484721
-26.617411 -69.067848 -122.49318 6774102
-25.739843 -68.846313 -122.48896 5392706
-72.934906 -67.956223 -115.61963 7497567
-72.193527 -68.146439 -115.87926 8549741
-71.302185 -68.090332 -116.30672 7826790
-70.440193 -68.083534 -116.70086 7826790
-69.750351 -68.356621 -116.90361 8486006
-28.263308 -68.303528 -122.93447 8090987
-27.54825 -68.198547 -122.90335 9208955
-26.701693 -68.076241 -122.86573 7958376
-25.769249 -67.944313 -122.82324 6379345
-24.726665 -68.066666 -122.67664 5590085
-23.606398 -67.649628 -122.72063 5920074
-74.120422 -67.0812 -115.43544 7431775
-73.247246 -67.105354 -115.82217 7103066
-72.255661 -67.076813 -116.28397 7826787
-71.458565 -67.295418 -116.55739 7300702
-26.686731 -67.322784 -123.14111 9734787
-25.808096 -66.991951 -123.17698 8418929
-24.737535 -67.136955 -123.01929 7037530
-23.655916 -66.992966 -122.96671 6249038
-22.830742 -66.940918 -122.90535 7104089
-22.118055 -66.794975 -122.88943 8090469
-75.836166 -65.888855 -115.13895 9010294
-75.03299 -66.086967 -115.42345 9141880
-74.165382 -66.164719 -115.78596 7366495
-73.24276 -66.112076 -116.22614 6774102
-72.469284 -66.256218 -116.51904 7169372
-24.747793 -66.209114 -123.36119 8682611
-23.730074 -66.009422 -123.33533 6709332
-22.791739 -66.054596 -123.2272 7169881
-21.747711 -66.059288 -123.12365 8156273
-20.724396 -65.718117 -123.14924 8813945
-76.887085 -65.010437 -115.01775 9799039
-76.133812 -65.193481 -115.28537 9141623
-75.230255 -65.128571 -115.72179 8813172
-74.35656 -65.113281 -116.12465 6840151
-73.655823 -65.379425 -116.33513 6510930
-23.779451 -65.354652 -123.58073 8813942
-22.813688 -65.138405 -123.56596 7893352
-21.77174 -65.104485 -123.47684 8353651
-20.696316 -64.975792 -123.41924 9011067
-19.876202 -64.934906 -123.35428 9274236
-19.166855 -64.79937 -123.33487 9537408
-78.152145 -64.000877 -114.85283 6511962
-77.209175 -64.162003 -115.21539 9601661
-76.203438 -64.123932 -115.68716 8484464
-75.393738 -64.334938 -115.96904 7432804
-74.772491 -64.381767 -116.23194 6512986
-22.588764 -64.545967 -123.76168 7894123
-21.715147 -64.235085 -123.79075 8024942
-20.760721 -63.99968 -123.78416 9734789
-19.829168 -64.056557 -123.67241 8879478
-18.791904 -64.074547 -123.56467 8024169
-17.771646 -63.749115 -123.58472 9011065
-79.883362 -62.791279 -114.55741 9209207
-78.977776 -63.212841 -114.79749 6249040
-78.09346 -63.189011 -115.20837 5920074
-77.182068 -63.120934 -115.64951 5920074
-76.425194 -63.304783 -115.91843 5656901
-20.649458 -63.332047 -124.01862 11905696
-19.813719 -63.074512 -124.03174 10326923
-18.806791 -63.127117 -123.91422 8550513
-17.736794 -63.013035 -123.85178 8682100
-16.862764 -62.882099 -123.81466 9208444
-16.214449 -62.857159 -123.76059 8813686
-81.200012 -61.760574 -114.3776 6709332
-80.129707 -62.169453 -114.69755 9801599
-79.23423 -62.20097 -115.09112 9998722
-78.347321 -62.177841 -115.50292 7893349
-77.48233 -62.427006 -115.79444 5920074
-18.742447 -62.265377 -124.22456 8616306
-17.791693 -62.043674 -124.21329 8550514
-16.874723 -61.950397 -124.15814 8945272
-15.872025 -62.09441 -124.00742 8814198
-14.816882 -61.831814 -124.00103 10129798
-82.693817 -60.686523 -114.13571 7169629
-81.999733 -60.988991 -114.33183 6775127
-81.018394 -61.163357 -114.702 7893350
-80.128792 -61.230648 -115.07837 8814705
-79.232582 -61.244682 -115.47934 9472378
-17.629757 -61.269855 -124.48183 8879479
-16.886328 -61.020126 -124.50108 9142907
-15.849216 -61.041809 -124.39438 10195591
-14.775414 -61.101391 -124.26536 10458762
-13.904479 -60.981926 -124.2243 7564898
-13.121294 -60.631172 -124.27678 8090987
-85.761795 -59.671272 -113.69167 9208435
-85.029953 -59.743202 -113.97083 9209214
-83.969566 -59.987076 -114.148 9998987
-83.081917 -60.079002 -114.47281 8024683
-82.146324 -60.168854 -114.82104 7695461
-81.244087 -60.421497 -115.01673 8222060
-80.415047 -60.521717 -115.30803 6511954
-15.536933 -60.346279 -124.70292 9735297
-14.784856 -60.272606 -124.68348 11379607
-13.92442 -60.125038 -124.70698 8419951
-12.85624 -60.006775 -124.70394 7367775
-11.844878 -59.936184 -124.64101 9011832
-10.971671 -59.746193 -124.70494 9538176
-9.8686857 -59.591549 -124.79711 9208700
-9.1188326 -59.563885 -124.80214 8418928
-91.707947 -59.056843 -112.8451 5393730
-91.08075 -59.000957 -113.18094 5920076
-90.035225 -59.058224 -113.55084 6774874
-89.105179 -59.16935 -113.89809 7234652
-87.929077 -59.394691 -113.68481 8813681
-86.964912 -59.423489 -114.01777 7827554
-86.109459 -59.497433 -114.14585 8419433
-85.376274 -59.462669 -114.59891 8814715
-84.154282 -59.596355 -114.68089 7433065
-12.470567 -59.535667 -125.22412 8617075
-11.866929 -59.511017 -125.23499 8288365
-10.962089 -59.475121 -125.24828 8880246
-9.9074268 -59.435146 -125.25939 9472383
-8.8721771 -59.324081 -125.51014 9932679
-7.9696813 -59.306057 -125.53937 9800581
-6.9172854 -59.288528 -125.57239 9142907
-5.9285026 -59.26757 -125.66634 9143163
-4.9793162 -59.240753 -125.97755 9668990
-3.9253736 -59.23946 -126.01962 7761763
-2.8711467 -59.238148 -126.0532 11116692
-1.9673036 -59.236973 -126.07478 10458251
-0.98175371 -59.236164 -126.43742 8616050
-0.041722655 -59.235367 -126.74593 9537151
1.0492235 -59.234077 -126.90842 9537408
1.9591757 -59.232925 -126.90161 8682357
3.0206285 -59.231483 -126.88519 9538435
4.0876241 -59.230267 -127.06461 10525071
4.8582978 -59.229698 -127.38145 12367018
5.9352632 -59.228611 -127.61317 11643299
6.8501306 -59.227329 -127.57112 12038313
7.9170136 -59.225803 -127.51346 9275261
8.8670263 -59.225281 -128.00691 9933191
9.957839 -59.224098 -128.20728 10985880
10.876889 -59.222797 -128.13618 10262156
11.994103 -59.221375 -128.2083 9538179
12.77292 -59.220886 -128.59769 9406337
13.869855 -59.219563 -128.69771 9472383
14.946046 -59.21801 -128.58136 12498605
15.866609 -59.217339 -128.98457 9998471
16.906734 -59.162014 -129.29016 11709090
17.803761 -58.981846 -129.41846 12696241
18.798822 -58.998295 -129.3215 9341571
19.764475 -58.923061 -129.44679 8092019
20.79306 -58.985332 -129.37016 8683383
21.883123 -58.791969 -129.38374 9341828
22.618807 -58.5383 -129.4379 9144449
-92.718498 -57.978188 -112.78474 5721672
-91.975342 -58.111713 -113.10055 6050892
-91.086761 -58.080109 -113.55681 6643029
-90.290649 -58.288147 -113.86831 6840410
18.223297 -58.373993 -129.72829 10985367
18.919289 -58.263729 -129.7321 9210242
19.808033 -58.095112 -129.74721 10328208
20.750593 -58.129704 -129.68518 9407875
21.700687 -58.056454 -129.66219 9407618
22.771944 -57.910431 -129.65944 9209985
23.778002 -57.703709 -129.68233 9274748
24.576035 -57.630421 -129.66734 10854036
-103.91593 -56.963047 -111.54456 10392709
-103.07021 -56.865814 -111.98042 10260867
-101.62605 -56.791183 -111.49492 8681835
-100.95447 -56.714474 -111.83463 8353645
-100.45046 -56.65707 -112.08729 8091248
-93.814789 -56.927845 -112.63372 6248271
-93.03302 -57.146698 -112.97895 5919050
-92.136772 -57.111954 -113.43404 6445394
-91.392082 -57.246437 -113.74683 8813427
20.000141 -57.438667 -129.9771 12432812
20.845331 -57.232689 -130.00816 11973285
21.761459 -57.007568 -130.04245 9736836
22.719292 -56.881138 -130.03848 9736582
23.730114 -56.95887 -129.95717 9077628
24.727989 -56.935341 -129.91354 10064521
25.717625 -56.754936 -129.9277 8024944
-99.946121 -56.599808 -112.33775 7039331
-99.441544 -56.542641 -112.5865 7039331
-95.944885 -56.040581 -112.40503 6315092
-94.914597 -56.161098 -112.74723 5657419
-94.135078 -56.303173 -113.0128 6511444
-93.201973 -56.382874 -113.41013 6576724
22.125866 -56.192635 -130.32124 9736836
22.830883 -56.089077 -130.32225 8420982
23.731766 -55.928905 -130.33365 9078656
24.6854 -55.972492 -130.26785 9604229
25.701851 -56.055073 -130.18445 7893102
26.543386 -55.93642 -130.13606 8287859
24.091917 -55.280743 -130.55186 8092019
24.790298 -55.075352 -130.59038 8815227
25.708698 -55.024082 -130.56111 7762028
26.71431 -55.077091 -130.40242 8419444
27.373363 -54.772446 -130.2412 10195595
25.97525 -54.261089 -130.82613 7565675
26.76421 -54.096645 -130.77744 10919831
27.691624 -53.944725 -130.42352 10919574
27.08148 -53.378109 -130.9426 10065289
27.703997 -52.992733 -130.80164 12104360
28.517626 -52.872734 -130.46262 7826790
27.996895 -52.064949 -131.03638 11775907
28.732912 -51.951141 -130.73184 9669251
29.389458 -51.64399 -130.54312 7300446
28.834604 -50.974422 -131.07736 9077630
29.649601 -50.859234 -130.73578 8550514
29.103764 -50.250343 -131.24129 7038307
29.728752 -49.871807 -131.09636 7498599
30.424696 -50.07729 -130.68207 7234909
29.990322 -49.087795 -131.28802 8551800
30.607859 -49.029381 -131.01753 9472897
31.290888 -48.932388 -130.73146 8354158
30.803549 -48.044121 -131.32176 8881020
31.625177 -48.05072 -130.92789 8880759
31.115726 -47.476189 -131.40221 8092019
31.63641 -47.08181 -131.31364 9473155
32.423637 -46.973663 -130.9827 10460046
31.807356 -46.366611 -131.52831 9407363
32.629982 -46.046787 -131.3075 10591121
33.462437 -45.814205 -131.04439 9210491
32.82515 -45.363605 -131.61166 9407363
33.569889 -45.060177 -131.47498 9670020
34.508713 -44.67942 -131.65269 10261388
35.496578 -44.550449 -131.57262 10064011
35.629391 -44.348362 -132.07124 8156529
36.682278 -44.25103 -131.95491 9669506
37.573494 -43.933613 -132.08737 6905688
38.378624 -43.87257 -131.77866 6643287
37.651752 -43.251617 -132.32529 7366495
38.56612 -43.021156 -132.03821 7499625
39.307514 -42.738686 -131.84303 7039331
37.806133 -42.459641 -132.57385 9209726
38.600945 -42.166862 -132.36061 10064777
39.521641 -41.928219 -132.07393 10130313
38.849728 -41.453426 -132.63031 9209726
39.611988 -41.189808 -132.49309 10920085
40.51321 -40.796455 -132.43086 14341834
41.116505 -40.766403 -132.14223 11709858
41.518829 -40.176277 -132.69713 12762802
42.54842 -39.795975 -132.6944 9143417
43.333813 -39.594036 -132.55283 7037274
46.955753 -39.510742 -133.8325 12432812
44.279167 -39.362076 -132.76094 10195082
47.512005 -39.440739 -133.37431 7695978
48.631729 -39.327976 -133.98497 8090995
49.185749 -39.258114 -133.51793 8748664
50.456593 -39.126343 -134.00375 9143162
51.74139 -38.992947 -134.48804 9011320
52.291729 -38.923218 -134.0036 9670022
53.451817 -38.805714 -134.60086 9144448
54.381329 -38.702621 -134.59131 10394258
55.309849 -38.59956 -134.57332 8946558
56.361534 -38.496296 -135.29262 9868171
56.634289 -38.461464 -135.0374 9868171
57.041973 -38.409271 -134.65408 9537667
58.379284 -38.269592 -135.10977 9406338
59.596107 -38.145653 -135.69566 8617080
60.136082 -38.07621 -135.16721 7564651
61.501537 -37.933228 -135.61264 8880509
63.149517 -37.753899 -135.78302 8485488
64.543884 -37.607609 -136.22023 9012600
64.943634 -37.555676 -135.80376 8222060
65.952927 -37.459553 -136.6553 8681843
66.351974 -37.407661 -136.23233 9537407
67.642761 -37.275211 -136.80202 9010808
68.039757 -37.223412 -136.37236 9471359
69.5467 -37.108551 -136.92789 9010808
-55.27853 -73.740265 -119.09217 8419696
-54.429279 -73.820686 -119.29131 9208700
-53.391644 -73.997849 -119.50433 9208956
-52.465107 -74.043694 -119.73771 8419696
-51.558117 -73.976212 -120.00948 6971994
-50.593311 -74.03891 -120.14254 6116428
-49.649944 -73.962036 -120.47783 6511187
-48.653164 -74.02076 -120.76289 6971481
-47.59705 -74.143242 -120.78529 7892839
-46.629135 -74.248161 -120.91382 7893096
-45.59042 -74.287964 -121.05423 9734788
-44.592175 -74.286621 -121.04073 9142907
-43.756119 -74.285835 -121.27351 9077369
-42.727863 -74.284546 -121.335 9735043
-41.711456 -74.283691 -121.69537 9800837
-40.685253 -74.059303 -122.02617 9932167
-39.704807 -73.86731 -122.00607 10129546
-38.706554 -73.846985 -121.91618 9603457
-37.734547 -73.660255 -121.88999 8354159
-58.569664 -72.617996 -118.63238 7761512
-57.589596 -72.881355 -118.79657 8221803
-56.462551 -73.015816 -119.05023 8156010
-55.447113 -73.080872 -119.3003 8682612
-54.508739 -73.010971 -119.5815 8617075
-53.478992 -73.193665 -119.79021 9405823
-52.599506 -73.170181 -120.03758 7564386
-51.690132 -73.10331 -120.30972 6182991
-50.742577 -73.076141 -120.57695 4998977
-49.713337 -73.250221 -120.78883 3880498
-48.266277 -73.58213 -121.05311 6510930
-40.424831 -73.484543 -122.21693 9405822
-39.698814 -73.255119 -122.23041 10326668
-38.790924 -73.166779 -122.17435 9406078
-37.816666 -72.981392 -122.14744 9471872
-36.806988 -73.13871 -121.99117 8616307
-35.956142 -72.923828 -121.98715 8221549
-61.222317 -71.813354 -118.22334 7564643
-60.42757 -71.851173 -118.42415 9208953
-59.415257 -71.948639 -118.66091 8748660
-58.413658 -72.158745 -118.85146 7761512
-57.455647 -72.194199 -119.09742 7432806
-56.480011 -72.07151 -119.40901 7827561
-55.561405 -71.992729 -119.68826 8945784
-54.616627 -72.09153 -119.90623 7564643
-53.673969 -72.193359 -120.12249 6840919
-52.789181 -72.33754 -120.30676 6709333
-51.947376 -72.416801 -120.5043 6511954
-38.711987 -72.456306 -122.42771 9800836
-37.756702 -72.103844 -122.46404 10392461
-36.71748 -72.116455 -122.35805 9405823
-35.612038 -72.114166 -122.25108 9800581
-34.694675 -71.966934 -122.2157 10524045
-34.018429 -71.774399 -122.22047 10261129
-64.283463 -70.712914 -117.81842 8946039
-63.290607 -70.901764 -118.01437 8419696
-62.311855 -71.035019 -118.22795 9012089
-61.402935 -71.15448 -118.42808 9143675
-60.415928 -71.019127 -118.74762 10195591
-59.513721 -71.0326 -118.9869 8090986
-58.499973 -71.190346 -119.20088 7432288
-57.575237 -71.105995 -119.48395 6839895
-56.679749 -71.12822 -119.71803 9208444
-55.765087 -71.214554 -119.93265 10524304
-54.546841 -71.556236 -120.1312 8419696
-37.330395 -71.506416 -122.64201 11905692
-36.633526 -71.242073 -122.67113 9405822
-35.67878 -71.165924 -122.60601 10261130
-34.750202 -71.045479 -122.55968 9997956
-33.766411 -71.103294 -122.44252 10326666
-32.884148 -70.862083 -122.44507 9471614
-32.199619 -70.611229 -122.4705 9866371
-67.366341 -69.753197 -117.35384 12368299
-66.275436 -69.954079 -117.57169 11381149
-65.326744 -70.069305 -117.7841 8419697
-64.414062 -70.011971 -118.05322 8288112
-63.382069 -70.154762 -118.27757 10591633
-62.470081 -70.160225 -118.52232 9012089
-61.533882 -70.064102 -118.81281 8551538
-60.630917 -70.018654 -119.07474 8551280
-59.607216 -70.230331 -119.27042 7564643
-58.70409 -70.358551 -119.46576 7300703
-57.846119 -70.422325 -119.67374 7563618
-35.629375 -70.513489 -122.84085 10261129
-34.805138 -70.12587 -122.90293 9405815
-33.874752 -70.097107 -122.82278 9997956
-32.844582 -70.003952 -122.75654 9339771
-31.775637 -70.031845 -122.64202 10326665
-30.843075 -69.711708 -122.66871 8090987
-69.090439 -68.677391 -117.07336 7038307
-68.356041 -68.876701 -117.32619 8222834
-67.490799 -69.108719 -117.56662 11512992
-66.505737 -69.174042 -117.81003 12236970
-65.556564 -69.066353 -118.10848 9407107
-64.641045 -69.009933 -118.37804 7038307
-63.601032 -69.210236 -118.58232 8025198
-62.691002 -69.159676 -118.84816 7432544
-61.751999 -69.2864 -119.05351 8485489
-60.349434 -69.592148 -119.31536 13550517
-33.792305 -69.344688 -123.09118 9800576
-32.803303 -69.042435 -123.1058 9668993
-31.701097 -69.171974 -122.9507 12300452
-30.750399 -69.020775 -122.91355 11774110
-29.929556 -68.89257 -122.88056 9669248
-70.034851 -67.658737 -117.05686 8090479
-69.373657 -67.979187 -117.22736 7564650
-68.383156 -68.131165 -117.61563 7828077
-67.34359 -68.195816 -117.9603 12500142
-66.38961 -68.087234 -118.26038 11973541
-65.462036 -68.198517 -118.46857 9012093
-64.391899 -68.403603 -118.67918 7038307
-63.729191 -68.511444 -118.81697 7038307
-32.439636 -68.274406 -123.35254 8089963
-31.757643 -68.208206 -123.3103 11379352
-30.847864 -68.023438 -123.28948 13352371
-29.877054 -68.098534 -123.16721 12234404
-28.809732 -68.019127 -123.09229 9143417
-27.994287 -67.761238 -123.10755 8880246
-71.136665 -66.889458 -116.86784 7564385
-70.342911 -67.06469 -117.15735 8353903
-69.337135 -67.162712 -117.57437 7367268
-68.469635 -67.220116 -117.94508 7696489
-67.576065 -67.416962 -118.19757 11710626
-66.841537 -67.423088 -118.39399 12236970
-30.841314 -67.26442 -123.56769 13023663
-29.925064 -67.167358 -123.51401 12760491
-28.854856 -67.050308 -123.45265 10656141
-27.734499 -67.110321 -123.32133 9537918
-26.865135 -66.897621 -123.31471 9734786
-26.189085 -66.669945 -123.33244 9734788
-72.985481 -65.693489 -116.51237 7234909
-72.24041 -65.885231 -116.77312 7038298
-71.443146 -66.058311 -117.06506 8156521
-70.427551 -66.210548 -117.46458 8617073
-69.591125 -66.254623 -117.82655 8419696
-68.899933 -66.530212 -118.02892 7564643
-29.54772 -66.482048 -123.72903 12497575
-28.733385 -66.124344 -123.78104 12037280
-27.826303 -66.066154 -123.71394 9077368
-26.869831 -66.098671 -123.60872 9405824
-25.931448 -65.969788 -123.56457 8551030
-25.151937 -65.864792 -123.52711 8813945
-74.09874 -64.69413 -116.4114 6510930
-73.342285 -64.923164 -116.66215 7366495
-72.410843 -65.097618 -117.01446 9998467
-71.366257 -65.200317 -117.44719 11116434
-70.486694 -65.475533 -117.73518 9735041
-27.678627 -65.323288 -123.97249 9735297
-26.953703 -65.112473 -123.97926 8813945
-25.855846 -64.96434 -123.92661 8551030
-24.79649 -65.188774 -123.74084 9275008
-23.81649 -64.864159 -123.76454 8683385
-23.053148 -64.60331 -123.78592 8420470
-75.129379 -63.83445 -116.29177 6578007
-74.241508 -63.989819 -116.63174 6971737
-73.302582 -64.108521 -117.00984 7958888
-72.394524 -64.27623 -117.35425 10655883
-71.619095 -64.424026 -117.64653 11905692
-26.694546 -64.413185 -124.21088 7893358
-25.808256 -64.088829 -124.24364 7827821
-24.813618 -64.166214 -124.11823 8223091
-23.878078 -64.04747 -124.07061 7894383
-22.945702 -63.931946 -124.02213 7894381
-22.088055 -63.910213 -123.94651 6644314
-76.195419 -62.931286 -116.17404 4867385
-75.36319 -62.993557 -116.52641 5920073
-74.419899 -63.110054 -116.90723 7234653
-73.507584 -63.275471 -117.25417 7103067
-72.805687 -63.544411 -117.46375 7235165
-24.812321 -63.374065 -124.40916 7565675
-23.951893 -63.06884 -124.43737 9012093
-23.016649 -62.954731 -124.3881 8354418
-21.907066 -63.150726 -124.20789 7631208
-20.875164 -62.937458 -124.18559 13221809
-20.075216 -62.613831 -124.2265 10458508
-77.935707 -61.744614 -115.86519 6906711
-77.251396 -61.950748 -116.0922 5920074
-76.381943 -62.031742 -116.45387 5920073
-75.391937 -62.104084 -116.87376 6116940
-74.616005 -62.445789 -117.0874 8089962
-73.921814 -62.544659 -117.36235 7366239
-23.688177 -62.379032 -124.66511 9340801
-22.857803 -62.045567 -124.70666 7894123
-21.930096 -62.20068 -124.55922 9012090
-20.88921 -62.052078 -124.51228 9340541
-19.962172 -61.949192 -124.45967 9142649
-19.160999 -61.862423 -124.41341 10458508
-79.001678 -60.869099 -115.7363 9340536
-78.237709 -61.051537 -116.00932 8551022
-77.323746 -60.988392 -116.45564 6972505
-76.31028 -61.17202 -116.83475 7893607
-75.574692 -61.46278 -117.05069 6972249
-21.810431 -61.372353 -124.85189 9932933
-20.953295 -61.080379 -124.87556 8024427
-20.023462 -60.978813 -124.8222 8089963
-18.942617 -61.064812 -124.6871 8945271
-17.954897 -60.978676 -124.62053 8485489
-17.250631 -60.691727 -124.65722 9734788
-82.064209 -59.692631 -115.286 9866371
-81.24147 -59.800812 -115.59468 7563873
-80.287086 -60.016396 -115.82919 6775126
-79.288002 -60.13023 -116.14957 6972510
-78.438019 -60.265011 -116.42111 7893357
-77.687637 -60.344273 -116.69444 8090736
-76.798904 -60.604603 -116.87771 8682867
-20.075773 -60.366451 -125.13378 8089963
-18.880917 -60.225918 -125.12076 9077114
-17.897192 -60.116409 -125.11272 9011577
-17.019238 -59.965427 -125.16393 9142907
-16.039608 -59.916912 -125.08768 9537408
-14.939544 -59.758377 -125.08607 8748659
-13.981103 -59.599899 -125.18909 8617075
-13.225596 -59.567303 -125.20798 9143163
-89.010323 -58.76347 -114.31139 7958374
-88.185669 -59.124802 -114.57413 9406073
-87.253014 -59.051384 -115.06956 7893090
-86.358154 -59.194599 -115.13425 7498590
-85.266129 -59.360291 -115.30947 8354165
-84.347694 -59.415398 -115.22768 9406851
-83.296753 -59.463589 -115.5327 9669250
-82.248627 -59.513439 -115.83244 9274235
-81.660873 -59.489086 -116.18289 8089963
-80.16053 -59.615726 -116.41586 8090216
-15.858253 -59.524696 -125.59899 8550514
-14.947038 -59.483021 -125.62865 9274237
-14.036077 -59.443584 -125.65633 8945784
-13.062743 -59.339195 -125.8932 9537665
-12.033753 -59.29673 -126.0288 9537920
-11.036586 -59.286472 -126.04813 9603969
-10.038945 -59.269157 -126.04431 10261899
-9.1021004 -59.247158 -126.53778 10656914
-8.0433416 -59.245823 -126.61494 9735812
-7.1353126 -59.244732 -126.67381 8617075
-6.0754704 -59.243404 -126.73404 9274493
-5.0150876 -59.241997 -126.78568 10590091
-4.1059508 -59.240902 -126.82276 8485229
-3.0191264 -59.239662 -127.0218 10064263
-2.0803142 -59.238914 -127.34867 8418927
-1.0845293 -59.238125 -127.71617 7563619
-0.16869485 -59.23695 -127.72478 9010808
0.74715674 -59.235699 -127.72674 10853012
1.8155695 -59.234295 -127.7205 8287857
2.9514146 -59.233208 -128.03511 7762028
3.7511773 -59.232357 -128.18291 8748921
4.7420373 -59.231487 -128.48494 13090482
5.8167443 -59.229996 -128.44499 12103588
6.8910451 -59.228489 -128.39647 9801608
7.8352437 -59.22776 -128.76442 9867399
8.7850771 -59.226982 -129.12534 9998984
9.7108164 -59.225658 -129.06267 10262156
10.790149 -59.224079 -128.98087 10262156
11.751431 -59.223316 -129.32466 9735046
12.6879 -59.02425 -129.75752 8485494
13.708325 -58.88562 -129.7514 7696747
14.753175 -58.927143 -129.65874 8946811
15.650123 -58.861404 -129.65851 10064521
16.575762 -58.790714 -129.6622 10392974
17.269066 -58.677071 -129.66747 10985367
-90.06955 -57.871216 -114.15018 7497823
-89.216362 -58.107471 -114.47851 7366238
-88.289719 -58.216862 -114.89577 8616300
-87.471596 -58.372944 -115.23962 7301211
13.615527 -58.180237 -130.04045 7959919
14.681308 -57.982521 -130.0569 8420981
15.734204 -57.975433 -130.00432 9209980
16.673012 -57.998722 -129.94664 8484976
17.612509 -58.024578 -129.88799 9340286
18.616066 -57.834194 -129.90498 9999244
-104.87758 -56.981079 -112.29442 9208435
-104.02417 -56.883099 -112.73283 8946040
-102.95162 -56.806328 -112.6597 9603455
-102.05416 -56.749699 -112.49602 8681835
-101.37618 -56.672535 -112.83538 8353645
-91.641724 -56.654476 -113.86822 9734528
-91 -57.090118 -114.00496 7892582
-90.181007 -57.221405 -114.35938 7168860
-89.267761 -57.19326 -114.82481 7103066
-88.482925 -57.376663 -115.14339 7037274
15.713778 -57.203526 -130.28758 10393226
16.716452 -57.007481 -130.30673 7827300
17.658604 -57.03294 -130.24808 8945525
18.601585 -57.060997 -130.18842 9604486
19.582392 -57.056091 -130.13885 11906982
20.508295 -56.793961 -130.18617 14933457
-100.86748 -56.614765 -113.08783 8091248
-100.18866 -56.538036 -113.42076 8814454
-98.936676 -56.485672 -112.83305 10129801
-98.069496 -56.376503 -113.21067 8353902
-96.978828 -56.139969 -113.326 10064006
-96.035774 -55.909264 -113.32757 8288112
-95.045525 -55.728474 -113.53947 7630438
-94.069061 -55.768578 -113.92439 7563362
-93.134056 -55.952766 -113.90828 7168861
-92.195381 -56.052444 -114.17487 9602942
-91.163063 -56.281292 -114.39226 9997700
-90.288689 -56.261345 -114.79796 7103067
-89.586708 -56.481834 -114.94672 7760994
16.902615 -56.351109 -130.5369 6511954
17.745287 -56.137768 -130.57076 9735298
18.650248 -56.069809 -130.54822 10261900
19.59676 -56.099945 -130.48759 10459536
20.605623 -56.168015 -130.40988 11184026
21.601101 -55.940006 -130.44112 12434349
22.605146 -55.61528 -130.50731 10328722
-93.306122 -55.58691 -114.50462 8221292
18.840597 -55.41412 -130.77795 10525071
19.685492 -55.151554 -130.82967 10590861
20.598198 -55.141216 -130.78564 11051925
21.562119 -54.955547 -130.8031 12039079
22.583179 -54.918079 -130.76337 11709860
23.639517 -54.862679 -130.72836 8223605
24.613077 -54.640087 -130.75882 7565675
20.718075 -54.400806 -131.05011 10261895
21.659719 -54.044647 -131.13104 11314329
22.580833 -53.890671 -131.13918 12696497
23.538061 -53.929569 -131.07487 8881277
24.558342 -54.006985 -130.99319 7565675
25.545134 -53.894455 -130.9827 8354933
26.441252 -53.729744 -130.99602 11907749
22.779995 -53.235958 -131.36816 11512736
23.637379 -52.980625 -131.41661 8420726
24.561136 -52.978409 -131.36911 9736070
25.523817 -53.02153 -131.30296 10656914
26.548716 -53.063118 -131.21342 10328718
27.130079 -52.7174 -131.18597 10065289
24.689951 -52.237644 -131.63322 11314586
25.628525 -52.071785 -131.64479 9275260
26.557156 -52.071941 -131.59161 9275516
27.444227 -51.991669 -131.32907 10262668
25.958527 -51.38126 -131.88002 8288621
26.678019 -51.280659 -131.87599 7564642
27.552233 -51.039085 -131.66187 7762279
28.278246 -50.909882 -131.36832 10591124
27.718233 -50.150028 -131.94145 8683128
28.529022 -49.971222 -131.62752 9801609
29.142591 -49.756145 -131.42209 7038307
27.976952 -49.362534 -132.13593 7038307
28.60503 -48.982086 -131.99026 8222579
29.473431 -48.870228 -131.62189 8354165
28.806669 -48.310219 -132.16528 7038307
29.478764 -47.899124 -132.01109 10064780
30.269787 -47.78529 -131.68036 9341571
29.706125 -47.038017 -132.25018 8881278
30.511444 -46.834957 -131.94881 8683899
30.572765 -46.017712 -132.29509 9012607
31.449537 -45.84243 -131.98645 8947070
31.509459 -45.113861 -132.38788 9407363
32.406273 -44.918785 -132.22502 9867656
33.496708 -44.618965 -132.29588 9078395
33.622341 -44.416748 -132.7981 8618099
34.597538 -44.322296 -132.64886 8420721
35.461445 -43.873192 -132.97289 8749429
36.413536 -43.795639 -132.62167 10459278
35.700508 -43.093582 -133.19461 8288624
36.433811 -42.812908 -133.00212 9866627
37.250454 -42.921822 -132.62158 7958632
36.616123 -42.092381 -133.21947 10064262
37.447563 -41.898518 -132.98895 8814967
38.179462 -41.783909 -132.68585 13550517
37.605247 -41.109097 -133.49448 8090987
38.448349 -41.044735 -133.19362 10130569
39.285076 -40.685467 -133.18138 7434088
40.00008 -40.551666 -133.02412 13683904
39.477333 -40.301659 -133.60425 7894382
40.393784 -40.061821 -133.47498 12894388
41.301445 -39.733677 -133.42429 15262936
44.305565 -39.815365 -134.44794 8092011
46.255527 -39.598648 -134.40302 14209223
47.655148 -39.450996 -134.79932 9867403
48.074764 -39.398186 -134.45076 8090995
49.485874 -39.249004 -134.83459 8617079
51.049114 -39.080627 -135.092 8683123
52.486439 -38.928356 -135.46199 11380380
52.901482 -38.875618 -135.09343 10262414
54.212795 -38.73933 -135.57588 10985879
55.538425 -38.601391 -136.05672 8092019
55.95076 -38.548737 -135.67488 10789015
57.426521 -38.391712 -136.01794 9866117
59.05246 -38.215473 -136.22316 9208702
60.555561 -38.055107 -136.55174 10525331
60.962399 -38.002686 -136.1496 9538438
62.342865 -37.858223 -136.60159 9538179
63.46854 -37.746933 -137.32849 8682867
64.007614 -37.677086 -136.77472 8748916
65.283531 -37.546551 -137.35925 9011063
65.685822 -37.494312 -136.93701 10458507
67.110275 -37.344639 -137.37444 9997702
68.888687 -37.197384 -137.66385 8089963
70.452095 -37.099819 -138.30217 8089963
-46.714306 -73.84539 -121.37234 7432801
-45.790272 -73.97258 -121.57381 7169629
-44.808464 -73.899834 -121.86782 8419440
-43.694553 -73.988647 -122.08464 9932423
-42.76511 -73.990433 -122.23964 9274749
-41.719093 -73.918365 -122.18374 9866629
-41.082233 -73.614944 -122.23313 9405822
-50.379482 -72.660545 -120.8353 4077877
-49.542484 -72.747009 -121.02886 5459527
-48.641949 -73.077774 -121.14553 7235166
-47.7131 -73.198868 -121.3506 6379601
-46.809902 -73.148964 -121.61456 5985613
-45.802357 -73.065285 -121.91979 6117453
-44.760746 -73.082481 -122.19541 8090474
-43.804314 -73.005592 -122.48418 8353903
-42.850609 -73.089935 -122.59224 8748661
-41.833164 -73.063843 -122.50884 9932422
-40.861332 -73.046104 -122.42059 9932422
-39.90456 -72.824203 -122.40883 9866374
-52.620712 -71.832001 -120.547 6709333
-51.584042 -72.00032 -120.76311 7038300
-50.633686 -71.974739 -121.03047 4604219
-49.698833 -72.089844 -121.23949 4209205
-48.765858 -72.208076 -121.44678 7564387
-47.859039 -72.155563 -121.71272 6248271
-46.847572 -72.068962 -122.02012 5722703
-45.836422 -72.127304 -122.27165 5788752
-44.874878 -72.21405 -122.49883 5919565
-44.044014 -72.317345 -122.68418 7235681
-42.715519 -72.421577 -122.83088 9603713
-41.909245 -72.128319 -122.86002 9800836
-40.895409 -72.135757 -122.7584 10261643
-39.942841 -71.995667 -122.71699 9735043
-38.975925 -72.06002 -122.59902 9866629
-38.183765 -71.779205 -122.62496 10458507
-56.55558 -70.663132 -119.93073 9734531
-55.758842 -70.772812 -120.10439 9405822
-54.699326 -71.014542 -120.29845 7432801
-53.638027 -71.16555 -120.52787 8550770
-52.615948 -71.057945 -120.84624 7432800
-51.701214 -70.993622 -121.11888 7235679
-50.816547 -71.034485 -121.34288 6314578
-49.824818 -71.221451 -121.53963 4340534
-48.914284 -71.166374 -121.80756 5392706
-47.89045 -71.307816 -122.03053 5853771
-46.897064 -71.404297 -122.2626 5920338
-40.971195 -71.357285 -123.05183 9208443
-39.979183 -71.046814 -123.06915 9340285
-38.831177 -71.123466 -122.92902 9735043
-37.756821 -71.066696 -122.84512 11445398
-36.832493 -70.81308 -122.84814 10787726
-36.113743 -70.598808 -122.85679 9735296
-59.356937 -69.852386 -119.48378 7564643
-58.644749 -69.875374 -119.66787 7563618
-57.655991 -69.919724 -119.91874 7432032
-56.714817 -70.010254 -120.13891 8813685
-55.576176 -70.190094 -120.3782 7761509
-54.614235 -70.152901 -120.65318 6643284
-53.694115 -70.083046 -120.92937 7234652
-52.775318 -70.016357 -121.20404 7234652
-51.886559 -70.054771 -121.43008 10655889
-50.881733 -70.296555 -121.6093 6775128
-50.01421 -70.445816 -121.78695 5195841
-39.579922 -70.422974 -123.25944 9208955
-38.794292 -70.091072 -123.30473 9077368
-37.830853 -70.10302 -123.2064 9340795
-36.840015 -70.040649 -123.13268 9209210
-35.902664 -69.973663 -123.06592 9471869
-35.059875 -69.729866 -123.07325 9340027
-62.252342 -68.715179 -119.13819 7892581
-61.438686 -68.811806 -119.32127 10064006
-60.596592 -69.084549 -119.44406 12629672
-59.632084 -69.170456 -119.67202 9735041
-58.60091 -69.111778 -119.97382 8616307
-57.614628 -68.990013 -120.28785 7563618
-56.601536 -69.156174 -120.49837 8550769
-55.70348 -69.183815 -120.73111 7432800
-54.810719 -69.157936 -120.98296 6840151
-53.885181 -69.254997 -121.19639 7366239
-53.188137 -69.344635 -121.35084 8813683
-37.754536 -69.343643 -123.47796 8682867
-36.957905 -69.031708 -123.5149 9209210
-35.956516 -69.08622 -123.39721 9932162
-34.973118 -69.032173 -123.32117 9866370
-34.006962 -68.870071 -123.28649 11379350
-65.482071 -67.748932 -118.63643 9406594
-64.39389 -67.958801 -118.85009 8485494
-63.446964 -68.082184 -119.05885 9734785
-62.534626 -68.03392 -119.32443 9010805
-61.62022 -68.044937 -119.56772 7958632
-60.592678 -68.199402 -119.78632 11709343
-59.65596 -68.112648 -120.0733 8156783
-58.721088 -68.029083 -120.35858 8156523
-57.81591 -68.051506 -120.59496 7827559
-56.771343 -68.391335 -120.74682 7432800
-55.969631 -68.50222 -120.92132 7958888
-36.709595 -68.303505 -123.75826 9735296
-35.965145 -68.176437 -123.73232 9997956
-34.969933 -67.978333 -123.70805 9668991
-33.821301 -68.159477 -123.52948 10260870
-32.838303 -67.957603 -123.50778 9011058
-32.154167 -67.890495 -123.46576 10063747
-67.523743 -66.928238 -118.40009 11446942
-66.558464 -66.990143 -118.63752 11973542
-65.602577 -67.108757 -118.85059 10590865
-64.61834 -67.182175 -119.08869 8288115
-63.669369 -67.084213 -119.38332 9800578
-62.722626 -66.989449 -119.67613 9010805
-61.684803 -67.198212 -119.8766 7563876
-60.806347 -67.20369 -120.11227 9012093
-59.861778 -67.284782 -120.3367 6972512
-59.150486 -67.362267 -120.4994 6840919
-34.761948 -67.209732 -123.97016 8089963
-33.863613 -67.14859 -123.90504 10260871
-32.897552 -66.994308 -123.8675 9866367
-31.902105 -67.175629 -123.70379 9274746
-31.028242 -66.838661 -123.74239 10656141
-30.340902 -66.600006 -123.76303 13023917
-69.182259 -65.833801 -118.18252 8419696
-68.477371 -66.114647 -118.38784 8222573
-67.536469 -66.0728 -118.72639 10920598
-66.633934 -66.075531 -118.96964 11841187
-65.561501 -66.175446 -119.22142 11906463
-64.600342 -66.115044 -119.50488 9011063
-63.669956 -66.198181 -119.7247 9076857
-62.847805 -66.293907 -119.91035 7892581
-61.839565 -66.550377 -120.0844 8814455
-33.772923 -66.456749 -124.15041 10063747
-32.944958 -66.085144 -124.20615 9800574
-32.002392 -66.180046 -124.07938 8945780
-31.042297 -66.034019 -124.03943 9800833
-29.975256 -66.042725 -123.93214 12695209
-28.975277 -65.729385 -123.94974 13287089
-70.34256 -64.970207 -118.00518 10589839
-69.465187 -65.138077 -118.33559 9537665
-68.569382 -65.09462 -118.75995 9472384
-67.631653 -65.013672 -119.10889 10591632
-66.602974 -65.258682 -119.29289 12696495
-65.674751 -65.427399 -119.4791 12959406
-64.941231 -65.440407 -119.67267 7563619
-32.018116 -65.374886 -124.37673 8682867
-30.979069 -65.01815 -124.40648 9537918
-29.922726 -65.137222 -124.25971 10984849
-28.876974 -65.047714 -124.19061 12761002
-28.037615 -64.874077 -124.17257 11182229
-72.134369 -63.860775 -117.64052 11905692
-71.387711 -64.055786 -117.90063 8682353
-70.564865 -64.129883 -118.24429 7893607
-69.665703 -64.084145 -118.67106 8879991
-68.845093 -64.162857 -119.01183 9208955
-30.562365 -64.287361 -124.63439 8682867
-29.831663 -64.182465 -124.60162 8484718
-28.966684 -64.060364 -124.56216 8024168
-28.004665 -64.037918 -124.47659 9011318
-27.080278 -64.092163 -124.3665 8222060
-26.191784 -63.766846 -124.39939 7433063
-73.247116 -62.85952 -117.54092 6510930
-72.489029 -63.091618 -117.79084 7235165
-71.519936 -63.116459 -118.22075 8024169
-70.552399 -63.144341 -118.64882 8419695
-69.799248 -63.382065 -118.89459 8682867
-28.954105 -63.309757 -124.8367 6510930
-28.020502 -63.043961 -124.84332 8156523
-27.120996 -63.144669 -124.71861 8419695
-26.016226 -63.000126 -124.66396 8485231
-25.041395 -62.875523 -124.61465 8486003
-74.277222 -61.997559 -117.42273 6971481
-73.387238 -62.157166 -117.76187 6971481
-72.48024 -62.105061 -118.19455 6511954
-71.597893 -62.158215 -118.57336 7958376
-70.903069 -62.374901 -118.80094 8682867
-26.976934 -62.199432 -125.05185 8353902
-25.938185 -61.99995 -125.02383 7695971
-24.975584 -62.098747 -124.89365 7235420
-24.067766 -62.055698 -124.82094 7893608
-23.183197 -61.74448 -124.84904 7828073
-75.342514 -61.091957 -117.30631 7564386
-74.508057 -61.158554 -117.65794 7958376
-73.597305 -61.104351 -118.09315 6642516
-72.765617 -61.175388 -118.44176 6577747
-25.918577 -61.256069 -125.29523 7893349
-25.017263 -61.117828 -125.25962 7432799
-24.09922 -61.11573 -125.16938 8748402
-23.001787 -60.986477 -125.1102 7827558
-22.033579 -60.876171 -125.05875 10327436
-78.301849 -59.831345 -116.84916 7564393
-77.405899 -59.92387 -117.17982 7169893
-76.485199 -60.094696 -117.46784 7498600
