# .PCD v0.7 - Point Cloud Data file format
VERSION 0.7
FIELDS x y z rgb
SIZE 4 4 4 4
TYPE F F F U
COUNT 1 1 1 1
WIDTH 1197
HEIGHT 1
VIEWPOINT 0 0 0 1 0 0 0
POINTS 1197
DATA ascii
164.50603 -29.446918 -23.786303 9734779
165.31435 -29.171146 -24.101282 9208435
165.5598 -29.194033 -23.32548 9406588
165.8654 -29.223261 -22.353968 9538433
167.16963 -29.004339 -21.707155 6709078
167.2735 -29.004543 -20.904848 8813171
167.42523 -29.017803 -20.311655 10062979
112.13889 -44.416302 -84.967377 9208443
112.57014 -44.426567 -84.449593 8420467
113.21508 -44.442863 -83.670784 7959403
113.8577 -44.460354 -82.889122 8485230
114.49796 -44.479042 -82.104637 8681835
115.13575 -44.498833 -81.317383 9142130
115.77124 -44.519825 -80.527199 8748405
116.29906 -44.538204 -79.866577 7564643
116.82518 -44.557476 -79.203812 8090987
117.70789 -44.485931 -78.572853 11051416
118.59053 -44.415581 -77.936745 12367275
119.21822 -44.442066 -77.129532 11643809
119.84353 -44.469742 -76.319443 11183514
120.46674 -44.498623 -75.506157 7631203
121.08761 -44.528706 -74.689857 7893349
121.70611 -44.559956 -73.870506 9603453
122.49352 -44.51305 -73.228699 7959659
123.09275 -44.501225 -72.629829 9341054
123.88141 -44.456467 -71.978706 9472386
124.49493 -44.492104 -71.144234 10064522
125.10583 -44.528839 -70.30629 8946300
125.71459 -44.566742 -69.464935 9997953
126.4968 -44.502472 -68.910973 8418927
127.10322 -44.542679 -68.062042 8747888
127.88721 -44.48032 -67.497864 8682351
128.49117 -44.522717 -66.640892 8682351
129.09294 -44.56633 -65.780434 8616306
129.87923 -44.506226 -65.203293 9997700
130.47881 -44.552128 -64.334694 6248015
131.12206 -44.542561 -63.677479 6510930
131.86427 -44.542034 -62.870018 10392971
132.45959 -44.591534 -61.989429 11052187
133.25035 -44.510727 -61.50375 10525331
133.74515 -44.578548 -60.647118 9669507
134.35732 -44.608196 -59.840721 9077369
135.12904 -44.578197 -59.138763 7498853
135.82211 -44.579315 -58.377323 7762796
136.414 -44.597477 -57.64669 9341313
137.0041 -44.629375 -56.853767 8550514
137.80205 -44.579185 -56.217373 8089963
138.38799 -44.639 -55.298901 9734273
139.18939 -44.590084 -54.652832 9076343
139.75406 -44.566338 -53.909317 8813171
140.26813 -44.507923 -52.95229 9997959
97.91217 -43.572083 -100.61651 13550517
98.435081 -43.720711 -100.09524 11116951
99.133598 -43.771599 -99.464996 10328207
99.890862 -43.791542 -98.797539 9209215
100.64838 -43.813492 -98.128868 7432291
101.4063 -43.837536 -97.459007 7168860
102.1646 -43.863667 -96.787849 8221549
102.92342 -43.891911 -96.115288 9340542
103.62358 -43.954391 -95.478439 8618099
104.14629 -44.115009 -94.952011 8618099
107.28854 -44.123203 -91.433876 10786958
107.47074 -44.153114 -90.619781 10589579
108.02729 -44.171375 -89.858673 9405819
108.70238 -44.184723 -89.108742 12366501
109.37369 -44.198666 -88.354912 11510682
110.04902 -44.216274 -87.60318 8090479
110.75145 -44.246666 -86.871483 10260873
111.45488 -44.279346 -86.138718 9011064
112.15588 -44.291035 -85.486229 9208443
113.05336 -44.235275 -84.80941 9208441
113.70132 -44.251564 -84.027321 7827815
114.23941 -44.266037 -83.373634 9340286
114.77592 -44.281376 -82.717628 8681835
115.4175 -44.300797 -81.928162 9602425
116.05682 -44.321377 -81.13562 9800322
116.6937 -44.34317 -80.340332 7827815
117.32833 -44.366112 -79.542053 9340286
117.85536 -44.386086 -78.874741 11051416
120.57131 -44.286518 -76.375359 9736324
120.98853 -44.305862 -75.830513 7631203
121.61256 -44.335941 -75.010826 7893349
122.13079 -44.361904 -74.325592 7893349
122.44097 -44.377838 -73.913383 7893349
125.75522 -44.341148 -70.470314 9735558
126.16349 -44.366508 -69.907387 10261124
129.66359 -44.37133 -66.068398 9734529
140.8791 -44.298229 -53.17979 8813685
141.11989 -44.294701 -52.499828 9405822
141.70158 -44.206123 -51.63599 8418927
142.33415 -44.0769 -51.016289 6445394
142.62944 -44.074783 -50.16053 8353135
144.293 -44.050716 -49.382736 10261132
144.52409 -44.049866 -48.689671 7695204
144.86484 -44.048576 -47.647953 8813942
146.72025 -44.045856 -46.503624 10459023
146.99141 -44.044777 -45.622513 11774623
147.205 -44.04393 -44.916458 8682867
148.90778 -44.041794 -44.260746 11511452
149.11423 -44.040939 -43.545338 8222323
149.41772 -44.039658 -42.470673 10525329
151.35539 -43.850239 -41.25433 9539462
151.62305 -43.857231 -40.352726 9670278
151.91687 -43.808353 -39.522064 9604229
96.425682 -42.603863 -102.34212 9340027
97.120514 -42.773605 -101.66196 9076855
97.820137 -42.884022 -101.00415 10393228
98.57869 -42.899509 -100.33753 11051414
99.337379 -42.917015 -99.669884 12432552
100.09631 -42.936565 -99.001137 10853781
100.85554 -42.958107 -98.331192 8353135
101.57299 -43.023483 -97.678009 7037274
102.2739 -43.21114 -96.98452 7300447
102.92406 -43.373005 -96.346718 9142651
151.62123 -43.288734 -41.131084 9539462
151.92714 -43.047787 -40.497749 9670021
152.26778 -42.937897 -39.612488 9801093
152.64023 -42.728069 -38.746639 9406593
94.462357 -41.472065 -104.55562 7038302
95.057953 -41.647385 -103.95928 9603969
95.779655 -41.825317 -103.25207 9077625
96.540047 -41.834541 -102.58666 8353133
97.3004 -41.845711 -101.92039 8747891
98.060822 -41.858852 -101.2532 8551283
98.821304 -41.873981 -100.58502 8814710
99.582008 -41.891087 -99.91581 9143419
100.30182 -42.08128 -99.204781 11774626
100.89448 -42.26989 -98.605034 11182489
152.64362 -41.856339 -39.727859 7958376
152.95354 -41.867237 -38.796234 9011064
153.32327 -41.551208 -38.059216 7959409
41.034386 -40.742268 -165.10417 9142905
41.564095 -40.680515 -164.70819 9142905
42.266987 -40.5984 -164.17828 9471359
92.667763 -40.446678 -106.59757 9538947
93.217842 -40.581158 -106.04743 8946044
93.800438 -40.785698 -105.44039 9208703
94.489723 -40.78833 -104.83788 7367269
95.252174 -40.793388 -104.17223 6643540
96.014565 -40.800426 -103.50597 7959144
96.776909 -40.809399 -102.83897 7827046
97.539246 -40.820324 -102.17113 11248022
98.242332 -40.930206 -101.51055 10590864
98.983147 -41.190025 -100.75012 9011833
153.21147 -40.905563 -39.124802 8418670
153.55827 -40.887512 -38.116943 8748923
153.98772 -40.591511 -37.179371 9341059
42.791721 -40.536949 -163.77953 9010808
43.314102 -40.475666 -163.37955 11182743
44.007183 -40.394089 -162.84456 11182743
44.696465 -40.312775 -162.30754 10459277
47.682533 -39.847664 -157.57323 10131086
48.176434 -39.788498 -157.16939 10656402
48.99472 -39.690182 -156.494 11445146
49.807457 -39.592167 -155.81606 11181975
50.292206 -39.533508 -155.40793 11181975
91.305588 -39.77623 -108.1236 8156527
91.959503 -39.907326 -107.48346 9012604
92.662178 -39.937977 -106.84911 9933960
93.423065 -39.936184 -106.17903 9801095
94.183578 -39.936295 -105.50844 8551287
94.943695 -39.938267 -104.83729 8024941
95.703918 -39.942226 -104.16586 6972505
96.422729 -39.914074 -103.54868 7959144
96.934914 -40.125675 -103.00731 7695460
97.444016 -40.132534 -102.56151 8089963
153.52129 -40.30394 -38.889915 9010806
153.86234 -39.984879 -38.240673 11183004
154.23729 -39.726639 -37.42178 8288116
154.50084 -39.718025 -36.64962 8814202
50.61417 -39.49456 -155.1353 9011320
51.254913 -39.416714 -154.58858 9932679
52.051037 -39.319721 -153.90306 10854036
52.525894 -39.261715 -153.49055 10854036
55.626671 -38.787663 -148.49965 10853012
56.07687 -38.730671 -148.08321 10392461
56.822861 -38.636253 -147.38788 9931910
57.563713 -38.542343 -146.69118 9076857
88.685936 -38.45274 -111.07497 8814715
89.247902 -38.782921 -110.4194 10591124
89.906219 -38.909351 -109.77766 10130059
90.614914 -39.062145 -109.07874 9866114
91.337517 -39.097717 -108.4244 9668736
92.101158 -39.092258 -107.75372 7630442
92.864212 -39.088665 -107.08263 9473152
93.626808 -39.086899 -106.41109 10327692
94.388992 -39.086964 -105.73909 9208959
95.09082 -39.185879 -105.0723 10261132
95.786217 -39.347172 -104.38097 9011832
96.335915 -39.436039 -103.85319 7959144
154.16301 -39.177979 -38.265682 8813683
154.53505 -38.860565 -37.522594 7695203
154.8958 -38.835293 -36.481003 9340282
155.2652 -38.600582 -35.651814 9537918
58.298756 -38.449024 -145.99307 10392713
59.028767 -38.356266 -145.29366 10984337
59.752895 -38.264141 -144.59277 9603714
60.472076 -38.17252 -143.89064 9406339
61.185413 -38.081551 -143.18716 9932681
61.89386 -37.99107 -142.48244 8354675
62.596558 -37.901237 -141.77644 10130057
63.294312 -37.811897 -141.06934 10853780
63.986389 -37.723167 -140.36089 8945527
64.673576 -37.634941 -139.6514 9142393
65.355125 -37.547348 -138.94066 10786703
86.603546 -37.476566 -113.38428 9210491
87.163826 -37.548946 -112.85506 8354415
87.858849 -37.87405 -112.08468 6905944
88.545349 -37.946297 -111.4444 10064524
89.27536 -38.104065 -110.72427 8419958
90.04303 -38.093357 -110.05254 10656660
90.809967 -38.084454 -109.38067 10655629
91.57621 -38.077305 -108.70851 10984850
92.341835 -38.071976 -108.036 7366751
93.047325 -38.165829 -107.36849 8288621
93.746597 -38.321953 -106.67623 8946553
94.298958 -38.406712 -106.14814 8419702
155.12476 -37.914337 -36.848423 9406076
155.53996 -37.756424 -35.795956 9011831
155.91252 -37.472809 -35.012878 7564643
84.759422 -36.504978 -115.48106 8090987
85.323952 -36.574429 -114.94972 10525070
85.972725 -36.608543 -114.36114 12367525
86.474663 -36.897358 -113.77859 11249302
87.232201 -36.95311 -113.08363 8748661
87.966637 -37.108025 -112.36096 7695204
88.737999 -37.094063 -111.68763 8879992
89.508476 -37.081818 -111.01422 7038307
90.27813 -37.071316 -110.34069 8222579
91.005104 -37.105537 -109.68311 10327179
91.691467 -37.311718 -108.97798 10787215
92.246895 -37.392601 -108.44907 9142649
155.4427 -37.180149 -36.739571 10524555
155.79625 -36.877434 -36.034603 12169122
156.1599 -36.732647 -35.120308 10919827
156.42561 -36.725548 -34.339947 12895160
76.041595 -36.157139 -126.85307 8288621
76.515007 -36.0947 -126.27133 10064008
77.219612 -36.00172 -125.398 8222316
77.801544 -35.92477 -124.6695 9537918
78.37841 -35.848385 -123.94026 8090987
79.064415 -35.757416 -123.06425 9274749
79.743546 -35.667152 -122.18742 9537918
80.304367 -35.592468 -121.45597 8814452
80.638596 -35.547955 -121.01687 8090987
83.993073 -35.594555 -116.61381 6972766
84.75795 -35.812809 -115.98711 8617331
85.480904 -35.828796 -115.30536 8419952
86.244385 -35.802917 -114.60921 10459277
86.940895 -36.000629 -113.82761 10591121
87.657356 -36.051704 -113.1457 9340798
88.325188 -36.081322 -112.54251 9143163
88.947426 -36.167629 -111.95203 10064265
89.643723 -36.263729 -111.29151 8946043
90.306572 -36.390793 -110.64545 8090479
156.08568 -36.17902 -35.96954 15722462
156.46317 -35.812222 -35.266518 11972520
156.79054 -35.835205 -34.269073 12631475
157.14302 -35.467587 -33.641033 8092019
80.849983 -35.450886 -120.3978 9406590
81.370117 -35.365028 -119.62384 9406590
81.885063 -35.279659 -118.84951 6511954
82.567307 -35.267437 -118.31966 6643290
83.389725 -35.25671 -117.69184 7959149
84.207756 -35.24596 -117.05817 8485235
85.002197 -35.227657 -116.39385 10261900
85.759949 -35.196545 -115.68184 9142904
86.392067 -35.172607 -115.09142 9209211
87.255257 -35.451378 -113.95672 9933191
87.883202 -35.43018 -113.3675 8551282
156.73631 -35.045631 -35.32745 10261388
157.04657 -34.870148 -34.606205 8092019
157.47612 -34.753117 -33.464771 8815485
157.78911 -34.529812 -32.789959 8092019
157.37871 -34.171375 -34.414951 8092019
157.69804 -33.799362 -33.89027 8092019
158.0649 -33.760071 -32.846523 9604485
158.39851 -33.590244 -32.12344 9933193
158.03423 -33.033241 -33.763569 8749947
158.37773 -32.843304 -32.960304 9471870
158.75072 -32.770149 -32.080612 8485236
159.16197 -32.604805 -31.349791 9143677
158.75616 -31.830439 -32.98848 10261126
159.0385 -31.855412 -32.251396 9735041
159.52957 -31.840654 -31.222521 8814970
160.00899 -31.557121 -30.452398 10065035
160.41426 -31.399797 -29.731836 9144448
159.2851 -31.178444 -32.3008 9735041
159.77673 -30.813799 -31.601896 9866884
160.25305 -30.817278 -30.577967 11117465
160.67851 -30.781878 -29.700289 9802120
161.03696 -30.659002 -29.047106 10129545
161.62657 -30.326321 -28.351381 10129545
160.57799 -30.217369 -30.758459 10788501
161.06187 -30.109388 -29.929392 10459279
161.58795 -29.927076 -29.144228 10130058
162.11519 -29.744932 -28.354906 10853780
162.75911 -29.582712 -27.580431 8089962
163.44774 -29.34589 -26.848223 11510168
163.71733 -29.371031 -26.08568 10589324
162.97382 -29.302864 -28.178858 8813942
164.59218 -29.103333 -26.220438 10589324
164.86305 -29.128916 -25.45228 10261123
165.12849 -29.154158 -24.68191 10261123
166.98891 -29.005825 -23.111124 9735812
167.09389 -29.004976 -22.309008 5920074
169.90575 -29.000475 -20.185549 9208435
169.9738 -28.99984 -19.573427 10655625
132.95032 -44.386711 -62.410206 7564651
135.7357 -44.380253 -59.401031 6775130
136.13132 -44.416935 -58.798183 7039331
138.32715 -44.369888 -56.621731 9076600
138.81871 -44.419445 -55.853958 8945014
103.97891 -43.761242 -95.255829 8618099
104.52569 -43.740402 -94.784325 9077372
105.22042 -43.806332 -94.10434 8879737
105.95148 -43.830132 -93.398888 8485236
106.68124 -43.855331 -92.690727 9208700
107.42496 -43.851795 -92.048065 9077112
108.34449 -43.803844 -91.440056 10458252
109.05027 -43.880093 -90.792137 9735039
109.70402 -44.060242 -90.143105 9011573
111.86635 -44.115654 -87.739754 11904668
112.28248 -44.11478 -87.202065 9931906
112.90214 -44.113468 -86.392151 9931649
113.516 -44.112152 -85.577812 10326151
114.12391 -44.110847 -84.759033 8682868
114.7259 -44.109531 -83.935837 9932167
115.32198 -44.108223 -83.10836 9142130
115.92027 -44.11005 -82.282417 9602425
116.55728 -44.1287 -81.483047 9800322
117.19721 -44.150475 -80.684441 8090475
117.83481 -44.17342 -79.882881 9669504
118.47018 -44.197525 -79.078453 10525328
119.28112 -44.192158 -78.386932 9341054
119.96082 -44.174274 -77.809799 10854293
120.54826 -44.167667 -77.088562 9736324
121.30906 -44.103554 -76.433502 9736324
121.93246 -44.131657 -75.608841 7893349
122.55807 -44.162518 -74.783829 11312788
123.18137 -44.194592 -73.95565 8419444
123.80252 -44.227814 -73.124245 9604228
124.631 -44.193352 -72.490074 9604228
125.21392 -44.195984 -71.750099 9011837
125.8603 -44.175747 -71.122215 8617336
126.61398 -44.164543 -70.352295 10458761
127.22821 -44.203461 -69.502258 7827045
127.84025 -44.243614 -68.648911 7695716
128.64651 -44.184654 -68.091644 8484973
129.24109 -44.221909 -67.222206 8550766
129.89096 -44.208878 -66.574043 8484720
130.64156 -44.204319 -65.776924 11379095
131.2471 -44.250259 -64.903893 7168860
132.04279 -44.190166 -64.314758 5787720
132.54555 -44.230225 -63.580299 7103322
133.2453 -44.225704 -62.838306 7564651
133.94473 -44.222282 -62.092319 7564651
134.44423 -44.265102 -61.348 8353906
135.24391 -44.234058 -60.618938 9077369
135.89543 -44.203499 -60.051197 9406334
136.6454 -44.208302 -59.211269 7039331
137.24077 -44.264145 -58.300865 8288622
137.83423 -44.321331 -57.386467 8550770
138.85562 -44.15918 -57.029083 11378840
139.44926 -44.218487 -56.104313 7695205
139.94243 -44.268883 -55.330845 7037274
140.56848 -44.251198 -54.508556 7037274
141.00465 -44.195755 -53.805027 7037274
141.61552 -44.085304 -53.067314 9997959
141.85678 -44.081909 -52.384159 10590097
143.51793 -44.05352 -51.627567 7038298
143.81993 -44.052441 -50.765606 7958886
144.11717 -44.051369 -49.90197 10261132
145.98994 -44.048649 -48.786587 7168861
146.33134 -44.047356 -47.734344 9471872
146.55493 -44.046494 -47.031601 10459023
148.26715 -44.044376 -46.400375 11380380
148.48389 -44.043514 -45.688061 9274236
148.75038 -44.042442 -44.796398 10459022
150.60289 -43.858639 -43.502903 9932680
150.94823 -43.833832 -42.507023 10131341
151.18526 -43.844044 -41.792503 9539462
101.95221 -42.647476 -97.516357 6510930
102.50166 -42.752621 -96.991425 7037274
103.1961 -42.938499 -96.30439 8288110
103.89677 -43.064781 -95.638596 8419700
104.70164 -42.92498 -95.001099 9274238
105.50799 -42.786926 -94.361595 7235428
106.27193 -42.822617 -93.681229 8287857
107.03673 -42.860348 -92.999214 8287342
107.69788 -43.104107 -92.315231 9471872
108.35156 -43.279575 -91.668297 11181975
150.91348 -43.130905 -43.409172 11511452
151.27902 -42.889832 -42.599445 10526100
151.60141 -42.903736 -41.62746 11315614
151.9463 -42.535744 -41.023102 9736324
100.42515 -41.567909 -99.326996 9932423
101.16409 -41.83448 -98.565262 9340286
101.86578 -41.954281 -97.901398 7037275
102.62787 -41.979324 -97.227432 7037790
103.39046 -42.006371 -96.552116 9011837
104.15363 -42.035458 -95.875412 7827308
104.91749 -42.066559 -95.197212 9077116
105.72558 -41.927799 -94.556427 6840928
106.44741 -42.134781 -93.836151 7235426
151.54387 -42.133953 -42.673477 11906981
151.91301 -41.813553 -41.943016 12959669
152.2719 -41.782047 -40.914619 8025450
152.57652 -41.604725 -40.212894 7563619
40.09988 -40.964119 -168.21471 9734014
40.641369 -40.901211 -167.8138 9734014
41.359959 -40.817516 -167.2774 9734014
42.074524 -40.734032 -166.73891 9734527
98.509041 -40.493313 -101.47382 10985367
99.104546 -40.676819 -100.87395 10656658
99.826775 -40.864559 -100.16192 8025194
100.58972 -40.883183 -99.490082 8748405
101.35297 -40.903748 -98.817085 8484977
102.11662 -40.926262 -98.142899 8616561
102.88074 -40.950718 -97.467377 8090994
103.64542 -40.977146 -96.790573 9472643
104.36785 -41.177235 -96.072838 7169893
105.09023 -41.37952 -95.354118 9077116
152.30435 -40.885696 -41.837551 10459791
152.56776 -40.87204 -41.071892 7565155
152.88072 -40.810341 -40.214005 10129541
153.14883 -40.670021 -39.578449 7563619
45.210938 -40.251938 -161.90355 9735812
45.72303 -40.191254 -161.49837 10459279
46.402504 -40.110435 -160.95644 10459279
47.246193 -40.009827 -160.27632 10065035
48.084202 -39.909557 -159.59344 10197133
48.750061 -39.829605 -159.04512 10263180
49.41209 -39.74984 -158.49487 10263180
96.842934 -39.440361 -103.40408 8090987
97.266487 -39.581432 -102.96471 8090219
97.850998 -39.79533 -102.35827 9735044
98.542564 -39.806728 -101.75174 11577760
99.30703 -39.821075 -101.08048 11314588
100.07172 -39.837345 -100.40819 8682868
100.83664 -39.855503 -99.734802 7893350
101.60195 -39.875565 -99.060287 9800576
102.30723 -39.994465 -98.393761 9208696
103.00664 -40.176746 -97.703941 8880507
103.56002 -40.281624 -97.175804 8617336
152.80966 -40.138344 -41.18874 7565667
153.17766 -39.898766 -40.369896 9010806
153.53787 -39.869274 -39.334755 8616305
52.998371 -39.203804 -153.07697 10788244
53.625126 -39.126827 -152.52419 9998215
54.248215 -39.050056 -151.96977 12302253
55.021473 -38.954514 -151.27451 9735556
55.789295 -38.859222 -150.57701 8682867
56.550819 -38.764362 -149.87692 11183001
57.306828 -38.669907 -149.17471 8089963
58.056656 -38.575775 -148.47012 10261643
95.360741 -38.749378 -105.0459 8419702
96.013237 -38.888924 -104.40293 9867140
96.697678 -39.001003 -103.74509 9735810
97.477272 -38.93552 -103.08945 8090475
98.293373 -38.872272 -102.40057 8089963
99.022591 -38.74255 -101.82088 8813686
99.680077 -38.796776 -101.21826 11314588
100.29378 -38.907387 -100.63143 8419952
100.98322 -39.031551 -99.975769 7301214
101.51244 -39.182884 -99.447899 14602182
153.52956 -39.014591 -40.330795 9866113
153.85028 -38.724449 -39.708973 11905179
154.17976 -38.742275 -38.711235 10524041
154.55197 -38.424061 -37.968307 7037274
58.801025 -38.481998 -147.76346 11380380
59.39212 -38.40728 -147.19649 10064006
93.315453 -37.727661 -107.34448 8881014
93.971474 -37.862438 -106.70078 8420207
94.677757 -38.024212 -105.99954 8879995
95.399559 -38.068531 -105.34168 9668996
96.163116 -38.072128 -104.66669 9867140
96.926498 -38.077522 -103.991 10064774
97.68972 -38.084717 -103.31454 8090731
98.431824 -38.050705 -102.67671 8813686
99.174004 -38.018353 -102.03799 8484721
99.724854 -38.112617 -101.50658 9735302
154.21173 -37.887356 -39.587883 13023401
154.47681 -37.87566 -38.814728 10853006
154.79184 -37.815887 -37.948006 7695204
155.06197 -37.67638 -37.305229 10590092
66.031837 -37.460236 -138.22893 11444632
66.702911 -37.373741 -137.51602 8747636
67.369156 -37.287758 -136.80211 9471359
68.029915 -37.202385 -136.08708 10130058
68.816185 -37.100609 -135.22771 7827815
69.465935 -37.016392 -134.51057 8814710
70.110268 -36.932774 -133.79234 12564141
70.749886 -36.849644 -133.07333 10064782
71.384026 -36.767086 -132.35321 9209474
72.138527 -36.668701 -131.48801 7630435
72.761971 -36.587334 -130.76601 8748916
73.256996 -36.522598 -130.18782 8616563
91.382515 -36.719097 -109.53767 10787215
91.914291 -36.850723 -109.00501 9471357
92.62484 -37.007595 -108.30244 10392970
93.34993 -37.046852 -107.64408 9144186
94.116524 -37.04512 -106.96901 9868165
94.882774 -37.045101 -106.29343 8945529
95.648598 -37.046837 -105.6173 9076858
96.41423 -37.050331 -104.94056 9866629
97.119041 -37.152676 -104.26951 10130310
97.817337 -37.317585 -103.57391 9867395
98.369553 -37.409069 -103.04266 10985367
154.78749 -36.979317 -38.911697 12432037
155.09195 -36.898979 -38.099621 8024167
155.45799 -36.790672 -37.136703 11050642
73.62619 -36.474312 -129.75383 7564651
73.993469 -36.426178 -129.31949 7564651
74.601601 -36.34642 -128.59499 12960183
75.325005 -36.251427 -127.72453 11381150
75.803635 -36.188419 -127.14368 8288621
80.240852 -35.636829 -123.58984 9537918
80.693939 -35.5765 -122.99774 10458762
81.256424 -35.501472 -122.2571 10984849
89.30452 -35.724224 -111.85209 10064265
89.864639 -35.801052 -111.32101 9208958
90.572632 -35.949841 -110.6246 10063494
91.284416 -36.039265 -109.9537 10129543
92.054642 -36.032436 -109.27794 8418927
92.824203 -36.027283 -108.60183 8945270
93.593292 -36.023834 -107.92539 11511964
94.361908 -36.022083 -107.24856 9735554
95.069954 -36.119564 -106.577 8682867
95.77169 -36.279507 -105.88077 8353134
96.326241 -36.366955 -105.34937 7563618
155.39616 -36.039555 -38.173618 7168859
155.77124 -35.719505 -37.424755 10129544
156.1032 -35.739655 -36.417 12959157
81.81382 -35.427048 -121.51583 11379865
82.476524 -35.338387 -120.62567 10722190
82.945946 -35.231976 -119.77058 7367262
83.45591 -35.146473 -118.98476 7630181
84.079857 -35.05159 -118.06579 10853262
84.862984 -35.025513 -117.37524 9077371
85.612572 -34.988281 -116.64243 9866113
86.190269 -34.940269 -115.97175 9142904
86.766747 -34.959618 -115.15989 9800834
87.466583 -34.934521 -114.43408 9143675
88.244904 -34.826519 -113.83363 8354159
88.889153 -34.946201 -112.98312 8550768
89.579056 -34.960304 -112.24606 8880245
90.276344 -35.011856 -111.49008 8945526
90.962479 -35.036423 -110.81768 10721680
91.67968 -35.023895 -110.16201 11642525
92.329765 -35.055096 -109.5386 7958376
93.025673 -35.173592 -108.83811 8353390
93.711838 -35.25581 -108.19321 12959409
94.269096 -35.339565 -107.66117 11709087
156.13914 -34.812656 -37.363823 11971748
156.40385 -34.867531 -36.516159 10261388
156.71779 -34.749977 -35.718296 8221549
90.12925 -34.448944 -112.33289 7038298
90.599709 -34.423843 -111.82078 7761509
156.65639 -33.99432 -36.759197 9340286
157.02542 -33.885914 -35.787582 8747893
157.34401 -33.827717 -34.908424 8092019
157.37166 -32.826122 -35.964844 8748923
157.67978 -32.746754 -35.140743 10854293
158.0504 -32.639343 -34.163269 8947070
158.03426 -31.822643 -35.139278 10657171
158.32883 -31.80172 -34.289101 10262414
158.57303 -31.817875 -33.546188 9670019
158.61757 -30.964556 -34.417046 8947070
158.96138 -30.904654 -33.478062 8551542
159.37656 -30.589359 -32.717201 8879992
159.38646 -30.110964 -33.715656 9275262
159.78677 -29.985226 -32.879612 8682867
160.36714 -29.757555 -32.066071 8617075
160.77446 -29.779514 -31.128244 9669507
161.38805 -29.51288 -30.308855 9866885
162.08655 -29.226967 -30.637606 8089963
162.36043 -29.249815 -29.882792 9077114
162.92244 -29.21291 -28.975077 9406335
163.843 -29.035595 -28.324518 7761254
164.18437 -29.065924 -27.369608 8813171
164.38846 -29.084505 -26.795511 12431013
166.68167 -29.008169 -25.314173 9999751
166.82478 -29.007103 -24.313265 10919569
169.33983 -28.952751 -22.389818 10261129
169.73647 -28.744566 -21.736635 10392459
170.03084 -28.817112 -20.820314 9997955
170.68593 -28.689045 -19.859064 9405814
171.02708 -28.302418 -19.48189 9208435
170.01561 -28.181753 -21.647211 10261129
170.49947 -27.811728 -20.964983 10589836
170.90742 -27.859634 -20.09231 10260867
171.26305 -27.687683 -19.508158 9208435
171.22893 -26.869585 -20.254122 11181971
171.57825 -26.866636 -19.543192 10655625
171.80586 -26.105543 -19.707628 11774109
109.41142 -43.691494 -90.562363 9011573
109.96438 -43.813354 -90.027008 7761763
110.70726 -43.815147 -89.370453 8222318
111.3185 -43.845207 -88.731094 7235685
111.97044 -43.746826 -88.253326 8089962
112.79526 -43.73983 -87.597885 9406074
113.56908 -43.796452 -86.89904 9011318
114.33759 -43.852707 -86.192764 9602941
115.0417 -43.94014 -85.520729 9340286
115.73374 -44.109325 -84.667328 9603458
116.335 -44.108006 -83.832558 9405561
116.93024 -44.106686 -82.993431 8747889
117.51943 -44.105366 -82.150093 8747889
118.10252 -44.104053 -81.302452 10261383
118.67945 -44.102737 -80.450653 8616561
119.25022 -44.101421 -79.594749 7564643
119.62756 -44.100552 -79.021996 9341054
121.90332 -44.097404 -77.824173 6512978
122.3634 -44.096298 -77.091713 7893864
122.9098 -44.094986 -76.209236 8616048
123.44983 -44.09367 -75.322891 9668478
123.98351 -44.092358 -74.432671 9669762
124.42339 -44.091263 -73.687958 9341057
124.6852 -44.090607 -73.239891 9341057
126.5793 -44.088257 -72.524277 7761772
126.92226 -44.087376 -71.916183 9932937
127.34671 -44.086277 -71.153664 11379609
127.85014 -44.084965 -70.235405 7103834
128.34695 -44.083656 -69.313522 8879474
130.4827 -44.080582 -68.058624 8484973
130.80388 -44.0797 -67.431664 9076856
131.28035 -44.078388 -66.488495 11905438
131.75002 -44.07708 -65.542015 9274488
132.05957 -44.07621 -64.909248 6116940
133.87032 -44.073944 -64.208237 6116940
134.17285 -44.073071 -63.565014 8880249
134.62128 -44.071758 -62.597618 13024949
135.07559 -44.074612 -61.63279 7432290
136.9503 -44.067905 -60.707142 8616563
137.30713 -44.066814 -59.884548 7367776
137.7289 -44.06551 -58.894669 5921098
138.25966 -44.101044 -57.949669 11050388
139.82545 -44.062263 -57.421925 10063238
140.09526 -44.06139 -56.750175 8747636
140.51241 -44.065704 -55.747265 7037274
140.94196 -44.096481 -54.94276 7037274
142.45181 -44.057217 -54.54417 9405822
142.70778 -44.056347 -53.859818 8419183
143.08595 -44.055038 -52.83107 8879734
143.3342 -44.054169 -52.143909 8484973
145.04254 -44.052124 -51.58046 8484973
145.28423 -44.05125 -50.883595 9997700
145.64087 -44.04995 -49.836391 8418928
147.53831 -44.047199 -48.707588 10458252
147.82271 -44.046112 -47.821476 10458252
148.10213 -44.045029 -46.933739 10919316
149.63492 -43.983208 -46.2318 10459022
149.93854 -43.80027 -45.539375 10261644
150.27292 -43.771385 -44.580791 8748409
150.53954 -43.627251 -43.953953 7564651
107.93323 -42.645287 -92.31575 9734788
108.63141 -42.845684 -91.618904 12168868
109.33704 -42.986122 -90.942451 11445656
110.10601 -43.032272 -90.25309 7301469
110.86588 -42.979366 -89.615921 8814196
111.61177 -42.776173 -89.058037 7234653
112.25615 -42.819218 -88.478355 7826532
112.96687 -42.969322 -87.793167 8879475
113.67084 -43.184288 -87.084824 9208440
114.35722 -43.323551 -86.422409 9471355
150.25255 -42.932713 -45.594692 10459022
150.56499 -42.86496 -44.745243 8946300
150.92656 -42.749119 -43.804565 8617336
106.11172 -41.423389 -94.446251 7760997
106.57912 -41.618736 -93.952324 8353391
107.30219 -41.827667 -93.230072 7432032
108.07009 -41.866592 -92.544853 9471616
108.839 -41.907574 -91.857765 11445403
109.60905 -41.950581 -91.168861 12695466
110.38026 -41.995667 -90.478027 9208953
111.06586 -42.087704 -89.840645 9866882
111.65381 -41.933689 -89.398163 9405562
112.18461 -42.108925 -88.858231 7037274
150.86134 -42.015121 -44.832657 9735814
151.23059 -41.69202 -44.105099 9275521
151.55882 -41.703388 -43.118748 10393741
151.92824 -41.382252 -42.388287 14077894
40.746067 -40.76004 -169.13658 8287084
41.700306 -40.703373 -168.65993 9208180
42.607948 -40.671516 -166.33366 9931910
43.138905 -40.609268 -165.9272 9931910
43.66782 -40.547009 -165.5197 9010808
104.49637 -40.662064 -96.191383 7761773
105.21982 -40.864063 -95.471893 8748151
105.92226 -41.023819 -94.789589 7695463
106.81019 -40.85833 -94.091331 7760997
107.56777 -40.794312 -93.461082 8418927
108.33788 -40.832325 -92.774361 9471616
109.10901 -40.872356 -92.085846 10195594
109.8185 -41.011089 -91.406807 11182743
110.52156 -41.2141 -90.704597 9472124
111.07899 -41.334942 -90.16584 10787726
151.58725 -40.858566 -43.994953 9735814
151.88838 -40.805161 -43.162663 9144446
152.18941 -40.752758 -42.329514 11906981
40.483913 -40.227962 -169.83763 5919050
40.843586 -40.40691 -169.54547 6445394
44.019135 -40.505646 -165.24739 9010808
44.718407 -40.423103 -164.701 10459279
45.587551 -40.320141 -164.01558 11906724
46.278198 -40.23806 -163.46498 11906724
49.906101 -39.690166 -158.08107 10261132
50.397766 -39.630688 -157.6662 11642524
51.05006 -39.551586 -157.11162 11248280
102.57912 -39.558258 -98.352318 9208696
103.23553 -39.717106 -97.710419 9143421
103.94309 -39.905354 -97.010887 8222579
104.66792 -39.97488 -96.34948 7893100
105.43595 -40.004501 -95.668243 8616049
106.20475 -40.036064 -94.985527 8089962
106.95335 -40.025043 -94.339409 7695204
107.78926 -39.932625 -93.653748 9800581
108.47448 -40.052979 -93.004044 9142651
109.03139 -40.168427 -92.468033 8682867
151.84775 -40.228676 -43.938553 9735814
152.14558 -39.93198 -43.392742 10591122
152.45969 -39.866859 -42.53529 11906981
152.82344 -39.753616 -41.585365 8618099
51.859749 -39.452995 -156.41586 10525327
52.66386 -39.354733 -155.71773 9472899
53.302608 -39.276447 -155.15721 9472899
54.095459 -39.178925 -154.45427 9867912
54.882626 -39.081715 -153.74904 9670023
55.352074 -39.023548 -153.32465 10591124
100.65488 -38.472256 -100.5123 6511954
101.20955 -38.571365 -99.984657 7564386
101.89345 -38.804535 -99.285637 12563112
102.6188 -38.867954 -98.626404 9471868
103.38708 -38.891247 -97.947838 7959148
104.15588 -38.916367 -97.268028 7367266
104.92533 -38.943386 -96.586784 7762021
105.69548 -38.972256 -95.904083 8747377
106.42333 -39.044781 -95.238632 8484462
107.10788 -39.291512 -94.53299 8155754
107.66478 -39.403381 -93.99865 10261132
152.80305 -38.957085 -42.551376 11578268
153.15907 -38.740299 -41.741833 7893608
153.48357 -38.625893 -40.90897 7893096
59.833153 -38.351391 -146.77034 9209467
60.271893 -38.295597 -146.34343 10788500
60.853592 -38.221497 -145.77309 12433069
61.575504 -38.129169 -145.05821 9932680
62.291943 -38.037216 -144.34151 10392718
63.002239 -37.945644 -143.6227 9012350
63.707111 -37.854462 -142.90211 12695466
64.405907 -37.763641 -142.17952 9735297
65.099289 -37.673206 -141.45517 8682867
65.786613 -37.583145 -140.72899 10786703
66.332832 -37.511383 -140.14687 9142393
99.429832 -37.765678 -101.93494 8617080
100.1392 -37.777428 -101.30374 11116951
100.80969 -37.74712 -100.72724 8814453
101.40024 -37.85117 -100.15614 7696228
102.10515 -37.818333 -99.551773 9669247
102.87204 -37.838112 -98.870148 7893094
103.64077 -37.860226 -98.188599 7103322
104.36862 -37.92659 -97.525551 6709333
105.07996 -38.115707 -96.822334 7433056
105.73997 -38.278698 -96.175476 8616048
153.44339 -37.826263 -41.937023 7564643
153.79353 -37.802696 -40.92511 8682098
154.09633 -37.752388 -40.083771 11444629
66.604408 -37.475563 -139.85538 8682867
67.144463 -37.404236 -139.27142 9406078
67.815071 -37.315346 -138.54024 9931910
68.479591 -37.226871 -137.8073 8682100
69.138832 -37.138695 -137.07285 8879991
69.792099 -37.051014 -136.33678 9406078
70.568794 -36.946224 -135.45154 7037274
71.210037 -36.859329 -134.7123 7037790
71.845352 -36.772865 -133.97151 10064782
72.475456 -36.686756 -133.22945 8814716
73.099586 -36.601051 -132.48598 7037533
73.718628 -36.515747 -131.74124 10261644
97.391769 -36.715614 -104.24088 8946295
98.047058 -36.858452 -103.59386 11314839
98.752769 -37.029007 -102.88897 11182488
99.475449 -37.081726 -102.2262 7564651
100.22934 -36.9958 -101.60316 12103331
101.05032 -36.937225 -100.90768 8682867
101.83993 -36.738628 -100.30774 10392971
102.38474 -36.90831 -99.745117 9405563
103.03374 -37.015827 -99.12075 7300446
103.6878 -37.170788 -98.468933 7826789
153.75352 -37.221092 -41.70462 7564643
154.06369 -36.976482 -41.062294 8287341
154.40138 -36.814335 -40.244759 12234143
154.68556 -36.799187 -39.41885 12300193
74.331688 -36.430817 -130.99513 10787988
75.060341 -36.329433 -130.09827 8420215
75.661667 -36.245327 -129.34961 12960183
76.261223 -36.163597 -128.60646 9735812
76.979996 -36.068855 -127.7234 10064009
77.5737 -35.990501 -126.9868 8617075
78.162148 -35.912682 -126.2495 10129799
78.745979 -35.835369 -125.51151 10261383
79.3246 -35.758595 -124.77288 11445144
79.898697 -35.68235 -124.03368 11708315
95.34082 -35.680866 -106.55083 8353646
95.999153 -35.819092 -105.90337 6708309
96.70816 -35.984577 -105.19803 7958376
97.433189 -36.032112 -104.53568 8419953
98.200546 -36.038887 -103.8558 8683898
98.967873 -36.047329 -103.17515 9341315
99.73526 -36.057514 -102.4936 7564651
100.50269 -36.069393 -101.81116 9011581
101.20857 -36.179996 -101.13519 7959144
101.7822 -36.093006 -100.67162 9339515
154.77129 -35.764648 -40.340233 8812653
155.10349 -35.780659 -39.336449 11904668
155.47847 -35.459351 -38.588943 9076342
83.446648 -35.245232 -121.41775 7827813
83.995377 -35.171589 -120.66608 5920074
84.538948 -35.09845 -119.91399 10524558
85.14341 -34.994335 -118.95269 8353645
85.644051 -34.908962 -118.1547 9340280
86.131721 -34.821754 -117.3484 8550767
86.71067 -34.71743 -116.37979 8419695
87.382919 -34.653641 -115.54466 10459021
87.842003 -34.616894 -115.00507 9341054
93.175842 -34.671577 -109.014 8552305
93.940125 -34.795101 -108.22169 11183511
94.650398 -34.954899 -107.51236 13222069
95.378014 -34.99744 -106.84945 9209467
96.147881 -34.999008 -106.16975 7366239
96.917595 -35.002235 -105.48953 8879734
97.687103 -35.007107 -104.80864 10130569
98.456566 -35.013649 -104.12704 9078400
99.164688 -35.11919 -103.45149 8946814
99.866196 -35.287495 -102.75141 8090737
100.42127 -35.381363 -102.21649 9735302
155.36284 -34.810863 -39.669086 7891809
155.71544 -34.789486 -38.647221 7958375
155.95758 -34.802414 -37.91415 9668479
89.218193 -34.348511 -114.52033 9142390
89.718925 -34.278847 -113.75559 14076861
90.284668 -34.236004 -113.07775 10919313
90.960182 -34.185638 -112.26442 9274747
91.484047 -34.268074 -111.27174 9866116
92.202744 -34.23909 -110.52155 8813685
92.925735 -34.213852 -109.7788 6642516
93.623535 -34.163448 -109.11436 8288621
94.189095 -34.216053 -108.50805 9472638
94.899925 -34.173523 -107.86076 10459277
95.643715 -34.163162 -107.14734 9209467
96.391594 -34.156143 -106.43918 8616558
97.147812 -34.153923 -105.74044 11051414
97.818428 -34.238579 -105.07579 11183001
98.370529 -34.326977 -104.53572 7565675
155.67616 -34.202641 -39.430759 5919050
156.00038 -33.884148 -38.830776 9865601
156.32944 -33.796528 -37.954044 7168859
156.67139 -33.603256 -37.159142 7563619
156.32607 -33.063171 -38.797375 9537150
156.63759 -32.883278 -38.077759 8353393
157.03194 -32.820518 -36.978893 7762030
157.36522 -32.465382 -36.39373 9670024
156.90303 -32.309299 -37.942608 7827307
157.26167 -31.823462 -37.430515 9406596
157.65729 -31.760941 -36.327827 9143681
157.9702 -31.582098 -35.602524 9144448
157.62364 -31.037691 -37.249737 10788247
157.96765 -30.852772 -36.512539 8683130
158.30412 -30.766645 -35.62706 9801865
158.66536 -30.576048 -34.825809 9538949
158.77634 -29.950108 -35.914665 10064777
159.10289 -29.90481 -35.053314 9933193
159.66884 -29.646057 -34.20277 9603970
160.22388 -29.413015 -33.287849 8682867
161.05342 -29.145939 -33.455917 14077637
161.25906 -29.161278 -32.893406 9998727
161.60484 -29.188168 -31.955004 8287597
161.88048 -29.210184 -31.202902 8089963
163.34192 -29.015984 -30.462915 9537664
163.48189 -29.015123 -29.678324 8813942
166.34508 -29.01054 -27.512987 8420208
166.4706 -29.009678 -26.713892 8815222
167.10342 -28.881832 -25.991091 10263180
167.96989 -28.654238 -25.434351 9868166
168.41753 -28.63418 -24.53676 10196362
168.87111 -28.685909 -23.567759 9932934
169.23036 -28.656857 -22.858027 9998471
168.63805 -27.884394 -24.706209 11380380
169.08815 -27.863642 -23.804232 10130313
169.60902 -27.794638 -22.797602 9998213
170.0006 -27.668997 -22.101656 10261129
170.41899 -27.375849 -21.489649 10261129
169.30992 -27.11137 -23.973108 9670018
169.78764 -26.88015 -23.188692 9537918
170.33727 -26.68486 -22.227716 10261642
170.7455 -26.772474 -21.321672 10393229
171.10091 -26.598436 -20.739595 10590095
170.15036 -26.069023 -23.118509 10129798
170.54413 -25.940336 -22.420694 10064776
171.08723 -25.688423 -21.519815 10064776
171.50819 -25.786943 -20.578882 11510938
171.95467 -25.54952 -19.863741 11774365
170.8308 -25.288219 -22.374361 9867139
171.34895 -24.771833 -21.743624 9603709
171.80959 -24.747807 -20.823313 10524300
172.27644 -24.796415 -19.83021 10590095
172.03716 -23.98488 -20.990137 9734788
172.49574 -23.887613 -20.134607 10524558
172.84749 -23.564344 -19.68416 10326921
173.08684 -22.941809 -19.710833 10064003
115.46188 -43.583084 -85.319328 9340286
115.97346 -43.622177 -84.84198 9537408
116.74203 -43.682587 -84.124046 9603457
117.45026 -43.775673 -83.444267 9472383
118.08884 -43.757805 -82.881149 8286567
118.79984 -43.854492 -82.197037 8616561
119.64153 -43.79311 -81.462563 9340283
120.34523 -43.797348 -80.735283 10327434
120.94992 -43.928116 -79.947327 9998470
121.4854 -44.041313 -79.078255 9208698
121.62515 -44.098057 -78.262321 8617075
123.91452 -44.094864 -77.031288 8616048
124.36981 -44.093761 -76.286705 10260358
124.91035 -44.09243 -75.389816 9931908
125.4444 -44.09111 -74.489037 9012093
125.97195 -44.08979 -73.584381 8880508
126.32023 -44.088913 -72.979279 8485494
128.49098 -44.085857 -71.786385 7630183
128.99889 -44.084534 -70.859818 5920074
129.41722 -44.083435 -70.085014 6775126
129.83061 -44.082333 -69.307518 7104094
130.23955 -44.081234 -68.527687 8484973
132.30956 -44.078335 -67.40126 9406074
132.78574 -44.077011 -66.447235 9406074
133.25507 -44.075695 -65.489845 6511954
133.64098 -44.074593 -64.689545 6116940
135.69966 -44.07164 -63.48745 9603460
136.14745 -44.070316 -62.509132 9077116
136.51544 -44.069221 -61.691418 7826790
136.7339 -44.068565 -61.199726 7037274
138.56999 -44.066208 -60.428123 11379356
138.85437 -44.065323 -59.762341 7104860
139.27522 -44.064007 -58.761257 9801090
139.62057 -44.062912 -57.924805 13023407
141.52885 -44.06028 -56.929279 7498852
141.92924 -44.058964 -55.908985 9011318
142.25746 -44.057869 -55.056545 9011318
144.23309 -44.054966 -53.836575 7235421
144.54837 -44.053867 -52.970268 10194821
144.85887 -44.052773 -52.102119 9208182
146.65286 -44.050476 -51.355263 9734014
146.89337 -44.049599 -50.650688 8616048
147.18987 -44.048508 -49.768578 8089705
147.36519 -44.047852 -49.238354 8616048
148.9355 -43.821091 -48.490417 11576728
149.28299 -43.78735 -47.498165 10326922
149.58322 -43.729099 -46.674171 10459022
113.25426 -42.534924 -87.73745 9471611
113.91556 -42.723892 -87.077858 9142904
114.64716 -42.889259 -86.364677 9931649
115.33566 -42.997509 -85.706909 10063496
116.2483 -42.800972 -84.98954 8418153
117.00285 -42.815655 -84.311844 8615789
117.64793 -42.86726 -83.711739 9735812
118.29283 -42.919914 -83.10865 8616303
119.02233 -43.025826 -82.403549 8023912
119.75342 -43.133778 -81.695992 8748660
149.23979 -43.218678 -48.27293 10458252
149.53571 -42.919167 -47.735783 10195079
149.84891 -42.848198 -46.887825 9537664
150.15051 -42.759117 -46.094624 10459022
112.01942 -41.745655 -89.164268 8484461
112.58054 -41.738243 -88.679588 10063490
113.3134 -41.831783 -88.000374 10063490
114.09182 -41.886215 -87.299065 8814196
114.87182 -41.942795 -86.595413 9735297
115.65051 -42.000431 -85.887199 9471356
116.41834 -41.956432 -85.228355 8352360
117.12513 -41.934616 -84.613091 8812912
117.68468 -42.068241 -84.05645 9011318
118.37531 -42.213917 -83.378418 8616046
149.87132 -42.089359 -47.684132 9208435
150.17648 -41.904255 -46.989601 9077625
150.56146 -41.721619 -46.055698 10525071
150.93947 -41.444798 -45.249439 11379865
42.65115 -40.647789 -168.18187 9734782
43.599339 -40.593071 -167.70261 10787985
44.16547 -40.560547 -167.41374 9931910
110.10098 -40.575935 -91.355713 11183001
110.76118 -40.753872 -90.701927 10130053
111.34439 -40.928959 -90.116455 9932675
111.94659 -41.03635 -89.544716 9142904
112.77032 -40.912369 -88.883789 9668732
113.59628 -40.790016 -88.220154 11774365
114.37708 -40.843197 -87.517372 9669504
115.15943 -40.898422 -86.812279 9208954
115.89487 -41.130035 -86.068604 9077112
116.6255 -41.362148 -85.318802 8088931
150.37317 -41.337322 -47.050823 8682867
150.82115 -40.812851 -46.318855 9867141
151.1701 -40.782818 -45.318089 11051157
151.47165 -40.727463 -44.486671 9735814
40.550251 -39.617016 -170.11873 5919050
41.306644 -39.883106 -169.68718 6576980
42.176319 -40.020267 -169.22597 8418664
42.986698 -40.325176 -168.66235 10787985
46.964874 -40.156181 -162.91249 11709346
47.817421 -40.054249 -162.21915 9932935
48.664177 -39.95261 -161.52304 10261899
49.336956 -39.871632 -160.96407 9472895
50.172146 -39.770718 -160.2627 11710629
51.001568 -39.670132 -159.55887 13024949
51.4963 -39.609943 -159.13524 10459278
108.17971 -39.427299 -93.540092 10261132
108.71098 -39.592743 -93.004112 8288366
109.42265 -39.794865 -92.2948 9735555
110.15366 -39.877361 -91.6222 11314587
110.84227 -39.965614 -90.983856 11445656
111.49102 -39.908688 -90.445122 9735296
112.22501 -39.996403 -89.767563 8353902
113.00427 -40.044712 -89.068253 9406849
113.83222 -39.921219 -88.403435 12827052
114.56732 -40.147392 -87.662964 10458763
151.12779 -40.209251 -46.095718 9538176
151.46846 -39.88308 -45.456375 11906208
151.79341 -39.789341 -44.599342 10130826
152.1086 -39.598328 -43.881817 9538690
40.740017 -38.918034 -170.31685 6642516
41.465725 -39.004856 -169.99107 8221548
42.159145 -39.148548 -169.65581 7037274
55.819153 -38.965584 -152.89943 10591124
56.438644 -38.888496 -152.33113 11511968
57.054352 -38.811611 -151.76134 11906212
57.818394 -38.715878 -151.04692 10458768
58.576881 -38.620514 -150.33044 9603459
59.17923 -38.544479 -149.7556 9669507
106.81103 -38.669056 -95.069397 8616048
107.34246 -38.8311 -94.534821 7892583
108.03626 -38.971684 -93.868599 9997959
108.88547 -38.861835 -93.179169 9077369
109.64962 -38.799454 -92.542465 9472383
110.4263 -38.839458 -91.849136 11577759
111.07442 -38.87421 -91.26992 10722192
111.72355 -38.910408 -90.689224 9209210
112.45722 -39.12912 -89.953369 7696229
113.19151 -39.350136 -89.215874 7565675
151.76424 -39.077824 -45.494984 12105127
152.07109 -38.894474 -44.793354 10394509
152.49681 -38.763489 -43.679817 12434092
152.86757 -38.472004 -42.911423 14276034
40.870281 -38.151028 -170.56566 8484976
41.587475 -38.197124 -170.25923 9011320
59.628628 -38.487579 -149.32367 10261643
60.075565 -38.43087 -148.89079 10524556
60.815891 -38.336731 -148.16772 9866884
61.550629 -38.242847 -147.4427 9932934
62.134033 -38.168083 -146.86122 9932934
62.857765 -38.074932 -146.13246 9209213
63.57597 -37.982227 -145.40192 10262411
64.288048 -37.889889 -144.66942 9209211
104.754 -37.548943 -97.3592 6511954
105.31175 -37.654995 -96.826752 8880502
106.01674 -37.842056 -96.129974 9800064
106.72835 -37.969078 -95.454369 9471355
107.50224 -38.000942 -94.767036 8814709
108.27714 -38.034622 -94.078049 9800580
109.03189 -38.025436 -93.425758 10589840
109.87514 -37.934628 -92.732994 9472383
110.59263 -38.00576 -92.077225 11183001
111.25757 -38.181175 -91.420509 8682609
152.39442 -38.200573 -44.623508 9210491
152.71837 -37.877373 -44.029984 10328972
153.07152 -37.773693 -43.100143 12367783
153.37897 -37.592266 -42.393951 7564643
40.911846 -37.191353 -170.9257 8616562
102.71689 -36.457428 -99.670784 7037274
103.2702 -36.557083 -99.134636 8616304
103.96865 -36.735474 -98.432335 7432032
104.67422 -36.854286 -97.752815 6643540
105.44408 -36.878555 -97.064972 9538176
106.21611 -36.90514 -96.377121 10327177
106.99049 -36.934071 -95.689117 9998469
107.76654 -36.965073 -95.00029 9143674
108.54362 -36.997875 -94.309853 9406078
109.21605 -37.237759 -93.617821 10064008
109.88072 -37.4091 -92.96312 8814453
153.0341 -37.066833 -44.014439 9671042
153.40466 -36.822067 -43.193188 8485744
153.73228 -36.833965 -42.207691 7564643
154.08162 -36.461391 -41.594723 7564131
75.512161 -36.380173 -131.96841 6774614
76.121162 -36.294968 -131.20879 7169884
76.844803 -36.193264 -130.29585 8617331
77.441925 -36.108868 -129.53394 6511954
78.03315 -36.024971 -128.7708 7893352
78.619209 -35.941383 -128.00679 9011060
79.199455 -35.858261 -127.24168 9602425
79.888733 -35.75901 -126.3223 9537150
80.457298 -35.676743 -125.55517 8089963
81.020081 -35.594898 -124.78706 9537406
81.577782 -35.513443 -124.0182 9537918
101.48653 -35.743423 -101.10174 8616561
102.14269 -35.894154 -100.45013 10852238
102.85326 -35.772015 -99.882774 9800064
103.42959 -35.828819 -99.34713 9997955
104.17833 -35.804916 -98.698517 8616304
104.94844 -35.826363 -98.009125 8090473
105.71908 -35.849514 -97.318359 9668736
106.49043 -35.874382 -96.626259 10853009
107.21557 -36.072792 -95.890678 9209467
107.94295 -36.273907 -95.155937 9209467
153.67152 -36.059834 -43.267849 9340027
153.98032 -35.877491 -42.558746 11050385
154.34315 -35.891525 -41.466385 7694687
154.78665 -35.328709 -40.790253 10062720
81.909843 -35.464714 -123.55644 8092011
82.239708 -35.416237 -123.09443 8092011
82.785957 -35.336006 -122.32485 8157547
86.442055 -34.907822 -119.5518 5393730
86.741913 -34.856247 -119.06612 9340280
87.228989 -34.76762 -118.2456 8485487
87.806946 -34.661915 -117.26122 9866113
88.28286 -34.574356 -116.44106 8616820
88.659576 -34.504654 -115.78513 8090216
99.44043 -34.681225 -103.42068 9538950
100.09882 -34.827137 -102.76943 10985110
100.80799 -35.001003 -102.05988 9274750
101.53476 -35.056458 -101.39217 9011064
102.30478 -35.071339 -100.70605 9339515
103.06408 -34.989124 -100.07639 8879221
103.76254 -34.931458 -99.488564 9011061
104.42487 -34.874092 -98.932327 7893095
105.11663 -35.001472 -98.260658 8419695
105.77487 -35.159065 -97.603912 8089963
154.3611 -35.001659 -42.424343 9866113
154.64693 -34.983467 -41.597008 9141877
155.02629 -34.71788 -40.773434 9536376
155.29845 -34.574329 -40.128902 7562586
88.939583 -34.452686 -115.29353 8090216
91.340576 -34.153049 -113.83771 10919313
91.64579 -34.014866 -112.83222 9340795
92.040199 -33.912647 -111.94608 8813685
92.710381 -33.86478 -111.12841 8089963
93.536697 -33.757858 -110.36459 7564130
94.251343 -33.660606 -109.73792 7630435
94.92746 -33.621853 -108.93578 8090986
95.591545 -33.561905 -108.227 11445657
95.891167 -33.6922 -107.42419 10524813
96.627304 -33.680466 -106.69895 8813936
97.370743 -33.673191 -105.98267 11051414
98.098068 -33.79377 -105.14922 9537659
98.77758 -33.951591 -104.40455 8552312
99.492996 -33.99757 -103.72349 8289140
100.25707 -34.004608 -103.03078 10458506
101.02844 -34.015636 -102.34452 9274491
101.79996 -34.028339 -101.65739 8616820
102.57185 -34.042675 -100.96926 9010807
103.28181 -34.156029 -100.28825 8221549
103.88516 -34.301273 -99.68586 9011062
104.28422 -34.426163 -99.273537 8090987
154.95226 -34.041779 -41.761299 9799806
155.32567 -33.79763 -40.930973 10325892
155.65544 -33.811935 -39.93618 7299671
155.94716 -33.435562 -39.498722 5919050
96.450531 -33.424 -107.53117 10130311
97.024544 -33.400482 -106.87959 8945523
97.596458 -33.377956 -106.22778 9866624
98.285912 -33.353779 -105.45089 9274229
99.148018 -33.275101 -104.73247 8749691
99.874565 -33.194683 -104.12065 10129545
100.52341 -33.216335 -103.40318 9142649
101.24258 -33.342129 -102.56153 9406077
101.98528 -33.344696 -101.84271 8485235
102.49518 -33.352043 -101.37801 8089963
155.6633 -32.838501 -41.019264 9143422
155.90698 -32.848682 -40.284737 8090734
156.2616 -32.825577 -39.258858 9537150
156.24141 -32.017365 -40.237167 11050645
156.58 -31.950859 -39.308285 12234658
156.92223 -31.787552 -38.478455 9997700
156.89163 -30.93721 -39.535679 10589836
157.25571 -30.809801 -38.675934 9142649
157.61858 -30.649977 -37.847336 10590611
157.97194 -30.410698 -37.197765 10788247
157.76054 -30.026747 -38.748184 7565675
158.13499 -29.893528 -37.955833 9867141
158.55981 -29.817856 -36.999779 11643035
159.04999 -29.536205 -36.442947 11116949
159.55988 -29.382706 -35.553013 10393743
160.39003 -29.116673 -35.733665 8486262
160.61224 -29.126026 -34.97538 9407106
160.88863 -29.138271 -34.02599 12695984
162.93753 -29.018373 -32.617172 11380897
163.08757 -29.017506 -31.834383 10590864
163.23456 -29.016634 -31.050951 11380380
165.51352 -28.938761 -29.831118 9012600
