# .PCD v0.7 - Point Cloud Data file format
VERSION 0.7
FIELDS x y z rgb
SIZE 4 4 4 4
TYPE F F F U
COUNT 1 1 1 1
WIDTH 1180
HEIGHT 1
VIEWPOINT 0 0 0 1 0 0 0
POINTS 1180
DATA ascii
-132.41896 -69.883209 -52.440071 8552055
-132.1823 -69.926102 -53.269062 10919829
-131.94455 -69.971321 -54.098812 8025712
-131.65793 -70.028389 -55.095539 7235424
-131.39748 -70.039711 -56.058575 7300702
-131.14267 -69.966644 -57.119965 7563873
-130.85135 -70.033127 -58.121029 8747632
-130.49608 -70.288483 -59.095303 9142902
-130.17796 -70.348831 -60.087952 9800831
-129.76628 -70.203224 -61.115494 8485488
-129.38051 -70.202858 -61.926529 8419951
-129.1232 -69.934685 -62.694492 7235422
-128.67947 -69.98584 -63.583786 8880246
-128.23126 -69.993675 -64.519081 8813935
-127.78202 -70.004608 -65.454063 9274228
-127.33159 -70.018593 -66.388863 9668988
-126.88001 -70.035744 -67.323532 10787987
-126.4613 -70.008568 -68.227455 9142907
-126.0757 -69.854378 -69.170174 8484721
-125.63783 -69.733635 -70.194595 9011323
-158.54288 -68.384819 21.778732 10260870
-158.65773 -68.918159 21.146137 8419182
-147.47346 -69.353424 -9.945653 5393738
-147.21831 -69.26403 -10.820523 6841439
-146.90352 -69.15583 -11.866735 8353651
-146.63573 -69.065613 -12.735574 9801351
-146.36339 -68.975822 -13.601502 9078656
-146.03123 -68.868591 -14.637141 8288110
-145.69315 -68.762054 -15.668847 9275005
-145.34904 -68.656082 -16.696548 6445909
-145.05798 -68.568207 -17.549967 7039331
-144.76253 -68.480812 -18.400412 8815482
-144.52364 -68.411148 -19.078985 9736326
-134.84218 -68.832253 -44.678837 11248019
-134.62526 -68.872231 -45.585743 10195079
-134.34953 -68.901649 -46.577168 7563619
-134.0726 -68.934113 -47.56913 10590095
-133.79457 -68.96981 -48.561703 8419438
-133.5155 -69.008698 -49.555027 7564387
-133.2352 -69.050751 -50.549152 8419951
-133.00291 -68.988197 -51.510773 9998728
-132.73334 -68.95948 -52.564991 11379866
-132.49629 -69.001915 -53.395985 9933192
-132.26477 -69.079941 -54.156025 7499113
-131.90857 -69.288071 -55.200718 7235683
-131.66832 -69.337555 -56.033859 7761509
-128.92232 -69.24157 -63.704021 10130057
-128.49174 -69.101219 -64.728004 7893349
-128.08786 -68.995224 -65.666725 9603194
-127.69249 -68.90239 -66.577316 9011574
-127.24013 -68.919495 -67.514862 9735299
-126.78652 -68.939667 -68.452377 9011321
-126.33575 -69.008362 -69.342613 8353649
-125.95175 -68.984642 -70.171188 8683382
-125.56654 -68.963135 -71.000191 9471617
-125.16802 -68.931885 -71.865562 9537410
-124.77943 -68.791992 -72.802528 9078397
-124.38599 -68.732773 -73.680977 8814200
-158.68776 -67.757339 21.992592 11050385
-158.97784 -67.918602 21.317684 8616304
-144.34248 -68.3591 -19.586563 9867399
-144.0374 -68.272697 -20.430279 8879734
-143.72858 -68.186691 -21.271336 7630696
-143.41556 -68.101143 -22.109344 10196620
-143.03477 -67.999046 -23.111248 9472383
-142.64844 -67.89753 -24.109043 8682867
-142.2565 -67.796654 -25.102692 8353646
-141.85902 -67.696388 -26.09214 8222060
-141.52368 -67.613281 -26.913624 7037274
-141.18568 -67.531326 -27.732248 9077113
-140.8633 -67.458862 -28.551895 9603202
-135.44344 -67.629013 -42.704556 6840920
-135.245 -67.948303 -43.673397 5919817
-135.15428 -67.979187 -44.628071 7827556
-134.94116 -67.951469 -45.693211 8090216
-134.6653 -67.980736 -46.687115 7629411
-134.45168 -67.829277 -47.704163 6314320
-134.15073 -67.968124 -48.639156 5591109
-133.83101 -68.08728 -49.672569 6116941
-133.54222 -68.217461 -50.573994 8748404
-133.20525 -68.357925 -51.642056 10919574
-133.01654 -68.38932 -52.307102 9011321
-127.78224 -68.164444 -67.016083 9208955
-127.48 -68.176216 -67.642372 9340541
-127.1038 -68.046249 -68.5448 9340286
-126.76318 -67.98996 -69.309601 7762283
-126.38437 -67.864777 -70.213356 7301734
-125.92624 -67.892754 -71.153877 7828075
-125.46675 -67.923775 -72.094582 8156784
-125.00587 -67.957771 -73.035591 8552566
-124.54362 -67.994843 -73.977066 8617335
-124.10495 -67.981812 -74.883247 7762029
-123.70243 -67.640343 -75.711021 9735555
-158.96677 -66.851242 22.169357 10327437
-159.17757 -67.232193 21.47382 11511711
-140.6732 -67.418045 -29.043474 9011064
-140.38329 -67.347755 -29.690096 6510930
-139.93907 -67.240204 -30.655487 6839895
-139.91301 -67.119965 -31.712154 8090474
-139.87909 -66.999817 -32.767998 7169117
-138.95993 -66.656914 -33.439415 5787975
-136.3548 -66.730789 -40.209953 8418928
-136.24631 -66.749908 -41.115757 7826791
-136.09818 -66.812309 -42.056561 7169635
-135.90295 -66.952492 -42.862164 8945788
-135.76282 -67.008888 -43.75032 7432801
-135.49251 -67.201363 -44.791561 5788488
-135.22859 -67.265053 -45.718159 7498336
-134.85527 -67.429092 -46.753258 7892838
-126.88433 -67.472275 -69.495094 7367527
-126.46916 -67.130753 -70.659584 7762283
-126.15424 -67.059341 -71.383095 8288878
-125.7617 -66.994743 -72.264214 7368037
-125.2999 -67.028404 -73.20755 7170917
-124.89999 -66.924103 -74.138008 8947067
-124.50356 -66.909645 -74.970528 8814454
-124.02562 -66.854294 -75.754929 9735555
-123.57255 -66.802124 -76.411034 9538176
-159.0266 -65.703873 22.94894 10195595
-159.21153 -66.015533 22.35627 9011321
-138.57625 -66.283218 -35.474361 6248781
-137.87094 -66.050552 -36.181767 5393218
-137.80618 -65.98378 -37.302677 7234910
-137.41592 -66.042503 -38.238419 6379857
-137.18193 -66.112595 -39.199059 6840919
-136.89444 -66.22821 -40.137989 7958888
-136.76871 -66.194328 -41.22797 7958635
-136.55798 -66.238396 -42.243233 7038307
-125.47623 -66.471191 -73.310646 7368295
-125.20699 -66.129868 -74.167618 7302497
-124.83492 -66.016075 -75.047569 8485742
-124.32701 -65.973129 -75.88784 10196106
-123.66292 -66.019936 -76.77301 9406590
-123.1547 -65.978226 -77.49855 8090479
-122.75612 -65.710365 -78.213875 9734531
-159.05843 -64.53273 23.80051 7564645
-159.32961 -64.828651 23.056835 10853781
-124.40411 -65.285194 -76.20945 10130313
-124.00552 -65.01403 -76.926781 8617843
-123.39332 -64.985947 -77.787018 8551538
-122.82056 -64.915443 -78.619362 9405823
-122.38376 -64.571434 -79.434654 8616307
-159.42191 -63.749176 23.722855 6906459
-159.63251 -63.953743 23.1651 8024685
-124.03194 -64.262596 -77.357559 8617843
-123.70493 -63.979874 -77.983543 8880758
-123.06628 -64.034416 -78.828873 8550769
-122.45177 -64.012497 -79.688484 9668994
-122.0984 -63.81424 -80.29818 8089963
-159.47168 -62.443161 24.646049 6643282
-159.66635 -62.878708 23.938377 6577492
-123.64752 -63.49498 -78.364113 8091755
-123.39706 -63.297703 -78.83149 8880503
-122.95959 -63.103523 -79.598152 10260871
-122.33432 -63.079212 -80.453255 10261127
-121.81598 -62.936878 -81.237602 8813938
-159.66673 -61.763039 24.806652 6643282
-159.96295 -61.912571 24.129593 7893090
-123.103 -62.418041 -80.111824 8089963
-122.71228 -62.264908 -80.785973 10326919
-122.17664 -62.080173 -81.672295 10326919
-121.63274 -61.973076 -82.478996 10129796
-121.09478 -61.793629 -83.364876 8616815
-120.69594 -61.64555 -84.035851 6511954
-159.98099 -60.409191 25.710224 8024935
-160.05513 -60.89542 24.865868 7300955
-122.17683 -61.359749 -82.471992 11510937
-121.63706 -61.175968 -83.392586 7367006
-121.11226 -61.002995 -84.324745 6643540
-120.58581 -60.869728 -85.112923 7235421
-120.07925 -60.624622 -85.988029 8353647
-160.50673 -59.341972 27.583824 8287336
-160.59909 -59.44252 26.80304 8156007
-160.32077 -59.863552 25.962601 8682608
-160.50604 -60.115639 25.199684 7038298
-120.93235 -60.418503 -85.719597 6511954
-120.41749 -60.31332 -86.448227 7432800
-120.06433 -60.131561 -87.220329 10261132
-119.65827 -59.925667 -88.103783 10195335
-119.1157 -59.761105 -89.03746 8484720
-118.56365 -59.612526 -92.688492 5919050
-163.99835 -58.60149 36.199574 10393227
-163.42052 -59.032116 35.246162 11182742
-163.58984 -59.033657 34.458046 11182742
-162.50735 -59.034996 33.206161 10260617
-162.66658 -59.036526 32.422352 11774108
-162.8226 -59.038059 31.63784 12432037
-161.73692 -59.039341 30.41431 8485235
-161.91866 -59.041237 29.439152 7038298
-160.93698 -59.091877 28.457901 7366237
-161.18729 -59.134998 27.701397 8287336
-118.85257 -59.472195 -89.95977 8089963
-118.49418 -59.455715 -90.363281 8089963
-117.91782 -59.400913 -92.643837 5919050
-118.08794 -59.394466 -94.1604 6643029
-117.39512 -59.274826 -94.536774 6906462
-117.29294 -59.138535 -95.85627 8287849
-116.52707 -59.044128 -96.40654 6643539
-116.62971 -58.958862 -97.676155 8222060
-115.85385 -58.864655 -98.219299 11511968
-115.94273 -58.777847 -99.496407 10591124
-115.1562 -58.68351 -100.03175 9736070
-115.23112 -58.595165 -101.31625 8420468
-163.99025 -57.64716 36.957203 10129285
-164.30226 -57.778072 36.265545 9209467
-114.59357 -58.519497 -101.73865 8090987
-114.33338 -58.391876 -103.23937 7630441
-114.38762 -58.300823 -104.54159 10064268
-113.73399 -58.224754 -104.95368 7958892
-113.61037 -58.113239 -106.36543 7564651
-112.94833 -58.037113 -106.77076 7564651
-112.99049 -57.950626 -108.10177 6446422
-112.33855 -57.883678 -108.51896 7695974
-112.21712 -57.786175 -109.97518 5920082
-111.53186 -57.706352 -110.36153 5920082
-111.53214 -57.609436 -111.69398 11905951
-164.19714 -56.836372 37.196785 9998468
-164.51392 -56.937645 36.519184 9077369
-111.09373 -57.509537 -112.60145 9274238
-110.64768 -57.409359 -113.50446 9077116
-110.62742 -57.30957 -114.85445 8353651
-109.91607 -57.227882 -115.22127 7564643
-109.70268 -57.106091 -116.6688 11314072
-109.16334 -57.04483 -116.9386 13156018
-108.93451 -56.921429 -118.39153 7565675
-108.32877 -56.755512 -120.02799 8813936
-108.28261 -56.66032 -121.43378 9274231
-107.56702 -56.592144 -121.80671 10063747
-164.37802 -55.524975 37.875122 10064774
-164.50406 -55.984901 37.278938 10064774
-107.37228 -56.502365 -123.36544 8880246
-106.8289 -56.450954 -123.63985 9735297
-106.80145 -56.37682 -125.11697 8090987
-106.25168 -56.325195 -125.38702 8090987
-106.02686 -56.23243 -126.96384 7038298
-105.2851 -56.163334 -127.31654 6511954
-105.41706 -56.103603 -128.72749 8879218
-104.66673 -56.034264 -129.07401 10851980
-104.59898 -55.955757 -130.58307 8484461
-104.14132 -55.840908 -132.27495 8946296
-103.85744 -55.739285 -133.88695 9143675
-103.27077 -55.684029 -134.12767 8945781
-103.16485 -55.597786 -135.66568 9208694
-164.58382 -54.714951 38.116341 11577755
-164.90239 -54.813171 37.437393 8814708
-102.57198 -55.542263 -135.90135 5920074
-102.45308 -55.454479 -137.45065 5920074
-101.85387 -55.398792 -137.68114 5919050
-101.72208 -55.309502 -139.24161 7037786
-100.97148 -55.162788 -141.039 7762027
-100.40741 -55.033039 -142.77097 9538438
-164.63091 -53.675198 38.837242 10064774
-164.85591 -53.974239 38.178295 10722704
-164.91307 -52.786884 38.992512 7958888
-165.13617 -53.103535 38.326046 9209467
-164.9794 -51.549046 39.756847 7497567
-165.23872 -51.855545 39.104172 8353646
-165.28125 -50.814739 39.78643 7694946
-165.51819 -50.984737 39.253483 8090474
-165.41086 -49.87328 40.189995 6840670
-165.4964 -48.792141 40.722511 6314581
-165.89287 -48.866283 40.185001 6314581
-165.71745 -47.861698 40.987305 5064509
-165.76321 -46.649788 41.633438 7169630
-165.99385 -46.909374 41.19593 5393217
-166.08022 -45.792709 41.839645 7761253
-166.37784 -44.431068 43.49511 8090218
-166.30238 -44.903343 42.663048 8419183
-166.43477 -45.259212 42.014034 8090218
-167.62663 -44.015621 46.424698 7761772
-167.79449 -44.016846 45.818512 7038307
-166.78406 -44.138973 44.462116 6510930
-167.08665 -44.177395 43.896507 8090218
-158.27878 -71.362 18.063881 9538434
-158.37279 -71.375938 17.494598 9340801
-158.9431 -70.752174 18.91666 6972766
-158.89165 -71.163368 18.134518 8223088
-158.3373 -71.332901 16.91132 10261132
-157.94875 -71.277534 16.035122 9012093
-157.23814 -71.241432 15.259418 7565675
-157.16209 -71.168137 14.296058 8287597
-157.06419 -71.080559 13.14194 12563882
-156.65971 -71.022377 12.219752 10919316
-155.95341 -70.993774 11.533317 8550771
-155.84537 -70.910057 10.392051 8485235
-155.74985 -70.840683 9.4426718 8485235
-155.34378 -70.790359 8.6031904 9406079
-154.60873 -70.745621 7.6886702 10326924
-154.50067 -70.677406 6.7495985 9735043
-154.38724 -70.609596 5.8122396 7498594
-154.00943 -70.535988 4.6819258 8222059
-153.20583 -70.505028 3.9166288 10787727
-153.07947 -70.438438 2.9898443 9997955
-153.0013 -70.39856 2.4346533 8616560
-159.00835 -69.81472 19.784485 6972766
-159.35866 -69.764771 19.160027 5393738
-152.92117 -70.358894 1.8800535 9734270
-152.78369 -70.292961 0.95712572 9339769
-152.17995 -70.243073 0.034827292 8090474
-151.57272 -70.193932 -0.88005155 9472640
-151.42276 -70.129196 -1.7923021 8616819
-151.23531 -70.049942 -2.7021151 7037274
-150.96599 -69.937523 -3.7902994 7958888
-150.73674 -69.844307 -4.6943331 7761253
-150.50273 -69.751495 -5.5956163 7300702
-149.98831 -69.647697 -6.6641474 8813683
-149.45636 -69.576859 -7.4362459 11642522
-148.86794 -69.504532 -8.2356844 11181972
-148.66911 -69.431984 -8.9442492 8090986
-130.98988 -69.488014 -58.371609 10851980
-130.68314 -69.73159 -59.180172 10458505
-130.36325 -69.79081 -60.173626 9998212
-129.99849 -69.700958 -61.05302 9275003
-129.62065 -69.607178 -61.92664 11182998
-159.05891 -68.541718 20.679455 9209467
-159.3259 -68.849815 19.934055 7038559
-148.51823 -69.377708 -9.4746447 6446682
-148.31439 -69.305634 -10.180135 5722703
-148.00201 -69.197151 -11.23523 5920082
-147.73473 -69.10611 -12.111417 10984340
-147.46301 -69.015495 -12.984635 10984340
-147.13148 -68.907288 -14.029027 8879991
-146.79399 -68.799728 -15.069432 7827303
-146.50824 -68.710518 -15.933436 8090475
-146.21812 -68.621803 -16.794462 8683127
-145.8647 -68.515854 -17.824087 7565675
-145.56583 -68.428055 -18.679098 8354932
-132.39104 -68.589348 -54.375515 7630187
-132.09634 -68.73336 -55.279514 8879995
-131.76709 -68.874931 -56.317104 6642773
-131.45497 -69.040375 -57.256321 8221290
-131.21281 -68.997055 -58.228001 9931135
-130.93224 -68.989632 -59.293224 9997442
-130.67169 -68.86158 -60.316353 10459276
-130.31137 -68.86425 -61.10445 10459276
-129.93935 -68.863411 -61.887074 11906720
-129.492 -68.865082 -62.825798 10459789
-129.10431 -68.683937 -63.794117 8288109
-128.72243 -68.597961 -64.669601 9735555
-128.33966 -68.51458 -65.545143 11840673
-159.40326 -67.748161 20.644875 6117201
-159.55328 -68.093819 20.091839 5393738
-145.38454 -68.375557 -19.190697 9736326
-145.20169 -68.323219 -19.701216 11905701
-144.89369 -68.236313 -20.549795 7103835
-144.51892 -68.132637 -21.564342 7695716
-144.13852 -68.029594 -22.574802 10525071
-143.75232 -67.927139 -23.58107 9472383
-143.4263 -67.842209 -24.416527 8682867
-143.09618 -67.757774 -25.24889 8880503
-142.69505 -67.656952 -26.243938 7695973
-142.30417 -67.564194 -27.23773 7234909
-141.92816 -67.481758 -28.231501 8155755
-141.67426 -67.427002 -28.891979 9011064
-134.25328 -67.502739 -48.91193 6249039
-134.0201 -67.534973 -49.742992 5920074
-133.66994 -67.726517 -50.788322 9866886
-133.39383 -67.804985 -51.715401 9932679
-133.04735 -68.036934 -52.689625 9076857
-132.84824 -68.022591 -53.458523 7367526
-132.63408 -67.938583 -54.382389 7630187
-132.34654 -67.994331 -55.384548 9932424
-132.1199 -67.868385 -56.414589 7761511
-131.8293 -67.930199 -57.419792 9536635
-131.53711 -67.995155 -58.426357 9207927
-131.24338 -68.063187 -59.434444 9142905
-131.04927 -67.931618 -60.299599 9603457
-130.69193 -67.935951 -61.091286 9669761
-130.24452 -67.934624 -62.032722 10130568
-129.79614 -67.936272 -62.973644 10327946
-129.3468 -67.940948 -63.914127 7235421
-128.89656 -67.948761 -64.854401 11577503
-128.44548 -67.959694 -65.79451 10787987
-128.03549 -67.935432 -66.678024 8946039
-127.59984 -67.804886 -67.706039 9011576
-159.40891 -66.630074 21.504276 10524560
-159.62872 -66.918983 20.863148 8024938
-141.53636 -67.394974 -29.219549 6510930
-141.24034 -67.322617 -29.869244 6510930
-141.10622 -67.196831 -30.979725 8156267
-140.88298 -67.098045 -31.857431 9012089
-140.73215 -66.972618 -32.965641 8090217
-140.26343 -66.865555 -33.92804 8089960
-139.86896 -66.776718 -34.726498 7169368
-139.3268 -66.579285 -35.128498 5393730
-135.96313 -66.68232 -44.221626 5393730
-135.83942 -66.727013 -44.906006 7169371
-135.46695 -66.826454 -45.962223 6709077
-135.11813 -66.913765 -46.844372 12497319
-134.84036 -66.861717 -47.894688 7827814
-134.61061 -66.789986 -48.858719 6446162
-134.30406 -66.814972 -49.848576 7893607
-134.00644 -66.848 -50.84267 11446174
-133.7097 -66.885117 -51.838196 10129802
-133.47122 -66.923096 -52.672192 7761255
-133.23347 -66.964233 -53.50761 7301477
-132.94698 -67.016312 -54.511044 7564393
-132.65895 -67.071449 -55.515629 8945530
-132.43188 -66.945023 -56.548168 8090216
-132.1479 -67.038925 -57.483131 9010804
-131.78606 -67.255226 -58.537186 9931392
-131.54115 -67.311188 -59.378803 7959401
-130.87552 -67.379158 -61.177311 8156780
-130.44633 -67.229424 -62.206184 9012088
-130.04393 -67.114746 -63.149441 11512219
-129.65004 -67.013458 -64.064278 8419695
-129.19907 -67.021324 -65.006844 11445917
-128.74696 -67.032143 -65.949181 9801348
-128.29376 -67.045929 -66.891273 9537664
-127.86565 -67.11396 -67.734489 8814453
-127.53183 -67.030037 -68.50856 9274493
-127.13527 -66.990166 -69.377129 7630185
-126.72363 -66.897522 -70.322266 7301478
-126.35799 -66.773575 -71.197449 9210491
-159.63057 -65.80233 21.728874 9011321
-159.92365 -65.962135 21.049911 7629924
-138.62177 -66.063408 -37.091358 6116173
-138.47433 -65.781624 -38.845058 6511954
-137.91241 -65.605453 -39.406342 6511954
-137.48065 -65.718033 -40.432343 8748916
-137.2538 -65.784477 -41.373486 7827306
-137.04259 -65.828499 -42.392422 7169893
-136.71886 -65.976395 -43.33202 9143166
-136.47919 -66.098328 -44.129749 6840922
-136.32993 -66.106041 -45.06765 7761508
-135.89328 -66.269135 -46.01543 5788488
-135.69069 -66.119385 -47.042435 10918801
-135.29778 -66.25618 -47.931015 9602944
-135.04445 -66.143364 -49.01585 5985611
-134.71951 -66.159584 -50.002605 8354159
-134.39233 -66.178207 -50.988865 11643552
-134.06187 -66.198792 -51.974602 9669250
-133.78487 -66.217735 -52.795906 6709082
-133.50635 -66.238632 -53.617279 5920082
-133.19704 -66.279114 -54.613834 9208702
-133.00505 -66.315132 -55.284683 8287859
-129.74228 -66.274376 -64.499161 10853780
-129.44081 -66.279945 -65.128716 8682867
-129.04816 -66.105515 -66.103699 9735555
-128.6906 -66.005936 -66.940948 9735555
-128.3504 -65.944611 -67.70919 8945272
-127.89407 -65.96315 -68.653862 8484721
-127.43656 -65.984634 -69.598564 8550515
-126.97778 -66.009041 -70.543396 8683893
-126.51774 -66.0364 -71.488426 9538686
-126.05636 -66.066734 -72.433701 11249303
-125.67152 -65.949211 -73.343666 8947323
-125.40155 -65.752586 -74.079254 7170655
-125.09148 -65.777451 -74.71067 6512978
-159.95285 -64.880745 21.836884 7366240
-137.9567 -65.381279 -40.860439 7762021
-137.74014 -65.373215 -41.519318 9077114
-137.56439 -65.409714 -42.371548 7038307
-128.43756 -65.209518 -68.1511 7563619
-128.13268 -65.222191 -68.782089 7826791
-127.73378 -65.058327 -69.761124 9932167
-127.33327 -64.897255 -70.741142 9473151
-126.87208 -64.924278 -71.688843 9603966
-126.43691 -65.00415 -72.536842 12038304
-126.09586 -64.930786 -73.317078 9999238
-125.63571 -65.010529 -74.217697 8222570
-125.16957 -65.048241 -75.166824 9537403
-124.72401 -64.924919 -75.993042 10655886
-160.0229 -63.825104 22.526531 7564135
-160.31409 -63.772816 22.016205 7564392
-127.10823 -64.183365 -71.82235 7038298
-126.79216 -64.113785 -72.552696 8485744
-126.39398 -64.04921 -73.439728 8288624
-125.95959 -63.949562 -74.46032 9142902
-125.52015 -63.935883 -75.377518 9734526
-124.9655 -63.93222 -76.277802 9866372
-124.39175 -63.856579 -77.114723 8288878
-124.05738 -63.51239 -77.789024 9209467
-160.27113 -62.87545 22.796471 7169891
-160.54526 -63.171501 22.047184 6511962
-125.67013 -63.243919 -75.879555 9011321
-125.25299 -63.2188 -76.453117 9011321
-124.93092 -62.916256 -77.22319 8025194
-124.39648 -62.868298 -77.948982 8880759
-123.75568 -62.872295 -78.746117 7959913
-160.40384 -61.720032 23.445248 7104098
-160.59348 -62.034706 22.841354 7564392
-124.60244 -62.278683 -78.408577 8223341
-124.16622 -62.139126 -79.111443 7761254
-123.57333 -62.064484 -79.941795 8155756
-123.07864 -61.828339 -80.835625 9340027
-122.64185 -61.722843 -81.503014 10590091
-160.54948 -60.544769 24.414558 7038298
-160.61536 -60.915035 23.765133 8945268
-123.98174 -61.478065 -80.257866 8418928
-123.36699 -61.355232 -81.130547 8682099
-123.04263 -61.172039 -81.910652 10261130
-122.68515 -60.894657 -82.875237 9997960
-122.30536 -60.677582 -83.762138 7564384
-161.0381 -59.530323 25.581635 8024935
-161.02888 -59.943081 24.543896 9603197
-122.23026 -60.504169 -84.230217 8287850
-122.04727 -60.35067 -84.755028 7169628
-121.54436 -60.248581 -85.49482 7038307
-121.18142 -60.055595 -86.553719 7761509
-120.66327 -59.844826 -87.284859 9603458
-120.72043 -60.023129 -89.778679 8484461
-120.10464 -59.878857 -89.997078 8682099
-119.94752 -59.804604 -91.69294 10589577
-119.18106 -59.698658 -92.24929 7103065
-119.29169 -59.600754 -93.485435 6972250
-164.34984 -58.447857 35.654449 9209467
-164.64101 -58.725052 34.887798 12827053
-163.71442 -59.034821 33.866302 11182742
-163.87671 -59.036366 33.076706 9144190
-164.03583 -59.037907 32.286449 8091760
-162.93674 -59.039211 31.049015 11445144
-163.12233 -59.041115 30.066578 7630435
-162.12933 -59.043503 28.26754 7959400
-162.29854 -59.045391 27.290089 7169372
-161.55975 -59.200802 26.564232 7038298
-161.80615 -59.245438 25.804504 7038298
-118.60743 -59.484577 -93.87532 6972250
-118.29549 -59.294926 -95.257851 7104097
-118.17611 -59.147945 -96.574287 10261124
-117.55838 -59.072224 -97.017471 7827555
-117.51079 -58.967369 -98.41024 6511954
-116.88442 -58.89146 -98.847176 8814715
-116.82076 -58.78508 -100.24611 8814715
-116.18568 -58.70895 -100.67661 7170405
-116.2666 -58.620052 -101.97481 9537918
-115.78419 -58.562874 -102.29411 9537918
-164.57843 -57.829899 35.703197 9209467
-164.85454 -57.882542 35.139599 9209467
-115.30118 -58.505787 -102.61128 8090987
-115.52904 -58.434376 -103.81127 9537918
-114.87712 -58.357971 -104.22986 10064268
-114.76661 -58.247017 -105.64697 7958633
-114.10613 -58.170448 -106.05878 7563619
-114.14616 -58.077065 -107.3796 7564136
-113.47881 -58.000965 -107.78676 7564651
-113.37511 -57.906239 -109.25224 7761510
-112.98961 -57.82452 -110.199 8090474
-112.57471 -57.731674 -111.121 8287856
-112.40505 -57.613605 -112.56406 9537406
-112.05392 -57.572655 -112.75396 7563619
-164.95932 -56.799793 35.784271 9011064
-165.17589 -57.28141 34.999283 9011064
-111.70261 -57.531704 -112.94306 8813945
-111.69336 -57.432461 -114.29725 7893358
-111.16051 -57.370968 -114.57702 8813945
-111.14003 -57.270237 -115.93954 7827814
-110.42162 -57.188042 -116.30602 5920074
-110.38766 -57.085762 -117.67603 10721935
-109.91286 -56.982449 -118.59138 9340542
-109.43042 -56.87896 -119.50195 7630177
-109.37519 -56.773659 -120.88998 7893349
-108.81874 -56.711666 -121.15166 9734779
-108.81905 -56.63974 -122.62337 8353388
-108.27695 -56.588139 -122.9036 8090987
-164.88539 -55.796818 36.704338 8616562
-165.24776 -55.752186 36.054054 8682099
-107.91517 -56.553772 -123.08906 8090987
-108.08267 -56.497597 -124.47863 10261384
-107.35083 -56.428539 -124.84497 9735297
-107.32357 -56.353634 -126.33814 8090987
-106.7681 -56.301605 -126.60792 8090987
-106.54157 -56.207962 -128.20097 7301214
-105.92615 -56.077965 -129.98082 9865598
-105.29187 -55.946293 -131.76765 9801859
-104.63777 -55.812481 -133.56026 8222573
-104.35021 -55.709122 -135.18742 8814710
-103.75757 -55.6534 -135.42754 9011574
-165.27373 -54.878063 36.684864 9340284
-103.6512 -55.566242 -136.98279 5920074
-103.05222 -55.510315 -137.21776 5920074
-103.13469 -55.440388 -138.70741 6445650
-102.52942 -55.384205 -138.9381 7366751
-102.39896 -55.294064 -140.51735 6510930
-101.78722 -55.237705 -140.7426 6510930
-101.6436 -55.146027 -142.3338 8354163
-101.02554 -55.089512 -142.55363 9538438
-101.07658 -55.015091 -144.08495 8617331
-165.27264 -53.672646 37.624626 8879989
-165.56079 -53.831184 36.9566 9340798
-165.36307 -52.485825 38.377796 9209467
-165.66061 -52.753201 37.606529 8222060
-165.58997 -51.867722 38.429707 8485232
-165.8705 -51.91304 37.863377 8485232
-165.74471 -50.366581 39.306419 7366237
-165.9641 -50.781734 38.567482 7432031
-166.00446 -51.279144 38.103657 7761253
-165.93382 -49.669903 39.491074 7234911
-166.25337 -49.790848 38.791901 6971480
-166.25113 -48.875938 39.50893 6906201
-166.38637 -49.157299 39.033657 7366237
-166.25262 -47.722733 40.376667 5919822
-166.55743 -47.876575 39.707657 7564132
-166.61536 -46.753113 40.441956 6708566
-166.76527 -47.036541 39.968658 7761253
-166.91788 -45.479374 41.139214 8156267
-166.78203 -45.995766 40.736816 7234909
-166.97678 -44.50938 42.364456 9340541
-166.9908 -44.927807 41.726349 8485232
-169.34416 -44.0158 47.123299 8485494
-167.95984 -44.018066 45.211571 7038307
-168.17726 -44.019695 44.401451 8617078
-167.38864 -44.216255 43.329567 9735299
-167.69016 -44.255421 42.761623 11380380
-159.43983 -70.469719 18.391655 10261124
-159.50206 -70.797485 17.620277 8354160
-159.26859 -71.148499 16.817661 8420470
-158.90398 -71.216377 15.74657 9406336
-158.19403 -71.184692 14.968768 9537918
-158.11436 -71.111099 13.999869 8880245
-158.01254 -71.023346 12.839217 12826796
-157.92538 -70.952011 11.874026 9932167
-156.88956 -70.937836 11.22383 8485235
-156.77715 -70.853851 10.076156 7169634
-156.67805 -70.784134 9.1214361 9537409
-156.33199 -70.722069 8.1553869 9866373
-155.52133 -70.689072 7.3597479 9866373
-155.40959 -70.620552 6.4154806 7300958
-155.29251 -70.552444 5.4730101 6577236
-155.14557 -70.471039 4.3441725 7301215
-154.09503 -70.447845 3.5692167 10064262
-153.99158 -70.394287 2.8235922 10851980
-159.68428 -69.824684 18.496796 9801088
-159.88315 -70.163078 17.857067 9537402
-153.93835 -70.367607 2.4512358 10851980
-153.82968 -70.314461 1.7074728 9339769
-153.66101 -70.234947 0.59373003 9537149
-153.19482 -70.175346 -0.3936891 9142907
-152.78482 -70.142502 -1.0073862 9472128
-152.31146 -70.083916 -1.9846926 10261899
-152.07744 -69.986084 -3.0823069 8946039
-151.84911 -69.892029 -3.9939775 8485232
-151.61598 -69.798347 -4.9027758 7958888
-151.33047 -69.686455 -5.990056 7301214
-151.08769 -69.593689 -6.8932467 8353646
-150.84023 -69.501335 -7.7936487 8156266
-149.95305 -69.449837 -8.4747667 10261897
-159.82686 -68.555168 19.21479 6643802
-159.96907 -68.940186 18.645859 7104093
-150.48669 -69.372688 -9.0498438 5920074
-149.64868 -69.340416 -9.5443125 6972762
-149.11038 -69.239006 -10.5943 7499364
-148.84431 -69.147354 -11.477906 9997704
-148.57303 -69.055931 -12.358529 10984340
-148.24223 -68.946739 -13.411798 8814201
-147.96201 -68.856186 -14.286469 7038307
-147.67726 -68.766083 -15.158151 8222319
-147.33026 -68.658562 -16.200605 9735299
-146.97734 -68.551628 -17.238962 9341571
-146.6788 -68.462936 -18.101254 9341571
-146.49765 -68.409966 -18.617212 7565675
-159.9684 -67.771492 19.556595 6643800
-160.31241 -67.803215 18.880451 6906715
-146.31503 -68.35717 -19.132057 8354163
-146.00723 -68.269493 -19.987818 7695972
-145.63277 -68.16481 -21.011078 7695972
-145.31639 -68.078026 -21.860611 8353902
-144.99582 -67.991753 -22.707098 9866885
-144.60608 -67.888763 -23.719151 9669762
-144.21062 -67.7864 -24.726969 10788243
-143.87796 -67.702034 -25.563808 8683124
-143.56628 -67.629898 -26.402122 8880503
-143.19298 -67.546608 -27.405663 7959145
-142.81349 -67.463676 -28.405451 9405823
-160.00679 -66.583687 20.408356 5920074
-160.27696 -66.890121 19.658512 7564387
-142.40451 -67.370079 -29.396494 8155755
-142.50948 -67.252678 -30.421789 8024426
-142.22871 -67.150558 -31.331532 8221805
-141.98373 -67.035339 -32.355141 6510930
-141.59363 -66.945122 -33.165257 6839895
-141.12064 -66.837425 -34.133179 8418924
-140.6424 -66.730354 -35.096321 7366237
-140.15881 -66.623795 -36.054562 7300447
-139.95381 -66.507729 -37.08321 6116173
-132.16798 -66.6577 -57.946697 10523529
-131.97264 -66.700729 -58.620296 10194822
-131.63698 -66.891052 -59.612942 8222573
-131.39838 -66.94783 -60.378429 8945528
-131.05898 -66.822731 -61.263241 8814454
-130.67815 -66.728729 -62.143211 8682867
-130.29675 -66.637253 -63.02322 13683642
-160.36723 -65.794563 20.341 6577748
-160.58859 -66.084831 19.69595 9077114
-140.10803 -66.399368 -38.027222 6839896
-139.77345 -66.328964 -38.66103 7235421
-138.29044 -65.492287 -40.596302 7762021
-137.31438 -65.463348 -43.56525 8682613
-137.13353 -65.503403 -44.418346 7893349
-136.93121 -65.535973 -45.265476 9866624
-136.44234 -65.675102 -46.200603 5788488
-136.25781 -65.534157 -47.23822 8089963
-135.74847 -65.66993 -48.163658 8484720
-135.39575 -65.669662 -49.143051 6972250
-135.06013 -65.681038 -50.128681 9340797
-134.73253 -65.69976 -51.117695 11972517
-134.40288 -65.721001 -52.106621 9011576
-134.12622 -65.740356 -52.930408 7958893
-133.84769 -65.761421 -53.754082 7564392
-133.511 -65.788635 -54.742218 8353651
-133.09427 -65.949562 -55.744961 10261129
-132.76895 -66.035133 -56.692307 9339769
-132.48903 -66.03891 -57.660362 9471355
-132.22122 -65.961876 -58.730984 9472388
-132.04776 -65.837059 -59.607914 8682868
-131.78209 -65.884789 -60.445438 9208700
-131.36459 -65.896194 -61.406422 9669766
-130.91527 -65.895111 -62.35284 8419697
-130.46506 -65.897018 -63.298794 11183254
-130.04781 -65.855278 -64.212509 9538431
-129.62204 -65.724419 -65.220024 9275004
-129.30446 -65.547867 -66.038719 11906725
-129.00153 -65.556282 -66.669228 9735555
-160.35542 -64.673889 21.236191 7169629
-160.59544 -64.891975 20.612217 7761766
-137.79117 -65.231659 -42.713303 7301478
-137.70264 -65.123093 -43.77927 8682612
-137.58446 -65.098419 -44.746811 10195332
-137.3609 -65.121483 -45.590389 10392711
-136.91724 -65.257713 -46.360699 6445906
-136.57347 -65.255516 -47.347176 8089963
-136.22725 -65.255554 -48.332745 11445146
-135.87611 -65.256599 -49.316559 6971994
-135.49687 -65.247581 -50.290134 9011832
-135.22694 -65.134415 -51.379219 10196106
-134.97064 -65.106186 -52.139145 7038298
-134.66792 -65.113091 -52.956371 10064004
-134.30537 -65.124725 -53.937466 9208702
-133.96452 -65.150246 -54.927845 8156529
-133.62589 -65.180359 -55.919941 12367276
-133.28447 -65.2127 -56.911919 8813939
-132.94046 -65.247353 -57.903961 8288112
-132.59488 -65.313934 -58.820095 11183262
-132.47514 -65.150909 -59.608761 8222578
-132.11569 -65.187653 -60.59824 7564645
-131.65866 -65.179993 -61.543911 8354165
-131.28589 -65.001984 -62.529366 8354164
-130.83258 -64.92157 -63.532887 9275260
-130.44131 -64.822968 -64.455627 9933702
-129.96085 -64.861336 -65.341492 9735811
-129.58618 -64.890221 -66.064552 10656914
-129.10571 -65.003349 -66.920296 9735300
-128.69196 -64.980606 -67.810448 9142651
-128.24345 -64.761116 -68.941216 8616307
-127.912 -64.50293 -69.858589 10064521
-160.64517 -63.821209 21.352085 7235429
-160.85052 -64.146896 20.709805 7038307
-130.37378 -64.161461 -65.597916 9209467
-129.92577 -64.28479 -66.237404 10525328
-129.55292 -64.15081 -67.151688 8550514
-129.08514 -64.08326 -68.136566 9340030
-128.7184 -63.943966 -69.060043 9208700
-128.27933 -63.8269 -70.058784 9736836
-127.79929 -63.878475 -70.884773 9736836
-127.50961 -63.745625 -71.644478 8552050
-127.10139 -63.64954 -72.54673 7499106
-126.647 -63.53204 -73.586479 8288624
-126.30819 -63.540359 -74.205353 10064262
-160.77631 -62.570236 22.078205 9142909
-161.00995 -62.911945 21.369934 9406592
-128.71266 -63.182076 -70.294724 9736836
-128.37839 -63.18504 -70.916954 9736836
-127.98262 -63.029381 -71.9095 10591888
-127.49884 -62.968952 -72.912506 7236451
-127.07638 -62.886818 -73.835228 8288624
-126.56091 -62.939713 -74.712112 9538175
-126.20694 -62.865334 -75.494102 9471613
-125.78137 -62.747299 -76.359947 9208700
-125.3552 -62.550701 -77.137718 8616819
-160.9962 -61.744892 22.305 8353650
-161.2943 -61.899151 21.620796 9340543
-127.03003 -62.270252 -75.039711 8288624
-126.65778 -62.265724 -75.645004 9273719
-126.17168 -62.143425 -76.679375 9274493
-125.67377 -61.961922 -77.593956 8879735
-125.17073 -61.791084 -78.425346 8748405
-124.68365 -61.539761 -79.439903 7760998
-161.2395 -60.573792 23.063797 7103834
-161.34851 -60.928635 22.381058 7367010
-125.25755 -61.298889 -79.381081 7563619
-124.73903 -61.11301 -80.321022 8353135
-124.28895 -60.898487 -81.253525 8682356
-123.77249 -60.724319 -82.165588 9208702
-123.28021 -60.575096 -82.998055 9208702
-161.60564 -59.543839 24.176464 10458248
-161.52975 -60.011631 23.435986 9142646
-123.90994 -60.502506 -83.636177 7564392
-123.07407 -60.292152 -83.939049 7169888
-122.65063 -60.409397 -86.93058 10851980
-121.92496 -60.193123 -88.862572 8945011
-121.17268 -60.086784 -89.43679 7037274
-121.0176 -59.95351 -90.904579 11708313
-120.40667 -59.868378 -91.356529 10589577
-120.38627 -59.754623 -92.715477 9339254
-119.76665 -59.66927 -93.161079 8088931
-119.8698 -59.566624 -94.40155 8090987
-165.17142 -58.826698 33.754406 9341312
-165.30515 -59.038143 32.74543 8617847
-164.15237 -59.039066 31.693165 7565417
-164.34181 -59.040989 30.703426 7893863
-163.33745 -59.043407 28.886314 8288365
-163.51038 -59.045303 27.901623 6774614
-162.46153 -59.047268 26.311588 7037530
-162.19925 -59.206234 25.333347 7038298
-162.23296 -59.32542 24.471031 8550766
-119.34548 -59.476048 -94.689629 8813945
-119.27868 -59.395706 -95.340057 9274238
-118.85448 -59.25457 -96.176949 8485234
-118.76222 -59.120796 -97.527107 8287849
-117.97988 -59.024475 -98.080101 6511954
-118.08748 -58.937775 -99.373802 9735302
-117.29631 -58.842243 -99.920601 8814715
-117.38995 -58.754025 -101.22215 7038307
-116.7485 -58.677433 -101.65373 7038307
-116.82983 -58.587688 -102.96358 11182487
-165.29961 -57.747307 34.402088 8814711
-165.51503 -57.966751 33.823517 8223089
-116.34255 -58.530106 -103.28327 12432037
-116.29759 -58.47504 -103.99567 9011578
-115.91999 -58.38131 -104.91753 8946044
-115.53756 -58.287006 -105.84272 8419440
-115.14738 -58.192421 -106.76411 7827047
-115.02471 -58.078995 -108.20211 9011320
-114.36131 -58.007614 -108.62052 8353647
-114.59283 -57.946152 -109.89074 9011320
-113.92821 -57.878151 -110.31113 8353647
-113.80827 -57.778 -111.79473 8090987
-113.10692 -57.695675 -112.18092 11511193
-113.11282 -57.597195 -113.54131 7563619
-165.5574 -56.786022 34.662674 9668995
-112.4034 -57.514729 -113.92112 7695720
-112.396 -57.414631 -115.28887 7433059
-111.94012 -57.31229 -116.21157 8288365
-111.4764 -57.209621 -117.12957 8090729
-110.89801 -57.044334 -118.78732 10458763
-110.67275 -56.91893 -120.27152 10787729
-110.11674 -56.85659 -120.53788 8813936
-109.90207 -56.74313 -122.05691 8813936
-109.36081 -56.691338 -122.34135 7893349
-109.36163 -56.618748 -123.82891 9997957
-108.81385 -56.566738 -124.10907 11379607
-165.61304 -55.745441 35.367859 10261132
-165.8093 -55.928829 34.853359 10261132
-108.61809 -56.475353 -125.70008 9735297
-107.87868 -56.405762 -126.06634 8090987
-108.03866 -56.347591 -127.48522 7959399
-107.29046 -56.277645 -127.84527 6511954
-107.25137 -56.200657 -129.36597 8353646
-106.44102 -56.051857 -131.25111 9604221
-105.80083 -55.919014 -133.05461 9341051
-105.1394 -55.783226 -134.86247 8156780
-105.24778 -55.715828 -136.34482 9735812
-104.44959 -55.640968 -136.66547 9011832
-165.91191 -54.826828 35.517471 7760997
-166.12656 -55.251892 34.779938 10261132
-104.34501 -55.553013 -138.23936 6445650
-103.73988 -55.496578 -138.47459 6445650
-103.62215 -55.407104 -140.0601 7564130
-103.01059 -55.350513 -140.28996 8288109
-102.87962 -55.259457 -141.88737 7366751
-102.2617 -55.202644 -142.11183 7366751
-102.11734 -55.109955 -143.72139 8090475
-101.4929 -55.052975 -143.94043 8617331
-101.9659 -55.01598 -145.3466 10854036
-165.92522 -53.784439 36.303879 8814457
-166.12024 -53.928516 35.822639 7696490
-166.22156 -52.84766 36.472355 9603716
-166.31261 -51.657051 37.22662 7498595
-166.52084 -51.947365 36.606953 7697004
-166.54858 -50.804276 37.443783 7498338
-166.53566 -49.83427 38.22364 8089958
-166.81825 -49.878448 37.654213 7695201
-166.68941 -48.331123 39.103626 7366237
-166.91559 -48.801102 38.309219 8945266
-167.14127 -49.272839 37.514729 7366237
-167.00533 -47.65131 39.03513 9274230
-167.20734 -47.826336 38.516376 8287338
-167.22043 -46.883667 39.225975 8682867
-167.39224 -45.660072 40.117085 7695460
-167.48047 -46.094147 39.371223 8682867
-168.28246 -44.33255 41.619274 8092019
-167.83127 -44.64407 41.078121 7564132
-167.87109 -44.916363 40.373894 7761253
-169.45782 -44.016628 46.714947 11380380
-169.6821 -44.018269 45.897572 9538178
-168.33771 -44.020912 43.793293 7038307
-168.56808 -44.027748 42.986382 12234657
-167.99118 -44.295033 42.192165 8092019
-160.02518 -70.822914 16.43029 9011574
-159.78595 -71.073997 15.316226 10524555
-159.15808 -71.127365 14.674418 13550517
-159.07477 -71.053497 13.699969 10853520
-158.97101 -70.966499 12.532924 8814200
-158.8811 -70.895256 11.562263 8485238
-157.83359 -70.881378 10.91048 8485235
-157.71686 -70.797012 9.7563391 8485236
-157.61403 -70.727036 8.7962561 8813686
-157.5058 -70.657394 7.8379316 9734788
-156.44151 -70.63192 7.0269346 9734788
-156.32608 -70.563171 6.0774412 8090730
-156.20526 -70.494743 5.1297369 8419951
-156.05389 -70.413055 3.9946623 7169375
-155.01776 -70.403557 3.4052191 8353905
-160.33829 -69.799973 17.27206 8222057
-160.54262 -70.152008 16.561272 5920074
-155.44395 -70.361015 3.0410032 8090737
-154.85768 -70.32299 2.2808828 8617080
-154.71866 -70.256142 1.3458929 9340028
-154.5455 -70.176392 0.22619921 8748149
-154.39592 -70.110222 -0.70496839 8616307
-153.80316 -70.073929 -1.4450426 10524815
-153.17566 -70.024582 -2.3636484 9537664
-152.9261 -69.921608 -3.4667139 8814453
-152.69328 -69.827133 -4.3829279 8090474
-152.45564 -69.733109 -5.2962885 7761253
-152.16461 -69.620834 -6.3888826 7301214
-151.91724 -69.527649 -7.2965136 7103835
-151.66522 -69.434944 -8.2012529 6380370
-160.34621 -68.720474 18.102623 6643539
-160.64273 -68.862175 17.430923 9668988
-151.3571 -69.324226 -9.2834482 5920074
-150.63585 -69.247643 -10.152303 6709590
-150.48091 -69.159248 -10.980798 7696746
-150.03673 -69.07682 -11.822263 8288626
-149.36356 -68.986916 -12.785211 12299684
-149.08377 -68.895561 -13.667344 8485494
-148.79947 -68.804604 -14.546464 8485494
-148.45299 -68.69603 -15.59777 9932937
-148.15979 -68.60601 -16.470827 9341571
-147.86214 -68.51651 -17.340815 11775140
-147.56067 -68.427368 -18.208115 8420727
-160.71866 -67.83429 18.087318 7235420
-160.92943 -68.226257 17.382965 10261124
-147.37784 -68.374084 -18.727079 7565675
-147.13133 -68.303322 -19.41725 9208443
-146.81999 -68.215187 -20.27762 7827302
-146.50441 -68.127556 -21.134855 8287853
-146.12053 -68.023003 -22.159748 10458510
-145.73094 -67.919006 -23.180454 9735299
-145.40199 -67.832802 -24.027851 10261387
-145.08165 -67.753044 -24.874271 10591121
-144.71533 -67.668625 -25.890383 8880503
-144.34277 -67.584602 -26.902687 9604226
-144.02765 -67.514847 -27.74332 9142907
-143.77226 -67.459236 -28.413883 8089963
-160.70343 -66.795303 18.925308 8879735
-160.96529 -66.876434 18.366634 6511954
-144.12242 -67.389114 -29.144409 8353135
-143.60562 -67.327332 -29.713903 8813685
-143.71008 -67.209045 -30.747227 9340798
-143.24724 -67.099182 -31.733589 7827047
-142.7789 -66.989883 -32.715195 9735040
-142.38467 -66.899269 -33.529583 7037274
-141.98642 -66.80912 -34.340412 9471610
-141.50381 -66.701355 -35.309082 7958631
-141.19104 -66.577843 -36.40852 6051148
-141.03645 -66.490173 -37.18491 6050892
-160.98335 -65.786369 19.181519 8287854
-161.19141 -66.04261 18.588253 6511954
-141.2171 -66.421593 -37.77824 7563619
-140.8812 -66.350685 -38.417198 9405822
-140.4584 -66.262268 -39.213078 7958888
-140.03185 -66.174377 -40.005241 8682868
-139.68823 -66.104317 -40.636822 10262156
-139.51674 -65.826462 -42.415813 8287856
-161.04616 -64.650566 19.947201 9734788
-161.25117 -64.980156 19.302582 7498594
-138.71799 -65.264526 -44.006668 6510930
-137.78157 -64.700966 -45.913673 7893349
-137.39357 -64.838364 -46.521233 6643540
-137.04854 -64.836205 -47.51115 10590094
-136.80264 -64.784004 -48.482807 11642781
-136.35114 -64.83844 -49.488174 7103833
-135.99873 -64.842857 -50.475445 7827557
-135.75075 -64.778236 -51.409054 9998727
-135.50137 -64.715851 -52.343151 7038298
-135.17606 -64.712502 -53.155178 10787469
-134.77788 -64.707626 -54.126354 11181974
-134.37692 -64.704796 -55.096268 7564394
-133.97757 -64.706062 -56.066708 9341059
-133.62358 -64.732567 -57.056442 8485233
-133.28027 -64.7677 -58.051655 9341060
-133.10457 -64.6381 -58.930752 12301485
-132.81416 -64.670654 -59.760864 7762030
-132.45245 -64.706505 -60.752346 8288371
-131.99124 -64.697426 -61.698959 8354165
-131.61758 -64.519493 -62.686954 8814715
-131.2128 -64.507195 -63.46619 9209467
-161.31093 -63.776798 20.126846 8880506
-161.54376 -64.123932 19.415775 8814713
-137.11818 -64.415726 -48.833374 11708060
-136.82532 -64.417763 -49.659565 5722437
-136.47166 -64.422173 -50.65023 8419180
-136.11554 -64.42878 -51.640114 8353902
-135.81691 -64.435883 -52.464481 7827557
-135.51639 -64.444588 -53.288349 9669502
-135.24612 -64.341286 -54.389187 10984851
-134.91637 -64.317558 -55.316349 8156787
-134.5128 -64.317558 -56.289612 8419959
-134.10468 -64.318741 -57.26096 10985623
-133.68808 -64.348717 -58.152012 9801610
-133.59705 -64.196106 -58.955814 7762030
-133.18086 -64.202599 -59.925488 7169893
-132.82874 -64.153427 -61.021389 9275264
-132.46025 -64.064568 -61.917549 9406851
-131.99525 -63.976166 -62.922131 10524818
-131.59203 -63.913643 -63.795612 10064779
-131.25952 -63.818027 -64.578102 10328461
-130.81 -63.804447 -65.373558 9933446
-130.37404 -63.672722 -66.386383 9669506
-129.98917 -63.50613 -67.37722 8089963
-129.57619 -63.503624 -68.155899 9866374
-161.38249 -62.515209 20.974087 7893614
-161.60732 -62.845539 20.291229 8090992
-131.35275 -63.270821 -65.692986 9209467
-130.80742 -63.238529 -66.606148 9603202
-130.43993 -63.08028 -67.609802 9866374
-129.89221 -63.053352 -68.521065 9274237
-129.54056 -62.947731 -69.421196 9670018
-129.25899 -62.813782 -70.188751 10262667
-128.76923 -62.732098 -71.132057 10328716
-128.37926 -62.579674 -72.131523 12498858
-127.90894 -62.563175 -72.883896 8551538
-161.72562 -61.795158 20.885498 8025199
-161.96924 -62.010834 20.256565 7038307
-129.29974 -62.344608 -71.423668 10920852
-128.73573 -62.323093 -72.330864 13551549
-128.44226 -62.177975 -73.18602 7169884
-127.96564 -62.135986 -74.020775 9801090
-127.64217 -61.986038 -74.934738 10063748
-127.17595 -61.874416 -75.952995 8879214
-126.70956 -61.786331 -76.817276 9537409
-126.2854 -61.676117 -77.49884 9011321
-161.82201 -60.57906 21.954861 6840922
-161.99831 -60.912281 21.165497 7762029
-127.51338 -61.481682 -76.570229 10851980
-127.20619 -61.467312 -77.01223 10260616
-126.72839 -61.307899 -77.853401 9142651
-126.12045 -61.2262 -78.656075 8484721
-125.66681 -60.98489 -79.745491 7695205
-125.25533 -60.721294 -80.652039 7760998
-124.76123 -60.768867 -83.553802 9208702
-124.12659 -60.622513 -85.749329 9143166
-123.53722 -60.537121 -86.224358 10194309
-162.47453 -59.371983 23.707066 8287594
-162.32561 -59.64233 22.846798 8616303
-162.33907 -59.97226 21.971478 8288112
-123.09436 -60.473183 -86.578606 10851980
-123.42413 -60.406559 -87.698738 10851980
-122.82535 -60.321098 -88.166702 10851980
-122.844 -60.210144 -89.528854 8484461
-122.23632 -60.124397 -89.990746 7497824
-121.93331 -60.025291 -90.904106 10919310
-121.4681 -59.904411 -91.927345 11247762
-121.4529 -59.789917 -93.300339 11905692
-120.67081 -59.68248 -93.86039 8483689
-120.78848 -59.584126 -95.121101 7892841
-165.63809 -58.701931 33.018902 7039331
-165.85371 -58.730083 32.335117 8354676
-165.57755 -59.040863 31.349758 10065288
-164.56158 -59.043297 29.514286 8880502
-164.73822 -59.045216 28.522163 8090474
-163.67706 -59.047203 26.915756 7037274
-163.83812 -59.049099 25.929058 7037274
-162.86363 -59.105602 24.767632 7827300
-163.16788 -59.163784 23.809074 6511954
-120.09217 -59.467342 -95.513969 8813945
-119.95427 -59.305271 -96.824165 7038307
-119.41852 -59.213631 -97.10675 7038307
-119.34976 -59.091175 -98.487877 8551026
-118.71933 -59.014404 -98.932907 10261132
-118.51001 -58.888485 -100.45867 9866631
-118.61192 -58.799797 -101.77506 11380380
-117.80276 -58.703243 -102.31811 9538180
-117.89056 -58.61293 -103.64235 7038307
-117.56268 -58.574245 -103.85719 7038307
-165.90289 -57.777401 33.23674 7762284
-166.17743 -57.921467 32.60519 7236453
-117.07057 -58.516205 -104.17767 9537918
-117.14383 -58.424343 -105.50932 8485494
-116.47919 -58.346848 -105.93092 7498857
-116.37192 -58.234032 -107.37548 10262156
-115.69866 -58.156448 -107.79028 8287853
-115.75288 -58.065483 -109.14564 7103835
-115.09039 -57.997196 -109.57265 6840663
-114.99077 -57.900982 -111.06786 10853012
-114.31924 -57.832531 -111.48815 8090987
-114.35291 -57.742001 -112.86732 8288110
-113.64458 -57.659172 -113.2541 7563619
-113.82955 -57.580509 -114.53172 13550517
-166.03738 -56.561733 33.928474 8813945
-166.21301 -56.891533 33.339127 8024943
-113.29222 -57.518166 -114.81742 7563619
-112.92644 -57.375637 -116.38776 7696230
-112.73022 -57.25246 -117.87302 9209467
-111.99765 -57.16901 -118.2414 9275260
-111.96907 -57.064983 -119.64106 9143422
-111.22839 -56.981461 -120.00263 9932679
-111.37319 -56.896736 -121.32074 8353908
-110.6273 -56.814407 -121.67913 7038298
-110.63811 -56.740307 -123.16702 9011320
-109.90901 -56.670746 -123.54692 9735299
-109.91041 -56.597382 -125.05061 11906208
-166.17514 -55.923958 34.164364 8813945
-166.53894 -55.882599 33.507782 8090736
-109.35687 -56.545078 -125.33064 13023917
-109.1597 -56.452682 -126.9381 9736064
-108.57481 -56.323746 -128.73967 7959399
-107.78 -56.175465 -130.63702 8551280
-107.1552 -56.043137 -132.45174 9998979
-107.09804 -55.962612 -134.01735 8419438
-106.31581 -55.891205 -134.35936 7959144
-106.44153 -55.827042 -135.85193 8814710
-105.84617 -55.77219 -136.1012 9735812
-105.75637 -55.68494 -137.68195 8814710
-105.15166 -55.628323 -137.92232 6709078
-166.43332 -54.425228 34.842941 10261132
-166.5195 -54.882805 34.323322 9537410
-105.04871 -55.539528 -139.51498 6445650
-104.43743 -55.482735 -139.75008 6445650
-104.32137 -55.392307 -141.35503 8682867
-103.7036 -55.335304 -141.58463 8485488
-103.57429 -55.243286 -143.20195 7563619
-102.94985 -55.186066 -143.42607 8813683
-103.01727 -55.111649 -144.98213 8813683
-102.38647 -55.054176 -145.20169 9735555
-166.56998 -53.788292 35.080242 8880507
-166.8871 -53.919075 34.377937 9340027
-166.84271 -52.860722 35.28624 9472130
-167.08105 -53.217884 34.556877 10590091
-166.93391 -51.782639 35.95327 8946300
-167.16638 -51.910145 35.413746 9603716
-167.17308 -50.812168 36.256317 8683126
-167.47318 -51.082054 35.477703 10854036
-167.26065 -49.8172 36.865341 6775126
-167.56467 -49.88818 36.23452 9735555
-167.52682 -48.770123 37.176624 7169372
-167.58034 -47.809246 37.823368 8024424
-167.86536 -47.852463 37.250675 9274748
-167.8716 -46.814308 38.047123 8814453
-168.09483 -47.230312 37.300701 9142907
-168.01309 -45.656528 38.898296 10656145
-168.15308 -45.931969 38.305096 11576735
-168.67128 -44.370979 40.638443 9735814
-168.43132 -44.720768 39.829559 10129800
-168.4583 -45.027695 39.086426 9406334
-171.21106 -44.016815 47.423443 9275005
-171.38251 -44.018066 46.804306 8090987
-170.01154 -44.020741 44.669621 8617078
-170.22652 -44.022381 43.849785 8617078
-169.07567 -44.081688 41.8162 10787986
-169.39119 -44.112827 41.028881 9735814
-160.58342 -70.537285 15.914351 8287596
-160.77118 -70.712105 15.098823 9143163
-160.26872 -71.004227 14.194034 11379864
-160.02739 -70.98127 13.200557 8024940
-159.93869 -70.909485 12.222819 7498601
-159.86443 -70.85218 11.441676 8485238
-158.78568 -70.824348 10.593223 8485238
-158.66449 -70.739647 9.4325666 8484721
-158.55797 -70.669365 8.4670897 8813686
-158.44597 -70.599434 7.5033751 10261388
-157.36934 -70.574203 6.6900396 8551282
-157.2502 -70.505203 5.7353163 7762021
-157.12567 -70.436539 4.7823629 6709077
-157.0228 -70.381767 4.0211439 7564651
-161.01122 -69.777359 16.021023 7761253
-161.15338 -70.130905 15.447917 9932678
-156.94319 -70.340881 3.4510679 9208703
-156.3788 -70.315887 2.8718023 9735046
-155.78545 -70.27787 2.1085043 7893615
-155.6149 -70.197334 0.98014742 9931909
-155.46745 -70.130539 0.041831076 9207670
-155.31473 -70.064095 -0.89457029 8418928
-154.83104 -70.004677 -1.8880472 9866886
-154.04404 -69.963463 -2.7468538 8089963
-153.82848 -69.875511 -3.6710062 8089963
-153.59166 -69.780594 -4.5921259 9142651
-153.30162 -69.667259 -5.6940279 10261132
-153.05518 -69.573204 -6.6094103 7761509
