# .PCD v0.7 - Point Cloud Data file format
VERSION 0.7
FIELDS x y z rgb
SIZE 4 4 4 4
TYPE F F F U
COUNT 1 1 1 1
WIDTH 1228
HEIGHT 1
VIEWPOINT 0 0 0 1 0 0 0
POINTS 1228
DATA ascii
-1.7676309 -2.4474785 165.36092 7893352
-1.8515543 -1.6309507 165.64648 8222574
-2.4493554 -1.2623743 165.53238 7300446
-1.8572763 -0.64788437 166.03171 7038307
-2.5761178 -0.40207446 165.91458 7695721
-2.6640313 0.17422861 166.34846 8485238
-3.3839791 0.42005742 166.2384 9603203
-4.485435 1.0008614 166.89731 9208187
-5.0813975 0.99798602 166.63371 8682867
-12.444427 1.6674929 170.89313 9932935
-12.467505 2.5208528 171.19252 9472128
-13.071517 2.5166798 170.95032 8090987
-12.687415 3.1613295 171.34799 8682867
-13.178725 3.4147844 171.25323 8419695
-13.415755 4.3830419 171.53629 10196104
-13.943069 4.6542058 171.4343 8682867
-13.55992 5.3060722 171.83829 15196110
-14.052611 5.5598245 171.74316 12893101
-14.320106 6.3366017 171.93982 12564137
-14.813476 6.5901723 171.84438 12235172
-14.431136 7.2486954 172.25064 10459019
-14.960135 7.5211778 172.14844 9406589
-15.201819 8.5039082 172.43527 8880246
-15.696563 8.7580185 172.33948 9735299
-15.314895 9.4241476 172.74844 9735299
-15.922149 9.4126682 172.50516 9735299
-16.046188 10.449666 172.85934 11050644
-16.577492 10.722545 172.7565 9735299
-16.204742 11.617407 173.25078 10261641
-16.813095 11.603747 173.00623 8814196
-16.966553 12.445691 173.27306 8616048
-17.46376 12.701276 173.17688 7037274
-17.083702 13.381467 173.59068 10984593
-17.692604 13.366105 173.34525 7497824
-17.651375 14.428972 173.81516 8418669
-18.361221 14.700516 173.6573 7169629
-17.985947 15.391521 174.11305 9734788
-18.610817 15.677744 174.00061 8222061
-22.141716 16.66398 176.02124 9208699
-22.902687 16.705153 175.90193 8616307
-22.302872 17.399115 176.26508 9142907
-23.03392 17.671322 176.23596 10919573
-23.079979 18.50823 176.57814 10459022
-23.989861 18.627153 176.46942 9735557
-23.924171 19.395647 177.0443 9471872
-24.649048 19.592072 177.04294 9406080
-24.648567 20.247633 177.55359 8814457
103.06762 -58.182201 112.24724 8814709
102.58071 -58.13628 112.52922 6511954
102.09442 -58.090954 112.81064 7564643
100.54408 -58.334587 113.54441 7827045
99.88443 -58.269276 113.89874 9866627
99.059204 -58.188118 114.33739 9998215
98.235664 -58.108948 114.77442 8814201
113.309 -57.32177 107.05888 11511449
112.36341 -57.37009 107.555 8814456
111.58316 -57.319542 107.99744 8617080
110.58839 -57.502022 108.46044 9340799
109.72515 -57.464855 108.94227 8814709
108.90916 -57.45417 109.38773 8419951
107.91471 -57.455215 109.92486 10196365
107.06966 -57.610493 110.3181 11972518
106.2481 -57.525997 110.79679 9078399
105.26902 -57.573273 111.30665 9538693
104.45504 -57.597069 111.73692 9143679
103.60294 -57.570332 112.2085 7564643
102.72266 -57.570374 112.68427 7564643
101.8356 -57.633675 113.13789 10130054
100.89214 -57.597073 113.66089 7958631
100.06972 -57.518379 114.10933 9866627
99.263786 -57.54985 114.49328 11379608
98.140923 -57.607616 115.02259 9143679
97.339684 -57.642693 115.40269 8881278
96.519157 -57.568562 115.8362 9012863
95.536652 -57.482143 116.35438 10590609
94.676033 -57.598652 116.73093 8616563
93.860985 -57.530678 117.15923 6643284
92.884819 -57.451672 117.67126 7827558
91.910713 -57.375481 118.18118 10130312
91.100334 -57.314102 118.60453 13550517
90.351646 -57.353306 118.95713 8551280
89.281403 -57.37125 119.47646 9735554
88.314407 -57.305145 119.97879 10261897
87.469872 -57.43697 120.34127 10656657
86.666786 -57.385807 120.757 10525071
85.704323 -57.326839 121.2542 9538177
84.799614 -57.311127 121.70565 9077374
83.905182 -57.410091 122.10592 9143167
83.106544 -57.367123 122.51611 9011838
82.149139 -57.31797 123.00694 9603973
81.352089 -57.279026 123.4147 9538694
115.07208 -56.251621 106.133 8090474
114.22878 -56.548752 106.69827 9669504
113.40565 -56.491199 107.34293 7564643
112.55239 -56.681099 107.73521 7564646
111.55408 -56.612667 108.30276 8485494
110.73672 -56.633961 108.73584 10787731
109.90369 -56.542881 109.22341 9406590
109.08569 -56.533401 109.66946 8090732
108.19384 -56.556923 110.14195 10130316
107.20649 -56.601498 110.65741 9406852
106.3858 -56.622936 111.09226 9274751
105.53671 -56.532116 111.58846 10392973
104.63981 -56.590931 112.04922 11577504
103.74575 -56.651653 112.50761 9011831
102.79636 -56.612545 113.03686 10853520
101.98297 -56.539543 113.50646 14604230
101.20002 -56.519005 113.93758 9208696
100.13542 -56.563904 114.46062 6840669
99.260658 -56.672546 114.84744 9406336
98.434082 -56.59568 115.28509 9406593
97.444435 -56.505978 115.80815 8486520
96.577171 -56.620106 116.18903 10591380
95.756454 -56.54937 116.62129 11051416
94.730179 -56.653324 117.08442 8616563
93.913231 -56.586571 117.51319 7695716
93.097832 -56.5219 117.94035 9998727
92.151314 -56.496265 118.41632 10196106
91.17807 -56.527615 118.88261 9143160
90.322624 -56.691872 119.23739 7564643
89.444481 -56.630363 119.69416 9341053
88.47551 -56.564976 120.19719 12629930
87.669243 -56.51247 120.61494 10393229
86.864113 -56.462009 121.0314 9998471
85.860275 -56.588432 121.47441 9998728
84.835052 -56.609253 121.97047 9209215
83.999855 -56.616444 122.37847 9208959
83.207939 -56.674255 122.74483 9669510
82.298157 -56.581661 123.22967 9801352
81.339928 -56.535713 123.71956 9933194
80.382729 -56.492435 124.20792 9932679
79.585732 -56.458302 124.61376 10524559
78.814568 -56.532841 124.96322 10326668
77.799255 -56.573448 125.44647 9208957
76.845406 -56.539745 125.92937 9603717
75.892189 -56.50864 126.41098 9603717
75.098206 -56.484699 126.81134 8681843
74.304543 -56.462669 127.21081 9602945
73.352577 -56.438606 127.68911 9406336
72.40094 -56.417187 128.1664 9340800
71.449493 -56.398369 128.64249 10130057
70.498154 -56.382114 129.11751 10327177
69.705437 -56.370499 129.51259 9340796
68.912727 -56.360836 129.90688 11314072
68.055824 -56.260704 130.36903 10262157
67.039833 -56.161781 130.90912 9077881
66.087593 -56.157604 131.37971 8683123
65.293831 -56.156055 131.77127 8814709
64.499763 -56.156403 132.16216 8814453
63.54649 -56.159069 132.63052 9340797
62.592655 -56.16431 133.09819 9603969
61.797314 -56.170601 133.48734 9011832
116.67951 -55.166409 105.29951 7037274
115.98733 -55.406944 105.76492 7958889
115.1468 -55.584442 106.38409 9077626
114.36483 -55.627029 107.01768 8551538
113.6123 -55.574417 107.6021 7433059
112.66734 -55.611462 108.11133 7893354
111.82904 -55.623711 108.55938 9143677
110.97409 -55.481098 109.07985 9932935
110.08184 -55.620991 109.50475 9800582
109.07978 -55.623253 110.04553 8616567
108.27837 -55.589542 110.49255 10196110
107.40067 -55.695854 110.92348 8748923
106.57482 -55.614029 111.4034 9735559
105.71868 -55.660469 111.84716 9997959
104.6686 -55.819336 112.34972 10327180
103.84962 -55.743404 112.82352 10524555
103.09052 -55.77116 113.22245 10524555
102.00732 -55.771912 113.8077 13353651
101.10918 -55.822941 114.2723 9208696
100.32033 -55.813213 114.67131 6643031
99.489601 -55.735298 115.11147 7038307
98.615456 -55.846733 115.49682 8814201
97.623711 -55.758083 116.02052 8486520
96.754684 -55.873058 116.40198 9933707
95.932281 -55.803139 116.83478 10327694
94.947426 -55.721714 117.3521 9866888
94.038727 -55.610985 117.84373 12695213
93.236931 -55.624325 118.23286 11906467
92.267097 -55.594215 118.72213 10656145
91.312798 -55.632263 119.17629 8551025
90.500252 -55.574673 119.59921 8879991
89.689056 -55.519081 120.02068 7564392
88.747574 -55.503628 120.4901 8616823
87.707085 -55.577999 120.97213 8616563
86.900085 -55.528484 121.38908 8879477
86.055176 -55.665539 121.74963 9603712
85.08979 -55.610672 122.24664 9801605
84.125725 -55.558495 122.74195 10195850
83.323265 -55.516941 123.15347 10984855
82.521622 -55.477367 123.5638 9604230
81.585411 -55.539356 123.99947 10590609
80.564339 -55.573402 124.48817 9866629
79.67675 -55.499157 124.95467 10260875
78.84037 -55.688072 125.2902 10063496
77.974724 -55.655792 125.72912 9274748
77.018646 -55.62257 126.21297 7564651
76.063141 -55.591908 126.69553 8485495
75.208672 -55.514042 127.14729 9273980
74.423576 -55.591328 127.50259 10260875
73.517448 -55.522766 127.97602 9077117
72.563484 -55.501575 128.4541 9077374
71.609795 -55.482956 128.93108 9537922
70.656288 -55.466938 129.40709 10459017
69.86171 -55.455475 129.80295 9341307
69.067192 -55.445927 130.1981 12300966
68.11364 -55.436707 130.67139 10262157
67.192177 -55.475975 131.10938 10065034
66.176376 -55.608837 131.5563 8814710
65.381554 -55.607265 131.94836 8814710
64.586388 -55.607586 132.33981 9734788
63.598476 -55.532036 132.85669 9537409
62.704727 -55.432529 133.33678 9143162
61.748531 -55.440262 133.80458 9340541
60.791649 -55.450539 134.27167 9800581
59.993683 -55.460999 134.66046 9734531
59.195072 -55.473343 135.0488 9142908
58.235855 -55.490417 135.51427 8485237
57.275692 -55.510052 135.97928 10064264
56.374516 -55.426437 136.4566 9538177
55.556267 -55.264565 136.78052 9011834
118.44166 -54.093033 104.33091 9538686
117.52861 -54.561897 104.87382 7037274
116.83666 -54.586765 105.44043 7629667
116.11477 -54.545902 106.063 9143675
115.31868 -54.649815 106.67957 9143679
114.62963 -54.741272 107.21249 7762028
113.76911 -54.998276 107.74991 7038307
113.10315 -54.927105 108.15619 7038307
110.64639 -55.053394 109.43221 10262156
88.473701 -55.063889 120.8017 8090736
87.826416 -55.023472 121.1364 8287599
87.018257 -54.974373 121.55376 9340027
86.21109 -54.927181 121.9698 9603712
85.243813 -54.872986 122.4675 9801605
84.277855 -54.821423 122.9635 9011576
83.473793 -54.780319 123.37562 9143936
82.670624 -54.741188 123.78651 8749435
81.614235 -54.840717 124.2662 9603714
80.709557 -54.838257 124.71229 10327436
79.749146 -54.798595 125.20076 8287853
78.949409 -54.767479 125.60683 9011576
78.1502 -54.73827 126.01176 9274748
77.191833 -54.705494 126.49654 7564651
76.23407 -54.675274 126.98003 8156531
75.276848 -54.647614 127.46218 9602945
74.479507 -54.626419 127.86306 10129289
73.682411 -54.607094 128.26306 9011324
72.726212 -54.58617 128.74208 8353909
71.770233 -54.567753 129.21989 10261387
70.814407 -54.551899 129.69667 10130309
70.017982 -54.54055 130.09334 9341307
69.221619 -54.53112 130.4893 9538949
68.265915 -54.522026 130.96359 8947070
67.251694 -54.593601 131.43433 9538691
66.324318 -54.694252 131.85062 9735812
65.527679 -54.692707 132.24355 9866886
64.730743 -54.693069 132.63588 9274237
63.820984 -54.649769 133.10127 8813686
62.844795 -54.517857 133.63501 10063753
61.886467 -54.525482 134.10388 9537664
60.986038 -54.571468 134.52887 9932166
60.229088 -54.508038 134.92709 9932166
59.327278 -54.558094 135.35107 9143420
58.366009 -54.574886 135.81775 8617336
57.403702 -54.594254 136.28387 10261901
56.499405 -54.477783 136.77597 9866375
55.743587 -54.425636 137.08441 8748666
54.924156 -54.462402 137.1143 8617080
119.38062 -53.364071 103.88863 10985361
118.60105 -53.512489 104.47047 11380120
117.86992 -53.721218 104.98348 8616819
117.09863 -53.620365 105.67554 9077114
116.30937 -53.64193 106.32514 8090737
115.69283 -53.935501 106.70248 8617082
72.664314 -54.03368 128.99467 8814203
71.866547 -54.018734 129.39326 10656145
70.909424 -54.002975 129.87061 10130309
70.111824 -53.991665 130.26768 9341307
69.314331 -53.982288 130.66402 8092019
68.357277 -53.973309 131.13896 8092019
67.40007 -53.966702 131.61295 8814968
66.442703 -53.962654 132.08603 9735812
65.644623 -53.961155 132.47968 9537921
64.805405 -53.815254 132.95152 8945272
63.916233 -53.781155 133.40309 8550514
62.956833 -53.78619 133.87355 9735043
61.996834 -53.79369 134.34329 9866630
61.196285 -53.801826 134.7343 9735043
60.395222 -53.811768 135.12483 9340541
59.398548 -53.748196 135.6412 9274749
58.49614 -53.659458 136.12122 8617336
57.5317 -53.678516 136.58849 9340801
56.752449 -53.51305 137.03867 8879995
55.8708 -53.593746 137.37561 8156530
54.806881 -53.598156 137.46042 7564394
53.973682 -53.264515 137.61275 7038307
121.01527 -52.285816 103.02905 9868171
120.37729 -52.441628 103.48902 8683893
119.64176 -52.648373 104.00663 9735553
118.86679 -52.544415 104.70325 10787986
118.07728 -52.497833 105.38503 8880764
117.30825 -52.847069 105.86372 9012350
55.668465 -52.962402 137.69258 7564651
54.921383 -52.561695 137.86954 8748667
53.891396 -52.510254 137.91446 7893615
53.108429 -52.324104 138.00697 8617081
122.11825 -51.330837 102.55584 8881277
121.33135 -51.459377 103.15314 10130572
120.59293 -51.665672 103.67338 11840416
119.71638 -51.611019 104.43171 9274748
119.01765 -51.634731 105.0046 9537920
54.712185 -51.763924 138.19147 10261391
53.923702 -51.635887 138.26108 9011582
52.897324 -51.530388 138.32739 8879996
52.153057 -51.137634 138.5011 8617080
123.92179 -50.205566 101.57723 9144192
123.04295 -50.601074 102.12592 8881020
122.31505 -50.63102 102.72024 9340804
121.50348 -50.538315 103.44209 10458767
120.7161 -50.6861 104.03078 12168867
119.97677 -50.936848 104.53083 7958632
53.841705 -50.823345 138.58589 10392974
53.005142 -50.496475 138.7356 12497834
52.001884 -50.457752 138.77481 8485494
124.73363 -49.527153 101.21752 9933448
124.042 -49.518269 101.79977 10722710
123.24839 -49.662674 102.39523 9407365
122.51115 -49.61375 103.03436 8552057
121.76859 -49.803616 103.56578 8814459
52.880745 -49.635979 139.08044 14076861
51.991646 -49.670822 139.08783 9735815
51.202026 -49.474834 139.18484 8880763
50.554848 -49.173061 139.3206 8814203
126.55817 -48.40316 100.22077 8616823
125.756 -48.58709 100.80482 7697260
125.00991 -48.640835 101.40311 8881019
124.2221 -48.487137 102.1338 10656916
123.49621 -48.786156 102.59991 12498609
122.87755 -48.844826 103.08947 10065038
52.238686 -48.847607 139.40927 10065035
51.402054 -48.527428 139.55698 8092016
50.391094 -48.434711 139.61833 8092011
128.34901 -47.235943 99.272537 7301214
127.51826 -47.459869 99.86161 8682616
126.78618 -47.577644 100.41811 7893358
126.00295 -47.578678 101.07224 7959663
125.19175 -47.607845 101.73655 10262157
124.54151 -47.762897 102.20717 9736070
51.273468 -47.669823 139.90132 8092013
50.347393 -47.60387 139.94997 8552305
49.410912 -47.50425 140.0123 10854293
130.11832 -46.184521 98.406891 9932166
129.27768 -46.444069 98.917023 8879990
128.60428 -46.537853 99.419441 6511954
127.7732 -46.592407 100.05999 8682613
126.88218 -46.53088 100.84779 8222322
126.04298 -46.93536 101.34109 9538435
125.50837 -47.03167 101.74271 10854036
50.39637 -46.746471 140.28993 9999239
49.418999 -46.541546 140.39516 11051415
48.444057 -46.339096 140.4993 9735812
132.36929 -45.170624 97.137131 9209467
131.87622 -45.280186 97.591347 12234919
131.19461 -45.459793 98.170311 14800331
130.44096 -45.585506 98.732765 11839649
129.60033 -45.626255 99.393906 9735043
128.60231 -45.892773 99.962105 7301214
127.90203 -46.031361 100.4089 10261132
49.321377 -45.719822 140.84134 11249051
48.488892 -45.528896 140.99802 10854037
47.789837 -45.315434 141.17218 8748917
47.032349 -45.323055 141.16931 8288371
135.21817 -44.268433 95.766472 9209726
134.72656 -44.257969 96.395256 10656656
133.80731 -44.364628 96.959366 11709087
132.86514 -44.643711 97.254875 9209467
132.2606 -44.664635 97.940865 10459278
131.58408 -44.785473 98.522926 12826543
130.49118 -45.090668 99.182564 10853012
47.669201 -44.825806 141.56555 8748918
46.833961 -44.655251 141.71268 8814713
45.833008 -44.344837 142.12408 9077883
44.930599 -44.233692 142.25037 9209467
150.50635 -43.510788 87.955193 7038307
149.96428 -43.572186 88.771629 7761514
149.37514 -43.752884 89.396629 9932678
147.58383 -43.809425 89.289742 9537408
147.15121 -43.807842 89.998154 10656145
146.71585 -43.806263 90.704796 13551549
144.22789 -43.806896 91.337212 8683124
143.78583 -43.805367 92.029625 9933191
141.32727 -43.806072 92.625648 10063750
140.99127 -43.804958 93.134636 10063750
140.54059 -43.803478 93.811485 8353647
138.18329 -43.827736 94.414177 10459278
137.56818 -43.81221 95.2127 8089963
136.72943 -43.984779 95.363319 10063750
135.83478 -44.028423 96.20388 10656656
45.136505 -44.032436 142.90527 9209467
44.229378 -43.987598 143.02521 10261643
43.347725 -43.831219 143.60036 8879995
42.322777 -43.756413 144.21382 9603717
41.453415 -43.75655 144.46518 8156270
40.582497 -43.756699 144.71085 6248786
39.535492 -43.756905 144.99904 7170402
37.782028 -43.753212 146.90755 8287859
37.073711 -43.753391 147.08665 7564136
36.187138 -43.753639 147.30634 10261387
35.281071 -43.533669 147.7077 9866629
34.566151 -43.321697 147.59485 9734787
151.22852 -42.321861 87.563622 8288621
150.78485 -42.478767 88.217751 7300963
150.29567 -42.808895 88.803917 7366239
35.051548 -42.669926 148.064 8681843
34.482792 -42.504604 147.88242 8682874
151.97897 -41.272461 87.022469 10853012
151.54706 -41.439247 87.6492 9275008
151.11865 -41.550552 88.309738 7564135
34.328098 -41.560863 148.18877 8354165
152.26962 -40.571232 87.025505 10854036
151.75531 -40.639439 87.865707 9143422
34.101639 -40.689198 148.43364 11183003
33.49469 -40.504642 148.24298 9735559
152.9971 -39.37899 86.62722 9932932
152.55106 -39.534809 87.286148 9275263
152.05888 -40.00774 87.796227 10854036
34.07019 -39.952213 148.70995 10262156
33.339371 -39.43103 148.59804 9406848
153.75298 -38.326603 86.078835 10656398
153.31854 -38.492676 86.710251 9735810
152.88791 -38.602871 87.375526 9209467
33.370525 -38.56686 148.95157 8946303
32.755291 -38.477741 148.7198 9538437
154.04613 -37.622478 86.079491 10327946
153.52914 -37.689137 86.925453 11379863
32.580372 -37.585251 148.99509 10525332
31.851231 -37.07259 148.88055 11709348
154.77927 -36.425842 85.674461 9736835
154.33069 -36.581036 86.33831 10262409
153.84433 -36.913502 86.939697 12103329
32.421082 -36.511833 149.34831 9867403
31.770294 -36.453575 149.08902 10129803
155.10394 -35.535297 85.755135 9802628
154.67088 -35.644688 86.425217 9868166
32.394123 -35.684345 149.6622 9867403
31.629967 -35.537064 149.38875 9669253
155.83698 -34.662052 85.117241 9868166
155.31705 -34.727501 85.96907 10065289
31.551197 -34.527721 149.75169 8222322
30.855251 -34.386486 149.5054 9143166
156.57687 -33.460133 84.705864 8813685
156.08157 -33.667858 85.411758 9275007
155.58659 -33.876251 86.116844 9143680
30.928413 -33.560474 149.86218 7367270
156.90544 -32.564739 84.784508 9077627
156.38666 -32.708344 85.577065 9472387
30.663403 -32.656731 150.10278 8485744
30.082401 -32.221539 150.02206 9143418
157.67369 -31.372721 84.317276 9932166
157.15076 -31.6604 85.013206 9669766
30.668549 -31.802517 150.44116 9011576
29.952034 -31.499153 150.24973 9340797
158.50671 -30.27346 83.78257 10261132
157.98532 -30.477386 84.482445 9603458
157.46286 -30.68152 85.180367 9340286
29.825298 -30.660049 150.53621 10064776
29.150616 -30.353193 150.38647 9933190
160.23798 -29.113958 83.222473 7038307
159.64859 -29.289152 83.649368 8090736
158.84741 -29.706425 84.059822 9471872
158.35117 -29.863178 84.677345 9340286
29.633728 -29.884018 150.93628 9011576
28.942268 -29.530888 150.93643 9471615
28.172012 -29.091072 151.18352 10458254
27.932594 -28.825441 151.93678 7563619
27.150024 -28.773357 151.78636 10129545
26.213253 -28.75054 151.82101 8682867
22.673115 -28.746248 154.55539 7564651
21.927849 -28.746672 154.66183 8617337
20.809208 -28.747326 154.81514 10788247
19.961205 -28.468906 155.60828 11313819
19.265221 -28.190767 155.62555 8616307
19.233208 -27.5014 155.8833 8089962
19.071724 -26.699295 156.12941 7037274
18.487122 -26.312099 156.0282 7827302
18.323002 -25.547836 156.25818 8024938
18.250229 -24.655434 156.57829 7696231
17.566418 -24.548338 156.32367 5393738
18.00127 -23.828745 156.79602 6446423
17.548275 -23.480604 156.7366 6249044
17.247746 -22.716856 156.90712 8486003
16.728577 -22.353432 156.82498 8090987
17.284191 -21.888052 157.24937 8684155
16.551796 -21.412888 157.11862 8749432
16.45797 -20.545576 157.4194 11907239
15.747674 -20.273434 157.21831 11907239
16.363014 -19.932602 157.61958 12696498
15.782617 -19.40905 157.57379 11511966
15.494557 -18.588873 157.77177 9538691
15.023755 -18.334263 157.66774 9538691
15.452882 -17.596027 158.14464 8223347
14.85299 -17.563862 157.89696 7565675
14.688878 -16.601982 158.20451 7959918
14.581147 -15.895582 158.43585 7959147
14.002393 -15.49276 158.42418 8287597
13.721471 -14.739184 158.89494 8287341
13.014279 -14.469429 158.89792 7892583
12.267064 -14.094379 159.20779 7037274
11.354486 -13.752995 159.95151 7432290
10.574727 -13.742937 159.8748 7037274
4.0999608 -13.419542 163.58855 12170154
3.9480522 -12.504242 163.88277 9999499
3.3095634 -12.602956 163.56689 9209467
3.7122505 -12.021222 163.97054 9209467
3.3173072 -11.499052 164.00461 9077627
3.1234443 -10.612971 164.26918 9011579
2.5255516 -10.597344 164.01591 13024433
2.9285591 -9.8102312 164.50037 9011579
2.4170082 -9.5412073 164.38431 13287605
2.2157676 -8.6341772 164.65387 11248279
1.737847 -8.3842087 164.5448 8682867
2.1390083 -7.7900133 164.9527 8682867
1.4556128 -7.5193658 164.76273 8682867
1.3438193 -6.5690522 165.08809 8682867
1.2118613 -5.8269482 165.32281 9209467
0.61338109 -5.4150729 165.22523 9077625
0.46717137 -4.5764785 165.49176 8485232
-0.25096828 -4.3264599 165.27853 7037274
0.34696263 -3.7218189 165.77621 7432801
-0.25254756 -3.351074 165.66222 6774872
-0.33397609 -2.534961 165.94875 8946812
-1.0529779 -2.2870464 165.73434 10985881
-0.55619746 -1.571929 166.23206 10985881
-1.2158655 -1.3864383 166.01889 10196366
-1.1400598 -0.48269722 166.4733 10591123
-1.861503 -0.23657271 166.35513 8485238
-1.46569 0.17746973 166.87003 11379356
-2.1884377 0.42403215 166.75864 10195340
-3.2883828 1.0066242 167.42697 9932169
-3.8878624 1.0037405 167.16165 9931651
-11.032584 1.6752114 171.46278 8813945
-11.845977 1.8839602 171.21173 9734788
-11.186477 2.4585395 171.68419 7893358
-11.729407 2.5974703 171.51642 9077116
-11.884963 3.3828137 171.74962 9077115
-12.074538 4.3721414 172.05945 8485490
-12.627036 4.5606718 171.91548 10853777
-12.756629 5.5325465 172.24222 9735554
-12.985213 6.3985238 172.4888 9209210
-13.593596 6.3899951 172.24622 10656398
-13.627257 7.4797697 172.65651 9077368
-13.864814 8.5712824 172.98727 9735043
-14.474166 8.5604496 172.74345 9208955
-14.502883 9.4397068 173.07379 9537664
-14.735541 10.318541 173.32381 9275003
-15.35308 10.527182 173.16208 10261641
-14.757628 10.983076 173.57335 10261641
-15.39125 11.635956 173.57794 8682867
-15.626166 12.522635 173.83015 9077368
-16.237175 12.507771 173.58409 8682867
-15.853782 13.188469 173.99933 10261641
-16.352554 13.445051 173.90285 11379350
-16.444687 14.375517 174.26552 9997699
-17.140785 14.734052 174.15182 9010805
-16.333824 14.98385 174.58046 9143681
-17.260551 15.595324 174.494 9010805
-19.939888 16.495546 176.34818 8090987
-20.793877 16.719141 176.27998 8354159
-21.64827 16.942898 176.21184 9866627
-20.829483 17.524916 176.57214 7564390
-21.685326 17.749542 176.50406 8353903
-20.865974 18.334528 176.871 6511962
-21.732719 18.568546 176.88033 8617076
-22.597382 18.799927 176.86359 9142907
-22.657272 19.410023 177.32567 9472383
-23.328102 19.769911 177.46307 9143419
-23.591385 20.261047 177.80168 9143162
-24.535049 20.783932 178.30872 9602945
107.54931 -55.126484 111.07633 8156787
105.47039 -55.313606 112.12347 9208443
104.81295 -55.252171 112.50399 9208443
103.99258 -55.176979 112.97828 9537918
103.12696 -55.292358 113.39893 8551280
102.10073 -55.395222 113.91155 11116948
101.28668 -55.325844 114.38003 10524811
100.45908 -55.25016 114.82931 6643031
99.354973 -55.243908 115.37518 7432801
98.6259 -55.337425 115.69639 9011578
97.713333 -55.384129 116.12671 9604227
96.723015 -55.298775 116.64836 9735812
95.899452 -55.229691 117.08137 9407364
95.077744 -55.162701 117.51272 9604743
94.25737 -55.097504 117.94263 14339781
114.35344 -54.388737 107.609 7827565
113.76877 -54.408825 108.00883 8945531
112.84159 -54.454391 108.49125 9274750
111.97573 -54.606384 108.89693 8419952
111.13565 -54.516586 109.38773 9341054
110.24673 -54.619255 109.82607 8682616
109.41158 -54.53326 110.31269 8024687
108.5064 -54.507 110.81273 9800839
107.62168 -54.58847 111.25762 7893615
106.65498 -54.650375 111.75483 12367020
105.82919 -54.572121 112.23326 9997959
105.00538 -54.49593 112.70978 10129801
103.97154 -54.59584 113.22769 9537917
103.09101 -54.633873 113.68809 7959144
102.28755 -54.641785 114.1192 9537918
101.41445 -54.513382 114.64262 6511954
100.59072 -54.542385 115.04899 6775126
99.597961 -54.59547 115.51624 6709333
98.706413 -54.630627 115.9408 8485744
97.892609 -54.636127 116.33911 9735812
96.900185 -54.551785 116.86139 9735812
96.074951 -54.483551 117.29494 10130574
95.208015 -54.603657 117.67328 9604743
94.157112 -54.602512 118.1909 14931916
93.359962 -54.649899 118.5641 12037798
92.542076 -54.589355 118.99088 10327438
91.562317 -54.519062 119.50118 8419440
90.614975 -54.500496 119.97475 7958633
89.730339 -54.582241 120.3771 7301222
88.918495 -54.529617 120.79768 7696235
87.945808 -54.468906 121.30069 7827049
87.047165 -54.377651 121.77944 9340027
86.255608 -54.406746 122.15722 9669505
85.359344 -54.319767 122.63314 9998984
84.448784 -54.308762 123.08555 9011576
83.388199 -54.40414 123.56898 9143936
82.584366 -54.365475 123.97999 8617849
81.781296 -54.328709 124.3899 9274750
80.818512 -54.286858 124.88038 9866629
79.856659 -54.247547 125.36942 8485489
79.055779 -54.216721 125.7759 8090987
78.255455 -54.187771 126.1813 9932166
77.295715 -54.155262 126.66666 10919062
76.336601 -54.125298 127.15066 9603717
75.378029 -54.097862 127.6334 9142394
74.579575 -54.076881 128.03474 10853012
74.100609 -54.065121 128.27528 10853012
116.18934 -53.178333 106.64328 7564651
115.49894 -53.455574 107.09004 7959409
114.78471 -53.498112 107.66705 9669255
113.95907 -53.507629 108.27516 9340288
113.05447 -53.580517 108.73426 8287859
112.12183 -53.589306 109.23472 7959401
111.28199 -53.60656 109.68151 9077882
110.40382 -53.572182 110.17023 9274751
109.4968 -53.564594 110.66357 8287859
108.5828 -53.620708 111.13454 9143424
107.72228 -53.53059 111.63659 7564651
106.89533 -53.556446 112.07299 9341059
105.90673 -53.610321 112.58533 10261900
105.08089 -53.535549 113.06232 9538433
104.20948 -53.651688 113.48588 7433056
103.33083 -53.520687 114.01451 8288366
102.51511 -53.555061 114.44135 9077881
101.6055 -53.541664 114.93694 6511954
100.70789 -53.545338 115.39206 9998467
99.826523 -53.658134 115.78042 6511954
98.826675 -53.570694 116.30759 7827558
97.995407 -53.499901 116.74519 9735812
97.188072 -53.541695 117.12565 10459278
96.129066 -53.537491 117.64852 10065036
95.318474 -53.717682 117.975 9078656
94.436913 -53.595627 118.45786 11708834
93.450806 -53.522194 118.97266 8748666
92.630623 -53.462944 119.40012 10261646
91.770317 -53.591225 119.77192 8682868
90.725822 -53.600922 120.28191 8287598
89.933739 -53.656227 120.64937 8090736
89.119896 -53.604443 121.07061 8551030
88.144737 -53.544571 121.57442 8156013
87.171188 -53.487316 122.0765 10919057
86.377846 -53.517128 122.45479 9208441
85.513313 -53.582043 122.854 8156011
84.481689 -53.608112 123.3511 6839895
83.538467 -53.667637 123.79123 8092019
82.733017 -53.629383 124.20287 9012093
81.928413 -53.593048 124.61333 9537666
80.963768 -53.551693 125.10457 9603201
80.000092 -53.512871 125.59432 9142905
79.197685 -53.482365 126.00137 9143159
78.395821 -53.453728 126.4074 9800576
77.399635 -53.605011 126.83677 11642781
76.439171 -53.575325 127.3214 9669252
75.479248 -53.548145 127.80468 9471615
74.67968 -53.527325 128.20657 10853012
73.815735 -53.644749 128.58446 10261133
72.953125 -53.567142 129.04016 8222580
71.962852 -53.469677 129.56667 11116438
71.004372 -53.45406 130.04459 9078392
70.205742 -53.442856 130.44212 8092011
69.407051 -53.433521 130.83891 9867657
68.448654 -53.424522 131.3143 9275777
67.490143 -53.417992 131.78886 9209726
66.531425 -53.413971 132.2626 9406847
65.732277 -53.412518 132.65675 8814198
65.027191 -53.321243 133.04062 9537409
64.001572 -53.232433 133.58141 9734788
63.040878 -53.2374 134.05247 9735043
62.079559 -53.244907 134.52293 9866630
61.277977 -53.252956 134.91449 9735043
60.475826 -53.262753 135.30551 8814453
59.673141 -53.274212 135.6962 9208955
117.80868 -52.089584 105.80132 9012350
117.26782 -52.452217 106.08302 9012350
116.4901 -52.606441 106.66059 8748923
115.62036 -52.561733 107.40856 9340548
114.89614 -52.526318 108.03056 10721942
114.04394 -52.61087 108.59413 8090737
113.22512 -52.573677 109.05465 8156273
112.32604 -52.676582 109.49832 8222573
111.48153 -52.58979 109.99032 9077370
110.58865 -52.695656 110.42951 9735045
109.6081 -52.755138 110.93507 9867145
108.78484 -52.753304 111.38072 7564651
107.91899 -52.729321 111.85854 8090994
106.97897 -52.738964 112.36263 7564651
106.10069 -52.85297 112.79074 8419952
105.22506 -52.96825 113.21687 7564643
104.39988 -52.896214 113.69241 7169885
103.41195 -52.81216 114.26086 7564642
101.51394 -53.040871 115.19162 7630434
100.84644 -52.982056 115.55025 11182484
100.00947 -52.908077 115.99189 6511954
99.007469 -52.821751 116.51967 7433056
98.174393 -52.751724 116.95775 10590864
97.241447 -52.827862 117.3863 12629675
96.304222 -52.791183 117.86226 12169128
95.477043 -52.726963 118.29513 9407364
94.608627 -52.850945 118.67267 9209985
93.620499 -52.77837 119.18811 7564651
92.798569 -52.71983 119.61609 10261646
91.93663 -52.848854 119.98844 9340798
90.954361 -52.783047 120.49828 8221804
89.973938 -52.719814 121.00613 8419186
89.15818 -52.669022 121.42791 9669508
88.343712 -52.620132 121.84831 10261645
87.367691 -52.563725 122.35115 11380124
86.434349 -52.57428 122.80611 8485488
85.655701 -52.703796 123.13713 7104098
84.734207 -52.610001 123.62824 8288370
83.763824 -52.562706 124.12466 8485749
82.897423 -52.469479 124.58841 8945786
82.099533 -52.533718 124.95512 9603457
81.181664 -52.448853 125.44082 9208956
80.179359 -52.594395 125.87541 9471868
79.214241 -52.55862 126.36466 10063749
78.410561 -52.530632 126.77133 9734782
77.57283 -52.687946 127.12035 10590095
76.610092 -52.658665 127.60589 9734788
75.647942 -52.63187 128.09013 9669250
74.846466 -52.611347 128.49278 9800837
74.045319 -52.592632 128.89453 9208955
73.084236 -52.572357 129.37566 7827558
72.123405 -52.554535 129.85565 8945783
71.16272 -52.539135 130.33461 9209211
70.362244 -52.528149 130.73293 11051415
69.56176 -52.518898 131.1306 10854805
68.60112 -52.510006 131.6069 10854805
67.640327 -52.503513 132.08231 9867398
66.679405 -52.499485 132.55695 8485748
65.878456 -52.497967 132.95197 7367525
65.077225 -52.498276 133.34639 9143165
64.115341 -52.500767 133.81912 9537666
63.152935 -52.505714 134.29106 9340285
62.189949 -52.513077 134.76236 9340542
61.386951 -52.521011 135.15466 9274747
60.58337 -52.530739 135.54651 8682611
59.618286 -52.544598 136.01617 9735044
58.652313 -52.560867 136.48535 8222579
57.685341 -52.579582 136.95401 7893615
56.878738 -52.597 137.34428 7696237
56.113155 -52.564976 137.71837 8617080
55.406631 -52.203091 138.00055 10853012
118.89393 -51.365032 105.23477 9537920
118.25786 -51.525463 105.69099 8092019
117.38119 -51.624485 106.3772 8749435
116.6521 -51.691036 106.95539 9275266
115.9016 -51.646175 107.60368 12958646
115.13223 -51.82095 108.16465 11905959
80.224274 -51.948376 126.11314 9603455
79.355858 -51.824173 126.59032 10195079
78.550659 -51.796532 126.9976 9603195
77.746048 -51.770714 127.40395 9734788
76.781036 -51.741879 127.89039 10129545
75.816635 -51.715485 128.3756 9340541
75.013313 -51.695259 128.77902 9208955
74.210304 -51.676861 129.18161 9603457
73.246994 -51.656898 129.66371 8682611
72.283951 -51.639336 130.14465 8814197
71.321083 -51.624157 130.62462 9209211
70.518761 -51.613274 131.0238 11906724
69.716461 -51.604195 131.42224 10130313
68.753632 -51.595402 131.89957 9537920
67.790703 -51.58902 132.37601 9012091
66.827545 -51.585007 132.85164 8156785
66.024696 -51.583454 133.24734 7038819
65.221634 -51.583672 133.64255 8222834
64.257591 -51.586109 134.11627 9472130
63.293037 -51.590981 134.58931 8748149
62.327911 -51.598209 135.06169 9603202
61.507214 -51.496567 135.5067 9208439
60.744637 -51.432549 135.9079 8353134
59.777035 -51.44611 136.37897 10195334
58.808502 -51.462109 136.84955 8879735
57.924122 -51.530937 137.25743 8287599
57.157974 -51.449127 137.66759 8749178
56.219833 -51.515648 138.10008 9143422
55.25127 -51.455833 138.30109 10129546
119.98949 -50.405277 104.77002 7037274
119.15592 -50.543842 105.40157 8879990
118.423 -50.608044 105.98402 8289140
117.64565 -50.510105 106.67981 10327952
116.76563 -50.758991 107.29838 11643299
68.845177 -51.046577 132.07521 9208699
67.880913 -51.040234 132.55231 9012091
66.916451 -51.036289 133.02853 8156785
66.112526 -51.034718 133.42474 7038819
65.308372 -51.03495 133.82042 8091248
64.342972 -51.037277 134.29457 9866631
63.37711 -51.04208 134.7683 8287854
62.368279 -50.903355 135.3208 8419440
61.694885 -50.812305 135.68895 8089963
60.8522 -50.700298 136.14896 8550512
59.882881 -50.713699 136.6209 9142906
58.912659 -50.729446 137.09235 8089963
58.103401 -50.744373 137.48488 8089963
57.248783 -50.615734 137.95741 7894383
56.345222 -50.599731 138.40884 9603716
55.218666 -50.617348 138.63506 9208955
54.271667 -50.502819 138.70305 9669504
122.17819 -49.196316 103.50883 9735302
121.65097 -49.295181 103.90299 9735302
120.89256 -49.51231 104.43488 8616822
120.16616 -49.54813 105.02517 7498081
119.37151 -49.621067 105.65504 8616819
118.5407 -49.614815 106.35233 9209469
55.135777 -49.860661 138.93764 9340540
54.293388 -49.532501 139.08804 9998469
53.40202 -49.371635 139.17314 13550775
123.486 -48.289234 102.842 13024696
122.58886 -48.588661 103.45116 10722198
121.82127 -48.541012 104.11507 10985110
121.09212 -48.57637 104.70788 8682358
120.22516 -48.684013 105.38192 8879222
119.46833 -48.904495 105.91084 8089963
54.214794 -48.795174 139.38281 8682867
53.607254 -48.51749 139.50764 9209468
52.666134 -48.524841 139.52739 11709344
124.40199 -47.455399 102.4683 10591124
123.53429 -47.583618 103.13321 11183006
122.80998 -47.708057 103.68008 9275522
122.02251 -47.603615 104.38734 10326668
121.26112 -47.822411 104.92097 8353135
120.73356 -47.923817 105.31414 11379356
53.525101 -47.87812 139.76392 8946555
52.682823 -47.556648 139.9122 8486776
51.699471 -47.345642 140.01999 8092015
126.11542 -46.414753 101.56519 9538435
125.31583 -46.575588 102.14906 9538692
124.55451 -46.521431 102.82668 9998986
123.79977 -46.57782 103.41676 9670277
123.03536 -46.674206 103.9776 9209727
122.38766 -46.833618 104.44405 10459023
52.555519 -46.696201 140.25769 8289140
51.753605 -46.487076 140.36525 8157807
50.820904 -46.421124 140.40912 8092011
129.37723 -45.38755 99.817268 9735043
128.93239 -45.357712 100.21828 6511954
128.08224 -45.487385 100.79901 9208958
127.23417 -45.617985 101.37708 10261387
126.43481 -45.673603 101.9891 10130058
125.65203 -45.705097 102.61125 9735814
124.9569 -45.847858 103.04992 8881020
51.559517 -45.902855 140.68477 8025454
50.690643 -45.652592 140.88928 7894123
49.871101 -45.479263 141.03185 7301985
49.160339 -45.159943 141.29099 11906725
133.49257 -44.23407 97.961662 11577759
132.59839 -44.280941 98.785774 13156278
131.55582 -44.528229 98.996452 11839649
130.70604 -44.682564 99.511002 11510685
129.99312 -44.767262 99.992859 11050389
129.11497 -44.811012 100.60908 8880503
128.38493 -44.825798 101.20362 9735555
127.8174 -44.913857 101.58988 10590095
50.113728 -44.823582 141.55728 7827819
49.107903 -44.662304 141.69101 9603969
48.157574 -44.36956 142.10248 9077369
47.135998 -44.134178 142.63083 10195594
46.226498 -44.087395 142.75746 9012091
149.28403 -43.463173 89.666931 10129801
148.6358 -43.49654 90.416771 9801092
147.9884 -43.530964 91.165001 9209467
146.49673 -43.805477 91.05732 10656657
146.05573 -43.803921 91.760475 10656657
145.61189 -43.802372 92.461861 10656657
143.22841 -43.803471 92.892059 9998471
142.66608 -43.801582 93.75135 9866373
140.20058 -43.80238 94.317818 8682867
139.74396 -43.800919 94.990562 9011579
139.28455 -43.799465 95.661591 7564651
136.84532 -43.800373 96.180733 9010808
136.26306 -43.798615 97.00132 9209726
135.09357 -44.012875 97.150826 12103586
134.4738 -44.000813 97.937691 13551033
134.1011 -43.993942 98.408905 12104103
46.439297 -43.884468 143.41731 9537152
45.526413 -43.838608 143.54057 9209467
44.4324 -43.784691 143.68478 9209467
42.012947 -43.752342 145.75916 9538176
41.134357 -43.752491 146.00854 6379601
40.254112 -43.752659 146.25241 5392706
39.195965 -43.752884 146.53815 6445912
38.312714 -43.753078 146.7706 7038307
36.444736 -43.45018 148.36009 11314588
35.821651 -43.346462 148.13043 10261387
150.12973 -42.517193 89.193146 7366239
149.43573 -42.690136 89.919853 9471871
148.7865 -42.724209 90.6707 10655889
36.314259 -42.692539 148.60371 12169897
35.7439 -42.489147 148.43652 9669252
150.85947 -41.480347 88.808632 7826790
150.34206 -41.552631 89.480888 8024169
149.67587 -41.779049 90.1446 8484976
149.09451 -42.031086 90.693367 9932678
35.459728 -41.635265 148.65041 8616823
34.786739 -41.16209 148.54475 9011838
151.12027 -40.638176 88.960701 7761514
150.49988 -40.614334 89.818558 8945271
35.653343 -40.930027 149.01184 8090995
34.978844 -40.457649 148.90517 8814198
151.95296 -39.44471 88.385361 9735814
151.41245 -39.705269 89.131065 9275008
150.83386 -39.990795 89.771118 9932678
34.692371 -39.605644 149.11617 8090218
34.123882 -39.410542 148.9464 9143419
152.62762 -38.531155 87.877388 8880507
152.20367 -38.529991 88.61129 10261645
151.71359 -38.740757 89.306709 11379356
34.610062 -38.747993 149.41786 7037274
34.00684 -38.476063 149.26324 7695719
152.89264 -37.685741 88.028534 8354418
152.37521 -37.754807 88.873482 8814460
33.822556 -37.610271 149.52399 8090736
33.080498 -37.243771 149.34634 8090995
153.7032 -36.459656 87.510902 10591121
153.18661 -36.748257 88.196159 8552054
33.752617 -36.786758 149.81766 8946303
33.092747 -36.389744 149.68764 9867403
154.4093 -35.571594 86.93013 10261902
153.98331 -35.568855 87.668839 9144190
153.49052 -35.779068 88.369438 8091760
33.066795 -35.511932 150.02177 11511968
154.67726 -34.721863 87.079491 10590866
154.15712 -34.789528 87.930183 7039073
32.908489 -34.650322 150.29211 7103324
32.337177 -34.503128 150.10228 6709336
155.44966 -33.518852 86.61132 10261902
154.9324 -33.799431 87.303413 9143680
154.45117 -34.080872 87.932625 8090995
32.174183 -33.558601 150.40317 7235677
156.2742 -32.385746 86.004196 9012350
155.77786 -32.595028 86.710762 10196621
155.28174 -32.804924 87.416412 9143680
31.940361 -32.68906 150.64391 8288365
31.330681 -32.523411 150.44463 7367263
157.11139 -31.107416 85.480324 9932681
156.5376 -31.653229 86.077736 8880764
155.95438 -31.81106 86.971535 8815228
31.903049 -31.948164 150.91927 9209467
31.166702 -31.447441 150.79686 8024937
157.31641 -30.426786 85.688759 9801094
156.71454 -30.760864 86.440323 9735302
156.25182 -31.098534 86.971916 8092019
30.985313 -30.552498 151.0703 8089963
30.369965 -30.484339 150.83623 8550769
159.60117 -29.10586 84.360123 10261132
158.25696 -29.616631 85.215012 8748405
157.72513 -29.719416 85.976128 8617076
30.350388 -29.727627 151.37094 8353391
29.59581 -29.30864 151.38866 8089963
160.91835 -28.811205 84.068916 8419700
159.28177 -29.102114 84.928238 10261132
158.96182 -29.098669 85.495926 7564643
29.312408 -28.92156 152.2155 8616307
28.523106 -28.866428 152.05663 7563619
25.83392 -28.74457 154.06197 10524556
25.091122 -28.744946 154.18378 9932419
24.161743 -28.745434 154.33099 8814203
23.231537 -28.745937 154.47299 7564651
21.4011 -28.637634 156.37662 9143681
20.684975 -28.345442 156.18091 9011838
20.578617 -27.558033 156.44508 8090479
19.845039 -27.367538 156.20172 7037274
20.288021 -26.653099 156.67557 8616307
19.726547 -26.529701 156.48047 7300447
19.538456 -25.458437 156.82101 9076858
19.585907 -24.517378 157.21249 6511954
18.979992 -24.469982 156.96817 7695973
18.771698 -23.556044 157.23795 7827814
18.03624 -23.076124 157.10788 8486000
18.597492 -22.611738 157.53441 8946551
17.931309 -22.437979 157.31372 9407358
18.492756 -21.971489 157.74107 9933702
17.839836 -21.504696 157.64151 10328719
17.878044 -20.662247 157.98975 9539462
17.211525 -20.492491 157.76738 10789016
17.772083 -20.020296 158.19659 8684155
17.034359 -19.545704 158.06331 11907239
16.785679 -18.510241 158.3631 9276291
16.217247 -18.592176 158.08415 9078655
16.208454 -17.589024 158.47536 8814970
15.962445 -16.602499 158.75703 9998730
15.373609 -16.189697 158.664 9604229
15.93094 -15.704631 159.09691 10064779
15.222352 -15.447634 158.97267 8946300
14.981561 -14.917137 159.29701 7893098
14.351304 -14.461761 159.46997 7366239
13.456914 -14.133213 159.58194 9208443
12.546361 -13.789984 160.32379 6511962
5.299706 -13.46085 164.0928 12564908
5.3109822 -12.468136 164.48831 11380891
4.7088094 -12.44899 164.23459 11249563
4.518311 -11.448475 164.54559 8354677
4.324883 -10.644789 164.77789 7038307
3.8584602 -10.432427 164.65912 8353651
3.6813896 -9.57794 164.91844 7761772
3.5376365 -8.6216402 165.23235 7038307
2.9355171 -8.609026 164.97604 8945786
3.3407829 -8.0139694 165.38602 7038307
2.741204 -7.5493956 165.30865 9537920
2.7462013 -6.5903649 165.68816 9077625
2.1436927 -6.5811553 165.43039 8682867
2.5490272 -5.7770166 165.92264 8617075
1.8611227 -5.5073152 165.73024 8946295
1.7490851 -4.6500454 166.01898 9209468
1.1474539 -4.339097 165.88031 9735812
1.7515799 -3.7323899 166.38179 8354159
1.0627524 -3.464678 166.18834 8814710
0.86858433 -2.5401804 166.46869 8419952
0.14576785 -2.2914133 166.25299 10985881
0.94951695 -1.8835883 166.76279 7893608
0.19541995 -1.4191039 166.61862 9078398
0.063805267 -0.48146689 166.99619 7828589
-0.66071254 -0.23462933 166.87663 13024949
-0.74384242 0.34570426 167.31964 10196366
-1.4692682 0.59252089 167.20714 11379356
-1.8827738 1.0134017 168.04913 8485238
-2.4863198 1.0105088 167.78197 10655634
-9.7339087 1.6395631 171.97134 8419184
-10.227279 1.8934829 171.86502 8089963
-9.8347616 2.5396223 172.2562 7958892
-10.444671 2.535207 172.00977 7630443
-10.667693 3.3933358 172.23436 8024943
-10.690139 4.3000889 172.57594 9208444
-11.348212 4.5527544 172.41534 8748152
-11.537299 5.5478902 172.72768 8945783
-11.694594 6.3441052 172.97522 9406334
-12.241973 6.4817486 172.81342 8682867
-12.406516 7.4994044 173.14421 7959144
-12.571906 8.5212727 173.47629 6511954
-13.120399 8.6580133 173.31372 7038042
-13.280585 9.4634991 173.56374 8353646
-13.441459 10.271821 173.81458 7564386
-13.990722 10.408058 173.65152 8616818
-13.32759 11.014844 174.14815 6511954
-14.110511 11.498556 174.02817 10590351
-14.329688 12.480033 174.32339 9406334
-14.880195 12.615668 174.15958 8682867
-15.044044 13.434177 174.41324 9537919
-15.15776 14.290085 174.73314 9735301
-15.906051 14.541383 174.55118 9143681
-15.103988 15.019458 175.0797 8682867
-15.944556 15.453003 174.9608 8880509
-16.784798 15.886253 174.84184 7564651
-18.6968 16.527235 176.79997 4866361
-19.453995 16.7836 176.62386 8747891
-19.573898 17.658201 176.9187 8682358
-20.421761 17.874384 176.77368 7564392
-19.609421 18.358561 177.22842 9734788
-20.386276 18.632523 177.20631 8814200
-20.531296 19.313713 177.70416 9734788
-21.310913 19.500095 177.683 8156781
-22.058472 19.785145 177.74559 9209467
-22.329834 20.286215 178.16913 8880502
-23.301422 20.837351 178.91635 9209467
-23.709389 20.815792 178.68311 8089963
-24.914024 21.37805 179.4525 9931910
112.65105 -52.120045 109.55075 10063753
110.3539 -52.28101 110.72631 10459281
109.68214 -52.215458 111.11615 9932939
108.84425 -52.135151 111.60186 8288116
107.94282 -52.310036 112.0174 9012095
107.07693 -52.359726 112.4651 7564651
106.24624 -52.284794 112.94482 9340798
105.27956 -52.354366 113.43884 7564643
104.46711 -52.361572 113.87508 6709333
103.61205 -52.347286 114.34314 7038298
102.63715 -52.55563 114.78481 8156778
101.81689 -52.489685 115.25494 8419693
100.81722 -52.403938 115.79694 11445657
99.979149 -52.330906 116.23874 10130313
99.204018 -52.360489 116.6083 9406590
98.09742 -52.364025 117.15152 10919572
97.265648 -52.296726 117.58788 15195086
96.435623 -52.231369 118.02257 13747645
95.441757 -52.155304 118.54224 9209467
94.662766 -52.324669 118.85754 9143678
93.705345 -52.406357 119.29585 8222321
92.718285 -52.336864 119.80953 8616562
91.89724 -52.280857 120.23608 9209211
91.077629 -52.226749 120.66116 8682867
90.095734 -52.164101 121.16958 8418928
89.278786 -52.113766 121.59184 10261643
88.789215 -52.084427 121.84454 9142907
115.69046 -51.195652 107.99178 12235178
114.94441 -51.421379 108.50938 8617078
114.22121 -51.494759 108.95838 7959152
113.31686 -51.598145 109.40472 8156531
112.40269 -51.622746 109.88873 10589840
111.56955 -51.617783 110.341 9208444
110.7254 -51.534695 110.83128 8682616
109.90295 -51.567005 111.26251 8748923
108.99398 -51.564541 111.7548 8814716
108.0781 -51.625614 112.22472 9999244
107.16006 -51.542393 112.755 12236203
106.33134 -51.572758 113.19053 12564655
105.46375 -51.552723 113.66764 7893608
104.5677 -51.559525 114.14926 9735812
103.66505 -51.629391 114.60859 8485744
102.75863 -51.556286 115.12855 8880246
101.94094 -51.594868 115.5547 10195849
101.07835 -51.515522 116.02554 12301224
100.1618 -51.58062 116.45039 11182746
99.248192 -51.647491 116.87313 9471871
98.276169 -51.61573 117.36429 9801091
97.442581 -51.549244 117.80116 10985107
96.610863 -51.484726 118.23642 12103846
95.571571 -51.59605 118.7031 9341053
94.743713 -51.535202 119.13498 8814198
93.875084 -51.662289 119.51137 6840152
92.886024 -51.593639 120.02573 8156012
92.063271 -51.538292 120.45283 10261899
91.242035 -51.484856 120.87845 9472383
90.281807 -51.531734 121.33215 9603713
89.399406 -51.558453 121.75567 11051415
88.511879 -51.646812 122.15688 10787987
87.564316 -51.639908 122.62595 11380124
86.587456 -51.586861 123.12787 12169895
85.774437 -51.544498 123.5449 10525072
84.962494 -51.503983 123.96067 11906722
83.989243 -51.457546 124.45815 9406080
82.980125 -51.597664 124.89833 9077372
82.171333 -51.562733 125.31023 9340285
81.363312 -51.529613 125.72112 8814453
80.466225 -51.457722 126.19135 9406077
79.462082 -51.273289 126.7596 10063749
78.655731 -51.245926 127.16731 9734782
77.849998 -51.220325 127.5741 9734788
76.883667 -51.191715 128.06114 10590095
75.917877 -51.165581 128.54691 9800836
74.952606 -51.141819 129.03143 9735043
74.14856 -51.123737 129.43439 9866630
73.344681 -51.107536 129.83655 8287853
72.380295 -51.090111 130.31812 9274492
71.4161 -51.075092 130.79861 9209211
70.612724 -51.064339 131.19833 11051415
116.80523 -50.336388 107.46386 14471626
115.99046 -50.623077 108.01022 13419196
115.26273 -50.589191 108.63432 9669764
114.39309 -50.486008 109.27882 9800840
113.5226 -50.683414 109.66834 8945789
112.66863 -50.49263 110.20805 10261132
111.84823 -50.580437 110.61546 10195339
110.81081 -50.564537 111.18263 7959150
109.91667 -50.675556 111.62038 8025201
109.07563 -50.597775 112.10675 8090994
108.2366 -50.521751 112.59138 9341316
107.41961 -50.560291 113.01716 13157560
106.51627 -50.56488 113.50346 13946563
105.60625 -50.632713 113.96754 10261383
104.693 -50.557068 114.49218 9405820
103.86908 -50.593624 114.92262 9800836
103.01507 -50.519253 115.4147 10393229
102.11456 -50.593937 115.87088 10261387
101.21055 -50.601936 116.32761 10721938
100.22205 -50.628513 116.8034 9800837
99.382217 -50.559704 117.24436 10459023
98.544342 -50.492805 117.68357 10327435
97.572578 -50.569527 118.13099 8090987
96.754501 -50.583443 118.52792 10261899
95.788116 -50.663681 118.97129 10525328
94.899269 -50.545567 119.45618 9538433
94.077736 -50.589432 119.84282 7103324
93.137688 -50.478378 120.35007 7366239
92.180336 -50.566338 120.78584 10590864
91.373505 -50.59021 121.17332 9735555
90.389748 -50.632847 121.64028 10525071
89.436562 -50.623096 122.1133 10459278
88.617767 -50.576084 122.53511 11051159
87.800224 -50.530918 122.9556 11906468
86.820496 -50.47892 123.45866 12761775
86.022369 -50.512779 123.83772 11906722
85.152756 -50.582016 124.23779 10525072
84.177132 -50.536327 124.73615 9406080
83.165665 -50.677147 125.17715 8682871
82.354919 -50.642761 125.58987 8682869
81.54496 -50.610176 126.00146 9537664
80.573921 -50.573162 126.49408 9866371
79.603737 -50.538589 126.9853 9537662
78.795883 -50.511543 127.39367 9537663
77.988602 -50.486259 127.80109 10261131
77.020447 -50.458042 128.28883 9603203
76.084785 -50.479042 128.74083 9340286
75.052528 -50.592018 129.20338 9866630
74.247337 -50.574154 129.60681 9866630
73.442368 -50.558025 130.00945 8682611
72.476662 -50.54081 130.49159 8814197
71.511147 -50.525894 130.97269 9209211
70.706627 -50.515228 131.37289 10656657
69.871185 -50.689304 131.71402 9735299
68.936729 -50.497688 132.25093 9208699
67.971161 -50.491413 132.72859 9340798
