# .PCD v0.7 - Point Cloud Data file format
VERSION 0.7
FIELDS x y z rgb
SIZE 4 4 4 4
TYPE F F F U
COUNT 1 1 1 1
WIDTH 1204
HEIGHT 1
VIEWPOINT 0 0 0 1 0 0 0
POINTS 1204
DATA ascii
83.82708 -50.14362 -103.5365 7368037
82.326241 -48.69146 -105.49345 10786957
82.846672 -48.880001 -104.96602 9077369
83.477135 -48.905151 -104.42464 8486260
81.968536 -47.55481 -106.33913 9208443
82.388023 -47.874393 -105.83362 13352882
83.086761 -47.905273 -105.23215 9537408
82.030464 -46.831223 -106.68327 8353390
82.727119 -46.960003 -106.0083 11248023
81.267174 -45.740128 -108.34409 8288109
81.743752 -45.989799 -107.69363 7827558
82.429665 -46.093853 -107.01315 7629667
82.864464 -46.295338 -106.44607 9208443
80.408867 -44.504436 -111.29597 9800324
80.818794 -44.631229 -110.63411 10260875
81.188469 -44.842182 -109.59541 9405566
81.547012 -45.15617 -108.71638 7629668
82.063454 -45.361 -108.05484 6510930
79.970207 -44.182262 -113.23098 9208187
80.273788 -44.238716 -112.5167 9602945
80.753845 -44.321304 -111.77161 9339773
132.61911 -78.654472 31.364418 6841181
132.53635 -78.52137 32.356777 6708822
132.47733 -78.381699 33.188 5919050
132.79106 -78.108459 31.57489 6841181
132.82301 -77.773499 32.259022 5458756
132.66849 -77.806488 33.334118 7564131
132.76901 -77.311317 33.942974 10853012
133.0295 -77.108749 32.536514 5590342
133.02306 -76.864616 33.259777 8419436
132.93736 -76.736702 34.259937 10326921
133.29951 -76.079803 33.398731 7695970
133.30443 -75.869446 34.253952 8222313
133.31035 -75.662033 35.112476 7893607
133.48561 -75.307175 35.848244 8617592
133.73994 -75.23201 34.368801 5920074
133.76466 -75.050652 35.23518 7828074
133.91229 -74.745659 36.196304 8748921
134.16618 -74.462982 36.729523 8617592
134.66795 -74.29879 36.870571 9735302
93.905304 -68.727768 -75.585342 9011575
94.400307 -68.957695 -75.058395 9078143
95.121117 -69.093758 -74.386879 8092019
93.582588 -67.522316 -76.437569 11905692
94.017342 -67.833145 -75.922333 10392453
94.666695 -68.054398 -75.269867 10262414
95.134727 -68.382034 -74.718521 8092019
93.627029 -66.816429 -76.740524 9866109
94.315117 -66.94458 -76.100342 10589832
94.813759 -67.171486 -75.571793 8681835
93.273514 -65.634033 -77.60762 7696235
93.867165 -65.897911 -76.981407 9471352
94.417068 -66.209465 -76.368958 10787211
92.884277 -64.475082 -78.493523 7038307
93.379341 -64.825264 -77.908493 7169893
94.112831 -65.008049 -77.203766 9076854
92.994812 -63.8013 -78.725266 9274751
93.726509 -63.905979 -78.059776 9340545
94.074463 -64.271492 -77.591034 7038307
92.560875 -62.700348 -79.620712 9142907
93.229187 -62.873306 -78.97554 10590097
93.793457 -63.147827 -78.368912 10984855
92.251945 -61.723763 -80.35112 8879479
92.837624 -61.858177 -79.794006 9076858
93.461006 -61.982159 -79.210205 10918805
91.968887 -60.648071 -81.303352 12432037
92.439484 -60.847713 -80.727524 8616307
93.040306 -61.036362 -80.064667 8945272
91.287819 -59.504444 -83.525497 9076854
91.814003 -59.681282 -82.568459 9536633
92.2295 -60.009239 -81.728546 10787213
92.729187 -60.256943 -81.057617 8418928
86.268082 -58.792114 -97.33326 7563618
86.881569 -58.832943 -96.798264 6906203
87.110413 -59.117882 -96.027695 7826791
87.640694 -59.160343 -95.005203 8354158
87.776192 -59.159363 -94.021683 7827814
88.161354 -59.158245 -93.08947 7630951
88.537102 -59.157131 -92.156006 7039331
88.655891 -59.156178 -91.185883 9801346
89.268646 -59.154926 -90.294128 12104097
89.374496 -59.153984 -89.330444 11182996
89.971115 -59.15274 -88.436325 8617073
90.118439 -59.151672 -87.364914 10130054
90.604523 -59.150646 -86.338516 8682867
90.799408 -59.163593 -85.538124 9538177
91.196312 -59.273247 -84.56044 9143419
91.742065 -59.360191 -83.738121 8551023
85.901169 -57.688271 -98.172577 9537659
86.352715 -57.990227 -97.647987 7958635
87.039276 -58.156967 -96.990997 7103842
85.961143 -56.947819 -98.4785 9274749
86.640709 -57.103573 -97.832672 8024943
87.171974 -57.374805 -97.255936 9011838
85.541267 -55.957657 -99.307404 9011321
86.179756 -56.0448 -98.729309 10787988
86.804031 -56.270802 -98.096161 9143422
85.17527 -54.724133 -100.20679 10065806
85.697655 -55.054924 -99.609497 10196108
86.43132 -55.1698 -98.938431 7826790
85.290718 -54.035511 -100.44032 11578787
86.013756 -54.112293 -99.79641 12499118
86.456017 -54.402756 -99.285713 7037274
84.920074 -53.037365 -101.23041 9539205
85.613327 -53.085079 -100.62547 13091767
86.090393 -53.414982 -100.06667 15197142
84.55706 -51.883945 -102.08867 14077637
85.166931 -52.071518 -101.48661 8551283
85.740356 -52.347588 -100.87273 9998470
84.201271 -50.631401 -102.98831 9209211
84.750198 -50.886032 -102.40533 16446186
85.411385 -51.118565 -101.73865 12103591
84.309486 -49.783684 -103.30426 8222574
85.084 -49.850628 -102.62193 13024949
83.965363 -48.788452 -104.07074 8157295
84.619759 -48.830475 -103.50114 7959916
85.071281 -48.991703 -103.04468 8682867
83.576263 -47.776909 -104.88282 9275005
84.207123 -47.822952 -104.33105 7894124
84.715492 -48.066822 -103.78722 7368037
83.222511 -46.581348 -105.85872 10787473
83.710594 -46.856724 -105.25091 9537664
84.417183 -47.014027 -104.55867 8354674
82.919395 -45.785145 -106.91094 8747892
83.500229 -45.996101 -106.21169 12958382
84.111763 -46.164528 -105.52922 11774111
81.496056 -44.518539 -110.55959 9931910
82.095848 -44.546341 -109.93741 8418928
82.519005 -44.639385 -109.19294 7958889
82.73597 -44.943188 -108.10326 8288110
83.246513 -45.161366 -107.28792 7300960
83.653999 -45.410603 -106.66893 9274236
80.722664 -43.784401 -114.43794 10129289
81.036552 -44.109291 -114.01332 9866117
81.047478 -44.180775 -112.45969 9997703
81.619057 -44.22039 -111.83867 9800324
81.973534 -44.332935 -110.92821 10063238
80.854462 -42.856583 -114.77126 9406592
132.92871 -78.550476 29.251637 9011576
132.79019 -78.598602 30.227112 9011576
132.69267 -78.629898 30.876831 6841181
133.06664 -78.185051 29.2827 9011576
133.05562 -77.932228 30.064545 8814454
132.96744 -77.814728 31.054855 6973024
133.37396 -76.995094 30.250717 7564646
133.347 -76.785568 31.03281 5853515
133.22169 -76.786362 31.97636 6182737
133.58353 -76.057556 31.258659 5721928
133.64604 -75.796288 32.009743 6643801
133.61104 -75.663055 32.942158 6906711
134.09837 -75.134453 32.234905 6116943
134.10504 -75.007584 32.920418 5920074
134.18655 -74.779907 33.867428 6446161
134.33841 -74.568367 34.756702 9274746
134.42 -74.431526 35.585461 8617592
135.10081 -74.246025 34.901764 7565675
135.01617 -74.235237 35.782673 8814971
135.11972 -74.165894 36.647987 9735302
135.74968 -74.006416 37.174828 10853012
95.498451 -69.439133 -73.903229 8092019
95.933067 -69.499619 -73.508705 9143422
96.694626 -69.608803 -72.815849 10590353
95.623901 -68.715759 -74.146393 8092019
96.236458 -68.867485 -73.558365 11117467
96.789078 -69.171021 -72.947472 11511711
95.107819 -67.709061 -75.065498 10986652
95.647835 -67.863121 -74.537331 9539207
96.342133 -67.920311 -73.926064 14868179
95.30442 -66.97541 -75.253845 10460307
96.053749 -66.902985 -74.658836 9209728
94.871956 -65.872536 -76.148949 9866109
95.543121 -65.943153 -75.550751 9142905
96.070465 -65.996269 -75.081818 8089963
94.537239 -64.762154 -76.965515 10063494
95.137917 -65.001122 -76.345444 8813684
95.753029 -65.014931 -75.821686 9142651
94.212975 -63.793236 -77.705124 8092019
94.660896 -63.973949 -77.241501 8682871
95.304031 -64.042915 -76.667633 8813429
94.218414 -62.900837 -78.13073 10984855
94.957726 -63.082661 -77.4216 9735045
93.900642 -61.851257 -78.90374 10787733
94.498199 -62.020535 -78.319824 9538437
95.00634 -62.237377 -77.788116 8880764
93.578728 -60.747433 -79.848679 9340030
94.124557 -60.914612 -79.264832 10392975
94.679306 -61.173603 -78.59729 9867145
92.85891 -59.562569 -81.954987 9536633
93.379738 -59.828529 -81.01873 8747893
93.869392 -60.111038 -80.25692 9537665
94.379036 -60.173199 -79.753845 10261132
87.811661 -58.841122 -96.012993 7959913
88.546425 -58.922199 -95.271538 8288875
88.798195 -59.137497 -94.431808 8223082
89.170616 -59.157757 -93.389259 7039331
89.442314 -59.1567 -92.429611 9209726
89.708542 -59.155647 -91.474724 14406082
90.16938 -59.154484 -90.550545 8485741
90.421692 -59.153442 -89.599548 8485741
90.867256 -59.152287 -88.675781 9472126
91.10569 -59.15126 -87.728821 9932419
91.536079 -59.150116 -86.805573 8485488
91.76078 -59.149101 -85.862671 9143419
92.176094 -59.147972 -84.940178 8419952
92.331581 -59.218693 -83.985382 9011061
92.847527 -59.307976 -83.018784 10128770
93.318405 -59.418995 -82.160416 10655628
87.460457 -57.819988 -96.799347 10985625
88.079384 -58.052788 -96.167404 7301729
88.711823 -58.150047 -95.589333 6512978
87.095001 -56.714012 -97.638519 7038307
87.650055 -57.022995 -97.023544 10788246
88.364304 -57.114037 -96.379745 10327950
87.226341 -55.933346 -97.903786 7432808
87.91716 -56.100788 -97.242889 8419702
88.369225 -56.406136 -96.716171 10985625
86.873497 -54.867218 -98.712387 7300703
87.49736 -55.072598 -98.090012 7433062
88.002739 -55.299862 -97.556381 9537667
86.507576 -53.855583 -99.505028 10261644
87.016426 -54.079391 -98.97039 7695460
87.657845 -54.13406 -98.40567 8353904
86.126457 -52.758858 -100.35122 12432037
86.570992 -53.048729 -99.838921 9800834
87.295242 -53.129047 -99.192322 6313808
86.147743 -51.993706 -100.7005 9668991
86.888428 -52.107319 -100.02412 7629410
87.414017 -52.440071 -99.42321 5919050
85.898193 -50.660244 -101.54987 8945526
86.45237 -50.989517 -100.92659 8418926
87.044724 -51.205807 -100.32549 7037274
85.567299 -49.481354 -102.39336 11380124
86.004349 -49.83857 -101.855 9603713
86.669579 -49.875706 -101.27869 7037274
85.186104 -48.500599 -103.18396 8682867
85.599113 -48.826714 -102.68076 9274748
86.292686 -48.867367 -102.07895 8880246
85.174667 -47.799656 -103.52992 8354417
85.912209 -47.87402 -102.87503 9012089
86.488258 -48.171494 -102.24861 9735812
84.923149 -46.64106 -104.38106 8616049
85.485756 -46.900642 -103.73099 8287597
86.091568 -47.080025 -103.10539 8419696
84.137337 -45.697475 -105.97564 10853012
84.627937 -45.809784 -105.45093 9537152
85.123672 -46.046314 -104.79749 8352877
85.720497 -46.17308 -104.16917 9010806
83.294899 -44.496792 -109.13039 8222579
83.868317 -44.56284 -108.37114 7696236
84.24324 -44.703159 -107.47091 6972506
84.30674 -45.058197 -106.53639 8879734
84.907341 -45.272503 -105.7543 9537408
81.772621 -43.776939 -114.03485 8945783
82.013641 -44.180737 -113.22549 9208955
82.688019 -44.179794 -112.73279 9932934
82.649048 -44.178528 -111.28311 10326409
82.986397 -44.285477 -110.35554 11181204
83.650505 -44.31284 -109.59494 8222579
81.2659 -42.798424 -114.62621 9012091
81.829109 -42.965511 -114.33072 9143418
81.387505 -41.863495 -114.94405 8683127
81.98246 -42.074554 -114.6183 8814711
81.55748 -40.887993 -115.25803 8419957
81.507652 -39.812031 -115.70116 9735812
81.593468 -40.160717 -115.52916 9735812
81.616776 -39.303539 -115.85653 10064777
132.96422 -78.324844 27.252781 7563874
132.96426 -78.405205 27.920509 7695460
132.96393 -78.486938 28.589199 9011576
133.00775 -78.073051 26.152081 9340795
133.1149 -77.86879 26.909351 9669504
133.19466 -77.782654 28.018024 10656401
133.24039 -77.738518 28.944073 13420732
133.2804 -77.461754 29.667397 9011576
133.36661 -77.187874 27.003204 11708828
133.463 -77.01088 27.740707 10656145
133.58011 -76.804764 28.851463 15788256
133.57932 -76.620377 29.735607 8090218
133.57542 -76.386665 30.410252 6116943
133.83591 -76.106445 28.781776 12300971
133.97339 -75.745232 29.741051 6445905
133.92715 -75.633438 30.71854 5064508
133.97453 -75.417778 31.522774 4867385
134.44902 -74.946587 30.682842 4867385
134.45097 -74.802994 31.638134 5788487
134.72887 -74.496941 32.537701 7169884
134.87497 -74.378342 33.459347 6709333
135.37909 -74.214119 33.588089 7762021
135.53065 -74.132332 34.389767 8748916
135.78285 -74.056641 35.502129 8748921
135.93124 -74.006859 36.522919 10853012
136.65797 -74.005829 37.076866 9932424
97.672447 -69.641541 -71.978127 10064265
98.312149 -69.709602 -71.37912 9933190
97.200691 -68.878662 -72.742401 10129802
97.834549 -68.986847 -72.15741 9406848
98.312042 -69.172844 -71.666306 9210491
96.788025 -67.866531 -73.577141 14736335
97.403908 -68.021263 -72.984833 9143935
98.007057 -68.109123 -72.43544 9407363
96.480484 -66.661667 -74.416435 9734787
97.017273 -66.926994 -73.837296 11314845
97.640175 -67.188385 -73.187653 8683898
96.2136 -65.514854 -75.193466 9734787
96.558273 -65.892456 -74.721786 10063752
97.290451 -66.019859 -74.044907 9603458
96.180183 -64.772499 -75.579453 9537408
96.890129 -64.935516 -74.904068 9734787
97.302055 -65.322311 -74.371361 9734787
95.8423 -63.679825 -76.390182 10458254
96.379349 -63.906162 -75.829605 10524303
97.027214 -64.066414 -75.207748 8879479
95.467903 -62.615772 -77.217712 10787219
95.9757 -62.837811 -76.683884 10063496
96.646996 -63.026264 -76.028717 9340030
95.54493 -61.803688 -77.544426 9209215
96.238022 -61.946068 -76.893173 8419442
96.7192 -62.264603 -76.335144 7893098
94.870918 -60.499672 -79.011017 10262668
95.187675 -60.853092 -78.422791 8552308
95.872826 -60.909004 -77.785843 7762535
96.332283 -61.233723 -77.157257 7893098
94.153191 -59.453514 -81.310928 8681843
94.699265 -59.559334 -80.41069 11577247
94.969101 -59.895782 -79.581963 9801861
95.601852 -60.099072 -78.799751 8354927
89.589333 -58.897007 -94.49276 10722449
90.259865 -58.927872 -93.779747 8223346
90.35656 -59.156265 -92.703926 11906208
90.722557 -59.155148 -91.756195 13880507
91.079124 -59.154034 -90.807457 6643795
91.430367 -59.152927 -89.861946 8682609
91.666412 -59.152008 -89.025589 10721934
92.104935 -59.150845 -88.095016 10458507
92.332542 -59.149822 -87.139313 11774881
92.75589 -59.148674 -86.209473 10459534
93.071007 -59.147491 -85.146538 7959400
93.498611 -59.14632 -84.194427 7826787
93.67733 -59.145367 -83.269882 11446173
94.092323 -59.221138 -82.355042 11116696
94.61837 -59.309433 -81.513573 10129545
95.03569 -59.327606 -81.08503 15197142
89.136093 -57.967766 -95.320641 10393481
89.766319 -58.126461 -94.714844 11972001
90.292931 -58.278755 -94.199142 10525844
88.816559 -56.856476 -96.123764 8814963
89.302628 -57.119209 -95.589005 9275772
90.003792 -57.219009 -94.951981 12960181
88.5326 -55.749271 -96.895027 10853012
88.880898 -56.086952 -96.439957 8419699
89.604965 -56.145653 -95.803452 8353391
88.496231 -55.047718 -97.263107 10524047
89.222839 -55.103901 -96.62571 9931910
89.57148 -55.442154 -96.169998 7563619
88.138878 -54.028172 -98.052628 7828076
88.794548 -54.0755 -97.479416 8617335
89.286186 -54.335098 -96.942101 10392718
87.777458 -52.937157 -98.879585 5919050
88.360573 -53.027653 -98.346588 8287855
88.956207 -53.229595 -97.749596 8288627
87.933372 -51.915138 -99.239037 6971994
88.577385 -52.089428 -98.614746 6906201
87.516991 -50.82917 -100.10973 8484976
88.189407 -50.915516 -99.503754 9669246
88.702049 -51.141006 -98.965126 6510930
87.155991 -49.765663 -100.92312 8155756
87.806038 -49.817131 -100.35262 9537409
88.321068 -50.040951 -99.812859 9405816
86.78035 -48.745483 -101.72803 8156524
87.367531 -48.79718 -101.21022 8747893
87.947304 -49.030701 -100.61143 9405823
86.398155 -47.516411 -102.63863 7169373
86.910156 -47.771942 -102.08615 8551282
87.57811 -47.970337 -101.43017 8287342
86.509171 -46.736282 -102.98462 7498338
87.16201 -46.933098 -102.29978 6248271
87.703529 -47.192001 -101.69839 5919050
85.752037 -45.685574 -104.63094 8287084
86.277 -45.939758 -103.93531 10590091
86.920853 -46.012123 -103.32195 8090731
87.318199 -46.268707 -102.7311 8419696
84.9533 -44.482067 -107.79034 6972507
85.421288 -44.587063 -106.95815 9668994
85.666641 -44.803036 -105.93712 9603200
85.994835 -45.13765 -105.01173 8681841
86.551849 -45.316055 -104.32912 9734527
82.924416 -43.814194 -113.45907 8814453
83.442894 -44.024036 -112.62846 8418927
83.893776 -44.178093 -111.83482 7563619
83.839302 -44.176842 -110.38597 9471873
84.511559 -44.208691 -109.631 7038307
84.676697 -44.303108 -108.76819 7038307
85.31601 -44.297981 -108.24915 7498597
82.570938 -42.905422 -114.05161 8682867
83.190804 -43.066025 -113.60706 10196106
83.734154 -43.313381 -113.0214 7563619
82.092682 -41.566765 -114.77293 9012091
82.652153 -41.948231 -114.39465 9077625
83.297012 -42.202927 -113.94313 10722708
82.178886 -40.79924 -115.03934 9012091
82.825729 -40.97081 -114.70795 9143677
82.351837 -39.83366 -115.34824 8682867
83.02317 -40.252296 -114.90982 8485488
81.885101 -38.804371 -115.94316 10459278
82.443634 -38.887505 -115.68257 7038298
82.110023 -38.080757 -116.13583 9801348
82.509834 -38.153904 -115.94394 8485488
82.250359 -37.105415 -116.46184 8814454
82.242332 -36.418228 -116.7471 10262156
132.95206 -77.844398 22.943237 8681835
133.02214 -77.731575 23.615383 10524551
133.04335 -77.806648 24.735229 9077108
133.13438 -77.662102 25.623562 10327433
133.23158 -77.476395 26.308308 14076861
133.26822 -77.086594 23.880875 9471607
133.37721 -76.876648 24.633156 8156263
133.45972 -76.781067 25.735638 10656397
133.51686 -76.734016 26.658524 13484724
133.6353 -76.515869 27.561703 9208443
133.62927 -76.234108 25.055168 7038298
133.7576 -76.005974 25.691353 9208953
133.95158 -75.75518 26.622105 13156017
133.957 -75.816818 27.629898 11182489
134.08426 -75.6558 28.499203 10458510
134.31877 -75.337219 29.39629 7037786
134.41248 -75.173599 27.558342 10853524
134.59508 -74.987495 28.498196 9208443
134.77104 -74.76461 29.554825 6511954
135.09273 -74.468269 30.366669 5393729
135.21474 -74.364082 31.274166 6117452
135.81445 -74.167717 31.451542 6972762
135.86578 -74.117332 32.257313 9209468
135.89357 -74.070053 33.164371 7762021
136.58469 -74.00856 34.070782 8814712
136.739 -74.007477 35.161667 7828077
136.92874 -74.0065 36.092178 7367271
137.5746 -74.005234 36.976925 10459534
137.80707 -74.004364 37.753857 13551541
98.703819 -69.656952 -70.992996 8814965
99.237206 -69.762733 -70.361435 9144443
99.916512 -69.829689 -69.59404 8946296
100.25424 -70.033203 -69.119812 9143675
98.405159 -68.620872 -71.854156 9144700
98.804901 -68.884842 -71.304413 10000264
99.486069 -68.947227 -70.53746 10197644
99.970833 -69.217918 -69.868546 9143675
98.487946 -67.767242 -72.195396 10065290
99.19828 -67.917664 -71.407562 13158332
99.68541 -68.184273 -70.738251 13355967
98.179428 -66.728226 -72.956146 8223605
98.732605 -66.89785 -72.406425 8881533
99.297577 -67.037834 -71.779541 12105642
97.757439 -65.717766 -73.797951 9144448
98.264053 -65.917191 -73.27594 8289398
98.976761 -66.001038 -72.63382 8486520
97.384193 -64.666061 -74.618561 9734787
97.904129 -64.886658 -74.075211 9208701
98.523186 -64.967529 -73.515823 7696749
97.460602 -63.89983 -74.923698 9076856
98.143166 -63.932926 -74.333984 9471611
98.687576 -64.172333 -73.760971 7564651
97.080559 -62.858074 -75.745316 8484974
97.749382 -62.960712 -75.133621 8813680
98.129745 -63.210117 -74.693634 9274230
96.684685 -61.601944 -76.683548 9208443
97.186913 -61.960171 -76.088715 7235168
97.889145 -62.11628 -75.423157 7695201
96.397179 -60.637966 -77.587479 6643290
96.886803 -60.909519 -76.937424 7958891
97.536247 -61.022068 -76.308647 6774876
97.896225 -61.414806 -75.755295 5919050
95.706932 -59.524136 -79.70343 8815478
96.230621 -59.687412 -78.834518 10262668
96.673775 -59.984848 -78.042786 8288623
97.149239 -60.229935 -77.365662 7038047
90.776024 -58.572563 -93.652054 10064522
91.257294 -58.843014 -93.117523 12433068
91.853104 -58.972282 -92.35762 8813685
91.889763 -59.153763 -91.175522 7234397
92.497017 -59.152489 -90.256485 9010807
92.580299 -59.151543 -89.267113 10524300
93.170937 -59.15028 -88.346069 9076856
93.241371 -59.149353 -87.363815 10854035
93.81559 -59.148094 -86.440933 8682867
93.873421 -59.147179 -85.465851 8617074
94.582306 -59.145947 -84.67569 9801348
94.57811 -59.145081 -83.703079 10064520
95.169472 -59.143818 -82.778244 10721938
95.277733 -59.157497 -81.880219 10458766
95.720886 -59.263954 -80.768806 11051415
96.177567 -59.380745 -79.898705 9144443
96.694023 -59.406128 -79.356354 10262668
90.503128 -57.455593 -94.418709 14077894
90.846779 -57.79945 -93.964539 10985111
91.566689 -57.867554 -93.326996 8156012
90.473129 -56.74987 -94.783447 13486525
91.195465 -56.815239 -94.145142 9537921
91.539452 -57.159672 -93.690445 7037274
90.112488 -55.842175 -95.523117 10064265
90.778687 -55.776531 -94.995071 10261644
91.19735 -56.15152 -94.462936 9340286
89.777733 -54.621353 -96.391724 7563619
90.269073 -54.826752 -95.880142 7563619
90.90168 -54.949364 -95.289719 7958633
89.343529 -53.45665 -97.315414 7039331
89.815254 -53.796944 -96.756134 8683128
90.526314 -53.887951 -96.115433 7563878
89.438179 -52.658195 -97.619156 7762797
90.135208 -52.844345 -96.944641 7434089
90.629997 -53.156357 -96.379471 7564651
89.086006 -51.558125 -98.44268 6510930
89.65593 -51.845211 -97.826431 9144449
90.275017 -51.910351 -97.275391 9933708
88.741272 -50.484131 -99.247398 9011059
89.219269 -50.820026 -98.684937 7366237
89.914726 -50.879116 -98.072662 9407106
88.37278 -49.49411 -100.03191 8287342
88.820435 -49.786839 -99.515518 8813680
89.510193 -49.837742 -98.911987 7760994
89.915611 -50.173508 -98.410461 7760994
88.395729 -48.728321 -100.38003 8287342
89.11644 -48.816055 -99.732834 8484717
89.549904 -49.180527 -99.194046 7760994
88.007324 -47.631157 -101.2326 7563619
88.622475 -47.825211 -100.62297 9076857
89.228653 -47.992878 -100.03361 9208184
87.664429 -46.562027 -102.14539 7169373
88.185974 -46.811504 -101.51984 7695461
88.842537 -47.016315 -100.84168 9405307
87.478554 -45.780376 -103.08557 8485489
88.021431 -45.948006 -102.46157 8419696
88.559082 -46.156055 -101.80138 7958633
86.095016 -44.474911 -106.85545 9405822
86.678474 -44.508553 -106.22247 8024426
86.987503 -44.652451 -105.36292 6905688
87.25264 -44.912552 -104.38099 8221802
87.734612 -45.134441 -103.55351 7037530
88.12706 -45.389835 -102.93195 8617075
84.061638 -43.753483 -112.52357 8616049
84.594872 -43.848862 -111.93051 9866116
85.073639 -44.030781 -111.2168 9406594
85.618294 -44.175632 -110.51513 9867660
85.540901 -44.174397 -109.06703 7762028
86.072884 -44.233894 -108.1411 10064265
86.462547 -44.290943 -107.30981 9537665
86.970375 -44.288589 -106.89056 11511711
83.625854 -42.642334 -113.44148 9932934
84.164398 -42.888256 -112.84918 9077628
84.863419 -43.069805 -112.14702 11774110
83.333443 -41.639114 -114.18407 9933193
83.813873 -41.919384 -113.62623 9341313
84.498993 -41.983406 -112.99319 8551544
84.976753 -42.26543 -112.4368 11379609
83.426529 -40.872215 -114.45586 9933193
84.051979 -40.90728 -113.90696 9209727
84.542465 -41.151913 -113.35753 7499625
83.589584 -39.898705 -114.74593 9143933
84.259933 -40.004887 -114.16106 10656658
83.160858 -38.882931 -115.39173 6511954
83.869827 -38.954857 -114.99353 11314588
83.333443 -37.890549 -115.71133 8748917
82.829254 -37.052814 -116.2463 7169885
83.416664 -36.966679 -116.0404 6906712
82.601952 -35.641964 -117.25716 9340799
82.977257 -36.027664 -116.74957 7498598
83.623245 -36.160225 -116.32848 5920074
83.053864 -35.273151 -117.89652 8485235
132.93047 -77.551552 19.986858 13550517
132.93614 -77.613998 20.642117 12958638
132.99753 -77.571297 21.701527 12629932
133.02986 -77.584961 22.561932 9668986
133.10263 -77.159515 20.668861 11906465
133.24173 -76.867775 21.430237 10590864
133.33487 -76.747612 22.571274 8155499
133.41229 -76.644981 23.497658 8484717
133.52069 -76.124924 21.613834 9604228
133.66364 -75.913246 22.408482 8353135
133.82632 -75.736435 23.430702 8879477
133.81226 -75.829056 24.424759 10721935
133.99953 -75.591263 25.377625 10129543
134.21515 -75.353874 26.172813 8681843
134.34171 -75.086464 24.357857 11116437
134.50705 -74.921448 25.267162 8879222
134.68906 -74.791695 26.33572 8616307
134.94519 -74.603462 27.290424 8814710
135.218 -74.449791 28.068111 8288366
135.2328 -74.444817 28.92099 8748404
135.82243 -74.250519 28.36842 8288366
135.84323 -74.248604 29.226974 8090219
135.97664 -74.180672 29.942257 7235422
136.30942 -74.059235 30.879108 8156780
136.81693 -74.010246 31.980694 10262156
136.87476 -74.009369 32.9226 9406846
137.53279 -74.008102 33.787197 7498852
137.73618 -74.007118 34.719143 7301478
137.88864 -74.00602 35.820133 7038307
138.58998 -74.00486 36.542492 10328204
138.62729 -74.00396 37.506729 10525326
139.06371 -74.003098 38.107494 9735812
100.69408 -69.827148 -68.758705 8748917
101.42374 -69.82402 -67.975266 9998472
102.00345 -70.095879 -67.203476 10064009
100.35102 -68.906044 -69.629227 9801605
100.94758 -68.972115 -68.951271 8156780
101.53326 -68.933861 -68.341934 9472384
99.979965 -67.877441 -70.588303 12960952
100.60342 -67.998238 -69.851685 10656914
101.20864 -67.96788 -69.216904 9143675
99.689713 -66.849937 -71.459831 13750726
100.27748 -67.014389 -70.737869 11973544
100.90748 -67.074776 -70.0271 11643552
99.392616 -65.827217 -72.331177 8222836
99.886711 -65.980515 -71.721062 8814715
100.53904 -66.06884 -70.971031 9012094
100.96697 -66.411964 -70.32386 8814715
98.98568 -64.715347 -73.248627 9472387
99.47905 -64.946541 -72.697128 8156787
100.24397 -65.046234 -71.845123 8090994
100.67428 -65.385361 -71.197388 8814715
98.65947 -63.501266 -74.108047 8813680
99.158577 -63.872498 -73.509529 9275009
99.842003 -64.031349 -72.82476 7827823
100.278 -64.246597 -72.243736 7959408
98.726135 -62.770599 -74.404175 9932159
99.434189 -62.969082 -73.713287 8551544
99.873909 -63.332924 -73.168289 7564651
98.354744 -61.691402 -75.236534 8813680
99.032181 -61.887669 -74.572479 10195332
99.602745 -62.183826 -73.950073 10064779
98.056015 -60.708092 -76.12841 6379859
98.64843 -60.841663 -75.509995 8419181
99.117035 -61.107773 -74.896439 9142905
97.565086 -59.485046 -78.29245 13222070
97.883095 -59.741756 -77.363861 7827304
98.322601 -60.024891 -76.585114 7761511
98.831131 -60.206543 -75.974106 6511954
92.395271 -58.742653 -92.185936 6708309
93.025795 -58.871746 -91.551727 7958120
93.577309 -59.152039 -90.653748 9011063
93.397064 -59.151249 -89.62149 8550513
94.140968 -59.149994 -88.83519 9405821
94.156883 -59.149086 -87.838028 11380636
94.783058 -59.147793 -86.909943 8682867
94.786621 -59.146904 -85.921051 8551281
95.395866 -59.145622 -84.99054 8485488
95.590477 -59.144615 -84.0261 9669762
95.979698 -59.143482 -83.077232 15197142
96.362358 -59.142345 -82.129898 13814465
96.534843 -59.141365 -81.170166 13025205
96.968811 -59.181427 -80.244965 10328207
97.25174 -59.322449 -79.230705 10854548
97.892372 -59.299618 -78.783089 16248798
92.044266 -57.761707 -92.976761 7563875
92.613762 -57.835987 -92.462608 6774102
93.17086 -58.094994 -91.870026 7037274
91.70932 -56.501404 -93.864487 7037274
92.157295 -56.817814 -93.33593 7037274
92.843315 -57.004414 -92.669876 6839895
91.68058 -55.795029 -94.228523 7169117
92.436348 -55.89489 -93.545593 8881019
92.988319 -56.219612 -92.925659 8288365
91.335457 -54.764065 -95.014465 9011579
92.013863 -54.853138 -94.401726 9209985
92.570557 -55.039246 -93.844543 11709860
90.98716 -53.661709 -95.83712 7564651
91.546623 -53.84388 -95.2798 10261646
92.226906 -53.93224 -94.665878 9868171
91.114906 -52.808987 -96.139053 8880253
91.877945 -52.90258 -95.453491 11314076
90.742424 -51.744469 -96.962555 9604743
91.387856 -51.888302 -96.351654 13419448
91.886467 -52.034462 -95.862938 12629677
90.400597 -50.676968 -97.761795 11578018
90.909439 -50.886051 -97.234238 9933708
91.49118 -50.949795 -96.715271 10656916
90.037514 -49.681988 -98.544022 8353130
90.483528 -49.855083 -98.086517 10459535
91.132072 -49.915989 -97.512833 10854805
90.037231 -48.818237 -98.95871 7827559
90.769211 -48.905602 -98.302254 10197133
89.668427 -47.801319 -99.756317 8815484
90.362038 -47.877705 -99.137329 7697004
90.892113 -48.21619 -98.5299 9144449
89.351097 -46.648834 -100.65428 10062979
89.907913 -46.920223 -100.00529 9866886
90.510521 -47.112175 -99.380005 8091762
89.081596 -45.806625 -101.71252 7563619
89.617912 -46.016895 -101.05119 8155499
90.155571 -46.18927 -100.42662 7563619
87.734688 -44.469116 -105.49388 6379600
88.36264 -44.529221 -104.71339 6379601
88.64196 -44.696541 -103.78176 6510930
88.833298 -45.006092 -102.85725 7234909
89.402382 -45.215313 -102.05356 9339770
89.981369 -45.401009 -101.36287 10062979
85.72364 -43.734604 -111.08846 8486264
86.325752 -43.859394 -110.4023 7565675
86.820297 -44.122219 -109.66529 8354419
86.707191 -44.172699 -108.13887 9537665
87.350235 -44.171753 -107.61724 8550514
87.477074 -44.28677 -106.46991 7761509
88.109169 -44.285145 -105.94252 7761509
85.30204 -42.706707 -111.93732 11379609
85.904381 -42.883205 -111.32323 8749179
86.514206 -43.106701 -110.68477 9407109
84.870178 -41.593182 -112.8559 8090995
85.449165 -41.848061 -112.22374 10195595
86.148689 -42.043274 -111.51456 12037798
85.060234 -40.870094 -113.03896 8091249
85.786835 -40.893692 -112.38904 10590352
86.222717 -41.221279 -111.84744 13023917
84.640388 -39.841694 -113.90573 10196364
85.342415 -39.85965 -113.28014 8486003
85.808846 -40.216892 -112.69731 9538691
84.379692 -38.562153 -114.75423 10789012
84.85025 -38.918606 -114.16817 9538944
85.511543 -38.954826 -113.56954 9210491
83.939766 -37.551033 -115.59738 12433069
84.397675 -37.883297 -115.06711 11314844
85.131737 -37.9053 -114.41143 12235939
84.095863 -36.764698 -115.81303 8090987
84.775124 -36.929344 -115.19724 9604225
83.758965 -35.635002 -116.71321 6972765
84.318794 -35.907047 -116.19362 7762278
84.896042 -36.170399 -115.4584 8090987
83.55619 -35.108414 -118.60835 8485235
83.663033 -35.163445 -117.86182 9537663
84.145271 -35.259083 -117.05347 8353648
132.90628 -77.345924 17.701149 13024949
132.91385 -77.402855 18.353165 9011838
132.92413 -77.490982 19.332741 9866887
132.89388 -77.263596 16.724941 9406590
133.01279 -77.016151 17.390739 10985625
133.14192 -76.785217 18.432522 7038307
133.18997 -76.765091 19.372757 9538179
133.24283 -76.724716 20.254139 10788500
133.37817 -76.13427 18.419731 7564647
133.60068 -75.810165 19.434738 8815739
133.65869 -75.792976 20.319427 9078655
133.73364 -75.728523 21.241215 8815484
133.95415 -75.477425 22.293385 9866371
134.06136 -75.365982 22.809124 9866371
134.10803 -75.16687 20.33567 10788753
134.26129 -75.017006 21.233818 8814969
134.34114 -74.964157 22.152699 8945271
134.57681 -74.760429 23.166641 9537150
134.92842 -74.521309 24.108829 11905951
135.15436 -74.419479 25.014671 8681843
135.30269 -74.385773 26.055225 8484976
135.48398 -74.337395 26.767677 8288366
135.67944 -74.251976 24.946728 10655886
135.78944 -74.229088 25.880959 10063750
136.1223 -74.136528 26.898315 9143675
136.24167 -74.10994 27.775375 8485745
136.70238 -74.050262 28.798843 8287854
136.96077 -74.012077 29.820648 9537665
137.42548 -74.011017 30.618965 8550514
137.64622 -74.010025 31.54039 8223090
137.82001 -74.008919 32.630844 8420725
138.48804 -74.007645 33.499023 7960176
138.69783 -74.00666 34.436333 7037790
138.90041 -74.005661 35.377197 8354161
139.52295 -74.004257 36.436283 11578268
139.59457 -74.003433 37.294464 11775390
140.00604 -74.002495 38.010487 11775390
103.6531 -70.444847 -65.238487 9537662
103.94489 -70.485092 -64.902618 9537662
102.2299 -69.664299 -67.194763 9932679
102.78484 -69.988571 -66.421127 9800836
103.51682 -69.981346 -65.637367 9143161
101.92623 -68.752899 -68.017532 9472383
102.51009 -68.93428 -67.290558 9011832
103.15592 -69.056068 -66.52935 9208954
103.47984 -69.395416 -65.996078 9011576
101.64465 -67.709953 -68.888161 9209211
102.13288 -67.875824 -68.272552 10458763
102.78207 -67.981339 -67.516548 9800832
103.20466 -68.339905 -66.866608 9011574
101.3349 -66.531754 -69.862709 9735555
101.76817 -66.857933 -69.219002 9340541
102.49999 -66.936974 -68.388474 9866626
102.92503 -67.291389 -67.738312 11905692
100.96926 -65.745285 -70.68425 8814715
101.46152 -65.792725 -70.128693 8682869
102.15098 -65.862206 -69.349014 8682867
102.54328 -66.127075 -68.782715 8682867
100.67432 -64.721573 -71.558777 7564651
101.10519 -64.881096 -71.008301 7893615
101.74087 -64.886497 -70.321274 9275007
102.25393 -65.092735 -69.657013 10130057
100.27575 -63.696014 -72.545807 7564651
100.74978 -63.955654 -71.894424 7827822
101.39057 -63.873924 -71.249367 7893869
101.86105 -64.165932 -70.584183 8814715
100.30772 -63.009476 -72.884537 7893357
101.04902 -62.87981 -72.157974 7827817
101.46372 -63.135315 -71.572662 9209467
100.02186 -61.892883 -73.736504 9932679
100.67071 -61.998718 -73.044594 9142907
101.16043 -62.010052 -72.511536 8616819
99.724869 -60.769619 -74.67337 9142907
100.28947 -60.978775 -74.025627 9932423
100.81756 -61.114101 -73.396408 9669507
98.641678 -59.510967 -77.273956 8287597
99.063522 -59.617321 -76.57872 7564130
99.526466 -59.882538 -75.784012 6906712
100.01318 -60.107044 -75.079697 8945784
93.571159 -58.58242 -91.299255 6510930
94.001724 -58.772194 -90.846191 7760998
94.641403 -58.932423 -90.074997 8813942
95.075531 -59.149513 -89.071396 13221557
95.138245 -59.148571 -88.071671 12959413
95.608513 -59.14748 -87.243576 8287597
95.814278 -59.14645 -86.266159 8616561
96.218086 -59.145298 -85.307838 7563619
96.61512 -59.144142 -84.351051 8945270
96.798431 -59.143139 -83.37838 15195094
97.383736 -59.141857 -82.434914 10459022
97.349953 -59.141014 -81.455467 14471883
98.024628 -59.139778 -80.635864 7038307
98.162971 -59.138893 -79.695358 8814715
98.453331 -59.216274 -78.653313 9340542
98.943695 -59.300323 -77.890152 7498081
99.532234 -59.391586 -77.014046 6116684
93.616524 -57.804676 -91.635315 6510930
94.340439 -57.953094 -90.955734 6972249
94.846413 -58.315533 -90.356331 8485488
93.271042 -56.676064 -92.468552 7104091
93.864365 -56.895821 -91.864395 6775126
94.450012 -57.088894 -91.279526 6511954
92.921173 -55.551403 -93.303574 11709860
93.45031 -55.840214 -92.720093 10196363
94.096016 -56.079189 -92.062683 8288365
92.994247 -54.806725 -93.600494 12828083
93.674965 -54.984581 -92.943077 9407105
94.204849 -55.274506 -92.358444 8288365
92.662598 -53.748684 -94.388206 12038825
93.254799 -53.933895 -93.801582 11709860
93.85363 -54.149445 -93.194794 12959413
92.364571 -52.545628 -95.21624 10064268
92.787994 -52.921455 -94.680389 9341571
93.498055 -53.027958 -94.03299 8617848
92.372002 -51.850914 -95.543358 9340544
93.096863 -51.949329 -94.887573 10064521
91.97715 -50.839092 -96.360382 12235432
92.7127 -50.902134 -95.712585 7301214
93.064888 -51.244347 -95.252701 8485488
91.619148 -49.814396 -97.152649 9144186
92.243484 -49.863728 -96.604782 11315099
92.752716 -50.076485 -96.075142 7959400
91.257668 -48.717831 -97.982239 11381404
91.761665 -48.861195 -97.490372 7696741
92.412636 -49.004864 -96.874878 10460046
91.318253 -47.822117 -98.361229 10460048
92.058243 -47.977581 -97.665375 6249039
90.927849 -46.77079 -99.246658 9144449
91.623856 -46.948166 -98.547203 10525329
92.159081 -47.089138 -98.006958 7696741
90.324409 -45.699821 -100.77538 7563619
90.715279 -45.962605 -100.1836 9538436
91.352943 -46.045357 -99.56488 7762283
91.740265 -46.310055 -98.973541 9144449
89.363365 -44.468697 -104.11942 7893096
89.920502 -44.561638 -103.26211 8880247
90.20562 -44.790901 -102.18604 9471100
90.517372 -45.055428 -101.31407 8287084
91.104012 -45.286545 -100.53439 10194567
87.380043 -43.713188 -109.6623 9538436
87.986809 -43.914864 -108.92791 9011321
88.359535 -44.171635 -108.32658 7563619
88.245819 -44.170429 -106.88115 6182222
88.878197 -44.198101 -106.08936 7037530
89.11702 -44.284283 -105.09447 6182222
89.870338 -44.284855 -104.45557 8485233
86.973274 -42.781639 -110.43609 9472902
87.627327 -42.883263 -109.81934 9209726
88.172966 -43.102036 -109.24796 9734779
86.54702 -41.664387 -111.34792 14076611
87.149033 -41.843323 -110.73225 9604227
87.756416 -42.068321 -110.0896 9669760
86.696487 -40.805164 -111.63253 13750216
87.427834 -40.942364 -110.92342 11117720
86.309891 -39.824314 -112.44707 10262415
87.036819 -39.850769 -111.79545 14605528
87.472206 -40.180424 -111.25328 14605262
85.892578 -38.792854 -113.31316 8947063
86.594925 -38.813526 -112.68591 8617331
87.060646 -39.173088 -112.10258 13881805
85.653458 -37.623116 -114.08955 12564904
86.146584 -37.871292 -113.53607 10789007
86.808998 -37.890087 -112.9449 8090987
85.211357 -36.502079 -115.02073 10261900
85.655106 -36.83057 -114.47173 12893612
86.372696 -36.910347 -113.80257 10657166
84.913055 -35.54628 -116.06145 10261900
85.378967 -35.76107 -115.39149 8222316
86.033554 -35.937462 -114.6209 10985621
86.506371 -36.470207 -113.89812 10591121
84.441765 -35.097378 -119.86098 8485235
84.253784 -35.045269 -117.79533 11379348
84.79731 -35.037449 -117.36643 9077371
85.124298 -35.143665 -116.52455 9998470
85.689461 -35.206459 -115.66608 9866113
132.44073 -76.723938 12.476421 8287853
132.61461 -76.691353 13.201702 8485232
132.77977 -76.798843 14.122196 8813938
132.97824 -76.806618 15.17968 7893348
133.04616 -76.78952 16.2579 8748401
133.16537 -76.579781 17.248535 8617331
133.03284 -76.185051 14.231323 8682351
133.30716 -75.96888 15.235271 9537402
133.44762 -75.8405 16.187103 9669503
133.45639 -75.907761 17.18998 9012089
133.63049 -75.668831 18.128899 8946296
133.81512 -75.470055 18.920082 8815477
133.9137 -75.244926 17.186317 9143675
134.13986 -74.997475 18.036842 10788243
134.35112 -74.811302 19.054008 9802371
134.55139 -74.681862 20.008877 9802371
134.79782 -74.501884 20.942501 8486259
134.93753 -74.449127 21.963318 8353909
135.35147 -74.331566 23.03727 8616822
135.47266 -74.276192 21.719959 8353909
135.77135 -74.194023 22.692169 8485495
136.00659 -74.133125 23.759655 8025200
136.12502 -74.107071 24.65987 9998215
136.66724 -74.03566 25.509506 9932679
136.86667 -74.015022 26.595036 9012089
137.25339 -74.013954 27.473339 9209468
137.63985 -74.012878 28.358494 8945784
137.7227 -74.011971 29.2985 9011321
138.36566 -74.01059 30.311329 8813686
138.7059 -74.009384 31.381454 8289141
138.77325 -74.008476 32.334812 12631473
139.4514 -74.007195 33.206497 11973286
139.51184 -74.006294 34.169579 7300702
139.87607 -74.005188 35.095356 8814966
140.34047 -74.004097 35.934601 9604226
140.60037 -74.002983 36.967026 10196361
140.95734 -74.001877 37.911438 10393739
141.38667 -73.760986 38.614655 10196364
141.71651 -73.137764 38.853664 11380124
104.23682 -70.526176 -64.566101 9537662
104.82101 -70.610855 -63.89138 9077624
105.50315 -70.713455 -63.101593 8419951
103.9653 -69.57386 -65.376579 8551281
104.35052 -69.855309 -64.808868 9866630
105.03374 -69.952988 -64.020554 8946296
105.51586 -70.254318 -63.3377 8090986
103.49245 -68.715729 -66.352493 9011576
103.99865 -68.812469 -65.755089 8617074
104.7057 -68.876801 -64.959297 7762277
105.14828 -69.281731 -64.262634 8748917
103.21485 -67.663506 -67.223862 9011574
103.66627 -67.934761 -66.590492 9142904
104.33234 -67.871468 -65.908188 8222572
104.78085 -68.089729 -65.306816 7762277
102.93272 -66.618103 -68.096375 10458505
103.26117 -66.951103 -67.561752 8617073
103.9594 -66.947327 -66.812477 9406332
104.50414 -67.032829 -66.179787 6512978
102.93987 -65.8722 -68.494667 9932420
103.61199 -65.992302 -67.706078 8814196
104.10232 -66.148209 -67.093628 8485231
102.15723 -64.527252 -70.068817 10130057
102.6507 -64.836739 -69.3694 8748404
103.24374 -64.973915 -68.656616 9668736
103.79356 -65.178963 -67.953354 9537664
101.86131 -63.502155 -70.945229 7565157
102.24701 -63.796833 -70.369797 8485233
102.87095 -63.962795 -69.608093 7432548
103.44763 -64.103699 -68.91082 7432548
101.56107 -62.482967 -71.823074 7565157
101.89766 -62.801826 -71.287231 6710106
102.55681 -62.904179 -70.52227 7564645
103.15359 -63.073082 -69.788116 7235170
101.55743 -61.75008 -72.225647 8485745
102.20613 -61.845867 -71.475082 7893865
102.76772 -62.053902 -70.757431 6118226
100.88126 -60.526833 -73.90416 9142907
101.32126 -60.781628 -73.156937 10130057
101.89983 -60.888832 -72.427612 9077369
102.46062 -61.04557 -71.680069 9209467
100.44765 -59.447289 -76.008881 6511954
100.81233 -59.592396 -75.201859 8682612
101.12 -59.964966 -74.263344 8353391
101.74244 -60.091331 -73.471024 9801348
102.1381 -60.323296 -72.779633 9735555
95.232651 -58.673397 -89.859619 10459278
95.781639 -58.875053 -89.301483 11314076
96.231659 -59.043182 -88.483398 8089963
96.546898 -59.146976 -87.464005 9142651
96.853615 -59.145874 -86.487671 11181972
97.049034 -59.144962 -85.627472 11181972
97.652397 -59.143661 -84.677956 10853265
97.625847 -59.142796 -83.681686 10459022
98.319267 -59.141544 -82.859711 8090987
98.332932 -59.140656 -81.87442 7564647
98.850677 -59.139412 -80.916183 7038307
99.361465 -59.138176 -79.956718 9275265
99.353477 -59.137306 -78.979988 5919050
99.848045 -59.171177 -77.943848 5919050
100.20736 -59.241337 -77.151901 7300958
100.58606 -59.325485 -76.39576 6511954
95.272102 -57.930038 -90.184219 11117208
95.988098 -58.114464 -89.494003 12169641
96.511017 -58.416397 -88.909409 12432045
94.884407 -56.910961 -91.000191 6511954
95.558884 -57.015163 -90.383514 10261899
96.11097 -57.214867 -89.823601 12433069
94.487785 -55.732544 -91.900375 8288365
95.107452 -55.986591 -91.257629 6511954
95.783783 -56.089855 -90.639778 6511954
94.138687 -54.605389 -92.735962 11906725
94.692383 -54.934044 -92.112717 8551538
95.4105 -55.047638 -91.454781 6972250
94.284431 -53.821648 -92.990631 10985366
94.977226 -54.011272 -92.317444 8288110
95.427559 -54.333076 -91.784279 7893352
93.948074 -52.735741 -93.795517 9274493
94.515244 -52.991913 -93.19593 9998216
95.093307 -53.067402 -92.674019 10327181
93.59774 -51.704712 -94.584465 10459023
94.048691 -51.976158 -94.075607 9735044
94.722168 -52.080956 -93.459854 9734788
93.23391 -50.587772 -95.425812 6511954
93.634697 -50.932693 -94.923889 9538177
94.370583 -51.033596 -94.257629 9142907
93.241135 -49.878948 -95.759903 7301470
93.938301 -49.949398 -95.140793 7367007
94.412544 -50.297836 -94.575462 7563619
92.884308 -48.840824 -96.557602 10656913
93.508842 -48.912045 -95.999069 8617074
94.080788 -49.2089 -95.376434 8024936
92.524879 -47.59272 -97.458176 5920074
93.02774 -47.906212 -96.88562 8485745
93.733955 -48.098381 -96.200531 9669504
92.643555 -46.869774 -97.739067 8551540
93.333855 -47.030022 -97.063812 8222320
93.833794 -47.297993 -96.500793 7564643
91.924324 -45.721764 -99.409279 7563619
92.335564 -46.025009 -98.759659 7366497
92.986687 -46.136585 -98.100487 9735558
93.453934 -46.344566 -97.498871 9735558
90.609131 -44.471951 -103.05333 8419184
91.105553 -44.474167 -102.62459 8484721
91.46537 -44.59948 -101.79959 7629411
91.785629 -44.834862 -100.66197 10721167
92.180397 -45.168674 -99.765015 7563619
92.732201 -45.364899 -99.088074 7563619
88.500114 -43.551624 -108.76365 8287336
89.010506 -43.798008 -108.15346 8616303
89.629585 -43.95565 -107.50203 10129285
89.771477 -44.168842 -106.37695 6510930
90.017952 -44.167774 -105.38612 6905945
90.511909 -44.206413 -104.60835 7563875
90.871056 -44.28754 -103.59883 8484977
91.494713 -44.290096 -103.06116 8813686
88.608833 -42.741997 -109.03093 8418922
89.307137 -42.937748 -108.33827 9011059
89.842697 -43.197929 -107.7579 12432037
88.217834 -41.745117 -109.84056 8484973
88.869225 -41.847935 -109.21849 7432029
89.410378 -42.066872 -108.64035 6313806
87.867836 -40.680542 -110.66357 8682867
88.397652 -40.80695 -110.13673 8682867
89.03434 -40.943928 -109.511 8747886
87.625023 -39.500477 -111.44815 12630959
88.00869 -39.832157 -110.95044 9867141
88.742012 -39.868382 -110.2885 9801348
87.563065 -38.781788 -111.85054 12434100
88.248878 -38.854008 -111.21292 11051673
88.72538 -39.142754 -110.65437 10591124
87.190628 -37.729263 -112.68733 8090987
87.791252 -37.947838 -112.05373 9472384
88.444466 -38.13002 -111.39157 9143423
86.947815 -36.800491 -113.35034 9341054
87.374779 -37.04649 -112.85607 8353646
88.076393 -37.166412 -112.18145 7234909
86.430557 -35.488682 -114.64953 10591121
86.874931 -36.01247 -113.81824 10130570
87.61631 -36.106602 -113.09882 9406335
88.056458 -36.438454 -112.55146 8287597
84.747643 -35.046623 -119.38501 8485235
85.239777 -34.956596 -118.57191 9340280
85.832069 -34.852863 -117.60859 9208696
86.118744 -34.830044 -116.63148 9142904
86.384979 -34.900974 -115.83055 9668991
86.806656 -35.024662 -114.86224 9735812
87.384178 -35.235817 -114.0004 8617331
87.815231 -35.441349 -113.35556 8090987
132.05916 -76.386589 10.200539 10459278
132.22311 -76.528687 11.17358 10853524
132.43182 -76.555496 12.154671 8682611
132.63132 -76.41629 12.816994 8287853
131.45764 -75.90036 6.6622887 8813942
131.56351 -75.982773 7.3021698 8813942
131.81883 -75.948891 8.2710381 8353391
132.06818 -75.914894 9.244133 9340539
132.3759 -75.753304 10.186665 9406332
132.55998 -75.806641 11.139641 10524558
132.74855 -75.865059 12.14962 10129545
133.03717 -75.74958 13.11684 9208699
133.25931 -75.716698 14.11105 8813936
133.58513 -75.515465 14.927135 9077108
133.69156 -75.45118 15.688416 10261124
132.97864 -75.216133 11.080776 9471871
133.20142 -75.166504 11.907013 10261132
133.54805 -75.02813 12.976002 10261132
133.78055 -75.008026 13.950062 9341051
134.03247 -74.935928 14.91478 8485228
134.18719 -74.821777 15.847752 7959399
134.40704 -74.702972 16.793022 8880503
134.68938 -74.49157 17.751919 10459278
135.03413 -74.377548 18.769524 11840927
135.14676 -74.351196 19.503952 9999494
135.2706 -74.291054 17.865517 10261899
135.47568 -74.234993 18.557457 14076861
135.65257 -74.192001 19.580528 10394251
135.82649 -74.15004 20.607765 8486259
136.12949 -74.091629 21.628277 8617080
136.52661 -74.019028 22.401806 9472388
136.99332 -74.017853 23.328518 11183004
137.01746 -74.016914 24.351467 8485751
137.71219 -74.015678 25.164085 8025201
137.72653 -74.01474 26.195431 7432032
138.17828 -74.013565 27.146885 9011064
138.62999 -74.012367 28.106071 10392974
138.83334 -74.011246 29.193817 8747893
139.31381 -74.01017 29.999275 10919318
139.54686 -74.009155 30.930962 10920601
139.77345 -74.008156 31.866421 9736585
140.25078 -74.007057 32.689869 9144705
140.43027 -74.005936 33.804199 8354159
140.90233 -74.004837 34.639942 9407615
141.27505 -74.003723 35.577408 8617331
141.6434 -73.767181 36.595772 9669762
141.70145 -73.616859 37.646652 9735555
142.04041 -73.018494 36.74633 10459278
142.02174 -72.787025 37.524387 9604225
141.92947 -72.684814 38.500175 11972261
142.27046 -72.102837 37.539085 9340797
142.27014 -71.770874 38.456387 9143675
142.25604 -71.610527 39.004459 8090987
105.80563 -70.413864 -62.939117 9143675
106.24007 -70.655754 -62.34 11182227
106.9879 -70.752716 -61.482544 10786955
107.35854 -71.014519 -60.941254 8088931
142.57114 -70.941582 38.478104 8354159
142.52541 -70.848083 39.079708 8090987
105.97157 -69.748154 -63.122894 8354158
106.55817 -69.874001 -62.423195 9800318
107.09471 -70.041237 -61.754837 10984591
142.85754 -69.952629 39.049362 7564643
105.16395 -68.598038 -64.617882 7762277
105.50856 -68.892303 -64.086945 7762021
106.19037 -68.919258 -63.338585 8156779
106.82787 -69.051384 -62.580734 7826786
105.17979 -67.840828 -65.012947 7762277
105.81838 -67.971817 -64.254509 8288365
106.30843 -68.134247 -63.638824 9670019
104.89173 -66.729317 -65.92791 7104858
105.44376 -66.963737 -65.206314 7828069
106.08427 -67.093704 -64.446365 8354158
104.52367 -65.681763 -66.894066 6511955
105.11558 -65.868248 -66.155678 8748914
105.77048 -65.995743 -65.381599 11183252
106.09925 -66.33754 -64.841805 9012085
104.18671 -64.799911 -67.736618 10129545
104.8141 -64.787201 -67.068443 6840920
105.36851 -65.030457 -66.339493 8880500
103.84671 -63.834602 -68.627869 7827304
104.34345 -63.923122 -68.045181 9077113
105.04029 -63.910282 -67.302231 5920074
103.45309 -62.770435 -69.630478 7958634
103.98892 -62.996956 -68.930275 9010806
104.71168 -62.834248 -68.240181 9537664
105.04649 -63.164791 -67.700294 9537664
103.15376 -61.744907 -70.509109 6314838
103.6533 -62.014797 -69.824661 7300962
104.36286 -61.92067 -69.111328 9668479
104.75226 -62.128494 -68.579117 9143675
102.85067 -60.73563 -71.541077 9275003
103.44473 -60.852245 -70.809158 8024938
103.94626 -61.120632 -70.021408 7826790
104.45389 -61.098202 -69.459122 7563619
101.74828 -59.525787 -74.535172 7038298
102.31558 -59.636219 -73.564438 10591116
102.72099 -59.920956 -72.670204 10853775
103.22391 -60.059635 -71.927101 10195590
103.60018 -60.239117 -71.297531 10590347
96.836662 -58.775032 -88.463333 9142651
97.484642 -58.816708 -87.886398 10458254
97.984451 -59.088966 -86.947052 11181972
97.888916 -59.144627 -85.949585 11181972
98.601425 -59.14336 -85.125267 12892591
98.623207 -59.142448 -84.123779 8682867
99.158043 -59.141186 -83.158249 8090987
99.426559 -59.140114 -82.178391 7037790
99.685516 -59.139046 -81.198563 8551543
100.35831 -59.137794 -80.359558 7695975
100.29527 -59.136955 -79.372627 7301474
100.84047 -59.135685 -78.403252 9933193
101.17351 -59.134563 -77.429901 8748402
