# .PCD v0.7 - Point Cloud Data file format
VERSION 0.7
FIELDS x y z rgb
SIZE 4 4 4 4
TYPE F F F U
COUNT 1 1 1 1
WIDTH 1225
HEIGHT 1
VIEWPOINT 0 0 0 1 0 0 0
POINTS 1225
DATA ascii
96.037148 -58.863163 108.90205 9012095
95.714165 -58.858959 109.86488 12960438
95.387733 -58.857254 110.83147 13354940
94.582748 -58.856815 111.51547 9736073
93.908272 -58.856461 112.08112 8617078
93.898773 -58.853436 113.45476 12433069
93.074966 -58.85305 114.12788 8617337
92.384804 -58.85273 114.68445 7565163
92.352097 -58.849709 116.07186 10460560
91.509308 -58.849369 116.73383 8815739
91.072411 -58.700153 117.68884 8354158
90.511024 -58.481731 118.37111 9208953
89.906021 -58.248417 118.76089 9537918
155.42073 -57.722141 9.5068254 7563619
155.51653 -57.880955 10.170056 7892584
91.282959 -57.97353 118.19772 9537918
90.69442 -57.659958 118.61189 11774621
89.989403 -57.576305 118.99043 8748403
155.78491 -56.717823 9.4609003 8945015
155.76892 -57.096565 9.9973917 8616307
90.883636 -56.811695 118.8604 9537918
90.072739 -56.75378 119.28048 8090730
89.424835 -56.458015 119.7164 9209467
156.00964 -55.63493 8.6931963 7564651
156.02286 -55.954082 9.2591372 8813944
90.269547 -55.71347 119.60258 8946040
89.50621 -55.586491 120.02711 7564392
88.897438 -55.358597 120.41661 7038307
156.3024 -54.775974 8.5738993 9142652
156.34138 -55.111801 9.2767801 8813944
89.709076 -54.660496 120.30027 7366757
88.895905 -54.607956 120.71928 7827564
156.5253 -53.678951 7.7757735 8550772
156.56207 -53.960155 8.3819933 8682358
89.667824 -54.094227 120.54822 8090736
89.096909 -53.68272 120.99303 8485493
88.444328 -53.392693 121.42899 7696236
156.74527 -52.622429 7.0297599 8485235
156.89215 -52.736664 7.8401427 9208699
89.235947 -52.659714 121.33644 9669508
88.552223 -52.571808 121.70631 9669508
87.868942 -52.485195 122.07545 11380124
157.03094 -51.769676 6.8900428 8748406
157.17133 -51.824734 7.5781493 9340284
88.584686 -51.715252 122.03487 10261643
87.835213 -51.610306 122.44376 11380124
157.39766 -50.773041 6.8671241 9471357
88.67569 -51.033653 122.26427 10261643
88.099846 -50.627186 122.7095 11445917
87.33992 -50.305882 123.21054 12564398
157.56093 -49.812824 6.0324302 9077370
157.74963 -49.799225 6.8176093 8089963
88.234085 -49.60532 123.05455 11380380
87.476349 -49.658962 123.40381 12170408
86.859497 -49.440636 123.7934 9736067
157.79095 -48.657143 5.1712623 8092019
157.9494 -48.712585 5.9372573 9208699
157.96362 -49.151829 6.6991668 9537150
87.620422 -48.7785 123.6872 10525839
86.82103 -48.567493 124.16324 11249305
158.11929 -47.783783 5.1809707 9209727
158.30933 -47.75618 5.9493842 9142907
87.662689 -47.986046 123.9851 9736067
87.018448 -47.622513 124.44648 10262154
86.316605 -47.268242 124.93237 10524812
158.41925 -46.606937 4.3312774 9209985
158.50398 -46.796741 5.1445785 9538435
87.207062 -46.717999 124.71773 10789267
86.451111 -46.621426 125.12788 9867140
85.835114 -46.410065 125.52525 9209467
158.96094 -45.592014 3.4850554 8354934
158.92322 -45.868069 4.2492995 11051930
86.624161 -45.964714 125.50946 9275005
85.973419 -45.691563 126.05484 9077625
85.440552 -45.373062 126.58031 11379356
160.36368 -44.385258 1.7814649 10065293
159.76118 -44.646084 2.5420547 7960176
159.42996 -44.996021 3.3034835 8683898
159.34219 -45.278515 4.0683227 10788759
86.075912 -45.055119 126.53452 9537920
85.489349 -44.862831 126.98361 10721938
84.966614 -44.594536 127.64146 10064778
84.505356 -44.257328 128.71484 8025714
83.613281 -44.147522 129.52237 7894384
165.06049 -43.647934 -6.8884492 11379348
165.23152 -43.683216 -6.0997453 8682609
164.08302 -44.022015 -5.0722871 9801093
164.10825 -44.019798 -4.0863481 9011833
162.52563 -44.018368 -2.4873796 9340798
162.53371 -44.016632 -1.7061907 8814456
162.53868 -44.014893 -0.92493308 8090736
161.07117 -44.045799 0.047906309 7564393
160.92868 -44.148304 0.88563669 7696235
83.981529 -43.92643 130.09554 8092019
83.327637 -43.913429 130.45786 10524304
82.673515 -43.900867 130.81876 9012350
82.526474 -43.826778 132.35045 8617075
81.726486 -43.826752 132.84303 10789012
81.047745 -43.822876 135.0051 8813686
80.231857 -43.822891 135.48871 8287342
79.577393 -43.822914 135.87238 8089963
79.516357 -43.819019 137.67047 9208955
78.684387 -43.819077 138.14484 8814453
78.328766 -43.568325 139.07782 9077369
77.571373 -43.332417 139.69534 9143418
165.35323 -42.853405 -6.9017777 9669503
165.52481 -42.887897 -6.1118989 9077624
78.526184 -42.829247 139.43054 8682867
77.86821 -42.626144 139.83414 9143162
77.071983 -42.551395 140.2538 8682867
165.62038 -41.627159 -7.7127824 9012350
165.69049 -41.906639 -6.9671998 8090995
77.927498 -41.89024 140.10086 9537920
77.12767 -41.561558 140.62442 9077625
165.91339 -40.831104 -7.7275224 8814972
166.01305 -41.062462 -6.9321275 8090995
77.435493 -40.719921 140.81168 10129801
76.545425 -40.632866 141.28241 10459278
166.10638 -39.804123 -8.5387335 9472641
166.25085 -39.882595 -7.7947907 9801862
77.402878 -39.968548 141.12935 12037286
76.670319 -39.75053 141.57555 10656914
76.098686 -39.437801 141.98096 9078397
166.47287 -38.807133 -8.5589514 9011831
166.57385 -39.036446 -7.7610307 9537918
76.904755 -38.63472 141.90878 10065035
76.135941 -38.530827 142.3269 9802120
75.502975 -38.137024 142.79494 10065035
166.67967 -37.676891 -9.4756994 10656397
166.79402 -37.861389 -8.6918554 9735040
76.363953 -37.598232 142.58972 13222067
75.537453 -37.514389 143.02803 10196620
166.92944 -36.554153 -10.196258 8682867
167.03192 -36.780663 -9.3962164 9537918
76.399399 -36.974773 142.82257 10065035
75.764183 -36.580292 143.29205 8420726
74.99147 -36.478226 143.71136 9077881
167.23778 -35.650108 -10.317412 10459278
167.35342 -35.832787 -9.5311499 9603711
75.799759 -35.669659 143.64026 8288621
75.161293 -35.561962 143.99615 8287597
74.554443 -35.402931 144.35713 8287341
167.48712 -34.52618 -11.041961 10459278
167.59076 -34.751083 -10.239318 10130056
75.335114 -34.673462 144.26773 7958632
74.440659 -34.564831 144.7493 7366239
167.70261 -33.853184 -11.192168 8747891
167.9147 -33.7407 -10.463294 9405822
74.738708 -33.671234 144.96216 8813685
73.993721 -33.444927 145.41779 9208699
168.04483 -32.49432 -11.8935 11378324
168.08328 -32.8671 -11.134376 9142136
74.780273 -32.741329 145.31517 9800323
73.99649 -32.611565 145.75101 10458252
168.25836 -31.819033 -12.045203 10983823
168.40024 -31.9062 -11.309409 9931650
74.38073 -31.718882 145.92123 9339769
73.471893 -31.638493 146.39857 9997959
168.6113 -30.459158 -12.751807 11378324
168.61931 -30.93317 -11.987441 10523273
74.338966 -30.958035 146.24722 8090730
73.59259 -30.744761 146.707 9734788
73.011238 -30.434647 147.13074 9734788
169.64224 -29.351564 -13.240104 10260358
169.06232 -29.850637 -12.867766 10918030
169.04482 -30.098949 -12.375945 11378324
73.750198 -29.934155 147.13437 11181975
73.129395 -29.67008 147.66992 10063496
72.560287 -29.292425 148.31583 8946043
71.882202 -29.202885 148.74268 9537665
72.243675 -28.924541 149.495 10591380
71.342834 -28.925627 149.93024 10591380
70.628265 -28.798702 152.20241 9143675
69.89299 -28.798937 152.53958 9143675
130.00243 -74.351776 53.767357 9537408
129.69595 -74.362579 54.55587 9932166
129.16592 -74.478706 55.506088 10458510
128.78412 -74.519997 56.372303 9339773
128.29204 -74.608032 57.157314 8682100
127.83719 -74.617859 57.92207 8090218
127.3615 -74.586006 58.817299 9801860
126.8723 -74.587807 59.627449 11775906
126.45527 -74.531235 60.502041 9275775
125.97316 -74.50631 61.391811 9407363
125.32871 -74.610489 62.199703 10722450
124.70348 -74.729042 63.014641 9341054
124.21552 -74.711075 63.896973 9998984
123.72515 -74.695465 64.777618 9012089
123.23236 -74.682129 65.656624 8814455
122.73714 -74.671188 66.533943 10261131
122.23948 -74.662529 67.409691 8682611
121.7393 -74.656204 68.283875 9011580
121.19909 -74.629173 69.13488 9734789
120.66045 -74.538635 69.937607 8748409
120.1422 -74.379967 70.848541 8353648
119.5567 -74.336166 71.670624 8419440
119.14304 -74.265388 72.498627 8748661
142.31317 -73.729012 33.200188 9538176
142.19386 -73.675301 34.059731 7893352
141.97256 -73.763222 34.924988 9933190
141.49057 -73.961357 36.011066 9209467
140.45319 -73.961746 36.464588 10985876
140.18422 -73.959862 37.475784 12235940
139.90796 -73.957993 38.484978 9801863
139.12291 -73.957664 39.107925 10656915
138.58484 -73.956596 39.916443 9209467
138.29094 -73.954773 40.913994 9209467
137.98993 -73.952972 41.909382 7432032
136.95172 -73.953468 42.311989 8814710
136.64064 -73.951706 43.297718 8156780
136.3224 -73.949959 44.281212 8156780
135.64743 -73.948784 45.21722 9339767
134.84694 -73.948204 45.960045 9866110
134.50955 -73.94651 46.930496 10589576
134.16513 -73.944824 47.898438 9405820
133.62343 -73.949394 48.793884 10920088
133.01103 -73.963875 49.2953 10591380
132.47511 -73.976875 50.185795 11051673
131.90242 -74.052032 51.132042 10064265
131.52077 -74.076981 52.00528 10130057
131.16049 -74.086983 52.959953 9274492
130.55093 -74.182549 53.811626 8682099
130.18236 -74.195381 54.76162 8879478
129.80939 -74.209663 55.710213 10787988
118.85205 -74.108238 73.601357 8617333
118.27036 -74.078941 74.42691 8880505
117.68523 -74.051086 75.249435 8880506
117.09663 -74.024712 76.068962 9208955
116.50465 -73.999786 76.885353 7301477
116.00078 -73.966682 77.679695 8090992
115.57287 -73.901482 78.688873 9274237
114.99968 -73.900414 79.519295 8813686
114.42052 -73.899345 80.345589 9603457
113.83538 -73.898315 81.167618 10392717
113.24438 -73.897293 81.985405 9077369
113.08579 -73.895454 82.912613 9208954
112.75136 -73.894119 83.716087 10262156
112.30931 -73.892639 84.652901 9471868
111.69315 -73.891678 85.459625 9011832
111.07119 -73.890732 86.261871 9012606
110.44346 -73.889801 87.059509 7565675
109.80998 -73.888885 87.852692 8025200
109.49934 -73.886963 88.909615 8748919
109.06979 -73.885643 89.766113 7893608
108.5247 -73.884193 90.750534 7564647
107.86462 -73.883347 91.529778 9077116
107.19895 -73.882523 92.304245 9077116
106.68855 -73.881187 93.21521 9932169
106.70442 -73.797638 94.255341 10261133
106.08441 -73.69117 94.964592 8222066
105.27911 -73.610489 95.620972 7696232
104.72838 -73.326538 96.044113 9341054
142.88652 -72.550789 32.248093 10196106
142.68317 -72.839798 33.044743 9932678
142.57553 -72.818504 33.984341 8813685
106.10492 -72.995728 95.290283 7038307
105.53815 -72.680214 95.856659 8353907
104.71628 -72.613541 96.342682 7630442
143.33043 -71.625435 31.383039 10854036
143.2182 -71.657967 32.201591 8879735
143.06596 -71.746559 33.177628 8616563
142.85626 -72.10881 33.808563 8089963
105.58817 -71.787979 96.212006 9209472
104.81441 -71.742455 96.646759 9011837
104.17852 -71.592163 97.050323 10261901
143.80145 -70.581818 30.640848 8682867
143.62314 -70.816124 31.401163 8946039
143.50848 -70.794228 32.404114 7498337
143.35921 -70.936089 33.199345 8089963
105.01379 -70.792793 96.928619 8682873
104.25748 -70.593117 97.417137 10656658
103.62118 -70.446373 97.819412 9143166
144.37704 -69.285454 29.795897 6840922
144.1586 -69.642319 30.519743 9209211
144.00471 -69.726128 31.528742 7695972
143.8029 -70.010788 32.331165 6511954
104.42242 -69.69175 97.697693 9406593
103.56978 -69.62368 98.184128 8221806
144.63029 -68.670494 29.5576 8420208
144.48441 -68.740524 30.542463 10788756
144.3508 -68.832458 31.361193 9406590
104.47079 -68.913254 97.990685 9735556
103.84833 -68.612526 98.448601 7958633
103.07452 -68.578224 98.878769 5919050
145.08661 -67.626968 28.851274 7038300
144.9313 -67.76725 29.787745 10591889
144.71991 -68.077682 30.591555 10526352
103.87123 -67.803772 98.767624 8089963
103.17566 -67.665184 99.198494 7432033
102.54156 -67.422844 99.638733 6642517
145.42993 -66.665359 28.071169 5919050
145.38525 -66.790367 28.909773 8617331
145.26085 -66.881088 29.733046 11381661
103.4929 -66.7696 99.394775 8221804
102.68797 -66.54834 99.918327 9669246
145.8683 -65.325539 27.18527 9209467
145.76427 -65.723587 27.937849 6840408
145.71689 -65.897949 28.870638 8024681
102.88547 -65.762878 100.13387 9406330
102.09444 -65.547935 100.64737 9011573
146.07028 -64.746986 27.040636 8880502
146.08997 -64.827721 27.953859 7300959
146.03639 -65.08152 28.67256 7037274
103.01328 -64.896561 100.42006 7893349
102.38652 -64.60849 100.87512 6512210
101.6105 -64.585884 101.30171 7038298
146.48676 -63.493145 26.327753 7565675
146.40201 -63.848495 27.150938 7631210
146.36488 -64.07711 28.005514 6971738
102.39049 -63.731953 101.23213 7827814
101.63193 -63.710396 101.64894 8024679
101.11334 -63.269627 102.10838 8814195
146.78641 -62.550674 25.531111 7565675
146.73512 -62.797169 26.250242 7565675
146.7966 -62.758034 27.136381 12104362
102.44254 -63.060547 101.4792 9866369
101.87141 -62.659882 101.95045 8616559
101.08415 -62.578609 102.40715 9669503
147.09987 -61.659897 25.341719 11183258
147.07777 -61.862289 26.31053 12301998
101.85439 -61.672676 102.36407 7038298
101.16219 -61.729763 102.71295 11971486
100.51901 -61.606827 103.10922 7893350
147.71252 -60.387012 24.593798 7958888
147.51379 -60.731846 25.412451 8222060
147.34741 -61.099903 26.175077 12434093
101.3626 -60.905525 102.95425 8814195
100.67421 -60.58717 103.54274 7959401
99.88475 -60.284985 104.20118 8090987
148.84589 -59.324905 22.764566 8090987
148.34833 -59.615879 23.705759 7432801
148.07021 -59.912357 24.470594 7629667
100.9304 -59.973492 103.90782 9736836
100.41261 -59.755165 104.3753 10262668
99.702827 -59.503311 105.08385 8551538
99.037987 -59.281906 105.84135 10327951
98.489532 -59.193817 106.4047 7038307
155.49506 -58.561359 11.484525 9866630
155.29912 -58.732262 12.408616 14077378
154.75549 -58.993908 13.300862 7565154
154.09872 -58.992847 14.17563 6906711
153.43654 -58.99181 15.04437 7169626
153.32166 -58.989517 16.149923 8090469
152.11316 -58.989777 16.759695 6972503
152.0289 -58.988277 17.490435 6841176
151.89636 -58.986027 18.585844 7564651
150.66919 -58.985966 19.352621 10065038
150.54797 -58.984123 20.257269 11117722
149.98889 -59.028187 21.099371 8090986
149.50545 -59.103844 21.947622 9998984
149.46288 -59.128326 22.675962 13881027
99.314209 -59.036961 106.52376 11906725
98.604294 -58.99778 107.04654 8223347
98.160324 -58.909283 107.86138 11512224
97.772713 -58.858696 108.74489 9604230
96.982681 -58.858196 109.44615 9012095
96.320702 -58.857792 110.02631 14078918
96.340958 -58.854729 111.3998 12433322
95.531876 -58.854279 112.09062 9933960
94.717812 -58.853848 112.77565 9078397
94.713654 -58.850784 114.1637 10130829
94.023048 -58.850449 114.72981 10196367
93.189972 -58.850071 115.40388 8617593
93.162415 -58.847004 116.80607 12433069
92.552818 -58.61348 117.31915 10459278
91.711365 -58.510536 117.77223 9801348
155.74561 -57.690262 10.874589 7563619
155.76022 -57.862068 11.691461 8550514
92.725967 -57.802067 117.56075 7498593
92.015808 -57.651848 117.9686 10459278
91.313873 -57.346535 118.4348 10853520
156.05916 -56.330341 10.015103 7564643
156.05644 -56.781967 10.769471 7563619
156.09674 -56.926266 11.621018 7563619
92.163086 -56.583054 118.3264 10722450
91.323303 -56.617596 118.72339 10327177
156.27556 -55.680038 9.9023104 8813940
156.39204 -55.854828 10.715806 7762022
92.110016 -55.769466 118.67953 10261646
91.457893 -55.721989 119.01773 9011576
90.745674 -55.577156 119.42444 8156524
156.6311 -54.345974 9.293004 8813944
156.62437 -54.790478 9.9739008 8682610
156.64772 -55.250603 10.808179 10064003
91.644936 -54.886818 119.26212 8879991
90.890862 -54.551678 119.76582 7958633
90.483185 -54.14772 120.12776 8419440
156.80984 -53.754837 9.1136599 9668992
156.96419 -53.821735 9.8804216 8156523
91.186371 -53.668163 119.97653 8222061
90.261673 -53.649731 120.43643 8287856
157.14871 -52.78746 9.0185022 8287600
157.14325 -53.229794 9.7011957 8089963
91.09716 -52.871635 120.34046 7563619
90.482864 -52.643742 120.73267 8287854
89.713493 -52.520149 121.15883 8484978
157.37837 -51.77541 8.3848543 7367271
157.49719 -51.897511 9.0878191 8089963
90.563545 -51.771755 121.04371 9143419
89.886734 -51.573635 121.45455 9801093
89.087303 -51.432148 121.90269 11380380
157.68848 -50.358639 7.4490371 12432037
157.7009 -50.802395 8.2107019 10392714
157.71274 -51.247944 8.9725122 8089963
90.068077 -50.739799 121.70102 10788243
89.298065 -50.647797 122.1148 10524815
157.94113 -49.688755 7.4602065 9537150
158.01228 -49.89814 8.0986567 9537150
90.064819 -49.988827 122.00446 9142907
89.486816 -49.580521 122.45146 9932423
88.713181 -49.4627 122.8774 10722194
158.17995 -48.577675 6.7075782 8813428
158.23828 -48.871113 7.4254889 8418927
89.481712 -48.830246 122.75551 11905957
88.797508 -48.579102 123.19131 9735044
88.078323 -48.380985 123.62289 8090730
158.42873 -47.797749 6.5263419 8418927
158.55057 -47.913303 7.2318015 8089963
89.119682 -47.739685 123.37106 8748149
88.286133 -47.596439 123.83658 6708309
87.653564 -47.237679 124.29041 9736067
158.84521 -46.423344 5.7767196 10261643
158.77194 -46.881287 6.47574 9011321
158.76492 -47.264748 7.113214 8089963
89.053238 -46.93306 123.72787 7563619
88.43251 -46.580486 124.20145 6642773
87.715836 -46.429035 124.63474 9407361
159.41875 -45.447227 4.9657149 10261387
159.27776 -45.816963 5.6005263 9471871
159.22479 -46.112789 6.3655486 9142907
87.964935 -45.668465 125.1001 9209984
87.256538 -45.58041 125.51951 10459280
160.68027 -44.368584 2.9443984 9670536
160.12497 -44.645279 3.8957915 9933708
159.83034 -44.923237 4.7219176 10392976
87.386734 -44.969681 125.96744 9406849
86.674004 -44.749844 126.57042 9932422
86.251411 -44.377571 127.45538 10655889
85.886391 -44.197189 128.24493 10261388
85.237625 -44.18224 128.61211 9012606
165.4026 -43.719337 -5.3098741 6511954
165.54173 -43.792656 -4.5971589 10524047
164.13098 -44.017155 -2.9030747 9603970
164.14348 -44.014954 -1.9169146 9142907
162.53958 -44.013603 -0.33905658 8090736
162.53636 -44.011448 0.63752878 7038812
161.23557 -44.089684 1.4048094 9011576
161.32703 -44.115608 2.1814055 8551281
85.93956 -43.968849 128.99844 9735302
85.287292 -43.954174 129.36566 10458767
84.471375 -43.936531 129.82269 7564651
84.434036 -43.826897 131.1483 9012350
83.641228 -43.826836 131.65244 10524304
83.005135 -43.826797 132.05255 10853012
82.993858 -43.822899 133.82394 5655878
82.184937 -43.822872 134.3194 5919306
81.536102 -43.822872 134.71245 7038298
81.336319 -43.818947 136.60904 8813686
80.675919 -43.818958 136.99759 9537409
80.197899 -43.695946 137.95699 9340541
79.633438 -43.428684 138.64767 8946039
78.976501 -43.223785 139.05153 8748660
165.75571 -42.721348 -5.3890138 6972249
165.7863 -43.01413 -4.7913117 8419183
79.772064 -42.655102 138.89066 8288365
78.98259 -42.603554 139.29785 8354158
165.96106 -41.621483 -6.2630677 8288117
165.99249 -41.912811 -5.6642289 7827563
79.737335 -41.877949 139.2197 9209467
79.112885 -41.722546 139.58784 8748660
78.435303 -41.373146 140.05991 10129801
166.20496 -40.84304 -6.4601426 7827822
166.34598 -40.91304 -5.7447114 9340289
79.354111 -40.771046 139.85181 7038298
78.588455 -40.501087 140.33502 8946039
77.89299 -40.492222 140.67911 10129801
166.52289 -39.594627 -7.0893083 9012350
166.54733 -39.989925 -6.3543229 9143167
78.741776 -39.628143 140.61041 8353135
77.992493 -39.586414 140.99405 9405822
77.398392 -39.320503 141.39175 14077894
166.76669 -38.81506 -7.2882218 9866628
166.909 -38.882912 -6.570868 9734788
78.86116 -38.948414 140.82491 8681843
78.178696 -38.599327 141.29919 9734788
77.406097 -38.464405 141.73164 12564399
167.04497 -37.62991 -7.9863191 10984849
167.06821 -37.987949 -7.3159852 9603455
78.191322 -37.771381 141.62543 10458510
77.525269 -37.56955 142.03259 10721681
77.033501 -37.369965 142.35349 12038052
167.29568 -36.821968 -8.2010031 12432037
167.47153 -36.850502 -7.4026704 9340030
77.758255 -36.652058 142.28687 8879736
76.868149 -36.539577 142.76788 9670020
167.60573 -35.598564 -8.8240805 11905952
167.62993 -35.95549 -8.1513739 14076862
77.651306 -35.813931 142.67583 9538694
77.045624 -35.652435 143.03717 9011832
76.407272 -35.543362 143.39348 9537920
167.85657 -34.788944 -9.0408087 8682867
167.95985 -35.016148 -8.2363424 13024175
77.219513 -34.734402 143.32066 8551793
76.443756 -34.630981 143.74194 8551537
75.804726 -34.23558 144.21359 7039322
168.11324 -33.683128 -9.7050085 9274492
168.19151 -33.919712 -8.9925528 8814453
76.785103 -33.653797 143.96719 8880502
75.902763 -33.648502 144.40134 7828070
168.41748 -32.752182 -9.8864813 8484721
168.522 -32.977757 -9.0794134 9734788
76.707718 -33.064823 144.24155 8288621
76.066452 -32.668434 144.71468 9340539
75.286804 -32.566551 145.13731 8682354
168.65334 -31.726425 -10.512252 8418928
168.72845 -31.904911 -9.9060125 8682100
76.230347 -31.68656 145.02863 9209467
75.521469 -31.683365 145.37701 9142647
74.844757 -31.484173 145.78836 9339769
168.92265 -30.496487 -11.550467 9142392
168.92744 -30.863863 -10.785392 8813684
75.667419 -30.812834 145.65976 9471098
74.942451 -30.568182 146.12509 8419438
74.340302 -30.306578 146.54254 7564643
169.83887 -29.37302 -12.434043 10589322
169.45297 -29.850132 -11.58702 8550255
169.38902 -30.136625 -10.764571 8813680
75.154114 -29.788412 146.5697 8222059
74.341507 -29.566704 147.17557 9668992
73.850189 -29.202589 147.78175 9208443
170.61646 -29.080124 -13.108321 10261132
74.042725 -28.924381 148.61905 9537406
73.323578 -28.924128 148.97025 9011834
71.910957 -28.798319 151.60367 8486261
71.178802 -28.798531 151.94727 8090987
70.010078 -28.792736 155.2715 9933446
69.447594 -28.792931 155.52235 9538688
125.79829 -74.267647 62.623016 11248795
125.40099 -74.256836 63.36871 10591121
124.92068 -74.245102 64.261398 11446174
124.43647 -74.234886 65.15184 9341054
123.94826 -74.226135 66.039886 8419952
123.45613 -74.218796 66.925598 9537664
122.96007 -74.212936 67.809029 9537664
122.62741 -74.209747 68.396736 9537664
142.17532 -73.459435 35.337803 10459278
142.03658 -73.566002 36.150711 9406846
141.66562 -73.735847 37.146004 9867397
141.23773 -73.923866 37.881161 9078397
140.76559 -73.956337 38.723068 7762797
140.1188 -73.955017 39.705788 10920345
139.33351 -73.954308 40.497208 12563880
139.03549 -73.952492 41.500168 9800836
138.73018 -73.950684 42.500957 8418671
137.89198 -73.95076 42.968719 7300959
137.36629 -73.949417 43.893578 7893608
137.04379 -73.947662 44.882278 8023652
136.71408 -73.945915 45.868599 9273717
135.87119 -73.94606 46.312035 9471351
135.32524 -73.944786 47.217415 9537144
134.97878 -73.943092 48.191212 9735043
134.62527 -73.941414 49.162594 8881278
133.91693 -73.940346 50.073631 9078399
133.32278 -73.93956 50.784248 9341314
132.71796 -73.938248 51.744705 9866885
132.33888 -73.936638 52.69965 8419183
132.01782 -73.93531 53.493317 6510930
131.36627 -73.97419 54.14991 7432289
130.98273 -73.979904 55.100391 7892840
130.29688 -74.041656 55.920685 10195851
129.66884 -74.137848 56.761642 8945272
129.22685 -74.121094 57.68235 8089964
128.76997 -74.099579 58.595856 7169892
128.30919 -74.079536 59.506908 7762022
127.84439 -74.060966 60.415646 8814965
127.37579 -74.043831 61.321938 8814709
126.6655 -74.112236 62.108753 10985879
126.26951 -74.100288 62.858906 10591121
125.87055 -74.089386 63.607338 10130570
125.38835 -74.077652 64.503334 10591121
124.9022 -74.067375 65.396996 9275261
124.41209 -74.058556 66.28833 8419952
123.91812 -74.051208 67.177368 9406334
123.42021 -74.045319 68.064117 9537664
122.70157 -74.107681 68.903877 9931909
122.16642 -74.110985 69.689499 9800322
121.60032 -74.074738 70.533981 9011323
121.02997 -74.039505 71.374901 8551029
120.45621 -74.005707 72.212776 8353647
119.89294 -73.982002 73.056091 8880247
119.59806 -73.906349 74.065895 8946296
119.05818 -73.905167 74.925514 9209470
118.51208 -73.903999 75.781158 7564651
117.95978 -73.902855 76.632935 8090989
117.40137 -73.901726 77.480576 7038307
116.83689 -73.900604 78.324249 8485749
116.26629 -73.899506 79.163834 8813943
115.68962 -73.89843 79.999199 9866886
115.10702 -73.897369 80.830429 9144187
114.83385 -73.895592 81.799934 8945783
114.49519 -73.894356 82.559898 8024681
114.2075 -73.892593 83.528984 9077369
113.59944 -73.891594 84.349426 11773596
112.98543 -73.89061 85.165482 10919055
112.36555 -73.889641 85.97702 9011574
111.7398 -73.888687 86.784065 9012091
111.10833 -73.887741 87.586647 9472900
110.80463 -73.885796 88.653076 9012344
110.49132 -73.88385 89.71965 8354158
109.94793 -73.883118 90.38131 7893608
109.40036 -73.882385 91.039459 7893608
108.80673 -73.853737 91.996033 9668995
108.38496 -73.648178 92.876572 8879996
107.69662 -73.56398 93.586456 9077374
107.03867 -73.355766 94.344917 10458512
142.62283 -72.522636 34.478695 9339257
142.45639 -72.74781 35.164661 11511710
142.30716 -72.801994 36.21883 9998983
142.1676 -72.910027 37.033787 9209467
108.437 -72.944397 93.375328 9537667
107.96574 -72.709023 93.877731 8814203
107.18134 -72.639656 94.562531 9142910
106.46751 -72.643166 95.154366 7630443
143.12653 -71.347313 33.871765 8418670
142.92451 -71.712868 34.429779 8287084
142.76118 -71.806259 35.48196 10063235
142.54367 -72.134186 36.278328 9472639
107.98026 -72.006981 94.19516 9274496
107.39169 -71.74855 94.805901 8287859
106.65134 -71.639252 95.472794 8551544
106.0424 -71.514122 96.036453 10788247
143.38161 -70.726387 33.640419 8352877
143.23065 -70.809006 34.624008 8878963
143.09277 -70.911644 35.44154 9010549
107.37916 -70.935379 95.198044 7564651
106.90489 -70.7061 95.700073 9341059
106.04111 -70.710205 96.380676 12498605
105.42425 -70.472115 96.839256 8485494
143.88927 -69.645355 32.713764 6840919
143.71494 -69.811348 33.644825 8879476
143.53934 -69.979797 34.575958 9931136
106.92534 -70.13636 95.950523 11183004
106.3735 -69.837311 96.538757 10525331
105.6153 -69.602531 97.092766 8682872
144.33177 -68.723457 31.841757 7235421
144.22923 -68.681618 32.805542 7893349
144.04762 -68.897102 33.648666 9077881
105.83973 -68.803246 97.2995 8419696
105.01303 -68.596146 97.828918 9077114
144.8443 -67.581146 31.054045 9276285
144.62564 -67.879143 31.954439 7893863
144.52097 -67.874283 32.82518 8814451
105.87461 -68.103523 97.567368 7564643
105.35928 -67.641808 98.033707 8287598
104.59828 -67.604897 98.458092 9537921
145.28339 -66.644676 30.253279 9539457
145.17632 -66.670883 31.051321 12236970
145.00383 -66.83007 31.987989 6973018
105.39174 -66.753304 98.380264 9274749
104.6106 -66.718704 98.814575 9603971
103.9838 -66.422272 99.273056 8551283
145.74922 -65.670868 29.345278 9275005
145.61026 -65.832237 30.001146 8946808
145.51198 -65.725945 31.122156 9407358
145.34906 -65.939079 31.81909 8090216
104.83727 -65.709656 99.106049 10064778
104.03831 -65.590065 99.584717 7367268
146.26321 -64.444458 28.594667 7037274
146.10747 -64.679138 29.370787 7234653
145.92871 -64.839355 30.35533 7893096
145.71329 -65.159241 31.164602 8092011
104.8322 -64.893066 99.443291 8288371
104.1968 -64.696564 99.865517 6709338
103.42075 -64.57299 100.3335 6248782
146.52402 -63.702858 28.474234 8090475
146.42018 -63.784821 29.478407 8353647
146.25845 -63.993702 30.178492 8814454
104.25446 -63.770142 100.21408 7038307
103.58175 -63.585735 100.6514 7170140
102.91362 -63.686649 100.96934 5920074
146.8696 -62.631496 27.643164 11510938
146.8497 -62.794918 28.463339 9208957
146.69748 -63.087349 29.288855 7564390
103.80423 -62.764885 100.86803 11709343
102.97445 -62.668331 101.35384 10853777
102.32794 -62.293972 101.85493 8088931
147.21051 -61.687473 27.615065 10064266
147.17148 -61.911049 28.402349 9011579
103.27357 -61.754482 101.56735 11248535
102.49545 -61.516644 102.08326 8221288
147.7769 -60.403168 26.067762 6510930
147.57857 -60.752739 26.811274 8814710
147.51691 -60.927448 27.634684 6906719
103.33799 -60.916077 101.87614 11709343
102.68902 -60.667999 102.39977 8550509
101.95573 -60.547722 102.86205 7499106
148.74071 -59.382278 24.397982 8485232
148.58847 -59.47551 25.107199 9933190
148.27388 -59.77652 25.834051 7958888
148.09328 -60.038353 26.766657 6511442
102.22369 -59.867588 103.30419 8486257
101.47179 -59.654934 103.90196 7959657
100.91872 -59.283085 104.77705 9276029
155.5809 -58.566078 13.121678 11051156
155.5809 -58.698612 14.019261 7367005
154.63551 -58.991192 14.601842 6511954
154.54279 -58.989262 15.530416 6511954
154.46501 -58.987724 16.272905 6511954
153.19876 -58.98724 17.254641 5393730
153.06786 -58.98497 18.358496 6051404
151.75592 -58.983791 19.680235 11644066
151.60764 -58.981575 20.773569 8617586
150.34328 -58.981201 21.703199 10985879
150.2352 -58.979752 22.425352 15789280
149.81204 -59.04541 23.393587 9012088
149.3709 -59.179153 24.133825 6511954
149.32199 -59.205376 24.863207 6511954
101.15498 -59.143543 105.15086 9736836
100.62022 -59.060455 105.73602 8354159
100.03883 -58.954945 106.42609 9735812
99.337341 -58.859749 107.32535 7564902
98.818298 -58.85939 107.80121 12433069
98.738037 -58.856197 109.2924 10591380
97.944077 -58.855686 110.0006 8551544
97.145081 -58.855202 110.70306 9012095
97.17099 -58.8521 112.09082 7894382
96.492828 -58.851711 112.67185 7038563
95.674515 -58.851273 113.36377 9078397
95.332611 -58.849545 114.35152 8881019
94.983109 -58.847824 115.33815 9143681
94.365723 -58.670414 116.19591 9669766
93.803337 -58.435535 116.74309 8814198
155.87579 -57.627911 12.26513 9537665
155.86633 -57.772453 13.072934 8221799
155.90132 -57.793701 13.87135 7958883
94.012192 -57.621868 117.00391 7432289
93.203796 -57.669788 117.38017 6511954
156.17981 -56.773136 12.136804 7958377
156.18222 -56.88327 12.936147 8945265
93.952126 -56.921299 117.31506 7037274
93.320816 -56.580414 117.761 8682867
92.636444 -56.37587 118.17816 12433069
156.54297 -55.662098 11.368882 8814195
156.56296 -55.734631 12.241136 8945268
156.46822 -56.115746 13.067006 10260867
93.554642 -55.752792 117.97946 12169638
92.805466 -55.632549 118.39438 12498348
92.193825 -55.398003 118.78787 10261646
156.83481 -54.836857 11.246827 9866625
156.89874 -54.788738 12.088887 9932162
93.587524 -55.124317 118.21619 15721430
92.965088 -54.74662 118.67259 11577248
92.17115 -54.515713 119.15391 9932680
157.20929 -53.616634 10.617009 8551023
157.22336 -53.785839 11.334458 7893351
157.12854 -54.140774 11.9791 8419184
92.994682 -53.819675 119.03075 8419958
92.315308 -53.566811 119.46482 9998474
91.628883 -53.472137 119.83888 8419440
157.43361 -52.462864 9.7181368 10787217
157.46883 -52.79697 10.427114 11840160
157.52065 -52.95517 11.245973 8814195
92.385925 -52.770023 119.75056 9472386
91.651054 -52.626045 120.16811 9011833
157.70444 -51.68745 9.6387033 8747892
157.83336 -51.805321 10.395371 14273986
91.991356 -51.659687 120.39001 10261899
91.161453 -51.505142 120.85826 9735555
158.01941 -50.782318 9.5405092 8945271
91.919891 -50.666069 120.82434 9735555
91.260483 -50.62463 121.16373 9735555
90.601852 -50.584076 121.50238 9735555
158.25339 -49.698181 8.8104601 11117208
158.37422 -49.833694 9.5434351 9538435
91.38282 -49.817059 121.42848 9735555
90.603065 -49.561455 121.91285 8945784
158.49017 -48.472549 7.8664832 8089963
158.53407 -48.80154 8.5792742 9933193
158.66238 -48.976013 9.4064722 8486262
90.997131 -48.58754 122.11148 8156011
90.153572 -48.554962 122.53738 9011065
158.81729 -47.646057 7.9456038 8485749
158.8812 -47.917034 8.6515093 9341313
90.920265 -47.596279 122.54755 7037274
90.186203 -47.696419 122.8665 9011065
89.595741 -47.523804 123.22485 7563619
159.09294 -46.508682 7.1270652 9142907
159.10796 -46.825954 7.8404632 8879736
90.343941 -46.8508 123.12924 7563619
89.654442 -46.549114 123.61924 7563619
89.093338 -46.207584 124.09967 7037274
159.6577 -45.525421 6.2544303 9142907
159.62097 -45.806824 7.040647 9603202
159.47304 -46.198963 7.7205291 9603459
89.894554 -45.786976 124.05733 8092011
89.225082 -45.527489 124.60152 9736324
88.554123 -45.269352 125.14499 9472900
160.83215 -44.416214 4.3012404 10064011
160.57047 -44.563766 5.2592177 8156531
160.10838 -44.912041 6.0921416 8353908
160.11984 -45.092365 6.7867026 9142907
89.524826 -44.854065 125.02228 15721430
88.875755 -44.696999 125.51587 9275777
88.136856 -44.548424 126.16234 8486519
87.734055 -44.300163 126.9944 8288882
87.020691 -44.224552 127.59877 10458510
165.73273 -43.576321 -4.1243501 10853012
165.81851 -43.811161 -3.3283219 11051157
165.77838 -44.014133 -2.5302415 12762285
164.1498 -44.012768 -0.93067038 8089963
164.15048 -44.010582 0.055596739 9997959
162.52496 -44.008869 1.8092664 7301982
162.50926 -44.006729 2.7857757 7104859
161.46135 -44.155518 3.3482146 9012351
161.57065 -44.18969 4.322145 9406339
87.405251 -44.003887 128.16554 11905701
86.591232 -43.984127 128.6292 9143168
86.32399 -43.827099 129.91876 7564651
85.538605 -43.827003 130.43423 11905953
84.908211 -43.826935 130.84361 11905953
84.762566 -43.82299 132.71689 9932681
84.120941 -43.822948 133.12196 7893353
83.477791 -43.82291 133.52441 5920074
82.650787 -43.818932 135.82167 6051148
81.830132 -43.818935 136.31523 8089963
81.708435 -43.468697 137.61588 9932167
80.919754 -43.413731 138.02414 9932422
166.06967 -42.665367 -4.1339631 8945527
166.07211 -43.076653 -3.4676118 11051157
81.677452 -42.690887 137.94333 9471871
80.984398 -42.677132 138.28818 9274748
80.291534 -42.664162 138.63263 9209467
166.22403 -41.74577 -4.9391999 7038302
166.39644 -41.781807 -4.143393 8946039
81.132401 -41.863697 138.54237 8682867
80.431549 -41.646854 138.97256 9077625
79.841232 -41.296856 139.40211 9209467
166.6004 -40.695595 -5.0018601 8879995
166.63847 -41.043434 -4.2841401 9603716
80.623688 -40.580589 139.30661 8880502
79.770905 -40.388447 139.80125 7498849
166.78818 -39.714787 -5.7617402 9800582
166.92984 -39.78492 -5.043303 10261132
80.815956 -39.75634 139.54341 9866372
80.048859 -39.577187 139.99094 8879477
79.316025 -39.343899 140.44339 7563619
167.15733 -38.714573 -5.7757707 9208444
167.14027 -39.139565 -5.1712556 10261132
80.103539 -38.653702 140.33495 13155762
79.330994 -38.516186 140.7684 9537407
78.648109 -38.166466 141.24321 8681843
167.29288 -37.778267 -6.6883302 9142651
167.43005 -37.823689 -6.0284257 9274237
79.614021 -37.658615 140.97412 10326923
78.767197 -37.485382 141.45831 10458510
167.64456 -36.836849 -6.6834092 8813686
167.7052 -37.103287 -5.9990754 9011065
79.587891 -36.811977 141.32684 9866372
78.920525 -36.60857 141.73532 12103592
78.252625 -36.405903 142.14368 9077372
167.8558 -35.743305 -7.5224366 11643039
167.9711 -35.929161 -6.7325425 8616562
79.196854 -35.699303 141.96506 10985369
78.387894 -35.625481 142.39075 9538694
77.718399 -35.423466 142.79976 8092019
168.19141 -34.768349 -7.6400437 10393485
168.22556 -35.057232 -7.0334458 9735555
79.193527 -35.046761 142.22864 9538694
78.504669 -34.696777 142.70648 8420727
77.725082 -34.56234 143.14218 8157552
168.41873 -33.704964 -8.3623571 9274748
168.53734 -33.828506 -7.657248 10261899
78.69281 -33.865437 142.94809 12432045
78.020645 -33.66317 143.35849 9735815
77.314598 -33.657497 143.70644 9537920
168.75476 -32.727341 -8.4819784 9866371
168.78973 -33.015335 -7.8732972 10590091
78.078186 -32.737934 143.70178 11972004
77.180069 -32.626022 144.18643 10722191
168.96078 -31.681049 -9.2680197 9734788
169.06274 -31.86412 -8.5396643 9405822
77.570961 -31.553928 144.42552 10853520
76.7621 -31.689457 144.76712 9209467
169.26289 -30.746286 -9.5307302 8945271
169.35413 -30.969048 -8.7189856 8089963
77.460464 -30.708736 144.81897 10656398
76.872437 -30.706758 145.11777 9341053
76.295082 -30.31275 145.58055 9734783
170.08871 -29.395947 -11.014434 8353130
169.84363 -29.775713 -10.178626 8418923
169.68947 -30.17165 -9.3506536 8813680
76.955612 -29.94417 145.56006 9209467
76.33873 -29.677021 146.09421 9668733
75.774933 -29.295965 146.73573 9931135
75.100273 -29.204088 147.1657 10128513
170.84656 -29.10132 -11.887221 8748148
75.479492 -28.926264 147.91263 12036766
74.581749 -28.924896 148.35477 9668991
73.916466 -28.797775 150.64148 9208443
73.006485 -28.798014 151.082 9341571
71.505035 -28.792252 154.59204 9209211
70.571411 -28.792549 155.01839 10065033
141.7374 -73.651314 38.33308 8749433
141.57729 -73.748367 39.314697 8815228
141.32185 -73.864952 40.251877 9209985
140.18774 -73.952621 40.747673 12630191
139.88783 -73.95079 41.756783 10326668
139.58067 -73.948967 42.763733 9405566
138.90576 -73.947739 43.727371 7366238
138.15193 -73.947411 44.329956 8156008
137.88081 -73.945938 45.158669 10589577
137.5491 -73.944183 46.151001 9339254
136.85443 -73.943039 47.09111 9602939
136.03342 -73.942474 47.833931 8946040
135.68248 -73.940781 48.812866 9275008
135.32451 -73.939095 49.789291 8881277
134.95938 -73.937424 50.763027 9275264
134.24277 -73.936943 51.415424 8879993
133.52281 -73.936478 52.06089 9340285
133.14142 -73.93486 53.021591 7958632
132.75304 -73.93325 53.979477 10064265
132.35788 -73.931664 54.934586 11248539
131.95572 -73.930099 55.886803 10195851
131.18028 -73.930046 56.377426 9800837
130.47902 -73.929344 57.11853 8748149
130.06117 -73.927818 58.057152 8880251
129.6366 -73.926323 58.992683 7038307
129.20522 -73.924835 59.925156 9143679
128.76717 -73.923347 60.854485 6511954
128.3224 -73.921898 61.780651 9274749
127.50582 -73.932297 62.523293 8616819
127.03801 -73.924484 63.434753 9735812
126.5223 -73.919113 64.244591 9538433
125.79588 -73.91835 64.9058 9801348
125.40119 -73.917206 65.659714 9472640
124.92187 -73.915855 66.561478 8814453
124.43594 -73.91452 67.459717 10458766
123.94363 -73.913193 68.354378 10589581
123.44481 -73.911888 69.24556 10063495
122.93956 -73.910591 70.133018 10457994
122.42802 -73.909325 71.016914 9011323
121.91 -73.908073 71.896996 8090480
121.38568 -73.906822 72.773323 7695973
120.85508 -73.905602 73.645882 10458510
120.31816 -73.904404 74.514549 10458510
119.77498 -73.903206 75.379349 9735812
119.2256 -73.902039 76.240211 9998725
118.67 -73.900887 77.097046 8682867
118.10821 -73.899742 77.94986 8485749
117.54031 -73.898621 78.798592 9406848
117.06252 -73.897697 79.502899 9735812
116.82298 -73.895912 80.455299 9539201
116.34641 -73.894707 81.287903 8814709
115.97813 -73.893234 82.178879 8353902
115.50322 -73.891579 83.206718 9011576
114.89749 -73.890556 84.036552 8681843
114.2857 -73.889542 84.861931 12299428
113.66794 -73.88855 85.68293 10919055
113.04432 -73.887573 86.499374 9011574
112.41479 -73.886612 87.311356 11905951
112.09334 -73.884903 88.279648 11183255
112.02766 -73.882957 89.194893 9341051
111.37872 -73.88205 89.999451 7038554
110.85932 -73.597847 90.966507 7827814
110.1053 -73.684738 91.629089 9340798
109.38914 -73.576279 92.287079 9735301
142.40967 -72.267097 36.974384 9735555
142.22701 -72.557724 37.597294 12169640
142.05501 -72.736214 38.467194 11906468
141.84782 -73.018349 39.315636 9933451
110.33001 -72.793037 91.872498 10195339
109.58907 -72.670242 92.546181 9669253
108.84861 -72.550613 93.218018 8617081
142.6658 -71.641693 36.747509 9472639
142.51115 -71.733932 37.732727 8880503
142.37016 -71.844696 38.551445 13024949
110.32469 -71.972237 92.262215 10063753
109.85143 -71.733109 92.767929 9208444
109.06308 -71.658028 93.458733 8551288
108.34565 -71.656433 94.056023 8814459
107.80199 -71.353226 94.650345 7564651
143.1779 -70.548546 35.827831 7826790
142.99963 -70.723495 36.759342 9735556
142.82031 -70.901199 37.691189 8419952
109.74538 -71.146088 93.131729 7563619
109.29324 -70.829803 93.656174 8551030
108.62093 -70.659752 94.294998 9933193
107.88832 -70.548622 94.956284 8485750
107.5829 -70.189201 95.378906 7564651
143.62474 -69.615959 34.96175 9339257
143.48647 -69.718651 35.782158 7169629
143.33311 -69.806313 36.770649 9670019
108.96258 -69.82943 94.400726 9998729
108.26293 -69.673851 95.055481 10854036
107.45039 -69.688766 95.724121 10262159
106.87422 -69.49852 96.29248 9933195
144.1705 -68.403069 34.115868 8682865
143.94695 -68.727287 34.978424 7958886
143.76996 -68.898216 35.913231 6380369
143.58865 -69.183388 36.541317 7367264
108.39632 -68.859215 95.327026 9735558
107.72563 -68.678207 95.969666 10393487
106.9333 -68.617157 96.657059 9275005
106.44182 -68.383659 97.147629 8617331
144.54181 -67.641747 33.347763 8419435
144.40562 -67.739517 34.170845 8089955
144.25458 -67.82132 35.162285 8353389
107.78541 -67.796638 96.333763 10130571
107.18446 -67.68808 96.88443 10064520
106.31743 -67.677521 97.503807 8485488
145.08992 -66.464729 32.372604 5920074
144.88748 -66.748756 33.182144 7695713
144.74112 -66.792274 34.249275 8880245
144.50879 -67.201721 34.929344 10591127
107.32205 -66.97879 97.102982 10854036
106.59689 -66.676979 97.760506 9077882
105.8732 -66.492905 98.228027 8551026
145.37178 -65.727654 32.263596 7169628
145.22284 -65.802834 33.257999 7695715
145.08675 -65.898987 34.084591 8419438
106.63202 -65.788528 98.10849 8682869
105.85637 -65.692841 98.56488 9538179
105.30109 -65.530785 98.929932 10854036
146.02919 -64.392799 30.864367 7893096
145.8102 -64.747948 31.597486 7695718
145.65495 -64.831108 32.619637 10457993
145.45245 -65.114136 33.432518 9537148
106.69991 -65.160538 98.329308 8813945
106.14911 -64.807869 98.769989 8222322
105.41216 -64.5466 99.273354 7959407
146.30673 -63.693882 30.677454 7761770
146.20149 -63.661388 31.635199 7038307
145.99986 -63.941353 32.450279 10589583
105.54984 -63.798225 99.505913 7696236
104.80495 -63.623535 99.978081 7433064
146.78424 -62.720398 29.672884 7169119
146.63565 -62.824974 30.576883 7367014
146.54607 -62.773548 31.462999 8485495
105.78607 -62.998318 99.706543 8090993
105.12437 -62.655815 100.20276 7827565
104.39594 -62.483437 100.66515 9801352
147.25313 -61.641357 29.012815 9011579
147.10989 -61.722637 29.983255 7432548
146.96933 -61.839844 30.78359 7564134
105.14963 -61.775703 100.54976 9011838
104.37157 -61.692421 101.0023 11775652
103.81369 -61.54018 101.36467 13552573
147.6929 -60.66048 28.133471 7038307
147.70705 -60.644421 29.042284 9208957
147.44279 -60.881184 29.95788 7432031
105.21188 -61.15353 100.77116 10985625
104.62988 -60.817299 101.25312 12498862
103.85541 -60.582935 101.83401 12630958
103.20235 -60.211075 102.48055 8814195
148.88765 -59.368839 26.633619 6511954
148.52058 -59.60812 27.252508 6906711
148.20888 -59.981308 28.14403 6906711
148.02528 -60.257645 28.689077 7038307
104.11124 -59.889103 102.27078 10460046
103.37183 -59.659679 102.89729 7893863
102.93599 -59.351681 103.55481 7893863
102.28392 -59.212463 104.29595 9210236
101.71977 -59.177631 104.72449 9736836
155.63634 -58.729656 15.264485 7367005
155.64444 -58.837833 16.147322 6840925
154.40396 -58.986572 16.829531 7367264
154.29781 -58.984661 17.756704 5393730
154.18642 -58.982765 18.683214 5393730
152.92905 -58.982719 19.46134 8156779
152.78226 -58.980476 20.563105 8617586
152.68027 -58.978981 21.297152 9736323
151.45139 -58.979366 21.865782 9736323
151.28728 -58.977173 22.956842 12432551
151.14468 -58.975349 23.86521 6511954
149.95578 -59.00058 24.59955 6511954
149.64203 -59.114834 25.583452 6511698
149.23148 -59.252872 26.140604 6511442
102.69986 -59.03067 104.72217 9012601
101.8494 -58.978642 105.36606 8486257
101.43663 -58.897339 106.21229 8353646
101.08889 -58.857841 107.13363 7893352
100.3105 -58.857273 107.85883 7893352
99.526848 -58.856728 108.57848 9078141
99.582855 -58.853584 109.96535 8815227
98.917389 -58.853153 110.5609 9867400
98.114273 -58.852657 111.27042 7039331
97.793846 -58.85088 112.26525 7039331
97.465805 -58.849117 113.25926 7039331
96.64328 -58.848671 113.95816 7828077
96.105728 -58.826126 114.81242 8617592
95.798531 -58.536072 115.76227 9012350
95.050217 -58.406685 116.18042 10261644
155.98376 -57.643028 14.388944 8748142
155.9696 -57.80901 15.248624 8879729
155.87524 -58.18655 16.044237 8814715
95.900612 -57.820744 116.00001 9933194
95.145355 -57.52689 116.48767 10261644
156.34871 -56.52607 13.62547 8616298
156.30644 -56.752583 14.379849 9932158
156.26402 -56.980549 15.134171 8156007
95.389275 -56.723396 116.69153 10787988
94.579712 -56.61095 117.13282 8813942
156.64299 -55.699444 13.507783 10655625
156.61455 -55.918266 14.470223 10787211
95.428467 -55.839294 117.02785 10261644
94.814568 -55.599548 117.42464 9801351
94.043854 -55.462566 117.85686 13221301
156.96548 -54.679955 12.600106 8419184
156.97614 -54.780277 13.487855 9340025
156.93445 -55.005417 14.244943 10260867
94.866081 -54.654858 117.77917 10130574
94.0438 -54.591236 118.2072 14800331
93.429298 -54.355576 118.60265 12958642
157.3398 -53.561905 11.994489 7169117
157.29927 -53.78421 12.752751 7300703
157.23956 -54.077297 13.636479 8813942
94.307724 -53.806458 118.39347 11182747
93.494217 -53.442043 118.93806 9472132
157.62347 -52.740231 11.710176 8418927
157.63461 -52.854454 12.702378 6379601
94.428345 -52.915844 118.69247 8684155
93.876343 -52.605206 119.0874 8748665
93.055847 -52.564941 119.50517 7169375
158.00583 -51.597824 11.08801 11445402
157.94862 -51.866032 11.847882 10261642
157.84816 -52.22485 12.413236 5919050
93.807617 -51.811615 119.44006 6774102
93.03196 -51.682304 119.87164 7234653
92.455505 -51.266171 120.32101 8089962
158.27313 -50.81715 10.91462 8616305
158.29257 -50.914196 11.808522 12301738
93.861404 -50.983662 119.7466 5919050
93.259514 -50.672989 120.16597 6642773
92.566917 -50.519398 120.56667 9340285
158.58781 -49.653252 10.168756 9275007
158.58884 -49.963142 10.93525 10590351
93.451187 -49.822636 120.41405 6971738
92.674728 -49.725117 120.83318 9143163
92.002136 -49.54147 121.23621 8682867
158.80777 -48.591702 9.4146013 8486262
158.89221 -48.845047 10.187303 7433318
158.91402 -49.080746 10.956483 9208955
92.822128 -48.725655 121.16282 7037274
92.042427 -48.602448 121.59389 7103067
91.461296 -48.19138 122.04349 7037274
159.09589 -47.733761 9.2770128 8486262
159.18117 -47.941814 9.9738932 7433574
92.248192 -47.67305 121.86678 7037274
91.417862 -47.624584 122.2926 7037274
159.44443 -46.798073 9.2098856 9077629
92.371689 -47.115093 122.03067 7037274
91.71965 -46.741409 122.5126 7563618
90.924004 -46.439548 123.04863 7760997
159.98752 -45.490047 7.5522437 10261132
159.89767 -45.848076 8.3674479 9603459
159.85797 -46.113773 9.0884066 9011323
91.713287 -45.989628 122.99916 8090218
91.16188 -45.71616 123.4968 8617587
90.468079 -45.437153 124.06964 9144442
160.99948 -44.472847 5.8556304 7564651
160.92502 -44.56794 6.8215232 9077374
160.4021 -44.966019 7.5718017 10261132
160.40631 -45.190132 8.3454218 9011323
90.805199 -44.825943 124.42143 8092011
90.020157 -44.672688 124.95038 15195086
89.671227 -44.353271 125.86938 11051672
88.961853 -44.275547 126.479 7565675
166.07491 -43.654247 -2.5348878 12762285
165.99411 -43.848705 -1.9348971 10590863
165.79141 -44.010593 -0.93646872 10064264
164.1481 -44.009277 0.64730966 8617075
164.14107 -44.007542 1.4363035 9406335
164.13091 -44.00581 2.2252288 7762277
162.49698 -44.005451 3.3715606 7038307
162.47688 -44.00375 4.1525359 7169893
161.92191 -44.145847 5.0460525 9208960
161.73978 -44.246307 5.883615 7564651
89.355721 -44.054928 127.0419 7565675
88.543495 -44.033104 127.51189 9932938
88.236671 -43.874611 128.38846 11905957
87.418152 -43.827259 129.18877 9669511
86.793831 -43.82716 129.60712 7038307
86.675232 -43.82317 131.48233 7564651
86.039574 -43.823101 131.89665 9011581
85.242371 -43.823025 132.41069 9801095
84.608505 -43.818993 134.61737 5920074
83.631836 -43.818951 135.22302 5919306
83.612885 -43.512634 136.66568 5919306
82.920067 -43.495911 137.01163 6182478
82.227547 -43.479954 137.35718 8748148
166.33072 -42.784855 -2.8257966 13814715
166.44109 -42.980446 -2.0411744 11841184
82.991272 -42.580528 137.3443 6709332
82.169128 -42.451221 137.7988 9077625
166.64288 -41.618893 -3.3481278 10985876
166.67346 -41.913788 -2.7468171 11249048
82.586197 -41.542759 137.95935 9537662
81.717056 -41.524918 138.39209 9077369
166.89838 -40.748856 -3.6412721 9735811
167.01016 -40.942089 -2.8544221 9735811
82.486412 -40.664013 138.36102 10129545
81.720535 -40.551598 138.78117 9471871
81.09436 -40.150627 139.24873 9208955
167.12299 -39.565147 -4.5669465 10261132
167.22282 -39.800106 -3.7645402 9735811
82.072533 -39.583679 138.99747 8814710
81.276733 -39.530354 139.40851 9603969
167.44859 -38.715862 -4.5266252 9341055
167.51949 -38.998318 -3.7725053 10525327
82.040085 -38.802494 139.32693 8814710
81.376099 -38.595772 139.73511 9406590
80.606743 -38.485764 140.15601 13418933
167.61462 -37.728615 -5.3897767 7563619
167.78992 -37.760872 -4.5876679 8485749
81.552437 -37.62212 140.0397 9143675
80.851509 -37.611134 140.3873 10260873
80.185501 -37.406013 140.79575 12234661
168.0105 -36.729126 -5.2883363 8683128
168.08701 -36.95713 -4.5970826 8092019
80.973839 -36.684399 140.69943 8945271
80.083405 -36.567123 141.18256 9668994
168.17995 -35.689342 -6.2206178 8484976
168.27773 -35.848213 -5.5487199 10721681
80.49807 -35.650158 141.34767 9208700
79.68866 -35.574577 141.77435 8945785
