# .PCD v0.7 - Point Cloud Data file format
VERSION 0.7
FIELDS x y z rgb
SIZE 4 4 4 4
TYPE F F F U
COUNT 1 1 1 1
WIDTH 1214
HEIGHT 1
VIEWPOINT 0 0 0 1 0 0 0
POINTS 1214
DATA ascii
142.04314 -44.132732 -55.078136 9405822
142.36789 -44.13081 -54.224522 7958888
141.70378 -44.152538 -52.231937 7892583
141.66013 -44.275627 -51.177395 5919050
141.74742 -44.357452 -50.136425 9866115
143.24712 -42.980228 -60.991348 6841435
143.15857 -41.648392 -61.718204 8946043
143.44954 -41.940922 -61.318565 8025197
143.38782 -40.860535 -61.899281 8287341
143.65994 -41.132862 -61.52618 10853012
143.48042 -39.936382 -62.267475 9866629
143.5085 -38.847851 -62.772743 12827571
143.82332 -39.0061 -62.417519 16775151
143.62604 -37.95686 -63.102764 11445662
143.53558 -36.825687 -63.733597 8617330
143.87369 -36.964264 -63.367287 9669763
143.69843 -35.955544 -64.013412 7039067
143.53917 -34.686768 -64.772003 12433069
143.964 -34.985123 -64.251251 8749428
143.8849 -33.908443 -64.845505 10459534
143.68326 -32.56395 -65.671692 9011573
143.98485 -33.033848 -65.182777 9669503
143.94209 -31.811266 -65.790497 9011575
144.26035 -32.104393 -65.378319 9011573
144.07285 -30.996868 -66.060471 9077629
144.2014 -29.80979 -66.929611 8025200
144.45709 -30.318331 -66.236862 10591124
144.41791 -28.763428 -68.892609 8354934
144.43756 -29.248182 -68.124092 7893614
144.22194 -27.714214 -69.723282 8092019
144.64992 -27.980865 -69.160194 10064778
144.74593 -26.757076 -70.83419 8683384
144.76349 -27.158987 -69.898949 8092019
145.19604 -26.359783 -71.485405 8682867
125.72549 -79.645172 56.87772 10655885
125.31614 -79.605774 57.602207 9603711
124.82444 -79.561562 58.470177 9275262
124.49628 -79.533859 59.048038 10591124
125.76755 -79.262421 57.079334 8682867
125.50425 -78.961899 57.741604 8617075
125.07018 -78.813293 58.586071 8946301
124.61258 -78.72773 59.425522 11051418
124.36932 -78.374107 60.091618 7038307
125.34226 -77.812775 58.837231 8814715
124.94303 -77.653091 59.630314 8025200
124.4318 -77.767784 60.417988 7038307
132.32666 -76.59697 11.22714 9932678
132.563 -76.564865 12.210904 8485232
132.70616 -76.740807 13.125642 8748404
132.77431 -76.996582 13.841924 8813936
125.20229 -76.756584 59.828999 9143680
124.68993 -76.871712 60.618366 7697005
124.22832 -76.793533 61.459415 9275263
123.98089 -76.446693 62.127922 10459019
132.60828 -75.376671 9.4880533 8682867
132.56226 -75.696159 10.33108 10195591
132.68765 -75.849136 11.290509 10392718
132.84085 -75.893684 12.172362 10326668
132.87941 -76.127815 12.884805 8287853
125.02724 -76.061119 60.634686 8092019
124.63639 -75.793053 61.584888 11840673
124.20685 -75.657921 62.491787 10261898
123.89302 -75.384422 63.396305 8090987
133.26363 -74.345642 6.4852543 11379607
133.17191 -74.423325 7.2016602 10392972
133.08841 -74.571335 8.199338 9011575
133.00482 -74.832451 9.2235126 8682867
133.07481 -75.025734 10.326587 9208955
133.06332 -75.272476 11.130054 10261132
124.69649 -75.015663 62.583927 10656657
124.30608 -74.83007 63.546673 9604226
124.04255 -74.611549 64.467445 10262156
123.85487 -74.408615 65.408737 9143675
123.56593 -74.306618 66.361015 8419696
123.22577 -74.258743 67.233009 9537664
135.70827 -73.763069 -8.6159773 9143162
135.99474 -73.885307 -7.6040754 10261130
135.59969 -74.061378 -6.4834414 10525070
135.15215 -74.060837 -5.7493563 10722450
135.19057 -74.058876 -4.6139708 9998727
135.21983 -74.056931 -3.4782591 10657166
135.04022 -74.055573 -2.5018873 9538685
134.72079 -74.054703 -1.6889278 11050639
134.46269 -74.0532 -0.55733407 9210491
134.45891 -74.051582 0.4107064 9210491
134.44818 -74.049988 1.3787373 10394251
134.11671 -74.048775 2.4039698 11512223
134.01537 -74.047424 3.3030739 7169628
133.64322 -74.073853 4.2555037 8485488
133.50146 -74.18837 5.2772875 9143161
133.54478 -74.232704 6.1146421 10721678
133.78642 -74.218544 6.9960299 10524556
124.10213 -74.096786 66.748512 9143675
123.76971 -74.092285 67.339523 9406334
123.44315 -74.029381 68.433197 9866629
123.28683 -73.953178 69.404999 10260617
122.9636 -73.952011 70.397949 10260616
123.17481 -73.950165 71.311699 10260616
122.56456 -73.949371 72.343391 8747893
122.86353 -73.946938 73.525063 9274237
122.3252 -73.946274 74.40744 10853012
122.39619 -73.944511 75.399055 9866372
122.15195 -73.943314 76.33564 9208954
121.90315 -73.942123 77.274429 9208954
121.95702 -73.940376 78.275192 10261641
121.57028 -73.939293 79.273384 10393484
121.77743 -73.802742 80.335045 10459278
121.2088 -73.744644 81.137222 10064520
120.82311 -73.524117 81.724037 8090987
135.8002 -72.649246 -9.4259443 9866373
136.04002 -72.976486 -8.5668421 9077369
121.83668 -73.210075 80.712204 11380380
121.50204 -72.794487 81.334946 9932935
120.94006 -72.624046 82.087532 7630186
135.76291 -71.73555 -10.352801 9800580
136.05751 -71.859497 -9.5530481 9537407
136.28357 -72.164032 -8.7469931 9406078
121.61896 -72.024017 81.626404 9932937
121.28205 -71.65461 82.226105 8288115
120.66104 -71.763458 82.892563 9932937
136.07104 -70.750961 -10.540658 9866375
136.31396 -71.07074 -9.6812811 9405822
121.45368 -70.846893 82.474281 7367271
120.89942 -70.810318 83.143364 9735559
120.60518 -70.404831 83.713356 9932937
136.04408 -69.867004 -11.416194 9143167
136.4408 -69.843269 -10.514512 10063753
121.62476 -70.083275 82.698547 8485494
121.24206 -69.719872 83.34848 9209470
120.64616 -69.586769 84.12001 9012089
136.11618 -68.542397 -12.46618 7563877
136.36435 -68.907097 -11.55309 9143166
136.66258 -69.023209 -10.752233 9735046
121.2836 -68.901535 83.754868 9735812
120.958 -68.661819 84.269211 9143675
120.37252 -68.591873 84.993408 9209468
136.44002 -67.767242 -12.422336 8551282
136.72969 -67.911919 -11.617555 9077881
121.19475 -67.836395 84.451019 8091243
120.66386 -67.710609 85.142326 7630436
120.25029 -67.304886 85.85202 11511711
136.39685 -66.787697 -13.37395 9011321
136.66774 -67.002106 -12.595611 8814197
120.93199 -66.80307 85.333015 8616563
120.3594 -66.696907 86.062225 12235434
136.49422 -65.538383 -14.212039 9143422
136.70189 -65.84906 -13.524474 9472129
136.96936 -66.17614 -12.655448 8617075
121.04086 -66.066986 85.614777 10854036
120.57998 -65.788483 86.309036 11248539
120.05148 -65.687157 86.984039 13024438
136.61295 -64.896126 -14.501096 9472130
137.03256 -64.834518 -13.686202 9143422
120.91537 -64.91169 86.403915 8682356
120.39542 -64.671051 87.146332 12104615
119.98829 -64.360725 87.794678 11314843
136.68172 -63.764996 -15.300036 9406594
136.99651 -63.978291 -14.47277 8222834
120.67105 -63.728886 87.347466 8945783
120.02224 -63.656807 88.116417 9669762
136.75212 -62.666145 -16.069178 7564643
136.97916 -62.828018 -15.465529 8156528
137.252 -63.094269 -14.680705 7039331
120.66261 -63.118168 87.696854 8682867
120.36688 -62.76368 88.222351 9340797
119.81243 -62.514141 88.854523 9143418
136.74121 -61.492931 -17.068281 8287854
136.91492 -61.888573 -16.380291 8419696
137.26683 -61.985683 -15.572642 8419701
120.58367 -61.782196 88.531876 10196362
119.97568 -61.692017 89.104713 9275262
136.92464 -60.414169 -18.093674 8287854
137.0625 -60.701023 -17.33112 8748149
137.28792 -60.940655 -16.508617 9406080
137.41943 -61.317905 -15.813272 9143166
120.21568 -60.915958 89.30603 9209470
119.69048 -60.619503 89.963608 8748920
137.37433 -59.475563 -19.495287 8156779
137.37209 -59.766331 -18.445459 8682612
137.54041 -59.976933 -17.614349 8287854
137.66101 -60.257366 -16.84635 8287854
119.98081 -59.977345 90.334854 7893615
119.68262 -59.602184 91.017677 7827564
119.2445 -59.352669 91.823456 10260873
139.54187 -58.860142 -34.029545 7565675
139.75935 -58.883278 -33.372814 8617077
140.04248 -58.950043 -32.447536 13682880
139.18996 -59.097717 -31.480633 15064533
139.44476 -59.095371 -30.310066 9735041
139.3441 -59.093639 -29.183136 9340540
138.85492 -59.092857 -28.27268 10391687
139.05095 -59.090889 -27.271986 9669251
138.72791 -59.089836 -26.348246 9998215
138.39868 -59.088795 -25.427998 9011579
138.5742 -59.086861 -24.430696 10920086
138.40633 -59.085545 -23.49077 10327950
137.92209 -59.084534 -22.447557 8748660
137.94345 -59.116096 -21.264318 6841687
137.79178 -59.21088 -20.565369 6841687
137.92628 -59.307854 -19.571493 7433312
119.85429 -59.168659 92.067001 8089963
119.43848 -59.013897 93.036667 11116181
118.98385 -58.91869 93.933037 8089963
119.4001 -58.915928 95.205399 8616823
118.82126 -58.915615 95.919792 9340027
119.11382 -58.912777 97.353088 9932163
118.52204 -58.912483 98.06572 9932419
118.04597 -58.912254 98.633507 9735555
118.44181 -58.909462 99.944023 8682867
117.83481 -58.909195 100.65283 9735555
118.1514 -58.821236 102.16754 9538175
117.62217 -58.675308 102.80428 8288108
139.65802 -57.572094 -35.125668 7563619
139.82994 -57.885502 -34.278111 8420469
140.09991 -58.081032 -33.277039 11445919
118.41003 -58.178417 102.39298 13550517
117.93784 -57.751251 102.98182 11313814
117.35912 -57.712605 103.47667 6511954
139.81776 -56.476818 -35.880798 10063747
139.94046 -56.811226 -35.152599 7826791
140.21014 -56.929588 -34.238338 8155755
140.3315 -57.267273 -33.510578 12432037
118.08932 -56.841183 103.28288 10195847
117.57613 -56.702656 103.77048 8222314
140.00085 -55.828022 -36.071392 11314067
140.2903 -55.779152 -35.285858 9800319
140.46234 -56.041885 -34.49411 7563619
117.76762 -55.857403 104.00821 8486001
117.27992 -55.477364 104.58781 8682355
140.03792 -54.775684 -37.134663 5393730
140.25232 -54.95578 -36.312168 10524552
140.54846 -54.939396 -35.470905 11379348
117.94048 -54.862152 104.33146 8552305
117.45928 -54.636314 104.83362 8024681
140.21623 -53.565243 -37.963963 7565157
140.34526 -53.900303 -37.216656 6709849
140.58347 -54.116886 -36.28442 8024935
117.60928 -53.84951 105.07819 9932677
117.1554 -53.570763 105.58253 8222318
140.31352 -52.473904 -38.895763 7038298
140.44098 -52.801792 -38.161007 8486258
140.71584 -52.91209 -37.240482 11380633
140.84193 -53.242905 -36.50629 7565157
117.80321 -52.821812 105.39935 9932681
117.29398 -52.645924 105.90108 9078143
140.44522 -51.933819 -39.114182 7038298
140.78752 -51.771637 -38.301243 11775391
140.94824 -51.965107 -37.619446 15196110
117.42068 -51.818455 106.1839 8420727
116.93471 -51.635647 106.66976 8814971
140.57092 -50.755833 -40.060028 7828326
140.758 -51.039108 -39.201824 8617843
141.101 -50.876415 -38.387234 16775151
117.68803 -51.047436 106.32441 8092019
117.20475 -50.629646 106.91803 9736072
116.66901 -50.406574 107.46376 15458517
140.67169 -49.699818 -40.942318 8288877
140.85175 -49.950546 -40.140656 7039322
141.11035 -50.085419 -39.240105 10525584
117.34913 -49.721352 107.22413 13353655
116.82722 -49.591156 107.71494 16774119
140.78467 -48.494801 -41.954788 11708316
140.91666 -48.817387 -41.212986 8354670
141.19662 -48.920609 -40.285549 7170652
141.32732 -49.24585 -39.544598 9735812
117.13422 -48.664749 107.89553 13090483
116.54429 -48.63715 108.39444 15063759
140.93004 -47.413189 -42.736233 9734788
141.03476 -47.733601 -42.075901 10326923
141.30869 -47.87006 -41.12904 10458246
141.47618 -48.160118 -40.320019 9208435
117.27711 -47.756054 108.20302 9209467
116.75279 -47.627659 108.69504 10722449
141.06329 -46.87566 -42.961803 12892595
141.3468 -46.884266 -42.123577 10392459
141.57323 -46.892021 -41.452538 11708313
116.94822 -46.786247 108.94879 9669762
116.47236 -46.426373 109.55914 8879734
141.32347 -45.7188 -44.713078 7564643
141.37715 -45.938557 -44.047161 11182234
141.55702 -46.088787 -43.173622 12892852
141.5919 -46.382294 -42.381535 9734788
116.76162 -45.748573 109.9603 9143162
116.30598 -45.362129 110.71678 8616563
141.8362 -44.564819 -47.88483 8682867
142.06732 -44.565098 -47.204948 8090474
141.86958 -44.755444 -46.171253 7301215
141.68648 -45.115906 -45.154678 7301215
141.85597 -45.267788 -44.208485 10196108
116.59245 -44.785614 111.09925 7301213
116.27782 -44.549137 111.87545 8813936
116.31561 -44.288563 112.72784 10261124
144.09088 -43.744434 -59.873493 7169628
143.62752 -44.136677 -58.876743 7235934
143.97508 -44.134708 -58.013432 8946296
143.23834 -44.132347 -55.932262 10853008
143.56824 -44.130409 -55.071369 8419183
142.7511 -44.128517 -53.197659 9076856
143.12677 -44.126225 -52.167957 7038298
142.24719 -44.1469 -50.695553 10853012
142.48598 -44.14526 -50.011734 10195592
142.37442 -44.27095 -49.131268 11379607
142.45392 -44.354973 -48.091526 9406332
144.22121 -42.977993 -60.131565 8813941
144.12384 -41.982193 -60.702549 8879992
144.49925 -42.2332 -60.248516 9208443
144.35178 -40.950359 -61.003601 8355190
144.1823 -39.933449 -61.648579 6577494
144.51984 -40.077419 -61.28017 6184278
144.4332 -38.939831 -61.910694 10261901
144.23578 -37.887627 -62.597622 16512491
144.68398 -37.944862 -62.17358 11906724
144.58035 -36.953773 -62.747845 14933971
144.39394 -35.759235 -63.494316 7564643
144.67143 -36.026646 -63.11887 10986135
144.66481 -34.879726 -63.683201 8025449
144.90065 -35.232754 -63.302864 10459535
144.78085 -33.851284 -64.081474 9011574
144.67204 -32.863461 -64.658707 11445400
145.12476 -32.911968 -64.23497 10984849
144.90938 -31.862513 -64.92244 8024935
145.33157 -32.347412 -64.327133 7038298
144.63567 -30.710245 -65.689598 9011573
145.02875 -30.945044 -65.238564 7038298
144.76651 -29.587749 -66.589432 7038307
145.15117 -30.005453 -65.923416 6117203
145.14821 -28.574697 -68.458176 13023917
145.37982 -28.915491 -67.999084 9011579
145.35275 -29.315062 -67.068573 8024943
145.49268 -27.825783 -68.621048 10984852
145.62465 -28.226734 -68.256149 9011579
145.58936 -26.808496 -69.844788 8024940
145.5723 -27.260679 -69.086052 8748662
145.89571 -26.058683 -71.611046 6840151
145.85387 -26.312151 -70.940987 9405823
146.22554 -26.419268 -70.256203 7169629
127.43616 -79.593613 52.738186 9142907
127.04568 -79.632088 53.83363 9142907
126.77186 -79.481186 54.800076 10919571
126.39429 -79.482079 55.800564 10787727
125.9991 -79.414642 56.576763 9472126
127.22993 -79.160774 53.82198 8747893
127.04248 -78.765663 54.809093 10392971
126.73358 -78.761353 55.69125 10129797
126.19925 -78.725746 56.727932 8946039
125.76849 -78.490761 57.628338 8682867
132.97292 -77.354347 17.427076 10327696
132.98915 -77.439766 18.405466 7695980
126.92007 -78.108505 55.86496 9932419
126.59102 -77.799675 56.722279 10853520
126.02621 -77.780128 57.697018 9998727
125.69498 -77.427383 58.512192 10722709
132.85519 -76.586777 13.52763 8287853
132.98283 -76.704834 14.279613 8813936
133.06247 -76.806747 15.166938 7630177
133.08469 -76.896965 16.304508 9472383
133.1371 -76.894089 17.3673 9275008
126.67361 -77.037071 57.12603 8682867
126.40505 -76.819664 57.737988 9998727
125.90936 -76.775551 58.612682 13288889
125.54379 -76.681442 59.301746 9998987
133.16301 -75.497864 12.347877 9866630
133.15456 -75.815475 13.275624 8550766
133.35754 -75.819458 14.187322 8945522
133.41844 -75.917564 15.207896 9997952
133.34599 -76.159851 16.174076 9472382
126.52005 -76.127205 58.036518 9998727
126.2038 -75.905151 58.797073 12828594
125.75592 -75.828285 59.649754 10591379
125.40082 -75.59317 60.519325 8486519
125.12713 -75.4459 61.205853 8092019
133.88283 -74.355721 9.4220743 9209210
133.67563 -74.496994 10.37517 9471871
133.6093 -74.720474 11.339108 9998216
133.66888 -74.854187 12.274786 9866630
133.66676 -75.109871 13.222687 9603455
133.6624 -75.321877 13.93624 8813936
126.17449 -75.100311 59.943466 11775906
125.83887 -74.873535 60.854458 9012862
125.39323 -74.806969 61.712189 9802120
125.32188 -74.489273 62.617352 10262156
125.15234 -74.338234 63.477474 10591121
124.78471 -74.285194 64.42794 11446174
136.37234 -73.602394 -7.2178221 10327694
136.62297 -73.789124 -6.4628706 8749691
136.4409 -74.010132 -5.5178652 9209212
136.18857 -74.057274 -4.5623007 9407102
136.01489 -74.055756 -3.4953012 10657166
136.03226 -74.054092 -2.5159044 10131079
135.84435 -74.052597 -1.4539443 8881527
135.6483 -74.051399 -0.5570308 9670786
135.24689 -74.050385 0.41662872 9210491
135.23608 -74.048767 1.3903207 14406598
135.21823 -74.047173 2.3639584 12499374
135.19337 -74.045578 3.3374052 9340798
134.82043 -74.04438 4.3910561 9472383
134.64735 -74.043083 5.3279285 9406332
134.28764 -74.045471 6.3778391 12168866
134.11258 -74.156403 7.5634336 10261642
134.09949 -74.222809 8.4676838 10984852
134.38725 -74.201927 9.4596252 9537918
125.57608 -74.125206 64.076065 10591121
125.25144 -74.117775 64.671768 10591121
125.00919 -74.031982 65.695015 9735812
124.60452 -74.013458 66.5578 8288366
124.28479 -73.954651 67.622978 9998471
124.7033 -73.952324 68.635269 10787729
124.20024 -73.951584 69.53109 11180946
124.15117 -73.950066 70.49025 9997702
124.09469 -73.94854 71.451118 9866373
123.61581 -73.947327 72.609528 9405822
123.78958 -73.945274 73.680199 9010808
123.25008 -73.944603 74.569313 9010808
123.44929 -73.942741 75.507584 9997958
123.08315 -73.94162 76.511406 11050900
122.99258 -73.940125 77.487419 12300708
122.93787 -73.880028 78.597694 9077368
122.67589 -73.560509 79.439957 9932934
122.22816 -73.436806 80.127876 10919829
136.3815 -72.624886 -8.095252 9406078
136.61443 -72.781639 -7.4089155 12432552
136.88475 -72.992867 -6.5853548 13354420
122.96583 -72.780609 79.629227 9538176
122.31561 -72.727287 80.419991 10788243
136.57071 -71.820076 -8.3946867 9077369
136.91585 -71.904449 -7.5137167 11117206
123.08456 -72.138435 79.847198 9538176
122.70655 -71.766113 80.496651 10064264
122.11467 -71.622925 81.269089 10590609
136.62813 -70.788979 -9.2088861 9142649
136.95067 -70.787598 -8.4593878 10063493
137.13606 -71.145073 -7.6992769 9735299
122.81194 -70.751259 80.937454 9669253
122.35936 -70.717186 81.48629 8880251
121.85027 -70.615738 82.138573 7498857
136.76544 -69.473045 -10.099101 8089963
136.86755 -69.925697 -9.445323 8418927
137.23376 -69.871452 -8.6426592 11773852
122.60031 -69.919052 81.647911 7433064
122.10167 -69.651054 82.380531 7498857
121.62498 -69.309357 83.128502 9735812
136.95163 -68.729492 -10.349294 9800324
137.24438 -68.897957 -9.5129919 8484720
137.37927 -69.312683 -8.8177118 11379095
122.42072 -68.820915 82.468582 9275005
121.79509 -68.740715 83.245483 9275261
136.95218 -67.814529 -11.189235 9209467
137.2543 -67.88044 -10.42533 9735300
137.42848 -68.101677 -9.8163691 9537665
122.5347 -68.08075 82.746635 13353397
122.07832 -67.793617 83.440483 8814966
121.55332 -67.684151 84.115852 8157036
137.0587 -66.542763 -12.110358 8617075
137.2326 -66.808617 -11.461148 8682867
137.50908 -67.048119 -10.597522 9406335
122.33302 -66.941948 83.615822 8090986
121.84586 -66.623749 84.362946 8090987
121.44413 -66.408485 84.952805 8089963
137.24353 -65.767761 -12.39264 7892585
137.616 -65.893463 -11.410056 8550770
122.12698 -65.678772 84.559204 9471871
121.52938 -65.727692 85.231514 9932678
121.15012 -65.433746 85.838814 9932678
137.2726 -64.740555 -13.260558 8551288
137.59676 -64.898041 -12.369952 7827823
137.64922 -65.353096 -11.829518 7564651
122.18068 -65.10569 84.815018 10854036
121.83286 -64.70314 85.445885 10130057
121.25636 -64.545837 86.208115 9011320
137.29999 -63.637577 -14.129783 7039331
137.63165 -63.752499 -13.328507 7499114
137.84117 -64.122978 -12.513688 7959408
121.94107 -63.942547 85.742065 9932678
121.49413 -63.701553 86.399185 9011063
121.01421 -63.515099 87.064636 8089963
137.56726 -62.768997 -14.300492 7762284
137.85829 -62.971619 -13.517898 8156786
121.8147 -62.916348 86.460541 9340027
121.23515 -62.761929 87.224716 9011063
120.88258 -62.365265 87.85788 8682867
137.69437 -61.53727 -15.06302 7038307
137.90839 -61.905796 -14.314252 8617078
138.10672 -62.331173 -13.542722 9735812
121.91962 -62.030212 86.830872 10590091
121.52376 -61.678497 87.489586 10918799
120.98649 -61.608006 88.157303 10458763
137.66621 -60.630638 -16.176506 10261132
137.94382 -60.810848 -15.341468 8879994
138.20728 -61.052925 -14.447436 8748665
121.78761 -60.880287 87.625168 11905692
121.26368 -60.776798 88.36058 10129801
120.74845 -60.572193 89.103157 9143677
138.32826 -59.392262 -18.106468 7432289
138.17484 -59.633202 -17.202629 7827303
138.15181 -60.029884 -16.232515 9340544
138.39984 -60.103939 -15.587996 9143166
121.48548 -60.185963 88.748672 9735043
121.15172 -59.926323 89.403297 8682870
120.78387 -59.548779 90.235832 8156785
120.85966 -59.226944 91.002708 8089963
140.37556 -58.579826 -31.922085 11708833
140.49974 -58.806377 -31.135742 9866885
140.59888 -59.025322 -30.115845 8091503
140.21539 -59.092129 -29.070307 9209211
139.89247 -59.091045 -28.130707 8353904
140.0874 -59.089066 -27.122559 10524299
139.58504 -59.088314 -26.21843 11642524
139.42139 -59.086971 -25.266516 11248537
139.59572 -59.08503 -24.261768 8354933
139.25272 -59.084023 -23.345215 9407363
138.92955 -59.082706 -22.265638 6972509
139.10716 -59.080479 -21.097687 6512978
138.63109 -59.100632 -20.234783 6512978
138.45531 -59.204334 -19.221703 7103579
138.59621 -59.257572 -18.535004 7300702
120.68863 -59.143105 91.483238 8353135
120.59467 -58.99065 92.178467 9602945
120.54376 -58.93185 93.221344 9800323
120.2029 -58.916397 94.199112 9142908
120.07277 -58.914799 95.273857 7564393
119.93467 -58.913208 96.349121 8748665
119.46681 -58.91296 96.923775 8089963
119.88161 -58.910149 98.228416 11050642
119.16486 -58.909794 99.088799 9603711
119.57229 -58.906967 100.41274 11576729
119.16576 -58.676098 101.30263 9077625
118.8209 -58.471188 101.91746 9537918
140.35884 -57.829556 -32.805538 14209224
140.53374 -57.929798 -32.186401 12761521
140.86832 -57.927551 -31.217882 10590607
118.97143 -57.691444 102.15834 8090987
140.47606 -56.538113 -33.902054 8813683
140.59744 -56.876545 -33.173382 10392714
140.8956 -56.956463 -32.219173 9339771
140.98601 -57.341572 -31.528383 12432037
119.2233 -56.734219 102.39873 7959144
118.64551 -56.559185 102.95663 10064261
140.75003 -55.68343 -34.058048 7826791
140.99431 -55.93066 -33.074169 8089963
141.15076 -56.237976 -32.278053 8089963
118.88957 -55.673687 103.16988 9275515
118.2848 -55.408768 103.79204 8092011
140.77174 -54.897682 -34.869396 9471355
141.09007 -54.848461 -34.000069 8616562
141.28275 -55.009491 -33.261768 9537150
119.12695 -54.773312 103.39564 9867394
118.54673 -54.58828 103.96026 9144185
140.85872 -53.735416 -35.90984 10326660
141.03281 -53.996452 -35.114246 8813421
141.30908 -54.021721 -34.284199 11971486
118.76229 -53.666042 104.21416 10722190
118.17747 -53.630287 104.71262 10985361
140.98264 -52.518158 -36.904461 7565157
141.14415 -52.816788 -36.103397 9800574
141.37602 -53.023438 -35.200417 9010800
141.50723 -53.299271 -34.51265 9931902
118.97456 -52.891006 104.40192 8092011
118.44143 -52.662285 104.94812 11116436
117.96066 -52.241138 105.54128 8092019
141.1367 -51.42791 -37.670124 15196110
141.2343 -51.801796 -36.970837 10459532
141.53912 -51.870911 -36.009232 10655625
141.66521 -52.203899 -35.273022 8681835
118.6361 -51.729153 105.22441 9537920
118.03778 -51.590416 105.7822 9012091
141.26913 -50.887074 -37.887455 15327961
141.549 -50.906128 -37.053871 12235946
141.77269 -50.922447 -36.386402 11906725
118.71679 -51.104088 105.45039 9537920
118.29446 -50.643635 106.01375 8485491
117.89707 -50.2729 106.51463 8092019
141.34814 -49.733582 -38.941357 11907493
141.52696 -49.988079 -38.139259 13551806
141.78439 -50.127167 -37.237293 8947064
118.49607 -49.715107 106.28211 7563618
117.90645 -49.684216 106.78231 9209467
141.521 -48.526653 -39.782452 6512978
141.65448 -48.858074 -39.026264 9144699
141.89812 -49.06982 -38.083523 11381149
118.50595 -49.125824 106.54976 8089963
118.079 -48.710941 107.09563 9800835
141.61263 -47.438595 -40.726971 13023917
141.74432 -47.763268 -39.983425 9208435
142.02448 -47.868969 -39.05267 9209211
142.15498 -48.196331 -38.309834 15722454
118.42886 -47.745777 107.25903 10392973
117.83673 -47.716984 107.76034 9209467
141.83665 -46.79969 -40.865318 10721418
142.0695 -46.83952 -40.121765 9208435
142.25447 -46.922573 -39.438007 8682867
118.43739 -47.156487 107.52779 9010808
118.04382 -46.791145 108.03837 9143418
117.64954 -46.348579 108.6371 10130313
142.12538 -45.572113 -42.726494 11511199
142.18738 -45.805744 -42.002491 10984592
142.25084 -46.114933 -41.095318 10589832
118.2886 -46.014885 108.43971 8682867
117.84149 -45.738968 109.08013 9603969
117.45643 -45.350464 109.78049 9209211
142.58231 -44.567593 -45.673267 7169629
142.70837 -44.621693 -44.772499 8092016
142.52225 -44.797047 -43.96537 8289395
142.41249 -45.088375 -43.09177 9999242
142.70491 -45.091022 -42.154827 8681843
117.76601 -44.824852 110.07228 8814453
117.43407 -44.578873 110.82877 8222316
117.33634 -44.314922 111.81419 7037785
144.6044 -43.626106 -59.477329 9208443
145.08371 -43.890881 -58.860958 9341054
145.35266 -44.093967 -58.15942 9735812
144.38551 -44.132351 -56.974857 9341054
144.78847 -44.129997 -55.933346 9011576
143.95749 -44.12809 -54.035763 8616303
144.33923 -44.125771 -52.997456 9931648
143.37343 -44.124699 -51.48016 7038298
143.61613 -44.12318 -50.791019 10129288
143.91544 -44.121284 -49.928097 10261132
142.9592 -44.143585 -48.64246 11182228
143.19322 -44.14362 -47.956989 7630180
143.07468 -44.271042 -47.080048 7630180
143.14641 -44.357285 -46.041454 7564387
117.14094 -44.06488 112.98611 8813936
117.41622 -43.887383 114.0795 8813936
144.98051 -42.763798 -59.564793 9208957
145.28687 -43.20454 -59.079418 9735812
145.08531 -41.925945 -59.880245 8684155
144.94724 -40.823978 -60.538868 8684155
145.37733 -41.062199 -60.042709 8420983
145.36618 -39.913498 -60.612003 7828846
145.07489 -38.583553 -61.517139 5394762
145.31235 -39.073021 -61.068905 6841694
145.41766 -37.843143 -61.574772 5394762
145.66464 -38.268188 -61.149376 7564901
145.47804 -36.953514 -61.954575 6315348
145.4014 -35.82354 -62.572605 10854293
145.82936 -36.12764 -62.046291 6446935
145.64255 -34.927952 -62.795635 10985623
145.49464 -33.832981 -63.459614 7892839
145.84105 -34.048477 -63.048458 8089962
145.73076 -32.977631 -63.667454 7892839
145.53198 -31.780508 -64.416397 7038298
145.9236 -32.017818 -63.961636 7300446
145.83099 -30.881691 -64.601761 5525065
145.94991 -29.79719 -65.442062 4340793
145.96771 -30.209221 -65.029312 4932930
146.24994 -28.879339 -67.480286 7038307
146.14867 -29.2768 -66.65654 7038305
146.41023 -29.395638 -65.858704 6117205
146.06477 -27.493511 -68.46257 5392706
146.41112 -27.959078 -67.822128 6380117
146.63646 -26.557426 -69.445709 6116941
146.61124 -26.933289 -68.632401 5392706
146.80139 -26.110422 -70.531403 9274493
146.48314 -26.434462 -69.947823 5920074
129.3605 -79.472076 47.264194 9997703
129.08833 -79.482414 48.046154 9010808
128.76059 -79.497787 48.984425 8222060
128.43149 -79.516571 49.92268 8222316
128.10112 -79.538849 50.86108 9669505
127.76932 -79.564529 51.799488 10590865
129.16057 -79.110481 48.250164 7563619
128.96167 -78.857422 49.112263 8090986
128.68379 -78.768524 50.021427 11971743
128.35281 -78.790581 50.961658 10130055
128.02049 -78.816063 51.902012 10722195
127.68674 -78.844948 52.842575 9866630
127.44901 -78.650429 53.752537 7827047
127.25217 -78.526344 54.464554 9142907
133.00423 -77.528625 19.385971 12037538
133.01819 -77.621063 20.368631 13550517
133.09755 -77.534981 21.364315 12892848
133.10916 -77.634384 22.352076 9668986
133.11961 -77.737343 23.342287 10524551
133.06059 -78.0084 24.15708 8681835
128.88062 -78.024826 50.276989 12498087
128.63223 -77.895676 51.145023 12629676
128.39647 -77.695534 52.055447 9471359
128.06192 -77.72406 52.998875 9998472
127.72594 -77.755989 53.942581 7892584
127.38859 -77.791306 54.886639 9011577
127.14357 -77.601158 55.799633 8813684
133.24071 -76.64296 17.625246 9011838
133.25439 -76.713989 18.442425 7170149
133.26984 -76.802216 19.424936 11709087
133.28413 -76.893967 20.409618 10788500
133.36378 -76.80732 21.407322 9801349
133.34152 -76.988617 22.308889 8221547
128.53514 -76.958832 52.472599 8681843
128.33904 -76.831207 53.186703 9208700
128.04779 -76.745399 54.13134 9077370
127.76122 -76.67231 55.048264 9011577
127.41622 -76.707359 55.993267 8879735
126.99803 -76.636414 56.859997 9932677
126.75494 -76.276474 57.530529 10656913
133.74481 -75.40715 14.595266 8813936
133.69702 -75.525513 15.500674 9998210
133.58586 -75.760544 16.57592 9472383
133.58 -75.86412 17.540127 8814711
133.73705 -75.675362 18.51005 8617844
133.62733 -75.910294 19.477497 8947070
133.61404 -76.023453 20.394732 8684155
133.56105 -76.246262 21.274521 9143420
128.22379 -76.264893 54.154179 9537921
128.0092 -75.927635 55.155827 9274749
127.76501 -75.82814 56.074169 9406079
127.44228 -75.65184 56.983677 9011321
127.016 -75.577431 57.808018 9011832
126.59521 -75.542793 58.564053 8682867
134.45349 -74.338249 11.739261 8419696
134.34476 -74.423332 12.46123 9340286
134.21432 -74.602867 13.39021 9933702
134.23285 -74.75119 14.389031 8748658
134.19185 -74.881058 15.506192 8222315
134.09244 -75.07692 16.593565 8946296
134.04977 -75.179451 17.351706 10985622
127.37489 -74.994232 58.06126 8353647
126.97717 -74.908508 58.866199 9341053
126.82233 -74.598869 59.786846 12236457
126.55826 -74.41777 60.70837 9736067
126.2254 -74.323746 61.748814 9604483
137.20889 -73.610199 -5.26336 9406849
137.33176 -73.906059 -4.2773561 9209978
136.82034 -74.054291 -3.3482389 9210491
136.83894 -74.052338 -2.1989069 9342077
136.84695 -74.050682 -1.2136317 8618355
136.84789 -74.049034 -0.22828209 8618355
136.3839 -74.048233 0.65918624 10131080
136.02608 -74.047012 1.728526 10920086
136.00571 -74.04541 2.7078009 10920086
135.97832 -74.043808 3.6869526 7761254
135.94391 -74.042213 4.6658754 7563619
135.70004 -74.04084 5.7164097 8880246
135.4568 -74.039726 6.6016722 10590349
135.32588 -74.038414 7.5067539 9670019
134.94208 -74.037285 8.5244999 10393229
134.8987 -74.049896 9.4978094 9867141
134.67218 -74.182167 10.456565 9011577
134.7485 -74.221764 11.375218 8419696
134.97278 -74.21431 12.277177 9340286
127.01471 -74.166733 61.38232 8814965
126.69792 -74.156441 61.982769 9801861
126.44109 -74.075768 62.91679 9801605
126.1496 -74.031639 63.683384 10064777
125.81169 -73.9571 64.772362 9604226
126.17354 -73.95462 65.926346 9735301
125.68996 -73.953842 66.832848 9472640
125.3896 -73.952614 67.839691 10525071
125.62607 -73.950722 68.75473 9208954
125.12211 -73.949974 69.657227 10457993
125.23124 -73.948158 70.645309 10589324
125.02326 -73.946899 71.590729 9340286
124.64445 -73.945663 72.675674 9011832
124.72432 -73.943596 73.835701 8485232
124.18373 -73.942924 74.731567 8089963
124.57792 -73.940544 75.792931 10063750
124.02322 -73.939888 76.687653 13484470
124.10284 -73.698936 77.637398 9208442
123.57606 -73.553589 78.485161 8682867
137.19539 -72.741264 -6.0935621 10854549
137.54219 -72.85508 -5.1816988 9933191
137.67856 -73.224846 -4.5242662 9734784
124.31654 -72.901482 77.980927 9800580
123.86811 -72.710388 78.612045 10459023
123.30479 -72.679062 79.288818 10130313
137.40663 -71.403923 -6.8313246 10065291
137.44968 -71.882469 -6.2912836 11117720
137.77235 -71.992142 -5.4392653 10196363
123.9901 -71.903336 78.917938 10590865
123.52766 -71.698044 79.57341 9538176
123.09096 -71.357803 80.273788 9538176
137.448 -70.846771 -7.2473021 10195594
137.83565 -70.896378 -6.2992868 9867399
123.8596 -70.738266 79.718384 9340542
123.30331 -70.660072 80.413025 10063753
137.535 -69.732422 -8.0692339 11905695
137.8399 -69.922211 -7.1850405 9932678
138.07919 -70.026299 -6.5322714 10853012
124.00783 -69.872528 80.026184 9143166
123.53999 -69.786385 80.621666 8485237
123.03225 -69.718018 81.254082 7827821
137.56696 -68.703873 -8.940484 8089963
137.87068 -68.809532 -8.1363745 10195336
138.08127 -69.055679 -7.4197531 9735299
123.78574 -68.920761 80.815231 7827821
123.27464 -68.610428 81.586029 9143166
122.81943 -68.4226 82.223267 11905955
137.70015 -67.392906 -9.8358526 9537665
137.80507 -67.84304 -9.1776533 8945528
138.13205 -67.975403 -8.2947817 10590605
123.53856 -67.738136 81.761986 10656400
122.95275 -67.593765 82.528 13747898
137.82048 -66.788986 -10.11082 9537665
138.1813 -66.817581 -9.2446241 9537665
138.31917 -67.229889 -8.5446119 9537665
123.67628 -67.128433 81.939735 13353397
123.33318 -66.717972 82.56958 13616312
122.76067 -66.55146 83.332268 10590606
137.92801 -65.589233 -10.963548 9669251
138.12119 -65.930931 -10.199693 9340286
138.44971 -65.921234 -9.4438505 9274493
123.44633 -65.824852 82.933784 10985364
122.92991 -65.727287 83.592346 10064520
122.47111 -65.699028 84.145172 9932678
138.15953 -64.786125 -11.162887 9866631
138.47263 -64.908516 -10.321515 9275004
123.26318 -64.950851 83.634338 10393485
122.68886 -64.708466 84.44104 10854037
122.40508 -64.350784 84.971886 9932678
138.1487 -63.799007 -12.095626 8288116
138.45099 -63.924866 -11.276269 9340799
138.67473 -64.120049 -10.576186 8617331
123.43983 -64.027649 83.941589 9735812
123.04839 -63.66832 84.599289 10327949
122.40017 -63.73727 85.319016 9866885
138.22174 -62.665787 -12.96736 7564646
138.46461 -62.847446 -12.235141 7827822
138.73254 -63.019928 -11.452994 8288113
123.14175 -62.666939 85.047379 9735812
122.62289 -62.830173 85.563301 9406075
122.15743 -62.551037 86.262947 9734784
138.42902 -61.846088 -13.238494 8090986
138.77979 -61.897045 -12.375316 8814709
122.91402 -61.850704 85.76796 9471609
122.42984 -61.630756 86.456558 9800577
122.02557 -61.272152 87.128891 11247763
138.5437 -60.777447 -14.145888 7959403
138.75722 -61.02103 -13.312083 7433056
139.0088 -61.050758 -12.620399 7564642
122.74218 -60.783779 86.619759 9603195
122.35033 -60.516514 87.362488 10721677
138.99123 -59.467628 -16.15929 9735812
138.88129 -59.792873 -15.191047 8288371
139.03325 -60.136333 -14.210862 6643542
122.54644 -60.000095 87.727234 10458510
122.14931 -59.829758 88.392136 10261131
122.00446 -59.438358 89.325104 9208956
121.61081 -59.272251 90.199898 7564643
141.00636 -58.623356 -30.043163 7039331
141.21175 -58.771919 -28.978849 9143675
141.06834 -59.045391 -28.099163 9932163
141.13571 -59.087223 -26.97061 8484720
140.30586 -59.086765 -25.944693 13023917
140.45554 -59.085133 -25.102188 9209984
140.62865 -59.083176 -24.089983 7565675
140.10684 -59.082478 -23.196932 7565675
139.92259 -59.081173 -22.248783 5392706
140.09953 -59.078938 -21.07235 5721928
139.59013 -59.077961 -20.029226 6644055
139.38849 -59.076702 -19.091995 7037274
139.37633 -59.116528 -18.069815 7234653
139.33821 -59.225227 -17.216053 7893098
139.41202 -59.341194 -16.207291 9012091
122.10303 -59.07848 90.568352 8221804
121.65388 -59.000546 91.453232 8682100
121.55946 -58.917248 92.45874 10195082
121.11033 -58.916958 93.041245 10853012
121.55124 -58.914146 94.320969 8681835
120.86262 -58.913731 95.19355 7367271
121.17964 -58.910839 96.637825 8090736
120.59215 -58.910519 97.362907 9143166
121.01873 -58.907665 98.680733 9538176
120.53915 -58.907429 99.260239 10129798
120.33173 -58.658318 100.31425 12037279
119.94928 -58.489048 100.97951 8946296
141.07565 -57.728184 -30.837984 9932675
141.35037 -57.798916 -29.962124 7696744
141.56882 -58.046883 -29.052237 11510934
120.60252 -57.745876 100.78911 7039331
120.02133 -57.701992 101.28848 7236710
141.17778 -56.802448 -31.57164 10984593
141.33185 -57.009212 -30.894436 8879989
141.68811 -56.905033 -29.976278 7564643
120.26151 -56.842617 101.49272 8880763
119.75336 -56.534355 102.05556 8551798
141.2961 -55.507607 -32.668793 8089963
141.41745 -55.84816 -31.937771 8221549
141.71608 -55.930763 -30.97905 7959401
141.80637 -56.317947 -30.286243 7564643
120.50945 -55.955387 101.70364 9933193
119.97994 -55.719879 102.25002 8946556
119.45029 -55.485569 102.79592 9537918
141.51994 -54.662201 -32.959667 9669506
141.77074 -54.813999 -32.062859 8550513
141.94171 -55.083282 -31.267021 7564643
120.16492 -54.875919 102.49251 9867914
119.652 -54.577724 103.05463 10130568
141.59616 -53.8022 -33.695087 10591121
141.82866 -53.914619 -32.895229 9406847
142.10524 -53.980125 -32.019657 9143675
119.84193 -53.762978 103.27936 9802375
119.40081 -53.508926 103.76163 8092011
141.6815 -52.69828 -34.675629 9931902
141.85562 -52.961578 -33.877293 9406332
142.13789 -53.042854 -32.967667 8683124
120.00387 -52.837078 103.57919 9473412
119.41991 -52.665089 104.14073 8486257
141.80666 -51.47765 -35.670261 11181969
141.93266 -51.811459 -34.933262 9273972
142.20677 -51.928833 -34.006985 8880503
142.33157 -52.26564 -33.270283 8090987
119.7165 -51.819565 104.29202 11050900
119.19914 -51.525707 104.85571 8287597
142.04079 -50.759212 -35.789951 10195851
142.30594 -50.822231 -34.95023 8287341
142.43489 -51.162483 -34.19759 11181974
119.90052 -50.877472 104.58128 8747890
119.31413 -50.695286 105.1496 7629667
142.07401 -49.804821 -36.755337 9406335
142.28601 -49.995502 -35.927837 10064265
142.59944 -49.882374 -35.144009 9735044
119.52909 -49.771851 105.40459 7432032
118.93865 -49.738991 105.90639 9537920
142.17532 -48.68602 -37.705814 11907493
142.35416 -48.942764 -36.901264 9340798
142.61188 -49.084282 -35.995823 9208700
119.7412 -48.995502 105.59315 8023913
119.20234 -48.769226 106.14293 8879222
118.71572 -48.350082 106.73989 9931910
142.29309 -47.472698 -38.713982 10985620
142.42349 -47.800808 -37.970448 13946045
142.70262 -47.910717 -37.038044 10919828
142.8318 -48.241535 -36.294987 7563619
119.48885 -47.715496 106.4 10458254
119.02471 -47.578911 106.84629 10195082
142.49083 -46.415726 -39.687496 8945523
142.5833 -46.721985 -38.839191 11577500
142.8067 -46.911449 -37.889736 11972257
119.73032 -46.827354 106.61673 10853012
119.12095 -46.750446 107.17192 9471359
118.67744 -46.392059 107.74744 9209211
142.83127 -45.496323 -40.854694 11181969
142.89656 -45.808002 -39.938637 9077367
143.08304 -45.975842 -39.002697 11446170
119.31865 -46.059368 107.54727 9472383
118.993 -45.683414 108.18623 9538433
118.5219 -45.422714 108.83142 9669762
143.25491 -44.574699 -43.625828 7565673
143.37411 -44.630661 -42.724789 8485234
143.14447 -44.857601 -41.849003 9339771
143.25261 -44.982655 -40.90049 10589835
143.386 -45.116795 -40.121395 8813171
118.81047 -44.832733 109.18669 9669762
118.65096 -44.469284 110.10246 9011832
118.34402 -44.339069 110.88567 8748660
145.62354 -43.835258 -57.661388 8946296
145.92416 -43.923885 -56.690079 8814454
145.24879 -44.127262 -54.714531 8616819
145.57202 -44.125317 -53.841793 9734788
144.58981 -44.124233 -52.303761 8484973
144.83653 -44.122696 -51.608799 9997700
145.08035 -44.121166 -50.912823 9142651
144.09251 -44.120152 -49.409428 8089962
144.32533 -44.118637 -48.716843 7168861
144.61209 -44.116753 -47.849682 9735044
143.65712 -44.145084 -46.58437 8419440
143.88654 -44.146725 -45.897068 7104351
143.75299 -44.290421 -44.907768 8947323
143.88089 -44.365215 -43.814571 9144702
118.73626 -44.102451 111.52637 7366751
118.15773 -44.088604 112.0593 7103323
118.24121 -43.88755 113.23095 7037785
117.69196 -43.887432 113.79739 8813936
145.66342 -42.911465 -58.574787 9406849
145.98286 -42.952324 -57.602196 9603714
146.10358 -43.321129 -56.841133 8617075
145.80196 -41.633419 -59.358494 9012350
146.07463 -41.829918 -58.586216 9406594
146.17569 -42.199154 -57.881756 10853012
146.00113 -40.832287 -59.563026 8354677
146.33038 -40.948769 -58.825665 9603973
145.8463 -39.473366 -60.4021 7565674
146.22786 -39.966614 -59.789486 8025969
146.50124 -40.319283 -59.031071 9012350
146.13135 -38.881554 -60.438274 7762279
146.59023 -39.18058 -59.88715 9537408
145.9444 -37.517967 -61.267593 5394762
146.35312 -38.014111 -60.664677 8354159
146.27881 -36.90453 -61.270748 5723470
146.53854 -37.200291 -60.897099 6446935
146.40414 -36.001556 -61.599697 6381141
146.31828 -34.810612 -62.255589 10590609
146.716 -34.936352 -61.842796 7169369
146.52026 -33.98185 -62.480637 8024425
146.39549 -32.460934 -63.331524 7037274
146.67366 -32.996746 -62.824802 7498081
146.60471 -31.893541 -63.422543 6840411
147.06403 -31.942305 -62.993347 6708825
146.38408 -30.501396 -64.374428 6117205
146.74806 -30.974646 -63.747066 6314325
147.0717 -29.447062 -65.097824 6117205
146.95181 -29.862915 -64.553535 6182998
147.25151 -30.20591 -63.91357 5392706
147.23257 -28.97448 -66.650925 6446169
146.80714 -29.426373 -65.402603 4340793
147.21658 -27.828896 -67.284805 6774618
147.47116 -28.273083 -66.830772 6510930
147.44987 -26.580193 -68.571396 5919308
147.36365 -27.127951 -67.780197 6445910
148.46294 -26.045429 -72.201241 7563619
147.97847 -25.931841 -71.530029 7169629
147.68034 -25.820896 -70.51651 9734788
147.79942 -26.099913 -69.531792 6708824
131.27277 -79.304771 40.753407 7564643
131.16777 -79.361725 41.413761 8222573
130.998 -79.443169 42.40202 8616561
130.70856 -79.456764 43.352051 11379348
130.38689 -79.45507 44.291477 8089706
130.06412 -79.456741 45.230537 9142393
129.74004 -79.461914 46.16925 10261132
129.52342 -79.467018 46.794971 10261132
133.08278 -78.369156 27.315214 8024425
133.08765 -78.490967 28.31843 8156011
132.97786 -78.570984 29.466658 9011576
132.81352 -78.624405 30.604509 7564646
132.71387 -78.52948 31.658575 6709080
132.59268 -78.542038 32.574421 5919050
132.44742 -78.598457 33.553387 7827815
132.30077 -78.658348 34.533543 9143162
132.15273 -78.721672 35.514973 9932422
132.00314 -78.788513 36.497738 9471614
131.85216 -78.858871 37.48196 9537664
131.69965 -78.932732 38.467663 10261643
131.54573 -79.010124 39.454926 9143931
131.41371 -79.048225 40.381939 8288622
131.29842 -78.989258 41.455227 7564643
131.12791 -79.07 42.444305 8222060
130.90102 -78.895912 43.416294 10392712
130.64282 -78.707474 44.378963 8353134
130.3194 -78.709145 45.319859 8287342
129.99475 -78.714241 46.260487 9603202
129.66888 -78.72271 47.200859 9603202
129.39362 -78.627159 48.109943 8221805
129.1947 -78.373375 48.97279 8551280
133.19699 -77.675797 24.479895 9077365
133.20395 -77.771378 25.34309 10130054
133.21097 -77.885056 26.341619 9669503
133.31319 -77.74649 27.41065 9143161
133.31761 -77.855919 28.319754 12959925
133.1978 -78.009583 29.347754 9011576
133.03348 -78.062294 30.487194 7630697
132.92099 -78.046486 31.415651 6314580
130.79057 -77.96106 44.780582 8089963
130.60359 -77.813721 45.489803 7695204
130.31259 -77.781265 46.37431 8550514
129.98598 -77.789658 47.31702 8221549
129.65814 -77.801376 48.259594 7695979
129.32903 -77.81649 49.202122 9537919
129.08246 -77.586403 50.177517 11511449
128.85149 -77.38871 51.071251 12432298
133.52301 -76.512505 22.48797 8089963
133.45329 -76.826096 23.401134 9076851
133.47935 -76.881615 24.358042 8156263
133.58896 -76.726181 25.458467 11116691
133.59589 -76.829285 26.376429 12892844
133.52872 -77.121902 27.184195 9208443
130.44859 -77.22345 46.599842 8418928
130.23918 -77.044571 47.409782 7695721
130.01038 -76.86882 48.272762 8485495
129.67856 -76.846893 49.264446 12300710
129.36449 -76.79612 50.236614 9471870
129.04301 -76.738838 51.23748 9405566
128.74393 -76.724731 52.125118 8681843
128.54823 -76.595894 52.839275 10129545
133.95403 -75.438927 19.526041 10065289
133.88335 -75.597504 20.584682 8684155
133.82674 -75.761566 21.564934 9077371
133.92439 -75.68058 22.490242 8484720
133.91669 -75.770615 23.483204 10129543
133.84909 -75.951836 24.419989 11051155
133.83835 -76.028984 25.381243 9340795
130.01515 -76.047592 49.196575 10787731
129.74672 -75.972717 50.078266 10129545
129.46962 -75.862061 51.119686 8747636
129.13271 -75.849701 52.114788 8813429
128.7925 -75.874344 53.06126 9931910
128.49652 -75.81144 53.997074 9866373
128.4357 -75.432632 54.975033 9537921
128.16982 -75.382011 55.867596 8419184
127.94804 -75.320427 56.597065 10260875
135.00435 -74.32859 14.081006 8486000
134.99123 -74.360161 14.735586 7498849
134.93617 -74.391106 15.714395 8683379
134.66045 -74.521759 16.665762 9143675
134.52057 -74.679817 17.674433 10919829
134.45839 -74.770119 18.612028 9670785
134.42937 -74.831451 19.596712 10262665
134.41383 -74.904175 20.585266 8684152
134.30745 -75.099327 21.494783 9471614
134.38835 -75.049782 22.403419 8945271
129.52715 -75.202652 52.336224 8681843
129.26712 -75.144753 53.228725 10195082
129.036 -75.022743 54.187054 9537408
128.87761 -74.80143 55.166149 9932423
128.57024 -74.77359 56.188839 9537152
128.2605 -74.694397 57.106464 8616307
127.98303 -74.49379 58.019306 8287342
127.63077 -74.375412 59.04826 7037786
137.77431 -73.700294 -3.8643541 8682867
137.93188 -73.775497 -3.2054663 10787983
137.99107 -73.943329 -2.3232927 11117462
137.65681 -74.049461 -1.2173053 7894632
137.65768 -74.047806 -0.22611916 7894632
137.6514 -74.04615 0.76501739 8223603
137.2332 -74.045143 1.7491463 8156526
137.01233 -74.043976 2.6496849 7037274
136.78038 -74.042557 3.7122355 7168861
136.74576 -74.040962 4.69697 9010807
136.70398 -74.039368 5.6813879 8287085
136.65512 -74.037796 6.6654749 9340797
136.394 -74.036438 7.7185783 10064521
136.13579 -74.035347 8.6053658 9932934
135.99077 -74.03405 9.5137577 9669507
135.5889 -74.032951 10.531785 8550514
135.5051 -74.031448 11.507722 8682868
135.38892 -74.112869 12.677472 8617330
135.25288 -74.219627 13.615813 9209723
135.49535 -74.201096 14.792768 7038298
135.44017 -74.232002 15.775201 8486000
128.57167 -74.228424 58.364132 8089963
128.26364 -74.214851 58.969749 6840925
127.88018 -74.136574 60.103249 8025449
127.58452 -74.075897 60.979317 8354158
127.33206 -73.993492 61.916584 8945783
127.53161 -73.962456 62.930172 8551026
127.12089 -73.956245 64.102997 9341054
126.84242 -73.954971 65.116104 9406592
127.09862 -73.953056 66.025764 10853012
126.61436 -73.952263 66.938965 9275005
126.58955 -73.950684 67.905609 10525070
126.55736 -73.949112 68.874176 9735297
126.0526 -73.948357 69.783371 8682867
126.16657 -73.946526 70.778252 10787728
125.96051 -73.945236 71.730438 9340284
125.70688 -73.943718 72.875755 9209211
125.66793 -73.94191 73.991554 11577503
125.12623 -73.941223 74.894196 8418927
125.52958 -73.779877 76.046379 7300447
124.92448 -73.683617 76.834473 9208442
124.53416 -73.447296 77.422745 10063750
137.84039 -72.44857 -4.861352 9734784
137.9696 -72.883987 -4.1602182 9603198
138.32556 -72.939209 -3.2808046 11181459
125.31054 -72.814926 76.865532 9274235
124.72477 -72.509628 77.720856 9734788
138.09024 -71.715965 -4.9532576 10523786
138.35822 -71.842003 -4.2135763 11641496
138.52628 -72.135735 -3.5522699 11313045
125.45894 -71.962517 77.165573 9734788
125.06623 -71.727837 77.755814 10064009
124.5013 -71.67495 78.44651 10458767
138.09377 -70.591751 -5.978549 8946296
138.28238 -70.905319 -5.2512636 9472127
138.60532 -70.966034 -4.4436445 10655630
125.24642 -70.894157 78.008369 11051160
124.68154 -70.711777 78.770988 10261388
124.28686 -70.481476 79.361053 9734788
138.37172 -69.736862 -6.1174955 10195594
138.66521 -69.920052 -5.2659788 9998728
124.97444 -69.759857 78.957321 9340286
124.35003 -69.667145 79.739807 8748661
138.33916 -68.750465 -7.1002054 9932422
138.66399 -68.92466 -6.1839838 10524560
125.15002 -69.189095 79.069168 8682867
124.75436 -68.804413 79.746239 9077625
124.24323 -68.490166 80.519081 9275007
138.42415 -67.683434 -7.8833361 13551541
138.72252 -67.769707 -7.10954 10459534
138.89671 -68.157143 -6.3480139 8223085
124.96057 -67.711914 80.112862 10656657
124.41756 -67.765633 80.71801 9538178
123.96088 -67.730453 81.27195 7827819
138.47079 -66.472343 -8.8881769 8090987
138.64774 -66.861237 -8.1187849 11249048
138.97527 -66.983055 -7.2445803 8947326
124.66377 -66.863121 80.932327 10722195
124.06281 -66.721153 81.714081 10656144
138.76825 -65.637863 -8.963048 8157038
139.02055 -65.954506 -8.0848246 8947326
124.49216 -65.726112 81.765747 10787732
123.95111 -65.601837 82.467606 10853779
138.71661 -64.739815 -9.9089212 8617331
139.02235 -64.855423 -9.0910234 8748918
139.25995 -65.150208 -8.2670031 8092019
124.6515 -64.685432 82.158524 10459023
124.11935 -64.793472 82.720749 10656400
123.67256 -64.555199 83.375824 9735812
138.82155 -63.371002 -10.923055 8617331
139.02255 -63.808842 -10.052791 8814453
139.32245 -64.037292 -9.1448946 10459278
124.39999 -63.832657 82.927299 10262412
123.88614 -63.585663 83.665665 10393742
123.4352 -63.259125 84.374619 10590865
139.1093 -62.739952 -10.833581 9143675
139.42818 -62.837257 -10.002032 8617331
124.16434 -62.791538 83.782227 11248795
123.56967 -62.653179 84.554626 10985111
139.09389 -61.633186 -11.886945 8551281
139.31847 -61.948563 -11.074414 8353646
139.60696 -62.049496 -10.310184 7761509
124.35275 -62.034752 83.983147 11512223
123.88692 -61.751293 84.685585 10853267
123.35249 -61.644562 85.369942 9274229
139.28549 -60.564587 -12.813695 7564642
139.461 -60.812641 -11.985576 7367007
139.64229 -61.065979 -11.156808 7761509
124.15261 -60.909203 84.868515 9997955
123.65031 -60.656811 85.695168 9340022
123.27936 -60.34156 86.468086 9603195
139.71193 -59.412392 -15.053233 8288112
139.679 -59.642696 -13.985126 6643028
139.70753 -59.939083 -13.105319 6380369
139.87492 -60.179226 -12.189696 7103835
124.00008 -59.949203 86.087608 9208435
123.64243 -59.762848 86.72493 8945520
