# .PCD v0.7 - Point Cloud Data file format
VERSION 0.7
FIELDS x y z rgb
SIZE 4 4 4 4
TYPE F F F U
COUNT 1 1 1 1
WIDTH 1212
HEIGHT 1
VIEWPOINT 0 0 0 1 0 0 0
POINTS 1212
DATA ascii
-104.27608 2.0869541 147.36003 8025456
-99.643517 3.7233951 150.06396 10064262
-100.28353 3.5752726 149.72162 8682611
-101.13766 3.5470905 149.33255 8748404
-102.08828 3.4592774 148.87692 8024681
-102.98074 3.2812777 148.4109 6840663
-99.023727 4.6201038 150.69695 9932419
-99.581581 4.3968983 150.36093 9406076
-100.38805 4.3990898 150.00508 8551025
-101.39816 4.4020429 149.55948 7827558
-102.15987 4.1789632 149.13319 7038298
-98.000137 5.5175695 151.50894 9932419
-98.759644 5.2948608 151.08383 9669247
-99.767822 5.2983766 150.6393 8485229
-100.57594 5.3013649 150.28308 9537664
-101.13551 5.0775313 149.94597 7038298
-96.663528 6.8681984 152.64067 7563619
-97.222 6.6443152 152.30399 9866116
-97.982155 6.4214058 151.87857 10721422
-98.990967 6.4258809 151.43413 10721677
-99.871735 6.127573 150.92517 7169627
-100.51479 5.9794445 150.58142 8485229
-95.636375 7.7706723 153.45618 9932166
-96.48616 7.5932727 153.00923 9142394
-97.40435 7.552453 152.58678 11050132
-98.211983 7.5566936 152.23123 11445144
-98.974411 7.3333054 151.80463 10787470
-94.80899 8.6766224 154.1846 8682871
-95.569633 8.4529133 153.75867 9208956
-96.577705 8.458497 153.315 8945271
-97.587471 8.4643927 152.87073 11116180
-98.148056 8.2394552 152.53271 11182228
-94.218925 9.4341402 154.74883 9406591
-94.942719 9.3621674 154.39984 9011576
-95.951378 9.3682899 153.95616 9603457
-96.879051 9.297842 153.51762 9932166
-92.632713 10.952535 156.05807 9011320
-93.336136 10.421294 155.53432 9077113
-94.314438 10.274324 155.04276 8682611
-95.121651 10.279541 154.68782 9143162
-95.847504 10.207896 154.33809 9932166
-91.837799 11.714919 156.71477 8420207
-92.562271 11.642786 156.36545 10459278
-93.588715 11.476975 155.84528 9932934
-94.478989 11.333329 155.39412 9011832
-95.256271 10.970031 154.90457 9538176
-90.561745 12.784724 157.70789 11379607
-91.204926 12.63473 157.36336 6512978
-91.930283 12.562454 157.01395 7959912
-92.940216 12.569709 156.57054 10459278
-93.907021 12.345244 156.05322 9538176
-89.523636 13.705828 158.53674 11380380
-90.376785 13.525641 158.08736 11379607
-91.296875 13.485549 157.66478 8090986
-92.10537 13.491515 157.30995 6841943
-92.832565 13.419559 156.95972 10985623
-88.736717 14.640326 159.37222 9537664
-89.476601 14.408125 158.89743 9406334
-90.487923 14.415295 158.45563 9406589
-91.408539 14.342959 158.00105 8617074
-92.034622 14.189221 157.6216 6512978
-86.465324 15.5945 161.17142 9735555
-87.331932 15.478386 160.69225 10591121
-88.198769 15.36262 160.21329 10985622
-89.009827 15.368181 159.86031 9077114
-89.932648 15.132205 159.25612 9143161
-77.968658 16.772093 168.47192 7630435
-78.906441 16.79784 168.36711 10261644
-84.196907 16.143192 163.49413 10459278
-85.314926 16.167124 163.24492 10459278
-77.420845 17.711933 168.88174 6511954
-78.319763 17.498535 168.69447 7235677
-77.302498 18.427319 169.15742 7038298
-78.149475 18.37253 169.0343 10393485
-76.610245 19.448015 169.61436 7565675
-77.590126 19.35001 169.45932 9801605
-76.007904 20.555149 170.09198 7565675
-76.672699 20.334982 169.93065 10788759
-77.376999 20.357893 169.85329 9933708
-75.261307 21.742788 170.61649 9144190
-75.887993 21.278193 170.37061 8749691
-76.73539 21.225716 170.24826 9144449
-75.045319 22.758213 171.01334 10459276
-76.016533 22.402153 170.7653 9143933
-76.707169 22.035885 170.54758 7565675
-73.44902 23.929771 172.07774 12433069
-74.400841 23.753853 171.78355 10985365
-75.366707 23.475052 171.40657 13221810
-71.300735 24.994995 173.95706 8090474
-71.746155 25.003649 173.85019 7563874
-73.612122 24.453638 172.4574 11709089
-74.539925 24.484543 172.32944 10261641
-71.641212 25.58931 174.78542 7563874
-72.192123 25.012403 173.7435 7564651
-72.861801 25.026031 173.58405 9143681
-146.31076 -13.172695 112.3978 10261900
-146.89328 -13.41892 112.00462 9670019
-147.77014 -13.45112 111.55242 9143675
-148.62386 -13.481362 111.07784 11183258
-149.42952 -13.507374 110.56282 7827815
-150.14606 -13.606484 110.0713 7959657
-150.97563 -13.785611 109.47384 8353903
-154.86763 -13.887146 106.15633 8090221
-155.50333 -13.888919 105.22236 8090736
-156.13374 -13.890738 104.2848 8090736
-156.50932 -13.891829 103.72038 9406590
-170.9267 -13.923479 92.535805 9011065
-171.48059 -13.925278 91.505623 8617330
-171.80992 -13.926354 90.885918 7039331
-179.52631 -13.597835 85.405975 8551025
-179.99849 -13.524208 84.658485 8682867
-180.485 -13.531692 83.828651 11116437
-180.93048 -13.296528 83.242409 10655886
-145.32367 -12.41869 113.20321 11774108
-146.22395 -12.62891 112.66593 9340284
-147.18677 -12.526724 112.2265 7499106
-148.0663 -12.556956 111.77412 8287597
-148.84079 -12.809119 111.23855 10064777
-149.44589 -12.827716 110.85223 7170141
-180.33284 -12.640656 84.725883 8682867
-180.80646 -12.566608 83.976349 10129799
-181.2943 -12.573997 83.144279 9669248
-143.63185 -11.287273 114.5172 11512481
-144.42537 -11.535752 114.01756 11116694
-145.29375 -11.562662 113.57207 10326921
-146.28259 -11.638844 113.04598 7826791
-147.26163 -11.624705 112.56223 7695716
-180.92609 -11.839396 84.295563 8682867
-142.40747 -10.355637 115.51489 9341313
-143.07765 -10.523497 115.11019 9538950
-143.84569 -10.619839 114.68628 9538179
-144.71268 -10.644445 114.24244 13550517
-145.5835 -10.66946 113.79663 9537406
-146.38493 -10.91893 113.29261 8353134
-141.54543 -9.6612453 116.23318 7565675
-142.28914 -9.6351967 115.87199 8946812
-143.26604 -9.7050047 115.35456 7565163
-144.1317 -9.7274313 114.91236 8025201
-144.90433 -9.8229008 114.48643 9537923
-145.58276 -9.9917097 114.07735 9142649
-140.63539 -8.6694412 117.09853 9274237
-141.39665 -8.7613697 116.67984 8881019
-142.37068 -8.8288698 116.16474 9341313
-143.43512 -8.7636738 115.65936 9275008
-144.1295 -9.05093 115.19328 7564651
-139.29897 -7.4478731 118.27222 9208443
-140.03374 -7.6113887 117.83714 9471359
-140.88847 -7.6283765 117.40263 9010808
-141.7467 -7.645637 116.96623 9077627
-142.53777 -7.8872681 116.47068 15787998
-143.11479 -8.1251001 116.08375 14077637
-137.47238 -6.2234087 119.69222 9275004
-138.4173 -6.6116524 119.0591 9209211
-139.36067 -6.5529304 118.61154 9208956
-140.37962 -6.4955716 118.1257 10129289
-141.14221 -6.5838442 117.70776 9931910
-136.26566 -5.3120656 120.67276 8484976
-136.923 -5.4700956 120.27865 10854036
-137.67506 -5.5553298 119.8672 10261899
-138.52298 -5.5676689 119.43806 9538177
-139.48849 -5.6268649 118.93069 9011577
-140.37352 -5.8203878 118.408 9931910
-135.50728 -4.5577998 121.36404 7234910
-136.25575 -4.6411757 120.95521 8090218
-137.09933 -4.6515059 120.52903 8682611
-137.94615 -4.6619415 120.10123 7367264
-138.70242 -4.746367 119.68804 9011577
-139.36711 -4.9050794 119.29005 9735812
-134.51453 -3.6534538 122.2346 9208956
-135.26082 -3.7352419 121.82751 5919050
-136.31268 -3.7457905 121.29713 7103324
-137.36919 -3.7565145 120.76431 9866630
-137.93756 -3.9874527 120.38451 5920074
-132.58585 -2.1484962 123.82174 10262412
-133.14548 -2.3755667 123.44791 8879475
-133.91493 -2.6045251 122.96838 7630435
-134.75232 -2.6106584 122.54697 8222061
-135.59285 -2.6168807 122.12407 8551283
-136.48279 -2.8938282 121.56442 7564391
-131.39053 -1.2483296 124.79188 9471359
-132.15616 -1.475297 124.31509 10918803
-133.19748 -1.4802727 123.79221 9734270
-134.24313 -1.4853735 123.26714 9273976
-134.99091 -1.5640632 122.86057 10326408
-130.0997 -0.35002473 125.96819 8814715
-130.91689 -0.5011124 125.44382 8353135
-131.6377 -0.57768345 125.02501 8682100
-132.46964 -0.58006305 124.60785 10260873
-133.34882 -0.69514257 124.08088 8090216
-134.23073 -0.81062734 123.55246 9734270
-127.73778 0.5487259 127.91832 7564643
-128.54175 0.39893526 127.38839 7169893
-129.25362 0.32359257 126.96837 8354165
-130.17752 0.27766922 126.46767 7696236
-131.07175 0.24656713 125.99451 10721939
-132.02316 0.095141061 125.38961 8617334
-105.43069 1.4903945 146.61066 9012603
-106.24381 1.4904729 146.25099 9012091
-107.26275 1.4906663 145.80037 9735812
-108.07957 1.4908377 145.43909 8287598
-123.8285 1.0010685 131.06453 13551549
-124.67603 1.0014215 130.69519 12630959
-125.73203 1.0018585 130.22456 9275004
-126.55415 1.00203 129.81958 12433069
-127.17168 1.0021434 129.51439 10064262
-103.89738 2.8337877 147.82646 5919050
-104.77965 2.5359542 147.31697 7630441
-105.62798 2.3874586 146.88234 9210238
-106.44281 2.3884506 146.52228 8485237
-107.32164 2.1194615 146.02594 8682612
-103.07703 3.7311232 148.54843 7169373
-104.04337 3.5085115 148.03186 6313808
-105.06017 3.5109763 147.5831 7104098
-105.87553 3.5130265 147.22325 10524816
-106.43814 3.288811 146.88464 8287859
-102.49387 4.4805231 149.10622 7366239
-103.22188 4.4077158 148.75505 7498338
-104.23852 4.4110975 148.30676 6971738
-105.17291 4.338954 147.86458 6643290
-101.67867 5.350822 149.81512 9603457
-102.60245 5.3093514 149.38988 8089962
-103.41564 5.3128061 149.03157 6379600
-104.14608 5.2403946 148.67953 7169373
-100.13172 6.7334886 151.05269 7827300
-100.87138 6.5254903 150.6423 8024679
-101.82674 6.4396243 150.1853 8813685
-102.78358 6.3536849 149.72771 9734531
-103.56145 5.9938993 149.23964 7300446
-99.347923 7.6767902 151.77687 10129797
-100.23676 7.5681353 151.34023 8485229
-101.18066 7.6194782 150.94328 9800577
-102.01839 7.3508668 150.46523 8813428
-98.689552 8.5168505 152.40422 9669504
-99.613091 8.4771328 151.97989 9143160
-100.42568 8.4825897 151.6226 9340283
-101.15582 8.4113283 151.27115 11313045
-97.209747 9.6053448 153.4944 10985620
-97.771347 9.3801298 153.15585 9340539
-98.785309 9.3872442 152.71021 9603711
-99.801117 9.3946877 152.26385 8682866
-100.36423 9.1692705 151.92467 8617334
-96.417191 10.364989 154.14899 10195338
-97.144753 10.293711 153.79868 9340540
-97.956161 10.299819 153.44235 8814453
-98.881523 10.260993 153.01776 11182228
-99.739204 10.083698 152.56754 11182228
-94.829498 11.88969 155.46252 9538176
-95.522766 11.710343 155.0842 10459278
-96.399612 11.382566 154.56509 12761517
-97.375488 11.448304 154.16032 10196105
-98.058983 11.145791 153.73677 8682867
-98.706085 10.997289 153.39116 13023917
-93.99649 12.809409 156.20024 9011576
-94.762177 12.583815 155.77129 9275004
-95.776848 12.592327 155.32643 9735299
-96.709938 12.523154 154.8864 16381158
-97.357414 12.374251 154.54048 10985620
-93.402275 13.579224 156.7722 10130058
-94.131004 13.507756 156.42148 10261644
-94.9431 13.51484 156.06561 10130057
-95.869186 13.476668 155.64108 9669250
-91.776871 14.663109 158.05089 8090987
-92.552498 14.550711 157.63458 8155756
-93.393661 14.391289 157.15578 9537921
-94.344757 14.447668 156.77365 9603714
-95.079247 14.215735 156.28708 9274236
-90.117508 15.619224 159.58183 9077369
-91.041626 15.383746 158.97746 10524556
-91.856079 15.390678 158.62419 8945528
-92.725838 15.276935 158.14561 9340030
-93.596107 15.163514 157.66711 9340286
-79.61174 16.817497 168.28845 11708316
-80.555374 16.844069 168.18332 9340027
-86.345161 16.174509 162.82149 9538176
-87.377304 16.182629 162.39984 9998727
-88.205109 16.18976 162.0638 9735555
-79.495285 17.532459 168.56375 9866628
-80.439392 17.560143 168.45894 7037274
-78.802765 18.55254 169.02051 12432295
-79.654282 18.498426 168.89706 8617073
-80.323318 18.278009 168.73515 7037274
-78.201004 19.658806 169.49774 8814709
-78.868881 19.43874 169.33606 11181970
-79.721771 19.385538 169.21281 9011574
-78.08316 20.381176 169.77585 8157038
-78.935257 20.328667 169.65295 9471868
-77.335922 21.570438 170.30104 9933708
-78.090935 21.304667 170.11212 8222316
-78.909866 21.138029 169.95157 7038298
-77.319168 22.350639 170.58798 9932934
-78.161469 22.33217 170.47868 10261383
-75.302704 23.99065 171.81993 14076861
-76.494354 23.385822 171.1687 10853777
-77.365883 23.163784 170.90646 10590348
-75.004868 24.500311 172.26561 10788241
-75.89505 24.400862 172.04228 9998726
-76.466782 24.030115 171.65901 10393226
-72.098083 25.601467 174.7001 7563874
-72.784149 25.619953 174.57265 7563874
-73.501961 25.339504 173.93518 9735557
-74.204544 25.05459 173.26651 11905951
-75.102203 25.074591 173.05594 9472126
-150.51392 -13.315713 109.96947 8420208
-151.12325 -13.335521 109.57995 7629924
-151.86389 -13.58777 109.00588 8287342
-152.78931 -13.664825 108.39355 8287853
-153.78992 -13.606751 107.77326 8748149
-154.5849 -13.672485 107.05946 8616307
-155.64395 -13.487898 106.68742 9406337
-156.47632 -13.516914 106.1544 7367013
-169.45857 -13.918826 95.198784 8616048
-169.91476 -13.920226 94.381905 8616048
-170.3671 -13.921674 93.562798 8879479
-177.85541 -13.736239 88.138496 10261903
-178.35521 -13.549512 87.425377 9603714
-178.96954 -13.461067 86.44767 7761509
-179.47058 -13.274604 85.732338 9011320
-148.98572 -12.360022 111.34591 7037274
-149.81271 -12.536042 110.75141 8880503
-150.53163 -12.633757 110.25906 9077882
-151.34523 -12.658911 109.73945 8617075
-152.16176 -12.684469 109.21786 8353646
-152.98141 -12.71036 108.69417 6511954
-153.80417 -12.736682 108.16835 9800581
-154.63007 -12.76336 107.64041 9142651
-155.59015 -13.025323 106.92487 9340544
-178.65746 -12.779847 87.465569 9143161
-179.1017 -12.54318 86.882378 6511954
-179.64542 -12.598791 85.92099 8222060
-180.15549 -12.314699 85.260406 7761509
-147.77551 -11.41431 112.39219 7037274
-148.36353 -11.659817 111.99661 7037274
-149.2036 -11.68483 111.50726 7497825
-150.01341 -11.707699 110.99108 7762278
-150.82619 -11.730821 110.4729 8222573
-151.64188 -11.75433 109.95274 9142651
-152.46063 -11.778191 109.43047 8682355
-153.20709 -12.029779 108.85313 7103835
-153.825 -12.048453 108.45873 10261132
-179.46254 -11.820164 86.789574 6511954
-179.90825 -11.582648 86.204659 9603458
-180.41708 -11.71081 85.250389 9537664
-146.53125 -10.470581 113.4049 8353134
-147.33655 -10.720409 112.89874 8813942
-148.21902 -10.746421 112.44663 7497825
-149.29102 -10.77687 111.85079 8682099
-150.30682 -10.803411 111.20629 7563873
-151.02898 -10.898765 110.71294 8024170
-151.66034 -11.068398 110.24359 9734788
-145.2912 -9.5317631 114.41331 9537923
-145.97134 -9.7003078 114.00346 9274236
-146.75121 -9.796484 113.57363 9471871
-147.63211 -9.8201666 113.12331 10721677
-148.51704 -9.844182 112.67079 9537663
-149.30826 -10.09346 112.14333 9011320
-149.91698 -10.108312 111.75632 9208182
-144.59946 -8.6099577 115.14063 7564651
-145.36298 -8.6276693 114.75146 11314073
-146.23912 -8.6482515 114.30472 9406847
-147.04547 -8.7585306 113.85586 8551285
-147.83012 -8.9904051 113.3675 8353907
-142.75006 -7.21488 116.64263 11380124
-143.61839 -7.68401 116.01426 12235433
-144.51221 -7.6269598 115.59087 8814459
-145.60944 -7.4527974 115.11411 9472896
-146.53201 -7.7451835 114.53178 9801605
-141.52209 -6.2897902 117.63944 11380639
-142.09828 -6.5252957 117.25385 8486520
-142.96292 -6.5404429 116.81516 9998727
-143.83121 -6.5557985 116.37453 15393498
-144.70322 -6.5714102 115.93194 9932938
-145.28688 -6.8096571 115.54146 8420720
-140.58505 -5.4854608 118.44076 9603715
-141.51727 -5.612133 117.92215 10130830
-142.38066 -5.6252027 117.48489 11380639
-143.24765 -5.6384783 117.0458 8946040
-144.04636 -5.8783398 116.54715 12169385
-139.07774 -4.4508381 119.62258 7563619
-139.74394 -4.6092191 119.22388 9472384
-140.62155 -4.7407699 118.73058 8880503
-141.68304 -4.6638856 118.2315 10065037
-142.56813 -4.7963705 117.734 13024949
-143.24416 -4.9569721 117.32944 8092019
-138.31175 -3.6910877 120.31992 5920074
-139.07054 -3.7739756 119.90612 7103580
-139.92624 -3.7829285 119.47452 8025194
-140.78539 -3.7919881 119.04106 8354158
-141.72092 -3.9156411 118.52205 9472641
-136.57072 -2.1739371 121.81824 7564649
-137.56572 -2.5754042 121.15453 9998217
-138.55981 -2.6393754 120.63094 8879991
-139.41489 -2.6459429 120.20054 6971993
-140.20375 -2.8792744 119.70949 8683123
-140.77945 -3.1113775 119.32548 7762021
-135.36008 -1.2655877 122.79939 9143678
-135.92644 -1.4936212 122.42188 9933192
-136.77274 -1.4978292 121.99688 7038307
-137.7365 -1.5479817 121.49411 8353905
-138.68887 -1.5075513 121.03449 8616562
-133.63434 -0.35844177 124.19601 8090216
-134.51825 -0.47335538 123.66668 10457736
-135.40498 -0.58862454 123.13589 9076857
-136.2506 -0.59110546 122.71183 9670021
-136.98711 -0.66886538 122.285 7696235
-137.82652 -0.82291293 121.74902 9143678
-131.45668 0.54660928 126.05965 8617334
-132.29088 0.54610169 125.64277 8617334
-132.99303 0.31981003 125.09807 8222833
-133.83197 0.318993 124.67847 7959144
-134.71078 0.20467946 124.14159 9537150
-135.804 0.089752309 123.49718 10984593
-108.48879 1.490872 145.25813 8287598
-109.10349 1.4910719 144.98634 9603457
-110.13028 1.4914006 144.53226 8420470
-111.15984 1.4917243 144.07703 9340801
-127.58427 1.0022504 129.31053 12629674
-128.41162 1.0024606 128.90173 8617079
-129.44925 1.002767 128.38913 7301479
-130.28268 1.0030658 127.97759 7038307
-130.90955 1.0032613 127.66809 7038307
-107.64175 2.7276649 146.12775 8418928
-108.48755 2.3912094 145.61896 8090219
-109.3086 2.3923898 145.2563 9668993
-110.24899 2.2646801 144.78925 8945786
-111.058 1.9429408 144.30263 9340801
-106.98897 3.5611465 146.75002 8485238
-107.92136 3.518625 146.32063 8221807
-108.74275 3.5209892 145.95819 9142650
-109.48007 3.4475808 145.60275 8089963
-105.51104 4.6418738 147.83624 7038307
-106.07453 4.4176321 147.4973 7959151
-107.09837 4.4215512 147.04599 8682616
-108.12468 4.4255733 146.59363 10327177
-108.69053 4.2007523 146.25337 10260873
-104.72276 5.394176 148.48596 6248274
-105.45549 5.3219686 148.13298 7433064
-106.27429 5.3258624 147.77235 7433064
-107.20794 5.2849293 147.34303 8222321
-103.14424 6.9016838 149.78748 9734531
-103.70775 6.6773167 149.44841 8089962
-104.68045 6.4553576 148.92938 9077629
-105.70422 6.4614396 148.479 7827822
-106.38962 6.1611881 148.05563 7038307
-107.04076 6.0128455 147.70825 7038307
-102.31834 7.8093338 150.51602 8353648
-103.08609 7.5861101 150.08707 10129289
-104.03622 7.6383424 149.68774 10590606
-104.90282 7.4841962 149.24272 9472384
-105.69858 7.3752894 148.84715 10261903
-101.73107 8.5681448 151.07945 10786959
-102.46327 8.4972067 150.72719 8879991
-103.28094 8.5033779 150.36803 11445660
-104.21336 8.4647751 149.94035 10459276
-100.69923 9.4781313 151.90024 9077626
-101.6355 9.4090519 151.45868 9143164
-102.65773 9.417552 151.01044 8617075
-103.39252 9.3470755 150.65747 9801346
-99.426529 10.541862 152.88986 13023917
-100.07433 10.393727 152.54416 9143930
-100.80673 10.323244 152.1922 12433069
-101.82903 10.332419 151.74423 8091247
-102.5994 10.108458 151.31386 7038298
-98.530464 11.735907 153.76564 8748404
-99.41198 11.466319 153.26782 9932933
-100.22892 11.474028 152.91002 9143930
-100.99899 11.249598 152.47958 11906725
-101.76967 11.025369 152.04895 9538434
-97.042923 12.83582 154.86499 11709089
-97.691093 12.68715 154.5188 11774879
-98.627625 12.618822 154.07756 10064007
-99.649437 12.629163 153.63029 8879478
-100.42044 12.404384 153.19934 9472895
-100.93875 11.944783 152.78558 10459534
-96.412918 13.761562 155.51527 11709089
-96.978241 13.533965 155.1741 12301483
-97.794426 13.542192 154.81685 8616819
-98.816452 13.553034 154.36963 9274237
-99.587646 13.327753 153.93839 10853012
-95.444901 14.697412 156.46217 9340541
-96.245743 14.418711 155.91273 9208443
-97.20282 14.476713 155.53043 9208443
-97.924591 14.404702 155.15822 8089963
-98.548782 14.251658 154.76866 8089963
-93.175499 15.645795 158.25577 9340030
-93.997253 15.491697 157.76463 8484721
-94.857849 15.468143 157.36543 10590865
-95.690666 15.306615 156.86316 10130057
-96.66684 15.195599 156.33998 9208443
-81.738922 16.878 168.05168 9340027
-82.68959 16.905727 167.94603 9736836
-89.242416 16.199425 161.64528 10459791
-90.28228 16.209904 161.22833 8089963
-91.116287 16.21883 160.89603 8090991
-81.149475 17.58127 168.38022 8155754
-81.861687 17.60269 168.30135 10130825
-82.534058 17.382135 168.13892 9736836
-80.940689 18.586733 168.77275 7630180
-81.932892 18.489302 168.61642 11052440
-80.38031 19.568407 169.19942 8024937
-81.237923 19.516047 169.07593 7565417
-79.303604 20.664948 169.73087 7564643
-80.212189 20.453054 169.54294 7893608
-81.122368 20.24086 169.35463 7565675
-79.526665 21.452559 169.99133 7301471
-80.519058 21.357761 169.83598 8223089
-78.634918 22.34944 170.42738 9208952
-79.481247 22.331587 170.31789 9274746
-77.928802 23.561613 171.05206 9208952
-78.810341 23.342117 170.80318 10655884
-79.705132 23.125996 170.58063 9734788
-77.126694 24.400368 171.8396 10064003
-77.957001 24.342964 171.65799 10064003
-78.573074 24.103895 171.36969 11379606
-74.160141 25.658325 174.31859 9472126
-75.080673 25.684935 174.14996 8682867
-75.776947 25.090117 172.89864 8682867
-76.453018 25.106186 172.7419 10064003
-77.129982 25.122559 172.5856 11906725
-157.31197 -13.546341 105.61916 7761512
-158.15103 -13.576273 105.08154 8945011
-158.99355 -13.60661 104.54158 9997187
-159.83961 -13.637359 103.99923 9537659
-160.7697 -13.437878 103.50585 9669249
-161.6236 -13.469016 102.95847 9077370
-162.38229 -13.575173 102.43751 8682868
-163.26022 -13.764671 101.80524 8222061
-167.94888 -13.914134 97.838432 8815481
-168.30087 -13.915181 97.231331 8815481
-168.76686 -13.916642 96.420013 7432804
-169.11392 -13.917685 95.810081 7037274
-176.3732 -13.558338 90.778175 9208180
-176.8434 -13.483037 90.035316 8681835
-177.32814 -13.488538 89.209785 8222060
-177.79904 -13.413672 88.465538 9143680
-155.53593 -12.562479 107.16274 9143422
-156.50012 -12.824967 106.44453 7827562
-157.33669 -12.85292 105.90932 7893097
-158.22388 -12.743505 105.40302 8287852
-159.09941 -12.680016 104.88383 8945267
-160.01765 -12.711108 104.29621 8814195
-160.79793 -12.737935 103.79674 8814195
-161.22481 -12.752616 103.52345 8814195
-177.07889 -12.761559 90.153954 10261382
-177.58609 -12.476828 89.498566 8287598
-178.12914 -12.531318 88.539177 8879990
-178.60121 -12.456214 87.792946 7367270
-153.35783 -11.575043 108.95932 7103835
-154.2016 -11.753131 108.35351 9406079
-154.93555 -11.851892 107.85128 9274494
-155.84402 -11.648234 107.37316 9143422
-156.67929 -11.67344 106.84003 9866631
-157.51788 -11.699019 106.30468 8879471
-158.25439 -11.721764 105.83431 8550508
-159.20526 -11.751549 105.22691 8681835
-177.75845 -11.800787 89.691536 8089963
-178.32434 -11.564186 88.902245 8945783
-178.93317 -11.57093 87.865555 7827563
-179.40657 -11.495532 87.117378 7695978
-151.39993 -10.603364 110.61125 9011065
-152.03267 -10.772866 110.14109 9208444
-152.83568 -10.640988 109.69736 8090218
-153.66025 -10.663021 109.17229 8617331
-154.48795 -10.68541 108.6451 8617848
-155.31889 -10.708138 108.11578 8223091
-156.13489 -10.57632 107.66385 8420213
-156.99048 -10.754833 107.05047 10261132
-178.56245 -10.838098 89.019844 7038307
-179.05023 -10.843241 88.189339 9143161
-179.53825 -10.848619 87.358444 8090734
-148.96332 -9.171195 112.72592 9011320
-149.52715 -9.4133415 112.30631 9273977
-150.40302 -9.6624336 111.64906 8879217
-151.21964 -9.6817818 111.13018 8813684
-152.10768 -9.7030697 110.56577 9208444
-153.1035 -9.4506388 110.05461 8748405
-154.03947 -9.5191803 109.43942 9209984
-154.79343 -9.7691078 108.85807 9472899
-155.41786 -9.7847443 108.46087 8092019
-147.48741 -8.2220678 113.85668 7564651
-148.17603 -8.3901625 113.44282 8353908
-148.87659 -8.6198463 112.99741 7565158
-149.81984 -8.5039244 112.52418 10129289
-150.63562 -8.520854 112.00686 9602942
-151.45439 -8.5381126 111.48753 9208182
-152.18257 -8.6304865 110.99171 8682100
-153.02559 -8.8027706 110.38889 9736836
-146.67892 -7.2922344 114.64561 9341310
-147.48856 -7.5370932 114.13949 7564905
-148.37555 -7.5557113 113.68816 11512735
-149.26663 -7.5745606 113.23469 8881527
-150.11349 -7.5912848 112.74289 9735041
-150.85736 -7.8356128 112.17033 9471355
-145.67635 -6.5130548 115.46941 9012601
-146.57626 -6.6511173 114.96224 9341310
-147.66719 -6.5797319 114.44615 7828840
-148.6748 -6.6442199 113.91553 13618367
-149.26901 -6.8854623 113.51854 10262924
-144.19012 -5.4255843 116.66252 11379356
-144.99265 -5.665628 116.16189 9143424
-145.87079 -5.6794515 115.71693 8091246
-146.75278 -5.6934571 115.27006 9209725
-147.53992 -5.7826519 114.83949 10262416
-148.23096 -5.9471831 114.42582 9736329
-142.95209 -4.4983244 117.6653 9736329
-143.62979 -4.6586618 117.25998 8879737
-144.40639 -4.7447772 116.83597 10524305
-145.28313 -4.7564969 116.39262 10524305
-146.16371 -4.7683482 115.94735 8946300
-146.97414 -5.0090828 115.44241 9736329
-141.93463 -3.5768914 118.55529 9736329
-142.8325 -3.7683794 118.02702 9670279
-143.82025 -3.8246005 117.5097 8945272
-144.69557 -3.8341916 117.06799 10524305
-145.47693 -3.9193568 116.64201 9866889
-140.4126 -2.1993523 119.88627 7104091
-141.20651 -2.5690017 119.3363 7235677
-142.00085 -2.6662683 118.89882 8090987
-142.9429 -2.7391541 118.39753 9735045
-143.93735 -2.7584376 117.89219 8879479
-144.69339 -3.1470354 117.35328 10261132
-139.18588 -1.2827686 120.8789 9735040
-139.76074 -1.5129193 120.49622 7695203
-140.6221 -1.5173312 120.06364 8222316
-141.48689 -1.5217749 119.62926 8748916
-142.35527 -1.5263003 119.19311 9011832
-142.93736 -1.7586911 118.80585 9406590
-137.43642 -0.36767465 122.2897 9143678
-138.07643 -0.36925909 121.96874 8617332
-138.91022 -0.64453882 121.34352 8616561
-139.99225 -0.55657858 120.86995 10787727
-140.84517 -0.68104005 120.3501 13551288
-141.69864 -0.83658165 119.8068 10130313
-135.02225 0.54483831 124.27785 9537150
-135.86946 0.54443896 123.85448 9997700
-136.79259 0.31626174 123.19788 8090992
-137.64558 0.31546766 122.77125 9077882
-138.38287 0.23854131 122.33713 9406847
-139.21817 0.084870361 121.78825 7564130
-139.8642 0.084025003 121.46498 9735040
-111.98574 1.4920788 143.71181 9340801
-113.02116 1.4925581 143.25407 9931910
-114.05949 1.4930487 142.795 8089963
-114.68409 1.4933801 142.51883 8089963
-131.32841 1.0034567 127.46131 8618104
-131.95816 1.0036968 127.15043 9736070
-133.01144 1.0041234 126.63067 9143164
-134.06926 1.0046415 126.10886 8945526
-134.7063 1.0049682 125.79461 9339254
-110.64779 2.8466113 144.84575 7827819
-111.43169 2.4862342 144.35477 7959918
-112.19714 2.3971033 143.98051 9603458
-113.16936 2.3420708 143.5285 9471615
-114.13379 2.0976458 143.00406 8089963
-109.82374 3.7509563 145.57208 8089963
-110.59776 3.5266871 145.13998 7958891
-111.63239 3.5300355 144.68369 8814197
-112.37534 3.4566 144.32568 9735043
-113.03264 3.306978 143.97511 9208955
-109.03358 4.5050626 146.22337 11379608
-109.97952 4.4333472 145.77631 10260873
-111.01391 4.4378719 145.32057 8945272
-111.7568 4.3652115 144.96292 9142906
-107.76201 5.5609198 147.20837 8090987
-108.3288 5.3361964 146.86775 8354159
-109.15379 5.3406048 146.50461 11248277
-110.18763 5.346231 146.04958 11182230
-110.96403 5.1219568 145.61642 10261132
-106.66079 6.7718205 148.18008 8090993
-107.59552 6.2902565 147.57391 8683124
-108.5338 6.2505198 147.14299 9340539
-109.36047 6.2558999 146.77945 8354159
-110.13686 6.0319099 146.34641 8090475
-105.3876 7.8312492 149.16716 10261903
-106.03934 7.6834044 148.81978 8617337
-106.77737 7.612638 148.46513 7828334
-107.7579 7.3908534 147.94284 9078141
-108.73973 7.1685929 147.41956 9011575
-109.30891 6.9431643 147.07735 8090987
-104.7655 8.7449694 149.80887 9209467
-105.33224 8.5198736 149.46799 9209467
-106.15569 8.526885 149.10699 8946300
-107.09454 8.4889536 148.67694 8289140
-107.9631 8.3122196 148.22217 10262415
-103.73179 9.6572618 150.63223 10788241
-104.50405 9.4338121 150.2012 11577500
-105.53316 9.4433584 149.75035 9932677
-106.35839 9.4512424 149.38896 10392717
-106.92727 9.2255135 149.04691 11906725
-102.9381 10.419744 151.28929 7762021
-103.67473 10.34989 150.93581 9340795
-104.70367 10.360135 150.48531 11445658
-105.64925 10.292624 150.04042 9010808
-101.66176 11.487851 152.28253 10459534
-102.31313 11.339942 151.93532 9801347
-103.05 11.270346 151.58177 7564642
-103.87302 11.279109 151.22166 7564642
-104.77576 11.172777 150.78009 10656142
-100.51654 12.871286 153.34451 7499617
-101.5092 12.474638 152.74652 9340797
-102.47325 12.427268 152.30157 11117208
-103.23584 12.342702 151.93062 10261640
-103.98673 12.133688 151.51488 11708828
-99.924675 13.643179 153.91623 9602945
-100.66116 13.573741 153.56293 8419183
-101.68917 13.586006 153.11366 9208443
-102.66997 13.36375 152.59105 9998215
-98.520645 14.731705 155.13463 8089963
-99.25383 14.500216 154.63992 8550257
-100.07664 14.510283 154.28304 10063495
-100.80042 14.438977 153.90749 10458507
-101.62971 14.28871 153.42238 10788244
-96.249565 15.678072 156.92731 10459278
-96.866455 15.685174 156.6613 9208443
-97.733276 15.500554 156.1248 9603714
-98.682137 15.414708 155.63463 8616563
-99.549408 15.230488 155.09824 8550257
-83.404655 16.926819 167.8667 10459537
-84.122009 16.948257 167.78723 9012606
-92.161621 16.230854 160.48206 8288113
-93.209885 16.243654 160.06952 8879479
-93.840393 16.251759 159.82272 9340030
-83.156525 17.690458 168.17575 11315612
-84.154785 17.592653 168.01854 11249565
-82.544373 18.831589 168.66696 10723475
-83.307266 18.565872 168.47708 14078918
-82.430313 19.556072 168.94542 9671044
-83.34549 19.343773 168.7565 11710370
-81.494919 20.578732 169.43268 8223348
-82.492668 20.48387 169.27658 8355189
-80.891113 21.697439 169.91461 11512481
-81.805748 21.486286 169.72624 10196623
-80.100578 22.64921 170.3584 9734788
-80.775391 22.42923 170.19597 10064780
-81.63826 22.380049 170.07297 10196879
-80.088371 23.47241 170.68475 11182232
-81.076897 23.377388 170.50957 9669252
-78.750061 24.632614 171.75362 10985364
-79.368034 24.39407 171.46545 11511451
-80.203323 24.337694 171.28378 14801098
-76.232742 25.718632 173.93571 9735297
-77.372406 25.748228 173.68649 10722193
-77.808563 25.139479 172.42979 11445916
-78.715141 25.162724 172.22284 9867396
-79.399338 25.181488 172.07329 10855060
-162.77791 -13.276824 102.32174 9340286
-163.42485 -13.300458 101.90696 8090477
-164.10777 -13.639871 101.33053 8089963
-164.85913 -13.589821 100.88297 9011320
-165.73123 -13.623073 100.32331 8156267
-166.48915 -13.573053 99.871666 7893351
-167.27609 -13.72558 99.179634 8288110
-168.06174 -13.625563 98.627563 8288624
-168.90182 -13.507468 98.392662 8815481
-174.70757 -13.703094 93.497246 11577503
-175.1481 -13.466189 92.920631 9406334
-175.63229 -13.470613 92.096771 8682867
-176.10229 -13.394885 91.354591 8682093
-160.74579 -12.268327 104.03635 8814195
-161.61812 -12.45366 103.40939 8616819
-162.37799 -12.557719 102.88862 9011834
-163.23988 -12.587499 102.33678 9406337
-164.10564 -12.617661 101.7824 8813942
-164.97531 -12.64823 101.22543 9932678
-165.84891 -12.679257 100.66573 10656144
-166.72656 -12.71072 100.10334 8090987
-167.52284 -12.977916 99.487923 8946296
-175.50235 -12.746381 92.8368 10130057
-175.94405 -12.508828 92.258598 9011832
-176.42934 -12.51333 91.432869 9472124
-176.9005 -12.437416 90.688919 10261382
-158.72888 -11.270565 105.73657 8681835
-159.36427 -11.289626 105.33111 8681835
-160.1344 -11.546764 104.73649 8419695
-160.98761 -11.573323 104.19149 8814195
-161.84454 -11.600266 103.64407 8682613
-162.70506 -11.62759 103.0941 9143422
-163.5695 -11.655274 102.54168 8617335
-164.43773 -11.683364 101.9866 8288112
-165.22617 -11.946418 101.378 10854036
-165.88223 -11.968421 100.95823 16247774
-176.29987 -11.786773 92.173561 10130057
-176.74292 -11.548475 91.593742 9537920
-177.22931 -11.552979 90.76622 9932679
-177.70166 -11.476818 90.020332 8484721
-156.51715 -10.277308 107.55677 8091248
-157.14655 -10.294205 107.15592 9668994
-157.91003 -10.547728 106.56702 8089959
-158.75494 -10.571294 106.02854 9076593
-159.60336 -10.595217 105.48774 11773594
-160.45535 -10.619449 104.94457 8222315
-161.31097 -10.644062 104.39894 9077370
-162.17029 -10.669007 103.85091 10393229
-162.93385 -10.770099 103.32911 8419956
-163.60033 -10.947608 102.83426 8091248
-177.10046 -10.824074 91.507591 11906725
-177.54477 -10.585004 90.926094 10919574
-178.03229 -10.589562 90.096611 8089963
-178.50587 -10.513064 89.348885 7695720
-154.94658 -9.3096256 108.96486 9472899
-155.79904 -9.4848633 108.35487 9275777
-156.54076 -9.5805569 107.84904 8353906
-157.38118 -9.6016121 107.31454 9142649
-158.22496 -9.6230259 106.77773 8616304
-159.07222 -9.6446943 106.23862 9997439
-159.92305 -9.6666737 105.69723 9997697
-160.67914 -9.7648163 105.1814 8747889
-161.5542 -9.9450855 104.55499 8813942
-152.55698 -8.3308582 110.88972 8617075
-153.17651 -8.3438835 110.49684 8353391
-153.92897 -8.5913067 109.91747 9473152
-154.86975 -8.6584988 109.29985 9933193
-155.80353 -8.6329155 108.72756 9078140
-156.74173 -8.6073494 108.1524 9274491
-157.6949 -8.6756086 107.52658 8747891
-158.44394 -8.7709427 107.0164 7563619
-159.3109 -8.94771 106.39666 10457990
-151.00552 -7.3776703 112.27949 9734529
-151.75237 -7.6221561 111.70498 9603199
-152.57632 -7.6380005 111.18306 8221549
-153.40335 -7.6540012 110.65907 8617075
-154.23355 -7.6702094 110.13308 9012345
-155.06693 -7.6866994 109.60494 8617847
-155.90355 -7.7034206 109.07466 9998469
-156.64732 -7.7963748 108.56892 10853520
-157.50824 -7.9700975 107.95425 8353134
-149.66814 -6.586144 113.44274 12039335
-150.40823 -6.6754956 112.96233 9472379
-151.22833 -6.6891565 112.44376 8616818
-152.05142 -6.703023 111.9232 8879991
-152.87755 -6.7170973 111.40066 9406847
-153.7068 -6.7314024 110.87607 9144187
-154.44409 -6.8218765 110.37539 9144187
-155.29768 -6.9924989 109.76664 8090987
-147.93515 -5.4827256 114.76588 9736329
-148.62788 -5.647028 114.35146 10065547
-149.54126 -5.7848043 113.83663 11841956
-150.59576 -5.7086535 113.27126 9998728
-151.52628 -5.7683969 112.66337 7827559
-152.35152 -5.7805915 112.14222 8353903
-153.10413 -6.0243888 111.56438 9735043
-153.7269 -6.0340686 111.17086 8617075
-147.12209 -4.5516329 115.5577 8881278
-147.93651 -4.7925253 115.0507 9276035
-148.82892 -4.8048754 114.59927 10657172
-149.72542 -4.817358 114.14577 9406335
-150.49661 -4.9050317 113.68745 9669251
-151.33806 -5.0703597 113.08863 7564131
-145.94148 -3.3885884 116.62919 9867145
-146.53142 -3.6244371 116.23661 9670021
-147.41888 -3.633935 115.78882 11840933
-148.31036 -3.6435237 115.33904 8881278
-149.13031 -3.8841596 114.82941 9275778
-149.72807 -4.1229329 114.43168 9142907
-144.10539 -2.2247303 118.02889 8089963
-145.0338 -2.5377293 117.43508 9735045
-145.92603 -2.605933 116.96069 9078142
-146.90077 -2.4754443 116.52714 9341313
-147.69194 -2.5587778 116.09693 9209984
-143.32384 -1.4549468 118.73817 9011320
-144.10291 -1.5354975 118.31526 9668995
-144.98228 -1.5401695 117.87351 10064264
-145.98366 -1.5917753 117.3513 9406849
-146.75241 -1.5498102 116.9842 8881019
-141.30444 -0.37723494 120.35013 10854036
-141.95605 -0.37879169 120.0234 10130313
-142.69827 -0.61031651 119.47826 7959144
-143.57281 -0.61295342 119.03963 8156267
-144.45111 -0.6156224 118.59916 10853780
-145.20107 -0.84913749 118.04991 11380380
-145.86438 -0.85156691 117.7172 10459278
-138.85886 0.54324526 122.36089 8090987
-139.50487 0.54300046 122.03813 7564130
-140.34473 0.38958758 121.48717 10129541
-141.19215 0.26625872 120.95824 10392457
-142.17897 0.31138015 120.50426 8353646
-143.12415 0.079440527 119.83337 8682867
-143.78209 0.078572147 119.50407 9406590
-115.10114 1.4936997 142.33444 9536894
-115.72797 1.4940269 142.05734 9537667
-116.7753 1.494734 141.59436 9537667
-117.82605 1.4954515 141.12993 9867400
-135.13196 1.0051504 125.58472 8089963
-135.7722 1.0055209 125.269 10984593
-136.6284 1.0060264 124.84688 9537150
-137.48801 1.0065759 124.42326 13550517
-138.35094 1.0071188 123.99801 9077882
-113.75799 2.8541441 143.47298 9010808
-114.41699 2.7041523 143.12148 8024428
-115.1104 2.402554 142.69409 8682100
-115.94759 2.4042542 142.32446 9076858
-116.81998 2.253897 141.87843 8682616
-117.72729 1.951264 141.35593 11381404
-112.72343 3.7613342 144.29364 8682867
-113.59686 3.5822697 143.83565 9143163
-114.54635 3.5401368 143.39888 7038307
-115.38367 3.5432456 143.02972 9208186
-116.16788 3.3174152 142.59244 8287600
-112.1045 4.6710463 144.9315 8682867
-112.67556 4.4455657 144.58867 8814197
-113.71829 4.4505577 144.12946 10261387
-114.76413 4.455761 143.6689 7827049
-115.33829 4.229423 143.32437 7038307
-111.31108 5.428793 145.58568 9274237
-112.05594 5.3569798 145.22749 9537409
-112.88956 5.3619733 144.86076 8485489
-113.84 5.3218532 144.42432 9142907
-110.52657 6.3783655 146.31274 8550514
-111.43563 6.2700725 145.86745 8945272
-112.26926 6.2760148 145.50134 8945272
-113.01716 6.204772 145.14223 8419186
-113.67864 6.0561423 144.7903 10261643
-108.89532 7.8595471 147.6284 9340539
-109.68311 7.4980621 147.13507 8682612
-110.66002 7.4142108 146.66974 9208699
-111.6389 7.3302174 146.20351 9537409
-112.43033 6.9677343 145.70818 9340289
-107.65219 8.7705803 148.54382 10262415
-108.30811 8.6229277 148.19464 11314845
-109.05146 8.5530024 147.8381 9932421
-109.88289 8.5609493 147.474 9998471
-110.79403 8.4541292 147.0285 8616563
-107.48544 9.5086622 148.91411 8946813
-108.42902 9.4721012 148.4825 9340543
-109.2604 9.4808493 148.11874 10984852
-110.00646 9.411459 147.7612 9735299
-105.9922 10.605404 150.01462 9931910
-106.56196 10.379649 149.67215 9931910
-107.59822 10.391133 149.21895 8222833
-108.6371 10.402952 148.76472 9208443
-109.20927 10.176818 148.42096 9208443
-105.1609 11.52602 150.75188 9471871
-105.93766 11.30233 150.31882 10129289
-106.76643 11.312133 149.9566 10589840
-107.71133 11.276953 149.52501 9143162
-103.60232 12.907376 151.99564 14076861
-104.49986 12.606997 151.47842 9471871
-105.30132 12.367707 151.02818 8090987
-106.14121 12.237966 150.60493 9931910
-106.88528 12.16958 150.24869 9602945
-107.54402 12.022156 149.89836 9209467
-102.76868 13.833851 152.73639 9998215
-103.54521 13.60941 152.30305 10129543
-104.57983 13.623197 151.85153 9471871
-105.56585 13.401922 151.32695 9932166
-106.25934 13.098348 150.89851 9274492
-101.4094 14.768584 153.89163 11905692
-102.2415 14.61888 153.40788 10261643
-102.96815 14.548375 153.03065 8879479
-103.79781 14.56008 152.67183 8616563
-104.73109 14.330791 152.06905 9603457
-99.755493 15.7214 155.41779 8156528
-100.48901 15.488432 154.91589 8617079
-101.43002 15.453713 154.48689 10458507
-102.45013 15.270246 153.85248 10788244
-103.07419 15.279386 153.58496 8813942
-84.841042 16.969894 167.70758 7564643
-84.531174 17.926918 168.09479 11183001
-85.478668 17.533674 167.83583 8880503
-86.431618 17.172869 167.50136 7564643
-84.41877 18.650852 168.3728 13419709
-85.28714 18.598679 168.24806 8880506
-83.721703 19.681337 168.83397 13222841
-84.725616 19.586266 168.67702 10459284
-83.118134 20.799547 169.31569 9538950
-83.796997 20.579561 169.1528 8090995
-84.519669 20.605892 169.07443 8090995
-83.004349 21.530836 169.59663 10327436
-83.872543 21.481647 169.47295 8813944
-82.305435 22.569944 170.06113 9472899
-83.173203 22.521774 169.93788 11905952
-83.853889 22.301634 169.77461 9208443
-81.699783 23.698391 170.54669 14077376
-82.379013 23.478554 170.38388 11972259
-83.101547 23.507984 170.30666 12432552
-80.876984 24.712172 171.46539 11905954
-81.57402 24.424376 171.1257 10787985
-82.355095 24.244347 170.85631 11183510
-78.282669 25.771368 173.47842 9603451
-79.424133 25.801605 173.2196 8618360
-80.109726 25.208576 171.97803 11380379
-81.059578 25.245386 171.85101 11905954
-169.34688 -13.52479 98.106834 8815481
-170.01666 -13.551071 97.676598 7038307
-170.91351 -13.586473 97.100502 10261899
-171.81474 -13.622335 96.521446 9670019
-172.72044 -13.658657 95.939339 10261899
-173.5712 -13.690833 95.321526 9340539
-174.10284 -13.698173 94.525551 8419952
-174.66408 -13.462043 93.743881 9011832
-167.69374 -12.507263 99.588547 10788500
-168.49422 -12.774894 98.970238 8025195
-169.38432 -12.807631 98.399498 7959662
-170.27881 -12.840855 97.825859 8222575
-171.17758 -12.87451 97.249229 8880503
-171.9756 -12.985176 96.701469 9472640
-172.63858 -12.84921 96.346138 8748917
-173.33688 -13.037387 95.826256 8485488
-174.19867 -12.896509 94.938431 9341054
-174.81947 -12.60273 94.097061 8880503
-175.44449 -12.423976 93.166115 9603969
-165.39374 -11.477409 101.47996 11445402
-166.28741 -11.664888 100.83875 14669000
-167.06635 -11.770037 100.30553 9538175
-167.95071 -11.799711 99.739784 10788243
-168.83926 -11.829795 99.171181 10854293
-169.73196 -11.860262 98.599678 8485745
-170.52457 -11.967867 98.056526 8617331
-171.18259 -11.829988 97.704948 8222573
-171.89307 -12.176929 97.107887 8617331
-172.57256 -12.20123 96.671654 9143675
-175.05641 -11.615346 94.404007 10196107
-175.58499 -11.587126 93.528503 10393229
-176.17432 -11.422404 92.647865 10327693
-163.332 -10.466751 103.21392 8091248
-164.00023 -10.644029 102.71822 7039331
-164.77103 -10.745919 102.19153 7301991
-165.64575 -10.772272 101.6332 11511708
-166.52451 -10.799009 101.07223 12103588
-167.40729 -10.826079 100.50851 8617331
-168.19141 -10.930272 99.972466 9275261
-168.96161 -10.874511 99.514954 7761766
-169.76836 -11.140329 98.893105 8617331
-170.21642 -11.154853 98.606201 8617331
-175.85442 -10.652037 93.742744 9801605
-176.38416 -10.62376 92.865242 9341053
-176.97504 -10.45853 91.98243 8288365
-161.07233 -9.4613895 105.06937 8813942
-161.71674 -9.4780178 104.65923 8813942
-162.49725 -9.7344513 104.05846 10064265
-163.36279 -9.7577105 103.50723 9274750
-164.23215 -9.7812757 102.9535 7959664
-165.10547 -9.8051262 102.39716 8090994
-165.88127 -9.9060993 101.86774 11511708
-166.64319 -9.8478708 101.41708 9735811
-167.30544 -9.8664351 100.99436 9209467
-168.10672 -10.128839 100.3774 8156524
-176.56227 -9.8473797 93.120514 9143675
-177.05002 -9.8511381 92.291176 8288365
-177.53792 -9.8550978 91.461342 9406591
-158.83232 -8.467474 106.90751 10787215
-159.47038 -8.481987 106.50226 12299683
-160.24382 -8.7348566 105.9074 8813939
-161.10065 -8.755146 105.36294 8813939
-161.86205 -8.8521795 104.84434 8813942
-162.6089 -8.7915239 104.40426 8813942
-163.47595 -8.8126354 103.85302 8485493
-164.22916 -8.7517862 103.40913 7564651
-164.90158 -8.9270716 102.91147 7564651
-165.79575 -9.108716 102.27215 9867145
-157.03204 -7.4924664 108.46234 11511449
-157.66536 -7.5050693 108.06095 10787215
-158.43353 -7.7550502 107.47072 7958376
-159.28377 -7.7727251 106.93151 9076857
-160.13754 -7.7906818 106.38999 9668991
-160.9949 -7.808846 105.8461 8813939
-161.85599 -7.8273187 105.2998 7893351
-162.72073 -7.8460231 104.75104 8814457
-163.50656 -8.1009426 104.14759 7564651
-164.15945 -8.1157379 103.7324 7564651
-154.82436 -6.5179253 110.2717 9735555
-155.45193 -6.5285654 109.87471 8090987
-156.21373 -6.7754574 109.2898 9011831
-157.05595 -6.7905898 108.75676 12037536
-157.90163 -6.8058782 108.22149 10261385
-158.75066 -6.8214245 107.68399 8287342
-159.60327 -6.8372283 107.14421 8287342
-160.45941 -6.8531389 106.60203 7761509
-161.23805 -7.1046672 106.00458 7893350
-161.88474 -7.1173477 105.59481 7038298
-153.25558 -5.56145 111.67373 8617075
-154.10611 -5.7292471 111.06819 11183001
-154.84598 -5.8181434 110.56663 10525071
-155.68384 -5.8310657 110.03728 9143675
-156.52504 -5.84412 109.50576 8025193
-157.3696 -5.8573561 108.97207 7564643
-158.21754 -5.8707991 108.4362 9735299
-158.97125 -5.9615159 107.92512 8024170
-159.84363 -6.1333933 107.30415 8287342
-150.86938 -4.6004982 113.58867 9142907
-151.64378 -4.7647552 113.03226 7563875
-152.44554 -4.8522606 112.49263 8353903
-153.37373 -4.8173823 111.92788 9142907
-154.31693 -4.8761549 111.31242 9735555
-155.16319 -4.5858316 110.91149 9077626
-155.9985 -4.7572742 110.3139 9932934
-156.74092 -4.9864936 109.74885 7564643
-157.60553 -5.1552873 109.13403 8090987
-149.35699 -3.1913922 115.00256 10196362
-150.18097 -3.5711432 114.43341 11906981
-150.96111 -3.6719201 113.94064 10787988
-151.78674 -3.6800821 113.42101 10261643
-152.61536 -3.6883495 112.89946 9471871
-153.44713 -3.6966903 112.37594 10262155
-154.20535 -3.9388981 111.79528 10656913
-154.9101 -3.7118945 111.45483 8682867
-148.08929 -2.2531204 116.02475 10262156
-148.68584 -2.4893401 115.62862 10394255
-149.58447 -2.496475 115.17621 11644064
-150.487 -2.5036428 114.72152 10459535
-151.33405 -2.5099268 114.21968 12103846
-152.06808 -2.5933247 113.72422 9933187
-152.91788 -2.7559025 113.12138 11249048
-147.29654 -1.475379 116.74284 9341313
-148.09059 -1.5569422 116.312 14011845
-148.98764 -1.5618232 115.86134 13683647
-149.88881 -1.5668122 115.40859 10657169
-150.71431 -1.8052032 114.89338 11183513
-145.46529 -0.38751 118.26365 10459278
-146.33727 -0.54422081 117.71095 10130313
-147.10884 -0.62377357 117.26626 9143935
-148.00256 -0.62657243 116.81801 11182234
-148.94501 -0.74624974 116.2585 12038055
-149.89149 -0.86643481 115.69702 9209467
-142.76366 0.54192108 120.41003 6511954
-143.42157 0.54175341 120.08141 10261899
-144.27527 0.38697949 119.52241 10525327
-145.03481 0.30917615 119.07637 9538176
-145.92148 0.3084673 118.63309 9538176
-146.65828 0.074627481 118.06455 10064265
-147.32768 0.073737048 117.72955 10458511
-118.66928 1.4961238 140.75714 10196107
-119.72691 1.4969782 140.2897 8681843
-120.78803 1.4978597 139.82074 8353135
-121.42659 1.4984649 139.53851 9142907
-139.00024 1.0075219 123.67809 12038567
-139.65173 1.0079209 123.3572 8090987
-140.52333 1.0085474 122.92798 8024424
-141.39845 1.0092174 122.49705 10984593
-142.05707 1.0097528 122.17278 9537150
-117.35197 2.71153 141.82629 9604485
-118.11499 2.5002928 141.40421 10657683
-118.89558 2.4106741 141.02312 8881019
-119.74316 2.412672 140.64896 9471871
-120.4454 2.108273 140.21654 8616307
-116.27847 3.7754874 142.7269 10851980
-117.27589 3.5505829 142.19569 7893869
-118.33191 3.5548587 141.7303 8618361
-119.08975 3.4813452 141.36566 9539205
-115.69163 4.5369816 143.29117 8682101
-116.44472 4.4644694 142.92906 10984338
-117.49988 4.4701557 142.46481 9143164
-118.50153 4.2452598 141.93164 8092019
-114.408 5.6010995 144.28517 8089963
-114.98298 5.3750849 143.94037 8616307
-115.82422 5.380589 143.57079 9668737
-116.87913 5.3876762 143.10754 10853524
-117.66879 5.162127 142.66805 9340286
-113.36834 6.5143018 145.11142 8485238
-114.24745 6.3368678 144.65176 8484977
-115.20343 6.2982097 144.21382 9340286
-116.04668 6.3048844 143.84402 9537923
-116.62437 6.0782394 143.49763 7563619
-112.01801 7.8875666 146.26004 11379356
-112.592 7.6618295 145.9157 9208703
-113.48174 7.5051217 145.45956 9471875
-114.39531 7.3150229 144.97958 9537665
-115.33604 7.1470695 144.49641 9669252
-116.00267 6.9986634 144.14227 8092019
-111.18693 8.8054314 146.99608 8089963
-111.96994 8.5818291 146.56024 9734531
-112.80827 8.5905628 146.19339 9208703
-113.76395 8.5543013 145.75662 9932169
-114.95812 7.9162769 144.97263 9012350
-110.35511 9.7248964 147.73311 10854036
-111.13807 9.5014629 147.29745 8089962
-112.18533 9.5134659 146.83954 7958376
-112.93723 9.4445553 146.47963 8682359
-113.60214 9.2969551 146.12662 9932169
-109.55726 10.491356 148.39371 9800579
-110.44157 10.471108 147.99487 9668993
-111.42523 10.389996 147.52768 10787215
-112.31346 10.37002 147.12726 9142649
-108.2729 11.564013 149.39223 12761261
-108.84604 11.337903 149.04816 11379610
-109.68107 11.34867 148.68361 10524301
-110.72764 11.362625 148.22684 9274491
-111.51296 11.138987 147.78986 10787215
-107.23122 12.486123 150.22318 9209467
-108.10624 12.310719 149.76599 10985364
-109.0559 12.276978 149.33287 13221555
-109.89278 12.288842 148.96791 10064006
-110.46821 12.062101 148.6226 9143161
-105.8755 13.876304 151.38075 8090987
-106.53479 13.729013 151.03029 9998214
-107.43842 13.428683 150.51036 10195848
-108.48237 13.444174 150.05539 11577244
-109.17928 13.140403 149.62537 10392971
-109.84238 12.993337 149.27335 8090734
-104.94347 14.819749 152.37605 9735299
-105.87926 14.591031 151.77254 9603201
-106.71595 14.604252 151.41353 9735043
-107.60403 14.496727 150.93163 10262155
-102.10011 15.763011 154.53191 10458507
-102.74474 15.7754 154.29381 10327435
-103.56849 15.623403 153.78668 9274749
-104.38416 15.502935 153.2937 9537921
-105.37096 15.31492 152.60201 9274748
-106.20944 15.328613 152.24373 9537664
-86.75869 17.496904 167.47403 11183001
-87.331146 17.254766 167.09999 8617588
-88.280342 17.304901 166.66185 9604742
-89.245804 17.209898 166.15741 11248793
-90.113564 17.179903 165.72632 8551798
-85.959885 18.783628 168.23369 11183001
-86.718185 18.472046 167.88652 11380380
-87.537842 18.473099 167.49113 9012088
-88.480354 18.335258 166.98047 10722706
-89.298767 17.988445 166.44557 10262414
-85.356415 19.901634 168.71541 8090995
-86.038986 19.681564 168.55194 11511712
-86.924057 19.696953 168.28064 13354170
-87.703987 19.452417 167.80551 11051671
