# .PCD v0.7 - Point Cloud Data file format
VERSION 0.7
FIELDS x y z rgb
SIZE 4 4 4 4
TYPE F F F U
COUNT 1 1 1 1
WIDTH 1196
HEIGHT 1
VIEWPOINT 0 0 0 1 0 0 0
POINTS 1196
DATA ascii
-172.99902 -61.720112 -22.032373 8221549
-129.14084 -60.515617 64.13913 9340799
-129.85019 -60.789009 63.504051 8748664
-130.51054 -60.895172 63.00172 7038307
-173.19193 -60.977982 -21.06962 8089962
-173.35338 -60.906761 -22.022028 8418671
-173.58189 -60.739017 -22.986521 8682097
-173.84787 -60.476452 -23.703989 8287853
-127.66689 -59.251251 66.630966 11379348
-128.13385 -59.321033 66.09124 8813683
-128.7215 -59.663235 65.166595 9406334
-129.43141 -59.860699 64.540886 9209213
-173.72845 -60.347027 -21.772943 8089962
-174.08104 -60.022789 -22.669916 8747632
-174.29701 -59.904495 -23.766108 7760994
-174.6743 -59.734646 -24.675051 8024422
-175.06215 -59.499367 -25.160578 9208435
-121.34015 -58.298405 79.034325 9208443
-121.94688 -58.617123 78.595963 9208443
-122.62968 -58.802593 77.892433 9538178
-123.16953 -58.878242 76.889374 9735558
-123.72115 -58.880363 75.997353 8156528
-124.17603 -58.882133 75.251053 10590347
-124.62618 -58.883896 74.501816 10130053
-124.71719 -58.885735 73.340446 9538434
-124.79945 -58.887569 72.179619 9012863
-125.31701 -58.889656 71.275932 9736585
-125.82806 -58.891747 70.368546 7762021
-126.24907 -58.893482 69.609673 8485744
-126.66521 -58.895214 68.848091 8683123
-127.27148 -58.949402 67.991226 9406077
-127.97592 -59.051517 67.183952 10392712
-128.67905 -59.15519 66.371666 10064005
-121.43537 -57.632221 79.261055 9405822
-122.15309 -57.759396 78.845711 7958376
-120.906 -56.498741 79.996704 9144187
-121.55643 -56.693047 79.587936 9142906
-122.18704 -56.948448 79.163773 10261643
-120.982 -55.567307 80.343803 10919569
-121.66779 -55.778667 79.910187 9734528
-120.41357 -54.607674 81.027977 10590348
-121.12603 -54.731102 80.617271 11247765
-120.585 -53.567204 81.372169 8681841
-121.20683 -53.973396 80.890137 12432037
-120.0444 -52.613346 82.03994 7760997
-120.90804 -52.787209 81.532036 10787729
-119.67055 -51.489349 82.693977 7037274
-120.39532 -51.739922 82.22435 10524559
-119.14046 -50.353489 83.431694 10459281
-119.75118 -50.644875 83.002815 8813942
-120.42433 -50.762276 82.614433 10985366
-119.16103 -49.560455 83.749603 9407108
-119.88833 -49.736374 83.309708 8486520
-118.58727 -48.529579 84.465988 10130058
-119.4384 -48.591473 84.010735 8091248
-119.9639 -49.003975 83.574768 8089963
-118.09238 -47.218853 85.2584 8089963
-118.7007 -47.638191 84.777763 9406078
-119.40066 -47.796574 84.358902 9735043
-118.24664 -46.505157 85.47599 9340028
-118.9464 -46.659859 85.058723 9472384
-117.63847 -45.338932 86.44281 11379868
-118.24043 -45.729107 85.848984 9472128
-118.90581 -45.868122 85.407021 9735812
-116.87065 -44.257675 88.061623 8879479
-117.51405 -44.445305 87.355103 8419439
-118.03521 -44.837555 86.677811 8156526
-118.6635 -45.138046 86.100204 7038307
-110.94118 -43.443047 99.519768 8092019
-111.56725 -43.502121 99.115952 10064780
-112.13628 -43.771641 98.302246 9997960
-112.6777 -43.83252 97.465065 10261899
-113.14548 -43.834007 96.921196 9209211
-113.49332 -43.838215 94.412155 11904668
-114.05907 -43.840054 93.727005 10063495
-114.73266 -43.842255 92.900452 9866373
-115.40029 -43.84446 92.069084 7958888
-116.06184 -43.846664 91.23291 6511186
-115.86887 -43.925087 89.735565 9406334
-116.42988 -43.975758 89.27636 9866885
-117.27119 -44.052811 88.583847 9406590
-110.93011 -42.649158 99.852142 8092019
-111.70812 -42.602505 99.479317 8879993
-110.41151 -41.445263 100.60896 8419440
-111.13715 -41.61441 100.17371 8222319
-111.70051 -42.04557 99.712418 9208187
-110.1154 -40.399876 101.18845 9011321
-110.70324 -40.598278 100.8106 7959662
-111.34884 -40.8965 100.36264 7039331
-110.09963 -39.607761 101.52122 8419699
-110.82702 -39.733112 101.10437 7894126
-109.61745 -38.504124 102.19528 9340287
-110.30202 -38.57328 101.84503 8485492
-110.86924 -38.997982 101.38569 7039331
-109.57265 -37.638744 102.56245 9734788
-110.32211 -37.714165 102.18977 9734788
-109.03645 -36.510139 103.25418 9011836
-109.79444 -36.676807 102.84966 8485236
-110.38364 -37.104458 102.40972 9734788
-109.34057 -35.525673 103.5137 11577762
-110.00429 -35.958569 103.04439 7564392
-108.72224 -34.608181 104.15726 9604742
-109.49621 -34.617668 103.80869 13222842
-108.23515 -33.398846 104.8595 9275776
-108.88186 -33.639778 104.47472 9801864
-109.47746 -34.062126 104.03993 11906983
-108.24264 -32.479149 105.22517 9736581
-108.96141 -32.613972 104.85091 9143934
-107.70013 -31.514095 105.85406 9341825
-108.41756 -31.664732 105.47403 9604739
-107.31111 -30.339651 106.65987 9275004
-108.00349 -30.627464 106.14915 9012091
-108.60992 -30.851322 105.72287 8090987
-106.43845 -29.167761 108.45357 8682867
-107.14032 -29.28076 107.86256 10854549
-107.44191 -29.710049 107.13087 10590864
-108.03106 -29.926899 106.68674 13024949
-101.4674 -28.54591 118.66604 9538177
-102.17519 -28.585848 118.33585 7894376
-103.279 -28.793615 114.50403 8682099
-103.69154 -28.794769 114.13017 8682099
-104.37623 -28.796696 113.50375 8683642
-104.92159 -28.798237 112.99992 9932681
-105.88051 -28.873611 109.71797 9143675
-106.68211 -28.91428 109.22556 10788243
-101.02926 -27.425816 119.30835 9340542
-101.67371 -27.719948 118.90465 8880247
-100.51551 -26.605162 119.86456 8814198
-101.24382 -26.561295 119.55876 9077370
-101.88701 -26.865622 119.1515 9537665
-100.50581 -25.604448 120.26899 8353134
-101.18954 -25.692173 119.93031 9340286
-100.13668 -24.251265 120.97382 7497825
-100.70046 -24.577656 120.59305 7366239
-101.28611 -24.937809 120.18902 9537665
-100.18651 -23.557547 121.22947 7826790
-100.8984 -23.589239 120.90108 7564646
-99.580498 -22.505472 121.92065 8880247
-100.36079 -22.661951 121.5119 8880248
-99.733986 -21.541155 122.23994 9603714
-100.24442 -21.84767 121.89053 9734788
-99.207314 -20.608578 122.84802 9012090
-99.895416 -20.689144 122.5106 8551030
-98.696655 -19.308483 123.59663 8287859
-99.365822 -19.523085 123.21376 8551029
-99.989571 -19.928289 122.77441 7038307
-98.815643 -18.50914 123.86494 8748662
-99.45948 -18.632896 123.52972 9735555
-98.263695 -17.494951 124.51698 8682867
-99.049065 -17.644289 124.10876 8880246
-98.256363 -16.611717 124.875 8485233
-98.973778 -16.632881 124.5484 8682867
-97.901115 -15.517274 125.55616 9011065
-98.526894 -15.787242 125.11269 8550770
-96.892746 -14.139716 127.49699 9472126
-97.34185 -14.50679 126.69123 9208699
-98.128952 -14.74733 126.07512 10589840
-91.578979 -13.358946 137.9471 10459279
-92.055779 -13.594479 137.44208 8617078
-92.706749 -13.745281 136.77095 8813942
-95.925163 -13.797298 129.10242 10195593
-96.804008 -13.814036 128.66048 10327176
-90.904549 -12.143148 138.73149 10459279
-91.560181 -12.555147 138.27663 10261389
-92.257118 -12.767379 137.88338 8090736
-91.048645 -11.440239 138.94861 8353906
-91.746773 -11.651892 138.55504 8879994
-90.535065 -10.322592 139.62253 9208956
-91.234375 -10.53373 139.22868 8946039
-91.892174 -10.947232 138.77223 7038307
-90.633484 -9.4730978 139.9185 8946038
-91.303886 -9.5892181 139.57536 10129798
-90.090195 -8.3902836 140.59169 10129801
-90.787407 -8.5575104 140.21626 9208955
-89.66465 -7.2653422 141.22954 10261387
-90.367622 -7.4759874 140.83429 9866885
-89.695335 -6.3657155 141.57556 9932678
-90.333183 -6.5348654 141.22563 9735299
-89.327278 -5.2139158 142.19878 7038298
-89.832603 -5.491549 141.86417 8617331
-89.158951 -4.5541096 142.53694 7696229
-89.934196 -4.6689777 142.14793 7301470
-88.759315 -3.3541889 143.19363 9341057
-89.375267 -3.6231906 142.81352 8683124
-89.946411 -3.9810967 142.41745 7893608
-88.735176 -2.525104 143.53696 10196109
-89.485168 -2.5283592 143.20415 9341057
-88.278358 -1.3445872 144.21281 7762030
-88.974968 -1.6247773 143.7924 8353908
-87.946388 -0.22980043 144.96925 8879479
-88.490685 -0.48216507 144.53001 8946045
-89.103874 -0.6512382 144.12624 7037274
-87.340096 0.61232018 145.94023 9734787
-88.010796 0.4005411 145.46742 9274237
-88.680687 0.1885635 144.99483 10261132
-82.436958 1.7563673 156.83778 10262667
-82.791061 1.5360923 156.59593 9210491
-87.098045 1.0401399 147.1371 8484459
-82.551689 2.4164186 157.05327 10262667
-138.95193 -74.37236 46.584641 6511954
-140.17412 -74.248581 44.937378 7563874
-134.91904 -73.576309 54.780384 10787732
-135.36703 -73.73085 54.078457 14867154
-135.9173 -73.595337 53.162304 10392461
-136.49577 -73.537018 52.330009 7695203
-136.93698 -73.524063 51.593224 8879222
-137.40753 -73.638824 50.715168 9997958
-137.92415 -73.723244 49.776672 8879734
-138.45303 -73.639496 48.792679 8287853
-138.82962 -73.689293 47.954582 8222316
-139.32883 -73.687492 47.223164 7367263
-139.77756 -73.812386 46.298786 6971737
-140.30762 -73.86969 45.398624 7892839
-140.64398 -73.992149 44.388008 7695460
-141.33463 -73.895958 43.73671 7630442
-141.4996 -74.005043 42.837898 7564651
-141.98453 -73.973038 41.773445 9340544
-142.51112 -73.865913 40.81216 9735040
-142.62306 -73.775635 39.731434 7564385
-143.52995 -73.68895 39.239471 7893350
-143.6293 -73.598938 38.153458 8090730
-144.34633 -73.495842 37.321304 7235681
-144.64882 -73.391815 36.194229 9142901
-145.27612 -73.302979 35.484203 8353643
-134.41553 -72.443649 55.581955 7958888
-135.07487 -72.703796 55.04673 9405822
-135.70299 -72.784058 54.210438 11379611
-136.23528 -72.74427 53.338776 9800578
-136.72122 -72.729004 52.527916 9997956
-137.20744 -72.71637 51.714699 8089962
-137.67393 -72.875549 50.811745 8287597
-138.19363 -72.960258 49.872166 7235421
-138.70369 -72.945328 49.020256 6840919
-139.21413 -72.933067 48.165855 8288109
-139.47429 -72.979698 47.692535 7959144
-145.62257 -73.213951 34.579376 8616821
-145.96576 -73.124863 33.671494 7893356
-146.5818 -73.035538 32.946995 8222321
-146.85306 -72.93174 31.801935 9011321
-147.54022 -72.82708 30.929144 9011321
-147.86285 -72.737854 30.006136 9472128
-148.46576 -72.647621 29.260702 7563619
-148.48582 -72.574471 28.336893 8287598
-149.43565 -72.496315 27.586123 8024426
-149.52081 -72.445168 26.486128 9668734
-150.41119 -72.339409 25.710188 7038302
-134.49374 -71.64119 55.883308 8814710
-135.34912 -71.786629 55.258179 9340028
-135.96452 -72.023651 54.313103 8682099
-136.48523 -72.095558 53.381058 12300452
-136.91905 -72.157951 52.6026 11511193
-137.26613 -72.209579 51.97863 9537406
-150.37424 -72.25061 24.772936 7037274
-151.28555 -72.169724 24.174574 7564386
-151.26576 -72.081215 23.05179 8157039
-152.16891 -71.971954 22.065088 8683898
-152.45024 -71.886147 21.106516 9604485
-153.04214 -71.802856 20.312563 8092019
-153.31345 -71.716904 19.346853 9736329
-153.89911 -71.632973 18.542673 8616821
-154.16037 -71.546791 17.569914 8089963
-154.73973 -71.462273 16.755602 8089963
-155.15508 -71.376534 15.855086 8813686
-155.59306 -71.319992 15.332313 8813686
-133.95871 -70.569077 56.677826 7893351
-134.70811 -70.765182 56.133244 7696228
-135.36543 -71.08783 55.589943 6511954
-155.54921 -71.276123 14.760791 9537409
-156.13727 -71.20517 14.120673 9208444
-156.37114 -71.118469 13.129962 8681843
-157.25638 -71.018364 12.250674 13353653
-157.18196 -70.960396 11.483375 12103844
-158.06914 -70.862106 10.591308 8485235
-158.29128 -70.777077 9.5849371 7827307
-158.85034 -70.692032 8.7230864 8550514
-159.23579 -70.606651 7.7819777 8747636
-159.61433 -70.52124 6.8378172 8879990
-160.49312 -70.420265 5.9070082 10260875
-160.38789 -70.3638 5.1295881 9734531
-133.67085 -69.642395 57.257629 7828332
-134.35771 -69.625046 56.844238 8354159
-134.85289 -69.967262 56.391869 7564642
-161.29063 -70.276031 4.3804045 7563619
-161.17726 -70.219673 3.6004553 7563619
-162.04915 -70.11689 2.6434622 8024428
-162.4093 -70.029869 1.67031 8353651
-162.76221 -69.942871 0.69432735 7893358
-163.63045 -69.838295 -0.28774357 11380895
-163.49248 -69.782143 -1.0750742 8682867
-164.35612 -69.676605 -2.0708475 9012092
-164.73445 -69.602455 -2.8696222 7038307
-165.10698 -69.528175 -3.6718225 8090736
-165.96965 -69.420853 -4.6915445 9669764
-165.84897 -69.378906 -5.2878351 11380380
-133.1949 -68.381645 58.098061 7894126
-133.68904 -68.771545 57.625549 9143165
-134.33473 -68.719086 57.252663 8222832
-165.76753 -69.350975 -5.6849451 9143675
-166.65967 -69.254074 -6.5197229 8748917
-166.99669 -69.166412 -7.3390589 10458251
-167.36548 -69.094261 -8.1632242 9866115
-168.07355 -68.918678 -9.0103312 9668736
-168.31638 -68.799774 -10.040139 10524043
-168.81731 -68.539452 -10.886865 11116179
-169.09866 -68.439674 -11.92801 6840151
-133.25461 -67.656822 58.376965 8157041
-133.98541 -67.801956 57.865936 8354163
-134.47621 -67.945694 57.50267 7894126
-169.03192 -68.366928 -10.28798 9340027
-169.48167 -67.902771 -11.627778 6774359
-169.53662 -67.956802 -12.698472 7564386
-169.8627 -67.580399 -13.629022 7958887
-132.74014 -66.635727 59.136677 9011577
-133.44968 -66.787224 58.635941 8880250
-134.12462 -67.031288 58.116081 7039331
-169.82225 -67.26989 -11.980691 9142907
-170.00728 -66.973831 -12.652848 10459022
-170.14116 -66.875153 -13.514871 8550769
-170.31879 -66.693336 -14.49289 8879473
-132.1364 -65.398979 60.044968 9143419
-132.84386 -65.728172 59.468185 9472384
-133.60359 -65.940948 58.909962 9603202
-170.47588 -65.915016 -13.350083 8353134
-170.57182 -65.987221 -14.432611 8156267
-170.75478 -65.801048 -15.44304 8024682
-132.34715 -64.59269 60.2668 8221805
-133.01379 -64.787804 59.773346 9011321
-170.75768 -65.258186 -13.703996 8484973
-170.94313 -64.96286 -14.382615 8287852
-171.05287 -64.937515 -15.269441 7301477
-171.25563 -64.684807 -16.238657 9208701
-131.82693 -63.592369 61.021008 7629668
-132.53477 -63.731236 60.526817 7958378
-171.41972 -63.945084 -15.283799 7498598
-171.50923 -63.977592 -16.18033 7498083
-171.6927 -63.792507 -17.199808 8418927
-171.91705 -63.420383 -17.975687 9734788
-131.21625 -62.380096 61.922928 8353648
-131.85248 -62.75853 61.368309 7893356
-132.68158 -62.893326 60.80151 7367013
-171.69542 -63.246433 -15.448228 7038307
-171.88101 -62.951469 -16.133341 7103068
-171.99094 -62.927158 -17.02762 7563618
-172.19395 -62.675034 -18.0058 9537409
-131.34154 -61.607254 62.182564 7827564
-132.15303 -61.833298 61.586853 7038307
-172.35782 -61.932652 -17.045351 8089963
-172.44759 -61.966259 -17.949312 9077113
-172.58437 -61.882423 -18.888498 7826791
-172.85646 -61.40979 -19.761835 7563619
-130.42793 -60.505737 63.348625 7038307
-130.96741 -60.559692 62.988132 7498857
-131.56912 -60.775925 62.454838 7498601
-172.75981 -61.142635 -17.926912 9603456
-172.96173 -60.988438 -18.878336 7826791
-173.19833 -60.761143 -19.886461 9077113
-173.36311 -60.65736 -20.667269 8089962
-129.38152 -59.260986 65.555115 6972505
-130.18472 -59.400696 64.706627 7301217
-130.63177 -59.828678 63.834854 7893358
-131.37849 -59.997059 63.223141 8353651
-173.69534 -60.088116 -19.718538 9735299
-173.87364 -60.026096 -20.658266 7892583
-174.15402 -59.803688 -21.528765 7432032
-174.36311 -59.61665 -22.280123 8681843
-175.09056 -59.427551 -23.445772 7958372
-123.16795 -58.454895 78.04554 8814715
-123.996 -58.702156 77.48703 9275008
-124.60695 -58.880856 76.54068 12629671
-125.15598 -58.882992 75.638237 11905692
-125.51866 -58.884411 75.034607 11905692
-125.2491 -58.88636 73.448624 7565675
-125.68834 -58.888119 72.692978 9012863
-126.20964 -58.890221 71.78289 11907751
-126.7243 -58.892323 70.86908 9209467
-127.23238 -58.894417 69.95153 8222572
-127.65086 -58.896164 69.184219 8090732
-128.06442 -58.897903 68.414207 10261129
-128.56851 -58.906265 67.494263 8747891
-129.22923 -58.98904 66.654778 9274748
-129.93462 -59.094444 65.834671 6511954
-130.40428 -59.165642 65.2854 7959144
-175.10429 -59.384026 -22.375452 7629410
-175.838 -59.213394 -23.977472 8484714
-175.82036 -59.258423 -25.05401 7629665
-176.79648 -59.107574 -25.410532 7367005
-122.66959 -57.621128 78.641777 7037274
-123.43901 -57.638523 78.246201 8222320
-123.96241 -58.085564 77.796989 9735558
-122.71246 -56.626827 79.031738 12235690
-123.41788 -56.819313 78.595963 7037274
-122.20604 -55.556438 79.730492 11314587
-122.98206 -55.631947 79.30748 15525852
-123.59266 -56.089325 78.80999 7037274
-121.72753 -54.198753 80.534027 6510930
-122.27818 -54.684273 80.055099 9274491
-123.02183 -54.639526 79.69825 13486013
-121.95999 -53.549446 80.685509 7826532
-122.6096 -53.761692 80.26973 6379600
-121.37099 -52.496239 81.418785 10524043
-122.13688 -52.763645 80.921516 8222059
-120.91437 -51.410851 82.098679 10985366
-121.61914 -51.584343 81.671043 8288367
-122.2095 -51.832817 81.270187 8090987
-120.93871 -50.611752 82.417152 9209471
-121.66358 -50.717758 82.007347 10262670
-120.45604 -49.646408 83.06041 8288369
-121.19623 -49.585953 82.711807 8749690
-121.75225 -50.057068 82.236092 10262670
-120.48235 -48.671238 83.450783 9669249
-121.25818 -48.723064 83.037743 13880510
-120.02886 -47.526394 84.153648 8089963
-120.73491 -47.687332 83.730621 9669249
-121.35081 -48.114994 83.242691 14604230
-119.4613 -46.323524 84.938011 9735812
-119.99083 -46.730816 84.502182 9603456
-120.75861 -46.712925 84.122063 8089963
-119.14895 -45.205601 85.797226 7893614
-119.61798 -45.576313 85.263863 9341055
-120.24595 -45.927067 84.71225 9998727
-118.39305 -44.157951 87.653778 8682867
-118.82108 -44.305267 87.000618 9077371
-119.34879 -44.649151 86.220383 7498857
-120.02193 -44.982689 85.550362 8814713
-112.74506 -43.425343 98.618179 10590608
-113.50826 -43.55098 98.181931 10261899
-113.49455 -43.835125 96.511902 9735555
-113.95753 -43.836609 95.96389 10195081
-114.64726 -43.838833 95.138016 9734788
-115.33106 -43.841061 94.307236 10786961
-116.00883 -43.843281 93.471481 9669252
-116.71739 -43.848862 90.391953 9011576
-117.25913 -43.850693 89.687706 9537664
-117.8323 -43.865803 89.006966 10195336
-118.24682 -44.021648 88.207794 8682867
-112.37683 -42.491039 99.188293 9208187
-112.96613 -42.603706 98.844978 10129545
-113.50312 -42.990925 98.415024 9735555
-111.86056 -41.506596 99.853607 7563618
-112.45106 -41.709797 99.472427 8353134
-113.15385 -41.833546 99.067368 9208187
-111.84634 -40.531761 100.26202 7498083
-112.65388 -40.787178 99.750031 6708566
-111.38345 -39.604187 100.87708 9274494
-112.13958 -39.541794 100.52176 9077115
-112.67925 -39.92234 100.09317 5919050
-111.36637 -38.630577 101.28638 9274494
-112.07024 -38.74625 100.88412 9734788
-110.93163 -37.4016 102.01129 9734788
-111.67287 -37.734165 101.50093 9800835
-110.54007 -36.564529 102.55317 9734788
-111.21537 -36.626175 102.18752 9340798
-111.83945 -36.869225 101.77307 10853262
-110.51339 -35.590889 102.95933 7630696
-111.25381 -35.777855 102.5173 9012600
-110.07409 -34.486244 103.60399 11116954
-110.716 -34.591537 103.26965 8354158
-111.34924 -34.971092 102.80125 7762277
-110.06021 -33.606403 103.96321 10129802
-110.81039 -33.812904 103.54268 8089963
-109.63685 -32.474903 104.60583 9274237
-110.35356 -32.819256 104.14836 9208444
-109.15219 -31.448284 105.2336 9537918
-109.85644 -31.506638 104.89648 9077370
-110.45749 -31.927937 104.45972 10261132
-109.16615 -30.665869 105.60744 8880245
-109.8931 -30.650885 105.26691 9998212
-108.19403 -29.260708 107.36116 10458766
-108.75865 -29.631418 106.63103 10984850
-109.46157 -29.943829 106.03664 9866882
-102.89812 -28.496792 118.01877 8354415
-103.3951 -28.712349 117.4436 9866885
-104.15675 -28.791807 116.60023 10985622
-105.32875 -28.799393 112.62012 9012350
-106.00434 -28.801321 111.98386 9012349
-106.81014 -28.803633 111.21516 10459022
-107.34437 -28.805176 110.69969 9735299
-107.16328 -28.93902 108.92879 12236458
-107.80554 -28.972382 108.53105 11248538
-108.44827 -29.006277 108.13172 9208443
-102.35436 -27.396259 118.73185 9669763
-102.93214 -27.728384 118.34256 8485233
-101.71844 -26.098209 119.53318 9537665
-102.39288 -26.465282 119.08698 8353651
-103.11515 -26.646067 118.69402 8221807
-101.75537 -25.467247 119.76904 9735044
-102.57191 -25.571608 119.36476 8682873
-101.42548 -24.374218 120.35245 8814714
-102.09266 -24.596216 119.96763 9340289
-102.71322 -25.007473 119.52761 8419702
-101.43367 -23.613462 120.65405 8092019
-102.14882 -23.646219 120.32375 8025713
-100.86636 -22.254728 121.45129 9868427
-101.56026 -22.665968 120.97845 9868427
-102.11088 -23.072147 120.57122 8092019
-100.42893 -21.091909 122.11227 9734788
-101.05229 -21.498854 121.67245 10460306
-101.83566 -21.626755 121.27374 12631472
-100.46358 -20.456175 122.35228 7893358
-101.20393 -20.586811 121.97153 9406594
-100.63843 -19.492325 122.66186 8222066
-101.24528 -19.975176 122.19885 8353651
-100.1324 -18.591948 123.24784 8551030
-100.85153 -18.616808 122.91899 9471617
-99.555573 -17.227966 124.05147 10261899
-100.18313 -17.632624 123.61066 11906725
-100.85715 -17.847389 123.22552 7433064
-99.705559 -16.413826 124.31194 10722450
-100.39086 -16.772314 123.86407 11116695
-99.177803 -15.584 124.9559 9011576
-99.920601 -15.545753 124.62344 10195849
-98.118118 -14.164693 126.87627 10063753
-98.935982 -14.325701 126.2305 8616307
-99.444786 -14.805862 125.4441 8550514
-92.870567 -13.380741 137.36671 7038307
-93.507698 -13.48186 136.88445 8945784
-93.855629 -13.748121 135.98473 8813942
-94.509361 -13.749747 135.53151 9537921
-97.860207 -13.834601 128.12758 11182228
-98.565231 -13.848627 127.7708 8682867
-92.87487 -12.475328 137.72662 7959150
-93.552147 -12.788784 137.30159 9077114
-92.398491 -11.493226 138.32994 8090736
-93.167213 -11.612443 137.94206 8682872
-92.403633 -10.498725 138.72511 7893356
-93.047516 -10.760919 138.33534 8090736
-91.998634 -9.5299692 139.29152 9011831
-92.666512 -9.6060429 138.9655 8090989
-91.318596 -8.301404 140.08344 8682867
-92.021683 -8.5127439 139.68784 11313814
-92.682777 -8.9280119 139.22929 10984593
-91.485001 -7.486692 140.33543 11708317
-92.231209 -7.4940581 140.00218 12432037
-90.873863 -6.3549137 141.0582 9866885
-91.63636 -6.5153089 140.65663 10129546
-90.447533 -5.2217903 141.69978 9735299
-91.154121 -5.4327278 141.30272 9537921
-91.860924 -5.6440315 140.90538 9537667
-90.460442 -4.5348787 141.96855 7893608
-91.237434 -4.6500649 141.57861 8682874
-90.070351 -3.3609414 142.61121 7696233
-90.779312 -3.5717831 142.21318 7959151
-91.446327 -3.9899755 141.75041 8814203
-90.048386 -2.5308521 142.95413 8485750
-90.800255 -2.5342445 142.62044 8156787
-89.618095 -1.383711 143.60481 9142651
-90.386955 -1.5429068 143.20107 8485236
-89.264824 -0.23279124 144.38509 7037274
-89.879326 -0.40182707 143.98076 9340030
-90.422951 -0.65473068 143.54163 8089962
-88.850983 0.60982335 145.27171 8617080
-89.332855 0.39821836 144.88225 8353134
-90.00322 0.1860145 144.40924 9142651
-83.306206 1.7991384 156.47365 12235689
-84.003143 1.7543083 156.14809 12761517
-88.237495 1.0387331 146.63567 9142909
-88.998253 1.0377263 146.30098 7564651
-82.863487 2.7102332 157.033 9933190
-83.569519 2.6360211 156.69174 11840672
-82.93821 3.5207789 157.32388 9998727
-83.527184 3.5204585 157.06377 10064519
-83.091408 4.4082294 157.61078 9735555
-83.086678 5.5223227 158.05791 9538176
-83.009712 5.0760212 157.91353 9538176
-141.12328 -73.295349 44.677597 7827046
-141.55771 -73.384285 43.879177 7696234
-142.05859 -73.655579 42.837769 7564651
-142.62578 -73.620087 41.961105 12497320
-143.22534 -73.572823 41.202118 9800833
-143.63329 -73.657845 40.384796 11379352
-144.41522 -73.508781 39.555252 8222063
-144.75417 -73.507736 38.638283 8222321
-145.36861 -73.474541 37.865479 8945786
-145.47205 -73.393066 36.772156 5920074
-146.10625 -73.30368 36.059437 6511955
-137.87355 -72.303612 50.884094 6840663
-138.39424 -72.387749 49.943306 6511954
-138.91501 -72.475304 48.999832 7432800
-139.34901 -72.550797 48.2117 7959144
-139.83286 -72.637848 47.331116 6709333
-140.30443 -72.725494 46.470795 6774614
-140.82591 -72.825615 45.517151 7432288
-141.32942 -72.719727 44.741608 7037274
-141.8192 -72.730988 43.905273 7630184
-142.35692 -72.725281 43.00045 7038303
-142.80344 -72.823936 42.198906 11313814
-143.4725 -72.704857 41.404823 7103835
-144.06693 -72.872131 40.558327 7761765
-144.57954 -72.896553 39.898567 7761765
-146.45694 -73.214005 35.14975 9011576
-146.95543 -73.109261 34.147438 8879737
-147.44592 -73.004608 33.140678 8222321
-147.7821 -72.914917 32.220051 9011321
-148.39742 -72.824478 31.481543 9011321
-148.72432 -72.734673 30.553579 9077372
-149.33406 -72.643799 29.80512 7827564
-149.36194 -72.556953 28.690069 9472384
-150.32004 -72.493622 28.123365 9406851
-150.40762 -72.442001 27.016436 7564651
-151.0182 -72.355858 26.250284 7564651
-136.16048 -71.453934 54.390076 8089963
-136.63422 -71.558502 53.51403 12761003
-137.07774 -71.541878 52.775867 12695465
-137.55141 -71.65184 51.896019 8550512
-138.07301 -71.732109 50.956459 6840663
-138.6665 -71.676353 49.992691 6511954
-139.09648 -71.697197 49.25061 6709333
-139.5316 -71.771767 48.461273 6972505
-140.06783 -71.750481 47.569778 6709333
-140.64462 -71.768753 46.581322 7170143
-141.1488 -71.659607 45.806831 8287853
-141.58531 -71.744209 45.008095 8353646
-142.10497 -71.796509 44.092209 9077624
-142.70366 -71.765114 43.1031 6511954
-143.15834 -71.866028 42.301697 6511954
-143.5304 -72.036713 41.723724 5920074
-151.29785 -72.258621 25.298994 7038042
-152.21858 -72.149597 24.323179 8616818
-152.19748 -72.060562 23.193243 9867143
-153.11954 -71.980225 22.579069 9275777
-153.09111 -71.906082 21.633776 9933193
-154.00449 -71.81002 20.817362 9736329
-153.96442 -71.736076 19.868605 9736329
-154.87308 -71.639008 19.038103 10261901
-154.82137 -71.565102 18.086031 8089963
-155.72539 -71.467117 17.241419 10787215
-155.98059 -71.380127 16.255735 8089963
-156.59013 -71.323944 15.811007 8089963
-135.34834 -70.256546 55.962349 6511954
-135.83928 -70.755447 55.353851 7892839
-136.42157 -70.694916 54.492588 8089963
-136.85732 -70.753685 53.713585 12629416
-137.36415 -70.675529 52.912487 10984850
-137.88191 -70.701134 52.018562 7958377
-138.40508 -70.780571 51.07682 7234653
-138.89247 -70.790459 50.24551 6577491
-139.39252 -70.697441 49.466553 6774102
-139.94037 -70.678642 48.553551 6973024
-140.42093 -70.762383 47.680878 7039331
-140.91638 -71.004166 46.669621 8288883
-141.42175 -70.894432 45.89373 10853780
-141.85954 -70.978432 45.093624 10853780
-142.38533 -71.08226 44.130699 9143416
-142.82378 -71.17131 43.325974 6511954
-156.54662 -71.279724 15.235557 10261132
-156.97395 -71.207718 14.513293 8880507
-157.38002 -71.120964 13.596061 8287597
-157.95456 -71.034218 12.751151 11971744
-158.18369 -70.947472 11.747748 12103076
-159.08107 -70.848457 10.851089 8485238
-159.00012 -70.791412 10.076316 8485238
-159.89355 -70.691505 9.1662703 9010807
-159.78102 -70.620392 8.1947851 9208185
-160.71774 -70.548004 7.6604071 9537150
-160.92525 -70.46196 6.6341658 9866374
-161.48093 -70.375183 5.7482786 10260875
-135.33353 -69.593307 56.260056 6906712
-136.20349 -69.670288 55.547516 7761254
-136.70935 -69.791687 54.653244 8353391
-137.16577 -69.74614 53.914116 9405822
-137.63422 -69.753883 53.116356 7563618
-138.21205 -69.751427 52.140919 6510930
-138.68858 -69.862648 51.255325 6708309
-139.10768 -70.088074 50.384983 6839895
-139.54494 -70.158585 49.595039 6510930
-139.89474 -70.216423 48.961952 6839895
-162.03705 -70.287857 4.8558035 7695205
-162.22647 -70.201607 3.8189764 7563619
-163.10896 -70.098045 2.8566885 9734531
-162.98579 -70.041412 2.0692739 8353651
-163.86378 -69.936989 1.0932684 7630186
-164.25488 -69.863129 0.30428982 8748406
-164.64047 -69.789192 -0.48816776 9538433
-165.17859 -69.699547 -1.4186792 9538433
-165.37132 -69.62648 -2.283288 7564393
-166.21536 -69.507347 -3.2964334 8748665
-166.08868 -69.462997 -4.0943766 9143166
-134.81914 -68.591095 57.011532 8946296
-135.63934 -68.69976 56.461575 7433058
-136.48051 -68.922424 55.658752 7104098
-136.9205 -68.978294 54.879211 8353647
-166.90941 -69.32193 -4.1150522 9143166
-166.91548 -69.334824 -4.9199381 10985622
-167.39615 -69.182404 -5.7415018 8353900
-167.91269 -69.048592 -6.7721186 9735043
-168.35023 -68.809113 -7.7244349 8550257
-168.67088 -68.667564 -8.6353617 8879221
-168.69528 -68.696213 -9.4515238 9340027
-135.01785 -67.646515 57.300911 9603971
-135.77921 -67.785233 56.773941 10591124
-168.9135 -68.262627 -7.8327646 8616307
-169.08752 -68.058624 -8.6576242 8353393
-169.26884 -67.896439 -9.5359201 7432807
-169.42996 -67.803047 -10.517709 7038307
-169.59091 -67.640808 -11.143151 7038307
-134.50314 -66.654045 58.048321 6972253
-135.25867 -66.790222 57.526066 9340030
-169.63805 -66.9673 -9.3703547 7367270
-169.75177 -66.954659 -10.333833 7761770
-169.89598 -66.894112 -11.410951 8616820
-170.09669 -66.572548 -12.138429 9142907
-134.08101 -65.672447 58.734299 8616307
-134.89468 -65.631828 58.253326 7234397
-135.31445 -65.953049 57.856266 7958120
-170.02632 -66.214127 -10.35164 7827818
-170.26402 -65.826218 -11.190133 8814198
-170.39122 -65.800156 -12.229257 8353135
-170.52579 -65.628006 -12.85856 8089963
-133.55608 -64.589455 59.527355 8879735
-134.20744 -64.63443 59.108612 9668738
-134.78424 -64.793571 58.685863 9405566
-170.53322 -65.100372 -11.208825 8089963
-170.68695 -64.939888 -12.045228 8945528
-170.83156 -64.881073 -13.131036 8484721
-171.03273 -64.560287 -13.865403 8945265
-133.68457 -63.690948 59.839687 8748149
-134.50197 -63.77824 59.300785 10656146
-170.96205 -64.198601 -12.065698 9274237
-171.20036 -63.811535 -12.91211 9077114
-171.32338 -63.837685 -14.08381 8682350
-171.48158 -63.629517 -14.80417 7761512
-133.15501 -62.620972 60.62999 8682099
-133.97484 -62.810486 60.045067 9340286
-171.48911 -63.097828 -13.142579 8814198
-171.64758 -62.888199 -13.86213 8025194
-171.71817 -62.992592 -14.825501 7893608
-171.9705 -62.54744 -15.613229 7367007
-132.62419 -61.559265 61.417423 8617078
-133.4603 -61.691593 60.847401 9932164
-134.02206 -61.986179 60.374962 8089963
-171.93781 -62.164867 -14.081216 7893608
-172.12617 -61.864365 -14.772813 8419952
-172.2612 -61.823624 -15.835824 8089963
-172.41954 -61.615879 -16.562845 8089963
-132.30525 -60.391922 62.30209 7038307
-132.80653 -60.69746 61.758686 7104099
-133.4626 -60.982548 61.154625 10064263
-172.42668 -61.08112 -14.889428 9735812
-172.62224 -60.93692 -15.744584 11247763
-172.79718 -60.858379 -16.690149 9668991
-173.04369 -60.618595 -17.592264 10393227
-130.87386 -59.238041 64.734283 7893358
-131.34288 -59.311211 64.18071 8813945
-131.78091 -59.547741 63.415535 7695979
-132.38135 -59.815598 62.774826 7367269
-133.1429 -60.036091 62.1087 6511954
-173.22926 -60.208469 -16.432634 9932163
-173.5988 -59.891647 -17.52276 8879735
-173.75871 -59.902382 -18.525919 8813941
-174.11984 -59.65131 -19.271929 8353391
-174.37448 -59.530575 -20.150896 7826790
-124.56935 -58.405918 77.344841 11906721
-125.19987 -58.528648 76.903244 12235428
-125.90714 -58.729683 76.367287 10854032
-125.69884 -58.88512 74.73204 8090987
-126.05663 -58.886543 74.125542 7697003
-126.5882 -58.888664 73.212769 9736585
-127.11321 -58.890785 72.296112 12629936
-127.63155 -58.892899 71.375717 9471610
-128.1433 -58.895012 70.451614 7103066
-128.56477 -58.896767 69.67878 8813683
-128.98125 -58.898521 68.90332 9932163
-129.47507 -58.90062 67.969505 8155755
-129.96216 -58.902714 67.032227 8419438
-130.50148 -58.931381 66.121193 6511954
-131.20016 -59.0345 65.288551 6643543
-131.78906 -59.125084 64.594711 8353651
-132.1423 -59.180321 64.177185 9734788
-175.12151 -59.300247 -20.237795 7300446
-175.1162 -59.333199 -21.092165 7037274
-175.67528 -59.184467 -21.803988 7760996
-175.85248 -59.169342 -22.90185 8089958
-177.03311 -59.105408 -23.706408 8484714
-176.91649 -59.106495 -24.558619 7629664
-124.46811 -57.69648 77.695801 9077886
-125.37394 -57.727589 77.146927 10196877
-124.06013 -56.568375 78.375725 7564648
-124.76448 -56.760704 77.930542 7894128
-123.51064 -55.308163 79.174736 10261643
-124.10214 -55.70047 78.713745 7827565
-124.90646 -55.845051 78.243637 8092019
-123.59863 -54.562218 79.439148 11972261
-124.33949 -54.763351 78.981918 8748666
-123.23652 -53.539932 80.045097 6709594
-123.93765 -53.701996 79.624123 8156530
-122.7016 -52.490551 80.749611 8090987
-123.38612 -52.618515 80.350998 7301472
-124.00856 -52.926208 79.909515 7564651
-122.72984 -51.685116 81.06871 8090987
-123.53464 -51.697308 80.657455 8090987
-122.30946 -50.531017 81.758636 13880510
-122.9947 -50.653019 81.362274 10459535
-123.55447 -51.132202 80.881416 8090987
-122.25497 -49.661186 82.146278 12564908
-123.08528 -49.630695 81.739784 12827824
-121.79804 -48.489071 82.862091 12959666
-122.53706 -48.73587 82.386909 12367530
-121.25658 -47.352219 83.606071 14604230
-121.95464 -47.572945 83.162338 13024689
-122.56534 -47.754105 82.779053 9734531
-121.27654 -46.555676 83.92572 8945271
-122.01779 -46.727436 83.480461 8419951
-121.01595 -45.528927 84.586647 10590607
-121.76426 -45.70047 84.095871 10525071
-119.93583 -44.306812 86.361023 8814713
-120.52863 -44.610035 85.629333 8749174
-121.15058 -44.863876 85.085007 9341311
-114.14561 -43.563457 97.855652 10788244
-114.78627 -43.557037 97.472382 9867141
-115.24212 -43.837589 96.571609 9932166
-115.93624 -43.839836 95.736465 9866374
-116.68051 -43.845501 92.630905 8222579
-117.23572 -43.847359 91.926788 7630179
-117.78646 -43.849209 91.219193 9077369
-118.44181 -43.851421 90.365791 8287853
-119.09102 -43.853642 89.507675 9077368
-119.23244 -43.909935 88.49704 9274747
-119.50797 -44.018242 87.590515 10721166
-120.35397 -44.099693 86.881348 10064262
-113.66664 -42.450108 98.555237 9735555
-114.28922 -42.708042 98.135376 10196106
-114.96813 -42.786736 97.76091 10853012
-113.69752 -41.521 98.922127 9734787
-114.46897 -41.731594 98.446739 8814197
-113.09962 -40.462563 99.659027 7563618
-113.80122 -40.679634 99.216202 10853012
-114.49837 -40.862328 98.789825 7564643
-113.18156 -39.556011 99.990891 6905432
-113.91927 -39.754154 99.537628 9668738
-112.74304 -38.534756 100.63222 7038041
-113.47027 -38.638771 100.22295 7432032
-112.26301 -37.404087 101.33943 10853262
-112.98453 -37.721596 100.84524 8879987
-113.6657 -37.788521 100.47444 8682608
-112.34084 -36.498322 101.67308 11050641
-113.08056 -36.68858 101.22203 11248020
-111.75906 -35.656261 102.31281 9276029
-112.55125 -35.634876 101.92249 9012343
-111.21948 -34.218647 103.17638 7762277
-111.93159 -34.568256 102.67369 8025449
-112.59359 -34.894745 102.20575 9276029
-111.52666 -33.502602 103.31636 7103835
-112.22677 -33.635536 102.90885 6511954
-110.90616 -32.461468 104.04575 8089963
-111.62078 -32.661583 103.61508 8484977
-110.9741 -31.554163 104.37903 9603201
-111.72857 -31.735743 103.94185 10260873
-110.64192 -30.40255 105.13496 9800577
-111.12312 -30.725403 104.68074 9208442
-109.92572 -29.220692 106.7402 9537918
-110.15006 -29.519321 106.08722 10392969
-110.61448 -29.835638 105.61502 10261125
-104.12984 -28.28133 117.58974 9800324
-104.94295 -28.367287 117.19438 8089963
-104.99585 -28.794149 115.84475 8089963
-105.82957 -28.796492 115.08322 8091248
-106.38245 -28.798058 114.57239 9012350
-107.74328 -28.806332 110.3112 9735299
-108.40491 -28.80826 109.66042 9603201
-109.0629 -28.810186 109.00598 9800836
-109.10553 -28.958429 108.09108 9208443
-109.73472 -29.07548 107.3272 9406077
-103.57366 -27.336775 118.21434 8089963
-104.2409 -27.564621 117.82693 9274237
-104.90901 -27.793573 117.43879 9142651
-103.73687 -26.457397 118.4934 8418928
-104.38955 -26.747152 118.08784 8418928
-103.28684 -25.608091 119.03281 7959408
-104.00386 -25.645365 118.69955 8484722
-103.22289 -24.603662 119.46315 8485495
-104.00878 -24.766914 119.04905 9997960
-102.77172 -23.331322 120.1741 7630700
-103.42519 -23.624071 119.76678 8156530
-102.2994 -22.3162 120.79131 9868427
-102.97118 -22.537117 120.40462 7959920
-103.64375 -22.759108 120.0173 8681843
-102.36327 -21.476496 121.10016 10262928
-103.09252 -21.638845 120.71166 8156013
-101.6912 -20.37586 121.84023 9868427
-102.36456 -20.594362 121.45392 10262158
-103.03867 -20.81377 121.0669 8089963
-101.93584 -19.569149 122.0558 8879993
-102.66759 -19.741199 121.66223 8945272
-101.39201 -18.635742 122.67178 8287858
-102.10442 -18.516579 122.40379 8748918
-101.46882 -17.578564 123.06233 7169893
-102.169 -17.69883 122.70358 7367271
-100.97303 -16.371792 123.76685 8550513
-101.75565 -16.654064 123.30649 7695978
-100.45648 -15.334543 124.55208 12432037
-101.09229 -15.541203 124.11327 8550513
-101.73293 -15.749397 123.67991 9537150
-100.20116 -14.281919 125.7113 9076858
-100.73633 -14.776826 124.89697 8287342
-101.36502 -14.982728 124.44632 8089963
-94.721992 -13.413612 136.53407 9143165
-94.998085 -13.750967 135.18913 8485747
-95.647804 -13.752595 134.73015 9341054
-96.295326 -13.754224 134.26805 10262156
-99.271103 -13.862955 127.41257 8879479
-99.977722 -13.877552 127.05322 7563619
-94.241356 -12.464234 137.12624 9932166
-94.859535 -12.77077 136.73009 9931909
-93.663658 -11.377336 137.81631 9143166
-94.364845 -11.590477 137.42073 9142651
-93.174332 -10.154376 138.52162 7038307
-93.739861 -10.509826 138.12923 8747892
-94.350014 -10.779659 137.75133 7958376
-93.191261 -9.477046 138.78476 7695205
-93.964317 -9.5955391 138.39525 8813684
-92.851631 -8.113987 139.47984 10984593
-93.337929 -8.4765816 139.11971 9339771
-93.955269 -8.8072672 138.71431 8616305
-92.791672 -7.4996977 139.75185 9142649
-93.540001 -7.5074363 139.41759 8418927
-92.338707 -6.0594378 140.52794 10261132
-92.931763 -6.521172 140.08089 9997700
-93.480553 -6.8915963 139.68996 8089963
-92.361221 -5.4007463 140.7812 10261132
-93.139313 -5.5168285 140.39043 10984596
-91.737671 -4.4055381 141.45488 8814203
-92.446861 -4.6169643 141.05669 9011581
-93.156044 -4.8287897 140.65797 10261132
-91.964211 -3.5266585 141.70747 9274752
-92.732384 -3.6866908 141.30365 9669253
-91.504433 -2.4680614 142.33568 8419702
-92.185562 -2.5822234 141.98872 9603459
-90.90522 -1.0747 143.15993 8419702
-91.575935 -1.4948905 142.69475 8814202
-92.246071 -1.9154356 142.22963 9340289
-91.112663 -0.34197471 143.48375 8682356
-91.556206 -0.65782964 143.03944 9340287
-89.986671 0.6081202 144.76912 8089962
-90.701569 0.50142741 144.36467 8879478
-91.139214 0.18381038 143.90625 8879991
-84.590782 1.7535404 155.88841 9209467
-85.296249 1.6793132 155.54736 9735810
-89.569572 1.0370697 146.0497 7564651
-90.332253 1.0362091 145.71437 8879995
-84.157829 2.6355023 156.43179 10064519
-84.942856 2.6348586 156.08507 9801347
-84.11657 3.5201621 156.80348 12300966
-84.902893 3.5198493 156.45625 11840672
-83.681534 4.4081059 157.3502 9998727
-84.468971 4.4080739 157.00264 11182743
-83.163628 5.9695239 158.20253 10459278
-83.835815 5.5786471 157.74974 9735555
-84.480812 5.2250657 157.32378 11116951
-83.279472 6.6420269 158.42012 11380380
-83.983177 6.5976825 158.09178 9801092
-83.632454 7.5420876 158.62392 9866886
-84.187294 7.3172565 158.28917 10985367
-83.709244 8.3701229 158.92079 8682867
-83.707298 9.1253395 159.2234 8682867
-146.03629 -73.305183 37.663311 8616822
-146.21007 -73.325752 37.145382 5920074
-146.35771 -73.334084 36.620598 5920074
-144.39651 -72.419128 40.408966 7301214
-144.82446 -72.682884 39.715454 7630183
-145.3979 -72.759727 38.948311 8616822
-145.93155 -72.860344 38.198185 8813944
-146.6261 -72.759621 37.383736 6643542
-147.15631 -72.904617 36.496437 6709333
-147.47821 -73.084694 35.46917 8090475
-147.89536 -73.038788 34.741177 9406080
-148.29553 -73.00119 33.706478 8616822
-148.75734 -72.899544 32.870342 9077373
-149.26263 -72.822037 32.040424 9341059
-149.59384 -72.731598 31.107302 10525331
-150.21056 -72.640099 30.35586 8288371
-150.47632 -72.542038 29.184896 8288371
-151.22853 -72.48217 28.481302 8551543
-151.3027 -72.438942 27.553019 7564651
-152.01176 -72.344627 26.642366 7959409
-143.37105 -71.29174 42.363335 6511954
-143.90453 -71.604927 41.505829 6249039
-144.44736 -71.839676 40.684681 6643540
-145.06674 -71.705894 39.983303 6117456
-145.69559 -71.816139 39.126785 7367014
-146.31454 -71.903152 38.296402 7235425
-146.69803 -72.086861 37.705753 6577749
-152.23215 -72.238991 25.454718 6511954
-153.16681 -72.15921 24.852621 8616818
-153.14696 -72.069496 23.714994 10459022
-154.07475 -71.973747 22.908937 10854036
-154.04582 -71.899162 21.957518 9933193
-154.97643 -71.817345 21.328482 8618104
-154.92859 -71.727982 20.182329 11380639
-155.85706 -71.645142 19.539755 14275266
-155.79498 -71.555946 18.389589 12431781
-156.72118 -71.472107 17.733377 9144186
-156.65825 -71.397881 16.771444 8683125
-157.59744 -71.328003 16.295835 8420470
-140.76984 -70.367844 47.373543 7039331
-141.03252 -70.415131 46.895443 8157811
-141.47057 -70.495888 46.097023 10327950
-141.99664 -70.595802 45.13633 10130057
-142.592 -70.507751 44.193493 11051411
-143.03134 -70.596283 43.387718 7235420
-143.43192 -70.771942 42.621601 6511954
-144.21864 -70.731323 41.622658 6512212
-144.76111 -70.826355 40.883881 7104350
-145.38809 -70.78791 40.11694 6249298
-145.9622 -71.055199 39.237305 6249038
-157.55426 -71.283401 15.716289 8420470
-157.8177 -71.210442 14.910789 8157298
-158.3994 -71.123596 14.068095 8879989
-158.80969 -71.035835 13.140285 11511449
-159.21465 -70.948799 12.209498 8814200
-159.64137 -70.877419 11.468631 7761772
-160.04236 -70.791626 10.529151 8485238
-160.948 -70.691055 9.6150732 8681843
-160.85823 -70.63372 8.832427 9010807
-161.75984 -70.532173 7.9048452 8681843
-161.66136 -70.474937 7.1196356 10260875
-162.55879 -70.372498 6.1782331 9866374
-138.94633 -69.361809 51.178345 6642516
-139.30739 -69.517677 50.456055 6379344
-139.74544 -69.58773 49.665047 7760741
-140.2713 -69.674706 48.713478 7367268
-140.79738 -69.764969 47.759148 7039331
-141.3038 -69.651978 46.983948 7368296
-141.74315 -69.732048 46.184174 10591122
-142.27068 -69.831177 45.221756 9143418
-142.81839 -69.773605 44.337574 9932933
-143.32458 -69.696487 43.537483 9800832
-143.84532 -69.74173 42.688435 6905943
-144.39574 -69.801018 41.945229 6314835
-144.92317 -69.921249 41.210506 6644058
-145.38596 -70.152252 40.492325 7039331
-162.93907 -70.284225 5.2095518 7826791
-163.31622 -70.197662 4.2378378 8287085
-163.66393 -70.100258 3.4578161 10260875
-164.07764 -70.032349 2.4780188 8156530
-164.82635 -69.868332 1.8933325 7958892
-165.17494 -69.773064 0.90241909 9011324
-165.52962 -69.683022 -0.092476852 8551027
-166.03603 -69.536156 -0.89302158 8353651
-166.22395 -69.5009 -2.0951548 8156273
-136.61192 -68.545166 55.711487 7104098
-137.12317 -68.477478 54.895409 8682356
-137.48915 -68.65699 54.147869 10195595
-138.01544 -68.728271 53.206676 7234653
-138.54181 -68.802803 52.263153 6510930
-139.08611 -68.723381 51.399635 6708309
-139.53412 -68.711647 50.650398 6839895
-140.08478 -68.688087 49.73608 7037274
-140.60696 -68.723137 48.827919 6906203
-141.06523 -68.858192 47.956364 7039331
-141.55478 -68.683357 47.254562 9342084
-142.08363 -68.778046 46.292999 14538700
-142.6813 -68.685143 45.349781 8025968
-143.12291 -68.769096 44.543335 7565675
-143.56006 -68.803307 43.780178 8155240
-144.11172 -68.869736 42.860111 8615790
-166.82997 -69.147705 -1.8025599 8682359
-167.11452 -69.07151 -2.8454447 7761772
-167.42268 -68.964478 -3.6577539 8550772
-167.82431 -68.817795 -4.6105127 8287591
-168.22557 -68.62178 -5.4466028 7169882
-168.45847 -68.660271 -6.4902277 8353388
-136.33392 -67.593925 56.517281 7696236
-136.87091 -67.78923 55.815323 6643802
-137.319 -67.765594 55.074493 6577492
-137.81546 -67.710838 54.274189 9011321
-138.39661 -67.703674 53.296505 9011064
-138.93715 -67.665619 52.409687 7760997
-139.37741 -67.72924 51.61953 7958376
-139.81779 -67.795219 50.827496 8418671
-140.35938 -67.764725 49.933491 7037531
-140.9425 -67.772469 48.942326 7498341
-141.38393 -67.845833 48.143898 7038307
-141.77663 -67.953545 47.403038 8288373
-142.28777 -68.206039 46.358288 14210248
-167.96718 -68.301514 -3.7382212 8813945
-168.20683 -68.163773 -4.3520517 6972503
-168.59639 -67.89785 -5.2972116 6314831
-168.92715 -67.836594 -6.339776 8156266
-169.07463 -67.832077 -7.3163538 9603202
-169.26387 -67.600105 -8.1223993 8945272
-135.73952 -66.413231 57.395435 9669765
-136.48802 -66.696686 56.809849 7893615
-137.17076 -66.645752 56.127743 7630443
-137.61198 -66.699005 55.343456 7893355
-138.10306 -66.810013 54.433453 9077114
-138.58327 -66.981834 53.498238 9471872
-139.20045 -66.90815 52.507294 9405822
-139.64182 -66.971191 51.715744 8484464
-139.90668 -67.010086 51.240028 7563618
-169.16447 -67.12207 -6.2137995 8484976
-169.46812 -66.775864 -7.2473307 9011065
-169.56326 -66.833313 -8.2744684 9076858
-169.7173 -66.669281 -9.1018152 8090989
-135.96111 -65.595322 57.615654 7498341
-136.64551 -65.803558 57.105621 9867402
-169.79967 -65.942612 -7.4675989 8616307
-169.85704 -65.976685 -8.085 8024170
-170.03044 -65.823921 -9.1199121 7959147
-170.22334 -65.598274 -10.090234 8090989
-135.43228 -64.569565 58.386234 7563362
-136.08632 -64.751312 57.906322 7300704
-170.15007 -65.2061 -8.1686182 8353131
-170.40274 -64.755463 -8.9356928 9011057
-170.49806 -64.814827 -9.9703531 7564391
-170.61272 -64.801498 -10.939439 7695977
-134.89737 -63.416927 59.215775 10853012
-135.46361 -63.721146 58.73632 8221807
-136.31532 -63.869961 58.149643 8485237
-170.65672 -64.133133 -9.1559 9208435
-170.79247 -63.957081 -9.7824183 7761512
-170.95134 -63.861835 -10.876504 8550514
-171.15959 -63.581573 -11.804383 8616307
-134.44891 -62.430244 59.92004 8879735
-134.95358 -62.750423 59.471436 12892846
-135.77818 -62.783535 58.95163 8090736
-171.04672 -63.334553 -10.004563 9208435
-171.28847 -62.860378 -10.599092 9471613
-171.43492 -62.796967 -11.686273 9142651
-171.54985 -62.785107 -12.662972 9734788
-134.58208 -61.694107 60.158855 10589837
-135.29526 -61.720329 59.710426 11708316
-171.59389 -62.113117 -10.86789 9142651
-171.72545 -61.987335 -11.624093 8879479
-171.89003 -61.866634 -12.689439 9471872
-172.02617 -61.763905 -13.560807 8946296
-134.07651 -60.519024 61.118649 10130056
-134.74913 -60.789902 60.504284 9866371
-135.20522 -60.89838 60.123348 9866371
-171.98387 -61.314255 -11.725762 9142651
-172.15114 -61.105743 -12.487626 8221805
-172.47205 -60.767262 -13.513764 8156523
-172.55896 -60.792225 -14.413079 8485745
-172.6981 -60.702812 -15.122994 9735812
-132.49536 -59.236004 63.758202 6511954
-133.08305 -59.329685 63.057076 7169884
-133.67773 -59.688354 62.105301 6511954
-134.45798 -59.880264 61.44455 8880247
-172.87314 -60.233418 -13.462029 8090987
-173.00737 -60.184464 -14.311395 9143419
-173.34523 -59.908356 -15.2333 9603198
-173.51166 -59.817936 -16.248644 9208441
-174.20865 -59.476036 -16.949625 8287342
-174.37938 -59.451099 -18.026758 8813686
-126.41261 -58.563324 76.084641 10065803
-126.95059 -58.686951 75.526489 8947325
-127.05359 -58.88744 74.505341 7038307
-127.49921 -58.889225 73.738907 8617081
-128.028 -58.891357 72.815651 11248025
-128.55008 -58.89349 71.888672 10063747
-129.06548 -58.895611 70.957939 7695202
-129.57414 -58.897739 70.023483 10852750
-129.993 -58.899502 69.242119 7563619
-130.40683 -58.901264 68.457977 7563619
-130.89737 -58.903378 67.513885 8880246
-131.3811 -58.905479 66.566315 9867141
-131.85799 -58.907581 65.615288 7762022
-132.35788 -58.957108 64.872818 8090986
-132.94864 -59.048969 64.17276 7169885
-133.65749 -59.161152 63.328499 9341054
-175.12502 -59.21294 -17.891069 9011065
-175.12546 -59.244133 -18.743784 8747893
-175.58073 -59.186947 -19.648417 8879479
-175.94002 -59.099148 -20.547281 8813686
-177.19963 -59.103764 -22.426767 8024170
-177.08983 -59.104858 -23.279978 8287342
-178.46184 -59.108425 -24.335596 9010550
-178.3421 -59.109516 -25.19462 8681842
-125.82017 -57.427956 77.003616 10460304
-126.45237 -57.759365 76.469612 10065803
-127.17963 -57.756382 76.023575 8157811
-125.27465 -56.42691 77.777412 8092019
-125.93382 -56.598717 77.296722 9078655
-126.71721 -56.828159 76.714401 10920854
-125.36046 -55.547527 78.107422 9407619
-126.08374 -55.745052 77.578262 9407619
-124.8662 -54.621639 78.774734 7564651
-125.62047 -54.620922 78.354248 10196877
-126.25669 -54.944111 77.822525 12696492
-124.56806 -53.414845 79.42482 9735302
-125.16523 -53.673721 79.0131 8880251
-125.62955 -54.000683 78.6213 8814971
-124.565 -52.612625 79.758423 10590353
-125.42582 -52.750576 79.26339 10392971
-124.06138 -51.509533 80.469307 7499106
-124.80759 -51.742756 79.996109 11379609
-124.16894 -50.593163 80.794357 8683382
-124.90379 -50.71265 80.373978 11445916
-123.60779 -49.551975 81.508614 10985880
-124.31396 -49.751862 81.069443 8091761
-123.06561 -48.402054 82.258301 11379356
-123.77008 -48.629745 81.808487 9472387
-124.38654 -48.816879 81.419891 7565675
-123.08938 -47.59948 82.578575 10392461
-123.83768 -47.778023 82.126923 9734531
-122.73219 -46.592609 83.175705 7563618
-123.43163 -46.634216 82.805443 8089962
