# .PCD v0.7 - Point Cloud Data file format
VERSION 0.7
FIELDS x y z rgb
SIZE 4 4 4 4
TYPE F F F U
COUNT 1 1 1 1
WIDTH 1197
HEIGHT 1
VIEWPOINT 0 0 0 1 0 0 0
POINTS 1197
DATA ascii
45.442833 -28.133142 -180.13329 14077894
46.26516 -28.107948 -179.76038 13813949
47.086025 -28.08338 -179.38792 11051668
48.110065 -28.053627 -178.92296 10985621
49.132103 -28.024847 -178.4585 9801351
49.948193 -28.002516 -178.08736 9998215
50.762951 -27.980879 -177.71655 10129801
51.779667 -27.954676 -177.25352 9406850
52.794621 -27.929417 -176.79088 8814710
53.605221 -27.909941 -176.4212 8814710
54.414707 -27.891142 -176.05171 10261386
55.40118 -28.0874 -175.51344 10064009
56.409565 -28.065531 -175.05255 10261132
57.215099 -28.048752 -174.68408 9932166
57.989471 -27.945992 -174.36467 9998215
59.049458 -27.794895 -173.93166 10721682
60.053032 -27.776632 -173.47151 9932678
60.85495 -27.762718 -173.10361 9604225
61.656025 -27.749456 -172.73587 9736836
31.666437 -27.06517 -185.24031 9209467
32.351631 -27.081078 -185.24239 8880759
33.40094 -27.150879 -185.22888 8946808
43.64373 -27.527729 -181.21469 9603195
44.677006 -27.495195 -180.74626 12300968
45.501816 -27.469873 -180.37218 12827570
46.32518 -27.445206 -179.99861 13023917
47.352276 -27.415293 -179.53221 10788753
48.398232 -27.165524 -179.14534 9999496
49.216984 -27.143209 -178.77293 9603969
50.034454 -27.121572 -178.40089 9866885
50.850567 -27.100487 -178.02919 10129801
51.869007 -27.075077 -177.56509 9603970
52.885654 -27.050571 -177.10144 9538433
53.697655 -27.031643 -176.7308 8814710
54.50848 -27.013313 -176.36049 9998984
55.520496 -26.991314 -175.89799 9011577
56.530994 -26.970163 -175.43582 8682612
57.338257 -26.953989 -175.06636 9471872
58.144562 -26.938395 -174.69708 10458510
59.151085 -26.919748 -174.23576 10392973
60.156357 -26.901987 -173.77467 9143418
60.959599 -26.888472 -173.40591 9143419
61.96249 -26.872444 -172.94527 9736836
62.843845 -27.139383 -172.42757 10460559
63.737606 -27.064167 -172.04149 12827823
64.537239 -27.053194 -171.67346 9735299
65.535851 -27.040392 -171.21349 8682355
66.56218 -26.810331 -170.82788 9538177
67.360077 -26.801523 -170.45978 10129802
68.157478 -26.793262 -170.09166 10261132
69.153526 -26.783817 -169.63152 10195595
70.092674 -26.703089 -169.22656 8485489
70.975266 -26.551025 -168.87654 9209467
71.970032 -26.544163 -168.41589 10262156
72.964378 -26.538116 -167.95528 9867398
73.560738 -26.534927 -167.67876 9010808
30.820066 -25.925861 -185.64731 11905692
31.492231 -26.164734 -185.5677 13551287
32.407207 -26.185066 -185.5708 9735811
33.08017 -26.425066 -185.49071 9209467
52.95406 -26.390209 -177.3347 9538433
53.76709 -26.37175 -176.9635 9538433
54.578968 -26.353798 -176.59253 10129801
55.592281 -26.332298 -176.12923 9801093
56.604061 -26.311644 -175.66628 7564643
57.437046 -26.07608 -175.37288 9669250
58.370792 -26.014786 -174.9626 10787219
59.328472 -26.085289 -174.48822 10327180
60.25985 -26.025517 -174.07838 9406334
61.064503 -26.012398 -173.70891 9143163
62.069096 -25.996796 -173.24725 9604994
63.072628 -25.98204 -172.7858 10195847
63.874607 -25.970901 -172.4167 9603711
64.675941 -25.96031 -172.0477 9274747
65.676666 -25.947941 -171.58661 9406334
66.676575 -25.936417 -171.12556 9735812
67.475853 -25.927828 -170.7567 9735812
68.27462 -25.919771 -170.38788 10261132
69.272324 -25.910587 -169.92686 10064777
70.269463 -25.902182 -169.46582 8288110
71.066734 -25.89617 -169.09691 8814709
72.062782 -25.889423 -168.63567 9604225
73.058403 -25.883461 -168.17435 9867398
73.85453 -25.879402 -167.80516 9406591
74.650482 -25.875868 -167.43587 10392460
75.645096 -25.872263 -166.97403 10918545
76.639511 -25.869511 -166.51201 8682867
77.379707 -25.795265 -166.19704 9077368
78.462654 -25.648485 -165.75159 9274749
79.457184 -25.648136 -165.2885 9011579
80.252792 -25.6485 -164.91782 9077115
80.849541 -25.649061 -164.6396 8682867
30.496569 -25.200792 -185.90891 10459018
31.559782 -25.04274 -185.97891 12301479
32.233574 -25.282156 -185.89911 9209467
61.344593 -25.351044 -173.84409 9340798
62.1492 -25.338881 -173.47406 9472640
63.153996 -25.324455 -173.01195 9274747
63.957012 -25.313562 -172.64229 8682867
64.759323 -25.303225 -172.27277 8682867
65.789627 -25.071819 -171.88582 9670019
66.791206 -25.060621 -171.42381 9735812
67.591835 -25.052233 -171.05428 9406847
68.39196 -25.044449 -170.68477 9801861
69.391434 -25.035467 -170.22281 10065033
70.390289 -25.027327 -169.76085 7695973
71.188873 -25.021389 -169.39128 7827815
72.186653 -25.014814 -168.92917 8880503
73.183952 -25.009048 -168.46701 9538433
73.981483 -25.005037 -168.09709 8617075
74.778824 -25.001551 -167.72711 9603199
75.775162 -24.998047 -167.26451 9274747
76.771271 -24.995289 -166.80165 8682867
77.568054 -24.993729 -166.43118 9472126
78.477448 -25.036373 -165.99048 9143164
79.447029 -24.948448 -165.57423 9735041
80.356407 -24.992479 -165.133 8748661
81.153069 -24.993387 -164.76149 9209211
82.149086 -24.995272 -164.29686 9603969
83.145218 -24.997944 -163.83189 9209212
83.94236 -25.000683 -163.45947 8024427
84.685402 -24.930721 -163.14149 7563619
85.773552 -24.789858 -162.69118 8287085
86.771461 -24.795553 -162.2242 7827302
87.570023 -24.800663 -161.85014 7433057
28.662489 -23.636494 -186.46002 9208435
29.612555 -24.047775 -186.32053 9800572
30.696733 -24.124788 -186.30482 10064777
31.384428 -24.138546 -186.30763 11512220
69.68103 -24.376287 -170.35266 10065033
70.48101 -24.369953 -169.98259 8880503
71.280678 -24.364162 -169.61243 7959657
72.279732 -24.35771 -169.14973 8420208
73.309799 -24.132715 -168.76027 8222573
74.108742 -24.128801 -168.38974 7695461
74.907417 -24.125387 -168.01912 9076857
75.90551 -24.121912 -167.55568 8682867
76.903397 -24.119244 -167.09192 9143418
77.701508 -24.117655 -166.72079 9143675
78.49958 -24.116617 -166.34953 9143164
79.497177 -24.116066 -165.8851 9669248
80.494766 -24.11627 -165.42039 8682867
81.292824 -24.117079 -165.04836 8682867
82.290581 -24.118818 -164.58295 9340798
83.288521 -24.121355 -164.11713 9143167
84.087036 -24.123964 -163.74417 7761771
84.88578 -24.12715 -163.37086 8089963
85.884537 -24.131807 -162.90376 8353135
86.88372 -24.137291 -162.4362 8945015
87.746178 -24.010643 -162.08534 7893608
88.521736 -23.927879 -161.7574 7893611
89.522865 -23.93549 -161.28802 7959406
90.524635 -23.943806 -160.81808 7893615
91.326576 -23.951107 -160.44164 8551285
92.168922 -23.738781 -160.13455 10260357
93.173332 -23.749184 -159.66257 10589065
94.178581 -23.760347 -159.18985 7630184
94.930183 -23.69557 -158.86581 7827822
95.830673 -23.559269 -158.5011 8879995
96.839249 -23.572508 -158.02605 8617080
97.848938 -23.586491 -157.55017 9011576
27.796309 -22.720407 -186.78525 11708313
28.610281 -22.914497 -186.72359 11182225
29.704672 -23.023977 -186.69609 12235430
30.519869 -23.219465 -186.6339 10591380
77.202477 -23.460527 -167.21718 9538433
77.801811 -23.459387 -166.93845 9538433
78.600945 -23.458345 -166.56671 9735298
79.599785 -23.457758 -166.10162 9077368
80.688492 -23.31143 -165.65337 9209468
81.432869 -23.238846 -165.33578 9341054
82.345268 -23.284279 -164.89255 9275006
83.319244 -23.198568 -164.47336 9011837
84.268341 -23.025236 -164.10089 8617080
85.068893 -23.02816 -163.72687 9011323
86.069885 -23.032576 -163.25887 9734531
87.071312 -23.037737 -162.79039 9010808
87.847908 -22.954062 -162.46225 8747892
88.712975 -22.82732 -162.11024 8222577
89.716362 -22.834496 -161.64001 7959407
90.720421 -22.842371 -161.16917 8222834
91.524216 -22.849215 -160.79202 9472125
92.328506 -22.856642 -160.41444 9405819
93.33477 -22.866619 -159.94176 9011575
94.341911 -22.8773 -159.46838 8814456
95.148338 -22.886469 -159.08911 8617080
95.955482 -22.896133 -158.70929 8419702
96.965462 -22.908947 -158.23376 7169376
97.97654 -22.922508 -157.75739 7432288
98.786392 -22.933941 -157.37558 9011576
99.597038 -22.945873 -156.99324 6510930
100.52161 -23.004686 -156.53891 9471352
101.46856 -22.7526 -156.19914 10655369
102.48626 -22.769554 -155.71832 10984078
103.30155 -22.783678 -155.33292 10261128
104.118 -22.798302 -154.94681 10851980
27.603018 -22.040226 -187.03186 11840158
28.748392 -22.058861 -187.03816 11708313
29.653368 -22.300283 -186.96022 13682621
88.024666 -22.160555 -162.69859 9341055
88.828003 -22.165453 -162.32237 7827821
89.832771 -22.172421 -161.85165 8222577
90.931496 -22.033072 -161.39586 9210238
91.682739 -21.965429 -161.07315 9275517
92.488564 -21.972496 -160.69495 9011575
93.407806 -22.025499 -160.24551 9603198
94.392639 -21.94668 -159.81847 9209467
95.31353 -22.000992 -159.36777 9997961
96.122185 -22.010258 -158.98741 9077374
96.931534 -22.019943 -158.60654 7497825
97.944366 -22.032801 -158.12962 6971481
98.958366 -22.046406 -157.65189 6774358
99.770531 -22.057838 -157.269 5196611
100.58364 -22.06979 -156.8855 6183247
101.60137 -22.085447 -156.40518 10392197
102.62049 -22.101805 -155.92395 10392714
103.437 -22.115452 -155.53815 10129799
104.32289 -21.996418 -155.17336 10851980
105.11923 -21.92095 -154.83276 10194307
106.14474 -21.939827 -154.3475 7892837
107.10999 -21.8612 -153.85115 8156011
107.7073 -21.488962 -153.45366 8287342
26.813761 -21.048649 -187.3855 8618105
27.879477 -21.140081 -187.36427 10525071
28.785173 -21.380705 -187.28658 8092019
94.830826 -21.329147 -159.86237 9209467
95.437645 -21.335537 -159.57715 9274750
96.247429 -21.344475 -159.19635 9011066
97.057945 -21.353909 -158.81512 8221292
98.187553 -21.189293 -158.35509 8221292
99.130775 -21.156769 -157.92882 5788490
99.944481 -21.167702 -157.54541 4012852
100.75915 -21.179127 -157.16141 4802366
101.61901 -20.967737 -156.84578 8353644
102.64042 -20.983097 -156.36391 10261385
103.66326 -20.999182 -155.88101 10392714
104.46012 -20.922398 -155.54071 9998213
105.34956 -20.802612 -155.17456 11378324
106.17175 -20.816801 -154.78592 8616302
107.16894 -20.829069 -154.25284 5920074
108.01215 -20.81255 -153.49869 8879479
108.54894 -20.575932 -153.09158 8813686
25.942442 -20.130541 -187.71173 11905444
26.779238 -20.217606 -187.68925 8881020
27.697309 -20.230658 -187.69484 8881020
104.87129 -20.119938 -155.67142 9537150
105.48804 -20.129963 -155.38011 11181458
106.31145 -20.143673 -154.99118 7695714
107.31005 -20.155472 -154.45744 6709590
108.11299 -19.872149 -153.87888 9471872
108.85491 -19.898619 -153.13602 8813686
109.39206 -19.662401 -152.72832 8813686
24.333044 -18.597269 -188.25514 7564643
25.049952 -18.969242 -188.127 11905950
25.917551 -19.070858 -188.09953 12432038
26.905317 -19.235313 -188.05045 10853778
108.3917 -19.014502 -154.04208 9077370
109.04594 -18.999077 -153.40672 8353135
109.66078 -18.910383 -152.84738 7629411
23.998949 -17.865438 -188.51942 8353901
25.053064 -17.92268 -188.51036 9537918
25.892363 -18.008404 -188.48837 8682867
108.69837 -18.33411 -154.08737 7169373
109.23745 -18.097286 -153.67809 8353135
109.89167 -18.082941 -153.04219 6906463
110.50665 -17.995012 -152.48241 5920082
23.336397 -16.916203 -188.8596 10326923
24.175577 -17.000738 -188.83812 7433315
25.015402 -17.085737 -188.81645 9209210
109.54525 -17.415871 -153.72278 7169893
110.14649 -17.042904 -153.32178 6775391
110.78753 -16.939846 -152.74405 5656910
111.52804 -16.775394 -152.09978 7300963
22.170427 -15.849054 -189.36359 8880758
23.161966 -16.126249 -189.19574 9800837
24.141333 -16.165312 -189.18338 8354419
110.98218 -16.034077 -153.01425 6709342
111.81612 -15.844426 -152.39279 8090477
112.60853 -15.678258 -151.79086 8617072
113.31478 -15.557552 -151.22499 5920074
20.404165 -14.944951 -190.03293 7565675
21.218523 -15.129159 -189.90024 7631467
22.218298 -15.292987 -189.78491 7762795
23.129923 -15.411897 -189.70308 7039331
112.86005 -15.127484 -152.13057 8485231
113.70429 -14.850676 -151.59474 6972505
114.41831 -14.810627 -150.93495 5920074
115.03785 -14.655848 -150.50148 8682867
0.3041409 -14.056812 -198.34628 9210491
1.0162991 -14.051073 -198.27429 8419696
1.9652585 -14.043622 -198.17834 9800581
2.9133098 -14.036526 -198.08235 9932678
7.7900686 -14.324215 -195.23138 10787726
8.4912024 -14.323342 -195.20341 12826795
9.4260054 -14.322172 -195.16238 11379863
10.12691 -14.321294 -195.1288 9209467
17.737341 -14.530098 -191.02304 7038307
18.428789 -14.533411 -191.01653 9735812
19.581896 -14.539363 -191.00458 10591377
116.60502 -14.266118 -150.67336 8682867
117.27216 -14.258439 -150.04604 12235684
117.93809 -14.251061 -149.41876 11905692
131.5966 -14.116768 -144.45668 7564643
132.11354 -14.115597 -143.98218 7761509
132.95714 -13.888519 -143.5157 7366495
133.627 -13.810911 -142.97461 7695204
134.4532 -13.657072 -142.37119 6510930
-1.6051456 -12.63574 -199.06708 9012344
-0.88771546 -13.109689 -198.8183 10525583
0.065150112 -13.341458 -198.63399 9210491
1.0162457 -13.334031 -198.53778 9209979
1.966441 -13.326953 -198.44159 9603969
2.6778438 -13.560789 -198.2816 9932678
133.39793 -13.190066 -143.64688 10064265
133.95927 -12.951469 -143.21684 9143163
134.62973 -12.948728 -142.55919 6643284
135.19157 -12.710455 -142.12851 11380374
-2.5667164 -11.681215 -199.51782 8092019
-1.8477298 -11.916417 -199.35663 11447204
-0.89124024 -12.149454 -199.17155 14210247
0.062884182 -12.142347 -199.07489 10263179
0.93672454 -12.456225 -198.86865 9210491
134.36198 -12.003864 -143.3045 7367005
134.86566 -12.001936 -142.81039 6643539
135.53716 -11.999517 -142.15163 6972761
136.10023 -11.760889 -141.71994 7038298
-3.5326817 -10.723101 -199.97047 8092019
-2.8112233 -10.959321 -199.80864 9539466
-1.852933 -10.952335 -199.71153 14605787
-0.8956424 -10.945574 -199.61443 15329250
-0.17780033 -11.181774 -199.45299 11381404
135.13866 -11.13138 -142.98634 8287850
135.77498 -11.049973 -142.40244 7630177
136.4474 -11.047901 -141.74248 7038298
137.0117 -10.808722 -141.3098 7564643
-4.6622515 -9.9238997 -200.38168 8155498
-3.7792943 -9.9984112 -200.26248 9275522
-2.674474 -9.9423399 -200.16812 12105652
-1.6171848 -10.225784 -199.95398 15987441
136.04973 -10.176881 -142.5779 8813938
136.68715 -10.095553 -141.99281 7696229
137.36067 -10.093728 -141.33173 9998469
137.92628 -9.8540468 -140.89799 11511449
-5.4727678 -9.2819777 -200.70189 6510930
-4.5099688 -9.1132107 -200.66374 7037274
-3.4504826 -9.0737762 -200.56804 10130057
-2.5829365 -9.2626705 -200.40839 10986913
136.96376 -9.2198744 -142.16785 10590349
137.66286 -8.8990793 -141.64432 12169122
138.33783 -8.8974504 -140.98163 10524555
139.03804 -8.577034 -140.45688 9077626
138.07445 -7.9399338 -141.7292 9537918
138.6427 -7.6984468 -141.29399 9209213
139.31911 -7.6970153 -140.62984 8288627
139.82646 -7.6960282 -140.13162 6510930
138.99559 -6.9763494 -141.31578 8288627
139.5652 -6.7342105 -140.87953 9209215
140.24284 -6.7329006 -140.21411 6510930
140.81334 -6.4908834 -139.77702 6510930
139.98181 -5.7679577 -140.96341 8288627
140.49097 -5.7669668 -140.46342 7104094
141.16988 -5.765729 -139.79675 5919817
141.74176 -5.522984 -139.35849 9735038
140.77583 -4.8785939 -140.63707 6840667
141.42003 -4.7965178 -140.04575 5393730
142.10023 -4.7953024 -139.37773 8090471
142.67369 -4.5516796 -138.93854 7564384
141.70689 -3.9050922 -140.21893 6117196
142.35251 -3.8227637 -139.62637 6446161
143.03407 -3.8215442 -138.95705 7564385
143.60898 -3.5770686 -138.51671 8813939
142.54218 -3.0913036 -139.81343 8024935
143.19868 -2.7968717 -139.31848 7432799
143.97142 -2.8443053 -138.53474 8813939
144.548 -2.5989511 -138.09323 7038298
143.47969 -2.1114902 -139.39215 9011573
144.13805 -1.815935 -138.89598 10524298
144.91234 -1.8634349 -138.11067 9932163
144.42082 -1.1280211 -138.96933 11379608
145.04845 -0.88080913 -138.57352 9472641
145.79181 -0.75617337 -137.95387 8354159
146.53584 -0.63158619 -137.33366 7564643
34.826038 -27.814503 -185.00246 9735046
35.478298 -28.0401 -184.81346 8353908
36.321888 -28.007347 -184.43349 11116954
37.163521 -27.975275 -184.05421 9537665
38.116333 -27.828585 -183.66928 8089963
39.27647 -27.675364 -183.19037 9142651
40.111965 -27.64587 -182.81294 10524816
40.945721 -27.617033 -182.436 11906725
41.777763 -27.588852 -182.05965 9933191
42.40073 -27.568073 -181.77776 10591121
33.968143 -26.895313 -185.32886 9735812
34.641632 -27.136461 -185.24841 10261133
35.540268 -27.144438 -185.14548 8090737
36.385319 -27.112658 -184.76448 9143167
37.357906 -27.032263 -184.34366 9274237
38.360119 -27.085293 -183.85522 8484721
39.327816 -27.006559 -183.43596 10524047
40.164375 -26.977718 -183.05775 8880247
40.999222 -26.949451 -182.68005 10591121
41.832317 -26.921917 -182.30298 9341054
42.8633 -26.983484 -181.79767 9471868
43.907825 -26.855661 -181.3624 9734781
44.735207 -26.830309 -180.98706 10853263
45.561115 -26.805557 -180.6122 12893874
46.310089 -26.857172 -180.24231 12433065
47.393238 -26.97333 -179.69072 10788753
33.647747 -26.168642 -185.59102 9472385
34.701397 -26.238569 -185.57756 8353909
35.602379 -26.246801 -185.47826 8879995
36.448841 -26.215967 -185.09622 9340284
37.504116 -26.178394 -184.6196 9866114
38.556606 -26.141733 -184.14391 8353135
39.396404 -26.11311 -183.76405 8879479
40.234432 -26.085112 -183.38481 8353135
41.070644 -26.057793 -183.00612 9341054
42.033836 -25.982513 -182.58757 11051671
43.025364 -26.040443 -182.10216 9867137
43.984241 -25.96682 -181.68498 9077107
44.813015 -25.942211 -181.3087 10129539
45.640316 -25.918184 -180.93285 13091766
46.596798 -25.964804 -180.46825 10327947
47.521877 -26.141916 -179.96579 10262666
48.503124 -26.060177 -179.54146 10195594
49.32362 -26.038656 -179.16779 10524047
50.142746 -26.017757 -178.79449 9801092
51.108181 -26.048956 -178.33203 10459022
52.162495 -26.188805 -177.78447 9867397
52.999798 -25.949436 -177.49051 10262156
53.813461 -25.931177 -177.11876 9472127
54.82896 -25.909222 -176.65462 10129801
55.842857 -25.888165 -176.1908 9735043
56.652821 -25.871965 -175.82002 7959401
32.84156 -25.005777 -186.00714 9012088
33.855366 -25.092447 -185.98706 8288366
34.679501 -25.412031 -185.87967 8617076
37.975193 -25.491051 -184.67706 10984078
38.607021 -25.469757 -184.39122 8089963
39.447956 -25.441809 -184.01057 8089963
40.287018 -25.414461 -183.63052 8616307
41.124348 -25.387768 -183.25113 10787732
42.168468 -25.355247 -182.77762 10919826
43.229015 -25.10041 -182.38612 10788237
44.060822 -25.075974 -182.00835 9603708
44.890976 -25.052143 -181.631 9537919
45.719658 -25.028887 -181.25423 10327692
46.753307 -25.000648 -180.78391 8945784
47.784859 -24.973269 -180.31419 10129800
48.608425 -24.952019 -179.939 9669250
49.430603 -24.931349 -179.56412 9471871
50.251499 -24.911251 -179.18971 10853011
51.324596 -24.980385 -178.66174 9998983
52.275463 -25.084585 -178.17665 9472639
53.091656 -25.06632 -177.80368 9735812
53.906662 -25.048594 -177.43098 9011321
54.923817 -25.027311 -176.96556 9142650
55.939365 -25.006826 -176.5005 9208699
56.750641 -24.991089 -176.1288 8354159
57.510475 -25.064785 -175.74512 8617075
58.547108 -25.177959 -175.21654 9735043
59.556831 -25.160519 -174.75317 9998471
60.363628 -25.147219 -174.38277 9604226
61.11121 -25.062283 -174.06866 9472384
62.202606 -24.899691 -173.6256 9801347
63.208336 -24.885466 -173.16295 9274747
64.012001 -24.874723 -172.79289 8682867
64.815033 -24.864531 -172.42302 9274747
31.708578 -23.844221 -186.41904 9933190
32.776806 -23.941113 -186.39587 9077881
33.683308 -24.186102 -186.31671 9537918
47.847069 -24.306322 -180.55396 9538178
48.671711 -24.285646 -180.17798 9932166
49.494968 -24.265471 -179.80249 9011576
50.522114 -24.241064 -179.33366 10326920
51.547329 -24.217476 -178.86542 9998983
52.388813 -23.977493 -178.56993 9604225
53.20668 -23.959957 -178.19585 9734271
54.023438 -23.942968 -177.82208 9470843
55.042732 -23.922476 -177.35533 9405822
56.060444 -23.902815 -176.88896 9932422
56.873425 -23.887684 -176.5162 9275004
57.71096 -24.004776 -176.07867 8814197
58.673626 -24.076221 -175.60129 9274493
59.685482 -24.059414 -175.13654 8879993
60.493923 -24.046566 -174.76495 9603970
61.301548 -24.0343 -174.39355 9669763
62.309933 -24.019705 -173.92953 9933190
63.317238 -24.005886 -173.46576 9998469
64.122231 -23.995424 -173.09483 9077368
64.92662 -23.985548 -172.72414 9472382
65.93119 -23.973925 -172.2608 9933191
66.934883 -23.963112 -171.79764 9274749
67.708107 -24.174793 -171.35246 9407103
68.509567 -24.167202 -170.98221 9736836
69.425613 -24.049585 -170.60274 9933703
70.541656 -23.931049 -170.13055 10065033
71.341965 -23.925409 -169.76009 7959657
72.341881 -23.919006 -169.29692 8157036
30.843454 -22.924339 -186.74562 7565675
31.912043 -23.019867 -186.72293 7828589
32.833138 -23.03775 -186.72697 8090987
56.947247 -23.224138 -176.74922 9998727
57.760273 -23.209932 -176.37604 9274748
58.775135 -23.192856 -175.90996 9011322
59.788734 -23.176565 -175.44423 7564651
60.683498 -23.015814 -175.09195 9340287
61.434048 -22.931343 -174.77628 9538176
62.44458 -22.917299 -174.31096 10327948
63.454006 -22.904041 -173.84595 9604225
64.260727 -22.893988 -173.474 8223085
65.066765 -22.884445 -173.10225 8881015
66.073402 -22.873268 -172.6376 9801605
67.079178 -22.862801 -172.1731 8551538
67.853912 -23.075163 -171.72655 10394509
68.657112 -23.067833 -171.35524 12367528
69.66037 -23.059408 -170.89124 11644063
70.663063 -23.051735 -170.42725 8880759
71.464722 -23.046156 -170.05595 7959657
72.466339 -23.039946 -169.59195 8091243
73.467567 -23.034443 -169.12784 8221805
74.268188 -23.030636 -168.75644 7563619
75.068581 -23.027327 -168.38498 9405823
76.068855 -23.023952 -167.92046 9932422
77.042168 -22.933455 -167.50343 8485745
77.902283 -22.79987 -167.15651 8814710
78.702469 -22.798828 -166.78426 10262156
79.702614 -22.798204 -166.31859 9275261
80.647743 -22.724976 -165.90784 9143418
81.538116 -22.578945 -165.55174 9341054
82.338745 -22.580103 -165.17838 9472128
83.33976 -22.582226 -164.71127 9735046
29.976595 -22.004192 -187.07225 12630191
30.81531 -22.094294 -187.04889 9802121
31.871912 -22.158731 -187.03741 9538436
65.151085 -22.222282 -173.32977 8881015
66.159019 -22.211363 -172.86441 9604482
67.166122 -22.201183 -172.39925 7563619
67.971138 -22.193586 -172.0271 11709855
68.862526 -22.038673 -171.67415 15721430
69.810768 -21.957544 -171.26495 13287859
70.815506 -21.950098 -170.79967 9209981
71.618889 -21.944727 -170.42749 8420464
72.622597 -21.93866 -169.96217 8880504
73.6259 -21.933317 -169.49675 9274237
74.428215 -21.929621 -169.12436 7826791
75.230309 -21.926399 -168.75195 9471359
76.232704 -21.923052 -168.28629 12299683
77.23484 -21.920439 -167.82053 8617331
78.036484 -21.918848 -167.44775 8222573
78.838058 -21.917805 -167.07484 9471610
79.839981 -21.917126 -166.60843 9735041
80.841957 -21.917166 -166.14172 9143675
81.643593 -21.91777 -165.76813 9209211
82.445267 -21.918802 -165.39433 8814453
83.447594 -21.92086 -164.92665 10261133
84.450157 -21.923582 -164.45857 8617080
85.252464 -21.926287 -164.08385 9340289
86.055008 -21.929537 -163.70872 10392461
87.058617 -21.93424 -163.23943 9011064
88.100746 -21.718777 -162.84055 8617335
88.904808 -21.723574 -162.46411 7827821
89.709206 -21.728874 -162.08731 8617333
90.514168 -21.734621 -161.71007 9078139
29.10792 -21.083778 -187.39894 11906467
29.94705 -21.172915 -187.37602 14406343
31.003969 -21.236032 -187.36502 7565675
72.917702 -21.275255 -170.09201 8813945
73.721336 -21.271158 -169.71913 8353651
74.524628 -21.267515 -169.34621 7563619
75.327789 -21.264318 -168.97324 7300963
76.438179 -21.083988 -168.52847 12562600
77.368286 -21.037424 -168.11377 10261386
78.17128 -21.035824 -167.7402 9011572
78.974159 -21.034727 -167.3665 9340022
79.977776 -21.034012 -166.89914 10195078
80.981438 -21.03396 -166.43155 9472640
81.784447 -21.034462 -166.05722 9735555
82.58754 -21.035391 -165.68277 9998727
83.591652 -21.037308 -165.21437 9866887
84.596001 -21.039816 -164.74554 9077374
85.399727 -21.042416 -164.37016 8419702
86.203735 -21.045444 -163.99452 9866375
87.209145 -21.049891 -163.5244 8748407
88.215034 -21.055012 -163.05382 7893615
89.020157 -21.059658 -162.677 7564651
89.825737 -21.064754 -162.29974 7564651
90.833321 -21.071808 -161.82758 8617847
91.841621 -21.079491 -161.35486 8815225
92.648941 -21.086233 -160.97617 8879991
93.456772 -21.093397 -160.597 10065032
94.394829 -21.057852 -160.17435 9867654
95.520561 -20.891251 -159.71692 9274750
96.331085 -20.899937 -159.33595 8681843
97.142281 -20.909119 -158.95441 8681843
97.943474 -20.620893 -158.69693 8681843
99.056778 -20.485653 -158.23279 5854283
100.0752 -20.498758 -157.75317 3749937
100.891 -20.509735 -157.36874 4276023
28.38669 -20.240711 -187.69907 8092019
29.076948 -20.251087 -187.70319 8814710
29.998415 -20.265341 -187.70856 8288623
30.677259 -20.50363 -187.62918 7565675
80.483566 -20.370262 -166.93086 9931904
81.086548 -20.370314 -166.64984 9209211
81.890503 -20.370712 -166.27498 10262156
82.694626 -20.371614 -165.89987 10262156
83.809509 -20.196156 -165.45107 9801092
84.742302 -20.154001 -165.03337 9997961
85.547455 -20.156424 -164.6573 8879995
86.352844 -20.159222 -164.28094 9011837
87.438812 -19.997095 -163.84027 8354164
88.405975 -19.946138 -163.41025 7630444
89.212921 -19.950483 -163.03261 8748920
90.020309 -19.955208 -162.65466 7564649
90.96978 -20.017054 -162.18762 9407872
91.965523 -19.90484 -161.76888 9012346
92.84996 -19.975307 -161.3286 8551027
93.659691 -19.982014 -160.94878 12433837
94.545059 -20.05364 -160.50763 11973286
95.544868 -19.943651 -160.08614 8354933
96.498711 -20.009094 -159.61559 8550771
97.31147 -20.017807 -159.23352 7760741
98.167732 -19.803827 -158.92067 7300446
99.18634 -19.815807 -158.44142 5656904
100.2062 -19.828444 -157.96133 3749937
101.02314 -19.839016 -157.57658 4538681
101.84103 -19.85009 -157.19119 7498082
102.65989 -19.861559 -156.80518 10063493
103.68502 -19.876598 -156.32164 9735555
104.65852 -19.816385 -155.89246 9997700
105.58054 -19.680759 -155.5174 10260614
106.40479 -19.69412 -155.1282 8616302
107.22723 -19.707424 -154.73395 7432543
27.388529 -18.786598 -188.22021 8288883
28.217119 -19.101263 -188.1143 8091504
29.088068 -19.204651 -188.08624 8090987
29.80612 -19.57976 -187.95711 10984849
91.188095 -19.071537 -162.46567 7564651
91.998055 -19.077026 -162.08617 9011833
93.011154 -19.08436 -161.61128 8616819
93.822365 -19.090746 -161.23094 12170409
94.675346 -18.874136 -160.92061 11315099
95.691513 -18.883142 -160.44366 9538950
96.708755 -18.89274 -159.96603 8223091
97.523422 -18.900894 -159.58331 6379600
98.33889 -18.909473 -159.20006 6380368
99.268974 -18.964705 -158.74469 5920074
100.26725 -18.886526 -158.31114 4144438
101.19968 -18.942852 -157.85422 4866361
102.01917 -18.953346 -157.46831 6182221
102.83962 -18.964264 -157.08179 8879734
103.77532 -19.022341 -156.62265 9603713
104.781 -18.946665 -156.18465 9800321
105.71957 -19.005857 -155.72369 9142393
106.54498 -19.018717 -155.33409 7564128
107.36857 -19.031517 -154.93948 6840408
107.90035 -19.026318 -154.51912 5919050
26.44438 -17.710842 -188.60362 8682867
27.214136 -17.993969 -188.50859 9537918
28.277544 -17.961737 -188.53235 8222831
97.854988 -18.23103 -159.69785 5920074
98.467529 -18.237309 -159.4101 5920074
99.284935 -18.245884 -159.02589 5920074
100.30801 -18.257315 -158.54485 5525060
101.3767 -18.044384 -158.13255 4866361
102.19775 -18.054306 -157.74614 5721670
103.01974 -18.064671 -157.35912 7892583
103.84283 -18.075407 -156.97144 9142393
104.8732 -18.089449 -156.48593 10458250
105.90527 -18.104053 -155.99933 7958632
106.73228 -18.116285 -155.60927 5656646
107.62675 -17.993109 -155.23489 5919050
108.36211 -18.072153 -154.55151 6379857
25.336805 -16.784454 -188.93045 11576729
26.247702 -17.023069 -188.85326 8880246
27.401529 -17.036268 -188.86143 11905694
28.08267 -17.273386 -188.78226 8682867
104.80473 -17.40947 -156.79086 10260872
105.83807 -17.42341 -156.30397 8748146
106.87305 -17.437906 -155.81602 4867385
107.74689 -17.22278 -155.48933 5919050
108.49237 -16.987608 -154.97627 6511444
109.28454 -16.914267 -154.23483 7695978
110.06594 -16.503492 -153.67595 8090995
24.471991 -15.869305 -189.37296 10984596
25.376539 -16.102594 -189.23724 12103073
26.447577 -16.188528 -189.19757 11050642
27.205473 -16.346819 -189.11176 11576729
108.84812 -16.076197 -155.09105 7038307
109.55317 -15.952412 -154.51805 8814201
110.34399 -15.783952 -153.91022 7827822
111.17962 -15.593857 -153.28711 7169893
22.708696 -14.962296 -190.04294 7039331
23.464575 -15.117192 -189.93198 7039331
24.535727 -15.200814 -189.87903 10064519
25.669691 -15.434611 -189.71272 12103841
110.55306 -15.166902 -154.35843 8814201
111.35925 -14.97695 -153.76761 8156271
112.13783 -14.919748 -153.06244 7629923
112.89729 -14.687755 -152.56235 9800833
4.0972242 -14.028049 -197.96233 10196106
5.2800207 -14.020006 -197.84221 9537150
6.2254782 -14.013961 -197.74605 10590347
10.59415 -14.320704 -195.10498 9209467
11.528392 -14.319525 -195.05347 9407106
12.695796 -14.318042 -194.98343 8024940
13.396194 -14.317149 -194.93811 7038307
20.736105 -14.545665 -190.99142 7565675
21.660311 -14.551043 -190.97987 8157040
22.585459 -14.556667 -190.96759 8813941
114.42908 -14.292942 -152.71164 11710116
114.93224 -14.286544 -152.24133 10459791
115.76941 -14.276145 -151.4574 12960183
129.16103 -14.122229 -146.64572 10591124
129.68599 -14.121059 -146.17996 7038307
130.65154 -14.008118 -145.50473 8353647
131.51707 -13.782743 -145.06525 8024681
132.44379 -13.666417 -144.34172 7103835
3.1534221 -13.198965 -198.36513 9932678
4.1958342 -13.35917 -198.19781 10195850
5.2856627 -13.304329 -198.10471 9866114
5.9935789 -13.53872 -197.94489 10984593
131.64761 -13.04182 -145.44308 8156267
132.44991 -12.958689 -144.69682 7498593
133.25221 -12.875927 -143.95047 9472384
1.3495587 -11.845076 -199.05032 9078394
2.3421581 -12.194972 -198.81848 9143163
3.3952281 -12.119558 -198.73666 8813942
4.3440351 -12.353454 -198.55205 8879478
5.0542097 -12.588666 -198.39169 9537150
132.55077 -12.091134 -145.04042 8551026
133.35429 -12.008286 -144.29291 8616818
134.02615 -12.005299 -143.63402 9603969
-0.17897525 -10.699483 -199.63031 12039853
0.53840911 -10.935885 -199.46883 9736835
1.4932736 -10.929701 -199.3718 9011833
2.4472301 -10.923795 -199.27475 9011321
3.1612957 -11.160275 -199.11359 9011321
133.45665 -11.138246 -144.63632 7959144
134.26134 -11.055594 -143.88745 8353643
134.99336 -10.815142 -143.29065 10261124
-1.3796207 -9.740077 -200.10779 13224129
-0.42007938 -9.9759846 -199.92128 10263438
0.53740966 -9.9700727 -199.82388 11250334
1.4939603 -9.9643621 -199.72647 10590351
2.2103603 -10.201841 -199.56464 9011321
134.32875 -10.103694 -144.30704 7301470
135.17125 -10.100481 -143.48047 9274486
135.90474 -9.8596754 -142.88237 8813936
-2.2645619 -8.9366884 -200.49509 10000018
-1.3829547 -9.0123177 -200.37556 10263438
-0.4227573 -9.0067024 -200.27777 9736836
0.45660672 -9.0825329 -200.15843 10591375
134.67464 -9.3868351 -144.33286 7564642
135.30978 -9.0018959 -143.90492 8879988
136.08672 -8.9634171 -143.16086 8156011
136.90935 -8.5422783 -142.56712 9142906
-2.3488133 -8.2885265 -200.742 8419439
-1.3067371 -8.1202383 -200.6955 9736836
-0.50539887 -8.1158829 -200.61372 10460817
136.31114 -7.7847524 -143.54181 8813942
137.04076 -7.7505856 -142.84198 8550770
137.82745 -7.5803509 -142.15561 9340541
137.22957 -6.8201747 -143.13136 9866886
137.96048 -6.7861247 -142.43042 10130314
138.74876 -6.6155663 -141.74261 7959919
138.15117 -5.8527255 -142.71953 9933192
138.88332 -5.8187189 -142.01723 8288371
139.54979 -5.6883159 -141.42874 9537923
139.07585 -4.8822703 -142.30617 7433832
139.71974 -4.7999701 -141.71524 9603459
140.36394 -4.71772 -141.12405 6840926
140.0038 -3.9086757 -141.89117 9011322
140.64903 -3.826098 -141.2991 7038049
141.29451 -3.7436526 -140.70671 6446166
140.32469 -3.0959396 -141.99075 7564392
140.89897 -2.8504417 -141.55159 7301220
141.58156 -2.8489451 -140.88138 6511962
142.22844 -2.7662139 -140.28781 9143159
141.25792 -2.116137 -141.5737 6511962
141.83369 -1.8698605 -141.13358 8880246
142.51756 -1.868361 -140.46207 9472124
143.16582 -1.7853017 -139.86723 9669246
142.19455 -1.1329283 -141.15514 9538176
142.83994 -0.96768916 -140.66835 9143416
143.50554 -0.88424253 -140.08826 9011573
144.17183 -0.80077791 -139.50763 10130314
35.436916 -25.579924 -185.82417 9735046
34.873131 -24.814688 -186.10036 9537918
35.832127 -24.966671 -185.8869 9471870
36.789143 -25.139425 -185.37151 9734523
37.761715 -24.960548 -184.9903 10786699
38.58173 -24.873613 -184.64322 8418925
39.482361 -24.993557 -184.17514 7563619
40.322224 -24.966709 -183.79465 9142651
41.160236 -24.940413 -183.41467 10260875
42.205193 -24.908424 -182.94054 9472380
34.010067 -23.891603 -186.42816 9998212
34.993214 -23.942991 -186.42061 9669247
36.052765 -24.028938 -186.1615 9406074
37.032726 -23.951437 -185.73669 9208435
37.879894 -23.92392 -185.35297 9603193
38.757206 -24.030634 -184.90117 7827047
39.551304 -24.095392 -184.50493 7563619
40.392582 -24.069408 -184.12338 9866117
41.441505 -24.037773 -183.64732 9537408
42.438709 -24.097733 -183.15839 8288108
43.304302 -24.206776 -182.71112 10064516
44.137524 -24.183136 -182.33237 10853774
44.96912 -24.160048 -181.95407 10393226
45.927586 -24.089666 -181.53583 10261899
46.913342 -24.15266 -181.05104 8090220
47.888699 -23.861059 -180.71399 9144446
48.714016 -23.840731 -180.33755 9471871
49.537914 -23.820854 -179.96164 9011576
50.565914 -23.796862 -179.49223 10458762
51.592014 -23.773655 -179.02341 9998983
33.294342 -23.046947 -186.7289 8090987
33.986931 -23.06097 -186.7317 10590348
35.047543 -23.128393 -186.71916 10655885
36.231087 -23.301458 -186.37221 10063235
37.081371 -23.274141 -185.98695 9208435
38.011326 -23.094576 -185.62596 9142903
38.792881 -22.995443 -185.30167 9142905
39.637737 -22.970036 -184.91818 7563619
40.691162 -22.939068 -184.43976 9800580
41.741985 -22.908901 -183.96222 9537408
42.61137 -23.018896 -183.51274 8879734
43.398716 -23.086683 -183.1185 9011830
44.233685 -23.064043 -182.73851 9669503
45.067097 -23.041952 -182.35901 8485488
46.106564 -23.015125 -181.88542 10722706
47.123352 -23.212543 -181.332 8946556
47.951168 -23.192162 -180.95448 7564649
48.7775 -23.172281 -180.57739 7564647
49.602489 -23.152956 -180.2007 8880246
50.631783 -23.129576 -179.73044 10458762
51.659176 -23.106974 -179.26074 10656141
52.479698 -23.089478 -178.88544 9866883
53.298965 -23.072485 -178.51047 10260101
54.244381 -23.009295 -178.09532 9273720
55.215012 -23.079092 -177.6149 9866629
56.157528 -23.017237 -177.20059 10459278
56.996582 -22.781111 -176.90472 10919829
57.810276 -22.767101 -176.53122 9538176
58.825993 -22.750376 -176.06458 9471617
59.840435 -22.734331 -175.59825 8616823
60.448357 -22.725132 -175.31873 9734788
32.442032 -21.897146 -187.13977 8484461
33.120739 -22.136711 -187.05986 8353132
34.045662 -22.154535 -187.06393 10326920
34.725311 -22.395327 -186.98366 12432037
42.846127 -22.20521 -183.73123 10853012
43.474445 -22.188473 -183.44518 10064007
44.310795 -22.166632 -183.06418 9340539
45.353985 -22.14011 -182.58878 8485488
46.394955 -22.11437 -182.11401 9801859
47.259258 -22.1828 -181.68369 8749432
48.055454 -22.074654 -181.35617 8617847
48.883591 -22.055637 -180.97789 8156785
49.870586 -21.977928 -180.54926 9537406
50.853321 -22.076061 -180.05173 9932419
51.721249 -22.0832 -179.64441 11839901
52.570824 -22.199387 -179.20168 10326663
53.391468 -22.182989 -178.82579 8616048
54.415604 -22.163242 -178.35651 8945012
55.438137 -22.144245 -177.88765 9142905
56.254894 -22.129629 -177.51289 10919829
57.070618 -22.115492 -177.13846 11117208
58.012516 -22.055502 -176.72369 9866885
58.97863 -22.128605 -176.244 9274494
59.918076 -22.069935 -175.8298 9142909
60.729626 -22.058027 -175.45644 9668738
61.540348 -22.046597 -175.08325 9142648
62.552567 -22.033024 -174.61699 10130569
63.563709 -22.020212 -174.15092 9998983
64.371826 -22.010462 -173.77826 9078394
65.207382 -21.78019 -173.4817 8881015
66.216225 -21.769405 -173.01588 9341310
67.224129 -21.75939 -172.55022 7563619
68.029816 -21.751888 -172.1777 12696236
68.633888 -21.746542 -171.89841 15721430
31.573729 -20.973169 -187.46771 7565675
32.252899 -21.212286 -187.38802 11379348
33.177921 -21.228882 -187.39259 9931904
33.858055 -21.469048 -187.31258 8484461
52.044849 -21.319315 -179.80145 10854036
52.66214 -21.307144 -179.51865 9208695
53.484177 -21.291348 -179.14197 9208184
54.510075 -21.272312 -178.67149 10062979
55.534332 -21.253973 -178.20158 9735297
56.408081 -21.105463 -177.85425 10590607
57.19437 -21.0035 -177.52888 10985366
58.157413 -21.043728 -177.06387 9274748
59.208061 -21.194256 -176.51357 7827819
60.021858 -21.182272 -176.13918 8616823
60.834801 -21.170757 -175.76492 10128773
61.773983 -21.113796 -175.35027 10260358
62.736526 -21.190004 -174.87094 9933190
63.673737 -21.13426 -174.4567 10854804
64.483162 -21.124884 -174.08327 9933446
65.291985 -21.115931 -173.70993 10065289
66.302094 -21.105452 -173.24347 9406589
67.311317 -21.095623 -172.77704 7563619
68.118057 -21.088348 -172.40408 10524555
68.924316 -21.081497 -172.03107 14143169
69.93145 -21.073631 -171.56491 12892845
70.93795 -21.066399 -171.09877 9867657
71.742706 -21.061152 -170.7258 8420464
72.663368 -20.945328 -170.34344 9406335
73.785027 -20.829002 -169.86761 7893358
74.589104 -20.825407 -169.49437 7695720
75.392868 -20.822308 -169.12103 7038307
75.995613 -20.820265 -168.84099 7038307
30.567144 -19.743151 -187.90604 9340798
31.396833 -20.0599 -187.79974 7893353
32.322392 -20.075111 -187.80481 9668733
33.15308 -20.393341 -187.69795 9931904
58.673344 -20.535845 -177.02811 9011576
59.285046 -20.526882 -176.7467 8090987
60.099842 -20.51527 -176.37164 8090221
60.940193 -20.281441 -176.07422 9010549
61.956871 -20.268219 -175.60576 9997186
62.972431 -20.255667 -175.13759 11182485
63.783978 -20.246157 -174.76318 9736067
64.652191 -20.103241 -174.41618 9406846
65.592369 -19.949116 -174.04016 8880246
66.553093 -20.058495 -173.54836 9669503
67.456978 -19.986761 -173.15607 9932674
68.265457 -19.979778 -172.78209 9932674
69.168579 -19.909084 -172.38968 9735557
70.125664 -20.020763 -171.89868 11248537
71.038742 -20.047691 -171.4623 10196621
71.866798 -20.175524 -171.02489 9275519
72.874008 -20.169836 -170.55782 8813945
73.880775 -20.164774 -170.09067 9734788
74.68586 -20.161226 -169.7169 7827306
75.490723 -20.158127 -169.34308 7038307
76.496574 -20.154919 -168.87563 8353651
77.502174 -20.152306 -168.40807 9208701
78.306557 -20.150753 -168.03384 9734525
79.110893 -20.149632 -167.65945 9931904
80.042763 -20.104553 -167.2433 9931904
81.156761 -19.927147 -166.79567 9143163
81.961464 -19.927496 -166.4205 9735555
82.766266 -19.928396 -166.04509 9735555
83.370018 -19.929243 -165.76344 9735555
85.860237 -19.491217 -164.7794 8419702
86.465126 -19.493313 -164.49667 7565675
87.070061 -19.495611 -164.21382 9012606
29.395216 -18.661839 -188.28851 8090987
30.307051 -18.903053 -188.21053 11116692
31.464434 -18.920244 -188.21738 7038298
32.146206 -19.159361 -188.13776 7037274
68.58606 -19.089069 -172.99161 7038307
69.395256 -19.082867 -172.61696 7038307
70.40625 -19.075607 -172.14877 8092019
71.261208 -19.218084 -171.69293 8815482
71.991226 -19.287724 -171.32466 8618355
72.907372 -19.123875 -170.96375 8288625
73.897308 -19.000053 -170.55232 8287858
74.847557 -19.051472 -170.08875 8682356
75.65416 -19.048456 -169.71405 8419442
76.537476 -19.109104 -169.27797 9011323
77.527191 -18.98757 -168.86574 9866372
78.476181 -19.041212 -168.4019 10918801
79.282265 -19.04006 -168.02672 10392457
80.230743 -19.094837 -167.56264 9340283
81.221031 -18.975515 -167.1492 8748405
82.103607 -19.039318 -166.7122 8551281
82.909836 -19.040064 -166.33612 9011576
83.858337 -19.097057 -165.87119 9537664
84.850182 -18.97991 -165.45616 9932680
85.707611 -18.956751 -165.0659 9077374
86.577774 -18.825977 -164.7131 8289140
87.385574 -18.828922 -164.33546 8618105
88.395782 -18.833229 -163.86295 8485750
89.406609 -18.838123 -163.38989 9011838
90.215714 -18.842516 -163.01106 7038307
90.971077 -18.772589 -162.68726 7169893
92.078102 -18.630896 -162.22838 8485492
93.092041 -18.637978 -161.7531 8287598
93.903862 -18.644161 -161.37225 9340798
29.433168 -17.976917 -188.53979 8551281
30.590868 -17.992676 -188.54703 8354158
31.273031 -18.231291 -188.46732 8090986
76.593132 -18.155968 -169.63617 8089963
77.602753 -18.153347 -169.16669 11708316
78.612152 -18.151356 -168.69705 9866371
79.419701 -18.15015 -168.32123 9010805
80.261971 -17.926493 -168.01888 9406847
81.271805 -17.926067 -167.54843 8353135
82.281715 -17.92625 -167.07771 8748149
83.08976 -17.926868 -166.70094 9208443
83.897972 -17.927811 -166.32387 9076601
84.908463 -17.929621 -165.85225 9801092
85.919281 -17.931992 -165.3802 8551798
86.728233 -17.934381 -165.00229 7894639
87.537529 -17.93712 -164.62404 9736071
88.549606 -17.941124 -164.15079 9012350
89.562233 -17.945696 -163.677 9011838
90.372826 -17.949804 -163.29761 7498857
91.183907 -17.954346 -162.9178 8551543
92.198456 -17.960548 -162.44252 8024426
93.213837 -17.967354 -161.96658 7892840
94.026833 -17.973236 -161.58534 8748404
94.840401 -17.979519 -161.20363 8946812
95.768471 -18.032076 -160.74994 11249053
96.763496 -17.951082 -160.319 8618362
97.63974 -17.929312 -159.91945 7892584
98.553421 -17.788374 -159.5504 7761253
99.371605 -17.796795 -159.16585 6840663
100.39565 -17.80784 -158.68454 6051147
28.407251 -16.971962 -188.89633 9340797
29.483816 -17.061628 -188.8756 8880503
30.398321 -17.302826 -188.79758 8090986
84.007256 -17.258085 -166.54282 9208443
85.019104 -17.25976 -166.07057 9340285
86.031319 -17.262011 -165.59798 8090991
86.841347 -17.2642 -165.2196 8289140
87.689857 -17.042953 -164.91339 10722708
88.703789 -17.046677 -164.43932 9472895
89.718239 -17.050919 -163.96486 11972519
90.530312 -17.054777 -163.58492 7498857
91.342857 -17.059013 -163.20453 8880503
92.269859 -17.109175 -162.75229 7892840
93.26255 -17.025547 -162.32341 8682612
94.191071 -17.076696 -161.87007 8551281
95.006142 -17.082624 -161.48782 9209468
95.821915 -17.088926 -161.10516 11709347
96.84269 -17.097353 -160.62607 9011836
97.864548 -17.106266 -160.14621 8616307
98.682953 -17.113911 -159.76175 8681843
99.50219 -17.121906 -159.37675 7892838
100.32232 -17.130301 -158.99117 7958629
101.43368 -16.972651 -158.53682 5656389
102.42179 -16.927126 -158.09479 4800826
103.24574 -16.936752 -157.70702 5065286
104.07074 -16.946711 -157.31868 5591629
104.94287 -16.730894 -156.9991 8089963
105.97767 -16.744202 -156.51169 6906458
107.0142 -16.758078 -156.02336 5064765
107.78935 -16.692656 -155.68446 6116687
26.780741 -15.891843 -189.38089 10129798
27.539194 -16.049997 -189.29362 10327434
28.613806 -16.13698 -189.25383 9867142
29.521818 -16.37356 -189.12798 8682867
90.852104 -16.382982 -163.70563 7563619
91.462433 -16.386019 -163.42 8419696
92.276596 -16.3904 -163.03882 8419696
93.295097 -16.396324 -162.5618 8879991
94.314491 -16.402847 -162.08412 10459275
95.232658 -16.259834 -161.72748 11051411
95.998405 -16.190664 -161.40421 10722450
96.92836 -16.242569 -160.94478 9142651
97.930382 -16.160748 -160.51535 8550514
98.862274 -16.213612 -160.05441 8945271
99.682297 -16.220978 -159.66739 8945011
100.50307 -16.22872 -159.27985 10128514
101.39414 -16.014301 -159.00061 7564128
102.4921 -15.801985 -158.62141 5328455
103.52209 -15.812615 -158.13165 4013369
104.34734 -15.821495 -157.73938 3553076
105.17446 -15.830898 -157.34755 5064769
106.00277 -15.84065 -156.95522 6380373
106.93851 -15.896557 -156.47633 6051664
107.96966 -15.820387 -156.05324 7564646
108.75164 -15.785666 -155.48085 7630186
109.36465 -15.627417 -155.03731 8814201
25.714685 -14.987803 -190.05356 10657166
26.618715 -15.219924 -189.88617 10854032
27.650354 -15.342039 -189.80435 10261899
108.15623 -15.200045 -156.48405 9209467
109.02921 -15.085148 -155.94492 7301476
109.82449 -14.960213 -155.2955 11511194
110.46463 -14.875337 -154.75601 9406080
111.08208 -14.717919 -154.31616 9208443
7.173171 -14.014112 -197.7346 9867139
8.3595686 -14.017195 -197.75592 9472639
13.862941 -14.316552 -194.90636 7038307
14.562881 -14.315655 -194.85645 7761772
15.729121 -14.314152 -194.76772 10195852
23.279745 -14.561173 -190.95839 10590609
23.974684 -14.56578 -190.94881 9011835
24.90185 -14.572102 -190.93541 9933700
25.597879 -14.577054 -190.9247 13550517
112.57798 -14.317913 -154.4362 6906712
113.42048 -14.306342 -153.65225 7367007
114.09313 -14.297309 -153.02527 14076861
127.39851 -14.126128 -148.18388 12763058
128.28212 -14.12418 -147.41737 10788245
129.14513 -13.795826 -147.33687 9341058
130.09627 -13.680754 -146.64203 7038307
130.59969 -13.677327 -146.14891 10591124
6.3118963 -13.21847 -198.02945 11445143
7.3244238 -13.251147 -198.01689 9603968
8.2097616 -13.380642 -197.9866 9472639
129.5381 -13.212887 -147.4294 7038307
130.17775 -12.92502 -146.94759 7696236
130.93921 -12.967354 -146.17749 10064267
131.50047 -12.727781 -145.74799 9011320
4.3483534 -11.634005 -198.81598 8089963
5.3431273 -12.01189 -198.57362 8945014
6.3222342 -12.182659 -198.41844 9537406
7.4286146 -12.46242 -198.30756 8090987
130.43854 -12.261244 -147.03003 10261132
131.07935 -11.972996 -146.54723 9669509
131.84163 -12.01598 -145.77594 9472129
132.40401 -11.776132 -145.34557 10261132
3.4800746 -10.837461 -199.19905 9932679
4.3527403 -10.912683 -199.08063 9471867
5.5420523 -10.906256 -198.95929 8353391
6.6459455 -11.462167 -198.65878 8090987
131.34152 -11.307446 -146.62917 9340801
131.98354 -11.018785 -146.14536 8946300
132.7467 -11.062403 -145.37292 8616818
133.31017 -10.822176 -144.94162 8617331
2.5294216 -9.8778572 -199.6505 8484977
3.5478847 -9.904541 -199.53482 10459790
4.6919355 -9.9951305 -199.38254 10657424
5.548007 -10.183841 -199.22409 9010803
132.24712 -10.351442 -146.22687 8880507
132.89043 -10.062329 -145.74205 8946040
133.65446 -10.10652 -144.96838 7564642
0.77596557 -8.75735 -200.24469 12432037
1.6384534 -8.9467707 -200.08537 10261382
2.786845 -9.0376959 -199.93256 7629155
3.8065364 -9.0648499 -199.8165 9274488
4.6015959 -9.2224007 -199.67587 9010803
133.15538 -9.3931351 -145.82312 9998473
133.87616 -8.911726 -145.36021 8617331
134.61424 -8.8130941 -144.68506 6511954
135.24991 -8.4278545 -144.25677 7564651
-0.1857349 -7.7896328 -200.70036 9736836
0.77550781 -8.0281448 -200.5128 10853776
1.975108 -8.0222301 -200.39015 6972505
2.8536174 -8.0990877 -200.27054 5919562
134.75166 -7.7099791 -145.1129 8814457
135.59792 -7.7070189 -144.28255 9274752
136.16556 -7.464983 -143.84816 10064265
0.29432949 -7.2996082 -200.83057 8090728
1.0154752 -7.296257 -200.75681 10261382
1.8964108 -7.1295323 -200.72636 7367006
134.93007 -6.9880567 -145.306 7564651
135.66783 -6.7446246 -144.70508 8288116
136.51537 -6.7419434 -143.87335 8813942
137.08427 -6.4994049 -143.43802 10064265
135.84773 -6.0204825 -144.89803 7564651
136.58708 -5.7764969 -144.2959 8025199
137.4359 -5.7740369 -143.46277 9538435
138.00618 -5.5308218 -143.02644 8288371
136.76845 -5.0500031 -144.48857 8682867
137.50935 -4.8053975 -143.88518 8946042
138.35957 -4.8031511 -143.05057 7301479
138.93111 -4.5592341 -142.6133 8288371
137.69223 -4.076519 -144.07764 8288371
138.43472 -3.8312602 -143.47295 7564392
139.28639 -3.8291852 -142.63693 9077111
139.85939 -3.5845389 -142.19862 8616822
138.61917 -3.0999284 -143.66515 9208435
139.28261 -2.9029727 -143.11353 10918541
140.07692 -2.7301865 -142.42102 8748149
139.54924 -2.1201332 -143.25116 9208435
140.21428 -1.922534 -142.69841 9537402
141.0103 -1.7491589 -142.00449 9077371
140.4827 -1.1369317 -142.83565 10457990
141.18738 -0.93868828 -142.32016 9801348
141.88612 -0.80599046 -141.75165 11380380
142.58905 -0.64056683 -141.2084 9077625
35.621731 -22.86816 -186.821 8813939
36.262829 -22.848719 -186.53987 10063235
37.113773 -22.821848 -186.15413 11181201
37.75079 -22.802095 -185.86528 10984078
34.755306 -21.941284 -187.1501 8813939
35.435989 -22.182272 -187.06973 8156523
36.310486 -22.168476 -186.79179 10063235
37.162518 -22.14233 -186.40523 11378324
38.0126 -22.116787 -186.01941 9932676
38.860741 -22.091724 -185.63417 9537662
39.918247 -22.06122 -185.15369 7432289
40.973072 -22.031475 -184.6741 7629667
41.814888 -22.008293 -184.29115 8287341
42.591274 -21.912424 -183.96791 9537408
43.512325 -21.738468 -183.60883 9734267
44.349499 -21.71702 -183.22733 9340539
45.393497 -21.691015 -182.75134 8880245
46.435322 -21.665714 -182.27597 11183514
47.059296 -21.650934 -181.99113 9144446
34.432163 -21.206577 -187.41516 9537405
35.51276 -21.044582 -187.4868 8551024
36.340912 -21.124197 -187.19838 9274233
37.227638 -21.234468 -186.74074 10063238
38.079174 -21.209871 -186.35384 9471615
39.05946 -21.136902 -185.92636 10129798
40.069263 -21.199373 -185.4306 8814452
41.044743 -21.127775 -185.00488 8616563
