# .PCD v0.7 - Point Cloud Data file format
VERSION 0.7
FIELDS x y z rgb
SIZE 4 4 4 4
TYPE F F F U
COUNT 1 1 1 1
WIDTH 1231
HEIGHT 1
VIEWPOINT 0 0 0 1 0 0 0
POINTS 1231
DATA ascii
26.665846 11.736875 194.99617 11247763
25.659369 11.948453 194.60985 9077371
24.897821 11.919703 194.24229 8089963
-74.431274 11.651228 161.93771 11379356
-75.088425 11.662031 161.825 8089963
-76.149887 11.453508 161.55943 9273978
-77.250946 11.471986 161.37074 10656658
-78.134674 11.48715 161.21944 7039331
-79.020866 11.502638 161.06775 9209727
-80.132416 11.522464 160.87775 8683124
-81.16011 11.465069 160.674 9735555
-81.879234 11.326088 160.49495 9735555
-85.873993 11.368702 159.22383 11051672
-86.873627 11.373429 158.78293 8946039
-87.803528 11.654102 158.48344 10590608
-88.717255 11.613325 158.06233 10788243
-89.519867 11.618146 157.70877 8616307
-90.524323 11.624626 157.2664 6907224
-91.53009 11.631523 156.82361 7565410
-92.335739 11.637392 156.46906 10130313
-93.254799 11.598269 156.04643 10196363
-94.242226 11.698465 155.6496 9735555
-95.209198 11.891389 155.29939 9538176
-96.020256 11.898704 154.9435 11511966
30.32139 12.133512 196.95755 10261900
29.267603 12.089128 196.39249 11576735
28.273809 12.559346 196.19832 8946039
27.163095 12.681791 195.71469 11445142
26.317369 12.815063 195.37294 10195078
25.616476 12.615082 194.89267 8484720
24.689528 12.661329 194.47557 8945528
23.764425 12.705825 194.037 9011321
22.683359 12.827479 193.56857 9143419
-72.187416 12.96305 162.69453 10261132
-73.323898 12.420237 162.34978 9405306
-74.300644 12.32537 162.16586 10787219
-75.18441 12.34174 162.03035 9142651
-76.196175 12.315384 161.85797 8945529
-77.272926 12.42636 161.71428 7302502
-78.286011 12.399994 161.52983 8486262
-79.135742 12.187715 161.30052 8551796
-79.803101 12.20031 161.18669 8682867
-89.043243 12.306231 158.19559 9142907
-89.646255 12.310135 157.93008 9142907
-90.673584 12.432816 157.52426 8485999
-91.590622 12.601514 157.18626 7368031
-92.510513 12.56254 156.76361 9012344
-93.319031 12.569255 156.40852 10590609
-94.331131 12.578064 155.96426 9077369
-95.344849 12.587345 155.51942 9538176
-96.157104 12.595134 155.16318 11709089
-96.970581 12.603222 154.80653 14801611
-97.916962 12.65956 154.41046 11906209
-99.056839 12.857957 153.98595 9010808
-99.670425 12.864951 153.71727 9010808
25.265696 13.448976 195.25771 8353647
24.497225 13.413658 194.84369 10787732
23.666395 13.547488 194.5359 9998216
22.744734 13.590152 194.09798 9998984
21.735666 13.542804 193.53952 9275261
20.823023 13.58439 193.09135 9537918
19.757467 13.703474 192.62573 9472126
-70.54805 13.834831 163.21861 9274493
-71.395538 13.625337 163.02063 8419696
-72.273163 13.64236 162.88629 8617075
-73.344589 13.437337 162.65402 9340286
-74.448105 13.459303 162.48529 10984598
-75.333801 13.477287 162.34998 10260875
-76.165352 13.403483 162.19548 9143165
-77.178238 13.174284 161.96521 7499368
-92.642212 13.259023 156.98557 9933190
-93.549194 13.422102 156.6499 10590609
-94.307587 13.506714 156.34845 9801092
-95.323135 13.516721 155.90311 9669250
-96.340332 13.527198 155.45721 10458766
-97.155457 13.535935 155.10013 11051159
-97.971802 13.545045 154.74254 8485489
-98.994102 13.556925 154.29497 9602945
-100.01834 13.569315 153.84677 9471359
-100.83936 13.579572 153.48766 8484976
-101.7104 13.824959 153.20097 9998215
-102.53468 13.836162 152.84076 9998215
21.564981 14.309362 194.13322 9735812
20.809931 14.2715 193.70299 9077370
19.74394 14.391692 193.26521 12958637
18.841009 14.432963 192.83531 9077368
17.852266 14.383481 192.272 9274235
16.89332 14.593447 191.97771 8550515
15.918279 14.546135 191.44432 8353650
15.059213 14.850114 191.33582 8616303
14.029496 14.973923 190.97659 6511954
13.072515 14.930037 190.49107 6643540
-67.528824 14.707902 164.31319 10129799
-68.628334 14.731102 164.17215 10656913
-69.510872 14.750179 164.05951 9933702
-70.50106 14.529087 163.64856 9012087
-71.598145 14.551355 163.4812 8090987
-72.359146 14.323472 163.0786 8419696
-73.461067 14.346429 162.9104 8946555
-74.566559 14.37 162.74181 10787219
-75.231743 14.384398 162.64053 11379356
-95.663071 14.219941 156.03575 9208443
-96.478256 14.228851 155.67863 9208443
-97.294624 14.238111 155.32112 9208443
-98.112236 14.247772 154.96321 8089963
-99.125832 14.452403 154.6628 8418928
-100.14956 14.562098 154.29079 9800580
-101.07935 14.526686 153.85147 10853521
-101.90535 14.538338 153.49348 10393229
-102.73289 14.550364 153.13503 9208443
-103.66577 14.515893 152.69186 9143163
-104.65346 14.701029 152.40338 9866885
-105.75067 14.840414 152.03261 9734531
-106.58842 14.85466 151.67422 9076857
-107.42812 14.869301 151.31532 11380380
-108.2697 14.88434 150.95592 10985364
16.93968 15.114082 192.51053 8813428
15.96082 15.064062 191.96191 8089961
15.032399 15.537992 191.98584 8879475
14.066564 15.491197 191.48676 8945011
13.106896 15.445658 190.9985 7038298
12.085443 15.571464 190.66847 7695972
11.220731 15.617164 190.31894 7498593
10.275613 15.572262 189.83273 7827818
9.3489428 15.786078 189.62253 7827818
8.412755 15.741257 189.13545 9340286
7.4817057 15.697042 188.65149 16776175
-61.807713 15.559419 166.09691 7366495
-62.881039 15.577195 165.92012 8353646
-63.769329 15.435224 165.65286 8617074
-64.753036 15.373807 165.43077 9735556
-65.83313 15.393045 165.25395 9867142
-66.699501 15.408901 165.11247 10262156
-67.641174 15.308271 164.86757 9407360
-68.802353 15.212132 164.58727 10656913
-69.674957 15.229158 164.44556 9539200
-102.42163 15.274438 153.86772 10788244
-103.04568 15.284174 153.60011 9801093
-103.87917 15.297521 153.24281 9537921
-104.71449 15.311267 152.88522 10262156
-105.76101 15.329054 152.4375 8747892
-106.81031 15.347424 151.98912 9998215
-107.65192 15.362614 151.62984 10459022
-108.49553 15.378201 151.27002 10195336
-109.34117 15.394239 150.9097 9931907
-110.40105 15.414864 150.45853 10326665
-111.46402 15.436072 150.0065 7827303
-112.31685 15.453603 149.64415 8550257
9.1431398 16.299204 190.11208 7564648
8.4393282 16.264452 189.74467 7038307
7.5052576 16.218632 189.25751 11643808
6.3513002 16.336531 188.85461 9933190
5.5813265 16.299248 188.45366 6840922
4.7408648 16.345497 188.11504 6775130
3.9033251 16.391645 187.77769 7038557
2.9190798 16.517086 187.46249 7104349
2.0117388 16.473692 186.99051 6973018
0.88562876 16.699192 186.92178 6512725
-0.23871511 16.931564 186.93558 7563618
-1.1360731 16.896202 186.55075 9142651
-2.0297537 16.861544 186.16771 8616307
-2.9198561 16.827341 185.78627 7629670
-3.80651 16.79369 185.40652 7630187
-4.6896925 16.760542 185.02837 7038307
-5.788764 16.719915 184.55809 9339772
-6.8830481 16.680059 184.09007 8813686
-7.7546797 16.648724 183.71745 7629412
-8.6231718 16.617939 183.34636 11379356
-10.577144 17.022877 182.69965 8092019
-40.092747 16.954138 173.18829 7564647
-40.928547 16.733255 173.00549 9866627
-41.998638 16.744291 172.87874 8682867
-43.070213 16.75593 172.75208 11116181
-43.850079 16.688288 172.632 10590353
-44.982048 16.548515 172.44254 9734788
-56.154282 15.998854 168.01501 9275004
-57.23695 16.01837 167.88771 9209467
-58.105808 16.03466 167.78754 12762802
-59.195347 16.055706 167.66385 10722707
-60.069283 16.073158 167.56598 10261132
-140.06644 16.432014 141.62674 8287859
-1.3619947 17.373413 186.68567 8616307
-2.0324049 17.344404 186.3735 7826790
-2.9232168 17.307741 185.97566 8945015
-4.1446486 17.383837 185.53737 7959151
-5.140193 17.467781 185.18401 9208185
-6.0194044 17.432508 184.79138 11050385
-6.8952436 17.397812 184.40051 10918801
-7.7676878 17.363697 184.01149 9537408
-8.6368856 17.330284 183.62567 9537408
-9.5517263 17.442999 183.32576 8418927
-10.452399 17.667467 183.08133 7498595
-11.541888 17.656574 182.59737 7894640
-12.460868 17.75108 182.26578 6709080
-13.391292 17.875658 181.9299 6445394
-14.241195 17.842884 181.53752 6182222
-37.416203 17.860504 173.96501 7038298
-38.043568 17.859774 173.82698 7564642
-39.169964 17.680418 173.56627 7301471
-40.150101 17.644037 173.43329 7696228
-41.00666 17.652939 173.33194 12168098
-42.078796 17.664652 173.20525 9866371
-43.073906 17.599247 173.0598 10326664
-43.970612 17.225994 172.81392 10458252
-44.594551 17.003313 172.65627 9734788
-7.1348143 18.130373 184.82991 10787214
-7.7901106 18.102573 184.52527 9537408
-8.6608877 18.066027 184.12079 7695461
-9.7556829 18.270636 183.81927 6182222
-10.847362 18.475248 183.51918 7234909
-11.708362 18.439806 183.11972 8025196
-12.566245 18.404877 182.72212 8288368
-13.502479 18.53401 182.43098 7695973
-14.419188 18.629623 182.1114 7169629
-15.431216 18.490335 181.56122 6577752
-16.40679 18.502176 181.15164 5393738
-17.249102 18.470057 180.763 6314838
-18.108389 18.684582 180.57097 8616819
-18.946054 18.653118 180.18494 8946551
-19.989122 18.614664 179.70473 9209723
-22.938803 19.001289 178.75641 10656657
-23.351345 18.986712 178.567 11906725
-34.343472 18.791048 174.98091 6973024
-35.181736 18.788437 174.79588 6709338
-36.21241 18.554777 174.48389 7368039
-37.259468 18.552855 174.25327 8090986
-38.097126 18.551849 174.06897 7564642
-39.155472 18.556519 173.88806 7893608
-40.226868 18.567619 173.76126 7827814
-41.08511 18.576969 173.6599 11181974
-41.924244 18.355137 173.47635 10787215
-17.31352 19.220596 181.43163 6643802
-18.148134 19.179211 180.96283 7235166
-19.196806 19.138937 180.47874 10459790
-20.241596 19.099548 179.99704 9538434
-21.104256 19.322086 179.86722 9340545
-21.928556 19.28512 179.4269 9800838
-22.872759 19.374109 179.093 10130060
-24.021162 19.456268 178.66733 7827822
-24.885702 19.68494 178.58327 7433064
-25.695658 19.6465 178.12019 8222575
-26.641514 19.661295 177.71036 8419443
-27.780222 19.828627 177.43346 7564392
-28.669495 19.654261 177.06859 8551537
-29.559643 19.611258 176.80724 9209467
-30.551579 19.502483 176.46797 9274749
-31.519876 19.541515 176.25166 9471873
-32.355904 19.533573 176.03276 8814457
-33.400177 19.524437 175.76027 7039073
-34.443958 19.516136 175.48943 6577493
-35.278568 19.51012 175.27351 6445909
-36.321278 19.503252 175.00439 7235680
-37.363552 19.49711 174.73595 8354158
-38.197144 19.492846 174.52167 7959400
-39.212246 19.25178 174.1376 7564642
-40.28466 19.26302 174.00822 8617331
-28.912464 20.322401 177.66089 8288365
-29.74304 20.305273 177.37625 8880502
-30.781652 20.28586 177.03271 9077369
-31.619907 20.276491 176.80695 8814457
-32.458294 20.268171 176.58624 8814457
-83.796631 10.901784 159.95045 11183001
-81.510864 11.775842 160.72656 8090987
-82.231293 11.63716 160.54741 8090987
-83.041451 11.576321 160.381 9669250
-84.116364 11.590823 160.09048 10459278
-85.115013 11.594966 159.65067 10722706
-85.954597 11.82843 159.37236 11380380
-86.754883 11.832355 159.01938 9736836
30.113131 12.639714 197.18668 13023925
29.32218 12.605023 196.76157 11576735
27.543238 13.04011 196.14505 8089963
-79.212555 12.645848 161.45613 9012091
-80.287903 12.438206 161.18845 8946039
-81.279564 12.50361 161.03656 8485745
-82.30336 12.478354 160.84538 9669250
-83.203583 12.496707 160.69231 8551281
-84.074821 12.510739 160.47841 10392461
-85.07489 12.515141 160.03722 9867910
-86.075783 12.520022 159.59579 10262668
-86.87735 12.524248 159.24246 10131082
-87.880272 12.530013 158.80046 10525071
-88.831284 12.612825 158.41237 11380380
-89.730713 12.772861 158.07817 10261643
-90.334808 12.777113 157.81261 11379607
29.640528 13.135069 197.27415 8682867
28.881971 13.360715 197.06538 9406334
28.258791 13.245148 196.65804 8682867
27.101099 13.710475 196.43144 8945527
26.23366 13.668594 195.94536 9340027
25.33111 13.97392 195.76701 9208955
24.300814 13.922849 195.18045 11313820
-76.505302 13.956509 162.30875 9735558
-77.356491 13.671178 162.08716 7696234
-78.422592 13.314342 161.80978 9538692
-79.319695 13.333675 161.673 9998727
-80.216705 13.352957 161.53029 9275004
-81.340073 13.377234 161.34756 9932676
-82.464233 13.401541 161.15791 9471871
-83.277519 13.342433 160.99168 8354159
-84.193481 13.203734 160.7036 9077625
-85.235138 13.44025 160.33696 10393742
-86.237991 13.44558 159.89482 10525584
-87.041168 13.450152 159.54109 10130057
-87.845093 13.455124 159.18718 9932422
-88.851151 13.461852 158.74461 10261643
-89.858459 13.468999 158.30185 11774365
-90.665253 13.475142 157.94733 10919313
-91.675079 13.483225 157.50375 7038810
-92.730324 13.724696 157.13403 10590609
-93.338112 13.730195 156.86737 10590609
27.682135 14.094296 197.14105 9537665
27.152132 14.065187 196.80452 8089963
25.169481 14.506814 196.37933 11905701
24.372126 14.453615 195.7565 10261387
23.343122 14.399439 195.14738 9209211
22.268629 14.524892 194.77284 7893608
21.375895 14.825334 194.56596 7433057
20.364992 14.770672 193.95894 9011320
-72.594376 14.815036 163.60744 8090987
-73.475151 14.833306 163.46533 9933961
-74.579582 14.856825 163.28745 9604997
-75.685333 14.718959 162.93399 11379612
-76.466957 14.656081 162.73314 9275264
-77.520477 14.44599 162.42947 8551542
-78.50116 14.470126 162.30157 8814198
-79.475021 14.25634 161.98782 9998727
-80.379105 14.277921 161.85544 10919829
-81.446533 14.068725 161.55734 10853519
-82.353775 14.090377 161.41968 10655625
-86.561493 14.143591 160.03217 10656401
-87.164963 14.147294 159.76663 9932422
-87.970123 14.152563 159.41246 9208443
-89.113541 14.350451 159.03201 9603456
-90.056931 14.405214 158.64973 10129798
-90.866356 14.411957 158.29601 9275003
-91.676773 14.419047 157.94208 8551281
-92.691345 14.42843 157.4993 8353135
-93.707352 14.438334 157.05623 9932679
-94.521484 14.446698 156.70145 9077370
-95.295898 14.534668 156.42017 8682611
-96.440765 14.707065 156.03622 9208443
-97.465775 14.719456 155.59354 9735299
-98.287384 14.729812 155.23901 8089963
19.449453 15.269083 194.24011 7761509
18.678034 15.211546 193.58418 8682867
17.711584 15.342642 193.299 9011063
16.522783 15.638422 193.09822 8089963
15.767285 15.580247 192.44572 7038307
13.874974 16.014053 192.05064 9734270
13.147923 15.972108 191.60368 8814198
12.428605 15.936391 191.22797 8814198
-68.073662 15.671489 165.07141 9144190
-68.94606 15.688715 164.92987 9933702
-69.820648 15.70629 164.78828 9538172
-70.74025 15.440398 164.41965 9405814
-71.826309 15.558438 164.32248 9143158
-72.838303 15.535149 164.1554 8420470
-73.629189 15.311132 163.80704 9012862
-74.736275 15.335431 163.62938 9012862
-75.846916 15.360394 163.45154 10788757
-92.753067 15.150931 158.03777 10261132
-93.773178 15.161492 157.59578 9340286
-94.794975 15.172685 157.15346 10459278
-95.613792 15.182044 156.79941 10459278
-96.533371 15.436495 156.60596 9471871
-97.45903 15.39945 156.16583 9867142
-98.488235 15.510464 155.80385 8813942
-99.417542 15.47446 155.36295 8682100
-100.25034 15.487086 155.01567 8616822
-101.1913 15.453283 154.58746 10129800
-102.04917 15.600307 154.37984 10458507
-103.14614 15.788116 154.14986 10591121
-104.22624 15.810642 153.75374 9143163
-105.09347 15.829276 153.43764 10262156
-105.96394 15.848504 153.12212 10195595
-106.83734 15.868281 152.80722 10459022
-107.71421 15.888557 152.49283 9998215
-108.81507 15.914835 152.10054 9998212
-109.69913 15.936355 151.78732 9931907
14.623483 16.075232 192.72603 8747891
12.484727 16.487879 192.09898 7564643
11.752831 16.433191 191.51216 7564643
10.797711 16.381891 190.97675 7893609
9.951642 16.693878 190.96588 7564648
9.1634111 16.652674 190.54182 7761770
7.9968653 16.767456 190.11249 6708566
7.0622873 16.72039 189.62369 6511954
6.3646097 16.68549 189.25908 6511954
2.2480326 17.03141 188.00284 6644309
1.5670862 17.003748 187.71046 6644309
-46.058041 16.561766 172.31584 10459787
-46.920258 16.572865 172.21452 9210491
-48 16.587318 172.08783 10524812
-49.081635 16.602449 171.96114 8682867
-49.948578 16.614943 171.85976 9472126
-60.507351 16.082104 167.51746 10261132
-61.165668 16.095766 167.44551 9603202
-62.266354 16.119307 167.32726 7761509
-63.370991 16.143625 167.21098 9011320
-64.258087 16.163855 167.11954 6775130
-64.925209 16.179312 167.05183 9011579
-110.14288 15.947364 151.63075 9931907
-110.80974 15.964226 151.39633 10064006
-111.70192 15.987087 151.0842 8288110
-112.59831 16.010647 150.77226 10919317
-113.49796 16.034704 150.46062 10063753
-114.40122 16.059311 150.14911 9340286
-115.30836 16.084515 149.83804 8419696
-116.2196 16.110363 149.52713 8551281
-117.1349 16.136808 149.21654 9275261
-118.28493 16.170731 148.82883 9406847
-119.44156 16.205534 148.44136 9340542
-132.27008 16.695417 145.16823 9208435
-132.94371 16.713749 144.85341 9933193
-133.84247 16.738478 144.43068 9472129
-134.75644 16.765196 144.02014 9010807
-135.6904 16.794506 143.62607 9471871
-136.62772 16.824261 143.23059 8222320
-137.56859 16.854565 142.83385 8880507
-138.51305 16.885359 142.4357 7959664
-139.40732 16.662733 141.98174 7893359
6.8573465 17.252865 190.29588 5919050
6.1547518 17.207735 189.8277 6511954
5.2269258 17.160421 189.3419 6972256
4.3053179 17.118578 188.91118 6972256
3.3942919 17.345469 188.84103 6972508
2.5554476 17.385744 188.45087 6644309
1.5694971 17.503193 188.05313 6973018
0.43698984 17.633533 187.79027 7696229
-0.46578878 17.677252 187.43446 7564386
-1.3647146 17.714035 187.00632 8945272
-2.4841261 17.828655 186.57968 8287341
-3.3747396 17.789593 186.16457 9537408
-4.0403891 17.760683 185.85455 10853012
-43.388126 17.910393 173.13506 9931907
-44.091446 17.765301 172.99625 9010808
-45.127277 17.528641 172.78319 10130312
-46.146233 17.484375 172.64256 11906207
-47.010197 17.496136 172.54124 9604992
-48.016922 17.378265 172.37515 9538431
-49.128674 17.064259 172.12433 9472126
-133.98311 17.246563 144.58183 9933193
-134.88544 17.272533 144.15746 9010807
-135.6384 17.547953 143.91673 9406079
-136.4248 17.656654 143.59258 9142907
-137.25575 17.599333 143.19643 9142651
-138.19974 17.631332 142.79881 10525074
-139.05038 17.576269 142.41487 7564651
-139.69861 16.924591 141.93599 7564651
-3.6140165 18.327414 186.91273 10853012
-4.2785521 18.28487 186.47014 10524816
-5.1602583 18.228867 185.88388 9734528
-6.0381079 18.177675 185.34253 9208185
-7.1580305 18.496384 185.41194 9734786
-8.2577124 18.614996 185.02362 8090730
-9.121707 18.56081 184.45049 5919050
-9.7667303 18.520685 184.02339 6510930
-11.118239 19.01841 184.32545 7958888
-11.758826 18.97834 183.9007 7958888
-12.60905 18.925566 183.33794 5919050
-13.243888 18.886549 182.91846 8090730
-42.276848 18.706532 173.56163 9734273
-43.235111 18.602486 173.4066 10524043
-44.096992 18.61351 173.30536 8681843
-45.176037 18.627953 173.17885 8551794
-46.17728 18.564508 173.03339 9999494
-46.883755 18.419886 172.89426 9210491
-136.76044 18.343695 143.71402 8089963
-137.44492 18.365465 143.39288 11117208
-138.36368 18.395327 142.96729 10459281
-10.690124 19.046328 184.61795 6510930
-14.181319 19.421305 183.58595 9209467
-14.811187 19.378283 183.13167 9143675
-15.647548 19.322212 182.53563 9406847
-16.482386 19.270649 181.97871 7893866
-18.060225 19.775101 182.28722 5919050
-18.679052 19.733541 181.84261 9998472
-19.500502 19.678833 181.25375 12696241
-20.317617 19.625032 180.66936 13023917
-24.126295 19.993603 179.44536 8617337
-39.291889 19.737715 174.48923 7696229
-40.357174 19.744749 174.31944 9143675
-41.17712 19.511852 174.04546 9735812
-42.248676 19.522583 173.89761 10392457
-43.321484 19.533993 173.74962 11774108
-44.181805 19.54406 173.63525 8879733
-45.024769 19.322798 173.4512 7762278
-21.904425 20.138134 181.02985 13023917
-22.513302 20.098036 180.59457 7695977
-23.321747 20.045393 180.01778 7432289
-25.720098 20.511005 179.81244 7564648
-26.320015 20.472464 179.38583 7038307
-27.116783 20.421885 178.82051 7564648
-27.913439 20.374657 178.28137 7301471
-28.513021 20.342781 177.90546 7367263
-30.33066 20.865152 178.24527 9209467
-30.928097 20.83383 177.87183 8550257
-31.743134 20.806437 177.49315 9931910
-32.857433 20.655766 176.96037 7564903
-33.766182 20.512478 176.52263 7038298
-34.598755 20.501854 176.27315 7827814
-35.638584 20.489439 175.96284 6511699
-36.682343 20.480507 175.67654 7038298
-37.519352 20.475344 175.45978 8090986
-38.567127 20.470697 175.1983 8354160
-39.629841 20.474609 175.00417 7301728
-40.399261 20.398037 174.8183 9341054
-41.510799 20.24258 174.51515 9668991
-42.366489 20.24964 174.37996 10260358
-83.633217 13.658169 161.0452 8090987
-84.272858 13.667114 160.85417 8090987
25.980608 14.564792 197.0632 8353647
24.015974 15.015518 196.76131 9208955
22.949709 14.937179 195.85739 11380127
-79.036339 14.957199 162.57401 6510930
-81.344353 14.535036 161.83829 12103071
-82.559471 14.447136 161.58157 10919055
-83.550896 14.353922 161.35947 8551281
-84.41391 14.368053 161.12204 9143675
-85.217766 14.372301 160.76904 10261899
-86.156097 14.425028 160.38704 10525327
-87.296356 14.621658 160.0065 10261643
-88.104057 14.627327 159.65433 9208443
-88.71035 14.631827 159.39005 9208443
21.797869 15.445735 196.24014 13024949
21.009218 15.386179 195.56801 9340798
20.225973 15.327229 194.90094 9011320
19.078943 15.834936 195.28496 9011320
18.305067 15.775146 194.62224 10460044
17.792574 15.73572 194.1837 8089963
-73.844383 15.803997 164.28427 9933961
-74.762383 15.830456 164.20813 9012862
-75.915375 15.86431 164.11423 9671047
-76.906113 15.639925 163.66533 8617591
-77.679031 15.574604 163.43333 7038305
-78.75399 15.428537 162.98824 6971481
-79.795166 15.214599 162.63818 9143162
-80.697762 15.236701 162.49507 9735039
-81.603249 15.259252 162.35179 10984590
-82.406525 15.199411 162.16304 12103071
-83.562462 15.068585 161.85677 8617072
-84.647934 15.08787 161.56734 9143675
-85.454605 15.092489 161.2146 9143675
-86.508461 15.220239 160.85576 10064521
-87.460846 15.396421 160.58234 10854036
-88.374802 15.354728 160.14345 10788243
-89.185997 15.361118 159.7903 8682356
-90.101486 15.320346 159.35152 9274748
-91.114655 15.426494 158.99255 10392969
-92.032745 15.386664 158.55341 8945528
-92.943802 15.638773 158.36179 9800581
-93.761444 15.647484 158.00771 8682356
-94.785294 15.658992 157.56479 11775138
-95.810867 15.671082 157.12161 10459278
16.140203 16.202963 194.13188 10458505
15.381745 16.14213 193.46652 9208435
13.979203 16.617743 193.50224 9208435
13.476727 16.572109 193.00864 11379356
12.977658 16.527584 192.52623 7564643
11.584702 17.003309 192.57675 7564643
10.85156 16.942755 191.93816 7301730
-51.034409 16.631275 171.73303 8880246
-52.122417 16.648169 171.60623 9011576
-52.994686 16.662157 171.50475 9011576
-54.087238 16.680347 171.37787 10195082
-55.182354 16.699121 171.25084 10853012
-65.370903 16.18985 167.00703 10984852
-66.264908 16.211355 166.9187 9011577
-67.386314 16.239017 166.81001 9143681
-68.287186 16.261835 166.72452 9143681
-125.41406 16.523045 148.40416 9208435
-126.2896 16.543592 147.98911 13223352
-127.16737 16.56469 147.57315 11314071
-128.0477 16.586184 147.1561 8156008
-128.93037 16.60812 146.73811 7892578
-130.03761 16.636257 146.21414 9011061
-131.1508 16.665339 145.69107 9339767
-131.82181 16.683228 145.37758 10654857
12.079389 17.047928 193.04869 7564643
9.4665995 17.42305 192.04184 6775130
8.7497034 17.375803 191.55975 7038307
8.0371103 17.329258 191.08339 6708566
6.8785791 17.547106 190.9126 5919050
5.7244158 17.764355 190.74306 7235169
4.7900362 17.702995 190.11766 7235685
4.0931902 17.657619 189.65187 6972256
0.89312083 18.034351 188.71767 8090987
0.43828303 18.00481 188.41386 7564642
-48.354851 17.977886 172.55315 9209467
-49.11916 17.680679 172.35109 9735296
-50.020493 17.308805 172.10483 9077368
-51.107925 17.325817 171.97818 9143162
-52.197567 17.343531 171.85146 8682867
-53.071106 17.358141 171.75006 9274492
-54.042747 17.25886 171.59499 10129289
-126.41196 17.044233 148.1319 10788238
-127.40801 17.235678 147.73146 9602684
-128.23973 17.340443 147.37585 7629921
-129.12715 17.363907 146.96111 7892577
-130.01724 17.387817 146.54529 9340026
-130.91003 17.412251 146.12845 8616300
-131.8055 17.437185 145.71051 9273973
-132.70377 17.462559 145.29143 9538692
-133.5517 17.57098 144.93005 7039331
-134.57549 17.76923 144.52122 9472129
2.9584665 18.170256 190.10052 5920074
2.0367975 18.10936 189.48279 6972761
1.3494577 18.064192 189.02267 7367520
-0.69731039 18.521456 188.89998 6446418
-1.6009321 18.45822 188.25713 9471871
-2.4990454 18.399546 187.65666 8287341
-3.6278715 18.626087 187.56638 8879478
-4.7527571 18.848219 187.43762 9340798
-5.6360159 18.785297 186.79439 8550513
-6.5145864 18.725988 186.18314 10260871
-46.495499 18.878651 173.10931 9210491
-47.202663 18.734325 172.97025 9801858
-48.20752 18.672178 172.82478 9341052
-49.323277 18.550344 172.64403 9998468
-50.140766 18.470659 172.51503 9998214
-51.170189 18.429668 172.37433 9735043
-52.216831 18.195301 172.16075 9143162
-52.928852 18.052502 172.02142 9405822
-129.3302 18.122986 147.19121 8156265
-130.22197 18.148024 146.7751 8813680
-131.18547 18.428221 146.43475 8813680
-132.08328 18.454653 146.01633 8814454
-132.98355 18.481606 145.59653 9209727
-133.88483 18.508831 145.17363 7762796
-134.7886 18.536528 144.74921 8090993
-135.69537 18.564798 144.32356 8353135
-136.5533 18.676891 143.95767 9142907
-137.59082 18.880344 143.54448 9998471
-8.3170958 19.21307 186.34035 7301214
-9.1846533 19.151566 185.70944 7301214
-10.046779 19.091061 185.08386 6510930
-11.633613 19.599115 185.43211 7958888
-12.27465 19.553883 184.9664 7762796
-13.125083 19.494392 184.34982 9933193
-13.759837 19.450418 183.89046 8090730
-16.187922 19.903145 183.63756 8616563
-17.022886 19.845675 183.03448 8616563
-17.646162 19.803207 182.58513 8616819
-45.381905 19.677519 173.53714 8091243
-46.345844 19.575243 173.38205 9209723
-47.34856 19.637411 173.28227 10064260
-48.382717 19.560556 173.12791 9603967
-49.389038 19.624035 173.02817 9341053
-50.237415 19.404644 172.84442 9932934
-132.51773 19.227995 146.14191 9734788
-133.19414 19.249126 145.82622 9933193
-134.16782 19.534616 145.47929 8683385
-135.07397 19.563965 145.0544 8156787
-135.98312 19.593908 144.62837 9077371
-136.79477 19.535675 144.21136 8748149
-137.50809 19.388933 143.80376 9735558
-20.063303 20.261499 182.35175 8486000
-20.884182 20.206089 181.76146 9933702
-21.497206 20.165134 181.32164 11182231
-24.51322 20.589624 180.67343 9077882
-25.318806 20.5369 180.09821 7564648
-28.528196 20.961983 179.37773 6511955
-29.331158 20.918411 178.87236 6511954
-29.931458 20.886337 178.49544 9209467
-40.741627 20.728191 175.01761 8617331
-41.598515 20.734917 174.88199 8616305
-42.71191 20.580492 174.57928 8616048
-43.483105 20.505569 174.3945 8155497
-44.55632 20.516064 174.22614 8222572
-45.630756 20.527342 174.05817 8748917
-46.403397 20.453901 173.87418 9735812
-47.518261 20.302677 173.57263 10063750
-48.595581 20.315935 173.40463 9735296
-135.74403 20.35347 145.07133 9472387
-136.42799 20.376944 144.75117 11380380
-31.763514 21.415298 178.84401 9931910
-32.361832 21.383776 178.46953 9931910
-33.157337 21.342415 177.97307 9735043
-33.962475 21.30966 177.54474 8617331
-35.001591 21.291565 177.19333 7564642
-36.039429 21.274284 176.84373 7038298
-36.868702 21.261209 176.56543 6511954
-37.697224 21.248684 176.28821 7564642
-38.734158 21.23526 175.95399 7169887
-39.786446 21.23138 175.69283 7367010
-40.631828 21.230766 175.50026 7827302
-41.688198 21.230452 175.25714 8089704
-42.760941 21.239029 175.08105 8616048
-43.621361 21.247166 174.94589 7629923
-44.26712 21.25358 174.8447 8288109
25.336576 15.098612 197.68842 10260873
24.605043 15.335176 197.63988 9471870
23.615522 15.556243 197.43515 9209214
22.838823 15.512354 196.96886 9735561
21.871401 15.826679 196.90675 8617338
20.621485 15.939312 196.41397 8156782
19.858114 15.895334 195.95274 6511954
-78.238762 15.934705 163.93086 7958120
-78.941109 15.956589 163.8774 10129289
-82.827118 15.530665 162.34433 10655625
-83.740555 15.554676 162.2007 8682867
-84.821274 15.573327 161.89708 10261899
-85.629654 15.578094 161.54376 9143675
-86.236465 15.581995 161.27878 9735555
18.421465 16.365286 195.86667 12828077
17.91831 16.335903 195.56334 15196110
17.158251 16.283655 195.00833 8092011
14.992208 16.710117 194.49866 7761512
14.48425 16.66378 193.99893 9208435
-56.060413 16.714605 171.14923 9537920
-57.160595 16.734674 171.02211 10130059
-58.263439 16.755308 170.89488 9998216
-59.147884 16.772388 170.793 10392461
-60.034363 16.789865 170.69106 9931910
-79.881149 15.986383 163.80724 10129289
-81.062515 16.024502 163.72141 8089963
-82.012108 16.055569 163.65393 10655625
-119.24773 16.882502 151.53088 9406078
-119.89304 16.896009 151.22423 8616819
-120.97127 16.918957 150.71213 9669507
-121.93492 16.445131 150.05499 9340285
-122.80139 16.463938 149.6436 9932166
-123.67007 16.483194 149.23137 9471871
-124.54097 16.502893 148.81821 8092019
12.577737 17.094456 193.54141 11379356
10.437646 17.502539 192.86119 6775127
7.6127291 17.889938 192.01004 9208955
6.9012842 17.842348 191.53221 5919050
-54.410667 17.613647 171.67979 9931910
-55.262115 17.396755 171.49635 10392461
-56.141537 17.412985 171.39479 9340796
-57.243374 17.433914 171.26781 10064263
-58.347954 17.455484 171.14069 9932167
-59.205128 17.239286 170.95683 10392461
-120.87155 17.411972 150.95927 9077114
-121.99309 17.23876 150.34709 9931910
-122.97924 17.211588 149.85928 9208955
-123.84933 17.231762 149.44672 8748918
-124.72166 17.252441 149.03319 9209984
-125.59663 17.273586 148.61919 8617331
-126.53821 17.54653 148.27917 8353643
-127.2001 17.563576 147.96968 7564643
3.8869333 18.235069 190.75397 6709082
-0.015780397 18.570732 189.39799 7564642
-3.6405516 18.928267 188.24937 8287341
-51.717297 18.963388 172.50252 9406078
-52.429928 18.820625 172.36334 9142906
-53.199005 18.523506 172.16075 9405822
-54.269936 18.309898 171.95171 10063752
-55.3689 18.330639 171.82501 9537918
-56.250072 18.347845 171.72357 9735296
-57.229717 18.250406 171.56816 9998211
-122.07114 17.935827 150.59064 10261132
-122.94057 17.956463 150.17917 9602945
-123.87828 18.229403 149.847 10196108
-124.85596 18.304396 149.41129 10065035
-125.85446 18.280272 148.92293 9604485
-126.73662 18.303665 148.5107 9076854
-127.62126 18.32753 148.09749 9076854
-128.50839 18.351919 147.68338 7564643
-129.46603 18.630724 147.34518 7893091
-130.35893 18.656507 146.92882 8813680
-7.6630201 19.259817 186.81691 6511954
-50.285904 19.873503 173.00978 9932934
-51.354568 19.65864 172.80081 10261387
-52.449745 19.678911 172.67444 8813941
-53.356125 19.555689 172.51874 8813429
-54.339596 19.422491 172.34998 9800836
-55.393642 19.189205 172.13602 10458506
-56.11097 19.047306 171.99651 9735296
-124.95045 19.009113 149.66995 10854036
-125.61092 19.026909 149.3615 10393486
-126.55981 19.305023 149.02719 9933191
-127.56506 19.282948 148.53644 9142647
-128.55586 19.362026 148.09624 7695971
-129.44716 19.388256 147.68086 8880499
-130.4445 19.468908 147.23819 7958628
-131.46237 19.449368 146.74251 9142905
-132.31073 19.560528 146.38441 8485745
-133.33493 19.762562 145.97972 8748919
-46.756084 20.786316 174.07364 9734788
-47.619221 20.796869 173.93987 9734788
-48.69928 20.810659 173.77292 9735296
-49.512768 20.575209 173.45869 9209211
-50.522572 20.640062 173.35405 9932934
-51.550594 20.559841 173.15195 10985366
-52.564014 20.626104 173.04782 9340029
-53.405209 20.402456 172.82202 8681843
-127.86841 20.100765 148.74393 8419438
-128.5361 20.120806 148.43294 6512210
-129.5486 20.321287 148.03471 9275257
-130.39235 20.432543 147.67877 7104346
-131.29059 20.461271 147.26115 9143163
-132.19154 20.490599 146.84245 9340286
-133.09491 20.520397 146.42218 8420208
-133.99918 20.550497 145.99872 8551798
-134.9062 20.581215 145.57407 8814715
-135.66035 20.863607 145.33171 7564651
-35.401081 21.858534 178.08498 8551025
-36.199028 21.822332 177.62416 10195338
-37.02734 21.806149 177.32219 8945527
-38.067135 21.79027 176.97395 7498594
-39.110256 21.777628 176.64682 8089963
-39.958988 21.776356 176.45161 6644058
-41.02026 21.775707 176.21002 6380886
-42.08218 21.776009 175.96959 7037274
-42.931843 21.776989 175.77823 8616048
-43.781837 21.778471 175.58771 7366751
-44.872452 21.572941 175.10785 8683123
-45.838097 21.5254 174.84549 9406847
-46.690804 21.529984 174.66603 9734788
-47.771244 21.54277 174.49231 9997959
-48.802872 21.307531 174.14053 9208699
-49.670044 21.319464 174.0072 8682867
-50.321198 21.328875 173.90741 9932934
-131.49939 21.233923 147.49438 8879994
-132.52451 21.439621 147.09239 9734788
-133.37747 21.554588 146.73181 9011833
-134.28398 21.586308 146.3078 8222574
-134.89392 21.350569 145.91167 7564651
-38.649204 22.333555 177.59673 7367010
-39.280342 22.327557 177.41258 7695718
-40.132877 22.326334 177.21744 6249814
-61.145348 16.812325 170.56348 10589838
-62.259235 16.835497 170.43581 11181972
-63.152916 16.854519 170.33354 10458252
-64.27314 16.878973 170.20555 10590606
-65.171585 16.898973 170.10303 10064003
-82.488831 16.071489 163.6208 10655625
-83.206192 16.09556 163.57164 13814205
-84.166695 16.128191 163.50717 9538176
-85.082443 16.152132 163.34923 9538176
-85.90596 16.15859 163.0098 8946039
-86.937302 16.167347 162.58725 9538176
-87.97094 16.176985 162.16635 9735555
-88.799995 16.185242 161.83092 10261899
-89.630707 16.19405 161.49648 9143163
-90.6716 16.205864 161.08009 8089963
-91.715302 16.218433 160.66518 9735814
-92.552612 16.229134 160.3344 9340030
-93.391937 16.240383 160.00461 8879479
-112.64068 16.758259 154.67552 9670278
-113.69931 16.776588 154.17102 11116434
-114.76038 16.795517 153.66559 9932675
-115.61121 16.811182 153.26045 9800835
-116.46387 16.827251 152.85471 12168356
-117.31837 16.843769 152.44817 13221042
-118.17462 16.860737 152.04089 10787729
-118.81808 16.873693 151.73503 10853012
-59.262444 17.707338 171.12105 9010808
-60.121586 17.49159 170.93712 9931910
-61.234268 17.515091 170.80972 10721935
-62.349964 17.539272 170.68219 10787216
-63.244991 17.559143 170.58012 10458251
-64.111023 17.343987 170.39552 10656399
-113.80779 17.269844 154.31761 10853012
-114.68492 17.409279 153.94969 9932675
-115.66049 17.600462 153.55513 9208699
-116.63137 17.570261 153.07347 10261132
-117.48721 17.587574 152.6666 11576988
-118.34494 17.605337 152.25903 10064008
-119.2046 17.623577 151.85069 9011576
-120.06619 17.642262 151.44167 9340542
-120.98813 17.910872 151.10422 9471871
-121.63754 17.925724 150.79623 8681843
-57.603161 18.609089 171.65381 9735296
-58.461018 18.392817 171.46979 9932164
-59.348682 18.411642 171.36818 9010808
-60.238338 18.43099 171.26656 10063495
-61.353321 18.455856 171.13936 10722193
-62.386536 18.400972 170.99301 10064003
-63.11301 18.260798 170.85295 10458252
-116.58545 18.311211 153.39462 9997960
-117.71335 18.583256 152.95906 10195338
-118.57398 18.602293 152.55234 9537664
-119.43694 18.621826 152.14536 8814453
-120.30191 18.641861 151.73759 9603457
-121.16995 18.662592 151.33026 9208187
-121.97709 18.432222 150.84454 9208187
-122.84936 18.453674 150.43625 9734531
-54.894688 19.961893 172.47923 10261132
-55.612438 19.820091 172.33974 9735042
-56.441933 19.367201 172.073 10064004
-57.465542 19.310575 171.92725 9735296
-58.574669 19.334719 171.80052 9603710
-59.464211 19.354568 171.6991 9472383
-60.355679 19.374966 171.59756 10524558
-61.219315 19.159039 171.41296 10064003
-118.9715 19.359444 152.6832 9406078
-119.62113 19.375048 152.37895 9011576
-120.55177 19.648502 152.05136 10063753
-121.42233 19.670458 151.64409 9142394
-122.1676 19.187763 151.07915 9471359
-123.04144 19.210165 150.6705 8813944
-123.91753 19.233091 150.26097 9472131
-124.74445 19.33898 149.91084 9604485
-125.7424 19.534101 149.5172 10064777
-53.47287 20.881315 173.03938 10129801
-54.535213 20.662392 172.78529 9471872
-55.637856 20.685307 172.65273 9537665
-56.49614 20.468117 172.46855 9866628
-57.605381 20.493042 172.34216 9998211
-58.688736 20.28112 172.13246 9998211
-59.551086 20.064644 171.9481 9735296
-122.42271 20.199476 151.39333 8879479
-123.29874 20.223127 150.98421 7959408
-124.17697 20.247347 150.57428 9340289
-125.05751 20.272142 150.16338 9275263
-125.94041 20.297432 149.75163 9012089
-126.82576 20.323351 149.33902 11577760
-127.66194 20.432795 148.98595 8880246
-128.67166 20.632746 148.58881 7696483
-129.34145 20.653683 148.27715 7696483
-48.906845 21.806753 174.50998 9997960
-49.775902 21.819086 174.37662 8551284
-50.907703 21.636618 174.04919 9143418
-51.898705 21.602154 173.8596 9471615
-52.771233 21.616331 173.72705 10787476
-53.64502 21.631008 173.59474 8945529
-54.600471 21.522818 173.35355 8222573
-55.775864 21.419067 173.07875 9537665
-56.43383 21.431225 172.97937 9537665
-123.71219 20.992388 151.11795 7564651
-124.37241 21.011385 150.81017 8879995
-125.32042 21.293026 150.4778 8682867
-126.20554 21.319714 150.06561 9012089
-127.09309 21.347006 149.65251 9933191
-127.98312 21.374866 149.23848 9603457
-128.8757 21.403351 148.82346 8156779
-129.77089 21.432434 148.40746 6512210
-130.66873 21.462065 147.99046 8222320
-131.6391 21.750856 147.65044 8090736
-132.31671 21.774187 147.33618 7565667
-41.198956 22.325748 176.97475 3749937
-42.265278 22.326029 176.73334 3749937
-43.118649 22.327057 176.54126 6774102
-44.186024 22.32922 176.30226 8551537
-45.254074 22.332249 176.0645 8748660
-46.108994 22.335428 175.87521 10459021
-46.964611 22.339205 175.6868 11313818
-48.034912 22.344938 175.45238 9734788
-49.106174 22.351496 175.21904 9800582
-49.961727 22.35652 175.02539 8879995
-51.018452 22.357697 174.73753 9077114
-51.863392 22.358833 174.50478 10261131
-127.07209 22.111042 149.99205 9603970
-128.18617 22.147078 149.47429 8682867
-128.92494 22.427731 149.24167 9735043
-129.82172 22.458111 148.8255 8945784
-130.82529 22.544271 148.38219 8090736
-131.8494 22.528959 147.88535 7827564
-132.75491 22.561432 147.46573 7433315
-133.59027 22.333639 146.96498 8617331
-130.02881 23.236465 149.06204 11378324
-130.70454 23.260599 148.74895 8090736
-131.57916 23.464502 148.41817 8419701
-132.28691 23.318203 148.0163 7038307
-65.621719 16.909206 170.05186 10984852
-66.298149 16.924755 169.97482 10721938
-67.201973 16.94582 169.87204 9011838
-68.10817 16.967377 169.76915 9735559
-70.315811 16.54998 169.34666 6511954
-71.001053 16.566872 169.26904 7695971
-105.50465 16.651554 158.08304 7037274
-106.33902 16.662542 157.68398 8616306
-107.17468 16.673971 157.28455 9471615
-108.22124 16.688847 156.7845 8090987
-109.26968 16.704304 156.28372 7959401
-110.11023 16.717131 155.88249 8223089
-110.95213 16.730408 155.48073 9868428
-111.79564 16.744135 155.07845 9868428
-64.49501 17.705084 170.4807 10656399
-65.492256 17.610958 170.32434 10656399
-66.395157 17.632524 170.22189 10919831
-67.300438 17.654535 170.11934 10788246
-68.324371 17.538404 169.95168 9538181
-69.27832 17.231674 169.72289 9998215
-70.156227 17.017509 169.53717 5393730
-106.64886 17.155109 157.73299 8089962
-107.27644 17.164034 157.43306 8945271
-108.28129 17.374716 157.03218 8485489
-109.30995 17.488646 156.58073 7827816
-110.2675 17.454891 156.1041 9276035
-111.11079 17.468822 155.70198 8223605
-111.9556 17.483223 155.29924 9276291
-112.80196 17.497995 154.89598 9275518
-113.59737 17.594376 154.55026 10853012
-114.34171 17.772411 154.26212 10590347
-62.725887 18.722759 171.06923 10064003
-63.453384 18.583021 170.92918 10392968
-64.267387 18.524006 170.80811 10064003
-65.394569 18.551662 170.68044 10853777
-66.525131 18.580042 170.5527 11314588
-67.345589 18.522131 170.4312 10788245
-68.080811 18.383146 170.29057 10459281
-109.37157 18.177423 156.82881 8419696
-110.21446 18.191416 156.42694 9670793
-111.20692 18.504517 156.07336 9013120
-112.16975 18.472458 155.59485 7302496
-113.01788 18.488209 155.19107 10195338
-113.86774 18.504379 154.78667 10195338
-114.71925 18.521101 154.38173 9406590
-115.57243 18.538244 153.97604 9866630
-116.48338 18.80501 153.64314 9866630
-117.1261 18.818672 153.33801 9537665
-61.599823 19.522264 171.49945 10064003
-62.593361 19.428215 171.34352 10129797
-63.492146 19.450384 171.24181 10655883
-64.393181 19.473099 171.14003 10787727
-65.425743 19.452208 171.00616 10524813
-66.396065 19.287621 170.8273 12433069
-112.33095 19.217373 155.81746 7894376
-113.28831 19.401566 155.43001 9077625
-114.08848 19.500616 155.08537 8551793
-114.94317 19.518482 154.68164 8683124
-115.80008 19.536949 154.27792 9472128
-116.65964 19.556087 153.87468 9340286
-117.52109 19.575726 153.47075 9866373
-118.38452 19.595861 153.06613 9997959
-119.52876 19.873726 152.63821 9932166
-59.609165 20.539545 172.1145 10525324
-60.473461 20.323542 171.92999 10196873
-61.593182 20.351185 171.80333 9866623
-62.7159 20.379612 171.67659 10458505
-63.616608 20.402981 171.57506 10261383
-64.487915 20.18782 171.38991 11379348
-115.12083 20.271185 154.91968 9341054
-116.09206 20.460318 154.53632 8880503
-116.90196 20.562811 154.19284 10326924
-117.76544 20.583546 153.78842 10195338
-118.63092 20.604828 153.38332 7958888
-119.49837 20.626585 152.97746 8682355
-120.36786 20.648966 152.57088 9142651
-121.31686 20.547857 152.07298 9537409
-55.017315 21.905104 173.58127 9143163
-55.895718 21.921429 173.44949 9866630
-56.808178 21.772194 173.18301 9142647
-57.815426 21.708639 172.96733 10063492
-58.803967 21.384922 172.60376 9735296
-59.702724 21.256573 172.38264 10130823
-60.592861 21.277267 172.26689 9670787
-61.713852 21.305904 172.13737 10064774
-62.808105 21.096136 171.92709 10261383
-117.94954 21.342669 154.02769 10195338
-118.93025 21.536209 153.64162 8156525
-119.74814 21.641981 153.29579 8551542
-120.61969 21.665533 152.88869 8813686
-121.46017 21.266855 152.31445 9274237
-122.35962 21.156868 151.83644 8287343
-123.21266 21.31592 151.49672 7564651
-124.28277 21.515993 151.07069 8814200
-44.379421 22.884516 177.07141 6774358
-45.452023 22.887661 176.83282 7827302
-46.310867 22.890985 176.64285 7038307
-47.385105 22.896044 176.40657 11050646
-48.460258 22.902069 176.17151 9997960
-49.32114 22.907591 175.98441 9340289
-50.182903 22.913816 175.79807 9340289
-51.261116 22.922539 175.56625 8486263
-52.322559 22.741352 175.02 9866373
-52.940689 22.369926 174.28261 10261131
-53.817539 22.385256 174.15025 8616823
-54.9156 22.405231 173.98521 8945785
-56.015804 22.42614 173.82045 9866630
-56.897659 22.443512 173.68892 8616560
-57.781185 22.461483 173.55753 9405819
-59.203663 21.987949 172.9563 10263180
-59.867924 22.002251 172.85753 9144187
-121.02793 22.437527 153.02615 8089963
-121.62083 22.200581 152.64018 9340030
-122.49776 22.225904 152.23131 8616307
-123.37688 22.251823 151.82166 8090221
-124.2583 22.27837 151.41121 9932424
-125.14205 22.305561 150.99988 9472383
-126.02812 22.333277 150.58765 8946039
-126.98373 22.619436 150.25357 9801093
-127.87527 22.648821 149.83946 9997959
-122.69115 22.99552 152.47069 10261132
-123.68903 23.196646 152.07971 9340286
-124.52076 23.308128 151.7296 9209211
-125.40666 23.336622 151.31786 10261899
-126.29497 23.365782 150.90518 8946039
-127.18575 23.395544 150.49161 10261900
-128.07898 23.426027 150.0771 9735043
-128.97479 23.457085 149.6617 9668993
-129.82132 23.572962 149.30646 10918030
-130.84402 23.781885 148.907 9143166
-125.60603 24.11343 151.5574 9735555
-126.49602 24.14362 151.14438 8946039
-127.45625 24.435072 150.81039 9472383
-128.35179 24.46693 150.39548 8945783
-129.24986 24.499533 149.97958 9668991
-130.05215 24.442724 149.57103 10457736
-130.7578 24.296227 149.17003 10063235
-128.78197 25.259558 150.53134 7564643
-129.23187 25.276445 150.32324 8813939
-71.458786 16.578197 169.21729 7695971
-72.146706 16.595488 169.13953 10260871
-73.296616 16.624901 169.0097 11379350
-74.450592 16.654961 168.87965 8287856
-75.377022 16.679604 168.77545 7103841
-76.073669 16.698338 168.69719 5920082
-98.664108 16.576681 161.36055 9932169
-99.283142 16.582315 161.06348 9406339
-100.10928 16.590254 160.66713 10064011
-100.9364 16.598547 160.27054 10064011
-101.76453 16.607286 159.87366 8156015
-102.80125 16.61875 159.37698 7893358
-103.83955 16.630833 158.87985 7433064
-104.67151 16.64102 158.48163 6774614
-69.477325 17.827473 169.9165 10459022
-70.453644 17.497913 169.67664 8024681
-71.334785 17.28405 169.49065 8419181
-72.253052 17.308077 169.38719 10260871
-73.404808 17.338785 169.25768 10458250
-74.471191 17.288507 169.10893 13222324
-75.219193 17.150383 168.96696 8287856
-100.20383 17.077625 160.81804 8814203
-101.13274 17.249823 160.43837 9406338
-101.90897 17.339714 160.09935 8288114
-102.73943 17.349298 159.70164 8090736
-103.77907 17.361874 159.20401 7498599
-104.82034 17.375067 158.70584 7169372
-105.65479 17.38615 158.30681 7563618
-106.43764 17.47854 157.96552 8418928
-107.37837 17.655197 157.58192 8945271
-67.692612 18.847113 170.50771 10985623
-68.429031 18.708494 170.36696 10459022
-69.48262 18.657679 170.21962 8945271
-70.651985 18.547001 170.03618 9274236
-71.510414 18.475636 169.9052 8089961
-72.395409 18.261957 169.71884 7037274
-73.282181 18.048508 169.53233 8089961
-102.26161 18.076849 160.22626 6511962
-102.88551 18.084427 159.92764 9537922
-103.76761 18.34087 159.60457 8945528
-104.71729 18.304438 159.13063 8419439
-105.74028 18.416931 158.68138 9669251
-106.6931 18.381659 158.20644 8353135
-107.53181 18.394365 157.80598 8089963
-108.37186 18.407518 157.40511 8089963
-109.16049 18.502386 157.06201 8946298
-110.10863 18.682604 156.67625 12828597
-66.007706 19.752483 171.04491 10985623
-66.742195 19.61377 170.90431 10985623
-67.564804 19.556789 170.78294 10919574
-68.47641 19.581898 170.68069 10524047
-69.619583 19.614082 170.55281 9669250
-70.731491 19.406937 170.34109 9735299
-104.96036 19.094584 159.33186 9734788
-105.79762 19.106747 158.93196 9340286
-106.781 19.417946 158.58202 8945272
-107.7372 19.383812 158.10588 9866371
-108.57901 19.397741 157.70445 9669250
-109.42216 19.412169 157.30257 11512224
-110.26678 19.427046 156.90021 13420733
-111.22925 19.395037 156.42186 11841959
-112.22653 19.711506 156.06728 9012856
-113.07706 19.728296 155.66393 9537920
-64.551239 20.665964 171.55702 10984847
-65.651543 20.457613 171.34637 9867142
-66.786888 20.489143 171.21918 10590865
-67.698006 20.515001 171.11723 10853268
-68.611557 20.541409 171.01526 10853012
-69.493225 20.327593 170.8293 9734531
-107.89183 20.128855 158.3317 10787215
-108.84143 20.311121 157.94847 9998215
-109.63496 20.408461 157.60693 10524560
-110.48285 20.424509 157.20612 10854038
-111.33325 20.441231 156.80615 10197131
-112.1853 20.458475 156.40575 8881527
-113.15544 20.428709 155.92848 9670530
-114.20594 20.551378 155.4785 9932934
-115.24034 20.774836 155.07973 10591121
-115.88522 20.789646 154.77739 9341054
-62.869781 21.575386 172.09465 9932675
-63.741573 21.3603 171.90958 10064261
-64.646439 21.385439 171.80824 10459019
-65.7808 21.417688 171.68147 9077885
-66.918686 21.450813 171.5546 7696228
-67.798325 21.23662 171.3689 10853012
-110.65416 21.177294 157.44875 9208443
-111.61568 21.364235 157.06898 8618355
-112.4178 21.464859 156.72844 9736579
-113.27348 21.483603 156.32692 10525839
-114.13077 21.502918 155.92485 10722450
-115.10693 21.475145 155.44559 10327949
-116.16458 21.601067 154.99358 9274745
-117.14552 21.574808 154.51271 9340281
-118.07259 21.850567 154.18779 8879990
-118.72342 21.867472 153.88353 9537664
-53.205372 22.940716 175.15187 10261131
-54.071075 22.949883 174.9689 9405823
-55.145863 22.958588 174.71373 8090479
-56.211975 22.964159 174.42778 9077112
-57.065598 22.969374 174.20021 7038298
-58.214111 22.852438 173.80971 10655115
-59.1096 22.489637 173.36089 10261897
-59.997463 22.509205 173.23006 7563874
-60.820915 22.275545 172.9126 8880759
-61.933964 22.30122 172.74893 8420211
-63.049786 22.327782 172.5853 8617333
-63.846516 22.262823 172.40256 9669760
-64.770226 22.117058 172.13556 9801606
-65.892891 22.145769 171.97212 8156786
-113.66455 22.247362 156.46907 13024949
-114.30893 22.26247 156.16713 8682867
-115.22964 22.537437 155.84497 10327693
-116.0925 22.558846 155.4411 9866625
-116.95728 22.580854 155.03668 9405815
-117.94173 22.555916 154.55461 9076852
-119.00948 22.686131 154.09966 8617078
-119.99917 22.662722 153.6158 9011579
-120.59085 22.425127 153.23007 9734788
-50.403866 23.475307 176.57005 7564651
-51.486935 23.48431 176.33754 8618106
-52.571369 23.494329 176.10623 8881278
-53.439884 23.50305 175.92206 8879736
-54.309528 23.512514 175.7386 8616566
-54.962433 23.520016 175.60149 7038307
-59.237263 22.998442 173.7338 7826790
-60.126968 23.018456 173.60298 7037274
-61.018578 23.039124 173.47231 7037274
-61.688461 23.055021 173.3745 7038307
-116.49103 23.329601 155.58281 9208435
-117.14098 23.346855 155.27908 10063747
-118.07111 23.626835 154.95456 10327436
-118.9418 23.651215 154.54826 9866374
-119.89217 23.550755 154.04999 8354163
-120.99998 23.200474 153.36859 8551028
