# .PCD v0.7 - Point Cloud Data file format
VERSION 0.7
FIELDS x y z rgb
SIZE 4 4 4 4
TYPE F F F U
COUNT 1 1 1 1
WIDTH 1191
HEIGHT 1
VIEWPOINT 0 0 0 1 0 0 0
POINTS 1191
DATA ascii
-71.255051 -51.662693 105.20207 12299684
-70.088554 -50.457943 106.20663 9998471
-70.801888 -50.483124 105.87708 11839646
-69.612396 -49.09087 106.96686 9011320
-70.248734 -49.450989 106.53779 10655886
-70.917328 -49.654228 106.157 13549237
-69.759949 -48.36694 107.19051 10327179
-70.428101 -48.579136 106.80632 9932676
-69.83847 -47.472557 107.5132 9406337
-70.466484 -47.698872 107.14142 10590351
-69.371277 -46.469074 108.12447 9537922
-70.038963 -46.597809 107.77405 8814201
-68.908768 -45.350395 108.90371 11641498
-69.592751 -45.609608 108.42127 8748152
-70.258728 -45.923981 107.94676 8814201
-68.613449 -44.201492 110.22385 5392706
-69.1492 -44.650928 109.3999 9471100
-69.722137 -45.005661 108.82954 10062980
-68.644104 -43.977654 110.92529 6445906
-69.060593 -43.988934 110.70277 5392706
-79.580322 -67.502235 86.273254 11511455
-80.256424 -67.521393 85.961685 11314332
-80.840561 -67.889801 85.550491 9208443
-79.725006 -66.584602 86.578369 10195339
-80.3452 -66.679092 86.26181 9734788
-79.210915 -65.552605 87.225914 10196105
-79.871391 -65.634918 86.896156 10524816
-79.384407 -64.547554 87.553886 9867140
-79.939873 -64.773682 87.213196 9209467
-78.8731 -63.561615 88.181549 10459019
-79.502991 -63.660648 87.858765 11511449
-78.96714 -62.570114 88.53968 9603198
-79.528969 -62.86401 88.168777 10590605
-78.480179 -61.582638 89.157043 8616048
-79.16362 -61.694473 88.805077 9405306
-78.197739 -60.210079 90.041565 8089705
-78.600731 -60.582954 89.581299 8944756
-79.120773 -60.918335 89.137726 8616048
-77.792694 -59.244324 91.25882 11378583
-78.223114 -59.655766 90.507607 9076343
-78.793259 -59.862736 90.066422 10851980
-73.074959 -58.082329 101.81831 10788244
-73.552025 -58.450905 101.44935 10261900
-73.971588 -58.773087 100.59579 11051415
-74.335815 -58.77494 99.72744 9669764
-74.646988 -58.776962 98.700531 7629925
-75.282814 -58.779301 97.768616 8156524
-75.507416 -58.781029 96.84964 9275003
-75.846329 -58.782833 95.991364 8090987
-76.337692 -58.785046 95.005341 9406590
-76.684586 -58.78688 94.131073 10919829
-77.193626 -58.814663 93.18782 9932934
-77.464859 -58.971252 92.288712 10786703
-77.919205 -59.082375 91.704102 11707548
-73.028427 -57.378242 102.1209 10788244
-73.679268 -57.530117 101.7686 10065032
-72.630737 -56.249363 102.75066 8617843
-73.243919 -56.494774 102.37787 10525326
-72.68277 -55.359367 103.08353 9078138
-73.289749 -55.600121 102.7153 9867397
-72.21196 -54.266254 103.73177 8354159
-72.828636 -54.507549 103.35902 9012089
-72.305222 -53.391693 104.03996 8682611
-72.91304 -53.640976 103.66797 7564643
-71.783676 -52.292236 104.71347 9011323
-72.403854 -52.529613 104.3407 9011323
-71.902985 -51.461536 104.99242 9011323
-72.565399 -51.622898 104.63116 7038307
-71.450699 -50.279785 105.66786 12102561
-72.096527 -50.593357 105.25311 9800581
-71.524567 -49.475029 105.95677 12759978
-72.182144 -49.739231 105.55653 10721425
-71.048653 -48.473328 106.57076 12365733
-71.761658 -48.615849 106.19434 12497063
-70.564102 -47.223534 107.2879 10590351
-71.172371 -47.552361 106.88393 9538176
-71.772934 -47.833595 106.50233 10655886
-70.669456 -46.481632 107.53884 9669508
-71.341003 -46.700035 107.15074 10656143
-70.166771 -45.314999 108.37257 7038307
-70.841904 -45.533829 107.92073 9340798
-71.426117 -45.831337 107.46207 9144187
-69.894226 -44.255051 109.52954 8878963
-70.384308 -44.658733 108.84915 8156526
-70.970276 -44.778595 108.46307 9144187
-69.286118 -43.748459 112.26195 6511954
-69.19577 -43.79303 111.51497 5919562
-69.67807 -43.933544 110.62224 6773845
-70.308029 -44.024796 110.03001 8682867
-129.71558 -76.699844 -26.981081 10262156
-129.7814 -76.599129 -27.6481 10262156
-129.84796 -76.341682 -27.009066 10262156
-130.02606 -75.989548 -27.783018 9341313
-82.149734 -68.129623 84.865845 7038307
-80.895645 -67.347908 85.744629 9208443
-81.580681 -67.692436 85.297928 7169893
-80.962891 -66.547798 86.037491 9274236
-81.663757 -66.754562 85.639359 9274752
-80.558624 -65.367935 86.69545 9800837
-81.203735 -65.697563 86.27269 9735044
-80.592056 -64.522133 87.021957 9735043
-81.311409 -64.784927 86.592873 10656402
-80.127907 -63.369968 87.695587 10459019
-80.828918 -63.668316 87.260376 9406846
-80.253288 -62.515762 87.984238 9735554
-80.916908 -62.731983 87.598984 9209467
-79.776337 -61.392399 88.651962 9208698
-80.439545 -61.666637 88.243484 9472639
-79.293396 -60.300591 89.474274 9537149
-79.94133 -60.579792 88.975693 9275005
-80.604408 -60.873428 88.493011 11182998
-78.522385 -59.123718 91.294518 10786703
-79.114647 -59.276695 90.619904 10129800
-79.600525 -59.643929 89.907211 8946039
-80.219521 -59.949497 89.355042 9143675
-74.178818 -58.184425 101.28313 9210491
-74.818527 -58.451965 100.84984 9669764
-75.335342 -58.748856 100.10835 8419701
-75.532722 -58.777645 99.074677 10525072
-76.241333 -58.779881 98.275818 11643292
-76.22422 -58.781387 97.284073 9275003
-76.891342 -58.783756 96.355927 10788241
-77.357307 -58.785931 95.375999 9275004
-77.560074 -58.787624 94.459015 9275004
-78.228043 -58.789818 93.652534 9143420
-78.191818 -58.822502 92.564072 12036513
-78.848099 -58.929482 91.821259 9275264
-79.431923 -59.024643 91.23455 9209985
-74.299545 -57.431526 101.53027 9407870
-74.952423 -57.675499 101.14022 9604482
-73.774231 -56.185333 102.26422 10657166
-74.397453 -56.568253 101.83184 11577755
-75.056122 -56.792919 101.44691 10657166
-73.935387 -55.454243 102.48451 11511962
-74.593338 -55.687431 102.09654 11906462
-73.359886 -54.196541 103.24551 9012089
-73.987213 -54.574642 102.81328 9012088
-74.649414 -54.794823 102.42856 9933700
-73.542542 -53.521431 103.43387 8288366
-74.247757 -53.666954 103.05979 8485745
-73.076103 -52.227722 104.16043 7301475
-73.655045 -52.624554 103.74235 8156780
-74.19812 -52.966042 103.36245 8288366
-73.182053 -51.516567 104.39752 8090735
-73.845718 -51.747803 104.00775 9208955
-72.750229 -50.424721 105.02782 7038307
-73.375 -50.661854 104.65312 9208699
-72.841324 -49.552505 105.33602 9735042
-73.457031 -49.797771 104.96213 11313556
-72.309799 -48.458874 106.01166 11116179
-72.937927 -48.692371 105.63692 9537661
-72.427773 -47.629635 106.29109 10984849
-73.150299 -47.656437 105.95711 10853263
-71.967163 -46.453014 106.97012 12037280
-72.586182 -46.632473 106.62119 10327177
-71.561996 -45.194279 107.85164 9144187
-72.144089 -45.561871 107.32939 8486000
-72.739571 -45.751305 106.90703 8682867
-71.35717 -44.198868 109.05112 11644320
-71.778191 -44.590336 108.26852 11775906
-72.384804 -44.85247 107.77075 9144187
-70.000534 -43.748165 113.11349 7564651
-70.09462 -43.750385 111.75803 8288112
-70.547546 -43.797432 110.99104 9538176
-71.062889 -43.925774 110.03941 9867141
-129.71281 -76.438522 -24.706373 9604225
-129.71477 -76.548172 -25.67959 9012603
-129.71555 -76.64225 -26.49246 8091760
-129.84479 -76.081184 -24.731874 9143419
-129.99054 -75.908676 -25.572401 7696490
-130.03644 -75.905296 -26.558989 8091504
-130.30194 -75.557487 -27.432352 9012604
-130.39647 -75.473053 -28.109159 8486262
-130.53964 -75.197723 -26.564581 9077118
-130.81618 -74.906586 -27.486654 10064010
-130.91783 -74.801704 -28.090364 8946044
-82.675522 -68.228424 84.589958 9011838
-83.334114 -68.353905 84.243622 9011838
-82.147423 -67.131683 85.269936 7038307
-82.76992 -67.57943 84.809654 9670023
-83.422745 -68.036293 84.332069 9537923
-82.364304 -66.46669 85.441093 7630185
-83.025429 -66.676186 85.059662 10656658
-81.786118 -65.414253 86.125595 9208443
-82.403618 -65.573891 85.783951 8419697
-83.023079 -65.964615 85.348068 10064265
-81.978142 -64.520782 86.400208 8551539
-82.66153 -64.645027 86.043228 8288368
-81.457962 -63.554062 87.024147 9735812
-82.076431 -63.575863 86.737663 7038560
-81.590927 -62.542519 87.372894 9209467
-82.221367 -62.782043 86.993134 7169889
-81.074112 -61.61982 87.977478 9209467
-81.737671 -61.570114 87.699669 9341053
-80.862762 -60.12785 88.916924 8090987
-81.225601 -60.555836 88.424896 11906720
-81.769035 -60.836979 87.981613 10196104
-80.573311 -59.177406 90.20195 9275261
-80.870575 -59.611084 89.354416 8748917
-81.397141 -59.915154 88.856644 14143680
-76.14032 -58.414276 100.31257 9077886
-76.544495 -58.716911 99.569588 10919829
-77.089035 -58.780548 98.62999 10459276
-77.259361 -58.782242 97.680542 11117205
-77.877861 -58.784592 96.727898 12432295
-78.082336 -58.786316 95.796555 10524301
-78.521835 -58.788273 94.927986 9602943
-78.952423 -58.790226 94.057556 8485491
-79.203903 -58.792156 93.031387 7434089
-79.693764 -58.819473 92.069168 7894383
-80.06398 -58.95084 91.236923 9275519
-80.710487 -58.952152 90.919403 8090987
-75.606163 -57.501842 100.91692 10854036
-76.196091 -57.659096 100.58978 9472643
-75.74688 -56.543797 101.23724 9999239
-76.274902 -56.855965 100.87585 10064522
-75.210846 -55.59655 101.85634 9210491
-75.859779 -55.6134 101.55898 9209467
-74.75592 -54.315163 102.57278 9210491
-75.422516 -54.575302 102.17017 9209467
-75.907913 -54.908653 101.8194 8682867
-74.79998 -53.60231 102.83832 8814453
-75.45153 -53.615559 102.54121 9537920
-74.338196 -52.32785 103.55515 8682867
-75.030746 -52.617672 103.12896 9537664
-75.673355 -52.765533 102.78199 10129545
-74.548569 -51.533379 103.77878 9406078
-75.102097 -51.647984 103.48499 9866629
-73.911171 -50.349022 104.53812 10458505
-74.582222 -50.562901 104.15202 9077368
-75.253311 -50.778419 103.76521 9406078
-74.140541 -49.557312 104.75223 10129797
-74.784126 -49.508827 104.48335 10458505
-73.651062 -48.228718 105.50324 7893607
-74.228745 -48.580994 105.10358 8748403
-73.790657 -47.360092 105.78997 10984849
-74.357048 -47.633068 105.42693 9011574
-73.262123 -46.348282 106.43325 10853264
-73.936432 -46.506294 106.06819 11050642
-72.827095 -45.16671 107.31084 5920074
-73.466438 -45.47068 106.78885 9340284
-74.069275 -45.682785 106.3647 12431013
-72.105927 -44.081017 109.04466 15723486
-72.694107 -44.162258 108.50978 10657426
-73.018753 -44.596878 107.70196 7104348
-73.654228 -44.826416 107.2267 9471869
-70.588799 -43.747543 114.06282 8156787
-70.704254 -43.748825 113.33344 9406851
-71.085892 -43.750755 112.43327 11248795
-71.454224 -43.752975 111.32883 9275004
-71.967117 -43.75489 110.55994 10459278
-72.319328 -43.873562 109.7104 13025717
-72.967834 -43.925705 109.20105 10458510
-129.71086 -76.367249 -24.058905 9143419
-129.69971 -76.130562 -21.801367 8617078
-129.82436 -75.95752 -22.466364 9340286
-129.92935 -75.868973 -23.394339 8090218
-130.10156 -75.654205 -24.348673 8880247
-130.25478 -75.487381 -25.136187 9143419
-130.41626 -75.176254 -23.37995 7037274
-130.60316 -74.984924 -24.291693 8682612
-130.72141 -74.890182 -25.227095 8748665
-131.02715 -74.666893 -26.105883 8288117
-131.34613 -74.494949 -27.048456 10458512
-131.62601 -74.399895 -28.044077 9340289
-131.77596 -74.333733 -26.751162 10064011
-132.16165 -74.229164 -27.825899 9011581
-132.33473 -74.185455 -28.529024 8879995
-83.995506 -68.280807 83.976212 9668988
-84.687386 -68.506393 83.574493 9274486
-83.467377 -67.376724 84.578354 11380380
-84.130295 -67.503159 84.229706 8090474
-84.749802 -67.790497 83.835602 8090470
-83.668945 -66.510277 84.837761 9669507
-84.238792 -66.617096 84.538803 8221805
-83.197067 -65.333885 85.524658 10064265
-83.72348 -65.607849 85.177673 9932679
-84.441551 -65.89357 84.739914 10064265
-83.192825 -64.625458 85.812622 8485747
-83.858978 -64.58477 85.529968 9340542
-82.781837 -63.285343 86.538277 5393738
-83.34996 -63.686405 86.121269 6578009
-82.808113 -62.562084 86.818512 6972511
-83.488251 -62.749649 86.437416 6248786
-82.415771 -61.373241 87.474777 9209467
-83.022667 -61.717026 87.063446 7893608
-83.525841 -62.100368 86.682709 5920074
-81.900795 -60.267124 88.334351 11182998
-82.542549 -60.538155 87.844727 8484976
-83.16217 -60.805828 87.389465 7958889
-81.688248 -59.228058 89.560287 9670021
-82.1511 -59.596939 88.815475 11445914
-82.687302 -59.861378 88.323532 8222061
-77.370956 -58.431778 99.728012 9472641
-77.998108 -58.660782 99.134094 9538175
-78.160858 -58.782974 98.040375 9209467
-78.855911 -58.785225 97.220474 9405821
-78.815033 -58.786705 96.22049 9602943
-79.465225 -58.789085 95.271103 9668735
-79.798172 -58.790951 94.369896 7564904
-80.221672 -58.792896 93.493301 12433326
-80.74794 -58.795147 92.518082 12433326
-80.921677 -58.799809 91.599052 8880503
-81.353027 -58.916462 90.758392 10327693
-81.919441 -59.042301 90.073387 8550771
-76.844437 -57.379131 100.41142 10854036
-77.54882 -57.564556 100.02173 9933192
-77.023132 -56.46254 100.69815 10459279
-77.72953 -56.646496 100.30815 9867143
-76.528244 -55.327446 101.37398 8880246
-77.185234 -55.588264 100.97536 8617335
-76.622787 -54.454979 101.68076 9735299
-77.332634 -54.634212 101.29109 8485491
-76.163551 -53.352566 102.32755 10984854
-76.827385 -53.594646 101.93333 10656146
-75.816383 -52.126343 102.97364 9406078
-76.315666 -52.466202 102.61408 9208955
-76.919449 -52.767433 102.22312 8682867
-75.76767 -51.424679 103.27626 9669250
-76.480804 -51.572685 102.89764 9668994
-75.359116 -50.299854 103.9093 9011576
-76.032097 -50.517315 103.52088 9537664
-76.669289 -50.896286 103.08391 10853012
-75.411346 -49.411594 104.24139 9406076
-76.083458 -49.638985 103.84937 10129545
-74.92894 -48.321522 104.89433 7564643
-75.605408 -48.534935 104.50607 9011063
-76.2463 -48.909462 104.06892 9735043
-75.02459 -47.447941 105.20294 8484720
-75.698822 -47.677795 104.80905 8089963
-74.598175 -46.304173 105.85364 11181460
-75.203873 -46.591862 105.46708 10589836
-75.815926 -46.93063 105.05721 9537150
-74.715851 -45.520992 106.19814 11181460
-75.349487 -45.766159 105.74179 9734528
-73.872787 -44.183636 107.94939 9997957
-74.359863 -44.562923 107.16173 11773340
-74.931198 -44.882179 106.61084 10392458
-71.047714 -43.746582 115.1124 7564651
-71.462654 -43.747566 114.8548 9406851
-71.546883 -43.749828 113.46335 9669766
-72.228256 -43.751461 113.03042 8879991
-72.299324 -43.753677 111.65613 8814197
-72.969803 -43.755299 111.21872 9142651
-73.028 -43.757473 109.86124 9801092
-73.592484 -43.872734 109.1087 9340541
-74.214371 -43.968895 108.50319 10458510
-129.68536 -75.901009 -19.396624 10721934
-129.85181 -75.737793 -20.142138 9406333
-129.92094 -75.716461 -21.131659 10392970
-130.02281 -75.608047 -21.9638 8090735
-130.40802 -75.053314 -21.034765 8945528
-130.53966 -74.937637 -22.008986 7695464
-130.77383 -74.770905 -22.957087 7037532
-131.12054 -74.538536 -23.903124 8551026
-131.47299 -74.400658 -24.880518 10458767
-131.9852 -74.23941 -24.813059 10261389
-132.08873 -74.221001 -25.756227 10326926
-132.38428 -74.158501 -26.685629 9998218
-132.71129 -74.064407 -27.60824 8682873
-133.16254 -74.064697 -28.372259 8419702
-85.293556 -68.514969 83.298904 8813936
-85.990723 -68.577431 82.960655 7630434
-85.388298 -67.608307 83.622459 7761763
-85.982117 -67.754242 83.296951 5920074
-84.871834 -66.530663 84.289474 7498082
-85.491043 -66.724205 83.93335 8090729
-84.351196 -65.212151 85.055603 10064265
-84.976448 -65.630692 84.605934 8946040
-85.602325 -65.779213 84.264938 8025194
-84.552826 -64.491196 85.256241 9604226
-85.176743 -64.783287 84.858231 9012089
-84.02919 -63.336151 85.957764 9209467
-84.657387 -63.612251 85.564224 9012089
-85.286346 -63.890709 85.169426 7893608
-84.133522 -62.449852 86.268784 7630692
-84.760513 -62.734898 85.8722 7959401
-83.664528 -61.251301 86.963326 7367263
-84.326927 -61.610382 86.520966 6643797
-84.960365 -62.017151 86.072342 6972762
-83.352005 -60.182571 87.755539 8419440
-83.851387 -60.480259 87.294571 7433057
-84.396408 -60.810078 86.825073 5920074
-82.976486 -59.179993 89.130142 8682868
-83.549164 -59.498188 88.308167 7695205
-84.033623 -59.877338 87.707253 7695973
-78.662674 -58.481655 99.155907 9538175
-79.212532 -58.656258 98.521164 9604225
-79.718719 -58.785927 97.560982 10326665
-79.867729 -58.787613 96.599854 10655629
-80.468361 -58.78997 95.626724 9668994
-80.652222 -58.791679 94.683273 9209214
-81.316963 -58.793907 93.850342 11051672
-81.487686 -58.795593 92.912201 10920086
-81.895554 -58.797527 92.028366 12104876
-82.23494 -58.815842 91.033325 9998730
-82.673477 -58.913174 90.213364 10130317
-83.32901 -58.98402 89.651428 10262156
-78.228592 -57.276169 99.832703 8288371
-78.800552 -57.696411 99.408371 9209467
-79.337891 -58.059639 99.022354 9209467
-78.283699 -56.580566 100.08633 8551543
-78.991013 -56.744209 99.704071 8682869
-77.858185 -55.37022 100.76119 7038307
-78.499557 -55.710072 100.33797 8485494
-77.954689 -54.540012 101.0502 7433064
-78.511971 -54.832977 100.6834 8419702
-77.449478 -53.498108 101.69334 9275261
-78.116058 -53.67664 101.32341 8157295
-77.595795 -52.546051 102.0088 8223341
-78.145638 -52.881233 101.6284 8618099
-77.120918 -51.457325 102.6571 9341310
-77.737717 -51.715862 102.27742 8420720
-77.213043 -50.587566 102.96388 10326924
-77.842445 -50.835426 102.58281 8354927
-76.744186 -49.491646 103.61247 9866629
-77.367142 -49.733749 103.23666 8748405
-76.791458 -48.59898 103.95 9077369
-77.42411 -48.842808 103.56904 8617075
-76.338074 -47.572186 104.56569 8287341
-77.012802 -47.717701 104.20546 8945527
-75.957108 -46.293228 105.25037 12432037
-76.45993 -46.654808 104.88017 9273978
-76.962059 -47.017601 104.50978 8089963
-76.100121 -45.448841 105.63963 8879734
-76.610435 -45.80566 105.17214 9011319
-75.137581 -44.188313 107.33969 9932163
-75.654121 -44.554066 106.59807 8682867
-76.204498 -44.785564 106.1241 8617075
-71.931908 -43.746597 115.91864 11313564
-71.876816 -43.748554 114.59579 10064779
-72.564667 -43.750202 114.1604 9800581
-72.771431 -43.752773 112.68108 9142651
-73.447884 -43.754414 112.24061 8089963
-73.665298 -43.756313 111.20572 8550770
-74.16983 -43.758236 110.42089 10721682
-74.402939 -43.77602 109.436 9866629
-74.876503 -43.881035 108.51493 9932164
-75.458679 -44.014702 107.79734 10326664
-129.80774 -75.609344 -17.08732 9077368
-129.82043 -75.643806 -17.980597 9011319
-129.83144 -75.680641 -18.875605 10063493
-130.13792 -75.342636 -19.946249 9537150
-130.16563 -75.197563 -18.02915 9011063
-130.35928 -74.995888 -18.910566 9997700
-130.55312 -74.837601 -19.882044 8155756
-130.96439 -74.542038 -20.82831 8418927
-131.27675 -74.415245 -21.743971 9076857
-131.21828 -74.443115 -22.384394 6511962
-131.78409 -74.255165 -21.66548 9537408
-131.86107 -74.245888 -22.658098 9143678
-132.12599 -74.185349 -23.523851 9406593
-132.45799 -74.103928 -24.374235 9603970
-132.9668 -74.063301 -25.329962 8682867
-133.45544 -73.968643 -26.290751 9472385
-133.81062 -73.780266 -27.232656 8288373
-134.01884 -73.737473 -28.218096 7104100
-134.05338 -73.832771 -28.900331 7301474
-134.20468 -72.918816 -27.13455 7038307
-134.32515 -72.830795 -28.013533 8025201
-134.40741 -72.834808 -28.842466 7038298
-134.65788 -71.972244 -28.242025 7038304
-134.77936 -71.816742 -28.889692 7498592
-135.05495 -71.117226 -29.119867 9931648
-87.326965 -69.159897 82.125565 12432037
-87.730209 -69.24559 81.909912 8814201
-86.527687 -68.484032 82.757294 11051672
-87.154213 -68.613922 82.423607 11840159
-86.669739 -67.63739 83.035416 8683124
-87.418419 -67.707977 82.670784 9406080
-86.138275 -66.485222 83.739281 9143675
-86.856056 -66.724815 83.320267 9670019
-85.782333 -65.145828 84.439911 7893608
-86.337654 -65.555511 84.025169 8419952
-86.890442 -65.916519 83.631187 9341054
-85.827065 -64.488289 84.685349 8485745
-86.512856 -64.691315 84.295471 8419952
-85.974571 -63.544563 85.000206 7827814
-86.548141 -63.957115 84.576126 8814710
-85.465065 -62.581669 85.61776 7762022
-86.137642 -62.602032 85.307602 7367008
-84.863968 -61.343529 86.387634 6972762
-85.543213 -61.542545 86.002281 9143674
-86.178284 -61.735855 85.639099 8485494
-85.092842 -60.461876 86.756348 8617074
-85.70134 -60.68174 86.331459 10919313
-84.436569 -59.185757 88.464561 8090475
-84.770798 -59.554752 87.682808 7037531
-85.368187 -59.800003 87.174477 8221546
-79.978775 -58.380112 98.601028 9275004
-80.637604 -58.625565 98.079926 7958633
-80.784882 -58.788395 96.944992 8156012
-81.465866 -58.790653 96.104156 9011577
-81.400803 -58.792114 95.096344 11314844
-82.312149 -58.794621 94.307335 13354171
-82.235184 -58.796047 93.309433 11906982
-82.952713 -58.798592 92.316254 14144973
-83.150887 -58.800243 91.42453 16777207
-83.650131 -58.809982 90.5625 10525330
-84.031136 -58.926998 89.53772 8879991
-84.498276 -59.035431 88.956741 7958633
-79.530174 -57.252247 99.259338 7563619
-80.150131 -57.518093 98.87529 9011577
-80.822327 -57.897675 98.422302 9340798
-79.69677 -56.401295 99.525192 7563619
-80.256165 -56.636963 99.180336 8090219
-79.104622 -55.388 100.19586 9340289
-79.721542 -55.535923 99.860367 8813688
-79.246277 -54.56358 100.4623 9537668
-79.950928 -54.569252 100.14444 9800582
-78.802414 -53.382187 101.1338 8682873
-79.332367 -53.59938 100.80956 9537667
-78.846664 -52.550747 101.44669 8946809
-79.553925 -52.552345 101.12926 8617080
-78.443993 -51.380405 102.09534 8881015
-78.960495 -51.607277 101.77323 9209724
-78.498726 -50.512917 102.41794 8552307
-79.140358 -50.680504 102.06349 9012605
-78.040482 -49.546852 103.01035 7564643
-78.65699 -49.546364 102.73489 8749174
-77.533112 -48.363544 103.71303 10853012
-78.210793 -48.545483 103.33688 9866884
-78.893669 -48.804882 102.9272 9209467
-77.689514 -47.493031 103.99324 10261386
-78.253769 -47.608883 103.6944 9801091
-77.105682 -46.379211 104.70233 8090987
-77.76358 -46.523155 104.3502 9406589
-78.472855 -46.812263 103.91682 9209467
-77.290871 -45.44775 105.10886 8485488
-77.853279 -45.710091 104.65536 8090987
-76.675339 -44.15538 106.77638 8485495
-77.0383 -44.48415 106.02172 9340798
-77.627319 -44.760841 105.51053 10853520
-72.262871 -43.436821 116.86789 9011320
-72.809845 -43.551273 116.57835 8484721
-72.905579 -43.748924 115.30774 9537409
-73.736328 -43.750923 114.77808 9142651
-73.660164 -43.752846 113.45578 10260875
-74.477547 -43.754833 112.9207 10260875
-74.524895 -43.757042 111.5275 9011577
-75.194557 -43.75869 111.07677 9077625
-75.22924 -43.760849 109.70099 9275004
-75.890564 -43.779465 108.96983 10722194
-76.160782 -43.891785 107.9124 10590867
-76.580521 -43.995621 107.36938 7038307
-72.466232 -42.658573 117.08839 7104090
-72.887833 -42.84586 116.82559 7563619
-72.570602 -41.734936 117.41114 5393730
-72.642113 -40.978195 117.68188 5393730
-129.53632 -75.397995 -13.823157 6972249
-129.65527 -75.528717 -14.784194 9866373
-129.80324 -75.548264 -15.910983 9998212
-129.95105 -75.393318 -16.565229 11379607
-129.81264 -75.14888 -14.169372 7958888
-129.89215 -75.236397 -14.811702 10458509
-130.18471 -75.029747 -15.64041 8880246
-130.39447 -74.840591 -16.67584 9866883
-130.6129 -74.687538 -17.643091 9537663
-130.95409 -74.480125 -18.589956 10655629
-131.20807 -74.405106 -19.627222 7563618
-131.41461 -74.348145 -20.143763 7037274
-131.52757 -74.290985 -18.704058 12432037
-131.72533 -74.239464 -19.380304 7826790
-132.00117 -74.177925 -20.429598 8287341
-132.22375 -74.133774 -21.247435 8879478
-132.68738 -74.070633 -22.142767 9406850
-133.26276 -73.898338 -23.15943 10656658
-133.52621 -73.821243 -24.106009 9406590
-133.67133 -73.701233 -25.006475 9275003
-133.79016 -73.732498 -25.933153 11182486
-133.82779 -73.057442 -23.89543 8880246
-134.02457 -72.794464 -24.906664 9932676
-134.08437 -72.919815 -25.946646 14208707
-134.22502 -72.737915 -26.690485 10327954
-134.25952 -72.143517 -24.909472 9406077
-134.47115 -71.81852 -25.843756 13222070
-134.54114 -71.910889 -26.866762 9603975
-134.68333 -71.745323 -27.683535 7630443
-134.88576 -71.385483 -28.403585 9931648
-134.75714 -71.072617 -26.011847 10261132
-134.91269 -70.850632 -26.759417 9603458
-134.98235 -70.933731 -27.746138 8287854
-135.14786 -70.769943 -28.800009 9273976
-88.428497 -69.310371 81.570305 7893358
-89.022301 -69.410995 81.263 7103838
-135.21068 -70.124161 -27.115686 9011320
-135.3546 -69.875862 -27.654127 7629668
-135.43649 -69.90361 -28.56418 7827047
-135.52084 -69.853996 -29.221857 10064265
-87.892006 -68.371902 82.190086 10590351
-88.490433 -68.697578 81.789932 8353651
-135.64566 -69.133369 -27.884722 8813942
-135.74944 -69.042778 -28.588648 9208700
-135.88765 -68.854851 -29.216661 10064265
-87.921967 -67.510864 82.524315 8945786
-88.562729 -67.787529 82.124931 8814201
-136.21088 -68.27935 -29.372709 10064265
-87.550827 -66.271431 83.191414 8748917
-88.105309 -66.639053 82.794052 7104095
-88.662079 -67.061012 82.373642 6511954
-87.58551 -65.55468 83.465294 8946041
-88.265167 -65.712555 83.096405 8814203
-87.136398 -64.40152 84.132553 10788244
-87.746391 -64.640564 83.762161 8090736
-87.273369 -63.593407 84.3974 9406339
-87.910019 -63.713688 84.062958 8814203
-86.68132 -62.586643 85.069733 7564650
-87.372772 -62.680054 84.721573 7169892
-86.311295 -61.264542 85.769699 8485494
-86.950676 -61.657234 85.324104 8485494
-87.589653 -61.82309 84.97023 7038307
-86.481651 -60.48666 86.119911 9142648
-87.007393 -60.776798 85.682198 9932937
-85.498894 -59.161251 88.079369 8155755
-86.021584 -59.525272 87.17305 8221546
-86.629807 -59.792858 86.615211 7760996
-81.33268 -58.425034 97.982742 8550770
-81.825951 -58.620659 97.474419 9603714
-82.227501 -58.791084 96.529526 9669507
-82.405975 -58.792809 95.568573 10920086
-83.072685 -58.795071 94.716415 11314844
-83.237854 -58.796776 93.761086 8879991
-83.888542 -58.799015 92.905563 7168860
-84.101784 -58.800945 91.845284 10525330
-84.649963 -58.803257 90.850494 8485233
-84.873749 -58.804813 90.042618 8551282
-85.398804 -58.896339 89.040909 7958633
-85.955574 -59.028545 88.335968 8353133
-80.696587 -57.217892 98.750648 9340798
-81.370552 -57.599037 98.29631 8550770
-81.992645 -57.870224 97.909149 8813942
-80.898071 -56.535027 98.933655 9209212
-81.61097 -56.705975 98.545967 9867398
-80.454926 -55.201328 99.665771 8419440
-80.976883 -55.620075 99.264465 9077626
-81.616409 -55.827621 98.89502 8683124
-80.51236 -54.504829 99.918739 8879994
-81.228523 -54.670757 99.531593 9340798
-80.08429 -53.291203 100.59608 9340289
-80.733124 -53.633427 100.16855 9208701
-80.184067 -52.459595 100.88415 8682101
-80.825844 -52.795692 100.46222 9340285
-79.675171 -51.414146 101.5304 8881019
-80.349716 -51.594795 101.15601 8747893
-79.825928 -50.460346 101.84479 8552312
-80.381752 -50.797626 101.46074 9012606
-79.265793 -49.409847 102.51749 9736071
-79.943565 -49.586174 102.14359 8092018
-79.445557 -48.496872 102.80436 10196364
-80.082092 -48.746853 102.41919 7565675
-78.931793 -47.371838 103.48656 9603968
-79.558823 -47.628372 103.10304 9538176
-79.025604 -46.501926 103.79449 10130055
-79.665367 -46.747841 103.40956 9209467
-78.511246 -45.465496 104.5429 9472382
-79.243843 -45.68906 104.06252 10787984
-77.803314 -44.108242 106.44246 10261642
-78.299446 -44.455742 105.51518 9275003
-78.818092 -44.763382 104.97765 9406333
-73.545929 -43.382629 116.31767 8353135
-74.130547 -43.492588 116.00253 9011065
-74.287888 -43.752251 114.42142 9142651
-74.974777 -43.753922 113.97176 9209467
-75.020103 -43.756153 112.56055 8616819
-75.695801 -43.757812 112.10648 12433069
-75.897102 -43.759712 111.05566 9867141
-76.392891 -43.761654 110.25482 9275004
-76.73333 -43.76355 109.33633 10722451
-77.066353 -43.765438 108.41672 7695980
-77.554222 -43.849808 107.56108 7827565
-78.137375 -43.933445 106.89861 12037793
-72.986877 -42.343765 116.98219 5393730
-73.615067 -42.574772 116.60981 7563619
-74.13475 -42.734226 116.31444 7563619
-73.010521 -41.601738 117.26835 5393730
-73.640495 -41.696987 116.94945 6840664
-73.212425 -40.633457 117.56546 6314832
-73.894119 -40.862564 117.17004 8288365
-72.904404 -39.637081 118.10112 8288365
-73.41893 -39.706402 117.84407 7367263
-73.177963 -38.633026 118.38057 9340797
-73.341827 -38.978035 118.16959 9209467
-73.232765 -37.957981 118.62614 8287859
-128.99419 -74.870331 -9.8482771 9867145
-129.21974 -74.824791 -10.648902 10327697
-129.45163 -74.848595 -11.649962 7959408
-129.64626 -74.921692 -12.630481 7564651
-130.00916 -74.747452 -13.494533 8090737
-130.38928 -74.636177 -14.445018 9537667
-130.72818 -74.522903 -15.409972 8419957
-131.09717 -74.390785 -16.360304 8156786
-131.14018 -74.389938 -17.200377 9537150
-131.26173 -74.322975 -15.289947 7564651
-131.68333 -74.208389 -16.465933 10787729
-131.76765 -74.206436 -17.283213 12497320
-132.03391 -74.157211 -18.151045 13023406
-132.4595 -74.072578 -18.999933 7827049
-132.90637 -73.901917 -19.881849 8682357
-133.20801 -73.824921 -20.871729 9405824
-133.40248 -73.668869 -21.86202 9274751
-133.52016 -73.55249 -22.613405 8880507
-133.37482 -73.257095 -20.117414 10261132
-133.54561 -72.974663 -20.802359 9603460
-133.72174 -72.782486 -21.862425 8813686
-133.79356 -72.853104 -22.826582 9340286
-133.92599 -72.709007 -23.624872 8484978
-133.8282 -72.29528 -21.177431 7695461
-133.98914 -71.994881 -21.700087 7234910
-134.14688 -71.828018 -22.66667 7300703
-134.23726 -71.876999 -23.736506 8287341
-134.384 -71.711342 -24.598276 9011320
-134.4379 -71.027512 -22.68931 8616306
-134.62326 -70.779388 -23.639116 9406078
-134.68121 -70.902817 -24.653822 9603713
-134.81117 -70.818077 -25.638147 9866629
-135.04074 -70.396523 -26.405046 7761509
-89.671722 -69.497093 80.936737 8222060
-90.354469 -69.546249 80.610329 8090987
-134.88661 -70.062332 -23.686228 8089963
-135.03467 -69.878609 -24.495836 9406078
-135.13455 -69.869911 -25.453779 9142906
-135.27013 -69.786697 -26.499285 8090474
-135.47549 -69.405029 -27.16971 9011320
-89.145248 -68.354187 81.634628 6775130
-89.777908 -68.662575 81.226028 7564643
-90.46032 -68.8125 80.859116 9735297
-135.34047 -69.109451 -24.776773 10854036
-135.47002 -69.025391 -25.47587 6511954
-135.61452 -68.913139 -26.349657 8024681
-135.81607 -68.689148 -27.35251 8879734
-135.99457 -68.491524 -28.299009 9208700
-89.223969 -67.443085 81.967171 8419695
-89.90329 -67.760925 81.533813 6709333
-136.00323 -68.311371 -26.426134 8813941
-136.29443 -68.007492 -27.335909 9406078
-136.44446 -67.900314 -28.279078 8156268
-136.65005 -67.725174 -29.210009 9537664
-88.803696 -66.581856 82.503586 6511954
-89.48819 -66.585144 82.194969 7564386
-137.05338 -67.348267 -28.865419 11576729
-137.32648 -67.125916 -29.614759 9735299
-88.922577 -65.591766 82.850021 7695974
-89.570366 -65.757439 82.492325 7038298
-88.47023 -64.435829 83.519882 8222067
-89.039726 -64.711166 83.153015 8090480
-88.458214 -63.618126 83.855484 7169893
-89.145264 -63.650272 83.534012 7038307
-88.025017 -62.318291 84.574837 7038307
-88.625038 -62.747299 84.13224 7038307
-88.138367 -61.561268 84.82962 7301222
-88.827454 -61.801369 84.423294 7367271
-87.711937 -60.433464 85.5979 8485494
-88.322662 -60.779816 85.089615 7433064
-86.966843 -59.173004 87.389526 7629410
-87.440819 -59.395302 86.717682 7234653
-87.933189 -59.808399 86.018349 7367014
-82.58078 -58.444088 97.416115 10393230
-83.209015 -58.544518 97.027237 9537920
-83.438789 -58.793736 95.921921 9406078
-83.955887 -58.795845 95.027954 7037274
-84.26638 -58.797722 94.09436 7037274
-84.768196 -58.79982 93.199852 9208955
-85.064636 -58.801666 92.269417 10064520
-85.551208 -58.803738 91.374535 9275005
-85.833778 -58.805557 90.447357 9143419
-86.305252 -58.80761 89.552292 8682868
-86.540466 -58.895515 88.630875 9011319
-87.116943 -58.998562 87.92598 8550510
-82.696251 -57.480427 97.750015 8551282
-83.310677 -57.865204 97.320877 10130313
-82.216644 -56.562706 98.332001 8485489
-82.875626 -56.515965 98.055595 7959144
-81.73436 -55.34272 99.03624 8090987
-82.360321 -55.58049 98.660698 8025194
-83.081848 -55.831268 98.237137 6511954
-81.883446 -54.529713 99.294739 9077882
-82.415489 -54.612976 99.023102 9341054
-81.346748 -53.312344 100.02219 11380380
-81.980141 -53.628727 99.611916 9998984
-81.412437 -52.516895 100.31108 10722194
-82.046028 -52.677853 99.962891 9406334
-80.911453 -51.452736 100.96131 9076857
-81.591125 -51.686348 100.56339 9669250
-81.053558 -50.610989 101.23514 9077114
-81.779312 -50.781685 100.84195 8681843
-80.615936 -49.397022 101.91904 8025969
-81.222504 -49.703506 101.52454 8485492
-81.834694 -50.062172 101.10655 9537667
-80.647125 -48.601791 102.22493 8617848
-81.376083 -48.767826 101.8322 7432289
-80.239151 -47.451206 102.87009 9538178
-80.911736 -47.734459 102.45545 9406079
-80.296097 -46.578701 103.19553 10064009
-80.970291 -46.860413 102.78078 8879478
-79.89711 -45.462631 103.92677 9406594
-80.537552 -45.75671 103.44592 9801095
-79.041679 -44.161469 105.71361 8090219
-79.610458 -44.474804 104.94583 8287599
-80.020569 -44.834808 104.38186 9143679
-74.792847 -43.273838 115.80536 9537409
-75.359398 -43.524837 115.35876 9143162
-75.894516 -43.754009 114.76598 6511954
-75.931908 -43.75626 113.3353 9209467
-76.748337 -43.758274 112.78383 12235690
-76.771362 -43.760475 111.37176 11051415
-77.440125 -43.762142 110.90749 9538176
-77.450607 -43.764297 109.51355 9669767
-78.239166 -43.766289 108.9509 9603973
-78.235931 -43.768394 107.575 10985625
-78.91835 -43.840534 106.88213 9076857
-79.3815 -43.986721 106.16693 8089963
-74.269157 -42.063892 116.52256 7563619
-74.927452 -42.403168 116.09348 9668995
-75.503403 -42.80135 115.67754 9800581
-74.375313 -41.279049 116.78902 7629668
-74.994576 -41.51759 116.41762 8550514
-74.564209 -40.422134 117.04742 8222316
-75.149704 -40.750145 116.65538 7563619
-74.018578 -39.615414 117.61317 8419951
-74.649391 -39.653957 117.31659 8748916
-73.473869 -38.306099 118.37943 9209467
-74.139038 -38.641006 117.94903 9209467
-74.721565 -39.035431 117.53168 9209467
-73.624825 -37.537418 118.61949 8288115
-74.250252 -37.772015 118.24694 9012089
-73.804329 -36.623573 118.90485 7893868
-74.387863 -36.815754 118.56789 8092011
-73.759804 -35.263424 119.46846 8092011
-73.929352 -35.722652 119.2093 8223341
-73.85881 -34.756977 119.62682 10986391
-128.53876 -74.481323 -6.5490141 8023914
-128.78021 -74.5158 -7.6506147 6774106
-129.05388 -74.548042 -8.625598 8090995
-129.31268 -74.504211 -9.4815969 10327438
-129.67407 -74.431686 -10.372516 12761775
-129.99718 -74.40361 -11.281699 8485752
-130.21811 -74.403976 -12.154662 7564651
-130.74185 -74.346596 -13.475959 8879995
-130.14546 -74.267441 -10.253009 10590867
-130.68709 -74.201675 -11.405375 10788247
-130.7052 -74.253777 -12.200644 7564651
-131.11879 -74.2108 -13.036441 8419702
-131.43642 -74.206512 -14.188415 8353909
-131.79994 -74.17524 -15.031257 7827822
-132.20503 -74.08886 -15.908072 11445401
-132.68971 -73.870674 -16.795404 9866115
-132.93221 -73.753159 -17.803572 9800066
-133.09807 -73.646828 -18.76523 8090220
-133.20374 -73.541008 -19.435278 8090736
-133.05121 -73.272537 -16.964342 10063238
-133.24042 -72.93042 -17.61857 8879478
-133.40433 -72.778366 -18.700411 8616564
-133.50858 -72.768822 -19.700006 8222065
-133.65723 -72.57737 -20.490458 10261132
-133.4949 -72.285759 -17.840033 8089963
-133.68864 -71.939224 -18.522692 9602945
-133.85899 -71.749344 -19.533499 8682615
-133.9196 -71.860695 -20.531759 10129546
-134.05368 -71.710579 -21.324434 8287598
-91.945869 -70.187393 79.637047 8288618
-133.94878 -71.31942 -18.888441 9208443
-134.1534 -70.944954 -19.577597 9208443
-134.30264 -70.768822 -20.426439 11116696
-134.38245 -70.857399 -21.532862 7695460
-134.50745 -70.752472 -22.395819 7103324
-90.903519 -69.55191 80.361572 9932676
-91.555267 -69.750015 79.988976 7893607
-134.6115 -69.941429 -20.52989 12958897
-134.75177 -69.793022 -21.327269 9209210
-134.79799 -69.94825 -22.400892 9471869
-134.97647 -69.724083 -23.367632 8616562
-135.16948 -69.38633 -24.072645 9011320
-91.015816 -68.560989 80.711304 10130055
-91.682419 -68.971733 80.246162 8090987
-135.11382 -69.157234 -21.719152 11905951
-135.20497 -69.08374 -22.335718 9406589
-135.44762 -68.832458 -23.236406 8551538
-135.59149 -68.701988 -24.190828 10064777
-135.72781 -68.585381 -25.102129 8551281
-90.620117 -67.561485 81.292534 8879989
-91.308601 -67.674995 80.937622 8551281
-136.07944 -68.148163 -24.236441 8880502
-136.25473 -68.009949 -25.139551 7498593
-136.42949 -67.869316 -26.07395 8616819
-136.76332 -67.588562 -26.916891 9932421
-136.80679 -67.550461 -27.782286 8682867
-90.040817 -66.329567 82.050049 6511954
-90.681213 -66.595757 81.655075 7761766
-91.321251 -66.943062 81.22747 8090987
-137.22946 -67.250923 -27.009169 11576729
-137.37442 -67.239975 -27.967096 9537918
-137.30887 -67.145538 -28.833368 9669248
-138.0163 -67.017456 -29.589865 10525071
-90.155197 -65.529221 82.321899 8946295
-90.769997 -65.688965 81.981361 8485492
-89.662064 -64.334793 83.02562 9472131
-90.380867 -64.704659 82.553551 9275008
-89.810745 -63.5042 83.294266 8222322
-90.44986 -63.817715 82.880722 8879994
-89.333374 -62.413681 83.948914 7301478
-90.025192 -62.646862 83.544159 7564650
-89.491806 -61.475143 84.25679 7564650
-90.074318 -61.78511 83.870132 8090737
-88.993469 -60.415142 85.036301 7893358
-89.61657 -60.660473 84.588837 7038307
-88.122719 -59.218246 86.721924 7892581
-88.684525 -59.391708 86.161652 8616822
-89.122025 -59.773491 85.516464 9932422
-83.818779 -58.37706 96.888489 7827046
-84.459808 -58.605705 96.372612 8221548
-84.847954 -58.796638 95.340591 7037274
-85.25695 -58.798634 94.418564 7037274
-85.544205 -58.800308 93.598434 7037274
-86.039406 -58.802391 92.696701 11775650
-86.325607 -58.804253 91.756882 11315100
-86.805519 -58.806313 90.85495 8682868
-87.18573 -58.80846 89.813507 7235166
-87.671326 -58.810566 88.889664 8616302
-87.926468 -58.886375 87.955391 8287337
-88.395615 -59.033112 87.240982 7168860
-84.008789 -57.587429 97.119324 8946039
-84.717232 -57.932713 96.663857 12103847
-83.524719 -56.418842 97.803711 6775126
-84.141884 -56.703079 97.413597 8419695
-82.955933 -55.149982 98.566162 10591121
-83.63826 -55.5336 98.107086 8419951
-84.268372 -55.806957 97.715508 10130313
-83.138603 -54.410194 98.78038 10393742
-83.813789 -54.666939 98.375267 8288110
-82.571724 -53.113014 99.553329 8090987
-83.211571 -53.515888 99.105568 9801605
-83.89135 -53.759197 98.703697 9932678
-82.775421 -52.430763 99.735123 8485232
-83.500877 -52.598759 99.342941 9406078
-82.322861 -51.100899 100.4705 7827307
-82.854195 -51.517071 100.06575 7958892
-83.465034 -51.883438 99.645264 8089963
-82.380997 -50.405407 100.72425 7498601
-83.014069 -50.577496 100.37199 9011581
-82.028816 -49.257835 101.34328 9537667
-82.555679 -49.534451 100.99644 8485238
-82.019638 -48.434132 101.67867 8155755
-82.619957 -48.656406 101.32086 8551031
-81.582397 -47.407261 102.2872 8287341
-82.214935 -47.498566 101.96764 8484720
-81.688393 -46.464836 102.61883 8484720
-82.247543 -46.701252 102.27374 9076857
-81.157257 -45.301201 103.4873 8354934
-81.76638 -45.648823 102.96234 8748406
-80.783035 -44.411667 104.46033 8880764
-81.417877 -44.685429 103.89073 9275265
-76.071243 -43.282982 115.2319 8288365
-76.6623 -43.503223 114.72126 8288365
-77.269669 -43.757381 113.84314 9209723
-77.155037 -43.759277 112.50579 12235690
-77.830193 -43.760952 112.03869 9669509
-78.171539 -43.762882 111.09763 10327437
-78.503838 -43.764809 110.15576 10195339
-78.96405 -43.767044 109.12712 7631211
-79.284279 -43.76894 108.19188 7367525
-79.933792 -43.770596 107.71249 8089963
-80.098618 -43.865574 106.26927 10064265
-80.665512 -44.006165 105.5345 9603972
-76.195686 -42.429844 115.51753 9274748
-76.796829 -42.755714 115.11929 9209979
-75.652184 -41.316704 116.20482 9668995
-76.32299 -41.561199 115.80807 9407359
-75.285538 -40.07811 116.86348 8418928
-75.769012 -40.440071 116.50322 9143930
-76.408989 -40.640778 116.13774 9210491
-75.312195 -39.332787 117.14957 8946298
-75.988907 -39.474083 116.79146 10262666
-75.507568 -38.42157 117.4268 10722708
-76.173141 -38.760265 116.99473 10657166
-74.910713 -37.572666 118.03221 9341571
-75.52874 -37.643921 117.72829 10591380
-74.487976 -36.310013 118.72543 8092011
-75.038857 -36.671703 118.33531 9012862
-75.623016 -36.865688 117.9974 9341571
-74.592361 -35.520691 118.99451 8092011
-75.221771 -35.755638 118.62003 8420721
-73.957993 -34.250122 119.78528 13880771
-74.667313 -34.615952 119.32284 11907493
-75.375977 -34.983162 118.86019 8092011
-74.245743 -33.578876 119.9254 15262168
-74.823318 -33.667324 119.63255 15591133
-74.553543 -32.60881 120.17603 12104104
-74.54985 -31.626549 120.57076 9275519
-128.39357 -74.343948 -4.5275564 8748144
-128.4845 -74.422981 -5.6156416 7366495
-129.01361 -74.335815 -6.7294455 6971226
-129.0502 -74.372093 -7.1987791 6970970
-128.30188 -74.269508 -3.4413481 7695970
-128.8839 -74.202873 -4.5452223 8287850
-129.04803 -74.211502 -5.4074354 7037786
-129.28168 -74.218773 -6.2130613 7037274
-129.77856 -74.151848 -7.2402334 7366496
-129.93105 -74.180733 -8.1911154 7827307
-130.49136 -74.035583 -9.0160055 8814199
-130.93092 -73.937134 -9.9452848 9209212
-131.27919 -73.806519 -10.849658 11775396
-131.54231 -73.890907 -11.864005 9011837
-132.00572 -73.727058 -12.804599 9142910
-132.19957 -73.834 -13.748294 8682617
-132.58105 -73.726166 -14.70544 7893615
-132.79346 -73.615166 -15.632098 9932679
-131.78735 -73.095505 -11.183494 9538433
-131.97278 -73.123375 -11.84006 10524303
-132.29556 -72.847542 -12.576739 9800582
-132.5901 -72.80294 -13.507918 10326925
-132.88684 -72.808517 -14.509505 9603457
-133.08698 -72.764717 -15.505355 9669250
-133.16412 -72.814995 -16.449942 10590094
-133.32281 -72.574188 -17.163191 10063238
-132.93832 -72.15786 -13.867927 11380380
-133.15952 -72.102585 -14.540233 10393229
-133.44008 -71.796219 -15.547931 9340286
-133.55011 -71.750298 -16.474642 10261900
-133.61829 -71.845062 -17.488813 11051416
-133.77686 -71.606033 -18.206854 11183001
-92.875923 -70.336708 79.159126 10196102
-93.463951 -70.546921 78.810287 9209214
-133.87393 -70.820114 -16.36326 8880246
-133.96548 -70.832275 -17.314135 9143418
-134.05908 -70.86438 -18.356077 9208955
-134.22044 -70.623322 -19.092691 9208443
-92.193993 -69.481178 79.810791 8222826
-92.837006 -69.700241 79.433617 7828072
-134.28194 -70.001991 -17.372808 9275004
-134.46254 -69.840828 -18.302805 9669250
-134.50414 -69.934357 -19.299387 9405822
-134.73148 -69.613235 -20.261091 14735308
-92.363159 -68.521576 80.122307 8485491
-92.980362 -68.922493 79.683304 7564648
-134.9752 -69.140846 -19.102819 9208443
-135.15218 -68.989929 -20.017286 10919315
-135.39297 -68.774544 -21.029043 10130055
-135.51665 -68.640831 -22.036001 11445657
-91.911118 -67.586853 80.702698 9998214
-92.560493 -67.602257 80.40493 8222322
-135.97601 -68.269432 -21.187517 9735297
-136.05392 -68.197273 -21.939074 11051156
-136.23616 -68.054359 -22.87034 9143675
-136.57022 -67.801079 -23.791292 8485745
-136.95525 -67.599899 -24.802103 7498593
-137.01396 -67.443977 -25.597593 8090475
-137.70529 -67.419731 -26.413969 8616819
-138.44635 -67.434021 -27.421797 10129798
-139.03961 -67.392654 -28.585169 11576729
-91.908028 -66.603447 81.101196 9866630
-92.578018 -66.70266 80.760315 9011579
-138.16104 -67.32798 -27.711359 10129798
-138.74777 -67.285301 -28.873701 11576729
-138.45546 -67.178123 -29.161142 11380380
-139.4735 -67.292755 -29.902124 9735299
-91.48085 -65.568825 81.71077 7564393
-92.128578 -65.748848 81.347267 9011579
-90.987244 -64.150909 82.504883 7038307
-91.586052 -64.612892 82.049515 7893358
-92.233871 -64.917969 81.635529 7038307
-91.178726 -63.513611 82.67627 7630186
-91.828606 -63.712723 82.304138 8419444
-90.581406 -62.553162 83.332291 9209215
-91.232315 -62.596725 83.022461 8419444
-90.790512 -61.553322 83.642143 7564650
-91.400269 -61.788216 83.273544 8485494
-90.419785 -60.441082 84.390518 7367271
-90.907593 -60.686386 83.990395 8682615
-89.434296 -59.163242 86.33197 9406080
-90.0112 -59.459049 85.477676 9077371
-90.546112 -59.782928 84.869301 7893099
-85.234497 -58.225121 96.315216 13551549
-85.750191 -58.568954 95.886475 7168860
-86.297157 -58.799408 94.878265 4999489
-86.441437 -58.801125 93.895966 9406592
-87.087845 -58.803406 93.013168 10591123
-87.218826 -58.805088 92.037148 9077626
-87.848923 -58.807346 91.151443 7761766
-87.966881 -58.809006 90.181831 7563873
-88.723213 -58.811226 89.436897 8221544
-88.779144 -58.812794 88.465927 7695202
-89.24823 -58.88625 87.40506 8616559
-89.816772 -58.977451 86.804871 8814201
-90.271782 -59.064247 86.303558 8814201
-85.276031 -57.444553 96.608932 10393485
-85.959114 -57.618618 96.23336 8353646
-84.788353 -56.48571 97.210983 8287596
-85.406082 -56.586555 96.894012 8353390
-84.880814 -55.623516 97.51461 9799551
-85.584671 -55.690765 97.172424 8089963
-84.450317 -54.491627 98.160339 8747635
-85.011887 -54.688965 97.829842 9602429
-84.523972 -53.605263 98.48201 8879734
-85.046738 -53.894169 98.132263 9010550
-84.073303 -52.54837 99.106728 9932678
-84.706055 -52.728222 98.751411 9208699
-83.584702 -51.399036 99.78643 8089963
-84.237686 -51.605801 99.411316 9669250
-84.769684 -52.027531 99.003845 10393229
-83.588264 -50.523968 100.1368 9142909
-84.319679 -50.690434 99.742783 8748149
-83.190025 -49.372704 100.77786 7038307
-83.878372 -49.608345 100.37534 9340288
-84.527115 -50.007416 99.924774 8089963
-83.261261 -48.471802 101.10837 9011324
-83.896011 -48.727741 100.72164 10656401
-82.786301 -47.354397 101.77014 8287341
-83.430779 -47.610836 101.37885 9866629
-82.930573 -46.511803 102.04453 9340030
-83.620926 -46.691601 101.66357 8748663
-82.511292 -45.355091 102.8331 8353393
-83.124733 -45.658993 102.34732 8616822
-81.588593 -44.087925 104.84622 10656402
-82.200958 -44.315369 104.0105 11906982
-82.668953 -44.718758 103.29846 9078141
-83.233017 -44.996128 102.81506 9208702
-77.380463 -43.410831 114.5972 10459787
-78.073502 -43.474773 114.26274 11511450
-78.225647 -43.75975 113.18735 7564393
-79.040977 -43.761784 112.61937 8090736
-79.038963 -43.763981 111.18848 9998217
-79.706535 -43.765667 110.71056 8880507
-79.692184 -43.767815 109.29841 7039331
-80.479172 -43.769829 108.71956 8880506
-80.451263 -43.771927 107.32611 13025974
-81.095413 -43.773594 106.83949 12631216
-81.442688 -43.858158 105.83575 9867399
-82.079224 -43.918591 105.21444 11183770
-77.470398 -42.490089 114.92525 9867908
-78.140488 -42.739132 114.527 11445912
-76.997147 -41.293533 115.61456 11117460
-77.60083 -41.620163 115.2149 10065286
-76.51268 -40.136135 116.29328 12103841
-77.126137 -40.472614 115.88531 11775133
-77.72789 -40.764488 115.5004 12695209
-76.591309 -39.374908 116.56257 12103841
-77.219627 -39.532913 116.21935 12103841
-76.752823 -38.415985 116.87396 10656911
-77.441406 -38.649723 116.47363 9210491
-76.213249 -37.287933 117.56548 9078656
-76.894691 -37.516853 117.17021 10262413
-75.724976 -36.359444 118.15431 8092019
-76.440231 -36.427319 117.80836 8749434
-76.895401 -36.750053 117.47647 9341571
-75.800377 -35.596184 118.42586 9012605
-76.389664 -35.648655 118.14223 8749176
-75.958435 -34.633888 118.74018 8288365
-76.653366 -34.863182 118.33872 9406078
-75.433456 -33.572407 119.39854 11774624
-76.171059 -33.697556 119.01974 8089704
-74.979675 -32.238934 120.13392 10262156
-75.599709 -32.602386 119.7123 12168355
-76.094101 -32.962227 119.34808 10260358
-75.13327 -31.462572 120.37671 9801605
-75.713181 -31.716892 120.01646 10260872
-74.774643 -30.370064 121.0918 8419952
-75.220787 -30.621099 120.72899 8683124
-75.876045 -30.900394 120.27147 10262156
-75.143059 -29.659775 121.522 8222573
-126.64037 -73.292252 3.0105639 7366751
-126.87528 -73.421585 2.404542 7366751
-127.29576 -73.552811 1.4155399 9735041
-127.65822 -73.654648 0.57387269 8287342
-128.07384 -73.73735 -0.38848007 9997443
-128.35106 -73.848785 -1.2781323 10852750
-128.60696 -73.842705 -2.2580175 9668993
-128.97263 -73.804291 -3.1495008 7564387
-129.23923 -73.831886 -4.0910826 8682351
-129.58694 -73.768173 -5.039813 8682353
-129.96246 -73.703873 -6.040576 9142650
-130.24973 -73.649124 -6.907958 9010808
-130.52141 -73.699829 -7.8506193 8156268
-130.918 -73.468407 -8.8092222 8880503
-131.12521 -73.506927 -9.5371885 8090219
-125.55225 -72.720589 6.0130281 6117205
-125.78082 -72.834747 5.2646074 5919050
-126.20905 -72.957039 4.2170267 6511443
-126.56552 -72.977272 3.4657412 7893352
-127.02786 -73.091797 2.406827 7366751
-127.3224 -73.255272 1.6456615 10327177
-127.94875 -73.19175 0.42039979 8089963
-128.12645 -73.293663 -0.041876681 10984593
-128.78888 -73.258995 -1.5937794 11378836
-129.31564 -73.069199 -3.0345869 9406332
-129.6387 -72.989914 -3.9710264 8024678
-130.01062 -72.788452 -4.9010839 7300701
-130.25995 -72.850021 -5.8011274 9076857
-130.60811 -72.749756 -6.815589 9011064
-130.85292 -72.863945 -7.776969 7826791
-131.18503 -72.781021 -8.7715063 8419696
-131.43295 -72.832504 -9.666873 8222573
