# .PCD v0.7 - Point Cloud Data file format
VERSION 0.7
FIELDS x y z rgb
SIZE 4 4 4 4
TYPE F F F U
COUNT 1 1 1 1
WIDTH 1210
HEIGHT 1
VIEWPOINT 0 0 0 1 0 0 0
POINTS 1210
DATA ascii
-47.455227 -38.851555 123.68169 9735046
-48.181305 -38.808628 123.56864 10524304
-49.124603 -38.656963 123.4572 9866117
-50.071232 -38.506557 123.34468 8484720
-51.055439 -38.400085 123.2093 9997959
-52.019722 -38.456375 123.01725 9603457
-52.986626 -38.514648 122.82401 9932934
-53.956203 -38.574905 122.62959 12894388
-54.945309 -38.529144 122.47086 12762802
-55.922699 -38.2812 122.38895 11578526
-56.891045 -38.193546 122.24942 8092011
-51.147453 -37.755623 123.43114 10195338
-52.1371 -37.649632 123.29465 9735043
-53.070366 -37.508968 123.18089 9933190
-54.102749 -37.603985 122.96244 11775906
-55.058491 -37.554432 122.81104 10328204
-56.046761 -37.366241 122.70515 11578268
-57.089298 -37.467213 122.48267 9210234
-58.040199 -37.490017 122.30542 9210493
-59.029537 -37.401402 122.16247 9801862
-59.971722 -37.169819 122.0808 12827826
-60.496944 -37.041512 122.03499 12104103
-53.226135 -36.898075 123.37906 10262411
-53.968956 -36.860378 123.2611 9077625
-54.901375 -36.671257 123.16545 9208955
-55.931992 -36.40691 123.08012 11972514
-56.916111 -36.469101 122.88241 11973026
-57.90337 -36.533249 122.68337 9999753
-58.893902 -36.599346 122.48306 11447458
-59.915131 -36.503674 122.33707 13157304
-60.940662 -36.409554 122.18979 8946039
-61.970852 -36.316769 122.04116 11972518
-62.837692 -36.213032 121.92554 12433069
-57.114574 -35.741035 123.11627 10986133
-58.093384 -35.650208 122.97606 9144705
-59.054646 -35.618336 122.81713 12039594
-60.061954 -35.420208 122.71152 13486266
-61.058712 -35.462944 122.51871 8156523
-62.00058 -35.48671 122.34268 11709346
-63.008907 -35.558247 122.1372 8617584
-63.871548 -35.50919 122.00216 8288618
-64.839058 -35.261185 121.92202 9603966
-65.850998 -35.18063 121.77211 9209467
-59.328053 -34.974277 123.00666 13289660
-60.048519 -34.689678 122.98392 14604230
-60.911766 -34.580505 122.87099 7367262
-61.946281 -34.483391 122.72321 8025193
-62.956863 -34.552696 122.51814 7104858
-63.971256 -34.623905 122.31168 9866880
-65.049202 -34.365631 122.21576 9077623
-66.022285 -34.478519 122.00123 9801346
-66.936386 -34.462158 121.84499 7630180
-67.834595 -34.318649 121.7385 7367264
-68.918388 -34.147129 121.60948 8617331
-62.39624 -33.84655 122.87866 5919050
-63.16264 -33.764488 122.77294 6512978
-64.130241 -33.725567 122.61551 8288618
-64.984337 -33.353142 122.60152 8682867
-65.912193 -33.418266 122.4127 8879989
-66.941673 -33.492077 122.20262 7959144
-67.975433 -33.567818 121.99105 8156779
-68.978287 -33.600388 121.80096 9406847
-70.012291 -33.430054 121.6803 9143674
-70.775642 -33.230068 121.5908 8156779
-66.134201 -32.675377 122.64787 10853777
-67.108826 -32.586739 122.5076 10459022
-67.990234 -32.552677 122.36368 9274749
-68.908646 -32.576481 122.19175 9012089
-69.945107 -32.468018 122.04781 8551538
-70.992493 -32.42308 121.82835 8156779
-71.757942 -32.37822 121.52296 8748916
-68.288849 -31.895287 122.55363 8089963
-69.079506 -31.815245 122.44283 8616819
-69.989983 -31.61911 122.35368 8683123
-70.964287 -31.399004 122.23025 8551537
-71.966728 -31.430964 121.80949 8946295
-72.793617 -31.196939 121.53331 9735812
-71.314667 -30.733707 122.38115 9209467
-72.056076 -30.519133 122.20013 10064777
-72.979218 -30.449743 121.84304 9801605
-73.847351 -30.363525 121.51626 9538434
-74.65432 -30.169952 121.30429 10262156
-73.218826 -29.814449 122.24322 9209211
-73.982063 -29.605473 122.08432 9735810
-74.913429 -29.537415 121.72508 10525070
-75.947418 -29.31003 121.54031 8551794
-76.880867 -29.08614 121.61839 8617331
-77.898674 -29.046923 121.28073 8485745
-78.135902 -28.817911 121.9724 8288622
-78.912735 -28.834198 121.5685 9471872
-79.689354 -28.851171 121.16254 7564651
-81.069847 -28.710325 121.6606 9669508
-81.94606 -28.710386 121.07207 8879992
-84.938972 -28.710609 121.35969 8552308
-85.667885 -28.710663 120.84687 10263180
-88.282852 -28.710855 121.41199 8092019
-88.865974 -28.710897 120.98534 8552055
-89.447449 -28.710941 120.55635 9537665
-92.124336 -28.711138 121.09146 9142908
-92.851311 -28.711189 120.53509 10853012
-95.444702 -28.711384 121.16432 8681843
38.87281 -60.024307 128.26721 10788243
36.993111 -60.132004 128.15161 9537921
36.173679 -60.052856 128.20291 9867142
51.868267 -59.026081 129.07408 9669254
50.667286 -59.152748 129.28589 10656147
49.827183 -59.233128 129.20854 11774109
48.825993 -59.274372 129.14058 8089963
47.90834 -59.287834 129.10634 7432550
46.801735 -59.370434 128.97046 7630187
45.822777 -59.310173 129.05063 8024686
44.753674 -59.429768 128.8605 8156011
43.811279 -59.377502 128.93591 9142906
42.851288 -59.500561 128.78362 12300972
41.818821 -59.451241 128.81233 9802123
40.849899 -59.539989 128.7301 8157299
39.844673 -59.531212 128.67984 8814201
38.807636 -59.494015 128.72115 9208957
37.837643 -59.572296 128.63376 9208956
36.798447 -59.525097 128.63849 9998728
35.785881 -59.466202 128.60243 10065288
34.906525 -59.307796 128.42949 7169884
33.86945 -59.11832 128.26595 9078139
68.482529 -58.027725 129.77036 8682867
67.732643 -58.321217 129.95491 9077625
66.82946 -58.452293 130.30536 9209468
65.706665 -58.699528 130.14673 9341054
64.690582 -58.699604 130.07455 10129545
64.063866 -58.699654 130.38463 9406078
62.830925 -58.699738 129.84309 8617843
61.892048 -58.69981 130.29364 9209467
60.833241 -58.699886 129.67149 8485747
59.895645 -58.699959 130.1077 7958632
58.69825 -58.700043 129.5527 7958632
57.761337 -58.700115 129.9731 7827304
56.737453 -58.700191 129.34285 8813429
55.80212 -58.70026 129.74904 10984598
54.818672 -58.700329 129.45975 9274749
53.861187 -58.700397 129.50758 9274749
52.921448 -58.794353 129.43871 9538179
51.757458 -58.84853 129.69981 9669254
34.544003 -58.989525 128.93307 7038298
33.872272 -58.90094 128.90376 8683380
32.79821 -58.841881 128.58614 8419955
31.732082 -58.784698 128.26591 8420208
30.761566 -58.702095 128.31076 10590605
29.834351 -58.702168 128.52948 14273217
28.937782 -58.702229 128.01851 9472637
27.790472 -58.702316 128.09398 10459278
26.864914 -58.702385 128.29121 10130313
25.897427 -58.70245 127.96174 9011578
24.845089 -58.702534 127.81847 8485237
23.921648 -58.702602 127.99444 9734788
22.782078 -58.702682 128.02858 9472131
21.962557 -58.702747 127.69551 8814201
20.851734 -58.702824 127.66496 9143419
19.775713 -58.702908 127.83625 9341051
18.744978 -58.702984 127.77805 10196103
17.919291 -58.703041 127.59801 10788247
16.755569 -58.669682 127.55359 8354166
15.759114 -58.435089 127.69133 9011323
14.866006 -58.390202 127.38066 9011065
14.159836 -58.282852 127.08369 8089963
68.693771 -57.420013 129.91814 8682867
67.843391 -57.434574 130.29065 9209468
66.903526 -57.807549 130.56033 9341054
15.396089 -57.701729 127.91416 9537409
14.742641 -57.554134 127.65891 9405823
13.760962 -57.495029 127.20967 9537409
13.01047 -57.274868 126.93687 9932166
69.474564 -56.490105 129.94098 8682099
68.731476 -56.562965 130.24236 9800580
67.943665 -56.617725 130.57098 9209469
14.610665 -56.878792 127.86805 9537409
13.76431 -56.530792 127.6007 9340542
12.82808 -56.486828 127.16724 10129545
12.191933 -56.189064 126.9809 10853012
70.603424 -55.141571 129.97655 8814203
69.832382 -55.451508 130.19576 9537152
68.900528 -55.569386 130.56294 10326668
13.508999 -55.83242 127.7597 9735555
12.868768 -55.534489 127.57144 10590609
11.897069 -55.487373 127.12219 9932166
11.15301 -55.277508 126.84834 9209467
71.44619 -54.06171 130.03224 10064011
70.731049 -54.409229 130.21162 9077117
69.788223 -54.429794 130.62245 9537152
12.73393 -54.865379 127.77667 8682867
11.894319 -54.529652 127.50767 8880247
10.967577 -54.496876 127.07424 8156783
10.33604 -54.20845 126.88635 7038307
71.810364 -53.483425 130.1008 11182231
70.890617 -53.493721 130.50548 9406080
70.207039 -53.659203 130.74336 8681843
11.637308 -53.838909 127.66278 7564651
10.939037 -53.505768 127.4603 7169893
9.8941545 -53.528439 126.94707 7433063
9.0944376 -53.167595 126.70623 8682867
72.658951 -52.404041 130.1537 9734786
71.762871 -52.635052 130.45996 10261130
70.898796 -52.819248 130.7706 9734787
10.626904 -52.759857 127.6096 7827823
9.7525606 -52.507229 127.28922 8879992
8.8379736 -52.446762 126.87217 9209210
8.1758394 -52.042961 126.71498 10853777
73.691147 -51.305943 130.13246 9734782
72.822144 -51.487667 130.44633 9734786
71.924164 -51.718994 130.75327 9866374
9.5384703 -51.674744 127.52053 8946042
8.8244982 -51.537457 127.23115 11248792
7.9103084 -51.468262 126.81781 10919827
7.2504754 -51.239334 126.59148 8814965
74.548553 -50.226818 130.18147 9472383
73.735611 -50.446552 130.45517 9603713
72.836418 -50.541939 130.81682 10327180
8.7825956 -50.772823 127.51825 10130572
7.8690591 -50.475967 127.19673 12565421
6.9921451 -50.525631 126.75363 8486000
6.3339844 -50.131493 126.59442 8814965
75.487701 -49.026962 130.24228 9406595
74.830147 -49.374401 130.39601 9012091
73.900658 -49.529251 130.74733 8748920
73.20816 -49.692585 130.98997 9340289
7.7100396 -49.650993 127.45159 10196106
7.0061598 -49.565022 127.14649 8156779
5.9426713 -49.374542 126.70985 6051147
75.695091 -48.442398 130.38304 9012094
74.69931 -48.525776 130.79227 8354164
74.032722 -48.795067 130.98117 9012091
6.6797791 -48.630344 127.36469 9143674
5.8025656 -48.507545 126.99072 7367007
4.938426 -48.459759 126.59295 5590341
76.61557 -47.437847 130.37418 9801609
75.757561 -47.55682 130.70813 8617336
74.993645 -47.778481 130.95926 8025200
6.3787093 -47.951893 127.49201 10855060
5.7115245 -47.614059 127.3059 10855060
4.7921157 -47.481861 126.91536 9012344
3.9926429 -47.441685 126.54572 7762022
77.573334 -46.422428 130.38261 8946043
76.802948 -46.486805 130.69315 9472129
75.98645 -46.531773 131.03041 8748663
4.7308435 -46.529732 127.26852 10723218
3.9319043 -46.542892 126.87766 11051415
3.019321 -46.367924 126.50762 10985623
2.3630061 -46.041992 126.32185 10459278
79.612366 -45.20451 130.39458 8092019
78.737007 -45.386871 130.63364 8092019
77.775955 -45.579273 130.90251 8945785
77.018532 -45.7971 131.06012 9208443
3.8079901 -45.711887 127.16908 10393485
2.9844947 -45.540352 126.87774 11775138
1.9711056 -45.339268 126.53304 9801349
1.1474571 -45.007778 126.40417 5920074
82.487434 -44.102798 130.81873 8682867
81.736916 -44.141151 131.02197 10458510
80.745064 -44.356152 130.82997 10984854
79.860489 -44.640434 130.80106 9801607
78.86055 -44.703606 131.14185 8092019
2.6857028 -44.94524 127.19889 10919573
1.7206097 -44.619717 127.00722 9274749
0.84539837 -44.487602 126.72642 6709334
-0.031523742 -44.305115 126.53387 8419695
-1.0442469 -44.070877 126.53545 9275004
82.853241 -43.883869 131.39896 11905701
-1.5993972 -43.840282 127.07872 10854036
-2.2035918 -43.875412 126.66446 8551282
-3.113312 -43.809875 126.45592 7564651
-3.9641056 -43.757256 126.38095 7827822
-5.0993252 -43.704739 126.59189 10787474
-6.1654096 -43.704819 126.54456 11181204
-7.0789561 -43.704884 126.49669 9931395
-8.1441488 -43.704964 126.43234 7630443
-9.2088213 -43.70504 126.35938 7301478
-10.120883 -43.705109 126.28953 9406592
-11.0324 -43.705173 126.21313 9340797
-12.095051 -43.70525 126.11541 10590098
-13.156973 -43.70533 126.00918 7630187
-14.066339 -43.705391 125.91085 11905701
-15.126351 -43.705471 125.78764 10261391
-16.185398 -43.705547 125.6559 8618361
-17.092152 -43.705616 125.53568 11315101
-17.99806 -43.705685 125.40896 10590612
-19.053734 -43.705761 125.25262 8353647
-20.217106 -43.705849 125.76062 9077882
-21.180305 -43.705921 125.94749 10985881
-22.089037 -43.70599 125.79117 9999244
-22.996666 -43.706051 125.62843 9603710
-24.053967 -43.706127 125.42993 8682355
-25.109646 -43.706203 125.22303 6511954
-26.013084 -43.706272 125.03841 6840922
-27.064575 -43.625507 125.33023 8617337
-28.012371 -43.407661 125.53015 8682873
-29.114283 -43.417526 125.25739 8551537
-30.137943 -43.328091 125.10198 8025193
-31.053215 -43.3461 124.93278 9406334
-32.027325 -43.399128 124.74021 9405822
-33.031509 -43.286537 124.6035 8484721
-34.055546 -43.181873 124.46033 9537409
-34.752522 -43.122517 124.3585 9537153
-28.344601 -42.998848 125.59576 7367263
-29.079567 -42.759804 125.50723 7827814
-30.157696 -42.381458 125.44869 9209467
-31.136612 -42.400139 125.26785 10524303
-32.055004 -42.4198 125.0974 9077370
-33.032402 -42.474541 124.90352 8682356
-34.091995 -42.441677 124.7275 9537153
-35.121925 -42.499702 124.52318 8353135
-36.060127 -42.369919 124.40456 9603204
-37.000248 -42.241989 124.28493 9142910
-31.192232 -41.769329 125.49136 10064008
-32.126595 -41.630856 125.37656 9340541
-33.062538 -41.494209 125.26084 9143163
-34.043377 -41.550629 125.0657 9011066
-35.107014 -41.51939 124.88828 8089963
-36.140789 -41.579086 124.68254 8222323
-37.066505 -41.608837 124.50719 8419702
-38.010441 -41.482132 124.38641 9077116
-38.921978 -41.31617 124.28589 11708572
-39.845947 -41.199917 124.16479 9932933
-40.543819 -41.099949 124.07784 9209467
-34.130322 -40.808277 125.32491 7893358
-35.037006 -40.685383 125.20929 7958635
-36.083153 -40.625 125.04574 7893615
-37.138653 -40.462257 124.91844 8945788
-38.091602 -40.435101 124.75916 9077373
-39.060894 -40.405579 124.59788 9077628
-39.993778 -40.440353 124.41933 9209467
-40.986725 -40.511425 124.21672 9407105
-41.974674 -40.337822 124.10545 9867656
-42.996243 -40.24498 123.95837 7565675
-36.30228 -39.996231 125.23942 7564651
-37.265518 -39.708008 125.17496 9932168
-38.214466 -39.579807 125.05375 8617080
-39.1656 -39.453247 124.93162 8353909
-40.101067 -39.487263 124.75283 8748664
-41.037956 -39.523212 124.57305 8815483
-41.97641 -39.561085 124.39232 9078398
-43.02705 -39.634888 124.17845 8288625
-44.07444 -39.427914 124.06895 8814456
-45.054188 -39.256588 123.9583 8814716
-46.145679 -39.108166 123.81938 7564651
-39.547642 -38.828773 125.09478 9735046
-40.259819 -38.774822 124.9882 8748150
-41.182281 -38.66119 124.86636 9538691
-42.089031 -38.605572 124.72582 9801863
-43.074348 -38.529694 124.57884 9472125
-43.97612 -38.42849 124.45602 9603711
-44.962589 -38.408524 124.28818 9340540
-45.970867 -38.487938 124.07969 8288116
-47.029903 -38.443016 123.90823 9011837
-48.096333 -38.368023 123.74659 10392718
-48.815025 -38.276356 123.65289 9931910
-49.818314 -38.006428 123.57448 9931910
-42.321407 -37.974323 124.91807 9735555
-43.134388 -37.793602 124.84048 9866625
-44.113857 -37.567375 124.75018 10261383
-45.083347 -37.44899 124.62171 12892588
-46.035084 -37.492348 124.43656 8617075
-46.988823 -37.537579 124.2504 8814459
-47.944695 -37.584694 124.06316 9602945
-48.994007 -37.609047 123.86777 9997703
-49.967632 -37.398453 123.77271 9668994
-50.98325 -37.282219 123.63533 9997959
-51.884636 -37.146748 123.5253 9274748
-45.481487 -36.822708 124.78271 10853521
-46.20739 -36.774864 124.67145 9208954
-47.149784 -36.61689 124.56243 8748404
-48.073715 -36.620934 124.39677 8681843
-49.033386 -36.462463 124.28491 9931910
-50.042557 -36.396271 124.13008 8747893
-51.009045 -36.447468 123.93943 8682356
-51.978073 -36.50058 123.74764 8617075
-52.915154 -36.512772 123.57671 9472639
-53.888203 -36.414131 123.44038 8682867
-54.984055 -36.130108 123.35076 9011064
-48.320103 -35.98547 124.58809 9010808
-49.166439 -35.702713 124.54233 7892584
-50.210644 -35.523045 124.42329 7563619
-51.146599 -35.478466 124.2735 9077114
-52.118439 -35.530296 124.08165 9011576
-53.092907 -35.583961 123.88867 8748660
-54.112537 -35.576397 123.7103 8682611
-55.057243 -35.434818 123.59486 8879478
-56.083847 -35.430557 123.41409 10918805
-57.035969 -35.291416 123.29644 9933191
-57.94828 -35.216579 123.16209 8289396
-51.562653 -34.848457 124.43268 11380380
-52.223839 -34.801682 124.33247 10196106
-53.122311 -34.64114 124.23227 9011832
-54.087234 -34.548584 124.09507 8879990
-55.030163 -34.383022 123.98879 9142394
-56.016361 -34.439945 123.79252 9142394
-57.005627 -34.498672 123.59502 10129546
-57.998085 -34.559277 123.39629 8223090
-58.898293 -34.521042 123.25053 9144705
-59.945366 -34.29578 123.14785 10985875
-60.994919 -34.087082 123.03866 7367262
-53.98629 -33.996635 124.31718 8682867
-55.019871 -33.725346 124.23394 9734531
-56.090969 -33.550491 124.10835 8747892
-57.050041 -33.511559 123.95234 9997959
-58.045086 -33.570377 123.75378 9932166
-59.043434 -33.631042 123.55396 7828074
-60.055359 -33.428303 123.44919 9735551
-61.105934 -33.428463 123.26249 7103834
-62.080761 -33.45002 123.08134 6511442
-62.942062 -33.325996 122.97424 6511187
-63.695789 -33.2649 122.86293 6512978
-57.319042 -32.866531 124.14323 8485232
-58.237843 -32.787464 124.00919 9340285
-59.155552 -32.684303 123.88432 8419442
-60.039593 -32.363613 123.84587 9932163
-60.984886 -32.379616 123.67204 8485742
-61.947678 -32.481457 123.46325 6643029
-62.963154 -32.546505 123.2588 7498338
-63.982475 -32.613358 123.05297 7367519
-65.045555 -32.46035 122.9207 9274747
-66.061356 -32.214863 122.83109 11905951
-66.842888 -32.133385 122.72244 12433069
-61.144958 -31.680487 123.90227 8682096
-62.152245 -31.532961 123.77785 7037530
-63.135513 -31.552219 123.59604 8222316
-64.107918 -31.656042 123.38485 9011833
-64.973595 -31.477631 123.29703 9932934
-65.931396 -31.395929 123.1571 11906208
-66.965843 -31.465075 122.94774 10459023
-67.969154 -31.491154 122.75986 8089963
-69.008575 -31.350889 122.62708 8485234
-70.225304 -31.010027 122.53708 9209467
-63.250465 -30.888218 123.82128 8682867
-64.025215 -30.801836 123.71621 9341054
-65.01722 -30.720882 123.5853 9340798
-66.100418 -30.569212 123.47273 9472128
-67.129646 -30.513575 123.3368 8813686
-68.050354 -30.532408 123.16897 8089963
-68.967117 -30.548948 122.98605 8222065
-70.009445 -30.496033 122.84415 8814457
-71.000076 -30.394886 122.71238 8551538
-71.847427 -30.101782 122.61589 9735555
-68.447426 -29.914198 123.536 7564651
-69.139442 -29.956818 123.3801 9011581
-69.926117 -29.765532 123.3875 10524304
-71.120064 -29.630356 123.27121 9472386
-72.066284 -29.563152 122.98935 9275004
-72.975212 -29.425495 122.72788 9603969
-73.970161 -29.203104 122.49193 9210491
-75.888321 -29.007145 122.3175 8617843
-74.340622 -28.979534 123.10509 9210491
-75.114418 -28.992987 122.71237 10131079
-76.114716 -28.778563 123.01223 9143930
-77.047684 -28.796198 122.53413 9011577
-77.669548 -28.808376 122.21375 9011577
-79.156952 -28.710188 122.9141 9012089
-80.042084 -28.710251 122.33897 8880246
-83.178001 -28.710484 122.57401 8813942
-83.913887 -28.710537 122.07112 8551285
-87.109787 -28.710772 122.25601 9867145
-87.843887 -28.710823 121.7298 9143936
-90.366394 -28.71101 122.40942 7564651
-90.954384 -28.711054 121.97272 7892843
-91.540581 -28.711096 121.53375 9010808
-93.41993 -28.629936 122.18288 7564651
-94.073669 -28.510742 121.93934 8617080
-94.919189 -28.474964 121.57682 9077371
-95.57634 -28.356394 121.33147 6510930
-94.191475 -27.796993 122.17307 7893612
-95.05555 -27.586954 121.87217 8748916
-95.749039 -27.618107 121.55052 8287853
-95.226982 -26.848269 122.092 8617331
-95.834572 -26.500729 121.96054 8419952
-96.182091 -25.766739 122.10004 8617331
47.46579 -59.010071 129.7054 8617081
45.303661 -59.043133 129.56337 8617075
44.811913 -59.01202 129.6575 7037274
42.673233 -59.051579 129.49596 10065038
42.02153 -59.012428 129.61374 14076870
40.392639 -59.086494 129.34744 8814201
39.74456 -59.049442 129.45862 8814201
39.096607 -59.012791 129.56812 10590351
37.649883 -59.1008 129.25934 8813685
36.683468 -59.048935 129.41391 9735556
36.039513 -59.015015 129.51472 11381404
65.758728 -58.482292 130.79839 9143162
64.854156 -58.504723 131.19461 9603457
63.78928 -58.692539 130.88469 9603457
62.805668 -58.699741 130.99486 9011064
61.79797 -58.699818 130.9061 8551027
60.792278 -58.699894 130.81012 7301220
59.81139 -58.699959 130.89011 9406334
58.797539 -58.700043 130.60732 8879990
57.853039 -58.700108 131.02831 8288111
56.821476 -58.700188 130.38663 8683125
55.721115 -58.700264 130.86034 8814711
54.707298 -58.700344 130.21455 9537921
53.765587 -58.700413 130.60568 9340543
52.630116 -58.700493 130.36465 8814203
51.67197 -58.700562 130.39641 8353909
50.850407 -58.794025 130.33415 9274752
49.705975 -58.87965 130.16727 9406078
48.755154 -58.832878 130.30565 9668736
47.660976 -58.848095 130.23859 10261391
46.737244 -58.875046 130.136 7301222
45.86533 -58.862415 130.16368 8485491
44.70311 -58.875702 130.10207 6774102
43.802471 -58.880245 130.07309 7366752
42.683247 -58.881096 130.05281 10394001
41.659607 -58.862984 130.09647 12498609
40.881721 -58.945427 129.81506 7367528
39.905464 -58.889362 129.98299 8814201
38.851646 -58.91473 129.88423 11510938
37.801788 -58.941517 129.78098 8221548
36.831356 -58.889591 129.9357 8813685
35.752377 -58.922733 129.68869 10328460
34.690559 -58.844315 129.47952 7498849
33.68512 -58.722988 129.45888 8880761
32.737583 -58.701962 129.65195 8090992
31.952503 -58.702015 129.15849 9670021
30.811672 -58.702099 129.20572 10524812
29.722355 -58.702179 129.4608 12432039
28.846823 -58.702244 129.20682 10985107
27.820179 -58.702316 128.98006 9538176
26.732819 -58.7024 129.20992 9209211
25.669155 -58.702473 129.06958 8748921
24.699993 -58.702549 128.72539 7564651
23.769962 -58.702618 128.90033 10063753
22.838717 -58.702686 129.06848 10064010
21.786821 -58.702755 128.90013 8617080
20.834673 -58.702831 128.53281 8616564
19.906141 -58.7029 128.67982 7959144
18.73316 -58.640488 128.88887 8551539
17.689629 -58.43943 128.66017 8683130
16.854645 -58.388626 128.30365 7762029
16.035908 -58.172283 128.03252 7564651
66.583603 -57.39719 130.86594 9341054
65.703987 -57.638069 131.16136 9077625
64.855057 -57.83213 131.46176 8880246
17.670788 -57.767326 128.98393 9143681
16.743946 -57.467354 128.65843 8090994
15.784511 -57.425373 128.213 8353392
67.535141 -56.443451 130.82205 9340800
66.79303 -56.520229 131.12163 9209213
65.912056 -56.626465 131.47121 9735300
16.5364 -56.661301 128.88391 8945787
15.791906 -56.494839 128.59236 8353135
14.879609 -56.454193 128.16913 8616307
14.151984 -56.132927 127.94821 9537409
68.419426 -55.208099 130.92076 9011324
67.680817 -55.473576 131.14331 8879996
66.832741 -55.493328 131.51254 9011582
15.766108 -55.711346 128.89633 9668995
14.84505 -55.477806 128.5468 9340030
13.898558 -55.394302 128.12437 9340541
69.492966 -54.008755 130.92152 10853012
68.809006 -54.464939 131.04372 9603203
67.774918 -54.521065 131.481 7959152
14.637313 -54.626614 128.79044 9077370
13.899977 -54.4701 128.49829 9011832
12.997311 -54.440521 128.07524 8814453
12.275366 -54.129963 127.85268 8682867
70.270226 -53.293098 130.86121 9735043
69.658226 -53.424828 131.08072 10524047
68.694046 -53.582035 131.44664 10458512
68.029175 -53.975662 131.58531 8156531
13.775132 -53.58712 128.79471 8682867
12.844831 -53.537098 128.36658 9340797
11.978017 -53.430443 127.99169 8617335
70.635689 -52.444477 131.0369 9537664
69.743362 -52.544777 131.39352 9735044
68.940216 -52.771225 131.66032 9735043
12.622457 -52.64267 128.61967 9406593
11.657396 -52.472324 128.22246 9538181
10.785924 -52.362637 127.84603 9735560
71.617577 -51.213379 131.09102 10590095
70.750076 -51.466587 131.3757 9603457
69.884254 -51.721153 131.65916 9077369
12.365098 -51.911259 128.78946 9341059
11.678523 -51.547607 128.60431 8814716
10.782868 -51.535851 128.17683 10327952
9.8972273 -51.322201 127.83533 9012093
72.572418 -50.165691 131.08408 10063753
71.761948 -50.388863 131.35541 9471873
70.864548 -50.488369 131.71463 9537664
10.689402 -50.628468 128.49644 8288885
9.8176336 -50.4627 128.1424 8486263
8.9877558 -50.306644 127.80466 8814714
73.27359 -49.325775 131.10707 8419702
72.653839 -49.455521 131.33084 9866375
71.746956 -49.529305 131.70457 9011581
10.480687 -49.9538 128.66689 7565675
9.8062735 -49.550549 128.50354 8880507
8.8831606 -49.498386 128.07904 8420213
8.0342283 -49.39587 127.71059 10459022
73.650063 -48.546345 131.25041 8354164
72.743523 -48.573315 131.64256 8616824
72.050735 -48.739014 131.88445 8419702
9.5460949 -48.830166 128.66748 9340801
8.7724276 -48.554665 128.40489 9340286
7.9502182 -48.542175 128.01317 8945271
7.1087537 -48.288429 127.70911 8945271
74.562614 -47.395565 131.30339 8617335
73.711281 -47.493698 131.64261 9406593
73.005135 -47.719963 131.86629 8748409
7.7712646 -47.596188 128.30704 8747636
6.7067394 -47.382996 127.87904 9274750
5.920208 -47.248428 127.55355 10855060
75.508865 -46.303215 131.37001 9932682
74.754921 -46.467777 131.61162 11446179
73.975227 -46.639523 131.86568 13486019
7.4619827 -46.780987 128.48543 9208699
6.7268872 -46.446987 128.26498 8419958
5.807755 -46.542633 127.78297 9933705
5.0476775 -46.270893 127.52544 10855060
77.441116 -45.133774 131.41719 9208443
76.662453 -45.406368 131.53922 9274236
75.77832 -45.519718 131.8389 11116955
75.024055 -45.739948 131.99312 16249839
6.5817518 -45.796288 128.45647 8090995
5.7263961 -45.567699 128.18962 10197132
4.8857594 -45.479195 127.84155 9868165
3.9841585 -45.233952 127.58123 10065289
3.3039699 -45.030121 127.42532 10459278
80.834488 -44.06329 131.68298 10261388
79.832024 -44.153843 131.82217 8749691
78.758896 -44.306396 131.8336 9209984
77.8022 -44.636238 131.66739 10064264
76.999893 -44.668739 131.99626 10261643
4.6632333 -44.854225 128.22949 8092011
3.8350492 -44.556019 128.08035 8947064
2.8082957 -44.450687 127.71154 10130569
1.834198 -44.173908 127.63506 9866630
0.85114759 -44.022331 127.61425 8551026
83.288521 -43.698235 132.0891 11905701
82.714378 -43.757412 132.117 11905701
81.857117 -43.859711 131.92047 10261391
81.192474 -43.844193 132.26625 8617081
0.7005443 -43.851215 128.14511 9866630
-0.070243396 -43.873207 127.69673 8288366
-1.0786316 -43.790573 127.52448 9538176
-2.2218676 -43.704529 127.69793 10130313
-3.1437473 -43.704597 127.6785 9538436
-4.0655098 -43.704666 127.65237 9472388
-5.1405401 -43.704742 127.61333 11313047
-6.2152839 -43.704823 127.56565 11575961
-7.1361208 -43.704887 127.5174 9931395
-8.2099285 -43.704967 127.45247 7959408
-9.2831507 -43.705044 127.37893 8683128
-10.202596 -43.705112 127.30859 9077626
-11.121455 -43.705181 127.23152 9011832
-12.192719 -43.705257 127.13304 11313820
-13.263167 -43.705341 127.02599 8616306
-14.1799 -43.705406 126.9268 10063754
-15.095922 -43.705471 126.82108 8090737
-16.163605 -43.705555 126.68917 7828846
-17.230186 -43.705635 126.54865 10262927
-18.143354 -43.7057 126.42089 9736326
-19.055637 -43.705765 126.28652 7629667
-19.815098 -43.705818 126.1697 7037274
-21.199522 -43.705925 126.99564 8815484
-22.353598 -43.634315 126.84875 8092019
-23.24398 -43.437691 126.76352 7894128
-24.115026 -43.383743 126.57119 9077115
-25.124645 -43.391705 126.30085 9537408
-26.161501 -43.312901 126.05591 8419702
-27.074238 -43.141193 125.8787 9867145
-27.744356 -43.006004 125.75198 10459281
-24.238899 -42.671875 126.80575 8288116
-25.084425 -42.418369 126.67706 9208701
-26.138859 -42.399635 126.40484 9603973
-27.192276 -42.383453 126.13199 10130316
-28.094448 -42.371792 125.8975 8946041
-28.952467 -42.175087 125.74961 8156523
-29.633701 -42.056541 125.66199 9209467
-25.431 -41.781338 126.82443 9735812
-26.193134 -41.66325 126.66702 9735559
-27.157299 -41.409847 126.50687 10722452
-28.169415 -41.42556 126.23298 8616818
-29.075294 -41.418816 126.00546 9537664
-30.102194 -41.461792 125.7988 9538176
-31.148207 -41.271767 125.68327 9735043
-32.169582 -41.15733 125.54416 9735043
-27.52286 -40.697792 126.67745 10458766
-28.279104 -40.517807 126.54484 8287853
-29.152895 -40.472431 126.34132 10458510
-30.073351 -40.484646 126.16547 9471872
-31.105207 -40.53183 125.96468 9208699
-32.168163 -40.492825 125.79025 10392717
-33.151005 -40.546452 125.59577 10656144
-34.032459 -40.377846 125.50155 7696235
-34.878387 -40.273178 125.38999 7038307
-29.287802 -39.762848 126.57776 8485232
-30.189989 -39.628487 126.4615 9142907
-31.078604 -39.55349 126.33138 9142907
-32.113888 -39.602406 126.12932 9998214
-33.180698 -39.565037 125.95361 10392972
-34.16703 -39.620247 125.75797 7038307
-35.110977 -39.486015 125.63987 7366499
-36.01696 -39.467922 125.48563 8419443
-36.953106 -39.289295 125.38537 8682617
-38.009796 -39.159081 125.24579 8814458
-31.442789 -38.926983 126.49847 11906725
-32.145618 -38.861481 126.39781 9143164
-33.167446 -38.708721 126.27279 8551030
-34.226803 -38.498875 126.1622 9603715
-35.220306 -38.377243 126.0307 8024170
-36.153027 -38.402512 125.8556 9471872
-37.086834 -38.429615 125.67968 8353649
-38.02179 -38.458561 125.50285 8485494
-39.020538 -38.491531 125.31321 10261133
-40.075817 -38.315624 125.19079 9208700
-41.027771 -38.244129 125.04807 9867142
-35.368557 -37.665821 126.26759 7563619
-36.284782 -37.54248 126.15041 10853781
-37.185719 -37.477047 126.01456 10523788
-38.123283 -37.50536 125.83751 7629927
-39.062065 -37.535484 125.65954 9208959
-40.061405 -37.601509 125.45756 9143163
-41.100906 -37.607113 125.27082 9998984
-42.165184 -37.423336 125.14969 10130313
-43.151543 -37.274738 125.02941 10195333
-44.172947 -37.087772 124.91714 9801089
-37.564617 -36.850533 126.17906 10786703
-38.267254 -36.743961 126.09362 8813428
-39.201187 -36.621616 125.97296 9537666
-40.109051 -36.611774 125.81531 9011577
-41.095203 -36.529751 125.6704 9603714
-41.994156 -36.475262 125.53086 11182230
-43.044109 -36.431084 125.36067 11445400
-44.093166 -36.441307 125.17047 10261383
-45.107285 -36.412582 125.00092 13024175
-46.119698 -36.335358 124.84959 8682867
-46.837883 -36.238907 124.75768 8682867
-40.337811 -35.979332 126.00864 8813942
-41.074749 -35.764313 125.95725 9340543
-42.129864 -35.561352 125.84489 9406080
-43.099487 -35.436886 125.71864 11576987
-44.0522 -35.474102 125.53563 11840414
-45.00671 -35.513088 125.35159 11248278
-46.022869 -35.588791 125.14308 8880246
-47.081539 -35.603748 124.94941 8682867
-48.119926 -35.471992 124.81364 9143162
-49.143688 -35.191647 124.73549 9406078
-50.060768 -35.097496 124.60738 8813942
-43.493999 -34.808369 125.88103 12432037
-44.220085 -34.755947 125.7715 8815477
-45.161968 -34.591961 125.66481 9867652
-46.086197 -34.589977 125.50135 9472382
-47.047371 -34.631462 125.3152 8682867
-48.008793 -34.468243 125.20477 10721682
-49.020027 -34.397049 125.05147 10721938
-49.988857 -34.443417 124.86214 9866886
-50.960083 -34.4916 124.67178 8813942
-51.896832 -34.343758 124.56003 10327693
-52.63168 -34.251434 124.46358 10459278
-46.328644 -33.953274 125.69379 8682867
-47.152298 -33.826305 125.59447 8814453
-48.216171 -33.478703 125.53405 11182234
-49.151546 -33.427933 125.38666 10919829
-50.123123 -33.473129 125.1973 9537664
-51.097141 -33.520069 125.00687 9274492
-52.073761 -33.568718 124.81534 10327692
-53.053005 -33.619164 124.6227 9340797
-54.041126 -33.409111 124.52485 9406079
-55.094208 -33.236271 124.40174 9866374
-55.943546 -33.118576 124.29437 9734531
-49.563404 -32.795612 125.54745 10459022
-50.295734 -32.69875 125.45312 8813685
-51.269508 -32.589401 125.32057 10064262
-52.213879 -32.594299 125.151 9867141
-53.195995 -32.643353 124.95833 10130313
-54.119778 -32.36245 124.89812 10129802
-55.10817 -32.414322 124.70333 9998216
-56.099537 -32.467907 124.50739 9800580
-57.029694 -32.425117 124.35791 8485232
-57.908932 -32.321297 124.24011 8090730
-58.589012 -32.277672 124.13545 8485232
-52.143608 -31.935802 125.40708 10261641
-53.047764 -31.848511 125.27875 10985622
-54.021599 -31.53536 125.22156 10459022
-55.036469 -31.422047 125.0832 10129802
-56.030087 -31.473766 124.88752 10064009
-57.026798 -31.527191 124.69066 8353390
-58.026695 -31.582281 124.49261 7827559
-59.029915 -31.639109 124.29335 7695979
-60.090931 -31.367785 124.20523 11312789
-61.067833 -31.225157 124.08443 9536893
-61.834248 -31.137213 123.9808 6840151
-55.466797 -30.784048 125.2428 9734788
-56.230335 -30.742228 125.13184 8813686
-57.16003 -30.708654 124.9818 8813686
-58.149265 -30.641333 124.85361 10984852
-59.123199 -30.590736 124.72203 9076859
-60.071724 -30.385452 124.67548 10260617
-61.079891 -30.440166 124.46178 9668738
-62.031601 -30.452669 124.2826 7892840
-62.960434 -30.504795 124.08123 8419439
-63.992916 -30.363148 123.98229 8879991
-65.012276 -30.185648 123.9381 9538433
-65.923042 -30.080883 123.85677 8748665
-66.607582 -30.121265 123.70392 9735046
-61.173351 -29.817335 124.90504 10063496
-62.212231 -29.793964 124.73822 8879479
-63.085766 -29.762672 124.6069 8616564
-64.103981 -29.661001 124.50411 8287342
-65.070404 -29.557053 124.41224 8484977
-66.130669 -29.552546 124.24679 9603716
-67.08252 -29.517578 124.10844 8288115
-67.993301 -29.522009 123.91965 8156014
-69.023621 -29.365606 123.95943 8879995
-70.040604 -29.23587 123.93738 10458511
-70.946701 -29.210836 123.79535 9340800
-71.812126 -29.168749 123.57576 9209467
-72.170929 -28.945225 124.19379 10064777
-72.946297 -28.956932 123.80672 9538176
-73.967926 -28.818842 123.83112 9210491
-75.181229 -28.761892 123.48735 9670785
-77.523193 -28.710068 123.95128 8089963
-78.118759 -28.710112 123.57643 8025706
-78.712761 -28.710155 123.19919 9012089
-81.399475 -28.710352 123.76231 8092019
-82.142555 -28.710409 123.27016 6643287
-82.735046 -28.710451 122.87354 8813942
-85.186867 -28.710634 123.60392 10065035
-86.07679 -28.710699 122.98524 8618104
-89.183701 -28.710926 123.27347 8617337
-89.923866 -28.710979 122.73477 8090737
-91.27494 -28.41408 123.22554 8617080
-92.087875 -28.386604 122.8742 9143165
-93.057671 -28.391308 122.4401 8617080
-91.525536 -27.8078 123.35695 8617080
-92.140701 -27.536486 123.19165 9537408
-92.982941 -27.497217 122.83194 9735303
-93.93084 -27.413507 122.44299 7696235
-93.200356 -26.539484 123.11913 11248796
-93.979332 -26.375742 122.83759 9406848
-94.932922 -26.415384 122.39665 7827814
-94.197983 -25.535496 123.0771 9472130
-95.101509 -25.571983 122.65975 7301471
-95.992516 -25.321291 122.36317 8288365
-95.133041 -24.652777 123.01434 7104096
-96.068031 -24.529003 122.64725 6775126
-95.566444 -23.865396 123.13689 7235165
-96.195984 -23.588484 122.96738 6643284
-96.704567 -23.532713 122.76305 6511954
-96.879486 -22.785095 122.98496 6511954
64.240807 -58.31234 131.54398 10129545
63.569122 -58.48727 131.77318 10261131
62.605347 -58.477276 132.2059 9867142
61.541759 -58.699837 131.59332 9011064
60.590107 -58.699909 132.03415 9406334
59.372162 -58.699993 131.4608 10854036
58.580109 -58.700054 131.81544 9077626
57.5835 -58.70013 131.70076 7762027
56.589046 -58.700207 131.5791 7038307
55.796528 -58.700264 131.91728 8090986
54.616997 -58.700348 131.32521 8419951
53.66748 -58.70042 131.71597 8288367
52.506073 -58.7005 131.11748 8814203
51.71616 -58.700562 131.43085 7564651
50.754505 -58.700634 131.45576 8617334
49.783756 -58.700706 131.12875 10786959
48.835728 -58.700775 131.48471 10063750
47.71386 -58.702408 130.87096 10261391
46.608608 -58.700935 131.26488 9143168
45.666183 -58.707279 130.93695 8617075
44.716938 -58.701077 130.91168 6510930
43.70668 -58.715702 131.03941 7038816
42.857807 -58.72015 130.58473 10394001
41.742798 -58.701294 130.89864 11380637
40.751301 -58.740086 130.71844 8419699
39.74297 -58.713444 130.57324 9998215
38.651581 -58.744045 130.58865 11642784
37.779167 -58.738953 130.6391 7037274
36.656666 -58.714439 130.51595 8945527
35.698414 -58.745182 130.47568 9275260
34.904991 -58.71207 130.28073 8025449
33.74308 -58.701885 130.32602 7301476
32.644238 -58.701965 130.60576 7696235
31.751122 -58.70203 130.36153 7564649
30.705469 -58.702106 130.14787 8815475
29.608175 -58.702187 130.40201 8815475
28.707027 -58.702251 130.29897 9604224
27.849934 -58.702316 129.87639 9538176
26.754942 -58.702396 130.10602 9406591
25.658157 -58.702477 130.32692 9143678
24.90593 -58.702534 129.79903 9143678
23.771959 -58.702618 129.78687 9340288
22.677956 -58.702694 129.98265 9340545
21.625166 -58.702774 129.9407 8090737
20.678839 -58.601063 129.83174 8353391
19.786013 -58.423794 129.70947 8682356
18.79524 -58.291367 129.31421 8945527
64.59182 -57.461716 131.72624 9274492
63.713558 -57.572716 132.07278 10590352
62.974834 -57.656437 132.36807 9998727
19.656576 -57.562634 130.02364 9275005
18.776733 -57.499069 129.62526 9340029
17.902275 -57.297512 129.28526 9998217
65.545677 -56.223122 131.79463 11445143
64.693962 -56.485733 132.06908 9472127
63.843521 -56.749794 132.3423 9603713
18.783451 -56.609966 129.98764 9734531
17.813095 -56.514233 129.55861 9340030
16.9207 -56.31377 129.2095 8945530
66.422585 -55.320808 131.7636 9077375
65.67894 -55.400333 132.06271 10722189
64.79612 -55.509796 132.4119 9341307
17.767773 -55.632965 129.89265 8813429
16.857746 -55.431698 129.53537 9077116
15.93794 -55.31142 129.14066 10524304
66.712418 -54.474667 131.97174 10327181
65.756195 -54.521748 132.37801 10327431
17.564877 -54.935177 130.07674 9208187
16.717638 -54.471992 129.85544 9011580
15.893037 -54.572323 129.41751 9932425
15.101005 -54.338158 129.1304 9077373
67.569168 -53.553658 131.95793 8485495
66.626022 -53.5826 132.36563 10919316
65.91597 -53.937725 132.53972 10590603
16.277201 -53.681374 129.96249 9735046
15.610658 -53.540665 129.69807 9603460
14.695465 -53.429661 129.30182 9012093
13.953526 -53.302647 128.99556 8682867
68.675598 -52.398319 131.92651 9011320
67.725372 -52.465134 132.32227 7893351
66.98317 -52.732983 132.54544 9537664
15.426843 -52.74744 129.92986 10129803
14.61398 -52.526169 129.62727 9341058
13.659125 -52.49221 129.18034 8354676
13.010735 -52.200512 128.98476 8682867
69.515427 -51.314533 131.98509 9800836
68.621613 -51.418079 132.34113 9142906
67.817543 -51.647282 132.60718 8682611
14.354445 -51.828712 129.78259 8552056
13.701825 -51.536804 129.58501 8749435
12.749391 -51.454338 129.15857 9933193
11.902587 -51.181343 128.8597 9341059
70.643402 -50.176365 131.93724 9471871
69.75959 -50.523777 132.19165 9866630
68.834679 -50.541004 132.59589 9537665
13.514863 -50.750214 129.81096 10459023
12.721608 -50.445732 129.55057 10656913
11.764613 -50.516548 129.06027 12170410
11.015356 -50.160892 128.84166 8749179
71.295349 -49.27232 132.00778 8419702
70.591492 -49.518337 132.22256 8287342
69.682343 -49.684906 132.56027 9142651
12.454776 -49.690456 129.72534 14605262
11.800954 -49.56649 129.45969 12828338
10.825826 -49.383389 129.06271 8354934
10.179405 -49.263119 128.7991 9340801
71.667503 -48.492554 132.15302 7564651
70.762444 -48.523613 132.54291 9142907
70.071396 -48.692215 132.78294 8089963
11.611115 -48.786682 129.68152 9538178
10.858995 -48.43578 129.45959 9011835
9.9528103 -48.482101 129.00366 9143422
9.1340418 -48.228828 128.71034 9406336
72.521439 -47.40863 132.20538 9208703
71.613426 -47.438824 132.59692 8222065
70.888397 -47.790257 132.77914 10261643
10.561185 -47.587315 129.65689 9011835
9.7676592 -47.498508 129.30969 9997700
8.781394 -47.429722 128.8614 9603457
74.236755 -46.055508 132.08363 13486019
73.563759 -46.271835 132.2489 10920088
72.762306 -46.414028 132.5233 8881015
71.983162 -46.587673 132.77177 9011837
9.4181728 -46.656094 129.47963 10524046
8.6472549 -46.459599 129.18658 9800320
7.8204155 -46.45306 128.79022 9866628
75.439629 -45.076565 132.35332 13486019
74.664619 -45.35154 132.47177 16249839
73.782478 -45.467945 132.76759 12564401
73.030823 -45.6903 132.91776 8092011
8.604475 -45.698997 129.48486 9931907
7.6460881 -45.523586 129.14877 9274234
6.8344226 -45.397305 128.8345 8419701
5.9696865 -45.130585 128.62611 9012350
79.510292 -44.034019 132.36713 7564651
78.681755 -44.017033 132.79097 7828335
77.712349 -44.177814 132.67955 9932936
76.559113 -44.409973 132.5818 10327437
75.630165 -44.575855 132.6879 12564660
74.896843 -44.72456 132.88364 16249839
6.6773643 -44.724388 129.30908 8814197
5.8334146 -44.557899 129.0399 9209727
4.8556767 -44.376087 128.78203 9473408
3.8012619 -44.14344 128.68593 8552562
2.8699026 -44.017456 128.60135 10064777
83.927223 -43.698196 133.45824 10327440
82.332611 -43.698307 132.68687 8617081
81.69281 -43.698357 133.08138 7696237
80.527359 -43.829273 132.61003 11182232
79.528908 -43.807949 133.12274 7564651
3.5081663 -43.905811 129.30168 9078650
2.6456981 -43.878994 128.9818 10064521
1.7871428 -43.852558 128.658 9801092
0.9350118 -43.754406 128.63849 9998215
-0.22598699 -43.704384 128.75418 9209211
-1.3104649 -43.70446 128.7478 9603969
-2.2399654 -43.704529 128.73494 9209468
-3.1693492 -43.704597 128.71539 10262156
-4.2533998 -43.704678 128.68382 9735812
-5.3371596 -43.704758 128.64354 10458251
-6.2658057 -43.704826 128.60161 9931395
-7.1941314 -43.704891 128.55296 9405566
-8.1220732 -43.70496 128.4976 9012093
-9.2040815 -43.705048 128.42438 9998985
-10.285514 -43.705124 128.34239 9932933
-11.211854 -43.705193 128.26472 8682867
-12.137608 -43.705261 128.1804 8682867
-13.216811 -43.705338 128.07335 9734529
-14.295174 -43.705421 127.95761 12431781
-15.218593 -43.70549 127.85099 9340542
-16.141228 -43.705559 127.73774 7565674
-17.265881 -43.681057 127.72913 8289396
-18.293442 -43.503361 127.90433 10722448
-19.265305 -43.474823 127.67557 12301222
-20.177412 -43.455223 127.47513 9077369
-21.109085 -43.302509 127.39769 9538950
-22.103073 -43.252319 127.15331 9078656
-22.930796 -43.095856 126.99293 8092019
-18.711254 -42.905048 128.18185 10985620
-19.386326 -42.755917 128.05914 14735560
-20.246744 -42.538952 127.91277 9867140
-21.156284 -42.511986 127.68204 10985879
-22.21582 -42.483166 127.4123 10656917
-23.273869 -42.456924 127.142 8353909
-24.132191 -42.248486 126.99299 8419702
-20.586821 -41.896881 128.06384 12630959
-21.262358 -41.75116 127.93967 13815489
-22.123653 -41.538528 127.79145 11051672
-23.184608 -41.51255 127.52026 8288116
-24.244244 -41.489105 127.24848 11576736
-25.116467 -41.43243 127.03882 10590353
-25.999584 -41.219727 126.88486 10262156
-22.466942 -40.898228 127.94102 11380380
-23.256548 -40.66906 127.81801 8091250
-24.250347 -40.510681 127.6143 11248028
-25.218472 -40.523502 127.35315 12564139
-26.127146 -40.507854 127.11842 9735812
-27.074041 -40.423504 126.89934 11972260
-27.966894 -40.166527 126.75945 6511954
-24.433495 -39.828072 127.82217 12037541
-25.320778 -39.614006 127.66766 12169637
-26.19665 -39.559814 127.45607 11051158
-27.106899 -39.546402 127.22004 14209218
-28.167955 -39.533092 126.94407 7630435
-29.184732 -39.335415 126.75729 8090474
-30.026043 -39.219173 126.64208 8089963
-26.313147 -38.799931 127.71057 11709087
-27.178812 -38.597881 127.55719 10196359
-28.148981 -38.617496 127.29296 7301469
-29.199659 -38.54929 127.05091 7893095
-30.233864 -38.589615 126.83807 8879735
-31.126226 -38.564999 126.68865 9800837
-32.044704 -38.431648 126.5748 10459023
-32.992146 -38.086323 126.53419 8288115
-33.697796 -38.022446 126.43248 8814201
-27.531443 -37.961098 127.70303 9012086
-28.211205 -37.826672 127.57345 9012086
-29.138205 -37.660664 127.3959 7893355
-30.239073 -37.481228 127.24724 7761513
-31.258083 -37.497787 127.06004 11050902
-32.189148 -37.514793 126.88833 10064007
-33.135609 -37.375175 126.77183 8814201
-34.068645 -37.395695 126.59845 10261129
-34.96698 -37.326241 126.46452 8353391
-35.969368 -37.12468 126.36103 7563619
-29.283398 -36.994728 127.60622 7827564
-30.075199 -36.792015 127.53134 7038307
-31.242027 -36.493004 127.43468 9011578
-32.288868 -36.40559 127.28101 9932421
-33.223602 -36.423904 127.10815 9471872
-34.159172 -36.443935 126.93452 9668480
-35.095638 -36.465736 126.76009 8681842
-36.143871 -36.521244 126.5533 8287085
-37.187679 -36.449825 126.39424 11312790
-38.171883 -36.310047 126.27112 9142393
-38.886761 -36.252029 126.16555 9142393
-32.657887 -35.776878 127.4481 10458507
-33.367802 -35.711327 127.34615 9734530
-34.285877 -35.582863 127.23059 11115152
-35.188797 -35.512348 127.09625 10128773
-36.128807 -35.535355 126.92074 9734273
-37.129395 -35.59367 126.72136 11115411
-38.169308 -35.591179 126.53754 9602687
-39.211025 -35.590641 126.35265 9471616
-40.212952 -35.398518 126.2457 9603201
-41.217567 -35.207947 126.13773 9143165
-42.186024 -35.081573 126.01241 8814201
-35.407822 -34.87973 127.29138 10457481
-36.268333 -34.772881 127.17802 11246996
-37.203594 -34.64518 127.05912 11839132
-38.113178 -34.630074 126.90308 10194823
-39.121136 -34.536201 126.75871 9274236
-40.101921 -34.40115 126.63445 9734788
-41.197044 -34.375477 126.44937 8879993
-42.260914 -34.441288 126.23601 8024687
-43.179539 -34.434322 126.07539 7827820
-44.129646 -34.317173 125.94987 8092011
-44.847477 -34.216167 125.85969 8092011
-38.180565 -33.991745 127.12731 9405565
-39.163033 -33.69912 127.061 8155755
-40.183807 -33.500324 126.95315 8287598
-41.101036 -33.437313 126.81354 9406337
-42.114914 -33.503105 126.60905 7828077
-43.17009 -33.507763 126.41986 7762282
-44.22765 -33.514313 126.22951 8092011
-45.247551 -33.585896 126.02184 11578013
-46.175343 -33.53075 125.8774 11972773
-47.23637 -33.181358 125.81815 8946039
-48.063709 -33.054401 125.71806 10787732
-41.492184 -32.80632 126.97752 8091248
-42.218655 -32.749554 126.86942 9406337
-43.160378 -32.579895 126.76485 9472384
-44.085243 -32.57225 126.60337 8157547
-45.107338 -32.642467 126.39577 9802115
-46.193974 -32.593323 126.22092 13618370
-47.12624 -32.365379 126.1396 10525585
-48.14941 -32.408001 125.94204 10919830
-49.126492 -32.40958 125.76786 10129801
-50.098362 -32.232948 125.66055 8681843
-50.954014 -32.206818 125.51813 10261641
-44.323841 -31.933979 126.7971 8881015
-45.147175 -31.801954 126.6997 9144443
-46.147511 -31.569023 126.60815 10722707
-47.144283 -31.391106 126.49687 11183515
-48.116016 -31.430143 126.30977 10854551
-49.090012 -31.470783 126.12169 8616821
-50.066349 -31.513063 125.93256 9208443
-51.045155 -31.556969 125.74242 10327434
-51.993114 -31.507248 125.59238 10656399
-53.058228 -31.323549 125.4711 11642779
-54.094303 -31.04528 125.38998 10722194
-47.552288 -30.756166 126.65934 9012606
-48.297878 -30.706646 126.55783 9999243
-49.206203 -30.663605 126.42007 9012606
-50.251465 -30.58983 126.28715 9669762
-51.198517 -30.590326 126.11994 10261641
-52.180149 -30.520325 125.99976 11182485
-53.142532 -30.442223 125.88178 12959411
-54.226551 -30.410515 125.6964 10393485
-55.184814 -30.415739 125.52236 9471615
-56.190887 -30.314003 125.40718 8089963
-57.290394 -30.24338 125.2668 9537665
-58.889381 -30.012247 125.16131 9669507
-51.689785 -29.993969 126.45612 11314071
-53.420925 -29.759398 126.32916 10657425
-54.079746 -29.787781 126.19012 9670786
-55.117428 -29.679174 126.08916 9603969
-56.189011 -29.611467 125.95068 9669251
-57.156727 -29.617617 125.77375 9472129
-58.156563 -29.66526 125.55912 10985107
-59.229115 -29.45466 125.589 10261899
-60.17812 -29.462236 125.4105 10392459
-61.17979 -29.354034 125.29995 9734531
-62.095741 -29.214338 125.38521 8813429
-63.056927 -29.167458 125.29784 8288116
-64.019989 -29.082546 125.3271 9208960
-65.009178 -29.121149 125.02702 9340798
-65.834465 -29.154058 124.77441 9735046
-68.165283 -29.019283 124.79189 8090735
-68.665024 -29.040318 124.63531 8617075
-65.17392 -28.898214 125.71327 9866632
-66.0037 -28.930929 125.4604 10064010
-67.000557 -28.97113 125.15384 8222579
-68.008545 -28.857273 125.33974 7169375
-69.017448 -28.821581 125.27458 9143419
-70.023758 -28.864386 124.95795 9735046
-71.137367 -28.858574 124.82329 11446174
-71.976006 -28.769541 124.89353 10985623
-73.000984 -28.726671 124.58426 9801349
-76.025948 -28.709961 124.87495 9669506
-76.925545 -28.710028 124.32272 8681843
-80.054291 -28.710258 124.63653 8748917
-80.802818 -28.710312 124.15272 9012089
-83.543419 -28.710516 124.72087 16777207
-84.142609 -28.710558 124.31702 12695724
-84.740166 -28.7106 123.91071 10065035
-87.394592 -28.710798 124.54868 10853012
-87.992905 -28.710842 124.1263 9406338
-88.953461 -28.326357 124.20946 8419701
-90.036018 -28.302193 123.82259 9866632
-90.846199 -28.273214 123.47309 7893615
-89.387329 -27.600611 124.39315 7564651
-90.184784 -27.431 124.10569 9669510
-91.031578 -27.364906 123.75479 9603460
-91.777054 -27.200451 123.48845 9208443
-90.43969 -26.469423 124.3777 12433069
-91.125977 -26.495274 124.06146 9734787
-92.157593 -26.535147 123.58564 9340029
-92.930153 -26.193703 123.37817 10985367
-91.268906 -25.851233 124.25602 9471615
-92.072845 -25.555902 124.01614 10656145
-93.030128 -25.532352 123.59887 11182746
-93.832184 -25.296967 123.3358 10853012
-92.442734 -24.746901 124.1757 10327437
-93.133194 -24.523407 123.95759 9932424
-94.055199 -24.511047 123.55159 9011581
-94.739677 -24.396685 123.2924 7564651
-93.386604 -23.659941 124.19093 8617080
-94.143486 -23.490723 123.92141 9406082
-95.00766 -23.421707 123.56395 8353908
-95.827057 -23.248316 123.26819 6972249
-94.424942 -22.696215 124.11456 8617080
-95.167442 -22.534252 123.84859 8024426
-96.175819 -22.507507 123.41003 7235165
-96.835075 -22.216789 123.23323 6840663
