# .PCD v0.7 - Point Cloud Data file format
VERSION 0.7
FIELDS x y z rgb
SIZE 4 4 4 4
TYPE F F F U
COUNT 1 1 1 1
WIDTH 1213
HEIGHT 1
VIEWPOINT 0 0 0 1 0 0 0
POINTS 1213
DATA ascii
145.54169 -65.184067 21.098202 7037274
145.55862 -65.250549 21.994753 6510930
145.56841 -65.291504 22.533573 6510930
145.7511 -65.134377 25.262196 6510930
145.76256 -65.195366 25.987076 7103065
145.77353 -65.257721 26.713272 6971994
145.93344 -65.121819 29.473812 7037274
145.8952 -65.013214 30.075159 7037274
145.84476 -64.835693 30.964682 8090475
145.71661 -64.822266 31.991669 7695974
145.56422 -64.860321 33.060543 10720909
145.42529 -64.897293 34.028576 10260614
145.37743 -64.706482 34.935501 8617336
145.31163 -64.590157 35.771145 13551294
143.85045 -63.349861 4.2827358 8287859
143.94675 -63.617294 5.1514978 9208701
144.03688 -63.946983 6.0956945 8221549
144.27464 -63.79557 6.9005041 10392456
144.53067 -63.774673 8.0017214 10524815
144.73578 -63.838646 9.0171022 9472126
144.90543 -63.940277 9.9375343 9275005
145.06181 -64.036194 10.789682 11906725
146.00523 -63.976204 32.148117 7038307
145.92966 -63.851387 33.083267 8813945
145.87366 -63.708923 33.916969 9668993
145.70877 -63.79673 34.942181 8617336
145.55292 -63.842033 36.017265 7893614
145.4415 -63.779808 37.052372 8682613
145.39752 -63.554207 38.027264 6774618
143.72496 -62.429214 2.2059247 10457996
143.84985 -62.660316 3.1415651 7498601
144.02155 -62.788658 4.1152039 8024944
144.27904 -62.758446 5.2077017 7958892
144.4528 -62.795654 6.0399008 9932163
144.61751 -62.884918 6.9178123 8616306
144.81581 -62.921623 7.8582878 9208443
144.94618 -63.069717 8.680974 10261132
146.10513 -63.006279 34.110592 8354673
146.06412 -62.773895 35.081856 7104354
145.94359 -62.753853 36.068756 5393738
145.85313 -62.690483 36.945129 6510930
145.69099 -62.789307 37.917931 7629411
145.57745 -62.730919 38.958794 9406592
145.53146 -62.508728 39.939957 9735297
143.62788 -61.539597 0.30656791 9734788
143.72107 -61.74939 1.0664918 10720911
143.93289 -61.797913 2.0862939 10589580
144.16188 -61.784485 3.0799396 9735038
144.3614 -61.881889 4.1258307 9077368
144.548 -61.889313 4.9659443 8879734
144.73448 -61.898766 5.8086004 9537406
144.85857 -62.138824 6.7554989 9932163
146.22087 -61.953186 36.184906 5393738
146.15897 -61.836372 36.991726 7629667
146.0457 -61.765625 38.065243 7958632
145.92201 -61.751823 39.058876 8419695
145.82877 -61.693855 39.941772 9537664
145.68694 -61.749245 40.880341 9800834
145.61427 -61.568916 41.94899 9078394
143.66922 -60.516876 -1.9357159 9603712
143.7802 -60.649803 -1.0244114 9735554
143.89343 -60.816025 -0.037566423 10326666
144.07666 -60.895721 1.0010107 11641497
144.27682 -60.93306 1.9994276 10392201
144.53412 -60.893341 3.0889795 9406071
144.66217 -61.06295 4.0482054 9537657
144.76659 -61.222618 4.83465 9209467
146.26929 -61.151405 38.070679 7958632
146.22545 -60.941757 38.999847 6511954
146.19727 -60.812981 39.936214 7301214
146.12044 -60.735664 41.003658 9668995
145.99997 -60.74131 41.966328 8289136
145.86652 -60.744087 42.927402 11315612
145.798 -60.626343 43.929443 12039335
145.72884 -60.54454 44.94371 11051928
143.29805 -59.38147 -6.7526016 10064265
143.4686 -59.436981 -5.8972912 8353391
143.75067 -59.536201 -4.7329865 10261641
143.73291 -59.814743 -3.785465 9801090
143.85835 -59.978088 -2.9738281 8354159
144.06956 -59.941757 -2.1617162 8682867
144.30911 -59.947876 -1.0755103 12168865
144.40965 -60.093025 -0.12252069 11116692
144.53792 -60.253159 1.0059373 10918289
144.65408 -60.304665 1.7018373 11181204
146.46535 -60.064606 42.102531 9208958
146.39967 -59.978325 43.115829 10460559
146.30528 -59.93782 44.097542 9736068
146.27455 -59.827217 44.970181 8288366
146.0961 -59.878387 45.975792 11315100
146.22569 -59.542976 47.007202 9341057
146.23663 -59.356743 48.012405 9998728
145.93791 -59.355011 48.888153 9801347
142.51561 -58.816582 -25.724781 9932163
142.83871 -58.752998 -24.957741 11774110
143.08339 -58.903633 -23.99087 14273730
142.92561 -59.064278 -22.859596 7038298
143.08133 -59.062981 -21.829903 7038298
143.20561 -59.061905 -20.971029 12696495
143.32439 -59.060844 -20.111366 9209982
143.46025 -59.05957 -19.078846 9341568
143.5887 -59.058304 -18.04541 7893095
143.70966 -59.057037 -17.011023 8617075
143.80496 -59.056 -16.148478 9405304
142.91992 -59.055519 -14.840213 9405304
143.01784 -59.054291 -13.81076 8090218
143.09384 -59.053268 -12.952402 5392706
143.16437 -59.052254 -12.093556 5984587
143.24237 -59.051041 -11.062373 7629667
143.31297 -59.049835 -10.030709 6511954
143.42581 -59.068993 -9.0013275 8682608
143.63828 -59.131973 -7.9761782 7564642
143.84813 -59.196892 -6.9485674 10853012
144.05457 -59.263374 -5.9184942 8419183
144.22379 -59.319916 -5.0582323 8682867
146.82823 -59.158188 48.210178 10261132
146.58826 -59.156845 48.913532 9208955
146.38834 -59.111931 50.02446 8748921
146.46834 -59.023727 50.841713 8748921
146.254 -58.97892 51.953651 8879994
146.96225 -58.976562 53.409386 10261132
146.69948 -58.976082 54.114174 9734525
146.36673 -58.975479 54.993507 9997439
147.12862 -58.973228 56.298676 11181201
146.85191 -58.972755 57.004204 11181201
146.50179 -58.972168 57.884464 7564126
147.25337 -58.969902 59.214722 6511954
146.96272 -58.969452 59.920807 8617075
146.59503 -58.96888 60.801731 9143675
147.33614 -58.966599 62.157455 11512220
147.03125 -58.966164 62.863876 10327948
146.64592 -58.965607 63.745064 10590865
147.45517 -58.963425 64.949501 8617331
147.24751 -58.870911 66.005074 8090988
147.14206 -58.572304 66.908905 9143678
146.88582 -58.282852 67.678284 10196107
142.44299 -57.768387 -26.88986 8353135
142.73097 -57.954651 -25.999094 8024679
143.18765 -57.904594 -25.088795 13352629
147.47392 -57.709457 67.092125 7959407
147.03778 -57.641335 67.877991 8748921
142.45938 -56.70816 -28.029921 10130569
142.75331 -56.801292 -27.066147 10064776
143.09587 -56.916336 -26.109406 7038307
143.28621 -57.301247 -25.389603 14078918
147.64001 -56.905312 67.383331 7038307
147.32237 -56.733238 68.042915 7169634
147.00439 -56.562141 68.702354 6510930
142.27061 -55.688057 -29.72497 9998468
142.47461 -55.952408 -28.832321 9735811
142.86137 -55.867073 -27.797127 9735812
143.13187 -55.908768 -26.959631 11314842
143.252 -56.123955 -26.448704 7038307
147.64301 -55.684769 68.24659 8089962
147.19418 -55.746239 68.961845 10655633
146.92287 -55.441681 69.637329 11379356
142.11652 -54.44767 -31.565456 8089963
142.28546 -54.718178 -30.768372 8551280
142.53299 -54.87532 -29.868612 12169122
142.85918 -54.919739 -28.865097 11511963
143.10568 -55.081467 -27.963203 11578013
143.27238 -55.359711 -27.163906 11314842
147.54065 -54.779312 69.063942 8089962
147.11891 -54.722008 69.817932 9734531
142.27817 -53.78093 -31.839882 9012089
142.59114 -53.755539 -30.953337 9143161
142.91885 -53.796646 -29.948997 10853265
143.12227 -54.106407 -29.007318 10262415
147.43759 -53.795654 69.93808 9471615
147.03441 -53.725052 70.670082 11379356
142.04185 -52.576576 -33.880432 10130054
142.21906 -52.919739 -32.977772 8485745
142.52098 -52.952385 -32.058445 9143418
142.91174 -52.857292 -31.022535 11905696
143.06673 -53.063599 -30.338194 8682867
147.67401 -52.844467 70.215034 10919061
147.17935 -52.820915 71.068222 10524303
141.92577 -51.455849 -35.475636 11181969
142.11835 -51.620483 -34.728069 9142386
142.29617 -51.859245 -33.940655 9209467
142.60857 -51.89032 -32.992409 8880503
142.86574 -52.024155 -32.090633 9011832
143.04919 -52.311852 -31.23196 13023663
147.62808 -51.887024 70.973877 7827558
147.18349 -51.751587 71.821999 9077625
142.08395 -50.79261 -35.756371 10656402
142.4007 -50.757889 -34.869133 8024170
142.73297 -50.788246 -33.863674 12037282
142.94145 -51.087463 -32.918819 10655631
147.83093 -50.825592 71.386047 9735043
147.43315 -50.808609 72.07077 9932678
147.03529 -50.792503 72.754982 9932678
141.89027 -49.613754 -37.643543 10986391
142.01685 -49.943893 -36.903534 9143931
142.32297 -49.967026 -35.982601 10064265
142.71794 -49.861229 -34.946457 9735044
142.87654 -50.060188 -34.259727 13155762
147.77553 -49.912186 72.129547 11379356
147.35942 -49.794601 72.916878 10327180
147.0898 -49.380592 73.667412 10655889
141.85286 -48.635223 -38.849628 8092011
142.0303 -48.889977 -38.0452 11578528
142.36572 -48.912476 -37.039368 9670275
142.6709 -48.980988 -36.070332 9011321
142.85266 -49.318405 -35.160942 10459023
147.71077 -48.83741 73.003761 9735555
147.31616 -48.681625 73.781837 9603457
141.74611 -47.413773 -40.530476 13023917
141.87578 -47.738976 -39.786816 9208435
142.18336 -47.801308 -38.817684 9406590
142.52191 -47.776131 -37.85614 14538181
142.64977 -48.105736 -37.112991 11183000
142.84203 -48.211411 -36.432396 9341054
147.87843 -48.196281 73.176369 9932678
147.60747 -47.782303 73.929138 8090730
147.18854 -47.667618 74.719093 8287853
141.66049 -46.683945 -41.610497 11708313
141.82112 -46.87149 -40.919895 11905692
142.25809 -46.719559 -39.939491 9208435
142.52332 -46.832191 -38.962692 9669761
142.71597 -47.101059 -38.044991 15722454
147.84276 -46.84671 74.196877 8682611
147.50209 -46.728149 74.857346 9800580
147.19345 -46.557877 75.504562 7038298
141.66443 -45.778221 -43.740128 11971494
141.99507 -45.759293 -42.818439 12103336
142.15002 -45.91925 -41.988125 10721423
142.29156 -46.139915 -41.054428 10787211
142.6387 -46.059235 -40.229759 9208435
147.85219 -46.112862 75.059616 9932166
147.58806 -45.827507 75.934341 8617075
147.38524 -45.575752 76.655357 10064008
141.29027 -44.53701 -49.723915 7563618
141.52448 -44.536285 -49.045231 10327176
141.74757 -44.587791 -47.88998 9274747
141.90854 -44.640373 -46.904785 8287853
141.77637 -44.861473 -45.809605 7169629
141.83197 -45.088661 -44.956715 7301215
142.14395 -45.094513 -44.026688 9670277
142.32916 -45.216354 -43.104542 11775395
147.98265 -45.094482 76.365639 9735043
147.71959 -44.939598 77.042488 10853012
147.57919 -44.646416 77.967979 10984596
147.64665 -44.449234 78.918045 8682100
140.94998 -43.664352 -62.63546 7695460
141.12752 -43.922379 -62.10759 8155755
141.26198 -44.107697 -61.02639 9340027
141.62201 -44.106377 -60.17765 9998214
141.07712 -44.104332 -57.768826 9077625
141.4176 -44.103043 -56.921284 8090475
141.75255 -44.101753 -56.071571 9011318
141.1971 -44.130424 -53.90976 8221548
141.56409 -44.124901 -52.88689 11182234
141.65663 -44.20533 -51.841621 7234653
141.70418 -44.276855 -51.014439 5919050
141.90553 -44.327385 -49.937904 9866115
142.19958 -44.326385 -49.085751 11774364
147.9193 -44.201797 79.986137 9997700
147.89931 -44.03392 81.055481 11445144
147.68443 -43.948807 81.943512 9866371
148.37354 -43.941383 84.21479 8090987
147.96269 -43.941055 84.926216 6709590
147.65237 -43.940811 85.458511 9209211
148.33476 -43.937523 87.781868 9142910
147.907 -43.937218 88.493248 8287859
148.59322 -43.874413 90.376923 9932678
148.27286 -43.572746 90.917198 10853268
141.02034 -42.917961 -62.937016 10063236
141.5607 -43.106941 -62.365108 7563619
148.51207 -42.805328 91.065323 10655889
148.03488 -42.7089 91.673943 10853268
140.86006 -41.690094 -63.678135 9011064
141.29263 -42.034149 -63.12632 9669251
148.57153 -42.169579 91.349045 9932678
148.293 -41.729225 91.917664 9735811
148.01387 -41.289444 92.486694 10262155
141.06844 -40.879257 -63.888638 8813685
148.6183 -40.680511 92.121193 11051672
148.13899 -40.585999 92.731438 12038311
140.80635 -39.829376 -64.633369 8155755
141.27577 -40.045265 -64.111328 7958376
148.46823 -39.820656 92.773018 11841188
147.98572 -39.584999 93.465416 10262155
141.00923 -38.885483 -64.913628 9405822
141.45439 -39.218033 -64.356262 9011064
148.60274 -38.845909 93.157501 9406846
148.24484 -38.744339 93.630493 10130056
140.74315 -37.817543 -65.670677 8287858
141.1293 -38.095917 -65.192062 8287602
148.70659 -37.698074 93.673782 9143161
140.63792 -36.420204 -66.445671 8616566
140.97682 -36.887291 -65.916954 7893101
148.82892 -36.848808 94.002708 10984337
140.69067 -35.849525 -66.677109 7038307
141.20433 -35.972206 -66.161278 8616566
140.42276 -34.475677 -67.584999 11315612
140.8756 -34.908905 -66.971741 9866885
141.32837 -35.344162 -66.357391 8616566
140.65047 -33.827606 -67.69442 11116695
141.21904 -33.945625 -67.135139 9143678
140.46686 -32.558067 -68.438782 11708831
140.93367 -32.990677 -67.830757 12761260
140.62361 -31.727369 -68.682281 7959151
141.10756 -31.929241 -68.165199 9801095
140.73456 -30.853268 -68.987511 8090733
141.26524 -31.096579 -68.408821 7038307
138.77718 -29.594723 -104.87913 9932681
138.99803 -29.508797 -103.74525 9932681
139.12781 -29.457462 -103.06647 7038307
140.73888 -29.811127 -69.828415 10590607
141.03581 -30.195738 -69.274467 8485488
139.21303 -29.423477 -102.61469 11906725
139.33923 -29.372602 -101.93799 11906725
139.50449 -29.30509 -101.03755 9736072
139.7059 -29.221331 -99.915024 10064779
139.88165 -29.133869 -98.781227 10524560
139.94446 -29.049358 -97.825653 7564135
140.00143 -28.964903 -96.871918 8485235
140.06033 -28.882004 -95.925186 7038307
140.59393 -28.803293 -71.745758 8222836
141.04314 -29.166248 -70.928123 11906724
140.28227 -27.821466 -72.701149 9604741
140.86247 -27.968679 -72.089409 8814971
140.68709 -26.805653 -75.998528 10524300
140.60147 -26.804411 -74.869316 9208187
140.53497 -27.179319 -73.887222 9275005
140.79301 -27.391649 -73.035477 10723219
145.18262 -64.568115 12.203697 9341054
145.32947 -64.66671 13.061396 10195853
145.38107 -64.728287 13.982362 7762027
145.47566 -64.602768 15.050992 8748405
145.50166 -64.665428 16.114906 10458507
145.52255 -64.719849 17.002995 9866371
145.54279 -64.776527 17.892632 8418926
145.59631 -64.771065 19.017124 7366239
145.67253 -64.685402 20.001289 8221548
145.73094 -64.657578 21.054607 8616559
145.7747 -64.646339 21.920595 9077113
145.77957 -64.759842 22.926155 8616818
145.82858 -64.768654 24.064875 7300444
145.90561 -64.67337 24.988438 7234395
145.97975 -64.587509 25.917854 9077369
145.98178 -64.711693 26.933716 8617590
145.9976 -64.807747 28.027672 8419952
146.0788 -64.702492 28.955479 6971738
146.10823 -64.526619 29.802471 7366495
146.05197 -64.398773 30.596581 7893096
145.10266 -63.609924 10.266921 9604226
145.24953 -63.700188 11.067498 10591121
145.39621 -63.792366 11.870491 10722707
145.59424 -63.863945 12.900803 11248026
145.71872 -63.803047 14.015804 7630187
145.77625 -63.78566 15.133615 10195594
145.83568 -63.728287 15.97543 10984848
145.85704 -63.781754 16.865444 10853264
145.88182 -63.848618 17.935318 8089962
145.92159 -63.869041 18.965004 7497825
145.99629 -63.80542 20.091412 10787219
146.05615 -63.759209 21.030956 11314067
146.10034 -63.747169 21.898794 8945264
146.12062 -63.827774 22.980881 10393227
146.15627 -63.861252 24.023283 9208181
146.22372 -63.796722 24.983559 9010803
146.29057 -63.734444 25.946947 9801349
146.3242 -63.775658 26.998039 7828846
146.3195 -63.914886 27.986195 7367782
146.41966 -63.747948 28.841259 7958633
146.35292 -63.812431 29.926491 8353647
146.20273 -63.844231 30.995945 8156526
146.20877 -63.461586 32.027725 7038307
146.15063 -63.337532 32.826195 7038307
145.01816 -62.667221 8.335783 10261132
145.17516 -62.701836 9.089426 9340030
145.34677 -62.858498 10.109459 8551026
145.53198 -62.880104 10.966738 9406335
145.80453 -62.742889 11.949168 9340798
145.99747 -62.810364 12.981853 8748407
146.05608 -62.87851 14.049204 8287859
146.07924 -62.926842 14.937751 10853011
146.16927 -62.792221 15.835256 11182483
146.19547 -62.855247 16.905575 9406586
146.25085 -62.845024 18.032845 8879476
146.31264 -62.804688 19.061701 8813429
146.33215 -62.864212 19.959385 9734531
146.36705 -62.876328 20.816357 13288113
146.4407 -62.816673 21.950857 7958624
146.49171 -62.82029 23.092035 10458248
146.54636 -62.778435 23.952843 8747634
146.56233 -62.849068 24.861206 9800574
146.61891 -62.825584 25.908831 9209984
146.65172 -62.871414 26.986576 7565675
146.72543 -62.787857 27.925932 11840933
146.76282 -62.810486 28.910007 9866630
146.68781 -62.870567 29.996101 7367013
146.52702 -62.947655 31.019695 7235170
146.50679 -62.700554 31.872414 8288373
146.35118 -62.771996 32.871986 8090994
146.24388 -62.713226 33.865471 8091502
144.9644 -61.540421 6.2371197 9340027
145.07721 -61.693916 6.9909153 8879477
145.22728 -61.901024 7.998394 8879479
145.49443 -61.829956 9.0664883 8550514
145.72876 -61.742226 9.9610348 8090218
145.89394 -61.839348 10.854064 7432800
146.00165 -62.054001 11.686082 7893352
146.93059 -62.12233 30.230686 7038307
146.89722 -61.95475 30.960964 7037532
146.83788 -61.794014 31.871681 10656404
146.68541 -61.829567 32.948223 9801609
146.53174 -61.867989 34.02594 8355182
146.39169 -61.905159 35.00201 8092011
146.37311 -61.655167 35.849674 7367522
146.30205 -61.590965 36.579136 7958632
144.74075 -60.344154 2.2247636 9208435
144.88431 -60.411385 3.0977809 9669244
144.93047 -60.65197 4.1437073 9340278
145.0387 -60.778488 4.960947 9209209
145.20338 -60.862602 5.8989468 9341053
145.52115 -60.734955 6.9637356 9209211
145.66348 -60.869415 7.9798107 9471872
145.77145 -61.100601 9.084506 8813686
146.00517 -61.011459 9.9807224 8616819
147.05457 -61.052048 32.289963 8616304
146.9856 -60.989822 33.109711 13551290
146.9131 -60.927811 33.929684 12499113
146.88884 -60.788139 34.856052 8618354
146.72437 -60.82708 35.937103 6841688
146.55815 -60.868591 37.01923 7959401
146.50462 -60.724289 37.944588 7563874
146.47913 -60.593864 38.880047 6972249
146.54839 -60.307426 40.033768 8156267
144.45287 -59.399658 -3.8506238 8682867
144.56786 -59.439087 -2.9853294 8090987
144.65791 -59.470604 -2.1184833 9011831
144.91631 -59.468056 -0.99024606 10261639
145.02773 -59.565094 0.010197401 10065543
145.12038 -59.657654 1.0124671 9275515
145.26793 -59.723732 2.0606506 9932676
145.37079 -59.826515 3.066366 9932416
145.4016 -60.006401 3.9843595 9932416
145.54414 -60.07682 4.8637104 9209467
145.68576 -60.148964 5.7449903 10393483
147.18628 -60.151695 36.052429 6577747
147.11646 -60.075623 37.037464 6577747
147.06784 -59.982971 37.958527 8353900
146.94847 -59.968834 38.95948 10129802
146.99068 -59.762573 39.85276 9471872
146.9808 -59.696243 40.915726 7104095
146.84714 -59.678696 41.895584 7761772
146.86983 -59.531944 42.795925 9735044
147.05078 -59.384659 43.81176 7828330
147.1447 -59.313339 44.806767 8090987
146.89597 -59.346313 45.891888 10722963
143.53307 -58.537888 -23.837111 14076861
143.826 -58.808472 -22.999329 8946037
144.24762 -58.825272 -22.002266 10853777
144.24622 -59.060753 -20.941675 12433068
144.38808 -59.059464 -19.902458 10261899
144.52243 -59.058182 -18.862293 9867141
144.62878 -59.057121 -17.994789 9735812
144.72968 -59.056068 -17.126564 7893352
144.33331 -59.05529 -16.031132 6511954
143.92917 -59.054535 -14.939803 6511954
144.02774 -59.053299 -13.903071 6314575
144.11877 -59.052071 -12.865687 5920074
144.18913 -59.051048 -12.000678 5392706
144.25386 -59.050026 -11.135272 7827301
144.32492 -59.048813 -10.096289 9406074
144.38849 -59.047615 -9.0568218 10853262
144.44452 -59.04641 -8.0169382 9274748
144.49307 -59.045227 -6.9766369 9932166
144.64442 -59.088799 -5.9398479 8748404
144.8483 -59.156746 -4.9029455 7893608
145.01559 -59.214546 -4.036953 8682867
145.12903 -59.252808 -3.1683023 9209210
145.23842 -59.29055 -2.1240566 9011831
145.32648 -59.323067 -1.2527926 9537918
147.50952 -59.266457 43.178772 7038307
147.66135 -59.127411 45.355801 8090987
147.53636 -59.143997 45.900742 9077882
147.29906 -59.161819 46.800163 8091248
147.33208 -59.070801 47.78949 8091248
147.36172 -58.981194 48.782024 7368039
147.06108 -58.980553 49.665504 7038307
147.79176 -58.97818 51.109871 8156786
147.47679 -58.977554 51.995728 7893098
147.15678 -58.976936 52.879841 9603202
148.00322 -58.9748 53.996193 9603202
147.67088 -58.97419 54.883286 7827046
147.33353 -58.973587 55.768486 9273716
148.10435 -58.971321 57.087833 9931390
147.82385 -58.97084 57.798019 7629920
147.46893 -58.970253 58.684158 6511954
148.15611 -58.96785 60.206814 8814456
147.86093 -58.967392 60.917343 9735812
147.5623 -58.966934 61.626442 9735812
148.312 -58.96463 62.997051 13946047
148.13333 -58.765785 64.118019 13353402
148.14854 -58.562698 64.960701 12958901
147.89516 -58.442307 65.785683 9341055
143.50818 -57.548981 -24.718788 15393238
143.73006 -57.798546 -24.04673 13353141
144.16394 -57.904846 -23.052813 9340795
144.3857 -58.158173 -22.377754 12892844
148.46654 -57.721558 64.973686 11051416
148.12325 -57.742378 65.888229 7038305
147.76686 -57.728699 66.583084 7038307
143.40852 -56.548233 -25.766277 7038307
143.60275 -56.87175 -25.089796 13355196
144.11591 -56.824043 -24.059837 11446430
144.38243 -57.037918 -23.324562 9538176
148.59991 -57.128067 65.246109 9735812
148.41885 -56.859283 66.021057 6511962
148.06058 -56.670448 66.83934 8551541
147.83792 -56.306953 67.47451 7038307
143.42786 -55.515327 -26.599529 9341316
143.65292 -55.767944 -25.91132 8683130
143.96748 -55.943146 -25.108406 11381152
144.28822 -56.046234 -24.35302 10459278
148.37584 -55.770706 66.946358 10262156
147.93755 -55.702454 67.736031 9143163
143.34377 -54.737373 -27.652573 11314842
143.58664 -54.840363 -26.866306 11051930
144.07709 -54.798058 -25.840559 11710117
144.32687 -55.064384 -25.09635 9341316
148.53984 -54.993073 67.222298 10327948
148.23442 -54.702911 67.945198 9866626
148.0049 -54.282806 68.632187 7629666
143.34555 -53.62738 -28.891237 10591123
143.57339 -53.886482 -27.934715 9867658
143.91492 -53.940659 -26.927246 8748663
144.23256 -54.005852 -26.181093 11247765
148.54201 -53.771454 68.087845 9998211
148.10347 -53.678787 68.895294 8089961
143.31992 -52.782532 -29.912937 10129799
143.63344 -52.760841 -29.020546 10065036
143.96176 -52.80616 -28.009768 7894383
144.20364 -53.071968 -27.05257 9012091
148.69591 -53.102127 68.303757 8813939
148.4404 -52.732071 68.999138 8155753
148.11855 -52.562614 69.663872 10392970
143.14034 -51.574509 -31.791607 10853265
143.2847 -51.858139 -31.051712 13944252
143.56448 -51.952148 -30.128376 10853265
143.95612 -51.861221 -29.085333 7039331
144.19069 -51.955688 -28.293499 7039331
148.69501 -51.88208 69.17337 8682608
148.30757 -51.746002 69.925255 8485230
147.96716 -51.642326 70.574699 6511954
143.16353 -50.607796 -32.80706 10392459
143.39632 -50.856102 -31.848169 10853521
143.71439 -50.838539 -30.93808 13617336
143.91135 -51.022675 -30.15576 11445914
144.11931 -51.191895 -29.358133 8485749
148.61505 -50.794716 70.082191 6840919
148.22818 -50.722061 70.787994 10261383
143.08606 -49.857246 -33.874626 11181974
143.44778 -49.743706 -32.944221 9603201
143.78047 -49.778137 -31.933022 11445657
144.0136 -50.028137 -30.97127 11116693
148.49879 -49.842308 70.956345 11511195
148.10336 -49.743713 71.695152 10721941
142.93896 -48.587234 -35.727818 10459023
143.0874 -48.863129 -34.984673 10459023
143.36935 -48.99366 -34.013985 9208443
143.76701 -48.84568 -33.017208 9208443
144.00526 -48.931656 -32.224419 11708829
148.7177 -49.040833 71.15641 9998731
148.38347 -48.823692 71.876068 9669766
148.14868 -48.611412 72.424042 9011838
142.95131 -47.575546 -36.825394 10985879
143.11246 -47.863457 -36.031605 9209212
143.41611 -47.887543 -35.11673 9406848
143.72154 -47.95993 -34.142723 8946041
143.9268 -48.17971 -33.29615 9077114
148.69957 -47.958458 71.957161 10327696
148.25006 -47.754898 72.862053 8419442
142.84383 -46.402916 -38.813084 10985620
142.99146 -46.657631 -37.882053 11972514
143.2653 -46.777657 -36.905891 8814710
143.59973 -46.80127 -35.892204 8880503
143.78983 -46.994278 -35.025162 8420209
143.89427 -47.187973 -34.502716 8814968
148.87054 -47.019035 72.336273 7038307
148.56133 -46.845016 72.983055 6576723
148.22099 -46.72467 73.644203 6248271
142.72054 -45.395432 -41.547611 9208435
142.88689 -45.485474 -40.853905 11050383
143.06494 -45.648415 -39.952454 9932675
143.25162 -45.795013 -39.060833 10393483
143.51643 -45.863174 -38.124859 10656655
143.6918 -46.114838 -37.014603 8090987
148.83742 -46.236015 73.209366 7563618
148.61687 -45.9627 73.992287 6905945
148.39761 -45.626457 74.867271 9668738
148.13634 -45.470421 75.542816 10853012
142.55977 -44.539024 -45.984123 7169629
142.89757 -44.542244 -44.961121 7762537
143.07494 -44.598068 -43.889294 7828844
143.01765 -44.738266 -42.999088 7894638
142.99722 -44.91433 -41.999168 9010807
143.32788 -44.924377 -40.978771 10458249
143.51892 -45.093224 -39.919235 9076599
148.84821 -45.023842 75.007263 10656145
148.4935 -44.883537 75.817268 10721682
148.68355 -44.531357 76.731674 9997959
148.34125 -44.458305 77.689781 9735043
141.86331 -43.670021 -61.821857 8155755
142.37358 -43.811295 -61.299942 7564647
141.83559 -44.105591 -59.667446 10656657
142.11711 -44.104546 -58.985699 7498849
142.53355 -44.102974 -57.96077 6709336
142.80742 -44.101929 -57.275951 10853004
142.14803 -44.100204 -55.049362 9274235
142.53606 -44.098671 -54.0243 7958888
142.9167 -44.09713 -52.996498 9076856
142.3472 -44.117104 -50.666645 8353135
142.58476 -44.115799 -49.982475 10392715
142.75333 -44.167801 -48.988235 10853263
142.83295 -44.241852 -48.042519 9932419
142.95244 -44.327736 -46.866096 7169629
143.23772 -44.329704 -46.010693 7761766
143.40781 -44.331314 -45.497063 7169629
149.01787 -44.215179 78.048546 9931910
148.68971 -44.14727 79.021584 8747636
148.7972 -43.958801 80.003044 9931909
148.394 -43.954597 80.709496 10984593
149.08409 -43.941986 82.964996 11116180
148.67947 -43.941635 83.679993 11708316
149.2854 -43.938255 86.17437 10261898
148.86514 -43.937927 86.890137 9537667
149.6017 -43.9151 89.028793 7038307
149.19543 -43.69442 89.762749 8221549
142.1658 -42.849648 -61.953346 9406337
149.43773 -42.784714 89.991821 7629411
148.92038 -42.827644 90.577797 9208443
141.87788 -41.909668 -62.66745 10326925
142.40135 -41.932007 -62.191814 10392718
149.24779 -41.779388 90.77858 7760997
148.83241 -41.330925 91.51091 8287341
142.08243 -40.850906 -63.002251 9142908
142.5309 -41.30162 -62.384319 9537923
149.50764 -40.768715 91.03701 9011576
149.02834 -40.701126 91.632446 9209467
141.72951 -39.931038 -63.764206 9011064
142.27473 -39.906479 -63.29211 9274235
149.77246 -40.098854 91.100639 9932678
149.37326 -39.704643 91.784126 10458766
141.72281 -38.478973 -64.478355 10260358
142.0611 -38.952217 -63.947216 9931394
149.47984 -38.801796 92.161148 9735299
149.12007 -38.61377 92.684258 9603969
141.77803 -37.905823 -64.708878 9800064
142.32486 -37.876991 -64.237495 11444374
149.39429 -37.728966 92.856186 9537408
141.51457 -36.522255 -65.617622 10260617
141.96732 -36.962265 -65.001038 7169119
149.66896 -36.842651 93.02845 9537409
149.30603 -36.569847 93.602226 9208444
141.80893 -35.707146 -65.753822 11050131
142.22591 -35.909859 -65.28476 7958633
149.42847 -35.682106 93.952522 9274237
141.59479 -34.602814 -66.482498 7038307
141.97313 -34.934135 -65.985054 10196363
149.7572 -34.746513 94.089188 8879479
149.48026 -34.735298 94.417755 8089963
141.77 -33.773293 -66.730904 8486262
142.24805 -33.979202 -66.206718 8749433
149.80693 -33.675377 94.625854 8945272
141.88846 -32.897087 -67.036285 9801607
142.42172 -33.146988 -66.453964 9538947
141.65953 -31.752785 -67.762054 7959151
142.11382 -32.082123 -67.212494 8682873
141.39113 -30.722912 -68.469887 9208958
141.96523 -30.889935 -67.908241 7301478
139.99748 -29.787386 -109.52576 10984849
140.13866 -29.73407 -108.82775 11445142
140.32385 -29.663355 -107.8989 9143163
140.50525 -29.59305 -106.97231 8287856
141.67372 -29.948425 -68.90567 7564393
142.04314 -30.224241 -68.364395 8090736
140.1375 -28.804005 -94.996307 8747892
140.2137 -28.726963 -94.072136 9010550
140.30463 -28.631475 -92.921539 8024428
140.39108 -28.536762 -91.775528 10787215
140.45671 -28.461542 -90.862373 11707804
141.76826 -28.748442 -70.880234 10919829
141.77492 -29.303011 -69.916573 8682867
142.29694 -29.34067 -69.327423 7038307
140.51939 -28.386879 -89.952339 10787220
140.57912 -28.312727 -89.045372 8090995
140.64955 -28.220766 -87.916138 13024949
140.71565 -28.129566 -86.791344 13880509
140.76521 -28.057182 -85.895111 10327947
140.812 -27.985357 -85.001854 10327947
140.8558 -27.913939 -84.111664 10262156
140.90651 -27.825453 -83.003242 9537921
140.95317 -27.737614 -81.899185 9866626
140.98729 -27.667965 -81.019348 10787467
141.02596 -27.58156 -79.923882 9208435
141.05414 -27.512941 -79.050453 9932934
141.62656 -27.587629 -71.880257 9801862
141.80492 -28.104675 -71.202843 10261899
141.4218 -26.848486 -73.897392 9867139
141.65858 -27.10985 -72.923149 11380120
146.40701 -62.321045 17.287285 8683120
146.41963 -62.353935 17.824419 8089963
146.66252 -62.324142 22.887119 9997695
146.88057 -62.325058 27.65089 10065294
146.21266 -61.693947 12.027905 7301214
146.39948 -61.756729 13.063082 7827814
146.43863 -61.817268 13.985539 7564647
146.49751 -61.763977 14.848312 8814453
146.50706 -61.867111 15.872819 9866880
146.54942 -61.880394 16.902962 8091240
146.62691 -61.809227 18.02916 8419184
146.68907 -61.756561 18.968437 9340798
146.73544 -61.738464 19.83606 8682609
146.75865 -61.811111 20.918224 10129793
146.78093 -61.886681 22.00293 7826782
146.86684 -61.765793 22.919613 11181972
146.88408 -61.833 23.827852 9932164
146.97211 -61.729889 24.932083 8879734
146.97319 -61.8591 25.979004 11117723
147.02441 -61.830345 26.86832 11972776
147.08905 -61.779289 27.874138 10261902
147.15796 -61.736916 29.035202 8485493
147.14619 -61.659851 29.870216 9011579
147.10207 -61.476295 30.727886 7037532
145.97813 -60.535027 8.3940611 9735812
146.06065 -60.582649 8.9273996 9537409
146.31006 -60.54274 9.8969927 9734788
146.38226 -60.771568 10.891993 6972249
146.55655 -60.878883 11.968736 7564386
146.79137 -60.828522 12.953273 8156779
146.97487 -60.641281 13.828506 8222572
146.96288 -60.731384 14.852472 7169884
146.97867 -60.784813 15.925477 8288364
146.99292 -60.840874 17.000324 7170141
146.98007 -60.944649 17.971203 9143419
147.0654 -60.839676 18.80275 9933190
147.23547 -60.663353 19.905441 8879989
147.24432 -60.728752 20.989197 10721933
147.22333 -60.839989 21.967274 8616557
147.28001 -60.803131 22.849531 9603199
147.26224 -60.917068 23.890526 9471613
147.40778 -60.744301 25.007545 7498081
147.51263 -60.661552 25.860758 7037530
147.4791 -60.780884 26.848461 9801348
147.47836 -60.86306 27.949337 7827818
147.51448 -60.860023 28.839554 7038307
147.63469 -60.640739 29.823429 9143164
147.47807 -60.667686 30.900455 7366238
147.35265 -60.65271 31.939106 8616304
147.2903 -60.5504 32.900444 13682359
147.27565 -60.411819 33.828506 14012094
146.07436 -59.440308 3.8303764 10722450
146.18568 -59.499237 4.8879881 10525069
146.25111 -59.633553 5.9958391 10525069
146.29089 -59.788963 7.003747 9472383
146.39326 -59.905579 8.0227356 9406847
146.59212 -59.894402 8.8862858 7959400
146.77071 -59.931213 9.8086481 10787472
146.92033 -60.037582 10.845413 7432800
147.03328 -60.226967 12.009654 8617075
147.14133 -60.295929 12.730984 7564642
147.47302 -60.294579 19.216877 8089963
147.72075 -60.295822 24.696585 7563619
147.93867 -60.274925 29.146048 7038307
147.9341 -60.006058 31.183922 7037274
147.8996 -59.915771 31.982616 9142647
147.81339 -59.883598 32.833206 12629929
147.71512 -59.849838 33.931606 9340795
147.64792 -59.789604 34.914536 8683635
147.65099 -59.619713 35.867344 8287850
147.68651 -59.550056 36.823971 6446417
147.77963 -59.418465 37.788151 10853519
147.79694 -59.356903 38.85601 10855060
147.57266 -59.382294 39.937527 9603713
144.60744 -58.413399 -21.701412 10261899
144.82898 -58.670479 -21.023678 10261899
145.26395 -58.786865 -20.019009 10130313
145.56491 -58.961525 -19.081993 9472383
145.68126 -59.055931 -17.943113 7498849
145.76245 -59.055084 -17.243572 8288365
144.86243 -59.054588 -15.910165 6511954
144.95071 -59.053543 -15.040635 6511954
145.05 -59.052299 -13.996528 6117196
145.14174 -59.051056 -12.951737 7564387
145.22583 -59.049828 -11.906321 6643285
145.29034 -59.048798 -11.034664 9273979
145.3493 -59.047783 -10.162647 10721421
145.41338 -59.04657 -9.1157646 12300196
145.4698 -59.045364 -8.0684557 9603457
145.51869 -59.044167 -7.0207977 8682867
145.56 -59.042984 -5.9727831 9735043
145.59375 -59.041794 -4.9245167 8288109
145.62448 -59.044106 -4.0509472 8617075
145.71217 -59.071625 -3.1781375 9537918
145.82242 -59.109421 -2.1296594 9537918
145.92848 -59.14856 -1.0797837 8552049
146.03036 -59.189102 -0.028376818 12565162
146.12813 -59.231049 1.0244949 11644317
146.22174 -59.274361 2.0788925 7564651
146.2966 -59.311523 2.9587038 8814971
148.39638 -59.161446 39.017075 8287853
148.24648 -59.178185 39.740837 9933702
148.01843 -59.204514 40.82658 10590094
148.0425 -59.151833 41.909187 9208958
148.07941 -59.104141 42.768623 7564393
147.98878 -59.085007 43.902767 7697005
148.1761 -59.047623 44.931786 7170148
148.28853 -58.983292 45.943314 8222833
147.94734 -58.982498 47.009933 9143422
148.82222 -58.980385 48.083893 8091248
148.58516 -58.979858 48.797688 9012091
148.22336 -58.979073 49.866341 8814966
148.47301 -58.977623 50.950233 7301475
148.77873 -58.976303 51.858967 7893612
148.4592 -58.97567 52.750786 7300446
148.20009 -58.975174 53.462944 10261132
148.92407 -58.972771 54.9487 8485494
148.51791 -58.972031 56.019669 10392971
148.24312 -58.97155 56.732086 12431013
149.09177 -58.969376 57.887741 8880246
148.66441 -58.968666 58.959866 6511954
148.37546 -58.968193 59.673008 9406590
149.25613 -58.883003 60.975533 7958895
148.93228 -58.837479 61.912121 10525072
148.91945 -58.467308 62.835163 13550778
148.63739 -58.421837 63.701958 13353402
144.70897 -57.804314 -22.000608 12432553
145.17027 -57.763901 -21.072651 8682867
145.51262 -57.986893 -20.171631 9801348
149.33414 -58.115562 62.02507 9932424
149.18591 -57.669899 62.94878 11051671
148.85945 -57.692215 63.868843 11051416
148.66318 -57.706551 64.421127 15195094
144.66289 -56.71199 -23.013252 9406590
145.00595 -56.928177 -22.11647 10196365
145.46863 -56.88623 -21.186861 8486520
149.45242 -56.872322 63.062351 9341054
149.25746 -56.690514 63.828537 12499117
148.89705 -56.667816 64.896996 9340800
148.73367 -56.340088 65.733505 7762026
144.58936 -55.776543 -23.951527 10130313
144.97623 -55.786018 -23.13678 9275004
145.31934 -55.95105 -22.282841 8223089
145.56998 -56.276627 -21.487091 10788759
149.45805 -55.89711 64.128342 13157303
149.31454 -55.673531 64.79187 11446687
148.93256 -55.741272 65.822411 8551541
148.69093 -55.546516 66.573112 9012091
144.60692 -54.736816 -24.787193 9867401
144.95082 -54.896347 -23.936207 9406590
145.24515 -55.013756 -23.223957 9538176
149.48344 -54.986008 65.065849 12038311
149.2641 -54.791557 65.916611 10722708
148.964 -54.611328 66.768311 9670019
144.52887 -53.810425 -25.727221 13023917
144.91568 -53.764732 -24.9589 10129286
145.26245 -53.972061 -24.061935 7892583
149.52956 -53.94384 66.08886 10262155
149.28047 -53.746689 66.839661 10327433
148.84912 -53.654037 67.652061 12433061
144.44383 -52.598427 -26.935844 9735299
144.74258 -52.949722 -26.003788 12760745
145.20795 -52.89325 -25.080647 9931908
149.49571 -52.985939 67.023643 10392970
149.14113 -52.670105 67.858253 10656397
148.95969 -52.303307 68.426079 8813939
144.442 -51.662865 -27.886978 7039331
144.70596 -51.782127 -27.074127 8353905
145.10773 -51.911011 -26.113834 9735042
145.3044 -52.291374 -25.384701 10655886
149.50139 -51.764427 67.893517 9998214
149.01201 -51.655281 68.798653 9077366
144.18713 -50.573662 -29.852444 9209214
144.35847 -50.846222 -29.046106 7038305
144.63046 -50.900307 -28.190382 7696234
145.03571 -50.882385 -27.135338 10393485
145.26176 -51.11969 -26.45652 9209467
149.62029 -50.915581 68.296417 9998215
149.29703 -50.745171 68.964211 8222315
149.04483 -50.409996 69.629158 7235420
144.23683 -49.548386 -30.856167 9669249
144.44487 -49.854034 -29.905392 14077887
144.76358 -49.839989 -28.989353 8419699
144.99539 -49.97139 -28.164368 8485749
145.17978 -50.203751 -27.402704 11906725
149.66275 -49.764168 69.043755 9011832
149.21944 -49.673676 69.857719 8682608
148.88617 -49.45433 70.577309 8682608
144.19612 -48.827393 -31.783089 10261385
144.49615 -48.782303 -30.956516 8879478
144.83153 -48.774147 -29.984991 10261643
145.08446 -48.930275 -29.07058 7827820
149.5378 -48.808472 69.934975 9998470
149.20374 -48.589294 70.655846 9998731
143.9906 -47.566986 -33.796204 8814968
144.16617 -47.831047 -32.987221 8880504
144.42102 -47.980545 -32.074543 9208696
144.7762 -47.911522 -31.113464 8551023
145.0582 -47.925255 -30.273693 8813939
149.81168 -47.872612 70.137779 11380380
149.41992 -47.738312 70.895752 9472387
149.03073 -47.566582 71.67601 10985625
144.08704 -46.569458 -34.822659 8617588
144.2589 -46.802528 -33.962936 8814968
144.48146 -46.919266 -33.134754 11380123
144.78738 -46.948593 -32.201065 6774869
145.01674 -47.203148 -31.203979 12432037
149.65053 -46.91642 71.090561 7038307
149.43164 -46.595192 71.77829 7038307
149.11845 -46.434235 72.457924 5919050
143.89709 -45.450668 -37.987671 8682867
144.05405 -45.629257 -37.106827 8090987
144.26416 -45.812569 -36.056435 8617331
144.54984 -45.875458 -35.070663 8749175
144.75461 -46.054085 -34.047062 9472641
144.95164 -46.208099 -33.104404 10459019
149.78508 -45.896095 72.116913 8090479
149.44391 -45.776749 72.872429 8616306
149.23723 -45.502876 73.632103 8353134
143.67084 -44.553925 -42.568283 8681843
143.88809 -44.55851 -41.883095 9339772
144.15767 -44.564919 -41.025833 10260871
144.10915 -44.675369 -40.081139 9076599
144.07584 -44.896133 -39.011974 11378582
144.30984 -44.964912 -37.9104 8550256
144.58846 -44.981491 -37.0583 9932678
144.74687 -45.162941 -36.175629 8353391
149.7878 -45.146667 73.234146 9208187
149.52762 -44.988106 73.911499 9208187
149.62431 -44.62146 74.725159 9537664
149.42348 -44.476036 75.753349 10656657
142.95538 -43.899185 -60.738468 6972506
143.46133 -43.888443 -60.075363 8287597
143.66721 -44.102905 -59.018528 5920074
143.01027 -44.101151 -56.761257 10853004
143.34433 -44.099846 -55.901993 10853006
143.67352 -44.098549 -55.040802 9405822
143.93292 -44.097519 -54.350449 6511954
143.28996 -44.095604 -51.965981 7038298
143.6557 -44.094086 -50.932838 9076855
144.01396 -44.092567 -49.897018 10261132
144.24901 -44.091553 -49.205086 8089962
143.34615 -44.115349 -47.754791 7169629
143.57698 -44.116447 -47.068207 7959145
143.92053 -44.118912 -46.037163 7564387
143.98703 -44.206856 -44.996147 7828845
144.01385 -44.284256 -44.173149 9407873
144.18929 -44.342812 -43.095501 9341310
144.464 -44.348457 -42.235882 9734528
150.10535 -44.232887 76.103416 10656657
149.71107 -44.225967 76.81147 10327436
149.70447 -44.055176 77.876434 10458510
149.49966 -43.967278 78.764351 9931910
150.17978 -43.942963 80.989342 9933191
149.68492 -43.942513 81.889183 8879991
150.4236 -43.939194 84.195763 11379607
150.0125 -43.93885 84.916832 9735297
149.59859 -43.938507 85.636284 9735297
150.33676 -43.746643 87.904999 7236192
149.91289 -43.600174 88.726418 7301479
142.70633 -42.495316 -61.646332 8288627
143.1546 -42.951675 -61.025814 6644314
143.74132 -43.039207 -60.46217 8090474
150.56856 -42.865433 88.139404 7631203
150.21669 -42.70829 88.846581 7498340
149.93633 -42.376801 89.556732 7366239
142.98033 -41.754601 -61.764374 10524047
143.3517 -42.00325 -61.313393 7039331
150.58223 -41.675285 88.962692 7827821
150.09384 -41.603813 89.815536 7826790
142.8035 -40.560951 -62.503502 7039331
143.10742 -40.992622 -62.023155 8419956
150.38889 -40.805473 89.895058 7958635
150.05209 -40.541176 90.529694 9208443
142.92947 -39.79953 -62.76305 10459023
143.41035 -39.96183 -62.256931 10261387
150.62526 -39.92234 90.136429 8288371
150.22917 -39.641396 90.823021 9669506
142.60234 -38.590714 -63.643021 10260358
143.05202 -38.92643 -63.080082 9800321
143.6451 -39.115707 -62.461239 13485501
150.57768 -38.713676 90.932304 9866887
150.09518 -38.61805 91.54702 9209467
142.87001 -37.718666 -63.830746 11049617
143.36961 -38.040909 -63.23003 7563618
150.70593 -38.005676 91.175911 8090995
150.22054 -37.767715 91.872993 9143675
142.69044 -36.661972 -64.505562 7037274
143.11955 -36.93576 -63.991009 7366495
150.63385 -36.801224 91.928436 9472386
150.18919 -36.609085 92.552551 9800581
142.81334 -35.901031 -64.767517 7959400
143.3486 -36.041885 -64.223663 6907480
150.81349 -35.865196 92.238907 10262156
150.32565 -35.628708 92.937889 9866630
143.07507 -34.878517 -65.033875 11840932
143.52911 -35.208023 -64.470078 8486256
150.65921 -34.855888 92.978577 9274749
150.17285 -34.76368 93.595909 9668995
142.80237 -33.807198 -65.79847 8749433
143.19621 -34.082863 -65.314392 10591122
150.78639 -34.144844 93.225372 8682867
150.38072 -33.751808 93.915596 9669251
150.2157 -33.261604 94.379753 9734788
142.54936 -32.772812 -66.513618 7038307
143.09468 -32.878998 -65.985191 9933448
150.76192 -32.709236 94.050568 9340542
150.27338 -32.618622 94.669472 9274237
142.71074 -31.936394 -66.755836 8090993
143.24866 -31.939848 -66.282417 8814715
150.60651 -31.812946 94.728943 9274237
142.49509 -30.451225 -67.741776 9208958
142.90894 -30.872196 -67.099327 9867145
143.36247 -31.303501 -66.474548 7038307
150.73055 -30.983759 95.044823 9669251
150.93394 -30.283979 95.344101 10656142
140.68298 -29.523146 -106.04787 12827055
140.81392 -29.470945 -105.35593 15721430
142.36964 -29.689611 -68.521042 7038307
142.93518 -29.852736 -67.949768 7630186
143.3373 -30.156435 -67.299889 10591124
140.90007 -29.436352 -104.89539 9932681
141.06923 -29.367397 -103.97605 7696236
141.27618 -29.281738 -102.82977 7565675
141.43753 -29.213667 -101.91531 9736071
141.57967 -29.142855 -100.99191 11379868
141.64656 -29.057968 -100.02073 9734787
141.70215 -28.972046 -99.047455 8879479
141.75471 -28.88673 -98.078148 9932163
141.81978 -28.805113 -97.123184 8485235
141.89526 -28.726805 -96.180931 8024428
141.98526 -28.629711 -95.007866 9931394
142.07074 -28.533358 -93.839668 9734015
142.13556 -28.456919 -92.908875 9010544
142.83101 -28.877487 -70.008934 8946040
142.68863 -29.369364 -68.883919 7038307
143.08041 -29.398256 -68.439323 7038307
142.19739 -28.380991 -91.981361 8550249
142.25616 -28.305666 -91.057053 8089955
142.31207 -28.230799 -90.135941 8682867
142.37758 -28.138004 -88.989212 11643553
142.43887 -28.045914 -87.847176 12827311
142.4845 -27.972866 -86.937141 8486262
142.52736 -27.90033 -86.030281 9933193
142.56731 -27.828299 -85.126587 11379348
142.6132 -27.739002 -84.001434 9931902
142.65497 -27.6504 -82.880791 10063744
142.68515 -27.580141 -81.987846 11116433
142.7126 -27.51034 -81.097992 12432037
142.73735 -27.440992 -80.211159 10590605
142.60156 -27.731728 -70.929893 9603714
142.97552 -28.115046 -70.292786 10261131
142.75418 -27.389353 -79.54789 9932934
142.76936 -27.337961 -78.886536 7761765
142.78737 -27.269829 -78.007248 7038298
142.7468 -26.62933 -75.128502 8813936
142.38953 -26.497663 -74.074615 9735296
142.67789 -26.701674 -73.012688 10327432
142.60353 -27.081196 -72.029694 9274748
143.10056 -27.194363 -71.207436 9143163
147.24562 -59.347481 7.7631006 7893607
147.31361 -59.399879 8.8320198 7696229
147.3774 -59.453735 9.9025726 8551281
147.44243 -59.583115 11.03462 7893608
147.68408 -59.57309 11.810283 8813940
147.71631 -59.680008 12.783366 7367007
147.73479 -59.727333 13.858637 7630435
147.72978 -59.768356 14.933271 8814710
147.688 -59.848907 15.96034 8880503
147.75375 -59.800758 16.83432 8353903
147.7166 -59.89328 17.807037 8616819
147.75327 -59.907127 18.848558 9011577
148.05214 -59.704262 19.837978 9143417
148.06114 -59.707176 20.791359 11576986
148.00215 -59.797264 21.827213 9406332
147.98105 -59.854973 22.915852 8156780
147.94461 -59.960312 23.958504 8156011
148.28493 -59.672798 24.898396 6905944
148.26802 -59.733612 25.891777 9998727
148.20068 -59.834854 26.936939 6510930
148.2484 -59.803703 27.834816 6511954
148.22897 -59.875473 28.788307 7235420
148.46091 -59.671616 29.870045 6971737
148.43503 -59.591545 30.794907 8221547
148.36087 -59.52742 31.761055 8616304
148.31981 -59.43943 32.948334 8813939
148.18716 -59.451118 33.66724 7037274
148.37347 -59.296028 35.971153 7893349
145.91043 -58.562477 -18.859165 7696228
146.27492 -58.664429 -18.013577 6709333
146.51765 -58.854187 -17.032627 8682100
145.87735 -59.05381 -16.193552 7169373
145.98488 -59.052544 -15.142723 6511954
146.08484 -59.051285 -14.091139 6314576
146.17717 -59.050034 -13.038867 8879735
146.26193 -59.04879 -11.985908 8616307
146.3269 -59.04776 -11.108115 8089963
146.38628 -59.046745 -10.229795 12036514
146.45079 -59.045517 -9.175457 14406856
146.50761 -59.044304 -8.1206942 9077110
146.55687 -59.043098 -7.0654755 8485489
146.59856 -59.041901 -6.010006 8617075
146.63249 -59.04071 -4.9542055 8617075
146.65515 -59.039726 -4.0742226 9077625
146.67221 -59.038742 -3.1941454 9538176
146.68587 -59.037567 -2.1379015 10722450
146.69194 -59.036415 -1.0815699 8092011
146.69037 -59.035263 -0.025247812 13486007
146.71819 -59.048912 1.0315187 14604488
146.79718 -59.08493 1.9135711 8157043
147.20242 -59.085518 2.8757694 8551799
147.31569 -59.098793 3.8692615 9406590
147.34782 -59.125443 4.9326677 12695983
147.35678 -59.186775 5.9250498 9867139
147.53716 -59.189964 6.7851973 7104091
147.84415 -59.164299 7.7978277 8288365
147.91292 -59.216751 8.8709822 7893608
147.97749 -59.270607 9.9459362 9011831
148.0183 -59.307243 10.663424 8090987
148.98572 -59.239861 32.723812 7892838
148.78604 -59.257187 33.806583 7037274
148.73268 -59.22715 34.925251 8945012
149.04573 -59.094177 35.758316 8879474
148.83368 -59.115181 36.844776 7235420
148.79982 -59.100899 37.9786 10262410
148.98647 -59.030937 38.792278 7629667
148.86992 -58.989792 39.911453 9999239
148.62119 -59.008217 40.996277 15657179
149.47357 -58.986313 42.012024 14078405
149.26561 -58.985756 42.729031 7761772
148.94763 -58.984924 43.802792 7894384
148.73166 -58.984375 44.517433 7565162
149.51198 -58.981979 45.935364 8025452
149.22844 -58.981308 46.831795 7367007
148.99763 -58.980774 47.54763 7565161
149.7645 -58.978371 48.992348 11381404
149.46217 -58.977715 49.890182 10920853
149.15486 -58.977066 50.786217 8814966
149.96959 -58.974777 52.078842 14604230
149.71315 -58.974266 52.798077 7959662
149.32256 -58.973511 53.874825 8550513
149.92326 -58.970825 55.734402 8485494
149.51135 -58.9701 56.812592 9406594
150.13991 -58.817085 58.801556 10723222
149.77411 -58.786591 59.825119 9537922
149.5667 -58.623146 60.788708 7630187
145.79564 -57.662331 -19.853783 12103847
146.06303 -57.886909 -19.107731 9604225
146.50899 -57.963661 -18.113487 6380625
150.28204 -58.19606 59.192127 9868428
150.1347 -57.941536 59.900864 9735558
149.89955 -57.773956 60.76762 7301479
149.59755 -57.709259 61.713467 9077373
145.72592 -56.713303 -20.795506 7565675
146.01854 -56.78904 -20.121708 10788758
146.42259 -56.94561 -19.147888 10064519
146.61334 -57.348244 -18.412258 8288365
150.19421 -56.867996 60.920029 7827822
149.85629 -56.886635 61.877548 9932936
149.71579 -56.530403 62.679398 9736068
145.60158 -55.624725 -21.968096 9144449
145.88809 -55.910233 -21.131012 11380639
146.36154 -55.881012 -20.168406 8814711
146.5869 -56.138641 -19.482471 8682867
150.30432 -56.235741 61.302742 9537667
150.27065 -55.846367 61.832603 10262669
149.98305 -55.667778 62.863247 9736068
149.69972 -55.620728 63.735352 10591377
145.6701 -54.589142 -22.694065 9275520
145.84348 -54.818047 -22.140486 8947069
146.26225 -54.86319 -21.22934 8947070
146.51479 -55.190353 -20.428391 8946812
150.44475 -55.054092 62.207947 10591377
150.34227 -54.747185 62.845074 8090987
150.05428 -54.686966 63.745499 8683380
149.74803 -54.577454 64.753426 10262155
145.54424 -53.644058 -23.749424 8878965
145.79636 -53.914017 -22.997284 9537406
146.29219 -53.842857 -22.023119 8747632
146.46144 -54.120064 -21.437555 7827817
150.34781 -53.730774 63.957069 10459535
150.05823 -53.710846 64.817268 10262155
149.7679 -53.692398 65.678223 10064520
145.46532 -52.714951 -24.693565 9536894
145.76057 -52.779495 -24.023769 8418671
146.20403 -52.878532 -23.016012 11510168
146.45882 -53.198898 -22.215931 8616303
150.40016 -52.767433 64.874405 10262155
150.06021 -52.784081 65.839951 9867141
149.88391 -52.45134 66.679443 9340030
145.42422 -51.539963 -25.765259 10655886
145.62134 -51.920975 -25.03447 9800066
146.1476 -51.803703 -24.035439 8089962
146.42104 -52.012451 -23.290161 12168098
150.591 -51.917404 65.265167 10262155
150.45886 -51.731171 65.854546 9800581
150.11266 -51.750298 66.782211 8682100
149.81897 -51.538475 67.517281 9340030
145.38002 -50.37059 -26.838501 10985623
145.57855 -50.748131 -26.107704 9735811
145.98854 -50.880051 -25.142086 9471615
146.31834 -51.026711 -24.331467 7892584
150.59203 -51.135857 66.129868 7563619
150.40877 -50.865028 66.915337 8813686
150.04639 -50.678024 67.744965 9998216
149.81868 -50.31562 68.38784 9735555
145.47411 -49.771896 -27.144564 10985623
145.92715 -49.815704 -26.16312 10459279
