# .PCD v0.7 - Point Cloud Data file format
VERSION 0.7
FIELDS x y z rgb
SIZE 4 4 4 4
TYPE F F F U
COUNT 1 1 1 1
WIDTH 1189
HEIGHT 1
VIEWPOINT 0 0 0 1 0 0 0
POINTS 1189
DATA ascii
100.6311 -14.171802 -167.57603 9735812
102.37923 -13.785751 -168.19872 8287859
103.02338 -13.789818 -167.89667 5919050
103.88291 -13.795573 -167.49347 6642773
104.52821 -13.800138 -167.19064 7366752
103.21586 -13.157351 -168.06183 5919050
104.02003 -13.083088 -167.71669 5919050
104.88175 -13.088713 -167.3125 8090475
105.57511 -12.855138 -167.08318 10262156
104.15742 -12.369152 -167.94026 5919050
104.94617 -12.087345 -167.6857 7300960
105.93078 -12.141162 -167.20467 9407621
106.62662 -11.906529 -166.97444 7565675
104.98903 -11.418118 -167.93507 5919050
105.92108 -11.080944 -167.63586 10065294
106.95226 -10.88108 -167.2352 9999500
107.89128 -10.634855 -166.89613 10524814
106.89023 -9.8275242 -167.68816 13880514
107.82449 -9.8000965 -167.26331 11183001
108.81656 -9.636446 -166.86632 10196106
107.95097 -8.8674746 -167.57962 9538176
108.76697 -8.790514 -167.22992 9998727
109.64087 -8.7945433 -166.82051 9932676
110.34599 -8.5556974 -166.58771 9735038
109.01684 -7.9033141 -167.47037 9275260
109.83563 -7.8256078 -167.11966 10327433
110.7124 -7.829206 -166.70914 9998211
109.32424 -7.0947204 -167.6523 11182742
110.03098 -6.853548 -167.41968 11774622
110.90951 -6.8564177 -167.00865 10393227
111.73256 -6.7779541 -166.65625 9406590
110.39771 -6.1230836 -167.54257 11182742
111.10727 -5.880456 -167.30914 10261899
111.93884 -6.127387 -166.82178 9735555
31.191942 -36.889584 -174.03687 11576729
32.371502 -37.04068 -174.01666 7827559
33.332794 -37.179821 -173.97014 10261131
33.960953 -36.956474 -173.87193 10853012
28.232737 -35.941315 -174.29539 10260355
29.298208 -36.118473 -174.26227 9669762
30.224405 -35.958286 -174.34824 10195594
31.245344 -36.048206 -174.34573 9538175
32.198261 -36.144432 -174.33879 8551280
33.246468 -36.068195 -174.37891 9340285
34.22031 -36.105309 -174.10179 12827821
35.162312 -35.815987 -173.8349 9275777
25.290798 -34.796616 -174.62619 8749684
26.182947 -34.94978 -174.59673 9735812
27.207224 -35.066124 -174.58458 9603967
28.280739 -35.101093 -174.60368 9537660
29.141191 -35.129978 -174.61867 9538176
30.231842 -34.956635 -174.71428 10524303
31.312273 -34.994892 -174.73236 9143417
32.178444 -35.026386 -174.74649 8419951
33.260422 -35.063698 -174.74765 9669762
34.293629 -35.04995 -174.48705 12038820
35.299911 -35.011364 -174.09563 12038820
36.242432 -34.906101 -173.75616 9012862
36.921394 -34.741302 -173.54666 9012606
20.435024 -33.616692 -174.91309 15195086
21.286049 -33.637676 -174.93071 12629418
22.34199 -33.874321 -174.87556 8813684
23.231953 -34.023937 -174.84732 9012087
24.25321 -34.136238 -174.83661 8749940
25.33346 -33.957066 -174.93407 8881014
26.191038 -33.982422 -174.95029 10196363
27.264936 -34.015179 -174.97011 9735812
28.340883 -34.04911 -174.98967 8092019
29.203279 -34.07716 -175.00496 9275262
30.168863 -34.215157 -174.9832 9998214
31.352446 -34.361843 -174.96471 8814452
34.539455 -34.408031 -174.64006 10065291
35.15905 -34.173748 -174.4818 12038820
36.165276 -34.136936 -174.08972 9670534
37.169495 -34.101284 -173.69798 7894125
37.787174 -33.869476 -173.53957 8617075
-54.243149 -32.841862 -181.05814 11182486
-53.516136 -32.795341 -180.99925 9274747
-52.549767 -32.734035 -180.92082 6643541
-51.827118 -32.688667 -180.86203 5920074
17.493454 -32.713131 -175.15582 10263180
18.130035 -32.726471 -175.16991 11906471
19.27088 -32.91898 -175.13338 9078141
20.247602 -32.983288 -175.13887 11445402
21.312639 -33.008804 -175.16115 7958376
22.379354 -33.035408 -175.18304 12300709
23.234058 -33.057541 -175.20033 10985106
24.30419 -33.086281 -175.22156 10459019
25.376188 -33.116112 -175.24246 11052184
26.235342 -33.140816 -175.25891 12170409
27.197683 -33.274994 -175.23842 10722707
28.377005 -33.41684 -175.2216 8617849
35.405956 -33.531601 -174.63452 12038820
36.291489 -33.198425 -174.4077 9801607
37.249119 -33.044731 -174.08116 9604485
38.207256 -32.96014 -173.72728 9998729
39.072052 -32.774143 -173.451 9932934
-55.233959 -31.956224 -181.19235 13682362
-54.547657 -32.17485 -181.27751 13024433
-53.593197 -32.123653 -181.254 9866884
-52.625275 -32.063515 -181.17502 6249039
-51.597977 -32.135193 -181.0414 6775127
-50.579899 -32.098969 -180.94839 7564642
-49.694931 -32.333435 -180.76987 7564642
-48.60363 -32.223331 -180.6963 8288366
-47.455444 -32.244614 -180.56856 9801606
-46.372673 -32.136841 -180.49509 8090992
-45.430588 -32.082634 -180.41658 9144702
-44.491608 -32.029263 -180.33806 9537922
-43.555622 -31.976799 -180.25957 9208443
-42.622601 -31.925158 -180.18111 8682099
-41.672882 -32.093739 -180.01997 11906468
-40.514931 -32.031055 -179.92206 9405822
-39.361176 -31.969584 -179.82411 8353135
-38.441269 -31.921383 -179.74574 10787984
-37.524113 -31.874043 -179.66736 7038307
-36.609531 -31.827454 -179.58893 8814713
-35.697556 -31.781717 -179.51048 9340541
-34.561249 -31.725697 -179.41237 8089963
-33.428555 -31.670862 -179.31419 9340540
14.553198 -31.820059 -175.39484 9933702
15.188523 -31.831202 -175.40958 8682867
16.327961 -32.019768 -175.37451 9473151
17.302689 -32.080624 -175.38121 10920343
18.152445 -32.097969 -175.40005 12432558
19.216084 -32.120613 -175.42334 8618106
20.281244 -32.144321 -175.44627 9077112
21.348175 -32.169151 -175.46886 9208442
22.416782 -32.195084 -175.49103 13089967
23.273008 -32.216644 -175.50853 13550517
24.232641 -32.347122 -175.48936 11511449
25.193384 -32.47855 -175.46991 12038823
37.390762 -32.054539 -174.41319 9933193
38.134167 -31.959976 -174.14999 9472643
39.18895 -32.017254 -173.70131 9801350
40.08065 -31.829399 -173.41487 10525071
-56.224075 -31.066265 -181.31165 10985361
-55.535862 -31.284985 -181.39693 10524044
-54.524651 -31.229765 -181.66637 11181973
-53.466923 -31.219645 -181.62012 8551281
-52.395744 -31.200102 -181.51447 6314832
-51.296925 -31.09297 -181.46109 8945782
-50.33812 -31.038258 -181.39136 9340283
-49.352032 -31.202784 -181.21201 8814196
-48.401241 -31.149981 -181.14558 8156527
-47.485203 -31.185144 -181.02377 7893613
-46.469749 -31.257622 -180.86369 7828077
-45.528065 -31.206331 -180.79381 9407873
-44.589272 -31.155945 -180.72374 8092016
-43.65332 -31.106314 -180.65356 10130569
-42.58831 -31.008884 -180.60464 8682099
-41.530735 -31.21192 -180.3806 10853524
-40.467087 -31.220444 -180.27658 11774626
-39.453339 -31.108355 -180.23386 8682099
-38.501816 -31.271324 -180.02098 9998213
-37.584965 -31.226244 -179.95032 8354163
-36.670471 -31.181963 -179.87958 8354163
-35.627792 -31.09053 -179.82605 8089963
-34.525852 -31.122374 -179.68434 8813686
-33.489334 -31.032907 -179.63039 9274237
-32.565636 -31.204126 -179.45186 9340798
-31.665163 -31.164068 -179.38226 11446170
-30.604158 -31.065384 -179.33003 7894382
-29.510241 -30.929707 -179.28474 7039331
-28.525845 -31.024982 -179.1076 7302503
-27.635637 -30.989092 -179.04193 9735302
-26.747606 -30.953901 -178.97594 9932676
-25.640348 -30.910938 -178.89296 8618105
-24.535627 -30.868961 -178.80949 10262415
-23.654024 -30.836231 -178.74229 7828078
-22.554506 -30.796223 -178.65779 9670023
-21.457739 -30.757257 -178.5728 10787988
-20.581938 -30.72683 -178.50439 10855060
-19.707975 -30.697157 -178.43568 10855060
-18.617683 -30.660946 -178.34918 9801863
10.771902 -30.938747 -175.68588 7564643
11.405805 -30.946642 -175.69798 8353902
12.251627 -30.957815 -175.7139 8551537
13.388422 -31.137184 -175.64915 8814965
14.371576 -30.993717 -175.78336 8683895
15.220168 -31.007408 -175.79956 9012349
16.282104 -31.02552 -175.81927 9867399
17.345213 -31.04455 -175.83842 9341572
18.183832 -31.2612 -175.72183 12432559
19.248968 -31.282536 -175.74118 7894381
20.315592 -31.304859 -175.76012 9472126
21.272482 -31.431091 -175.73779 10984850
22.230648 -31.558722 -175.71791 11511449
38.183174 -31.324116 -174.38014 9472387
39.214828 -31.088125 -174.10243 8552056
40.220757 -31.059168 -173.71306 10656916
41.139183 -30.932701 -173.42578 14603981
42.057327 -30.807611 -173.1411 10853780
-59.426025 -29.822754 -181.56564 14078923
-58.424366 -29.95249 -181.69499 12894131
-57.515598 -30.14155 -181.75858 8092011
-56.470261 -30.38369 -181.7879 9275515
-55.449516 -30.63728 -181.88542 8616306
-47.294846 -30.662239 -181.35503 7038307
-46.586735 -30.62516 -181.30911 8617847
-45.644775 -30.576405 -181.24771 10263180
-44.471764 -30.516563 -181.1705 8092016
-43.302567 -30.457912 -181.0929 9998470
-42.60305 -30.423244 -181.04611 11379865
-38.597366 -30.64707 -180.45554 9011064
-37.679691 -30.604145 -180.39221 6510930
-36.536346 -30.551575 -180.31258 8288114
-35.396404 -30.500074 -180.23251 8089963
-34.487133 -30.459658 -180.16815 8616307
-33.579941 -30.419998 -180.10342 8090736
-32.675236 -30.381088 -180.03841 8090736
-31.547491 -30.333433 -179.95663 8682872
-30.422781 -30.286798 -179.87447 7039331
-29.433077 -30.382748 -179.69745 7039331
-28.604229 -30.417557 -179.58409 8486006
-27.583033 -30.336472 -179.53905 9012093
-26.505159 -30.376226 -179.39583 9603715
-25.488974 -30.296957 -179.34991 10525072
-24.603083 -30.264019 -179.28229 8223347
-23.590853 -30.186657 -179.23532 7959920
-22.524239 -30.229721 -179.09074 10590867
-21.516668 -30.154154 -179.04294 10393486
-20.638674 -30.124222 -178.97382 10656913
-19.543421 -30.087822 -178.8869 10328460
-18.450689 -30.052456 -178.80025 10261132
-17.563139 -30.226952 -178.58493 9340801
-16.606371 -30.143938 -178.57626 8880507
-15.591743 -30.365337 -178.25969 7695460
-14.509177 -30.333162 -178.17085 9405823
-13.644633 -30.308224 -178.09941 9603203
-12.654316 -30.240507 -178.04768 10063753
-11.61597 -30.292 -177.89911 8024943
-10.628927 -30.225927 -177.84647 9011322
-9.6431293 -30.160881 -177.79317 9406338
-8.6108303 -30.214863 -177.6433 9407102
-7.6280527 -30.151495 -177.589 9867395
-6.6461916 -30.089054 -177.53409 10065031
-5.6194715 -30.145561 -177.3829 12105643
-4.6402807 -30.084749 -177.327 14671314
-3.6619301 -30.024939 -177.27051 9933191
-2.6402388 -30.083912 -177.1179 9012092
-1.6642684 -30.025713 -177.06032 8551543
-0.60403907 -30.008183 -176.97414 7498857
0.45515835 -29.992065 -176.89034 8288115
1.3016673 -29.979801 -176.82234 7828333
2.3589516 -29.965242 -176.73596 8091762
3.4153786 -29.951481 -176.64832 8617592
4.2598524 -29.94104 -176.57719 9997960
5.3147421 -29.928846 -176.48715 10063753
6.3709111 -29.927317 -176.45456 9603714
7.2169003 -29.931772 -176.4576 10261133
8.2675028 -30.131718 -176.28755 8353909
9.3253517 -30.14056 -176.29854 8090989
10.384228 -30.151182 -176.31291 8551538
11.433348 -30.356501 -176.15298 8551281
12.281365 -30.367424 -176.16908 8551537
13.342327 -30.382021 -176.18852 8354415
14.416182 -30.200153 -176.35953 8092019
40.316875 -30.456728 -174.13545 8092011
41.158012 -30.235748 -173.9774 11906468
42.16481 -30.210108 -173.59093 10130057
43.207413 -29.924595 -173.53505 9472127
44.084259 -29.791739 -173.33876 9669506
45.172634 -29.599176 -173.2756 10261383
46.185699 -29.582607 -172.91663 9340795
-75.411575 -29.420538 -183.04578 9735043
-74.534218 -29.419876 -183.40906 9405822
-68.263618 -29.410246 -182.27165 10261132
-67.389931 -29.409546 -182.6002 10261132
-66.514893 -29.408836 -182.92523 10261132
-62.17067 -29.510715 -181.79237 10985620
-61.510666 -29.506926 -181.99756 9801347
-60.630455 -29.502344 -182.27 8682608
46.629837 -29.280182 -173.7522 9340795
47.240093 -29.270752 -173.53409 8156778
48.25494 -29.255571 -173.16974 14013122
49.276093 -29.245333 -172.82884 14868946
50.102867 -29.24395 -172.59212 14605262
59.436584 -29.231907 -172.64407 8682867
60.05592 -29.230822 -172.43013 9472383
61.227943 -29.072786 -172.20633 9735555
62.176929 -29.026136 -171.87352 9736323
62.934853 -28.950243 -171.6118 9011832
63.634712 -28.803131 -171.40359 8682099
62.193615 -28.217171 -172.31117 9736836
63.117779 -28.159082 -171.90346 9736836
64.041245 -28.101866 -171.49577 11314331
62.599079 -27.514088 -172.40453 9736836
63.282436 -27.154995 -172.2301 12170664
64.130936 -27.11783 -171.8493 11774879
65.068138 -26.9184 -171.49226 9142906
65.907272 -26.596354 -171.23032 9011320
64.248291 -26.035618 -172.22935 9472125
65.191788 -25.950445 -171.82352 9011576
66.192009 -25.93816 -171.36191 9538177
66.820396 -25.712576 -171.15948 9735812
65.160835 -25.148878 -172.15999 8682867
66.105331 -25.064556 -171.75333 9603970
67.106499 -25.053358 -171.29094 9406847
67.735878 -24.827896 -171.08797 9735812
66.204681 -24.296501 -172.01562 9998984
67.04995 -23.958038 -171.75735 9340798
68.023514 -24.16757 -171.21915 9736324
68.653893 -23.942308 -171.01562 9736836
67.466866 -23.074934 -171.91829 9012089
68.169815 -23.068043 -171.59306 11380890
68.972694 -23.060715 -171.22139 12367528
69.748253 -22.760944 -170.98019 11052182
68.374077 -22.038717 -171.91264 13025201
69.121399 -21.958637 -171.59625 15195343
70.12645 -21.950466 -171.13048 12958895
70.96064 -21.723776 -170.83253 9867657
69.297943 -21.147793 -171.84076 14274497
70.046211 -21.068121 -171.52368 13089967
71.052467 -21.060835 -171.05707 9933192
71.888039 -20.834274 -170.75842 8420464
70.224403 -20.25556 -171.7682 13550517
71.05101 -20.101927 -171.44432 10459536
72.06794 -20.124987 -170.96049 9143678
72.818291 -19.943371 -170.68361 8813945
71.298332 -19.28702 -171.65753 8947070
72.136818 -19.059595 -171.35791 8749685
73.146034 -19.053865 -170.88927 7630697
73.928391 -18.753748 -170.64519 8288114
72.261665 -18.169172 -171.65871 8092011
73.102036 -17.941685 -171.35825 8486769
74.113037 -17.936657 -170.88844 9143677
74.86499 -17.859064 -170.56883 9143419
73.399483 -17.270926 -171.48987 9999496
74.126266 -16.999329 -171.26021 9998984
75.051308 -17.040014 -170.81209 8748405
75.80452 -16.962675 -170.49185 8748405
74.337936 -16.372158 -171.41435 9867399
75.193748 -16.147163 -171.1405 8090479
76.005142 -16.144163 -170.76341 8353647
76.764015 -16.067911 -170.45203 10787732
76.184738 -15.487243 -171.17047 8682867
77.065422 -15.266099 -170.94292 10787732
77.979027 -15.135703 -170.67542 9800836
78.876427 -14.832581 -170.58517 8419440
80.011864 -14.619778 -170.35922 8747892
81.952148 -14.240219 -170.76093 8681843
82.97821 -14.239256 -170.27982 10063497
83.798805 -14.238786 -169.89417 11905701
97.202164 -14.178893 -169.58977 9208443
98.012497 -14.177228 -169.12201 8551540
98.820877 -14.175561 -168.65092 8486512
100.02142 -13.772211 -169.30396 9210235
100.8782 -13.776823 -168.9025 7038307
101.73562 -13.781781 -168.50058 7630187
100.32346 -13.299533 -169.35364 9537667
101.01101 -13.065619 -169.12723 8616567
101.86967 -13.070228 -168.72484 9866375
102.6726 -12.995575 -168.38046 7498597
101.35899 -12.354056 -169.25183 10853012
102.04884 -12.119163 -169.02457 10853012
102.90994 -12.123592 -168.62111 6775126
103.71523 -12.048417 -168.27563 5919306
102.39883 -11.405072 -169.14876 11379348
103.091 -11.169148 -168.92073 6775126
103.95457 -11.173324 -168.51616 5920074
104.76239 -11.097619 -168.16975 6445909
105.60755 -10.462543 -168.03107 10065294
103.44321 -10.45248 -169.04489 5920074
104.20872 -10.071619 -168.84097 6709336
105.0503 -9.9791603 -168.48549 7762541
105.96456 -9.7429132 -168.15407 11315104
106.66318 -9.5053301 -167.92381 15196118
105.23582 -9.0173655 -168.78607 9012091
106.03082 -8.7308073 -168.53049 9736328
107.02252 -8.7829752 -168.04678 9538176
107.72385 -8.5442123 -167.81572 8682867
106.075 -8.0543203 -168.7821 9012091
106.89733 -7.8633904 -168.47531 9406334
107.96406 -7.7701015 -168.01515 9538176
108.7895 -7.5789862 -167.70694 9538176
107.18392 -6.845191 -168.75134 9735043
107.83993 -6.8470111 -168.44456 8880246
108.85668 -6.8012486 -167.98857 10656399
108.08874 -5.954783 -168.68755 9012088
108.90892 -5.8752084 -168.33688 9209467
109.78737 -5.8772297 -167.92624 13616569
110.49622 -5.634553 -167.69325 11182742
109.16019 -4.9793854 -168.58018 10524813
109.93415 -5.1439862 -168.15285 13156018
110.59467 -5.1452241 -167.84424 9932422
30.512691 -33.909565 -175.10497 9735298
31.379271 -33.939365 -175.11984 8090987
32.233662 -34.18137 -175.05673 8090987
33.331837 -34.005939 -175.1355 8617333
34.266171 -33.996193 -174.91237 8815483
27.538149 -32.96846 -175.36046 9407106
28.481169 -32.856365 -175.4294 9143936
29.265493 -33.021996 -175.39218 8420727
30.34815 -33.057018 -175.41147 8880504
31.433041 -33.093208 -175.43042 8551281
32.302803 -33.123028 -175.44534 10590092
33.314529 -32.986736 -175.51404 9800835
34.368248 -33.005753 -175.2605 8354675
35.200119 -33.031918 -174.91412 10459791
36.072189 -32.662884 -174.70682 10393486
23.302256 -31.585058 -175.74013 12498087
24.453432 -31.783413 -175.70177 10919571
25.476984 -31.979692 -175.66045 12762546
26.290779 -32.086758 -175.64549 14539213
27.369053 -32.117756 -175.66615 10722709
28.411009 -32.0639 -175.71671 9143936
29.327839 -31.964693 -175.78015 8617849
30.323408 -32.038269 -175.78279 9274491
31.37244 -31.986986 -175.83261 10326150
32.294773 -32.130878 -175.80739 11510423
33.231216 -32.304718 -175.77173 9406335
34.375229 -32.130089 -175.60191 9012090
35.309864 -32.054516 -175.25398 8880247
36.320404 -32.019745 -174.85933 10261901
37.143356 -31.780626 -174.6208 9933193
18.222826 -30.659143 -176.11644 12958902
19.289965 -30.679346 -176.13194 9012090
20.358456 -30.70046 -176.14682 11116692
21.410595 -30.920416 -176.00914 10590349
22.407381 -31.012943 -175.99925 10655884
23.340425 -30.964251 -176.03961 9998469
24.325251 -31.02833 -176.02768 8156524
25.366102 -30.973911 -176.0988 9669251
26.3542 -31.039728 -176.08603 13025974
27.344145 -31.107157 -176.07576 11907239
28.300055 -31.092915 -176.11478 9275779
29.36529 -31.329147 -176.01337 8683384
30.23432 -31.355646 -176.02943 8879991
30.887094 -31.376009 -176.04138 10851980
34.747139 -31.437984 -175.7238 9143419
35.435791 -31.275265 -175.52557 9537920
36.387936 -31.174728 -175.19365 10919061
37.399467 -31.14279 -174.80373 10590609
38.231075 -30.911995 -174.60384 9932681
-57.016468 -29.813589 -182.30006 9538686
-56.358932 -29.8118 -182.49846 10458762
-55.405174 -30.00938 -182.51367 8089963
-54.451138 -30.205549 -182.51884 9471356
-53.412788 -30.35425 -182.23103 7564642
-52.446678 -30.300941 -182.17053 6577747
-51.483822 -30.248436 -182.1098 8813939
-50.524178 -30.196712 -182.04878 10260871
-49.567638 -30.145767 -181.98747 7959401
-48.485054 -30.049086 -181.96742 7958888
-47.442223 -30.043955 -181.90921 7037530
-46.396793 -30.035452 -181.8259 8946553
-45.33448 -29.947935 -181.84352 9671045
-44.402344 -29.907015 -181.817 9012347
-43.382256 -30.041843 -181.41901 11379865
-42.344719 -30.130999 -181.24229 10459020
-41.47884 -30.158945 -181.13019 7432288
-40.551121 -30.114582 -181.06685 9735043
-39.499451 -30.026737 -181.04782 9340029
-38.485764 -30.027319 -180.98294 8024170
-37.47023 -30.024744 -180.89418 6510930
-36.432831 -29.944296 -180.90262 6840664
-35.524315 -29.909 -180.86913 7827303
-34.496078 -29.834896 -180.90315 8484979
-33.613998 -29.894524 -180.67311 8748665
-32.508636 -29.96242 -180.34068 9866631
-31.379278 -29.915495 -180.25827 9143678
-30.478125 -29.878687 -180.19202 9341313
-29.584539 -29.847782 -180.15656 8486262
-28.474619 -29.814888 -180.14124 8946300
-27.366526 -29.782709 -180.12381 8617592
-26.48144 -29.757542 -180.1082 9537920
-25.597525 -29.732872 -180.09123 10458505
-24.49468 -29.702694 -180.06796 8354419
-23.393686 -29.673248 -180.04271 8617337
-22.513477 -29.650229 -180.02081 9406852
-15.429453 -29.780338 -178.84077 7103835
-14.563786 -29.761467 -178.80724 9011320
-13.699082 -29.743 -178.77237 10853012
-12.619653 -29.720692 -178.72681 10392718
-11.541404 -29.698977 -178.67926 9537666
-10.679699 -29.682209 -178.63959 10985367
-9.6038475 -29.661861 -178.58801 9998216
-8.5291233 -29.642179 -178.53441 8354671
-7.6704063 -29.627007 -178.48999 10261896
11.464939 -29.774942 -176.67337 7959401
12.314206 -29.782589 -176.67134 8683124
13.376458 -29.792786 -176.66673 8090987
14.439736 -29.80452 -176.66505 8092019
15.279913 -30.015278 -176.52678 9604487
16.346054 -30.032324 -176.54446 9472384
17.413322 -30.050304 -176.56143 8748401
18.268274 -30.065411 -176.57452 11314591
19.338209 -30.08522 -176.59021 9012090
20.409597 -30.105923 -176.60524 10656398
21.267736 -30.123173 -176.61678 11905951
22.225065 -30.242821 -176.55235 9537147
23.398279 -30.368069 -176.48993 7564643
24.25943 -30.387766 -176.49991 7827303
24.906187 -30.402885 -176.50714 8089963
37.400517 -30.439476 -175.33034 10524303
38.329006 -30.312817 -175.05904 9209472
39.359409 -30.201603 -174.75587 8486263
40.326942 -29.835861 -174.75992 8354926
41.30896 -29.668377 -174.62408 8092011
42.328194 -29.649176 -174.27155 10524815
-73.875038 -29.419376 -183.67896 9405822
-73.214851 -29.418873 -183.94614 9931646
-72.333199 -29.41819 -184.29886 9208435
-66.076752 -29.40848 -183.08597 12432037
-65.418732 -29.407938 -183.32509 8814454
-64.540146 -29.407213 -183.64027 9538177
-59.970093 -29.499252 -182.47365 8682608
-59.309551 -29.496361 -182.67616 13023917
-58.428841 -29.492872 -182.9451 9933702
-57.767746 -29.490576 -183.14595 8486000
-33.109791 -29.648487 -181.17018 9143166
-32.436031 -29.627304 -181.16411 9143166
-31.763128 -29.606424 -181.15724 9341057
-21.635176 -29.62771 -179.9976 8880763
-20.538839 -29.600231 -179.96655 9933191
-19.443853 -29.573431 -179.93347 8618104
-18.569008 -29.552507 -179.9054 9143679
-17.476961 -29.527061 -179.86804 9603716
-16.386347 -29.502228 -179.82845 7761509
-15.515034 -29.482903 -179.79521 6511954
-14.64478 -29.464027 -179.76071 7761509
-6.5979395 -29.608625 -178.43248 9999495
-5.5265188 -29.590971 -178.37292 10986905
-4.6702538 -29.577297 -178.3237 10986905
-3.600913 -29.560942 -178.26018 10787478
-2.5323563 -29.545256 -178.1946 9538435
-1.6783322 -29.533176 -178.14064 8288371
-0.61169803 -29.518784 -178.07117 8485494
0.45413792 -29.505024 -177.99969 9209215
1.3058244 -29.494543 -177.94099 9405819
2.3701115 -29.482141 -177.86552 9208699
3.4335117 -29.470329 -177.78818 8880507
4.2837448 -29.461393 -177.72458 10261132
5.345717 -29.45089 -177.64325 9340286
6.4088974 -29.449436 -177.61111 8813939
7.4733362 -29.454557 -177.61185 10918030
8.5379534 -29.460024 -177.60887 8683127
9.3904028 -29.465664 -177.60959 8814710
10.456391 -29.473648 -177.61003 8222572
11.522964 -29.482298 -177.60838 8090987
43.367298 -29.334856 -174.90344 9603713
44.388512 -29.31698 -174.54565 9471871
45.204475 -29.303194 -174.258 11182745
46.01931 -29.289854 -173.96936 10854036
55.495846 -29.238729 -173.9463 10063747
56.327888 -29.237301 -173.6796 9208699
57.15871 -29.235867 -173.40897 8682867
58.255905 -29.149151 -173.24625 10261131
59.185486 -28.967119 -173.26375 9735555
60.240574 -28.859785 -172.96385 8946039
60.840614 -28.848944 -172.68835 9735555
59.391064 -28.266279 -173.59856 10458766
60.344036 -27.987301 -173.26617 9603969
61.145226 -27.973326 -172.89813 9604738
61.772057 -27.745146 -172.69745 9736836
60.648338 -27.109926 -173.47672 9209467
61.276474 -26.880976 -173.27577 9341310
62.194351 -27.011694 -172.79521 9736836
62.906929 -26.637163 -172.61328 9736836
61.55632 -26.221062 -173.41043 9011320
62.185177 -25.992481 -173.20895 9538945
63.188438 -25.977606 -172.74696 10196617
64.017838 -25.747311 -172.45267 8682867
62.466339 -25.331594 -173.34335 9736836
63.211166 -25.14555 -173.07069 9669247
64.185944 -25.044643 -172.65659 8682867
64.930595 -24.859737 -172.38356 9932419
63.378586 -24.441521 -173.27542 9932419
64.281418 -24.04528 -173.01376 9274747
65.243149 -23.978418 -172.59203 9538689
66.017532 -23.676649 -172.35214 9933191
65.257355 -22.922974 -173.01062 9143931
66.188873 -22.868385 -172.59792 9998984
66.93605 -22.787035 -172.28203 8420720
65.669937 -22.213123 -173.10425 9341310
66.303116 -21.985559 -172.90056 9341310
67.109001 -21.977276 -172.52783 7761510
67.857018 -21.896479 -172.21133 9670018
66.590782 -21.320036 -173.0347 9341310
67.224892 -21.092596 -172.83044 8287340
68.233147 -21.083241 -172.36369 10524812
69.069046 -20.854948 -172.06563 13682874
67.513969 -20.425846 -172.96437 7563619
68.207253 -20.064913 -172.78636 9866625
69.1884 -19.967991 -172.36758 10261643
70.170723 -19.664806 -172.03137 9867657
69.193199 -18.931761 -172.78317 7038307
70.147079 -18.850502 -172.37073 7828334
71.100777 -18.769804 -171.95824 9012861
70.253334 -18.070461 -172.63568 10260359
71.165649 -17.908342 -172.27528 9933445
72.033539 -17.873297 -171.8844 8092011
71.276718 -17.104015 -172.54776 10985367
72.215446 -17.053749 -172.12999 8749941
72.969086 -16.975149 -171.80991 8947320
71.700386 -16.385588 -172.63974 10787732
72.351929 -16.160309 -172.45969 9802373
73.164307 -16.156109 -172.08286 9604483
73.923325 -16.078697 -171.77177 9538435
74.629623 -15.927928 -171.52646 8090995
73.3368 -15.498822 -172.492 10262156
74.215706 -15.276484 -172.26601 8814715
75.139175 -15.316326 -171.80127 8090995
76.120705 -14.882236 -171.80353 9274237
77.152519 -14.626231 -171.687 10064521
77.970154 -14.624006 -171.30856 9735299
79.282089 -14.24462 -172.0062 7564643
80.104012 -14.243018 -171.62379 9208700
81.130981 -14.24129 -171.1449 8682355
95.370201 -14.182634 -170.62712 11774883
96.18576 -14.180973 -170.1685 11182489
97.019081 -13.969402 -170.21384 11182489
98.096596 -13.762777 -170.20561 10787730
99.165543 -13.767847 -169.70499 11379609
98.068596 -13.130964 -170.47336 8617081
99.081818 -13.056269 -170.03084 12695209
100.09632 -12.981838 -169.58763 11446172
99.098282 -12.185299 -170.37424 11379609
100.01963 -12.157399 -169.95578 12038051
100.9958 -11.994989 -169.5658 11050646
100.13217 -11.236259 -170.2742 11709087
101.05605 -11.208041 -169.85451 8683642
102.03519 -11.044883 -169.46336 10787215
101.17046 -10.283678 -170.17314 9932937
102.02132 -9.9669876 -169.90361 10195336
102.88564 -9.9702015 -169.49908 9208694
103.73963 -9.6533709 -169.2282 9077368
102.4175 -9.0076046 -170.10489 8287853
103.11253 -8.7689266 -169.87665 10590091
103.97977 -8.7716951 -169.47095 9275261
104.791 -8.6940689 -169.12372 8288371
103.4661 -8.0465078 -170.00241 9735812
104.16359 -7.8066521 -169.77354 9538433
105.03343 -7.8090901 -169.36674 8419957
105.84724 -7.7308259 -169.01855 9011578
104.51954 -7.0814052 -169.89934 9012091
105.09803 -6.7915936 -169.74609 9340799
106.09196 -6.8424282 -169.26192 10129289
106.74691 -6.8440766 -168.95566 8089963
105.14121 -6.1114306 -169.9996 9010808
106.06175 -5.869617 -169.6675 8353135
107.15543 -5.8716102 -169.15645 9471359
107.86037 -5.6290913 -168.92509 8682867
106.20303 -5.1384168 -169.89587 8089963
107.02962 -4.9438596 -169.58852 9142651
108.10189 -4.8473825 -169.12706 8748660
108.93166 -4.6526608 -168.81827 9209467
107.26992 -4.1608953 -169.79153 8682867
107.92904 -4.1614366 -169.48376 9274747
108.58865 -4.1618757 -169.17578 8682867
32.604195 -31.85742 -175.91644 11378324
33.259781 -31.879585 -175.92783 10063750
33.905811 -31.892389 -175.88501 8814712
28.752043 -30.89994 -176.23798 8092019
29.402552 -30.917902 -176.24315 8157297
30.271147 -30.942387 -176.24966 8288368
31.48843 -30.98241 -176.28719 9997442
32.455524 -31.01272 -176.3015 9997439
33.33004 -31.040129 -176.30997 10326407
34.338539 -30.988173 -176.15495 9669249
35.3661 -30.733864 -175.91077 9143419
36.267792 -30.573154 -175.67851 11379356
-53.884602 -29.773865 -183.01385 7367263
-53.174374 -29.744364 -183.02985 7827814
-52.228867 -29.705513 -183.0498 6511954
-43.562981 -29.69165 -182.16026 8682867
20.72587 -29.585518 -177.50446 10261641
21.370405 -29.594864 -177.49197 8616561
22.497709 -29.747154 -177.19632 8747632
23.479639 -29.798967 -177.12099 7892581
24.341837 -29.815615 -177.11528 8089963
25.454165 -29.982502 -176.95868 8550770
26.473675 -30.052958 -176.90565 11841188
27.282907 -30.147585 -176.81685 11710630
28.391027 -30.290112 -176.69484 9144706
29.477676 -30.319162 -176.70415 7302246
30.34857 -30.343216 -176.71111 8288368
31.343561 -30.270859 -176.79543 8682611
32.559868 -30.205643 -176.8808 9931646
34.69804 -30.222904 -176.60327 9143419
35.54496 -29.996225 -176.44759 8880247
36.361183 -29.971813 -176.14023 10261387
37.30925 -29.907995 -175.83876 9603201
38.445957 -29.725979 -175.60194 9012350
39.060467 -29.713156 -175.39363 9012350
-71.228577 -29.41733 -184.73354 9208435
-70.121605 -29.416454 -185.16209 9997955
-63.880188 -29.406664 -183.87399 10985620
-63.219345 -29.406111 -184.10518 8682867
-62.337017 -29.405363 -184.40979 8682867
-57.106812 -29.488533 -183.34592 10459531
-56.225159 -29.486238 -183.61142 9734529
-55.343285 -29.484341 -183.87549 8089963
-54.668938 -29.476517 -184.03044 8089963
-51.285419 -29.667162 -183.06839 9405823
-50.34391 -29.629419 -183.08551 8419695
-49.404457 -29.592115 -183.10109 7037786
-48.467052 -29.555468 -183.11525 7234909
-47.29789 -29.510336 -183.13083 7695716
-46.131405 -29.465979 -183.14426 9932932
-45.20026 -29.431131 -183.15337 8682867
-44.271263 -29.396784 -183.16098 8682867
-42.411728 -29.649601 -182.16817 16774119
-41.262882 -29.608286 -182.17404 9537150
-40.346039 -29.575848 -182.17711 8089963
-39.430817 -29.543915 -182.1786 7563618
-38.51696 -29.51248 -182.17879 9011064
-37.377426 -29.473915 -182.17697 7300702
-36.239914 -29.436115 -182.17308 7300958
-35.33168 -29.406433 -182.16832 7761253
-34.425064 -29.377247 -182.16211 8156269
-33.539307 -29.365173 -182.25832 8879994
-31.314566 -29.592634 -181.15221 9341057
-30.419085 -29.565426 -181.14096 8748921
-29.301611 -29.532089 -181.12518 8090993
-28.408794 -29.506012 -181.11095 10853012
-27.517448 -29.480383 -181.09528 8617592
-26.405409 -29.449028 -181.07379 9537918
-25.295069 -29.418444 -181.05025 9537918
-24.407915 -29.394461 -181.0298 8748918
-23.522377 -29.371033 -181.00804 8814969
-22.423355 -29.350502 -181.02916 8091249
-21.338591 -29.347895 -181.15561 7039331
-20.687588 -29.347151 -181.23351 11380121
-13.992517 -29.450195 -179.73386 10261124
-13.341069 -29.436615 -179.70627 8813680
-12.472956 -29.418936 -179.66827 10853012
-11.6057 -29.401711 -179.62897 9471359
-10.523057 -29.380819 -179.57787 9537665
-9.4418001 -29.360617 -179.5248 11972518
-8.5775318 -29.344988 -179.48087 10853780
-7.4992361 -29.329456 -179.44463 9406847
-6.4246655 -29.326342 -179.47882 9539458
-5.5652113 -29.325266 -179.51015 9539458
-4.4908781 -29.323917 -179.54332 7697000
-3.4162292 -29.322556 -179.57031 8617081
-2.5563021 -29.321465 -179.58714 8617081
-1.4815625 -29.320091 -179.60214 10458250
-0.62127101 -29.318981 -179.60995 9932937
12.376675 -29.489687 -177.60551 8683124
13.444518 -29.499626 -177.59978 9341312
14.512954 -29.510195 -177.59203 8092019
15.36817 -29.519176 -177.5842 8092019
16.438078 -29.531006 -177.57236 10919571
17.508667 -29.543516 -177.55843 11116176
18.365686 -29.554085 -177.54562 9208435
19.437983 -29.567886 -177.52759 9011061
20.296377 -29.579487 -177.51236 10261641
39.470638 -29.409197 -176.24815 8092015
40.29306 -29.392712 -175.96709 8814964
41.319458 -29.372683 -175.61423 8552049
42.344078 -29.353371 -175.25983 10195593
50.687317 -29.246881 -175.40193 9012606
51.316742 -29.245823 -175.21941 9012606
52.364285 -29.244061 -174.91029 9472641
53.410133 -29.242289 -174.59541 9866883
54.245358 -29.240868 -174.33878 9208435
54.870956 -29.239799 -174.14377 10063747
56.228432 -28.941107 -174.80249 10261132
57.233601 -28.9193 -174.34247 9669250
58.036716 -28.902472 -173.97459 9406078
56.478165 -28.49966 -174.86343 10261132
57.376175 -28.098917 -174.60558 9866374
58.33741 -28.024958 -174.18694 10261131
59.10762 -27.71945 -173.95044 10853268
59.79393 -27.561321 -173.69397 10655889
57.833584 -27.161777 -174.76877 9932166
58.462761 -26.930897 -174.5681 10458510
59.267723 -26.915892 -174.19865 10261387
60.197571 -26.855663 -173.78917 9406590
58.739727 -26.269417 -174.70473 10655889
59.369579 -26.038986 -174.50343 10458510
60.290577 -26.066801 -174.06273 9472128
61.193874 -25.898676 -173.709 9340798
59.647896 -25.376654 -174.63972 10655889
60.278526 -25.14657 -174.43808 9735812
61.285847 -25.130386 -173.97475 9472384
62.233963 -25.042826 -173.56772 9867398
60.558155 -24.483387 -174.57437 9340798
61.332966 -24.178118 -174.33594 9735812
62.281548 -23.962568 -173.98018 9998983
63.202488 -23.916716 -173.56894 9998726
63.890644 -23.55591 -173.3932 9932419
62.434227 -22.958969 -174.31355 10327948
63.368225 -22.902279 -173.90054 9735811
64.17495 -22.89197 -173.52821 8486001
64.80748 -22.663933 -173.32498 7565667
63.350906 -22.064213 -174.24657 10262155
64.285751 -22.008398 -173.83278 9670274
65.219879 -21.9533 -173.41907 8749429
63.762283 -21.351622 -174.34195 10855060
64.39679 -21.122732 -174.13806 10262667
65.205605 -21.113543 -173.7643 10262667
66.140648 -21.059277 -173.34981 9538432
64.682846 -20.45484 -174.27383 9406846
65.375801 -20.092251 -174.09668 9538432
66.30098 -20.049454 -173.68219 9406332
67.254677 -19.836887 -173.32283 9932674
68.035225 -19.534023 -173.0807 11906716
66.35759 -18.956369 -174.09647 8681843
67.313179 -18.873367 -173.68404 9274491
68.325989 -18.864622 -173.21489 11380117
68.96315 -18.636925 -173.00935 7038307
67.284767 -18.056606 -174.02664 9010808
68.24144 -17.974171 -173.61337 9471100
69.255371 -17.966196 -173.14343 9537151
69.893623 -17.738523 -172.93742 11378324
68.344902 -17.191622 -173.88063 9668733
69.259438 -17.028172 -173.51973 9011065
70.18734 -17.066368 -173.07133 11115668
70.826759 -16.838516 -172.8649 11905701
69.383995 -16.289585 -173.77486 8879736
70.393242 -16.04051 -173.46489 9735043
71.132751 -16.167257 -173.02486 11905701
71.784546 -15.94185 -172.84479 10787732
71.409538 -15.363338 -173.50528 10458766
72.178017 -15.286319 -173.21014 11050648
73.172546 -14.994956 -173.06587 10787987
74.287666 -14.635949 -173.00606 9012092
75.311729 -14.632117 -172.53592 7893098
76.402618 -14.252507 -173.33852 7037274
77.2258 -14.249939 -172.95862 10787988
78.254257 -14.24708 -172.48299 9275007
78.87117 -14.245603 -172.19701 7564643
93.321777 -14.186774 -171.75659 10261387
94.322617 -14.040038 -171.47296 11578017
95.133614 -13.895925 -171.3257 9078656
96.174904 -13.754916 -171.1051 8684155
96.815086 -13.757394 -170.80551 9208443
95.504189 -13.121668 -171.67319 9473413
96.301201 -13.045327 -171.33223 8947327
97.156059 -13.048368 -170.93225 8880507
97.840385 -12.813935 -170.70752 9735302
96.427773 -12.334336 -171.55978 9933707
97.206444 -12.051668 -171.31056 10657683
98.183533 -12.102557 -170.83432 9735302
98.870049 -11.867168 -170.60889 11379609
97.454582 -11.386276 -171.46307 10262670
98.235657 -11.102504 -171.21283 10261901
99.215141 -11.153387 -170.73535 10196365
99.903831 -10.917096 -170.50912 8092019
98.270325 -10.434173 -171.46561 10262670
99.192886 -10.094874 -171.17174 10130828
100.21529 -9.8925142 -170.7762 9341570
101.14523 -9.6442976 -170.44221 9932937
100.14121 -8.8409405 -171.23392 11051415
101.06896 -8.811223 -170.81306 10721940
102.05221 -8.6454172 -170.42105 10064009
101.18369 -7.8799882 -171.13434 10655890
102.11412 -7.849853 -170.71239 8945784
103.10046 -7.6830978 -170.31929 9011576
102.23074 -6.9151649 -171.03409 10064009
103.04256 -6.8359075 -170.68724 9472383
103.91268 -6.8375697 -170.28061 10525071
102.52649 -6.1074276 -171.22121 10788244
103.22514 -5.865346 -170.99268 9209211
104.09689 -5.8664804 -170.58548 9998727
104.91235 -5.7865725 -170.2372 8748404
103.58054 -5.1355281 -171.1205 9735555
104.28168 -4.8921914 -170.89133 9603713
105.15607 -4.892972 -170.48314 7037274
105.97406 -4.8123598 -170.13396 8089963
104.63944 -4.1595211 -171.01932 7037274
105.34315 -3.9148307 -170.78944 7300446
106.22015 -3.9151561 -170.3802 8089962
107.04085 -3.833739 -170.03006 8748404
105.92285 -3.1790879 -170.81511 8616818
27.621187 -29.697844 -177.33072 9868428
28.486553 -29.714016 -177.30252 9078142
29.569193 -29.73473 -177.26543 8616307
30.43635 -29.751915 -177.23415 7039331
31.522247 -29.774603 -177.19635 9340025
32.615566 -29.803629 -177.19063 10983822
33.465343 -30.03063 -177.04126 10260355
34.26017 -29.969748 -176.98955 9800575
34.96209 -29.814066 -176.83405 9143419
-69.234093 -29.415745 -185.49989 9997701
-68.122307 -29.414852 -185.91595 9537409
-61.231991 -29.404425 -184.78435 7235420
-60.124825 -29.403471 -185.15269 8682608
-59.45953 -29.402893 -185.3705 7038298
-54.191628 -29.456715 -184.04094 7367263
-53.239296 -29.417736 -184.06078 7959400
-52.091476 -29.391825 -184.22404 7169889
-51.208313 -29.39101 -184.47501 9405823
-50.545528 -29.390392 -184.66077 10260617
-43.368317 -29.379255 -183.26984 8682867
-42.270386 -29.378176 -183.53027 9340541
-41.171108 -29.377081 -183.78456 9537150
-32.884502 -29.364485 -182.3802 9143166
-32.229324 -29.363791 -182.49939 9669765
-31.355005 -29.36286 -182.65483 9801606
-30.261038 -29.361689 -182.84305 8156528
-20.253939 -29.346657 -181.28394 11380121
-19.385485 -29.345657 -181.38138 10985622
-18.299513 -29.344398 -181.49803 9144448
-17.43033 -29.34339 -181.58644 10788500
-16.343105 -29.342117 -181.69096 9538176
-15.255394 -29.34083 -181.78923 8353646
-0.19156253 -29.31843 -179.61218 9932937
0.45358288 -29.317593 -179.61343 10655630
1.5284969 -29.316195 -179.61031 8813939
2.6036692 -29.314785 -179.6011 9405819
3.4633827 -29.313654 -179.58897 10722450
4.5380945 -29.312233 -179.56779 8354159
5.612771 -29.310801 -179.54045 10260870
6.4723077 -29.309652 -179.51382 10063235
7.5465221 -29.308208 -179.4745 9208440
8.620492 -29.306753 -179.42912 9735043
9.479598 -29.305584 -179.38802 8682867
10.553016 -29.304117 -179.33057 9801092
11.626229 -29.302641 -179.26712 9341054
12.48425 -29.301453 -179.2115 11248795
13.556684 -29.299965 -179.13608 10393485
14.628636 -29.298464 -179.05453 9735555
15.485677 -29.297262 -178.98445 9735555
16.556587 -29.29575 -178.89098 10853004
17.627014 -29.29423 -178.79138 9800572
18.482828 -29.293007 -178.70691 10062976
19.551991 -29.291477 -178.59532 9338741
20.620565 -29.289932 -178.47778 10523786
21.481842 -29.298414 -178.43849 7760739
22.562613 -29.314131 -178.41467 9931904
23.64432 -29.330494 -178.38878 10721421
24.510546 -29.344091 -178.36639 8089963
25.594202 -29.361759 -178.3363 8089963
26.679079 -29.380095 -178.30412 9868428
27.547758 -29.395281 -178.27673 8684155
28.19972 -29.407009 -178.25565 7565675
35.546879 -29.494009 -177.56877 11313815
36.582458 -29.470625 -177.22354 10787476
37.408951 -29.452492 -176.94626 9471359
38.440712 -29.430477 -176.59795 9734531
45.417137 -29.255596 -176.83208 9933191
46.474487 -29.253868 -176.55853 10196363
47.530354 -29.252127 -176.27893 9604227
48.37376 -29.250734 -176.05061 7564651
49.426361 -29.248987 -175.75922 8089963
50.267311 -29.247583 -175.52209 8089963
53.488167 -28.859982 -176.11319 9538433
54.353031 -28.809814 -175.72995 10063747
55.423229 -28.959284 -175.17084 11445148
54.589481 -28.105394 -175.90269 10392972
55.438721 -28.023558 -175.53949 9998216
56.294537 -27.979845 -175.15785 10063753
56.978386 -27.616074 -174.98509 10261132
55.511765 -27.034721 -175.90273 8945784
56.446205 -26.971025 -175.49248 8682612
57.253551 -26.954544 -175.12259 9537665
57.883289 -26.723316 -174.92177 9932166
55.912178 -26.324886 -176.00111 9340286
56.543343 -26.092533 -175.80019 8222317
57.352013 -26.076521 -175.42941 9537664
58.28582 -26.014915 -175.01862 10458254
56.818829 -25.428528 -175.93846 8419696
57.509956 -25.268759 -175.68039 8354159
58.375992 -25.223444 -175.2946 9734787
59.282532 -25.053699 -174.93997 9866629
58.419464 -24.372698 -175.61707 9011576
59.397606 -24.06237 -175.28575 9208445
60.378483 -23.958385 -174.86992 9340799
61.066914 -23.595585 -174.6949 9735812
59.500229 -23.1793 -175.59387 7564651
60.336304 -22.945492 -175.29803 8879738
61.348232 -22.930275 -174.83197 9209212
61.98143 -22.700611 -174.62898 9209467
60.702332 -22.130026 -175.45599 9471617
61.454163 -22.045439 -175.13922 8747890
62.264149 -22.034273 -174.76575 9867397
62.898197 -21.804836 -174.56239 10262155
61.619236 -21.231647 -175.39035 10260358
62.371738 -21.147738 -175.07298 9734784
63.309277 -21.091566 -174.6581 10393741
62.53833 -20.332371 -175.32399 11312788
63.318935 -20.026558 -175.08304 11512479
64.28952 -19.959816 -174.657 9801860
65.200294 -19.561226 -174.39278 8682867
63.631832 -19.133347 -175.29721 12433069
64.385521 -18.946768 -175.02065 10460047
65.371658 -18.847355 -174.60054 9933190
66.125282 -18.661734 -174.3237 8089963
64.556221 -18.231457 -175.2294 8814715
65.397911 -17.999657 -174.93007 9274492
66.41433 -17.989988 -174.45966 9208187
67.052742 -17.761042 -174.25414 9931910
65.482979 -17.328367 -175.16109 9010808
66.325851 -17.096745 -174.8611 9602945
67.343239 -17.087889 -174.38988 9011062
67.982643 -16.85894 -174.18384 9208435
66.615967 -16.422132 -174.99777 9931910
67.433594 -16.046494 -174.83693 9932163
68.337242 -15.967054 -174.48064 9734782
69.199272 -15.740338 -174.22296 9734782
70.076523 -15.516985 -174.0009 9735299
68.767578 -15.088752 -174.96744 10261129
69.381248 -15.084634 -174.6842 9669504
70.451202 -14.971883 -174.33157 8617074
71.214409 -14.790992 -174.21823 9011832
72.237923 -14.644837 -173.94298 9932934
74.342339 -14.260021 -174.28506 10130313
75.372696 -14.256014 -173.81241 10261644
75.990898 -14.253889 -173.52817 7037274
90.638878 -14.192136 -173.18796 9142651
91.259888 -14.190902 -172.86125 10260875
92.311333 -14.010822 -172.54648 9998472
93.191216 -13.745771 -172.50052 7038307
94.043106 -13.747993 -172.10222 12433068
92.633385 -13.272038 -172.95168 9538435
93.313339 -13.036937 -172.72925 7630443
94.166443 -13.03898 -172.33051 9670278
94.962753 -12.962219 -171.99007 9078656
93.649353 -12.327196 -172.85864 8288371
94.331329 -12.091318 -172.63567 9735813
95.186432 -12.093361 -172.23599 9604743
95.984764 -12.016267 -171.89464 9078656
94.669296 -11.379251 -172.76503 10130057
95.353333 -11.142594 -172.54132 9998986
96.210487 -11.144554 -172.14066 9341314
97.010887 -11.067142 -171.7984 9143936
95.69326 -10.428099 -172.67047 11577503
96.37925 -10.190564 -172.44597 8814715
97.238579 -10.192445 -172.04427 8090995
98.115753 -9.8594704 -171.76904 8090993
98.873878 -9.4782228 -171.56874 10591121
96.721161 -9.4736385 -172.57492 8090995
97.478188 -9.0912952 -172.37561 8288373
98.357277 -8.7569914 -172.10004 9012089
99.220253 -8.7587423 -171.69672 9933191
99.911766 -8.5198479 -171.47025 11906725
98.487183 -8.0357742 -172.32967 9341054
99.274086 -7.7478123 -172.07841 8288366
100.26032 -7.7977381 -171.59818 11314332
100.95421 -7.5577645 -171.37109 10064009
99.526573 -7.0723481 -172.23245 8090987
100.31612 -6.7831526 -171.98048 8879478
101.30499 -6.8329277 -171.49911 10918805
102.00121 -6.5918751 -171.27127 11905701
100.23832 -5.9430857 -172.35487 8681843
101.17097 -5.9116211 -171.93239 9405822
102.15934 -5.7425714 -171.53929 10064265
101.28625 -4.9714966 -172.25697 8681843
102.09989 -4.8907104 -171.90991 8681843
103.11204 -4.8425574 -171.45703 9275005
102.33882 -3.9958689 -172.15854 10589580
103.15486 -3.9144366 -171.81059 9668992
104.02949 -3.9145157 -171.40248 10130313
104.73258 -3.6698022 -171.17294 9143419
103.39612 -3.0160339 -172.05957 8485235
104.21472 -2.93383 -171.71069 9670277
105.00315 -3.0154309 -171.31001 9143419
-67.008247 -29.413942 -186.32574 8419952
-66.11525 -29.413206 -186.64865 8092011
-65.444443 -29.412651 -186.88791 9538686
-59.015446 -29.402506 -185.51431 8486000
-58.126301 -29.401726 -185.79836 8486000
-57.013103 -29.40074 -186.14796 9407364
-50.103306 -29.38998 -184.78305 11904668
-49.217731 -29.389151 -185.02415 9932934
-48.109291 -29.388098 -185.32016 9275004
-40.290619 -29.376198 -183.98306 10984593
-39.188477 -29.37509 -184.22495 9078397
-38.084949 -29.373962 -184.46071 8881019
-37.422283 -29.373285 -184.59901 9208958
-29.166235 -29.360504 -183.02512 9932678
-28.289469 -29.359554 -183.16582 9932678
-27.192465 -29.358355 -183.33563 9669504
-26.094534 -29.357141 -183.49918 10458505
-25.435513 -29.356411 -183.59415 9537918
-14.384794 -29.3398 -181.86302 8813680
-13.295865 -29.338503 -181.9491 5919050
-12.206585 -29.337193 -182.02908 5919050
-11.334927 -29.33614 -182.08823 6839895
-10.244655 -29.334814 -182.15599 7958635
-9.1543026 -29.333479 -182.21756 7564651
-8.4999256 -29.332674 -182.2514 8682867
28.634829 -29.415123 -178.24155 7565675
29.505835 -29.431591 -178.21234 9471616
30.595396 -29.452791 -178.17398 9340030
31.468241 -29.470318 -178.14172 9997954
32.560455 -29.492878 -178.09921 10129025
33.654224 -29.516119 -178.05467 9668734
34.509842 -29.517969 -177.91248 8682867
38.826233 -29.266188 -178.38467 10261132
39.466541 -29.265173 -178.24512 10064265
40.532539 -29.263477 -178.00735 9208700
41.597153 -29.261778 -177.76353 12431013
42.447746 -29.26041 -177.56363 9405822
43.509598 -29.258698 -177.30788 10326924
44.570007 -29.256977 -177.04619 9998471
50.771763 -29.076454 -177.29312 11906725
51.520012 -28.881266 -177.02261 10130829
52.501934 -28.768234 -176.61006 8946812
53.249119 -28.574688 -176.33931 8814710
51.672321 -28.17701 -177.23448 9012606
52.506668 -27.936792 -176.94186 8946554
53.520348 -27.911968 -176.47908 8814710
54.150936 -27.678236 -176.27884 8814710
52.860565 -27.124462 -177.10321 9275261
53.612465 -27.033533 -176.78905 8814710
54.423416 -27.014893 -176.41827 9998984
55.0546 -26.781685 -176.21764 10129801
53.764862 -26.225176 -177.04277 9538433
54.517151 -26.135178 -176.72806 9932679
55.328403 -26.117664 -176.35669 10656401
55.96019 -25.885027 -176.15546 9340286
54.671173 -25.32572 -176.98203 9142650
55.44772 -25.015984 -176.74449 9405822
56.417793 -24.941616 -176.32184 8682355
57.297688 -24.759771 -175.9845 8090987
55.746956 -24.128765 -176.96263 9405822
56.498123 -23.937748 -176.68903 9669762
57.523582 -23.948118 -176.20633 8880246
58.351578 -23.786568 -175.88504 9011576
56.657772 -23.228304 -176.90063 10459278
57.495842 -22.992243 -176.60471 9867141
58.51162 -22.974768 -176.1377 9143163
59.264156 -22.888832 -175.8212 9011323
57.773991 -22.3239 -176.74442 10459278
58.49575 -22.046137 -176.51953 9603457
59.425713 -22.075628 -176.07365 9011323
60.178806 -21.990366 -175.75661 9208702
58.773674 -21.273195 -176.70149 8682868
59.528534 -21.187674 -176.38373 8024943
60.341927 -21.175676 -176.00897 9142909
61.095604 -21.091089 -175.69133 10260358
59.690899 -20.370888 -176.63725 8682867
60.472469 -20.063139 -176.39661 8156012
61.432606 -20.105825 -175.93137 9010549
62.343822 -19.70513 -175.66769 10260358
60.781189 -19.168173 -176.61337 7564642
61.41946 -18.936903 -176.40881 6905944
62.438263 -18.924389 -175.93842 8221805
63.39735 -18.838854 -175.52531 11183260
61.703445 -18.263592 -176.54773 7037274
62.459431 -18.075747 -176.27069 7038049
63.449039 -17.97517 -175.84943 8090993
64.322029 -17.936096 -175.45782 9406851
62.627857 -17.357805 -176.48152 7038307
63.548149 -17.16857 -176.12839 9143680
64.492195 -17.114073 -175.70982 10722710
65.249092 -17.032036 -175.38966 11183260
63.963284 -16.446735 -176.22572 12433069
64.61142 -16.217602 -176.0397 13024949
65.479218 -15.99028 -175.79987 12695984
66.273552 -15.895074 -175.48901 11971749
67.217445 -15.537228 -175.32037 10853012
66.515083 -15.105588 -176.00597 11578529
67.461243 -14.956207 -175.74913 10394251
68.243011 -14.879733 -175.48166 9208435
69.361412 -14.660084 -175.2482 8813936
70.184334 -14.655395 -174.87599 8090987
71.452248 -14.273303 -175.60349 8090987
72.485306 -14.268147 -175.1335 8682867
73.311058 -14.26438 -174.75681 10459278
88.560005 -14.196241 -174.2603 8089963
89.438423 -14.080833 -173.92296 8879990
90.216492 -13.891162 -173.72949 8090220
91.275963 -13.741816 -173.39542 9274493
90.388672 -13.110909 -174.06364 8090734
91.302345 -13.080562 -173.6497 8880250
92.267807 -12.916598 -173.26544 8288371
91.399841 -12.16538 -173.97316 9406335
92.315536 -12.135046 -173.55823 8485750
93.283508 -11.970584 -173.17302 8748664
92.414871 -11.216942 -173.88202 9011835
93.332726 -11.186464 -173.46616 9472128
94.303246 -11.021464 -173.07996 11577503
93.4338 -10.265367 -173.79002 8682867
94.233437 -10.186839 -173.44861 10853780
95.228554 -10.140658 -173.00293 10524815
94.456589 -9.3105841 -173.69708 9143418
95.30011 -8.9920073 -173.43176 9866885
96.160522 -8.9931631 -173.02988 9998215
97.006569 -8.6746149 -172.76335 8945530
95.683083 -8.0322828 -173.63931 10129801
96.371979 -7.7922182 -173.41457 10459022
97.234978 -7.7931452 -173.01155 8814197
98.040962 -7.7138476 -172.66743 8485745
96.757851 -6.8280158 -173.62251 9537920
97.406364 -6.8285022 -173.31978 8946039
98.271545 -6.8292494 -172.91583 8617331
99.079819 -6.7494388 -172.57082 8485745
97.636185 -5.9415226 -173.56953 10459278
98.445068 -5.8610291 -173.22453 11051416
99.312569 -5.8615465 -172.81956 8813685
100.00774 -5.6193972 -172.59276 8681843
98.575653 -5.1329389 -173.45662 10130314
99.366699 -4.8411326 -173.20502 10064264
