# .PCD v0.7 - Point Cloud Data file format
VERSION 0.7
FIELDS x y z rgb
SIZE 4 4 4 4
TYPE F F F U
COUNT 1 1 1 1
WIDTH 1199
HEIGHT 1
VIEWPOINT 0 0 0 1 0 0 0
POINTS 1199
DATA ascii
-168.54114 -35.029373 57.646542 9735046
-166.66849 -33.33717 61.523258 9011579
-166.98018 -33.503307 60.878376 9011579
-167.27849 -33.814217 60.152451 8024944
-167.92827 -33.646931 59.246487 9340545
-168.38477 -33.911186 58.497963 7564651
-166.31427 -32.445133 62.759319 7564643
-166.73222 -32.645683 61.910469 8353903
-167.21657 -32.721054 61.038883 7564651
-167.65118 -32.750462 60.284237 8288115
-168.03471 -32.851078 59.58604 10853012
-166.17551 -31.568003 63.621006 8813939
-166.42741 -31.800388 63.029633 8156523
-166.97054 -31.834181 62.088665 9274235
-167.51431 -31.869055 61.145748 7564649
-167.88869 -31.966473 60.44416 9471871
-165.62837 -30.261105 65.936729 10260875
-166.0007 -30.578918 64.864952 8418927
-166.44098 -30.724062 63.950726 8419694
-166.87128 -30.748531 63.19553 9735043
-167.22185 -31.02376 62.272205 9208698
-167.62894 -31.222105 61.415134 7564643
-164.51265 -29.396021 69.424171 9538433
-164.81651 -29.406961 68.852135 8748661
-165.28233 -29.524975 67.765114 9011576
-165.58626 -29.762383 66.798248 9208697
-166.07172 -29.660488 66.112022 10260100
-166.47162 -29.783848 65.228989 8419438
-166.88208 -29.909914 64.349327 7762277
-159.79747 -28.595127 87.891846 8091248
-160.42023 -28.650875 87.481171 9143422
-160.42754 -28.914831 84.748993 10261132
-160.73262 -28.916185 84.168983 8419696
-161.13609 -28.91794 83.393921 7894382
-161.63506 -28.920145 82.422401 7631210
-162.12859 -28.922396 81.448013 9932937
-162.42194 -28.923746 80.862091 8485494
-163.53557 -29.035179 73.22538 8681843
-163.84613 -29.044821 72.655045 8681843
-164.36243 -29.061464 71.703247 8945527
-164.87747 -29.078709 70.749557 9472127
-165.28839 -29.093105 69.985336 8682867
-159.45622 -27.224131 88.703804 10261644
-159.91595 -27.710485 88.205681 8617335
-160.45769 -27.981714 87.750984 9669509
-159.58847 -26.489717 88.943314 11906725
-160.22696 -26.69171 88.458847 8420211
-159.1938 -25.637852 89.560631 8616563
-159.81633 -25.687147 89.152473 11050904
-159.30885 -24.752081 89.875786 9208955
-159.93221 -24.799601 89.467796 10261387
-159.45833 -23.771406 90.210899 9801093
-159.13673 -22.660267 90.895599 8551537
-159.82735 -22.772457 90.417717 9209467
-158.64542 -21.34742 91.773689 8288365
-159.29785 -21.659067 91.232491 7893607
-158.88614 -20.69026 91.910988 8551282
-159.63908 -20.962482 91.324532 8814713
-158.37442 -19.761978 92.633949 8089963
-158.99869 -19.799294 92.229973 8156528
-158.56619 -18.651033 92.999733 7301478
-159.1113 -18.906809 92.549583 7038307
-158.19691 -17.620234 93.678947 9341059
-158.8703 -17.618458 93.261482 8090993
-157.90659 -16.369743 94.405052 7565675
-158.45203 -16.621468 93.956444 9933450
-158.99846 -16.874294 93.506714 8617337
-158.10199 -15.632492 94.692413 8157298
-158.70694 -15.809206 94.191948 8486007
-157.75317 -14.694124 95.732765 8946042
-158.47556 -14.909866 95.087502 7959660
-154.54213 -13.439989 107.42348 8879479
-154.95818 -13.666425 106.61088 8879994
-155.26201 -13.873268 105.44834 8090736
-155.89432 -13.875624 104.51208 8090736
-156.97321 -14.135301 97.47007 10656142
-157.73845 -14.163636 96.895744 9208955
-154.22536 -12.509727 108.02937 8616307
-154.8801 -12.807232 107.49099 9471616
-154.34077 -11.745914 108.29305 9340287
-154.98181 -11.919165 107.81779 9472130
-154.08049 -10.431391 109.03254 8092019
-154.69469 -10.745041 108.51237 8617848
-153.63033 -9.2649479 109.82522 9933193
-154.17722 -9.5093203 109.37741 9209984
-154.72476 -9.7544947 108.92869 8092019
-153.7449 -8.4960985 110.0917 9341566
-154.38728 -8.6648464 109.61761 10196364
-153.40651 -7.4073486 110.78068 9144187
-153.95433 -7.650023 110.33298 9012345
-154.50293 -7.8934979 109.88447 9012606
-153.52075 -6.6351295 111.04878 9341566
-154.16414 -6.8015451 110.57505 9144187
-153.18124 -5.5437427 111.73957 8617075
-153.73003 -5.784893 111.29198 9407103
-154.27945 -6.026793 110.84361 11906725
-153.2952 -4.7680864 112.00943 9208443
-153.93973 -4.9322371 111.53602 9801092
-153.03049 -3.4405763 112.75741 10262155
-153.58057 -3.6800525 112.30972 10722962
-154.05475 -4.153882 111.80614 9932678
-153.1255 -2.5039406 113.10967 10788241
-153.75244 -2.5087655 112.71702 9208443
-152.80225 -1.5623541 113.72402 9341307
-153.42891 -1.5658286 113.3315 9143930
-152.46281 -0.38417977 114.61333 7565667
-152.95457 -0.62128586 114.1213 7960425
-153.4471 -0.85914296 113.62914 7565667
-152.2547 0.56206161 115.60635 7564643
-152.72495 0.32480171 115.09672 8683379
-153.19501 0.086890951 114.58649 8682867
-149.77295 1.5657623 125.8404 9997955
-151.67389 1.0425575 117.48458 10064777
-152.35242 1.0431387 117.13213 7301987
-149.30771 2.2923765 126.37045 8419695
-149.99826 2.294735 126.02787 8353901
-149.60756 3.2661433 126.62141 8024936
-149.06059 4.481267 127.39279 9012088
-149.67738 4.2422085 126.98782 9012088
-149.39368 5.2667146 127.55067 10064522
-148.73933 6.4358993 128.35759 9011838
-149.35686 6.1981401 127.9528 8551288
-149.07281 7.2269301 128.51788 9011838
-148.41739 8.3997402 129.32686 7564643
-149.03578 8.1632023 128.92213 9340799
-148.75119 9.1965351 129.48936 8814453
-149.49469 8.9127893 129.00307 10261132
-148.40158 10.628237 130.25311 9998212
-148.90802 10.01777 129.74988 9997959
-148.51949 11.477291 130.54439 9405564
-149.17332 10.893739 129.97906 8287341
-148.1812 12.701078 131.21675 8813428
-148.85585 12.134363 130.64806 9866115
-148.14929 13.618931 131.61089 8616049
-148.85136 12.8852 130.95967 10260358
-147.85951 14.623546 132.30978 8945783
-148.54611 14.133483 131.64276 8616049
-147.6416 15.391963 133.07603 8814710
-148.18469 15.150197 132.5995 8419440
-180.23094 -44.352383 16.934254 9536635
-180.38762 -44.372967 16.072933 9141877
-180.58138 -44.399345 14.994985 7103322
-180.73431 -44.421204 14.13181 5920074
-180.9231 -44.449291 13.051183 7235420
-181.10928 -44.478336 11.969399 8682608
-181.21974 -44.496124 11.31947 8682608
-182.9005 -44.377056 6.3474283 9735043
-183.0376 -44.404865 5.4699564 10655885
-183.20662 -44.440472 4.3712969 9735296
-183.34007 -44.46949 3.4913719 9340539
-184.98885 -44.387421 -1.8228866 7564651
-185.08087 -44.412418 -2.4922249 9341059
-185.17215 -44.437717 -3.1621773 11183004
-171.07349 -43.571804 49.470043 7893352
-171.48447 -43.632236 48.918358 9275517
-172.21219 -43.627766 48.006744 7037274
-177.39737 -44.02969 29.2675 9341054
-177.50186 -44.030903 28.626595 8090987
-177.6377 -44.032524 27.771463 8683124
-177.80159 -44.034542 26.701593 8681843
-177.95946 -44.036552 25.630789 9010808
-178.14214 -44.053219 24.782108 9537410
-178.4283 -44.09634 23.946636 9143166
-178.7845 -44.151329 22.899666 10261132
-179.13928 -44.207355 21.850119 9406335
-179.4216 -44.25293 21.008123 8813942
-179.66879 -44.285393 19.941435 10261132
-179.87202 -44.30846 18.868654 9866374
-180.03264 -44.327667 18.009415 9866374
-180.15198 -44.342354 17.364414 9536635
-181.93011 -44.205349 12.243237 7235420
-182.11571 -44.235088 11.155091 8682608
-182.26221 -44.259544 10.283303 9011316
-182.40697 -44.284599 9.4105806 9405560
-182.58559 -44.316807 8.3179598 9603455
-182.7616 -44.349949 7.2239504 9406078
-184.08237 -44.170864 4.3922129 9340539
-184.1835 -44.192612 3.7289016 10590347
-184.34966 -44.229725 2.6222885 9274487
-184.5135 -44.267677 1.5138406 5920074
-184.64252 -44.29879 0.62580574 6182734
-184.76991 -44.330505 -0.26360241 5656389
-184.89552 -44.36282 -1.1540519 5920078
-186.05365 -44.162983 -3.1776268 10525330
-186.10788 -44.182888 -4.299098 9866371
-186.12872 -44.194691 -5.1965208 8945271
-186.14784 -44.207085 -6.0942564 8089963
-186.16103 -44.216751 -6.7677984 8617075
-187.65717 -44.107193 -9.0854406 11511711
-187.61099 -44.108677 -9.9890509 10853781
-187.54794 -44.110519 -11.118243 7563619
-187.50682 -44.111618 -11.795531 8420208
-189.34668 -44.120667 -15.806918 7037274
-189.26862 -44.12212 -16.718555 8616300
-189.18607 -44.123569 -17.629818 8353130
-190.97202 -44.132328 -21.513386 8682355
-190.86639 -44.133766 -22.432781 10130057
-190.75641 -44.135197 -23.351685 7958632
-192.47122 -44.144035 -27.333324 7039331
-192.33757 -44.145451 -28.259911 7039331
-192.23457 -44.146507 -28.954353 7037274
-170.84792 -42.642529 50.295773 7893352
-171.25414 -42.789928 49.699295 8288622
-171.80823 -42.779884 49.009022 7958888
-172.13995 -43.053398 48.432682 7037274
-170.94942 -41.705143 50.715168 8552050
-171.58629 -41.759716 49.883213 8157036
-171.99449 -41.907024 49.284557 9210491
-170.2791 -40.33102 52.359329 9405822
-170.5896 -40.728718 51.73708 9668994
-171.29655 -40.689003 50.872093 8814197
-171.76654 -40.976742 50.113689 7367007
-170.04961 -39.410843 53.184536 9405822
-170.38098 -39.675491 52.613815 9405822
-170.92984 -39.746048 51.883133 10458254
-171.40752 -39.882812 51.203209 8682355
-170.08461 -38.703453 53.553818 8024937
-170.69954 -38.824104 52.710449 10129289
-171.17734 -38.958626 52.03175 9405822
-169.71906 -37.741241 54.577007 7498337
-170.40517 -37.801586 53.678501 8551025
-170.94618 -38.036938 52.860233 9997959
-169.56325 -36.688278 55.389442 10524815
-170.04269 -36.742985 54.754261 10195338
-170.53264 -36.888599 54.052612 8419696
-169.26923 -35.622505 56.383331 10590603
-169.81448 -35.741077 55.627911 9932675
-170.36661 -35.743282 54.932007 10195338
-168.90543 -34.552433 57.467491 10327176
-169.51846 -34.690258 56.615509 8681835
-170.13307 -34.82959 55.760769 9274231
-168.67072 -33.645844 58.29353 9735046
-169.14671 -33.767193 57.623653 10458507
-169.76245 -33.874359 56.786251 9800830
-168.43507 -32.741016 59.119701 8617080
-168.91115 -32.860477 58.450829 7827819
-169.46011 -32.914265 57.728664 9011577
-169.79416 -33.168762 57.159489 10853012
-168.20859 -31.478033 60.253517 11181970
-168.619 -31.730162 59.486172 10524812
-169.24306 -31.876408 58.609333 10459019
-169.55789 -32.260166 57.988594 8090987
-167.64417 -30.475576 62.221676 7762276
-168.01215 -30.730881 61.279377 8682866
-168.49254 -30.704079 60.50597 10195589
-168.92836 -30.87611 59.593521 11314070
-166.84755 -29.489567 65.028244 8419438
-167.21796 -29.648724 64.170143 7762277
-167.67195 -29.743423 63.266014 7104859
-168.21027 -29.7738 62.315071 7630692
-168.4937 -30.000807 61.499481 9011574
-168.81633 -30.020071 60.927303 7564643
-161.01575 -28.405073 87.21946 10261132
-161.65775 -28.612682 86.730461 10655885
-162.61615 -28.924648 80.470772 7038307
-163.00156 -28.926479 79.686562 7169635
-163.47873 -28.928741 78.704018 8090475
-163.85583 -28.93049 77.915878 8682867
-164.32187 -28.932734 76.928101 9340795
-164.78229 -28.934971 75.937653 10787726
-165.8007 -29.111719 69.02832 9208955
-166.31174 -29.131001 68.069405 9471871
-166.71774 -29.146696 67.300133 9932678
-167.22321 -29.166811 66.336266 7827558
-160.70352 -27.330032 87.883865 10261132
-161.24821 -27.601515 87.427208 9143419
-161.79398 -27.874306 86.969276 11379348
-160.83736 -26.592718 88.12307 8748917
-161.48009 -26.796425 87.634987 8025194
-160.85884 -25.77042 88.468605 9011832
-160.649 -24.719608 89.057564 8682867
-161.18599 -24.896164 88.646957 8288366
-160.08276 -23.239681 90.055138 11905701
-160.63724 -23.729303 89.497108 10458767
-160.36732 -22.472733 90.213142 9932679
-160.87375 -22.845932 89.735756 9341056
-159.89532 -21.428711 90.961967 7367263
-160.55202 -21.74235 90.417244 8288627
-160.02591 -20.687124 91.204536 8156785
-160.67102 -20.878389 90.72039 8288115
-159.62491 -19.836912 91.824654 7893614
-160.26036 -19.739981 91.472298 8222578
-159.35274 -18.245115 92.688423 7038307
-159.81987 -18.721807 92.190254 7301478
-160.4498 -18.757978 91.783203 7893614
-159.48187 -17.500622 92.933174 7564650
-160.12782 -17.685551 92.451279 7893614
-159.59828 -16.633732 93.239128 7959151
-160.25804 -16.938593 92.696426 7564651
-159.34396 -15.69004 93.879372 8880250
-159.9595 -15.868567 93.379791 10064011
-158.89015 -14.206698 96.029488 6249039
-159.17191 -14.643782 94.897522 8617330
-159.55032 -14.994029 94.344444 9143418
-155.78775 -13.483295 106.62885 8748150
-156.41328 -13.50533 106.22974 7038307
-156.39601 -13.877509 103.76023 9931907
-157.01773 -13.879864 102.8169 9536894
-157.63416 -13.882219 101.87014 9471359
-155.4707 -12.549977 107.23621 9143422
-156.01906 -12.798807 106.78549 8222577
-156.56824 -13.048539 106.33379 7761512
-155.64247 -11.538649 107.57357 8683128
-156.26234 -11.765786 107.08779 9143422
-155.32858 -10.465045 108.24063 7565161
-155.95544 -10.482129 107.8428 7828333
-154.87791 -9.2947969 109.03536 9933193
-155.42747 -9.5401525 108.58534 9012606
-155.97786 -9.7863579 108.1345 8091248
-154.9944 -8.5236511 109.30157 9604485
-155.64017 -8.6932077 108.82498 9275777
-155.09637 -7.6263433 109.63229 8748404
-155.75778 -7.9194613 109.09167 7564643
-154.77209 -6.6570153 110.26001 9011832
-155.41901 -6.8241067 109.78378 8222316
-154.87376 -5.755918 110.59257 10327693
-155.53639 -6.0470576 110.0521 9735555
-154.60242 -4.5350685 111.29778 9077625
-155.22574 -4.7539859 110.81351 9735555
-154.36121 -3.2188764 112.02621 9932678
-154.77301 -3.5046842 111.6442 9011576
-154.38121 -2.5135953 112.32291 10459278
-155.01141 -2.5184283 111.9277 8617335
-154.13332 -1.3339539 112.99335 12433322
-154.54599 -1.6191025 112.61125 10854292
-154.11272 -0.5779196 113.43327 12170152
-154.70682 -0.86400467 112.84106 14604230
-153.88889 0.37085813 114.41291 8682867
-154.45528 0.084729269 113.79874 11906725
-150.46404 1.5670438 125.49709 9209467
-151.15765 1.5683198 125.1526 8879479
-153.41286 1.0435572 116.48478 11380633
-150.69077 2.29719 125.68439 10261132
-151.283 2.2179174 125.35719 9011065
-150.76251 3.2726753 126.04958 8419696
-151.38206 3.0316844 125.64233 9340030
-150.37091 4.2476134 126.64521 7762021
-150.96396 4.1705747 126.31876 8551537
-150.44318 5.2283535 127.01339 8025194
-151.06358 4.9888115 126.60644 6511954
-150.05133 6.2065454 127.61125 9472387
-150.64522 6.1317072 127.2853 8156779
-150.24783 7.1451011 127.90037 8485494
-149.73109 8.1745844 128.58131 10524816
-150.42886 8.1860361 128.23941 8879479
-150.14442 9.222393 128.8078 9142651
-149.48618 10.402452 129.62115 9537408
-150.1087 10.166657 129.21469 9340029
-149.82379 11.207826 129.78528 9800324
-149.3978 12.398087 130.48744 9537408
-149.8403 12.075366 130.13457 9537408
-149.50269 13.203786 130.76735 10326410
-149.10896 14.402962 131.50111 8879217
-149.53275 14.078036 131.13071 9537150
-148.58383 15.421774 132.63412 8089963
-148.96463 14.915355 132.01155 8353131
-172.61018 -43.348621 47.669701 7037274
-172.94301 -43.62468 47.090431 9669505
-173.49704 -43.708996 46.345139 10787472
-173.96638 -43.994892 45.350948 8090987
-174.24944 -44.000317 44.306278 8682867
-174.46089 -44.001995 43.466618 8682867
-174.71924 -44.004101 42.415539 9143419
-174.97168 -44.006195 41.36306 9143166
-175.16891 -44.00782 40.519939 8090736
-175.36212 -44.009537 39.675926 9143422
-175.59756 -44.011616 38.619488 7039331
-175.82721 -44.013691 37.561798 7565161
-176.00613 -44.015347 36.714558 8813686
-176.22385 -44.01738 35.654343 9734788
-176.43552 -44.019478 34.592922 9406081
-176.60022 -44.021118 33.742832 10260617
-176.79999 -44.023167 32.679081 8616566
-176.99385 -44.025211 31.614241 9340289
-177.1441 -44.02684 30.761553 7038307
-177.2903 -44.028473 29.908072 8156784
-180.4422 -44.046082 21.788418 8813942
-180.5197 -44.047237 21.136557 8813942
-180.61954 -44.048889 20.266891 9603971
-180.73817 -44.050877 19.179256 9472642
-180.88297 -44.060654 18.094084 10262156
-181.04294 -44.080364 17.230007 7828332
-181.20126 -44.100677 16.365032 7629154
-181.39673 -44.126938 15.282357 7564129
-181.58972 -44.154079 14.198274 9866624
-181.74208 -44.176491 13.330091 8879987
-183.45993 -44.069077 10.350755 9405560
-183.50775 -44.070637 9.467164 9734527
-183.55141 -44.072193 8.5833292 8681835
-183.59074 -44.073746 7.6992693 9735043
-183.7384 -44.100761 6.5977106 9406078
-183.91174 -44.135281 5.4957857 9603711
-184.01443 -44.156528 4.8338327 9340539
-185.78415 -44.086514 1.7480096 8813936
-185.79025 -44.088039 0.85328758 6708821
-185.79247 -44.089943 -0.26509777 7103067
-185.80415 -44.095036 -1.1599265 7760997
-185.91144 -44.123734 -2.0560105 9275004
-187.78984 -44.101593 -5.6952925 10261132
-187.75204 -44.103466 -6.8256063 9669251
-187.70802 -44.105335 -7.9557104 8879991
-187.67831 -44.106457 -8.6336432 9734788
-189.58553 -44.11552 -12.613456 7762278
-189.52277 -44.117001 -13.526305 7695973
-189.43796 -44.118835 -14.666862 8287597
-191.28481 -44.127625 -18.521984 7565675
-191.19318 -44.129074 -19.442902 9932424
-191.07324 -44.13089 -20.593533 8090218
-192.87479 -44.139397 -24.317795 7236189
-192.78583 -44.140472 -25.01424 6841687
-192.63173 -44.142262 -26.174236 7696742
-172.65038 -42.632103 48.037292 8813941
-173.27101 -42.768551 47.178001 8550769
-173.60518 -43.044945 46.596821 7958632
-172.28659 -41.648273 49.068466 10393742
-172.90523 -41.811192 48.196205 9998215
-173.37828 -42.10535 47.430248 8813941
-172.0583 -40.717258 49.898647 6774358
-172.53836 -40.857925 49.213402 9209211
-173.01945 -40.999882 48.526089 8813941
-171.82895 -39.788834 50.728573 7367007
-172.38539 -39.802479 50.021545 6510930
-172.79022 -40.066856 49.35873 7235165
-171.46802 -38.697273 51.819134 7958888
-172.02103 -38.767471 51.083336 8617074
-172.64487 -38.847656 50.252754 7301214
-171.2513 -37.478939 52.802937 9735043
-171.65092 -37.825367 52.098118 8419696
-172.35281 -37.733059 51.270214 9472384
-171.01956 -36.559345 53.632824 7696229
-171.49916 -36.689777 52.953033 8353903
-172.05293 -36.755402 52.217945 9471871
-172.38872 -37.019882 51.641315 8617075
-170.65601 -35.47905 54.722572 9011576
-171.12843 -35.754673 53.966938 8156523
-171.82019 -35.833553 53.050434 8353903
-172.15587 -36.096188 52.474415 10853012
-170.42223 -34.564556 55.552227 9932166
-170.85547 -34.789074 54.875607 9011576
-171.48747 -34.947567 53.987743 8814197
-171.92238 -35.174789 53.30756 8617075
-170.18739 -33.652061 56.381916 8681835
-170.59729 -33.783157 55.789379 9603712
-171.23856 -33.817265 54.962662 9011832
-171.68796 -34.255581 54.140663 8682867
-169.96468 -32.447311 57.36726 10064009
-170.36557 -32.782501 56.666718 9866630
-170.92285 -32.749626 55.984856 10261387
-171.33455 -32.880634 55.390148 9406846
-169.59613 -31.378916 58.456379 12037793
-170.06956 -31.644947 57.70509 9472126
-170.76123 -31.71117 56.796146 9735043
-171.09785 -31.966427 56.22327 9735043
-169.36211 -30.485828 59.516777 9077624
-169.75656 -30.735376 58.738983 8090987
-170.3576 -30.833191 57.892799 8551282
-170.86023 -31.054022 57.056355 9735043
-169.15924 -29.432674 61.741287 9340026
-169.2617 -29.794853 60.535332 10458505
-169.82175 -29.882158 59.677071 12169379
-170.20552 -30.129858 58.89312 8090987
-162.27281 -28.518103 86.390465 10721676
-162.9193 -28.727453 85.897896 10129797
-165.14615 -28.936762 75.143303 10787726
-165.59541 -28.938997 74.147812 9406080
-166.03914 -28.941278 73.14978 8814457
-166.38954 -28.943016 72.349373 9932166
-166.82207 -28.945244 71.346413 10129545
-167.24875 -28.947466 70.341042 10853012
-167.50186 -28.948799 69.73661 9932678
-167.72728 -29.187597 65.370598 7959144
-168.1295 -29.2048 64.596466 7762277
-168.63095 -29.226887 63.626945 7301982
-169.13115 -29.249712 62.655334 10326922
-162.3981 -27.65675 86.689354 9669247
-163.05727 -27.98605 86.136269 10458505
-161.86975 -26.528574 87.509941 8288366
-162.5285 -26.854889 86.958321 8551281
-162.1535 -25.778189 87.661186 9012089
-161.62434 -24.591879 88.507568 9341054
-162.21529 -24.750334 88.071388 9143162
-161.34016 -23.330097 89.234779 8092019
-162.00012 -23.649368 88.685539 8879736
-161.47359 -22.587315 89.476082 9603973
-162.12222 -22.78376 88.987495 9077885
-161.15417 -21.511723 90.143867 10853012
-161.70493 -21.774538 89.687134 10392718
-162.25676 -22.038511 89.229294 9012350
-161.28694 -20.767303 90.38633 9603973
-161.82285 -20.877111 90.005547 9012350
-160.93454 -19.388981 91.206734 8156785
-161.40427 -19.869602 90.705246 8880506
-161.05396 -18.520929 91.511436 7893358
-161.71704 -18.830904 90.964348 9011321
-160.72807 -17.415962 92.196159 8287854
-161.23969 -17.78339 91.717979 9011577
-160.86266 -16.69762 92.42601 7564647
-161.52667 -17.004211 91.879776 7564643
-160.39182 -15.589147 93.286697 8814203
-161.01074 -15.888927 92.715675 8419701
-159.85353 -14.243165 95.303162 8617330
-160.48721 -14.411345 94.550285 9735301
-160.76244 -14.980931 93.604378 8288116
-157.04086 -13.527569 105.82911 7761512
-157.67018 -13.550013 105.42739 9208435
-158.12306 -13.884152 101.10993 10261132
-158.60834 -13.886034 100.34741 9208955
-159.20958 -13.888371 99.390846 8090730
-159.68681 -13.890218 98.623245 9143163
-156.72348 -12.591049 106.43813 7761512
-157.27475 -12.841011 105.9851 8090474
-157.82693 -13.091925 105.53111 8484973
-156.89798 -11.576603 106.77511 9800578
-157.52132 -11.804769 106.28677 8813936
-156.66176 -10.26917 107.49654 10261132
-156.96548 -10.626276 107.15061 9274237
-156.57462 -9.5223942 107.87887 8682613
-157.23848 -9.8189402 107.33531 9142649
-156.23289 -8.3959961 108.58646 9537918
-156.74736 -8.7574587 108.10735 9142649
-156.35526 -7.6517558 108.83723 10721934
-157.02023 -7.946043 108.29389 9142649
-156.01233 -6.5230932 109.54653 8551280
-156.52779 -6.8833313 109.06733 12037536
-156.13452 -5.7755299 109.79888 8354158
-156.8006 -6.067739 109.25571 7564643
-155.86816 -4.4100842 110.56458 9998727
-156.36148 -4.8394036 110.06883 8814452
-155.96768 -3.469707 110.91509 9274744
-155.64359 -2.5233662 111.53112 8945781
-156.27744 -2.5283079 111.13355 8813939
-155.6416 -1.6254127 111.92493 8091505
-155.37643 -0.5820508 112.64233 11973028
-155.97382 -0.86898303 112.04829 8092019
-155.15411 0.36946642 113.62279 14012095
-155.72267 0.082551315 113.00648 12433322
-151.85323 1.5695922 124.80709 8418928
-152.55136 1.5709596 124.4604 7826791
-154.68614 1.0440178 115.69981 10064520
-151.95326 2.3829567 125.09161 7826791
-152.54881 2.3037281 124.76278 7563619
-151.53473 3.5217142 125.76777 9340030
-152.15695 3.2807429 125.3594 8221549
-151.63531 4.3393822 126.05477 9801093
-152.23183 4.2625036 125.72671 9603458
-151.21672 5.4819441 126.73354 6511954
-151.83975 5.2425475 126.32539 8419956
-151.31725 6.304215 127.0225 7564651
-151.91451 6.2295375 126.69503 7564651
-150.89798 7.4509816 127.70335 8089962
-151.52174 7.2129598 127.29543 8090993
-151.12856 8.1976824 127.89657 8089962
-151.72681 8.1248875 127.56931 7564651
-151.32814 9.1452093 128.18788 7037274
-150.80925 10.181281 128.8726 8616306
-151.4082 10.110568 128.54591 7695204
-151.00896 11.135001 129.16643 9142651
-150.48941 12.175038 129.8532 8155756
-151.0891 12.106359 129.52692 8945015
-150.6893 13.135302 130.14958 8089963
-150.19206 14.18181 130.85835 10853012
-150.56104 13.938329 130.54424 8089963
-174.27509 -43.601467 45.430393 6510930
-174.86526 -43.683094 44.462177 8485494
-175.34595 -43.589813 43.611492 9406594
-175.67575 -43.629921 42.945827 8485494
-175.95303 -43.815243 42.266354 9406590
-179.25595 -44.030659 30.017975 10591121
-179.3632 -44.031891 29.370302 9341054
-179.53662 -44.033939 28.28997 9208956
-179.70404 -44.035976 27.208775 8550257
-179.83305 -44.037552 26.343054 10853012
-179.98833 -44.039604 25.259981 9077116
-180.13745 -44.041656 24.176098 8616823
-180.25185 -44.04327 23.308346 7564393
-180.36217 -44.04488 22.43996 8813942
-183.08351 -44.059719 15.646688 9866624
-183.15686 -44.061306 14.764798 10853262
-183.24234 -44.063255 13.661996 11050128
-183.32169 -44.065205 12.558694 7957861
-183.38011 -44.066826 11.675744 7234907
-183.42136 -44.068005 11.013375 6511954
-185.6947 -44.079182 5.9968462 7565159
-185.72163 -44.080738 5.1024942 8090987
-185.74898 -44.082668 3.9844978 9603710
-185.76999 -44.084595 2.8661582 8813936
-185.7794 -44.085743 2.1953094 8813936
-187.86638 -44.095146 -1.8509818 9932934
-187.85849 -44.096294 -2.5295556 8682867
-187.83984 -44.09819 -3.6602662 9735043
-187.81491 -44.100082 -4.7908964 8879479
-189.77049 -44.11031 -9.4163961 9471871
-189.72316 -44.111801 -10.330161 8287597
-189.65756 -44.113667 -11.471999 7959657
-191.49301 -44.123959 -16.217804 11050390
-191.39238 -44.125793 -17.37027 9076595
-191.32864 -44.126888 -18.061371 8681835
-193.12633 -44.136143 -22.226604 13549237
-193.01735 -44.137589 -23.156384 12431783
-193.30124 -43.962704 -23.662441 10393225
-173.90056 -42.786873 46.376369 9406334
-174.61913 -42.800079 45.462326 6642516
-175.1284 -42.901524 44.572514 8156786
-175.39787 -43.068604 43.922626 7038307
-173.67316 -41.846447 47.210842 8813941
-174.23949 -41.777573 46.539619 8682355
-174.72908 -41.849411 45.882622 6510930
-173.51352 -40.677402 48.093643 7366239
-174.01073 -40.837639 47.375553 7629411
-174.57857 -40.767033 46.703289 7498080
-173.10001 -39.50774 49.295815 7695974
-173.64839 -39.753284 48.463509 7235169
-174.34845 -39.827496 47.540688 7038307
-173.01585 -38.445801 50.021328 7564643
-173.35263 -38.714668 49.441349 9735298
-173.97897 -38.842236 48.579914 8945785
-172.78355 -37.517101 50.855087 7564643
-173.12048 -37.784069 50.276001 7564643
-173.6792 -37.854885 49.532753 10524814
-174.01736 -38.124031 48.950893 11905692
-172.81993 -36.802891 51.226154 9077369
-173.44601 -36.924278 50.368809 7564643
-173.7843 -37.19162 49.787861 10854036
-172.59569 -35.699211 52.153492 9603201
-173.10712 -35.887417 51.400078 8156524
-173.55028 -36.26162 50.624565 7564643
-171.96581 -34.285748 53.773411 8682867
-172.28233 -34.67831 53.145401 8156012
-172.90477 -34.781658 52.301868 8484721
-173.47871 -34.903225 51.508686 7564392
-171.73038 -33.367443 54.607174 10130825
-172.06764 -33.626431 54.031319 9209467
-172.62531 -33.686253 53.294651 11379095
-173.11098 -33.813835 52.609058 8089963
-171.76405 -32.657066 54.980774 9670018
-172.38919 -32.766068 54.130531 9538688
-172.8748 -32.891525 53.446136 12431781
-171.38921 -31.698168 56.013729 9011576
-172.01262 -31.833988 55.149902 9999239
-172.63773 -31.971254 54.28318 10328460
-170.83832 -30.615828 57.505802 7564643
-171.20731 -30.794899 56.866489 8946040
-171.81065 -30.706228 56.225742 8156524
-172.28058 -31.013124 55.325771 10327693
-170.04037 -29.294752 60.905155 10458249
-170.61894 -29.333649 59.956226 13419189
-170.80292 -29.546631 59.098721 12235173
-171.09288 -29.901573 58.114632 8551026
-171.70992 -30.045883 57.108326 9867142
-163.31274 -28.461678 85.769989 10458505
-163.82335 -28.674297 85.134712 8879733
-164.27298 -28.762966 84.166527 8353133
-164.56682 -28.922464 83.170082 7301475
-164.96547 -28.924244 82.376732 7039331
-165.26202 -28.925615 81.780495 9210241
-167.66942 -28.949688 69.333229 10854036
-168.00114 -28.951464 68.524864 8089963
-168.41092 -28.95368 67.512367 8419438
-168.73428 -28.95545 66.700569 9011318
-169.05371 -28.95722 65.887299 8682867
-169.44716 -28.959429 64.868492 6906456
-169.8349 -28.96163 63.847507 9603458
-170.14059 -28.96339 63.028873 9011063
-170.55605 -28.972246 62.017761 7563619
-163.60646 -27.695074 85.922173 9998211
-164.19449 -27.960194 85.225677 8024425
-163.13536 -26.634815 86.677544 9537918
-163.78473 -26.840977 86.181793 9143159
-162.78882 -25.2479 87.497993 7563619
-163.25787 -25.73851 86.992569 8616816
-163.89519 -25.790812 86.573906 9208435
-162.92528 -24.503689 87.738091 8155755
-163.57751 -24.705517 87.244911 8089960
-162.6068 -23.422432 88.407814 7563619
-163.16031 -23.69001 87.947258 7958377
-163.71498 -23.958839 87.485458 7563619
-162.74237 -22.676752 88.649033 8747891
-163.39561 -22.874712 88.156944 8155755
-162.86583 -21.807978 88.951508 9011578
-163.53227 -22.126564 88.398598 7563619
-162.47447 -20.627514 89.709801 8223347
-163.09702 -20.959961 89.178108 8354675
-161.97632 -19.299938 90.598564 8682867
-162.64241 -19.612619 90.048439 8025194
-162.32602 -18.593546 90.689674 8748404
-162.9935 -18.905346 90.139053 8288109
-161.7867 -17.472452 91.513893 8287854
-162.45386 -17.78163 90.964661 8025194
-161.91989 -16.721327 91.759033 9011321
-162.57523 -16.907148 91.270935 9011321
-161.80638 -15.431155 92.551636 8287854
-162.21431 -15.766352 92.061424 8419440
-161.20818 -14.295242 94.278938 8814203
-161.68036 -14.459654 93.686897 8486005
-161.90921 -14.91251 92.954231 8090993
-158.30162 -13.572762 105.02423 9339768
-158.93483 -13.595713 104.61989 10457481
-159.92384 -13.891159 98.238609 9143163
-160.27771 -13.892569 97.660316 8090730
-160.86269 -13.894919 96.693779 8814709
-161.44305 -13.897418 95.724419 8682867
-158.47847 -12.591339 105.34527 8484974
-159.09334 -13.136128 104.72314 9537659
-158.16621 -11.475834 106.02969 8616043
-158.80081 -11.495288 105.62606 8681835
-157.50351 -10.292095 106.96239 7563619
-158.16968 -10.59029 106.41656 8681835
-157.83929 -9.5543652 107.07735 8682097
-158.5067 -9.8521404 106.53102 10457990
-157.28604 -8.4195004 107.92046 9142649
-157.95326 -8.7154741 107.37495 7826791
-157.62178 -7.6777263 108.03719 9142649
-158.29033 -7.9732423 107.49113 7563619
-157.06705 -6.5415974 108.88173 7564643
-157.73541 -6.8353925 108.33648 10984850
-157.34169 -5.7239828 109.06983 8090987
-157.86008 -6.0853033 108.58836 9735043
-156.92499 -4.4231896 109.9007 8617331
-157.55157 -4.7342572 109.37366 8156780
-157.23784 -3.4825983 110.11713 9012087
-156.7011 -2.531672 110.86767 8419183
-157.2412 -2.614959 110.49429 8550768
-156.24219 -1.3444464 111.67296 8089963
-156.91287 -1.6326823 111.12856 8221548
-156.60371 -0.51467085 111.92912 8222577
-157.03554 -0.87314475 111.3841 7827819
-156.39035 0.43984187 112.91616 9143420
-156.78465 0.080739751 112.34263 8089963
-153.25143 1.5723226 124.11266 9931137
-153.71954 1.5732617 123.88017 11905692
-155.96698 1.0445619 114.91048 10130057
-153.24991 2.3063154 124.41508 9405819
-153.87508 2.063386 124.00419 11905692
-152.93512 3.5306461 125.07568 7893096
-153.28748 3.1646152 124.74976 8945527
-152.93396 4.2682161 125.38019 9867142
-153.56004 4.0269122 124.96972 9867142
-152.61882 5.4970765 126.04327 9867142
-152.97165 5.1308451 125.71693 9340798
-152.61739 6.2383752 126.34935 9472386
-153.24417 5.9986453 125.93916 9867142
-152.30168 7.4723153 127.01472 8617336
-152.77243 7.1818647 126.66114 9012093
-152.40427 8.3020868 127.30573 8222579
-153.00598 8.2294502 126.97688 9998985
-151.98383 9.4566612 127.99044 7037274
-152.61188 9.2195807 127.58068 8223090
-152.08644 10.291536 128.28348 7563619
-152.68884 10.221102 127.95519 8156012
-151.66542 11.451015 128.97054 8813942
-152.29416 11.215109 128.5609 8813942
-151.7681 12.291163 129.26569 9274493
-152.29274 11.968891 128.8723 11380380
-175.91335 -43.356949 42.704239 8485494
-176.28633 -43.584747 41.807495 9406590
-176.72751 -43.686218 40.87989 7959144
-177.12604 -43.737965 40.074512 10262156
-177.59549 -43.796928 39.058495 8353646
-177.74052 -44.015259 37.970684 8879990
-177.92143 -44.016987 37.114246 7037274
-178.09824 -44.018654 36.257008 7037274
-178.3131 -44.020733 35.184193 7827817
-178.52197 -44.022812 34.110233 8880503
-178.6843 -44.024471 33.250076 9537918
-178.88107 -44.026508 32.173832 9997955
-179.07182 -44.028603 31.09643 8156530
-179.18317 -44.029835 30.449509 10591121
-182.45131 -44.048477 21.808483 9471871
-182.57916 -44.050503 20.709702 7564135
-182.70088 -44.052521 19.61027 7038307
-182.7934 -44.054127 18.73019 9143678
-182.88159 -44.055725 17.849731 7828332
-182.98566 -44.057693 16.748459 9669762
-185.48314 -44.070946 10.689282 8813939
-185.52051 -44.072132 10.019296 8813939
-185.56679 -44.073704 9.1257105 8813939
-185.60873 -44.075275 8.2319918 9143167
-185.65485 -44.077232 7.1145678 8946044
-187.8685 -44.089382 1.5417107 8287341
-187.87428 -44.091309 0.41083989 9405823
-187.87383 -44.093235 -0.72016442 10064265
-187.87032 -44.094387 -1.3986427 12433069
-189.90161 -44.105026 -6.21667 7234397
-189.8607 -44.106918 -7.3596716 9405566
-189.81348 -44.108807 -8.5024023 10853012
-191.73846 -44.118759 -12.988086 8353391
-191.65726 -44.120625 -14.142066 8550513
-191.58713 -44.122105 -15.064834 7037274
-193.25369 -44.06493 -18.242779 8420470
-193.37305 -43.856186 -18.959229 8880507
-193.41794 -43.888924 -19.904369 9800838
-193.4149 -43.911743 -20.845703 7038298
-193.46359 -43.86105 -21.715435 11181460
-193.63687 -43.759518 -22.758438 13549749
-175.43613 -42.395329 44.380001 7038307
-175.71414 -42.578346 43.701176 9932937
-176.05173 -42.693832 42.960995 9932937
-176.54875 -42.754265 41.957836 8880246
-177.04713 -42.816303 40.952152 10459278
-177.38684 -42.935543 40.206856 6510930
-177.66672 -43.124081 39.521702 7761253
-193.6752 -43.18985 -19.931858 9537407
-193.80591 -42.989689 -20.889233 10589579
-193.85062 -43.023727 -21.838795 12365220
-193.895 -43.058704 -22.789734 13549749
-175.21889 -41.616467 45.372459 7432288
-175.57324 -41.733345 44.638336 9932937
-175.97073 -41.778664 43.83839 11380380
-176.36876 -41.824959 43.036625 9932937
-176.8672 -41.884342 42.031796 7564387
-177.28719 -42.163193 41.006416 8682867
-194.07504 -42.297466 -21.155544 8617328
-194.16988 -42.16964 -21.954922 9800576
-194.14229 -42.348473 -22.582901 11380121
-174.87617 -40.506367 46.481709 6511954
-175.33984 -40.79884 45.702431 7563616
-175.88861 -40.86499 44.716812 8353391
-176.28714 -40.909466 43.915485 9340286
-176.62642 -41.023636 43.173077 10590609
-176.9062 -41.207413 42.490238 7038307
-174.64552 -39.565964 47.320133 7038307
-174.98439 -39.839748 46.734669 8484717
-175.73474 -39.844463 45.738846 8353131
-176.14473 -40.064369 44.855656 8089963
-176.42479 -40.245762 44.174191 8089963
-174.41391 -38.628254 48.158306 7038307
-174.75301 -38.900112 47.573757 8617078
-175.39943 -38.760033 46.843391 9142390
-175.80644 -39.119137 46.122417 7564128
-174.54276 -37.73962 48.515141 7433064
-175.1666 -37.820469 47.68425 9406335
-175.59045 -37.876144 47.119305 9734270
-173.83072 -36.29549 50.252533 7564643
-174.14906 -36.695328 49.619144 7959405
-174.79877 -36.737286 48.778492 7367270
-175.35651 -36.937229 47.96109 7367269
-173.59592 -35.366676 51.089859 7564392
-173.93536 -35.631828 50.508343 7564392
-174.49821 -35.699001 49.762039 7433062
-174.98817 -35.83363 49.067867 7367269
-173.77434 -34.637146 51.292503 6511962
-174.26253 -34.768265 50.601635 6511962
-174.75227 -34.900581 49.908791 7104098
-173.53886 -33.711071 52.130898 8616306
-174.02698 -33.83997 51.441322 6774877
-174.51619 -33.969994 50.749672 6840926
-173.16946 -32.623512 53.232372 9734529
-173.65001 -32.898949 52.466488 9142649
-174.27983 -33.041813 51.590591 9734788
-172.93198 -31.702402 54.070343 9406846
-173.35329 -31.744904 53.515507 9931649
-173.90891 -31.951855 52.695309 8747375
-172.76219 -30.466702 55.273014 10787732
-173.18044 -30.835434 54.375111 11116697
-173.74101 -30.740158 53.70966 11313300
-171.80093 -29.418354 58.057663 9143163
-172.27351 -29.453268 57.294739 10262156
-172.57739 -29.690081 56.474667 10262156
-173.16106 -29.785044 55.606159 11445661
-173.63492 -30.0028 54.745918 10787732
-165.03957 -28.537132 83.408226 9341055
-165.60385 -28.550632 82.445671 9012092
-165.86229 -28.746004 81.332619 10919829
-166.13264 -28.810579 80.557793 14210249
-166.33075 -28.930639 79.584717 9998985
-166.80669 -28.932924 78.582054 9340540
-167.27702 -28.935198 77.576614 9011833
-167.64877 -28.937069 76.770256 8288110
-171.09215 -29.00231 61.049202 11905692
-171.56912 -29.035173 60.289574 9867140
-172.16473 -29.076984 59.337059 8288366
-164.53787 -27.633734 84.900963 7563619
-164.80475 -27.862429 84.286819 7564131
-165.33908 -27.829483 83.408028 10261130
-165.88382 -27.812391 82.500343 9931907
-166.31409 -28.121576 81.552773 9273979
-164.34807 -26.432081 85.972816 7760994
-164.71333 -26.743351 85.240715 7695972
-165.16641 -26.752327 84.469276 8156524
-165.65883 -26.890804 83.538742 9603457
-164.46884 -25.561901 86.269341 8484714
-165.07481 -25.630888 85.42524 8287595
-165.46683 -25.713121 84.704399 7564643
-164.20212 -24.602757 86.901817 8221543
-164.88397 -24.726864 86.333565 8089958
-165.17848 -24.959896 85.729576 7760994
-164.32878 -23.732101 87.203194 7563616
-164.99872 -24.05652 86.645401 8484714
-164.00548 -22.615049 87.891449 11181972
-164.5217 -22.994097 87.405418 8616819
-163.44008 -21.210175 88.855782 8814451
-164.12804 -21.712118 88.20948 11445399
-163.5766 -20.459955 89.098404 7959400
-164.23488 -20.654427 88.604729 8814451
-163.25404 -19.376589 89.771652 8682867
-163.92465 -19.69116 89.217796 7367007
-163.38997 -18.624537 90.015434 8551281
-164.04913 -18.815237 89.522781 8682867
-163.06589 -17.541496 90.689323 8682867
-163.62541 -17.800531 90.228798 7696229
-164.1861 -18.060719 89.76696 7564643
-163.20122 -16.787544 90.934319 8287853
-163.7458 -16.892155 90.550499 8354416
-162.91408 -15.596716 91.759529 7893356
-163.4864 -15.827685 91.228722 7893612
-162.75401 -14.46695 92.961563 9209469
-163.35382 -14.827433 92.134895 6709597
-159.35814 -13.611185 104.34954 9537659
-160.11916 -13.483512 103.93171 9274488
-162.34036 -13.927218 94.940208 9210491
-159.7224 -12.558365 104.58515 8814195
-159.942 -13.166175 104.18143 9537659
-159.22499 -11.508409 105.35619 8681835
-159.76537 -11.603203 104.97807 8288365
-158.7726 -10.326898 106.15678 8681835
-159.44247 -10.6265 105.60815 11839387
-158.8954 -9.5502291 106.4216 9865853
-159.55185 -9.7235117 105.93674 11049871
-158.55687 -8.4483023 107.11646 10787215
-159.22783 -8.7454462 106.56811 11576216
-158.67938 -7.6683621 107.38284 8616305
-159.33682 -7.8389807 106.89848 10129031
-158.33978 -6.5642996 108.07925 8287342
-159.01183 -6.8592234 107.53123 8287342
-158.46198 -5.781023 108.34727 9011320
-159.12042 -5.9490747 107.86345 8747893
-158.19966 -4.4391427 109.09884 8617331
-158.77904 -4.8409228 108.56171 8748148
-158.30193 -3.493495 109.44842 10261899
-158.86359 -3.7366757 108.99164 8617331
-157.86125 -2.4617853 110.17437 10656654
-158.52043 -2.6253693 109.69158 12827566
-157.51756 -1.3509443 110.87449 8813939
-158.07924 -1.5917232 110.41867 11248792
-158.64183 -1.8333545 109.96215 12433066
-157.71655 -0.55789304 111.20205 8814971
-158.33737 -0.71907777 110.69163 11379356
-157.50034 0.3989107 112.18671 8288626
-158.10428 0.23842508 111.66373 8354677
-154.18884 1.574199 123.64716 9340027
-154.89465 1.5756001 123.29658 8089963
-157.03995 1.0450752 114.2494 8879478
-157.68634 1.0454173 113.85119 11379863
-154.53357 2.3601627 123.79913 8550513
-153.87386 3.5368233 124.61176 10590091
-154.50217 3.2947633 124.19987 9603199
-154.21928 4.3281298 124.76629 9735298
-153.79431 5.5100727 125.46452 7893096
-154.24014 5.1851625 125.1091 10195852
-153.90414 6.3042855 125.73725 9867144
-153.71443 7.4941301 126.32182 9209726
-154.06943 7.1264181 125.99393 8880508
-153.71432 8.2416801 126.62995 9209726
-154.34555 8.0027914 126.21791 9143681
-153.39818 9.4847775 127.29929 9209726
-153.7536 9.1165895 126.97097 9209726
-153.29269 10.150496 127.62603 9933191
-152.924 10.978601 128.15045 11380380
-178.20584 -43.653805 38.069321 10722194
-178.60674 -43.709068 37.256588 12433069
-179.08981 -43.546555 36.457981 8813941
-179.53639 -43.656151 35.514698 7499624
-179.99646 -43.676559 34.616043 10524040
-180.31818 -43.955547 33.778782 8288624
-181.22578 -44.032478 30.348009 8089963
-181.33418 -44.033722 29.693243 13024949
-181.47517 -44.035378 28.819613 11709088
-181.64525 -44.037437 27.726654 9274229
-181.8092 -44.039497 26.632742 8681835
-181.93544 -44.041142 25.756891 8089963
-182.05746 -44.042778 24.880476 8550256
-182.20381 -44.044819 23.78404 8287083
-182.34404 -44.046852 22.68681 9997443
-185.09618 -44.061478 16.04348 7893349
-185.15277 -44.062679 15.374894 6906711
-185.24194 -44.064686 14.259995 8879474
-185.32486 -44.066681 13.14465 6510930
-185.38609 -44.068268 12.252049 10851980
-185.44305 -44.069862 11.359216 9208183
-187.79019 -44.082363 5.612298 8486006
-187.81526 -44.083931 4.70786 8486006
-187.84016 -44.085884 3.5772293 9011320
-187.85872 -44.08783 2.4463813 9471871
-189.98853 -44.098522 -2.3290627 9208435
-189.97879 -44.099682 -3.0151703 9143416
-189.95717 -44.101597 -4.1587095 9340030
-189.9292 -44.103508 -5.3020658 9076858
-191.91786 -44.113873 -9.9857588 9011576
-191.86765 -44.115379 -10.909881 9011576
-191.81313 -44.11689 -11.833716 10853012
-193.09668 -43.773182 -13.859103 8287342
-193.1676 -43.720985 -14.721564 9734787
-193.21379 -43.74934 -15.661227 9076601
-193.25963 -43.778667 -16.601978 8681843
-193.32912 -43.76709 -17.687088 8616819
-177.62733 -42.662186 39.961208 6510930
-178.00366 -42.893978 39.05666 9209212
-178.5298 -42.780392 38.136837 10524815
-178.93184 -42.834606 37.322739 11183002
-179.4162 -42.670959 36.522701 7892839
-179.73785 -42.946297 35.688168 8288624
-193.43518 -43.031193 -14.977218 10457995
-193.53079 -42.899548 -15.766406 9865859
-193.60161 -42.84845 -16.632767 9537151
-193.64746 -42.878139 -17.576412 8879734
-193.68275 -42.960175 -18.661449 8484976
-193.83551 -42.715389 -19.713329 9405821
-177.44734 -41.727375 41.042576 7827566
-177.84854 -41.777065 40.234165 7300702
-178.25037 -41.827831 39.423813 8551025
-178.77103 -41.764019 38.47567 7893354
-179.25729 -41.959225 37.388977 9012606
-193.85834 -42.149998 -16.655922 11313303
-193.9902 -41.946133 -17.608929 9011320
-194.0361 -41.976223 -18.555523 8353646
-194.08179 -42.007214 -19.503395 9603200
-194.12721 -42.039185 -20.452549 9406331
-194.25839 -41.838276 -21.412983 8617328
-176.94501 -40.530819 42.9491 10590609
-177.31107 -40.743664 42.07877 8024944
-177.76794 -40.85482 41.115021 9406340
-178.25072 -40.685188 40.323044 9011576
-178.59335 -40.80357 39.572937 9801605
-178.87572 -40.991619 38.88348 6510930
-194.25919 -41.253498 -17.870144 9011320
-194.35486 -41.122601 -18.666016 8156267
-194.42566 -41.072666 -19.539322 7959142
-194.47144 -41.103981 -20.490192 10260870
-194.48433 -41.211571 -21.359783 8091240
-176.42206 -39.491173 44.774426 8089963
-176.73499 -39.736286 43.979588 10327437
-177.09547 -39.776115 43.255066 10590609
-177.66579 -39.704323 42.217342 10261391
-178.16939 -39.762566 41.205746 11050650
-178.49239 -40.029114 40.376438 9011576
-194.69537 -40.378513 -19.804195 8617328
-194.78351 -40.242977 -20.445343 9669246
-176.22064 -38.594723 45.83717 8090216
-176.67886 -38.688736 44.913433 8089963
-177.08003 -38.731136 44.1087 10919574
-177.48206 -38.774471 43.302311 10590609
-177.89557 -38.933929 42.383663 7827566
-175.89027 -37.612217 46.89666 8747890
-176.47638 -37.76165 45.992702 7629666
-176.99579 -37.81601 44.992264 7827305
-177.33788 -37.926903 44.247013 10721683
-177.62059 -38.108044 43.561504 10853012
-175.65588 -36.672436 47.739498 7367269
-176.14862 -36.810978 47.039619 8090731
-176.79884 -36.890026 46.075039 6906201
-177.23376 -37.160591 45.051479 6710109
-175.42061 -35.735241 48.582031 7367269
-175.91327 -35.871403 47.88364 7367269
-176.48259 -35.942177 47.127098 7761766
-176.82692 -36.213623 46.53616 7169373
-175.05049 -34.633915 49.689747 7367269
-175.61127 -34.829227 48.871246 8354164
-176.26759 -34.868637 48.023716 9538180
-176.5905 -35.272095 47.382557 8419696
-174.81404 -33.702499 50.531601 7564392
-175.23882 -33.750267 49.969353 8024686
-175.86803 -33.822083 49.13644 9866887
-174.59238 -32.474232 51.52961 8748152
-175.00186 -32.819344 50.812428 7104099
-175.65221 -32.664219 50.085052 8287859
-175.99623 -32.928982 49.497185 8287341
-174.35435 -31.547577 52.371563 8615274
-174.84613 -31.673531 51.679146 8287859
-175.41397 -31.733044 50.929943 7038307
-175.75821 -31.996054 50.342957 10853012
-174.13484 -30.486481 53.524822 9141875
-174.53281 -30.744349 52.728905 8615274
-175.22983 -30.813431 51.790882 7301479
-175.5193 -31.065229 51.188499 8287859
-173.67877 -29.569948 55.219124 10787732
-174.02914 -29.747454 54.562874 11511454
-174.47867 -29.8619 53.859219 9931647
-175.01622 -30.022104 52.988686 8352102
-166.73283 -28.580442 80.517807 14604230
-167.18469 -28.593536 79.745384 9537662
-167.74973 -28.610676 78.779007 9274747
-168.20192 -28.625137 78.00499 11906725
-168.54121 -28.636385 77.423927 11906725
-168.0166 -28.938835 75.962128 7301475
-168.47079 -28.941111 74.949303 8222577
-168.91919 -28.943377 73.933861 8946042
-169.27341 -28.945189 73.119659 9142907
-169.71045 -28.947483 72.099342 9142907
-170.14178 -28.949711 71.076576 8090986
-170.39754 -28.951166 70.461723 6511954
-172.75995 -29.119507 58.381382 9143163
-173.2357 -29.15419 57.614178 9867142
-173.82997 -29.198193 56.652035 10327437
-174.3051 -29.23398 55.880108 10787732
-166.26657 -27.22489 82.27372 9931907
-166.53316 -27.455532 81.65873 8945015
-166.98219 -27.627342 80.777687 9405820
-167.48853 -27.761688 79.826576 9537662
-167.99255 -27.810303 78.940681 9866884
-168.23659 -28.177284 78.266365 11906725
-165.99158 -26.322119 83.383179 10721424
-166.37221 -26.554981 82.573967 9931907
-166.82579 -26.565968 81.800179 8681843
-167.39288 -26.580517 80.832054 9208698
-167.77299 -26.815536 80.022156 9537662
-165.82874 -25.421257 84.301857 8879991
-166.12753 -25.696804 83.600334 10261132
-166.66455 -25.663815 82.717049 10524043
-167.11903 -25.674458 81.941994 8747891
-167.49995 -25.908916 81.131096 8682355
-165.42674 -24.664915 85.521095 8419438
-165.93346 -24.749372 84.60511 8748405
-166.50232 -24.760878 83.636208 9932678
-166.89513 -24.844391 82.913177 8682353
-167.22549 -25.001997 82.242546 9339769
-165.26151 -23.762812 86.444672 9209211
-165.73811 -23.80097 85.612541 8485747
-166.25604 -23.900541 84.666771 8682867
-166.73257 -23.939962 83.833885 9275004
-165.04788 -22.385021 87.34449 8420211
-165.63216 -22.653023 86.611679 8880763
-166.0918 -22.854076 85.691841 9735813
-166.44412 -23.182796 84.861992 8682867
-164.72595 -21.296049 88.019691 11182484
-165.28769 -21.562794 87.554359 9472640
-165.86389 -21.667383 86.924599 7039331
-164.86479 -20.542936 88.262154 8814451
-165.52782 -20.738882 87.764847 8683124
-164.54132 -19.454659 88.938011 6511954
-165.10391 -19.718306 88.473534 8814451
-165.66771 -19.983101 88.00779 8814451
-164.67947 -18.699743 89.181679 9209468
-165.34338 -18.891926 88.685448 10130569
-164.35469 -17.61207 89.858147 7039331
-164.91805 -17.872564 89.394554 9407362
-164.40819 -16.632059 90.252602 8880762
-165.0407 -16.960585 89.716347 9209726
-164.29283 -15.322212 91.10778 10524814
-164.68288 -15.679834 90.548592 10262155
-163.74326 -14.395029 92.353638 6709597
-164.39456 -14.761206 91.551399 9472128
-160.71385 -13.427469 103.58607 9537663
-161.35518 -13.450966 103.17641 9077370
-163.31995 -13.96423 94.198769 12960952
-163.90933 -13.9868 93.751747 14211277
-160.82236 -12.495619 103.92783 8814195
-161.38351 -12.749331 103.467 9340286
-160.38731 -11.466579 104.65078 8551280
-161.04662 -11.643605 104.16249 8551280
-160.04962 -10.36262 105.34597 8681835
-160.61087 -10.61318 104.88648 8419695
-161.17296 -10.86474 104.42598 10064265
-160.17453 -9.583353 105.61058 9274230
-160.83485 -9.7575121 105.12287 8813942
-159.83574 -8.477623 106.30726 8813939
-160.39789 -8.7262077 105.84806 8813939
-160.96085 -8.975646 105.38794 8813939
-159.9603 -7.6952524 106.57339 8813939
-160.62163 -7.8666468 106.08633 8813939
-159.62039 -6.5875196 107.27166 8287342
-160.18343 -6.8340549 106.8128 7761509
-160.74733 -7.0815434 106.35293 8813939
-159.80098 -5.5499735 107.61405 8089963
-160.40645 -5.9704747 107.05254 8419183
-159.36546 -4.3749895 108.39953 9011065
-160.0275 -4.5417161 107.91357 9273980
-159.0224 -3.2635832 109.09949 10854036
-159.58626 -3.5068185 108.64126 10656145
-160.151 -3.7509072 108.18224 9405822
-159.14462 -2.4718375 109.3693 14275010
-159.80759 -2.6359971 108.88383 9143164
-158.8006 -1.3575604 110.07104 9735558
-159.36537 -1.5990965 109.61301 13090995
-159.93105 -1.8414855 109.15416 9735558
-159.00212 -0.56204653 110.39788 9801351
-159.62654 -0.72377306 109.8851 8814714
-158.787 0.39769059 111.38337 8354677
-159.39409 0.23673034 110.85795 9538180
-155.6028 1.5769973 122.94507 8814715
-156.07652 1.5780256 122.71015 8814715
-158.33493 1.0457549 113.45184 13024941
-155.60413 2.3151884 123.2487 7564135
-156.23126 2.0708444 122.83065 8814715
-155.21078 3.299062 123.84958 8089963
-155.8163 3.2203801 123.51627 7367013
-155.41747 4.2393484 124.13436 9735047
-154.89687 5.2745943 124.81963 11577250
-155.50308 5.1983118 124.48701 11182236
-155.21463 6.2717104 125.07272 9077888
-154.66159 7.5089965 125.85744 7564651
-155.18915 7.1846528 125.4616 8617337
-154.66212 8.2580204 126.16578 10788247
-180.28078 -43.486656 34.22047 8288624
-180.56296 -43.682808 33.52425 7432545
-180.88724 -43.807148 32.759243 7037274
-181.17953 -43.841587 31.911892 9668991
-181.58861 -43.851833 30.947792 8550513
-182.31235 -43.796349 30.078535 9734787
-184.47597 -44.05051 22.050718 9931390
