# .PCD v0.7 - Point Cloud Data file format
VERSION 0.7
FIELDS x y z rgb
SIZE 4 4 4 4
TYPE F F F U
COUNT 1 1 1 1
WIDTH 1199
HEIGHT 1
VIEWPOINT 0 0 0 1 0 0 0
POINTS 1199
DATA ascii
-71.992622 -35.550541 120.1634 9537664
-72.870964 -35.622196 119.74242 9274238
-73.469345 -35.940033 119.34791 9011323
-70.437431 -34.36517 121.28523 7827558
-71.327477 -34.479137 120.88953 6840919
-72.238914 -34.668388 120.40665 9142906
-69.853432 -33.157265 121.84554 9341053
-70.696724 -33.501034 121.5237 8288109
-71.635216 -33.61747 121.09712 6511954
-69.954147 -32.435921 122.09364 8288365
-70.763863 -32.683849 121.84073 7959400
-69.190887 -31.611355 122.53249 8880247
-70.058449 -31.576982 122.39181 8485744
-68.436073 -30.465189 123.18214 7958635
-69.294937 -30.651995 122.91006 8879995
-69.942848 -30.86117 122.67616 9472128
-67.02227 -29.235952 124.41414 8617080
-67.724403 -29.482132 124.0451 7892843
-68.54612 -29.678469 123.74468 8682616
-69.174866 -29.998079 123.38786 9735046
-57.676868 -28.417233 133.86586 9734789
-58.588867 -28.541655 133.6586 9011320
-59.730896 -28.721172 131.36417 9208443
-60.36224 -28.722399 131.07463 9208443
-61.306946 -28.724243 130.63498 9406078
-62.091755 -28.725782 130.26358 10458507
-64.069817 -28.731972 127.24397 8814203
-64.834167 -28.7335 126.85567 9800841
-65.748123 -28.735334 126.38385 10458512
-66.258667 -28.894594 125.63815 10458511
-67.198677 -29.012066 125.10007 8090737
-56.92115 -27.415802 134.36867 9537408
-57.775089 -27.647038 134.13234 9208701
-56.217178 -26.363348 134.88112 12169896
-56.99926 -26.482315 134.69885 11182745
-57.790264 -26.749245 134.46054 9340029
-55.434658 -25.015692 135.51625 11381404
-56.141895 -25.349699 135.26805 12301994
-57.018219 -25.544561 135.04114 10919573
-55.399952 -24.427731 135.73911 9867909
-56.315525 -24.544605 135.53404 9275261
-54.798367 -23.231974 136.28627 9143931
-55.563873 -23.610586 136.01129 9143931
-56.428982 -23.876249 135.76031 8090987
-54.059544 -22.148876 136.81625 9142651
-54.770191 -22.480358 136.5683 8616563
-55.649788 -22.67095 136.34241 9473152
-54.024517 -21.369398 137.10976 8484721
-54.867599 -21.465504 136.9252 8813686
-55.529423 -21.840647 136.66985 9734788
-53.260281 -20.177862 137.68427 9142907
-54.08123 -20.345743 137.4771 8418928
-54.788162 -20.753538 137.20168 8879479
-53.356174 -19.469929 137.92822 9143162
-54.246948 -19.493641 137.76187 8089962
-52.630173 -18.49044 138.41772 6775126
-53.476234 -18.582649 138.23405 8222316
-54.141663 -18.956396 137.97858 8090730
-51.881973 -17.117357 139.05627 5919050
-52.548714 -17.489544 138.80113 9997958
-53.396439 -17.580816 138.61752 8748404
-51.866787 -16.321827 139.35226 7169115
-52.734573 -16.53944 139.11852 10063748
-51.145832 -15.408193 139.8945 9866367
-52.108742 -15.514149 139.65536 8089958
-52.785576 -15.703251 139.41768 8813680
-50.430733 -14.464104 140.7403 10327949
-51.234562 -14.726882 140.39517 8945780
-51.884083 -14.987422 140.07901 8813680
-40.311935 -13.447872 150.5817 9472386
-41.185623 -13.545557 150.39096 8024942
-46.80341 -13.688345 144.20979 6248015
-47.843452 -13.690217 143.86783 7103068
-48.95327 -13.944576 142.05066 7563619
-49.844082 -13.956451 141.85861 8156011
-39.662357 -12.472796 151.05624 10919573
-40.553566 -12.58807 150.8559 10919057
-38.940281 -11.102483 151.68906 8617076
-39.699963 -11.439598 151.43036 8222316
-40.383972 -11.587061 151.25491 9406331
-38.273735 -10.243517 152.12354 10261391
-39.001511 -10.438334 151.9229 8419700
-39.865204 -10.507622 151.74446 7038298
-38.200214 -9.4048929 152.4455 10261391
-39.038162 -9.5339222 152.24962 8880249
-37.511211 -8.3310385 152.9631 9340543
-38.31982 -8.553998 152.73784 9998218
-39.159626 -8.7228374 152.52695 8419952
-37.442692 -7.5154552 153.27576 7695716
-38.379147 -7.6960773 153.0434 9143676
-36.815899 -6.2773113 153.84286 7168860
-37.672394 -6.5059152 153.60699 8156524
-36.07333 -5.4370551 154.28391 11708572
-36.825466 -5.4397497 154.14978 8814196
-37.577988 -5.4425621 154.01552 7564643
-35.433834 -4.0763535 154.89848 13023917
-36.11224 -4.4185882 154.65228 11511449
-36.895626 -4.6252236 154.43747 9866883
-35.361668 -3.426369 155.15071 10853777
-36.23735 -3.4938421 154.97083 10459019
-34.70647 -2.2512252 155.72308 5919050
-35.437344 -2.5138609 155.47498 8419438
-36.171772 -2.7769573 155.24657 10459019
-34.516403 -1.5306792 156.04352 6313808
-35.454594 -1.5322434 155.83212 7169117
-33.166054 -0.14686745 157.08447 12432037
-33.872429 -0.43061173 156.69684 9011063
-34.751423 -0.65786183 156.33406 7695461
-35.313293 -0.94097036 156.07492 8419184
-32.355278 0.65078932 157.93352 9537660
-33.261665 0.44966021 157.53268 10458505
-34.125191 0.38160589 157.24873 8485229
-31.203354 1.0577022 159.11311 8288619
-31.958675 1.0561264 158.91013 6117964
-32.713585 1.0544847 158.70737 6511954
-136.53337 -62.426392 58.597961 7038307
-137.34511 -62.57658 58.034447 7038307
-137.9854 -62.804459 57.458794 8089962
-138.41113 -62.59465 56.919937 8616563
-135.16278 -61.264725 59.945396 9866371
-135.87646 -61.55027 59.383007 9866630
-136.66933 -61.657417 58.849712 9537922
-137.34111 -61.753895 58.395439 8748408
-138.25761 -61.657242 57.765232 7893608
-138.83066 -61.730034 56.830368 9406590
-139.35135 -61.657463 56.001213 9275005
-134.00516 -60.216179 61.371624 9735812
-134.39844 -60.530289 60.848721 9932421
-135.29631 -60.584 60.263054 9274235
-136.02478 -60.699612 59.739124 8089963
-136.83478 -60.788773 59.170231 10064008
-137.73354 -60.930595 58.521515 7038298
-138.53127 -60.913692 57.878151 7037786
-139.09167 -60.793194 57.131077 8814198
-139.68678 -60.627476 56.34589 8748404
-140.16945 -60.677921 55.464115 7433318
-140.7999 -60.516865 54.588833 7894382
-129.23639 -59.223286 65.712715 7959144
-130.96233 -59.235649 64.617279 7432804
-131.64513 -59.42448 63.678455 7695979
-132.40596 -59.507874 63.163673 6840924
-133.15541 -59.614769 62.490807 7104092
-133.80801 -59.801933 61.865997 6511954
-134.70171 -59.824162 61.29723 8222317
-135.46968 -60.003319 60.665241 9866371
-136.21922 -59.993492 60.214756 8089963
-140.26399 -60.015064 56.234127 8089963
-140.63487 -59.934422 55.728401 7367525
-141.19589 -59.800732 54.985493 7697003
-141.72787 -59.813766 54.065731 10393228
-142.51239 -59.524784 53.467888 11116178
-143.07166 -59.427364 52.691174 9010806
-143.66924 -59.362358 51.852997 7563619
-144.9502 -59.228298 50.54636 8616301
-109.28595 -58.393272 85.067528 11576729
-110.03062 -58.470264 84.6586 8946039
-111.02932 -58.576145 84.097069 7959149
-111.66582 -58.758266 83.461166 8617337
-112.16753 -58.850693 82.497124 11183004
-112.75986 -58.852444 81.684425 11972002
-114.03598 -58.854408 81.56601 10525067
-114.52419 -58.855877 80.877747 13288370
-115.20072 -58.857922 79.909218 8090729
-115.86948 -58.859959 78.93528 8156267
-116.43598 -58.861706 78.095955 8551026
-117.62585 -58.863438 78.074623 9143417
-118.18609 -58.865185 77.222618 7564643
-118.74015 -58.866932 76.366562 9472127
-119.28806 -58.868671 75.506584 9406594
-120.16041 -58.870434 75.04847 10196106
-121.03056 -58.872196 74.583374 12827565
-121.56554 -58.87394 73.706886 7827306
-122.09415 -58.875671 72.826538 7169634
-123.19316 -58.877857 72.279343 8814970
-124.00043 -58.879822 71.554787 8355190
-124.51347 -58.881557 70.656891 9736585
-124.93615 -58.882996 69.905952 7762021
-126.2423 -58.885159 69.641579 8222572
-126.74148 -58.886894 68.727608 9406589
-127.36183 -58.947693 67.878136 9406077
-128.2487 -58.961651 67.362289 9603199
-128.80908 -59.035347 66.670349 9669248
-129.67165 -59.039379 66.129967 6511954
-130.25844 -59.127686 65.444115 6511954
-132.11313 -59.159325 64.198486 8353651
-144.17921 -59.162891 52.232487 9010806
-144.79045 -59.152744 51.273773 8616816
-145.54242 -59.033089 50.75201 8616301
-146.1902 -59.040413 49.796265 12169893
-146.98538 -58.937531 49.278084 8486775
-147.29349 -58.944653 48.396919 10460049
-148.6185 -58.941246 48.040035 11380377
-148.90431 -58.94265 47.144295 12827565
-149.12952 -58.943768 46.426655 15722454
-150.47939 -58.946121 46.052544 9274749
-150.75359 -58.947521 45.145763 9340286
-152.16985 -58.950188 44.572868 11709345
-152.48734 -58.951866 43.47229 7762027
-153.86215 -58.954292 43.063545 10591630
-154.06706 -58.95541 42.321915 8814453
-154.26895 -58.956528 41.579437 9208443
-155.65453 -58.958992 41.149254 7366239
-155.89919 -58.960381 40.211452 7039331
-157.29793 -58.962883 39.76466 9735812
-157.53383 -58.964275 38.816956 9735812
-159.12831 -58.96793 37.587288 7826790
-159.30742 -58.969032 36.820522 9537408
-160.7744 -58.971893 36.140881 10261899
-160.94627 -58.973 35.366108 8617331
-162.42503 -58.975899 34.666901 8088931
-162.58943 -58.977005 33.884163 8747119
-164.04041 -58.979664 33.36245 11182742
-164.19844 -58.980774 32.571892 9472897
-164.35347 -58.981873 31.780767 7039331
-165.74034 -58.984028 31.634581 9144190
-107.82464 -57.163818 86.315445 9406078
-108.47327 -57.519894 85.839912 9011576
-109.30116 -57.668442 85.359352 10984850
-110.31111 -57.609612 84.872177 8748660
-111.03813 -57.926441 84.373131 8814453
-107.11565 -56.320618 87.022964 10129545
-107.81811 -56.501179 86.592659 9011576
-108.66272 -56.587902 86.129143 8616821
-109.57171 -56.70285 85.621338 7893354
-110.37869 -56.892746 85.134293 8485488
-106.45937 -55.31369 87.771423 9734788
-107.02233 -55.586487 87.373581 10524302
-107.92482 -55.693562 86.87233 9669251
-108.91578 -55.650402 86.388382 7959150
-109.50575 -56.011051 85.940613 7564392
-105.54478 -54.362377 88.627632 11905694
-106.2858 -54.704182 88.111115 9997959
-107.34395 -54.563492 87.633438 10590093
-108.19981 -54.807808 87.099121 9537664
-104.90556 -53.462391 89.323196 12103073
-105.70396 -53.586308 88.867722 9340796
-106.62905 -53.732262 88.338966 9471616
-107.50751 -53.783661 87.872864 9801089
-103.55279 -52.195126 90.517006 9932678
-104.14404 -52.537815 90.090889 10326921
-105.02502 -52.652988 89.597191 11116435
-105.96667 -52.60424 89.140503 11445400
-106.66972 -52.905861 88.659836 10130056
-102.80767 -51.37281 91.182114 9932678
-103.46867 -51.519932 90.826675 9208699
-104.37859 -51.613579 90.353996 8221804
-105.21323 -51.736382 89.88063 8682867
-105.91862 -51.841667 89.479958 8814201
-102.00549 -50.197842 92.014824 8616307
-102.7474 -50.616497 91.513802 9998215
-103.71644 -50.573875 91.096779 8616562
-104.54928 -50.69706 90.646347 7037274
-105.19973 -51.026356 90.180885 8090987
-101.41691 -49.412048 92.595108 10260358
-102.04881 -49.504128 92.274872 10984595
-103.00034 -49.644627 91.791977 11379609
-103.71694 -49.751892 91.427689 10656401
-100.63081 -48.371262 93.366493 10984849
-101.3006 -48.69762 92.93499 10852753
-102.3777 -48.5457 92.513596 11839902
-103.14959 -48.876736 92.034439 11708316
-99.948235 -47.352119 94.08284 8551281
-100.65042 -47.562946 93.683342 9603711
-101.59884 -47.693577 93.205803 10327177
-102.31298 -47.793358 92.845627 11839902
-99.109009 -46.405792 94.840057 11642523
-99.933174 -46.657276 94.369469 8288366
-100.94532 -46.560505 93.955032 8288624
-101.61904 -46.88324 93.523193 8748917
-97.763489 -45.16692 96.176888 9800581
-98.447418 -45.471138 95.625465 10326923
-99.282364 -45.662937 95.118355 10787473
-100.12225 -45.765343 94.676117 9275262
-100.82475 -45.850105 94.295227 8091246
-95.839798 -44.120781 98.456795 9537662
-96.436119 -44.253246 97.790352 8550513
-97.162605 -44.451469 97.149567 8879222
-97.982361 -44.568226 96.622398 9273980
-98.790054 -44.809269 96.022087 11379352
-99.617569 -45.061306 95.43763 13023917
-79.88356 -43.505322 113.45367 9143166
-80.618973 -43.434822 113.14231 9142907
-81.508873 -43.476631 112.66097 9077113
-82.166283 -43.715775 112.00236 8485488
-82.972397 -43.776848 111.26559 12432037
-83.773323 -43.778664 110.66308 7893869
-84.569893 -43.780483 110.05482 8618105
-85.671455 -43.784695 107.68448 10458505
-86.188477 -43.7859 107.27036 11050384
-86.960426 -43.787701 106.64469 9142907
-87.727852 -43.789505 106.01353 8484719
-88.490738 -43.791302 105.37681 11379349
-89.248993 -43.793102 104.7346 10458249
-90.002571 -43.794903 104.0869 10327949
-90.751503 -43.796703 103.43383 10920086
-91.495621 -43.798496 102.77536 9735812
-92.235031 -43.800297 102.11153 10786699
-92.969582 -43.802097 101.44238 8879220
-93.699333 -43.803894 100.76788 9011065
-94.342514 -43.895016 99.905731 9537662
-95.078415 -43.964031 99.334946 11707547
-95.635117 -44.001831 98.958488 12431013
-79.054245 -42.545708 114.20835 9604737
-79.848969 -42.706413 113.78903 8419442
-80.797646 -42.465191 113.46192 9801093
-81.387924 -42.801785 113.06357 11380380
-78.347885 -41.483448 114.9492 9999494
-79.143738 -41.64127 114.53053 8947063
-80.067352 -41.694553 114.09666 7958889
-80.684128 -41.731243 113.80655 8089963
-76.967491 -40.163769 116.09421 10657166
-77.576134 -40.437363 115.71277 11972256
-78.435051 -40.579414 115.27228 10130823
-79.311966 -40.669621 114.84447 8814710
-80.031395 -40.895077 114.43284 8748917
-76.252678 -39.109818 116.83546 10657166
-76.846092 -39.435223 116.44014 12629928
-77.722824 -39.520584 116.01437 10459788
-78.600838 -39.607864 115.58729 9143675
-79.194511 -39.937767 115.18999 9012089
-75.534325 -38.058464 117.57737 11906725
-76.129211 -38.381908 117.18207 11051673
-77.007126 -38.464508 116.75693 11117460
-77.8862 -38.548962 116.33045 8946551
-78.481377 -38.87682 115.9334 9406590
-75.396347 -37.50901 117.85895 10328208
-76.356628 -37.379959 117.48169 9670536
-77.264198 -37.649307 116.96856 10262156
-74.02037 -36.299652 118.95786 8092011
-74.688721 -36.589355 118.54327 8354930
-75.651962 -36.703571 118.06731 8815484
-76.551231 -36.627857 117.696 8881277
-73.446404 -35.260235 119.63038 8880503
-74.057549 -35.583973 119.22777 8815478
-75.012718 -35.691525 118.75809 8157805
-75.884689 -35.805336 118.32306 8881276
-72.744362 -34.330883 120.31606 9800837
-73.423103 -34.579884 119.91318 9407104
-74.352531 -34.612263 119.48514 13222841
-75.157295 -34.755196 119.06847 9539201
-72.009041 -33.288792 121.06173 8551025
-72.689392 -33.536148 120.65885 8025710
-73.620186 -33.56604 120.23117 9012606
-74.424583 -33.848766 119.75868 16051428
-71.144058 -32.357296 121.81801 7959400
-71.951988 -32.49374 121.40562 9209211
-72.884178 -32.521229 120.97826 8683898
-73.566254 -32.769573 120.5742 8092019
-70.579422 -31.248972 122.42059 7762021
-71.210098 -31.452074 122.15237 8683123
-72.144485 -31.477633 121.72652 9275004
-72.828148 -31.724451 121.32235 9012606
-69.86866 -30.042648 123.23116 10853012
-70.58474 -30.339212 122.88103 8025195
-71.387436 -30.612425 122.45336 9604225
-72.117172 -30.794977 122.01244 9735555
-68.363861 -29.062548 124.73734 8617075
-69.291687 -29.167917 124.29272 9143167
-69.841995 -29.612982 123.56633 9800839
-70.690598 -29.774656 123.29221 8617080
-59.078323 -28.446915 133.6069 8156267
-59.90361 -28.466459 133.44185 7169628
-60.672272 -28.720699 133.00786 9340285
-62.561508 -28.726706 130.03851 10458507
-63.186485 -28.72794 129.73532 9471872
-64.121498 -28.729792 129.27533 9011579
-65.052971 -28.731647 128.80861 8090737
-66.874542 -28.764988 125.94614 9735046
-67.710571 -28.800255 125.68876 7367013
-68.547539 -28.836262 125.42907 7761766
-58.310757 -27.240398 134.18747 9011320
-58.966766 -27.620981 133.93111 9406078
-59.765572 -27.656792 133.77655 9274493
-58.286709 -26.384153 134.50726 9273980
-59.195766 -26.705976 134.22781 9274493
-57.6105 -25.238476 135.04915 9931910
-58.444462 -25.561714 134.78247 8747893
-59.23381 -25.868944 134.52954 8089963
-56.978573 -24.190475 135.54723 9011323
-57.664246 -24.392611 135.35141 9997703
-58.452675 -24.511059 135.16824 8287342
-56.80175 -23.441578 135.85455 8287857
-57.717812 -23.545092 135.6543 8484979
-56.055847 -22.330206 136.39618 9867398
-56.988045 -22.565384 136.14459 8090479
-57.694027 -22.976944 135.86795 8353650
-55.62952 -21.133917 136.91269 8681843
-56.221516 -21.507538 136.67015 8550772
-57.083908 -21.624065 136.47462 9011323
-55.423584 -20.37216 137.22987 9668738
-56.335632 -20.494652 137.02338 8945016
-54.782383 -19.508219 137.66179 8353135
-55.559513 -19.453342 137.54454 9405566
-56.213848 -19.54842 137.39371 9537152
-54.678318 -18.534077 138.03931 8550769
-55.469246 -18.70586 137.83604 8681843
-54.054638 -17.405655 138.56567 9274492
-54.923958 -17.625906 138.33066 9076857
-53.329411 -16.343275 139.08559 9471870
-54.124863 -16.450819 138.90521 7301214
-54.819008 -16.646503 138.71025 7235421
-52.780308 -15.004348 139.90802 8089958
-53.330475 -15.363972 139.54912 7695719
-54.081314 -15.554383 139.28433 6643542
-51.920876 -14.407183 140.52151 8813680
-52.672218 -14.553734 140.2756 8550768
-53.415211 -14.667745 140.05637 8090736
-41.867184 -13.487882 150.27328 6511962
-42.70137 -13.529118 150.05005 6511962
-43.467857 -13.677434 149.72821 7039331
-48.880928 -13.692093 143.51842 6379345
-49.915848 -13.693974 143.16145 5722439
-50.580826 -13.830721 142.3119 7827814
-51.271301 -13.97631 141.54834 7367263
-51.985901 -13.986609 141.39185 9209467
-41.054775 -12.349567 150.85507 8617072
-41.779869 -12.544971 150.6546 8485491
-42.607342 -12.647249 150.47034 6511962
-40.43837 -11.018566 151.45477 7038298
-41.105095 -11.355731 151.21248 9011573
-41.877399 -11.561317 150.99995 7695972
-40.374496 -10.384436 151.69966 7038298
-41.23946 -10.454275 151.52081 8090728
-39.685207 -9.1085043 152.29181 8880503
-40.397186 -9.4949551 152.02338 8354158
-41.182827 -9.7549953 151.78848 7038298
-39.630032 -8.4957724 152.5273 8748917
-40.488056 -8.5392551 152.35941 9538433
-38.916958 -7.282402 153.10062 9077882
-39.683372 -7.6228418 152.83949 8946296
-40.373379 -7.7709284 152.66277 9341054
-38.26165 -6.2190962 153.60837 8419952
-38.99617 -6.4153471 153.40602 8288366
-39.849777 -6.6769247 153.15848 9012089
-38.142689 -5.4447594 153.91473 7762022
-39.005508 -5.4870596 153.74637 8748917
-37.519081 -4.3940663 154.41223 9800837
-38.366341 -4.5234218 154.21455 9801605
-39.137543 -4.8667202 153.95152 9341054
-37.3708 -3.4971426 154.76895 10787988
-38.24715 -3.5649669 154.58881 11050904
-36.811333 -2.4612238 155.24965 9669763
-37.721558 -2.5756559 155.04637 9801349
-36.023342 -1.5334717 155.73091 7367268
-36.782154 -1.5350938 155.59602 8880760
-37.524212 -1.7337027 155.39151 9209467
-35.223351 -0.15031701 156.5463 8419184
-36.117577 -0.54729533 156.13072 7236196
-36.970451 -0.81252128 155.82892 8091760
-34.646645 0.51351988 157.21463 6314319
-35.515541 0.4455547 156.95793 6511958
-36.243771 0.24515662 156.67009 5919050
-33.090847 1.0537308 158.60605 6511954
-33.845116 1.052157 158.40359 6511954
-34.599064 1.0506173 158.20126 6511954
-137.30591 -60.251698 59.317093 13550517
-137.9301 -60.401806 58.799896 7235677
-138.76979 -60.400398 58.17321 7630434
-139.32806 -60.277569 57.423168 8089963
-134.45293 -59.272263 62.359158 7169884
-135.27608 -59.318451 61.68832 7169884
-135.96538 -59.399628 61.08215 9800578
-136.6539 -59.651703 60.288166 10129542
-137.33961 -59.776417 59.723267 9800833
-138.3219 -59.741508 59.162518 6511954
-139.04457 -59.787437 58.540031 9143159
-139.71271 -59.732807 57.646114 9735555
-140.24269 -59.62748 56.961018 9538432
-140.82143 -59.514957 56.141701 7828073
-141.7299 -59.293442 55.503418 7631210
-142.34427 -59.259758 54.692474 10590607
-112.13308 -58.408073 83.619682 8880509
-112.81567 -58.630989 83.181908 8880250
-113.59942 -58.575985 82.708458 7037530
-114.46189 -58.680664 82.216843 9735552
-115.32377 -58.856396 81.441528 12498855
-115.90839 -58.858162 80.606049 7498593
-116.48695 -58.859924 79.766396 7433314
-117.05941 -58.861683 78.922554 8486520
-118.35661 -58.863716 78.764229 10787727
-118.82792 -58.865189 78.050034 7564643
-119.38798 -58.866943 77.189392 11313814
-119.94176 -58.868702 76.324661 9932937
-120.91451 -58.870762 75.721138 8682867
-121.88398 -58.872837 75.108475 8222317
-122.42272 -58.874592 74.225815 8485235
-122.95506 -58.876339 73.339264 8485235
-123.94772 -58.878151 72.989609 8748919
-124.70547 -58.879936 72.361618 9012863
-125.2243 -58.88168 71.458656 9736585
-125.73663 -58.883423 70.551979 8420209
-127.0572 -58.885609 70.289978 8485744
-127.47736 -58.887066 69.523598 7762021
-127.97563 -58.888798 68.600677 9340286
-128.8457 -58.890636 68.070831 9340027
-129.71318 -58.892483 67.533859 9208699
-130.19705 -58.894218 66.59491 6972505
-130.81789 -58.960644 65.724609 6511954
-131.72208 -58.959133 65.307144 7367265
-132.36359 -59.005798 64.615135 7696230
-133.15521 -59.064793 63.913467 7564642
-133.8905 -59.116051 63.277298 9143675
-134.79889 -59.064636 62.913689 7169885
-135.39101 -59.160393 62.200371 7564642
-141.54814 -59.203182 56.35146 10591121
-141.70822 -59.21418 56.020287 8814969
-142.83998 -59.058193 55.079697 10590607
-143.23683 -59.087841 54.244503 12234658
-143.91835 -59.046299 53.395966 9011062
-144.6071 -58.953133 52.78112 8089963
-145.33598 -58.968117 51.991611 9734779
-146.25926 -58.934132 51.396786 8616301
-146.56567 -58.935555 50.515343 6510930
-147.91003 -58.937851 50.182404 7565675
-148.2088 -58.939274 49.290932 9473412
-148.44432 -58.940399 48.57658 7565675
-149.79951 -58.942738 48.222023 10656655
-150.14336 -58.944435 47.138485 12103843
-151.5674 -58.94709 46.584496 7563619
-151.84444 -58.948505 45.671082 9932423
-153.4406 -58.952045 44.543568 11447197
-153.70573 -58.953453 43.619057 9341820
-155.09709 -58.955906 43.207314 8092011
-155.35378 -58.957314 42.272739 7958376
-156.95766 -58.960926 41.089077 7827303
-157.15361 -58.962048 40.332642 8814969
-158.61769 -58.964859 39.691677 8287342
-158.85312 -58.966259 38.735939 7168861
-160.28276 -58.968834 38.267136 7037274
-160.46452 -58.969948 37.494602 8682099
-160.64311 -58.971062 36.721371 10854036
-162.08398 -58.973675 36.229752 7893608
-162.29887 -58.975067 35.253265 9735555
-163.75383 -58.977726 34.743835 10196104
-163.91888 -58.978836 33.954712 11182742
-165.1949 -58.926567 33.596649 15195086
-165.60078 -58.781578 32.849098 8815225
-166.10176 -58.657162 31.910055 7565417
-111.49149 -57.46146 84.335693 8748660
-112.15429 -57.584797 83.94915 7696236
-112.94667 -57.734123 83.486168 8288111
-113.87346 -57.66465 83.045609 7695717
-114.54173 -58.040241 82.55201 9341051
-165.95639 -58.192287 32.71109 8091760
-166.44026 -57.771446 32.112282 7302247
-110.72465 -56.486626 85.126892 8880246
-111.43464 -56.719109 84.671303 9538176
-112.36483 -56.56868 84.262405 8617076
-113.16053 -56.890453 83.726532 8156268
-166.6933 -57.006832 32.229546 7893358
-166.95372 -56.836605 31.862738 7038307
-109.25745 -55.244106 86.383202 7564392
-109.98257 -55.686424 85.833282 7630185
-110.87815 -55.577389 85.424858 10788244
-111.66988 -55.619949 85.006332 9538433
-112.31813 -55.903587 84.560913 9472641
-108.5395 -54.401478 87.095024 10458508
-109.32077 -54.532249 86.64537 8879737
-110.20918 -54.728378 86.114449 7301220
-111.02302 -54.605095 85.753281 8420721
-111.68372 -54.938305 85.281075 8288371
-107.79215 -53.345657 87.909706 11511193
-108.60065 -53.691963 87.357231 9735298
-109.61854 -53.602036 86.878975 8879994
-110.32047 -53.687992 86.488068 9275773
-110.79998 -54.058437 86.092056 10262924
-106.43264 -52.275295 89.040527 10590351
-107.08585 -52.614044 88.569756 9735297
-108.01304 -52.565708 88.120171 9340539
-108.92611 -52.66613 87.616333 8551025
-109.6228 -52.898487 87.167564 8683124
-105.71374 -51.456181 89.743019 8814201
-106.38484 -51.512142 89.38002 10853265
-107.26533 -51.69006 88.860695 10458765
-108.18799 -51.729992 88.376953 8814196
-108.98579 -51.957195 87.879074 8814455
-104.9601 -50.402725 90.559967 7366239
-105.664 -50.6959 90.082367 7301221
-106.64776 -50.529457 89.653015 8814201
-107.50861 -50.75906 89.122192 11642523
-108.10293 -51.10379 88.67878 9340539
-104.29706 -49.486149 91.271004 9932678
-104.99393 -49.583858 90.88118 9998472
-105.92365 -49.715271 90.356079 9603971
-106.80579 -49.75338 89.893661 9274750
-103.43068 -48.443726 92.082939 11708316
-104.29742 -48.66354 91.601868 8682356
-105.30186 -48.568233 91.144989 10261644
-106.07931 -48.941032 90.597198 13025974
-102.86388 -47.451126 92.736687 11839902
-103.61134 -47.627064 92.330963 10129800
-104.54451 -47.71619 91.872215 7696490
-105.19608 -47.848785 91.495743 8089963
-102.03645 -46.59153 93.453659 8222831
-102.9212 -46.595871 93.055542 8946299
-103.86419 -46.65369 92.609795 7302503
-104.45857 -47.044762 92.185905 7039331
-100.56845 -45.25087 94.851173 8880762
-101.35136 -45.546909 94.273239 9011831
-102.22836 -45.697433 93.777824 9340540
-103.08748 -45.750782 93.354218 9143163
-103.79884 -45.899174 92.942947 7894126
-98.772873 -44.119419 97.166122 9010808
-99.262726 -44.267799 96.479507 9143679
-100.02638 -44.489132 95.827324 10261900
-100.85786 -44.613773 95.294205 8683642
-101.65634 -44.852909 94.70327 9340539
-102.41756 -45.071377 94.176987 10524300
-82.579201 -43.360149 112.30788 8090987
-83.437386 -43.453423 111.88716 10524299
-84.367157 -43.519283 111.44556 8813941
-84.949165 -43.733967 111.09968 8092019
-85.362022 -43.782307 109.44076 10261900
-86.149628 -43.784122 108.82105 9143934
-86.932793 -43.785934 108.19564 9142907
-87.711479 -43.787758 107.56463 7563619
-88.48555 -43.789574 106.92797 8484719
-89.255005 -43.791389 106.28577 9603200
-90.019768 -43.793209 105.63802 9604485
-90.779854 -43.795021 104.98476 10065035
-91.535233 -43.796837 104.32604 12696753
-92.285805 -43.798653 103.66187 9735300
-93.031578 -43.800468 102.9923 9603202
-93.772461 -43.80228 102.31738 9734788
-94.508507 -43.804085 101.63709 8287342
-95.239586 -43.805897 100.95152 9274491
-95.965729 -43.807705 100.2607 9932167
-96.518158 -43.861851 99.295891 7893352
-97.188042 -43.902657 98.645737 8879478
-97.91671 -43.971779 98.054695 8089963
-98.355186 -44.088753 97.45652 10853012
-81.227684 -42.106762 113.41341 11380380
-81.818977 -42.443867 113.01431 10656401
-82.698814 -42.544041 112.58121 8156012
-83.580299 -42.646358 112.14655 7958377
-84.327927 -42.999596 111.67117 8418927
-81.154991 -41.417408 113.72187 10722194
-81.99514 -41.469128 113.32593 10591123
-82.877388 -41.568169 112.89226 8353909
-83.470901 -41.907906 112.49105 7563619
-79.740387 -40.30909 114.79751 8288366
-80.413261 -40.575069 114.39047 8288366
-81.390282 -40.506512 113.98157 8814200
-82.324898 -40.688965 113.49106 8090994
-79.028664 -39.24614 115.54108 9735812
-79.694847 -39.547234 115.12289 8354159
-80.695618 -39.709648 114.61092 8814453
-81.513588 -39.725296 114.23931 9077371
-78.468346 -38.193687 116.21272 8682867
-79.109795 -38.567326 115.77663 7433056
-80.10244 -38.619083 115.31254 8354159
-80.906776 -38.77689 114.89013 8617074
-77.6549 -37.216679 116.96729 9406334
-78.454948 -37.510181 116.49244 9867141
-79.386543 -37.555809 116.05807 7959144
-80.187744 -37.853409 115.58107 9209211
-76.930122 -36.303307 117.65672 9143421
-77.734703 -36.452412 117.2377 9603457
-78.667252 -36.495163 116.80406 8222316
-79.346016 -36.755516 116.39664 7959144
-76.263115 -35.479847 118.28439 8881277
-77.041252 -35.440868 117.95245 8748660
-77.944618 -35.436859 117.55059 9603457
-78.624649 -35.695145 117.14342 9866629
-75.535347 -34.428581 119.03041 8092011
-76.215546 -34.682133 118.62507 8485232
-77.124641 -34.621017 118.24352 8879990
-77.89994 -34.637005 117.89083 9406078
-74.654411 -33.396626 119.83712 15590876
-75.485703 -33.630798 119.37204 11577758
-76.420616 -33.66571 118.94051 8089704
-77.102692 -33.920216 118.53396 8484975
-73.943268 -32.44072 120.53749 10196364
-74.752319 -32.581097 120.11996 12103847
-75.688438 -32.613438 119.6889 11707290
-76.371925 -32.866169 119.28244 8813170
-73.204948 -31.394415 121.28635 9407106
-74.084641 -31.50079 120.85107 9867400
-75.049866 -31.603951 120.37889 9604227
-75.66748 -31.928789 119.9728 11312789
-71.871078 -30.142788 122.60191 9735555
-72.63839 -30.40193 122.05264 10130313
-73.553719 -30.541145 121.5517 9604227
-74.434433 -30.72905 121.02631 9275262
-75.087196 -30.8829 120.65193 8090987
-70.366119 -29.152359 124.10406 10590096
-71.246582 -29.454544 123.48435 9538433
-72.07811 -29.554707 123.03761 9472383
-72.918472 -29.721666 122.48727 9801605
-73.555939 -29.866014 122.08296 8682867
-60.333477 -28.035524 133.53645 7761509
-61.191746 -28.304947 133.24634 8221804
-61.909752 -28.552162 132.74678 8089962
-62.744987 -28.724745 132.04144 9076858
-63.538357 -28.726305 131.66135 10787472
-65.981102 -28.733501 128.33517 9143168
-66.90583 -28.735365 127.85503 9143168
-67.827042 -28.737225 127.36821 8419440
-68.439323 -28.738468 127.04021 8617075
-69.050201 -28.858109 125.27207 8617075
-69.888977 -28.895357 125.00812 9866631
-70.728584 -28.933104 124.74223 11906725
-60.492409 -27.478315 133.71375 8024681
-61.404118 -27.429537 133.57039 8813684
-59.756142 -26.362263 134.25534 9011320
-60.5527 -26.632729 134.01471 8748148
-61.267731 -26.664787 133.87631 11905692
-58.984093 -25.151442 134.8383 8089963
-59.695751 -25.490114 134.58745 8419185
-60.579659 -25.689684 134.35748 9076856
-58.958565 -24.371241 135.13025 8089963
-59.806519 -24.475517 134.9418 8288115
-60.468662 -24.857342 134.68396 9143422
-58.38279 -23.178999 135.67159 8550257
-59.116371 -23.415888 135.4545 8485236
-59.91468 -23.76939 135.18297 8090995
-58.297894 -22.541519 135.92165 9537410
-59.205845 -22.497541 135.77722 10129800
-57.590546 -21.480541 136.43793 9011323
-58.44104 -21.580076 136.25073 10063752
-59.10638 -21.95953 135.99315 9932166
-56.828999 -20.280426 137.01505 8681843
-57.598034 -20.446751 136.8177 9077115
-58.324432 -20.74369 136.57971 9932166
-56.289928 -19.014526 137.57712 8681843
-56.918991 -19.345303 137.34387 8681843
-57.719582 -19.532871 137.13309 9143165
-56.186485 -18.47476 137.79437 9339773
-57.08614 -18.499466 137.6261 8617335
-55.463726 -17.200933 138.39178 10853012
-56.133389 -17.576769 138.13481 10787219
-56.931503 -17.687378 137.95282 8420470
-55.396378 -16.390244 138.70259 7958888
-56.27113 -16.604076 138.46902 10853012
-54.037647 -15.02887 139.66742 7038307
-54.755791 -15.276608 139.36049 6577748
-55.579334 -15.54306 139.03494 8156267
-52.701111 -13.997211 141.23462 8813680
-53.417194 -14.008082 141.07625 8419700
-53.905975 -14.467152 140.12502 8682872
-54.824749 -14.555046 139.89491 7695979
-43.191051 -13.3143 150.121 7039331
-43.964375 -13.464664 149.81981 8354933
-44.850178 -13.592564 149.43944 9868171
-45.625439 -13.681245 149.08441 15197142
-51.11998 -13.696176 142.73578 8288365
-51.977711 -13.69775 142.42529 7630435
-52.506794 -13.846357 141.75345 6971994
-43.219513 -12.432568 150.44109 7565417
-44.0028 -12.674776 150.21301 8091760
-44.720036 -12.952746 149.98357 10262156
-42.496861 -11.338977 150.97221 7828073
-43.385357 -11.422862 150.78397 8881019
-44.093132 -11.809455 150.51601 7039331
-42.360435 -10.463041 151.31912 8156267
-43.226776 -10.53375 151.13971 8419697
-41.818913 -9.4502602 151.78813 6248270
-42.717945 -9.5661469 151.58626 6906201
-40.984215 -8.2545481 152.37646 8420208
-41.819424 -8.3558378 152.19127 7695973
-42.551369 -8.5527525 151.98915 9406591
-40.428082 -7.1940808 152.86562 10262156
-41.161552 -7.3907413 152.6633 8683892
-41.913807 -7.3950868 152.5285 9341310
-40.262272 -6.2926574 153.22708 8551794
-41.202805 -6.4745235 152.99356 9078394
-39.667801 -5.2571959 153.71382 8419952
-40.482567 -5.4823813 153.4866 8354927
-38.83062 -4.0871997 154.29317 10262156
-39.602535 -4.4307003 154.02991 9275260
-40.45068 -4.5605569 153.83186 9209467
-38.892452 -3.4041953 154.53378 9012089
-39.824093 -3.5701082 154.30772 9406846
-38.231144 -2.3248985 155.04854 9604226
-38.972118 -2.5230222 154.8443 10854037
-39.712875 -2.7214787 154.64008 11708577
-38.116821 -1.472429 155.38281 9867142
-39.052086 -1.6387813 155.15594 10985625
-37.402981 -0.41782683 155.97716 7960174
-38.345791 -0.60089672 155.70303 9275263
-39.114582 -0.94857514 155.39925 10788247
-35.164314 1.0494879 158.04971 8682867
-35.735168 1.0484792 157.92398 7958888
-36.744026 0.48358759 156.76782 5919050
-37.693405 0.34257671 156.49004 6577495
-25.855042 1.9628873 167.95078 9340798
-26.029434 1.5410584 167.74542 9801349
-36.311626 1.0477891 157.82205 6182479
-25.879189 2.384922 168.103 9340539
-137.40536 -59.225117 60.736782 11511193
-137.87929 -59.305038 60.154175 8156267
-138.65633 -59.300159 59.699402 9998467
-139.51212 -59.299065 59.074959 11971743
-139.93503 -59.330189 58.263218 12038051
-115.12438 -58.339993 82.133072 11709340
-115.69208 -58.489643 81.783737 10722702
-116.49191 -58.57468 81.343605 10262156
-117.37797 -58.581764 80.79039 9341571
-117.79281 -58.834038 79.933044 10920088
-118.83964 -58.863712 79.394508 9538434
-119.66583 -58.86578 78.599525 9143161
-120.2298 -58.86755 77.732803 10655887
-120.7875 -58.86932 76.862 11248791
-121.67751 -58.871105 76.402214 9275003
-122.56548 -58.872898 75.935318 8880246
-123.11014 -58.874668 75.047699 11116180
-123.64838 -58.876427 74.156204 9340539
-124.53441 -58.878239 73.670929 8682867
-125.41811 -58.880051 73.178558 7565675
-125.9428 -58.881813 72.270432 10460307
-126.4609 -58.883568 71.358498 10986392
-127.46512 -58.885426 70.983177 8551023
-128.22121 -58.887238 70.329552 7103066
-128.72527 -58.888988 69.401245 9602942
-129.14034 -58.890446 68.625023 9340027
-130.48267 -58.8927 68.333557 7563619
-130.97224 -58.894447 67.389053 8880246
-131.45502 -58.896194 66.440948 9867141
-132.806 -58.898487 66.122421 7827302
-133.20094 -58.899944 65.321533 7893607
-133.67805 -58.905754 64.361801 7564642
-134.71486 -58.919926 63.930573 8288365
-135.33449 -58.905174 63.361713 7564642
-135.86142 -58.970997 62.613983 8616819
-136.72382 -59.044361 61.817871 8813684
-137.49904 -59.037247 61.372238 8550512
-138.36436 -59.113834 60.563492 8616561
-138.84056 -59.194366 59.977119 11182484
-140.41647 -59.13065 58.661415 11775395
-141.04588 -59.111851 57.731159 9341054
-141.60081 -59.066341 57.084366 11578016
-142.28014 -59.01841 56.245605 12301225
-143.18155 -58.953979 55.805805 10590607
-143.77449 -58.926743 54.843796 11642778
-144.64041 -58.928722 54.17791 10787213
-145.50262 -58.93071 53.504765 9142648
-145.82172 -58.93214 52.627865 9405817
-147.17078 -58.934422 52.314423 8616301
-147.48235 -58.935852 51.427296 7892580
-147.72823 -58.936996 50.716377 7565675
-149.08827 -58.939323 50.381451 9012606
-149.4478 -58.941036 49.303043 9472900
-150.8797 -58.94368 48.769688 11380377
-151.16989 -58.945103 47.860363 9932933
-151.39853 -58.946243 47.131725 9209467
-152.78217 -58.948643 46.756012 7563619
-153.11537 -58.950348 45.650986 12038567
-154.51245 -58.952789 45.257812 8092011
-154.72789 -58.953926 44.512955 8092011
-154.94037 -58.955063 43.767345 8092011
-156.40089 -58.957829 43.164314 6510930
-156.65726 -58.95924 42.221897 6774102
-158.07928 -58.961758 41.788994 8617080
-158.278 -58.962887 41.027115 8484977
-158.47372 -58.964016 40.26442 10459023
-159.90709 -58.966579 39.809212 9208700
-160.14359 -58.967987 38.845787 7629411
-161.59109 -58.970592 38.373337 9537408
-161.81854 -58.971996 37.399742 9340542
-163.28041 -58.974644 36.909637 9537147
-163.57388 -58.901932 36.148697 10195079
-164.14629 -58.616344 35.611969 10261642
-164.7283 -58.613323 34.742271 10853777
-165.17638 -58.627499 33.868568 13813691
-114.31046 -57.378174 82.942665 8222317
-115.01483 -57.654915 82.471642 9538430
-115.90615 -57.562496 82.058533 13156785
-116.66111 -57.757519 81.595612 10788498
-117.36793 -57.850895 81.199081 8092019
-164.59483 -57.926243 35.542053 9209467
-164.94331 -57.772095 34.993889 9209467
-165.45596 -57.776325 34.003487 9340797
-165.94109 -57.656475 33.164093 8354419
-166.35606 -57.383953 32.58065 8813945
-113.46024 -56.449303 83.757027 8617075
-114.39576 -56.577591 83.230316 8616818
-115.22696 -56.741467 82.741684 9012089
-115.96601 -56.680939 82.392464 10854035
-116.63246 -56.958221 81.940384 9735812
-165.26341 -57.171364 34.853035 9011064
-165.68961 -56.81097 34.317596 9800581
-166.2224 -56.692341 33.385315 9142909
-166.67455 -56.706829 32.502991 7893358
-112.81006 -55.503975 84.476913 9143677
-113.64089 -55.654503 83.994049 8222318
-114.5165 -55.753765 83.509605 9866627
-115.30836 -55.77758 83.098793 9274747
-166.08769 -56.003082 34.190331 10261132
-166.43889 -55.848503 33.636116 9537410
-166.93198 -55.777084 32.74305 8353651
-167.3343 -55.688889 32.038025 7893358
-111.43317 -54.16655 85.72686 10262924
-112.03321 -54.530678 85.272491 7959407
-112.94967 -54.674049 84.749184 8025200
-113.93333 -54.650551 84.260773 10326922
-114.66204 -54.981239 83.755127 9932163
-166.76158 -55.245922 33.491562 8813945
-167.27379 -54.752346 32.895683 7893358
-167.63731 -54.747841 32.199158 9734788
-110.54813 -53.291523 86.536575 11315868
-111.26022 -53.669941 86.019592 10855061
-112.2949 -53.586231 85.530258 9012349
-113.16302 -53.735794 85.028831 8617078
-168.03276 -53.82391 32.168732 8089963
-109.8213 -52.450142 87.252327 7828331
-110.61143 -52.578583 86.799126 10460559
-111.56388 -52.735622 86.251938 13355195
-112.50242 -52.747177 85.771912 10920343
-108.57346 -51.175865 88.410782 8419699
-109.14835 -51.444164 88.008743 8814459
-109.8825 -51.73951 87.514969 8090994
-110.94331 -51.547989 87.056915 9999496
-111.76849 -51.898716 86.494156 10657682
-107.84627 -50.350983 89.119858 11511194
-108.42039 -50.615807 88.719711 11248025
-109.26153 -50.56477 88.314842 11445662
-110.21073 -50.711109 87.773697 9209217
-111.00524 -50.835464 87.320061 9078139
-107.1714 -49.362003 89.8703 10590351
-107.79717 -49.681709 89.421249 11642781
-108.58361 -49.702087 89.014618 9800836
-109.50996 -49.629307 88.575577 11379868
-110.11169 -49.976486 88.127396 10064268
-106.35976 -48.502377 90.636475 11248795
-107.186 -48.653633 90.155556 10524817
-108.01086 -48.542385 89.783844 13880514
-108.77622 -48.805496 89.287552 11314331
-105.08957 -47.130444 91.846603 7039331
-105.66166 -47.514801 91.398064 8550770
-106.54672 -47.678722 90.882156 8945787
-107.32018 -47.714088 90.475891 10460048
-108.06532 -47.80022 90.063049 16117989
-104.34137 -46.325012 92.528419 8814457
-104.90746 -46.653824 92.132408 7630954
-105.91834 -46.534832 91.673126 8551285
-106.70175 -46.638409 91.23394 8090995
-107.33086 -46.988678 90.770683 8880765
-102.88262 -45.127369 93.921341 10853012
-103.53487 -45.287281 93.493698 8222575
-104.32872 -45.5924 92.908432 8880250
-105.21175 -45.747307 92.397171 7762285
-105.96967 -45.725021 92.01358 8814203
-106.43826 -45.897167 91.674339 9143936
-101.62663 -44.192444 95.653168 8091248
-102.20997 -44.345097 95.059967 8814196
-102.99153 -44.511543 94.474106 9077369
-103.78785 -44.754353 93.833908 8090987
-104.59998 -44.934429 93.317551 9011579
-105.25507 -45.096031 92.883492 7564651
-85.504005 -43.386646 110.99091 8420727
-86.402794 -43.485992 110.49791 13157043
-87.120514 -43.619404 109.95461 13288629
-87.688995 -43.785976 109.1356 10787988
-88.474365 -43.787815 108.49902 8616307
-89.255203 -43.789642 107.85691 9012349
-90.031342 -43.791481 107.2091 9604485
-90.80278 -43.793308 106.55574 9933193
-91.569435 -43.795147 105.89681 10459794
-92.331375 -43.79697 105.23237 12367020
-93.088509 -43.798805 104.56242 10458511
-93.840729 -43.800636 103.88704 9866374
-94.588066 -43.80246 103.20623 9734788
-95.20723 -43.803982 102.63491 8813686
-98.895752 -43.83807 98.621811 9932166
-99.376823 -43.871368 97.994209 8484720
-100.15376 -43.904922 97.343857 7696746
-100.75302 -44.052834 96.521698 8092019
-101.31232 -44.095673 96.126427 8092019
-84.015976 -42.288925 112.09518 9340027
-84.706673 -42.552414 111.68107 7760998
-85.761253 -42.550289 111.21093 7301220
-86.562965 -42.701828 110.79217 14604230
-83.494316 -41.336056 112.70961 8156013
-84.169891 -41.610485 112.29803 9734784
-85.105721 -41.674641 111.85435 7760997
-85.809074 -41.72411 111.52042 9735044
-82.664436 -40.22332 113.52586 8354166
-83.464462 -40.531269 113.04524 9143681
-84.400864 -40.591942 112.60273 11511195
-85.230087 -40.854546 112.12718 9011321
-82.054482 -39.413776 114.12249 9077886
-82.755821 -39.455482 113.79252 8748924
-83.692818 -39.512856 113.35106 11183004
-84.371796 -39.785496 112.93863 10787733
-81.291504 -38.455254 114.84702 9274749
-81.939957 -38.677555 114.46842 9471871
-82.981628 -38.437088 114.0995 9209216
-83.661652 -38.70718 113.68764 9669252
-80.425797 -37.403255 115.65497 9143162
-81.255356 -37.65274 115.18456 9077370
-82.19278 -37.704063 114.74533 9997959
-82.818764 -37.73938 114.4516 9932166
-79.729393 -36.431805 116.35504 7695972
-80.537819 -36.586124 115.93218 8616562
-81.476006 -36.634396 115.49379 8222317
-82.157494 -36.899868 115.08313 9011576
-79.0075 -35.370266 117.10249 9603713
-79.816994 -35.522022 116.6802 8879734
-80.75602 -35.567341 116.24267 6775126
-81.438637 -35.830574 115.8324 8945527
-78.282341 -34.310963 117.8506 8880246
-79.092896 -34.460312 117.42878 8419184
-79.98455 -34.543442 116.99725 8156011
-80.744675 -34.879707 116.52309 6511954
-77.484299 -33.593304 118.49444 8484975
-78.395927 -33.444763 118.14679 9603456
-79.258171 -33.481174 117.74719 9537407
-79.862625 -33.808125 117.3462 8089963
-76.834389 -32.50853 119.21935 8681584
-77.669991 -32.687149 118.77471 7366495
-78.606361 -32.67548 118.36159 11576986
-75.646492 -31.243641 120.2575 10262156
-76.252968 -31.564028 119.85812 10260358
-77.146339 -31.638823 119.42947 9142392
-78.02401 -31.769764 118.98526 7761770
-78.647583 -32.039391 118.59875 14076861
-74.724602 -30.297895 121.2021 8814710
-75.55294 -30.5261 120.66917 8946296
-76.440178 -30.59549 120.2285 9537919
-77.252892 -30.820225 119.71796 8682613
-72.607101 -29.221043 123.17245 9209211
-73.259926 -29.309391 122.75636 9209467
-74.059952 -29.522253 122.16866 9736578
-74.938095 -29.583708 121.70937 9998726
-75.735626 -29.798635 121.169 9077882
-76.373131 -29.946323 120.76186 10262156
-62.62606 -28.322609 133.02502 7892584
-63.522915 -28.367716 132.84967 8748149
-64.013107 -28.727243 131.43095 11905692
-64.644829 -28.728495 131.12086 9997960
-65.589767 -28.730371 130.65028 9011065
-66.531189 -28.732254 130.17291 8682616
-68.897469 -28.739401 126.79209 8617075
-69.658745 -28.740957 126.37475 9670019
-70.569351 -28.742825 125.86808 11314844
-71.37883 -28.829298 125.04544 10985623
-72.040459 -28.981596 124.25239 9472639
-72.970779 -28.997381 123.78821 9538176
-73.59063 -29.008415 123.47724 9210491
-61.900158 -27.225201 133.55794 9932163
-62.589184 -27.435047 133.35864 7629411
-63.383152 -27.562279 133.1713 8682612
-61.731304 -26.473146 133.86499 11379349
-62.681019 -26.492941 133.68964 7892584
-61.117424 -25.32832 134.39557 9340027
-61.962658 -25.702425 134.10812 9668992
-60.550865 -24.327761 134.86459 9143422
-61.242264 -24.533783 134.66631 9405820
-62.038353 -24.656069 134.48038 8353135
-60.380257 -23.387047 135.24155 11050641
-61.297989 -23.518316 135.03078 10129543
-59.744961 -22.51705 135.67467 10261385
-60.528595 -22.469328 135.55359 10721677
-61.159145 -22.748201 135.33926 10261385
-59.711048 -21.552238 136.03635 9603458
-60.498287 -21.740761 135.82755 9669507
-59.01173 -20.482834 136.55429 9800580
-59.932144 -20.609022 136.34492 8879990
-58.320694 -19.3419 137.09714 9143163
-59.120296 -19.455927 136.91367 8879990
-59.817005 -19.657244 136.71613 8090987
-58.283325 -18.456161 137.43027 9078400
-59.072994 -18.556175 137.25366 8880248
-57.533607 -17.493513 137.91779 9012607
-58.338982 -17.680271 137.70642 10590868
-56.922207 -16.276602 138.47455 10260875
-57.655422 -16.571373 138.23616 9209986
-58.432285 -16.735836 138.03815 9538694
-56.021172 -15.069689 139.28625 9734531
-56.832771 -15.438916 138.88603 8945272
-57.619587 -15.692646 138.58458 9143165
-54.492538 -14.024821 140.83705 9537666
-55.541706 -14.168532 140.32875 8617335
-56.244453 -14.573605 139.63016 9668738
-57.028976 -14.740601 139.36253 11379100
-45.23904 -13.3367 149.74995 11644324
-46.168434 -13.481528 149.31581 12564652
-47.058228 -13.683796 148.63762 8287855
-47.773167 -13.685077 148.40955 6510930
-53.210236 -13.708759 142.0748 6642517
-54.111431 -13.722322 141.87573 7367271
-44.662449 -12.320992 150.22661 8815225
-45.507187 -12.582657 149.98051 9604229
-46.234089 -12.780446 149.77888 10525072
-44.558517 -11.38644 150.58958 7894126
-45.491364 -11.570088 150.35666 10392718
-43.867252 -10.380323 151.08284 8617589
-44.787785 -10.547504 150.85825 9537923
-43.224998 -9.3242188 151.58565 8090475
-43.956165 -9.5212011 151.38361 8353905
-44.805744 -9.7835178 151.13658 9932424
-42.609005 -7.9769607 152.19099 13551549
-43.280449 -8.3177071 151.94666 8946041
-44.059219 -8.5250311 151.73239 7695978
-42.478428 -7.3985348 152.42731 12696240
-43.341038 -7.4425149 152.25838 8748664
-41.669113 -6.0418329 153.07042 9341310
-42.465271 -6.3942456 152.79962 8880760
-43.240601 -6.695365 152.55144 8419958
-41.725834 -5.4604039 153.27461 9012601
-42.670937 -5.4650054 153.10556 7762538
-40.977989 -4.3873258 153.80237 9012088
-41.820511 -4.4882202 153.61603 8815222
-42.539612 -4.8811765 153.3439 11511452
-40.416714 -3.3114688 154.29807 10459022
-41.156708 -3.5095408 154.09412 9998727
-41.915535 -3.5122466 153.95877 9341308
-40.224277 -2.4704955 154.642 11116696
-41.136387 -2.5854166 154.43819 9209467
-39.649479 -1.3445603 155.1586 11577762
-40.471443 -1.5717874 154.92932 9604228
-38.842529 -0.15653062 155.89749 9143681
-39.597965 -0.50432825 155.53658 9341059
-40.466255 -0.7535255 155.23172 8748923
-38.034954 0.64122874 156.66281 7564651
-38.95483 0.44043747 156.34357 9406596
-39.682259 0.23974356 156.05843 7564651
-26.508774 1.8205615 167.72208 9340798
-27.430061 1.7477686 167.44795 9406591
-28.209419 1.5353296 167.15932 9932166
-37.465137 1.0462821 157.61815 7367784
-38.427116 1.0450884 157.4482 8814203
-25.903404 2.8076572 168.25555 9340539
-26.686607 2.5935946 167.96524 8551025
-27.60923 2.5201817 167.69049 8945527
-26.076668 3.5137856 168.47473 9735296
-26.813652 3.3976874 168.23367 9011575
-27.51963 3.2253325 167.97971 8485232
-26.200279 4.5064874 168.815 10985104
-26.786598 4.2904973 168.57671 10326919
-26.061668 5.5761924 169.25449 9340539
-118.56149 -58.616207 80.26548 10328208
-119.35336 -58.403805 79.965271 7958890
-120.26392 -58.629211 79.405952 9208443
-120.91888 -58.798923 78.694534 10787729
-121.45698 -58.86935 77.698677 14603974
-121.92211 -58.870831 76.966003 12827565
-123.25417 -58.872959 76.772507 9011837
-123.80488 -58.874741 75.879868 8288368
-124.34912 -58.876514 74.983315 10590347
-124.7978 -58.877995 74.233299 9932675
-126.13834 -58.880165 74.005646 7697003
-126.66904 -58.881939 73.092316 9736585
-127.19305 -58.883713 72.175102 11906210
-127.53901 -58.884892 71.561729 11905692
-128.97322 -58.887409 71.145752 8879474
-129.48314 -58.889175 70.212021 8681840
-129.98631 -58.890938 69.274582 7563619
-131.34392 -58.893211 68.985428 9998215
-131.75612 -58.89468 68.193253 9143163
-132.24461 -58.896442 67.239494 11709858
-133.12921 -58.898327 66.682701 8156268
-134.011 -58.900223 66.118759 7893607
-134.48451 -58.901974 65.148773 8617331
-134.79649 -58.903141 64.500259 8617331
-136.09265 -58.905209 64.316277 6840919
-136.55312 -58.90696 63.331238 8222317
-136.93152 -58.908417 62.508015 8090219
-138.31389 -58.910816 62.135048 8221548
-138.78079 -58.921989 61.14378 12169122
-139.45125 -59.022156 60.240009 11051157
-140.31172 -58.992516 59.731724 9473157
-140.98256 -58.934772 58.897152 11775395
-141.30949 -58.954643 58.236073 10591121
-142.55406 -58.921547 57.947029 8090987
-142.96837 -58.92329 56.91555 9406849
-144.44681 -58.92609 56.298187 10129030
-144.71559 -58.927258 55.60165 9142393
-145.04736 -58.928699 54.729332 8089963
-146.40082 -58.930965 54.435482 8616305
-146.72514 -58.932407 53.552963 8616304
-146.98123 -58.933563 52.84576 8616301
-148.40924 -58.936161 52.351826 8089963
-148.72105 -58.937599 51.457272 10327437
-150.22166 -58.940525 50.763821 10459537
-150.46379 -58.941673 50.039597 9012606
-150.70299 -58.942822 49.314411 9012606
-152.15082 -58.945496 48.77557 10261391
-152.44099 -58.94693 47.858585 7564394
-154.06978 -58.950508 46.743965 7563619
-154.34805 -58.951931 45.815582 7563619
-155.76204 -58.954407 45.419632 8092011
-156.03203 -58.955833 44.481041 8092011
-156.24438 -58.956974 43.729095 8092011
-157.66982 -58.959484 43.309708 7564651
-157.92741 -58.960907 42.35976 8617080
-159.36703 -58.963459 41.923626 9340287
-159.79396 -58.915367 41.008926 9011321
-160.79654 -58.725502 40.578289 7958634
-161.28383 -58.798519 39.821274 8418928
-161.91331 -58.675079 39.06736 7629411
-162.63972 -58.58712 38.331703 9997960
-163.18449 -58.755264 37.507576 9537147
-163.65805 -58.629917 36.787224 9997699
-117.16315 -57.435696 81.474411 9735812
-117.91036 -57.583912 81.034767 8815484
-118.63713 -57.729469 80.606575 9341313
-119.5507 -57.644646 80.179031 7629667
-120.2767 -57.937012 79.69062 8484720
