# .PCD v0.7 - Point Cloud Data file format
VERSION 0.7
FIELDS x y z rgb
SIZE 4 4 4 4
TYPE F F F U
COUNT 1 1 1 1
WIDTH 1213
HEIGHT 1
VIEWPOINT 0 0 0 1 0 0 0
POINTS 1213
DATA ascii
-115.05138 -1.6628819 132.26189 8946040
-116.06996 -1.8295417 131.74321 8616563
-116.8802 -1.8332615 131.38255 7563619
-117.63661 -2.053678 130.9585 7564135
-118.65559 -2.0589383 130.50461 7498857
-119.47336 -2.0632102 130.14034 11380380
-165.47292 -1.8609102 105.64318 7038307
-166.13741 -1.8647701 105.22507 7038307
-167.15805 -1.7084751 104.65403 7959405
-168.00626 -1.6319406 104.15613 9406592
-168.90463 -1.6367134 103.59102 9406334
-169.80731 -1.6415175 103.02322 10458762
-170.71429 -1.6463776 102.45273 8089962
-171.52002 -1.7328764 101.90985 7695204
-172.08301 -1.6539549 101.59173 10458510
-97.266891 -0.28062564 140.86391 8419181
-98.033943 -0.28186178 140.52324 8879991
-98.802368 -0.28309971 140.18207 8419696
-99.765038 -0.28465009 139.75449 9405820
-100.7336 -0.42748129 139.21382 10786958
-101.60561 -0.49973732 138.77127 9932163
-102.57458 -0.50162959 138.34088 12102048
-103.35172 -0.5031293 137.9957 8748147
-104.32559 -0.50502819 137.56314 7695716
-105.30202 -0.50698888 137.12941 10458254
-106.08533 -0.50849706 136.78149 8420211
-107.06712 -0.51049834 136.34537 9668995
-108.05171 -0.51250339 135.908 8879478
-108.84169 -0.51409549 135.55708 7696746
-109.68304 -0.62322438 135.10014 7958890
-110.72504 -0.73312414 134.55408 7563618
-111.52147 -0.73505008 134.2002 9209471
-112.52019 -0.73751593 133.75647 9144191
-113.3214 -0.7395317 133.40042 8814969
-170.06943 -0.9071818 103.18138 10853263
-170.75063 -0.90951562 102.75348 8089962
-171.43457 -0.91185337 102.32384 7827302
-89.254204 0.57320535 145.12621 7827049
-90.011154 0.57258326 144.7906 7563618
-90.958847 0.57183665 144.37038 8945528
-91.908058 0.57112151 143.94958 8682867
-92.799461 0.42949116 143.43634 9406335
-93.625473 0.40063035 143.04649 9604226
-94.484695 0.35757697 142.63 10130054
-95.440079 0.35674506 142.2063 8616561
-96.397339 0.35586894 141.78174 8748149
-97.261124 0.31264442 141.36311 9340024
-98.221863 0.39680308 141.00826 8945525
-99.089378 0.35358346 140.58806 8419696
-100.05516 0.35282916 140.1597 9010807
-101.02327 0.35202175 139.73047 10720909
-101.70067 0.13796614 139.25127 9274747
-102.67236 0.13690385 138.82021 10655630
-103.64645 0.13583826 138.38811 8617075
-104.42774 0.13508309 138.04152 6511954
-105.21082 0.13422549 137.69414 7958888
-59.29285 1.8908867 161.01208 10853012
-60.180416 1.7213558 160.79214 10392456
-61.127392 1.679392 160.60876 9340799
-62.076221 1.6373756 160.42502 7630697
-79.68708 1.0055786 150.26169 8682867
-80.314934 1.0059069 150.13356 9275004
-81.270103 1.0053352 149.7459 10327949
-82.211281 1.0045649 149.32996 10591121
-83.153557 1.003893 148.91364 13419956
-84.09687 1.00322 148.49702 11117462
-85.041451 1.0026121 148.08005 11314329
-85.987259 1.002019 147.6626 9931902
-86.744904 1.0015967 147.32831 9273972
-87.693214 1.0010672 146.91006 8616307
-88.642883 1.0005858 146.49124 9143167
-58.575665 2.7423184 161.45367 10853012
-59.16853 2.5300081 161.27019 9143165
-60.203594 2.5315166 161.08722 9734528
-61.240807 2.5331395 160.90388 9208185
-61.835629 2.3201766 160.71982 7696491
-58.331642 3.4256835 161.74933 10589837
-59.278324 3.3850601 161.56647 9734529
-60.226723 3.3444247 161.38335 9273979
-61.118198 3.1750093 161.16264 9734528
-56.620953 4.7358017 162.53645 10129030
-57.440105 4.5137033 162.30917 9471357
-58.424004 4.4017396 162.09338 10984081
-59.363552 4.3724871 161.91597 8486000
-59.983677 4.0303483 161.67969 8681843
-55.898773 5.593874 162.98135 9143417
-56.648552 5.5250082 162.82298 9011575
-57.684589 5.5292749 162.64085 9734785
-58.695217 5.3176064 162.38348 9538174
-54.756172 6.4516492 163.48367 9077882
-55.71722 6.3844919 163.30208 9143417
-56.754192 6.3894672 163.12349 10129798
-57.506187 6.3209577 162.96486 9208954
-54.050365 7.7439003 163.98831 9011061
-54.785622 7.4600034 163.78586 8486003
-55.8279 7.4664798 163.62244 10261384
-56.773335 7.1834631 163.3869 11905694
-53.245132 8.7504759 164.42024 9011061
-53.928165 8.4946842 164.23454 9274747
-55.020565 8.5892601 164.08977 8552570
-55.704815 8.3332453 163.90387 8880762
-52.28619 9.6135149 164.83315 7563619
-53.098431 9.4018688 164.64032 9011318
-54.140495 9.4096985 164.47736 10196877
-54.898975 9.3429575 164.33685 14012870
-51.422062 10.770535 165.31985 8156012
-52.158691 10.485219 165.11682 8419440
-53.20097 10.49378 164.95399 7958888
-54.147484 10.210029 164.71808 10592150
-50.404171 11.783919 165.78764 14078672
-51.217297 11.571657 165.59445 9801349
-52.259571 11.580776 165.43182 7958633
-53.018311 11.514458 165.2914 8090731
-49.649212 12.656163 166.1709 16777215
-50.383423 12.486772 166.00328 16185073
-51.376163 12.407842 165.82193 11907496
-52.340611 12.461012 165.68495 8879991
-48.779606 13.824258 166.66191 10261647
-49.518002 13.536825 166.45789 16777213
-50.560825 13.546846 166.29547 14671316
-51.585278 13.335934 166.06918 8682867
-52.192303 13.121069 165.90791 8419440
-46.858006 14.883285 167.80449 8090221
-47.90551 14.894046 167.6548 8090221
-48.858009 14.659739 167.17503 6971998
-49.598301 14.423101 166.72411 16777211
-50.437199 14.432649 166.60555 12697013
-51.436203 13.998014 166.29285 8682867
-43.237541 15.838919 169.7236 10064009
-44.286438 15.847825 169.56956 13617336
-45.037113 15.606547 169.1111 9143417
-45.995304 15.367455 168.62328 8682867
-47.045094 15.377964 168.47285 6709337
-34.682079 16.961494 174.21959 5394754
-35.291557 16.730471 173.99968 6182735
-36.335041 16.727905 173.77069 5853513
-37.378479 16.725889 173.54204 6314320
-38.195175 16.495762 173.2787 7038298
-33.76041 17.730812 174.70381 5723463
-34.52195 17.651274 174.50769 5788488
-35.567291 17.647995 174.27722 6973022
-36.612556 17.645332 174.04706 7170653
-37.222137 17.414038 173.82864 6116941
-32.791164 18.629169 175.26222 8091245
-33.749008 18.576822 175.01634 7236190
-34.587013 18.57361 174.83133 6709338
-35.547161 18.524218 174.60271 6643545
-29.299438 19.827326 177.02069 9209467
-30.13784 19.817471 176.79921 9209467
-30.942955 19.563734 176.39355 9208700
-31.988266 19.553009 176.11906 9537666
-33.032925 19.543076 175.84618 7433832
-33.832954 19.292023 175.44774 6973281
-34.458576 19.286987 175.28583 6973024
-20.318562 20.267946 182.17505 9933702
-21.138424 20.212376 181.58611 10525070
-21.954006 20.157709 181.00172 9340545
-22.563126 20.117254 180.56615 7564651
-24.966358 20.581594 180.35727 10985621
-25.76976 20.528999 179.78476 7301477
-26.569386 20.47736 179.21645 7038307
-27.564716 20.414951 178.51971 7169888
-28.562889 20.359539 177.87889 7367263
-29.378311 20.330326 177.49413 8748916
-30.208378 20.313196 177.21011 9209467
-31.250957 20.296844 176.89421 8879736
-142.76077 -4.4751005 117.76411 11380639
-143.63052 -4.4855022 117.32448 8813686
-144.50407 -4.4960594 116.88292 10787477
-145.38129 -4.5068216 116.43941 10261390
-146.26239 -4.5176897 115.99399 9143424
-147.14731 -4.5287123 115.54657 8881278
-148.03622 -4.5398912 115.09698 8881278
-148.92923 -4.5511751 114.64546 10525588
-149.85054 -4.7172303 114.11555 9472384
-150.68976 -4.5731826 113.70757 9142907
-151.51315 -4.5825233 113.18852 7563619
-152.13251 -4.5895677 112.79803 7564643
-129.13828 -3.4427919 125.00945 9207155
-130.16284 -3.4512405 124.49291 8812912
-131.19168 -3.4598777 123.9744 10262412
-132.0181 -3.4668694 123.55798 9143931
-132.8474 -3.4739149 123.13999 9143931
-133.67963 -3.4811645 122.72052 11051672
-134.51486 -3.4884679 122.29939 9867142
-135.63524 -3.610414 121.68822 6379601
-136.54951 -3.7309506 121.18075 7234909
-137.39522 -3.7390935 120.75414 9866630
-138.24414 -3.7472913 120.32585 5920074
-139.09636 -3.7556434 119.8959 7103580
-139.95193 -3.7641006 119.4642 8025194
-140.81104 -3.7726877 119.03064 8025193
-141.67352 -3.7813542 118.59541 9012347
-142.53966 -3.7901757 118.15829 10130830
-143.40936 -3.7991271 117.71937 9011578
-144.28278 -3.8081839 117.2785 10129547
-145.15991 -3.8173461 116.83565 9669511
-146.18794 -3.6640565 116.38466 9801351
-147.14749 -3.6082017 115.92758 11446174
-148.03751 -3.6172314 115.47838 9999244
-148.93159 -3.626467 115.0271 8552312
-149.82977 -3.6357577 114.57377 11051671
-150.70828 -3.6446202 114.10025 11051160
-151.53664 -3.652298 113.58418 11051160
-152.3642 -3.6600096 113.06322 9472127
-153.26422 -3.6685076 112.49661 9801092
-154.16782 -3.6771157 111.92769 10656913
-155.01239 -3.4505918 111.49945 9077369
-155.85327 -3.4583066 110.96999 9077623
-156.56335 -3.2290051 110.62573 8813939
-157.41 -3.236429 110.09195 8880499
-158.26007 -3.2439578 109.55598 9209211
-122.23959 -2.5150716 128.73216 9406334
-123.2764 -2.5216897 128.26982 8353647
-124.04875 -2.745729 127.8365 9340540
-124.85974 -2.7510185 127.43922 8682867
-125.77498 -2.8009167 126.95995 10064007
-126.77026 -2.7193928 126.4948 9340287
-127.69218 -2.7695549 126.01209 9537406
-128.58563 -2.6427009 125.61713 9471100
-129.38812 -2.5593171 125.24995 10391431
-130.27959 -2.6285233 124.77513 9142393
-131.2401 -2.5714219 124.31807 9340285
-132.20467 -2.5139976 123.85909 9735812
-133.10654 -2.5836351 123.37888 8616560
-133.94089 -2.5892534 122.959 7630435
-134.77827 -2.5949433 122.53759 8222061
-135.61868 -2.6007204 122.11456 8551283
-136.53366 -2.6714017 121.62737 7564392
-137.45039 -2.6136498 121.1925 10064010
-138.37207 -2.6201701 120.72855 9011577
-139.36826 -2.5624893 120.2538 7366752
-140.29877 -2.6338835 119.75858 8156779
-141.16063 -2.6401732 119.32463 7301470
-142.02605 -2.6465347 118.8889 8090987
-142.89503 -2.6530187 118.45132 9800838
-143.76767 -2.6595733 118.01186 8813686
-144.64401 -2.6661837 117.57054 9537409
-145.52412 -2.6729324 117.12727 9603973
-146.48169 -2.4499059 116.74039 9078398
-147.37013 -2.4562831 116.29306 9538691
-148.26257 -2.4627655 115.84376 10394258
-149.05899 -2.5460482 115.41072 9867397
-149.98358 -2.7081912 114.88086 10196362
-150.8696 -2.715126 114.41164 12433069
-151.77303 -2.4878519 113.95007 10985620
-152.60278 -2.4934003 113.42863 10261895
-153.43562 -2.4990282 112.90529 10327947
-154.27147 -2.5047607 112.3797 9735043
-155.11008 -2.5105226 111.85194 9604228
-155.95175 -2.5163386 111.3219 8945781
-156.79672 -2.5222843 110.78978 8616561
-157.64514 -2.5282855 110.25549 9143159
-158.49692 -2.5343664 109.71902 11248793
-159.3522 -2.5405021 109.18036 14472389
-160.211 -2.5467932 108.63945 8485489
-161.1543 -2.3147278 108.15013 7235421
-162.02106 -2.3206799 107.60445 7630180
-162.67346 -2.3251727 107.19363 5920074
-116.03374 -1.1800846 132.02072 8616563
-117.04775 -1.1835048 131.56978 7563619
-117.80553 -1.403348 131.14537 7629924
-118.73302 -1.4505051 130.71521 8485494
-119.76324 -1.4836498 130.24518 10656658
-120.61555 -1.6325645 129.80734 10327177
-121.44054 -1.6362462 129.44017 9866885
-122.3402 -1.702922 129.0145 9406334
-123.37379 -1.5901308 128.60165 8156267
-124.34738 -1.649376 128.1425 9011575
-125.15878 -1.6529423 127.74268 9340540
-125.96736 -1.6564585 127.33614 11971744
-126.8482 -1.7234997 126.86726 11971488
-127.86288 -1.609497 126.40656 10129542
-128.8024 -1.5802766 125.94848 8155755
-129.70189 -1.4509001 125.55186 10721425
-130.52576 -1.4542874 125.13818 9208187
-131.35243 -1.4577533 124.72298 9208187
-132.18195 -1.4612232 124.30635 10918803
-133.22318 -1.4656606 123.78345 9734270
-134.26871 -1.4701536 123.2583 9273976
-135.10878 -1.4738134 122.83637 9997957
-135.85916 -1.5522649 122.42834 9867399
-136.73077 -1.7068498 121.92807 7038307
-137.57977 -1.7110717 121.50145 8946043
-138.43195 -1.715348 121.07317 8879991
-139.28754 -1.719629 120.6432 7037274
-140.1465 -1.7240149 120.2115 6774614
-141.22525 -1.7295709 119.66934 8156779
-142.30914 -1.7352004 119.12454 8682867
-153.66357 -1.7959503 113.07204 9998982
-154.50047 -1.8003093 112.5457 11512221
-155.46219 -1.6477799 112.00996 8815484
-156.2616 -1.5728505 111.54192 8090477
-157.10895 -1.5769243 111.00914 8221805
-157.95959 -1.5810281 110.47427 9472383
-158.81378 -1.585162 109.93718 11709345
-159.6714 -1.5894008 109.3979 13090995
-160.53265 -1.5936198 108.85635 9603970
-161.39743 -1.5979443 108.31245 7959144
-162.26602 -1.6022987 107.7663 7499106
-163.13835 -1.6067089 107.21771 6709334
-163.91353 -1.691155 106.69479 6511954
-164.6741 -1.6147023 106.25179 7959144
-165.42 -1.3763256 105.88904 8354163
-166.30658 -1.3804064 105.33165 7038307
-166.97417 -1.3834705 104.91199 7762027
-110.13017 -0.30190164 135.15099 7563618
-110.92599 -0.30322665 134.79752 7563618
-111.72392 -0.30460459 134.44305 11709860
-112.52405 -0.30598545 134.08769 8092019
-113.57634 -0.41589916 133.53702 7434088
-114.43028 -0.52574503 133.0744 10787218
-115.23758 -0.52746063 132.71574 10392461
-116.1478 -0.5729022 132.27797 9472127
-117.1655 -0.48814315 131.89253 8616561
-118.08219 -0.53360349 131.45189 6511954
-118.90061 -0.53540909 131.08829 9669764
-119.82322 -0.58122736 130.64499 9406078
-120.8562 -0.49596888 130.25284 10589320
-121.78583 -0.5418067 129.80638 9537660
-122.50964 -0.61678791 129.429 10327692
-123.33707 -0.76566231 128.94981 8682867
-124.3792 -0.76847231 128.48264 9340797
-125.39925 -0.77122205 127.98663 8682867
-126.20999 -0.77334082 127.57996 12629674
-127.02332 -0.77551317 127.17202 7564643
-127.83922 -0.77773905 126.76275 8353134
-128.86305 -0.78051853 126.24923 8484978
-129.68478 -0.78278583 125.83709 10591124
-158.19629 -0.8682856 110.63889 10064267
-159.0522 -0.87097168 110.10131 9735558
-159.91159 -0.87371272 109.56146 9735558
-160.55832 -0.87579668 109.15532 12433066
-161.3741 -0.71811247 108.76558 9735555
-162.21815 -0.64035022 108.29678 6972762
-163.09126 -0.64261103 107.74847 6446418
-163.9682 -0.64495242 107.19779 6972505
-164.849 -0.6472742 106.6447 8090986
-165.73378 -0.64970201 106.08904 7564642
-166.62253 -0.65206045 105.53085 7367271
-167.51541 -0.65449977 104.97014 7301479
-168.28806 -0.73816341 104.42337 8419700
-169.08789 -0.65892065 103.98251 11905694
-169.91531 -0.41562164 103.64758 12300195
-170.82396 -0.41748375 103.07701 8353646
-171.50813 -0.41892171 102.64747 10129545
-101.89846 0.56498069 139.52126 8682867
-102.87228 0.56448233 139.08972 8617075
-103.84853 0.5640474 138.65712 8617075
-104.63161 0.56374007 138.31013 9011320
-105.65955 0.45590645 137.76476 8420211
-106.49289 0.34796035 137.30542 9144190
-107.28145 0.34742045 136.95586 9932679
-108.26997 0.34675223 136.51765 8946042
-109.26133 0.3460719 136.07814 8814969
-110.05683 0.34559757 135.72552 9406334
-111.05418 0.34494245 135.28343 8814713
-112.05467 0.34429979 134.83994 9868171
-112.85764 0.34381551 134.48405 9407621
-113.76122 0.2997418 134.0471 8222575
-114.76102 0.12472753 133.4579 8353134
-115.571 0.12393358 133.09862 9997703
-116.38342 0.12318639 132.73827 9471615
-117.40247 0.12221013 132.28624 8156521
-118.22025 0.12140572 131.92357 6511954
-166.67279 0.079034612 106.12474 6775130
-167.56683 0.078343898 105.56399 7564651
-168.46536 0.077646919 105.00082 8551287
-169.36804 0.076843932 104.435 10129798
-170.27512 0.076134637 103.86648 8682867
-170.91281 0.32287848 103.69203 9011321
-62.609776 1.8937554 160.42513 7564643
-63.205204 1.6808916 160.24092 8880503
-64.248001 1.6817576 160.05637 8551538
-65.293251 1.6826787 159.87134 9867398
-65.890961 1.4689872 159.68646 9209467
-89.594284 1.0001357 146.0719 7564651
-90.547127 0.99976683 145.65198 10261132
-91.310722 0.9994868 145.31567 8682867
-92.266808 0.99909723 144.89455 8682867
-93.224579 0.99880517 144.47287 9209211
-94.184425 0.99857724 144.05043 10854036
-95.146118 0.99836349 143.62727 9208435
-95.917007 0.99822378 143.28819 9208435
-96.88266 0.99807155 142.86363 8222058
-97.850281 0.99796665 142.43823 7367005
-98.820419 0.99785852 142.01198 8287849
-99.79277 0.99789751 141.58484 10260358
-100.5724 0.99784625 141.24236 9142392
-101.15823 0.99790645 140.98518 10260358
-62.369625 2.5777957 160.72028 8485488
-63.322758 2.5366597 160.5361 8880503
-64.277847 2.4954412 160.35153 9538433
-65.174751 2.3253186 160.12968 9341054
-60.759022 3.6030262 161.38446 10787214
-61.433517 3.4618466 161.21269 9340283
-62.396549 3.3928463 161.01649 8485488
-63.440712 3.3957024 160.83238 9998984
-64.038559 3.1821611 160.64758 9341054
-59.88744 4.8910279 162.01465 8092011
-60.574734 4.4628263 161.73463 9405564
-61.497662 4.4662409 161.57225 9603712
-62.465611 4.3465347 161.3564 9932934
-63.320065 4.0412946 161.09225 11380380
-58.74995 5.7498708 162.53342 9538174
-59.762993 5.538384 162.27574 8552049
-60.805542 5.5432839 162.0927 8683379
-61.561985 5.4747357 161.93327 9538176
-58.078312 6.468256 162.91777 8420461
-58.832317 6.3999929 162.75888 9538174
-59.874737 6.4055772 162.57616 9735553
-60.840084 6.3385081 162.38025 9603457
-56.971092 7.7629805 163.53064 9735297
-57.918465 7.4802046 163.29329 9405817
-58.965427 7.4872961 163.12341 9603710
-59.698742 7.2017908 162.9014 9538174
-56.221325 8.6270847 163.91071 8617589
-57.112053 8.6049585 163.7627 9274488
-58.110279 8.5257044 163.58031 9997956
-58.848644 8.3571081 163.41222 9734782
-55.470646 9.4929562 164.29147 10592150
-56.231136 9.4265537 164.1507 8092019
-57.279842 9.4355316 163.98703 10195337
-58.097836 9.2239466 163.79329 10261129
-54.34277 10.795383 164.86398 7565160
-55.2915 10.512085 164.62782 10855322
-56.339924 10.521815 164.46442 8354934
-57.080753 10.236294 164.26056 9932681
-53.589554 11.666258 165.24663 7169884
-54.35014 11.600381 165.10605 6511954
-55.398666 11.610868 164.94284 8815227
-56.371738 11.547518 164.76927 8354934
-52.988415 12.687841 165.65071 7564642
-53.466259 12.428185 165.49643 7564642
-54.564831 12.527875 165.35222 8617331
-55.473995 12.383171 165.16426 9604227
-52.719193 13.391954 165.90614 8617331
-53.679401 13.358136 165.74362 8354158
-54.64114 13.324706 165.58087 9472640
-50.006435 14.917398 167.35715 9407107
-51.062424 14.766716 166.97835 8682867
-51.812046 14.555853 166.65335 10393484
-52.722244 14.236349 166.18948 10393743
-53.693401 14.173166 166.01118 8222576
-54.372646 14.031178 165.83693 8617331
-45.758442 15.861662 169.35768 8682867
-46.390598 15.868154 169.26833 8090987
-47.446171 15.879574 169.1212 7564643
-48.145794 15.514184 168.49358 6971998
-49.150673 15.400992 168.17392 7827820
-49.995182 15.410932 168.05505 8420470
-38.536995 16.839682 173.33868 7169886
-39.483086 16.731302 173.16273 7038307
-40.461647 16.694407 173.02998 8288367
-37.666527 17.758402 173.85728 7169884
-38.575993 17.597164 173.60829 7762021
-39.558582 17.650183 173.48895 6511954
-40.181107 17.425955 173.33122 8090987
-36.07021 18.800119 174.5891 6445909
-36.681488 18.567471 174.36981 7828587
-37.728611 18.565506 174.1394 7696229
-38.779057 18.565731 173.92406 7564642
-39.401203 18.339949 173.75993 8090987
-34.112286 19.77775 175.75589 6314319
-35.120407 19.525801 175.30489 6314066
-35.954697 19.519829 175.08949 6314066
-36.788754 19.514305 174.87456 7630693
-37.791611 19.264732 174.42667 7893607
-38.624298 19.260353 174.213 7564642
-24.1591 20.635046 180.93414 7893096
-28.377048 20.990108 179.47775 6511955
-29.180782 20.945999 178.97157 6183246
-29.981518 20.902691 178.46889 8288365
-30.779205 20.860191 177.96964 8089963
-31.585865 20.826317 177.53986 9010808
-32.357956 20.547915 176.93767 8551542
-33.327095 20.585459 176.7025 6775900
-34.184177 20.267859 176.12361 7169884
-35.230358 20.259058 175.84995 6709078
-35.857807 20.254219 175.6866 5919050
-149.45944 -2.2391694 115.33733 13157559
-150.13586 -2.2437534 114.99693 10196362
-151.02072 -2.2495887 114.52562 11775395
-136.22995 -1.2531134 122.36661 10262156
-136.86549 -1.2555906 122.04753 7038307
-137.71555 -1.2589136 121.6207 7959404
-138.56889 -1.2622916 121.19226 8814196
-139.42557 -1.2657739 120.76212 8353389
-140.2856 -1.2692109 120.33023 9735040
-141.14911 -1.2727029 119.89655 9604226
-142.0162 -1.2762997 119.46115 9406590
-143.13535 -1.464383 118.82316 9143162
-144.12756 -1.5148375 118.30569 9668995
-145.0069 -1.5190511 117.86391 10064264
-145.89001 -1.5233202 117.42017 9670020
-146.77696 -1.5275446 116.9745 8881019
-147.66789 -1.5319245 116.52676 10525330
-148.56284 -1.5363098 116.0771 15722974
-149.46185 -1.5407258 115.62533 11644064
-150.36499 -1.5452476 115.17146 10196362
-151.24457 -1.5495296 114.69449 11774879
-152.07346 -1.5533013 114.17435 8881013
-152.90509 -1.5571272 113.65208 9341307
-153.8154 -1.3260145 113.18318 9078394
-154.65344 -1.3294749 112.65655 12433322
-155.28406 -1.3320857 112.26023 10262670
-122.93622 -0.32435089 129.46246 10656913
-123.56213 -0.32549644 129.1844 9669762
-124.39912 -0.32702714 128.81252 9669762
-125.42273 -0.32882994 128.31825 9143161
-126.43764 -0.33068043 127.80938 8814452
-127.25251 -0.33215481 127.40071 7564643
-128.06998 -0.33363283 126.99084 7563619
-128.89009 -0.33511454 126.5796 7893615
-129.96359 -0.44873959 125.95521 8879995
-130.83424 -0.56225973 125.43256 8550257
-131.66327 -0.56415367 125.01677 8682100
-132.49512 -0.56607658 124.59955 10260873
-133.32996 -0.56802863 124.1808 8090216
-134.26949 -0.61534268 123.67508 9734270
-135.21927 -0.5726108 123.23317 9866371
-136.17342 -0.5295949 122.78909 9932935
-137.12448 -0.57704002 122.2775 8090992
-137.97647 -0.57909071 121.85014 8880505
-138.8317 -0.58114582 121.42117 7695203
-139.69034 -0.58325577 120.99046 10392969
-140.55237 -0.58537036 120.55803 13814458
-141.41792 -0.58743978 120.12386 11051414
-142.28696 -0.58963901 119.68793 8682867
-143.15962 -0.59176832 119.25017 7564386
-144.03595 -0.59395266 118.81051 9735043
-144.91602 -0.59616715 118.36903 11380380
-145.79984 -0.59838682 117.92564 10459278
-146.68759 -0.60061193 117.48033 9209726
-147.57925 -0.60291743 117.03294 10130059
-148.47488 -0.60515338 116.58365 12629680
-149.37459 -0.60746998 116.13228 10327436
-150.27844 -0.60979235 115.67882 9406846
-151.17709 -0.61211354 115.21613 9735812
-152.01736 -0.61421895 114.70407 8288621
-152.94742 -0.66367096 114.08287 8617841
-153.89345 -0.61902839 113.52551 9867653
-154.73239 -0.62111497 112.99849 12827823
-155.57455 -0.62328124 112.46935 11315100
-156.42001 -0.62542725 111.93823 8617591
-157.2688 -0.62757802 111.405 8090991
-158.04587 -0.39128196 111.10042 8814971
-158.90158 -0.39296764 110.56306 10721683
-159.76089 -0.39470845 110.02359 8354164
-160.6237 -0.39645439 109.48183 9999242
-161.27313 -0.39774221 109.07404 11906725
-114.78625 0.56062877 133.81168 8089962
-115.80072 0.56045902 133.36237 8353134
-116.61504 0.56030947 133.00177 9077112
-117.43189 0.56020665 132.64006 9011573
-118.49998 0.45034295 132.07512 7104090
-119.36574 0.34025222 131.59964 12958638
-120.19053 0.3398385 131.23413 8945008
-121.01807 0.33944601 130.86743 9865854
-121.94852 0.29476583 130.41803 9011059
-122.99826 0.38276601 130.02699 12038566
-123.9361 0.33813077 129.57434 11643808
-124.77583 0.33777148 129.20157 8946039
-125.59543 0.33734721 128.80379 8419695
-126.5065 0.29220617 128.30963 8551281
-127.53809 0.38096213 127.8701 7564643
-128.45595 0.33582664 127.37257 7301221
-129.27917 0.33544123 126.96072 8354165
-130.10516 0.33507687 126.54745 7433065
-130.80176 0.10984305 126.00594 9340544
-131.84047 0.10881013 125.48578 9011835
-132.88339 0.10787141 124.96366 8617334
-133.72121 0.10711569 124.54423 7564644
-134.56204 0.10635574 124.12324 9602942
-135.40594 0.10564162 123.70078 10984593
-136.25293 0.10492316 123.27668 9537664
-137.10312 0.10415037 122.85105 9143678
-137.95659 0.10337301 122.42381 10064777
-139.0282 0.10249479 121.8873 7695973
-140.10471 0.10155976 121.34835 9735040
-140.96989 0.10081623 120.91525 11708315
-141.83865 0.1001178 120.48032 8748148
-142.49243 0.0995159 120.15296 7959144
-154.34644 0.089681149 113.85879 11906725
-154.97763 0.089119837 113.46272 13222581
-155.82193 0.088350847 112.93293 13486008
-156.66953 0.087627083 112.40112 8090991
-157.52046 0.086848535 111.86718 8157555
-158.55649 0.24591036 111.36356 9209472
-159.39914 0.32549781 110.90837 8814971
-160.13364 0.24500017 110.37436 8749434
-160.91081 0.32494062 109.96056 7894639
-161.77972 0.32473636 109.41586 8815225
-162.65236 0.32447672 108.8688 7499107
-163.52878 0.32426155 108.31937 6314320
-164.409 0.32406598 107.76761 7169116
-165.20389 0.40515637 107.34377 7564642
-165.95908 0.32387853 106.79605 8354158
-167.02777 0.5683496 106.35014 7038302
-167.92444 0.56875557 105.78865 9537923
-168.82518 0.56915569 105.22452 9537923
-169.73029 0.56954938 104.65775 9801092
-170.41179 0.56991601 104.23103 10459023
-66.431473 1.7265586 159.68576 10196618
-67.392174 1.6846528 159.49995 15197140
-68.234947 1.6855539 159.35083 11905695
-69.047318 1.471351 159.12769 9208699
-101.74498 0.99791551 140.7276 9142392
-102.52874 0.99800861 140.38362 7827303
-103.31427 0.99809968 140.03893 9143163
-104.29873 0.99827266 139.60715 10064008
-105.2858 0.99844217 139.17424 8814197
-106.07762 0.9986248 138.82713 10262156
-107.07027 0.99890351 138.39215 8749689
-108.06577 0.99924517 137.95598 8090733
-108.86447 0.99946868 137.60616 7564647
-109.66529 0.99978948 137.25549 8814969
-110.6694 1.0001863 136.81595 11709084
-111.6767 1.000679 136.37515 9144703
-112.48512 1.0010397 136.02144 8092019
-113.29582 1.0014973 135.6669 9868171
-64.816292 2.7541354 160.35156 9341054
-65.494987 2.6123171 160.17892 8156780
-66.465172 2.5427079 159.98117 9209467
-67.518074 2.5449119 159.79529 11906466
-68.119354 2.3306406 159.60953 11905695
-64.577477 3.4419947 160.64796 9341054
-65.537048 3.4018056 160.46298 8617331
-66.589439 3.4050689 160.2776 9341054
-67.401596 3.1914747 160.05469 9734788
-62.809742 4.9032774 161.50101 11380380
-63.642597 4.5610409 161.22694 10130313
-64.638428 4.4787521 161.02 9670019
-65.635986 4.3963265 160.8127 10064777
-66.260948 4.0523224 160.57487 10262156
-62.139156 5.6220951 161.88536 10130313
-62.897942 5.5536933 161.72554 9735555
-63.869915 5.6022797 161.57115 9406590
-64.759521 5.3462243 161.31888 9538432
-61.157116 6.6301107 162.43172 9011576
-61.966442 6.4175372 162.20972 9406334
-63.015881 6.423913 162.026 10327180
-63.777126 6.3559408 161.86594 10130057
-60.170567 7.6408129 162.97224 10129801
-61.062225 7.5017896 162.7704 9735043
-62.052052 7.4540272 162.57729 9471871
-63.054173 7.2241497 162.31473 11181977
-59.159634 8.6506443 163.4516 9866369
-60.1357 8.5862236 163.27727 10130057
-61.191921 8.5954685 163.11241 9669250
-61.802998 8.3820477 162.95103 9011576
-58.408424 9.5184164 163.83299 10261129
-59.384296 9.4545469 163.65886 10261898
-60.440212 9.4646082 163.49437 10262411
-61.051258 9.2510872 163.33293 9011576
-57.54583 10.679852 164.3208 10129802
-58.443882 10.542583 164.13686 10721681
-59.476475 10.33322 163.90971 9999495
-60.322292 10.342085 163.77823 10656913
-56.681561 11.844558 164.80992 9012350
-57.50227 11.633169 164.61578 9932681
-58.557468 11.645016 164.45198 10524817
-59.435471 11.287233 164.20447 10854292
-55.927036 12.719602 165.194 9933193
-56.537052 12.505584 165.03255 10129803
-57.59177 12.517996 164.86893 9801095
-58.570507 12.455941 164.69492 9932939
-55.171589 13.596848 165.5789 10854036
-55.78178 13.382429 165.41736 9670278
-56.836384 13.395391 165.25394 9143935
-57.815002 13.333687 165.07999 9275009
-52.538876 14.948835 167.00282 12235687
-53.174206 14.957275 166.91475 9867401
-54.180973 14.848308 166.60265 8420214
-54.921108 14.309168 165.88873 9407105
-55.886841 14.276918 165.72568 10393486
-56.818306 14.175741 165.52271 9472899
-48.715855 15.894224 168.94737 8090221
-49.564594 15.904811 168.83345 7828590
-50.627262 15.751686 168.44728 8420470
-51.259701 15.591865 168.10291 8814712
-52.306934 15.435166 167.67209 10656659
-53.148762 15.444416 167.53017 9867401
-40.998077 16.974503 173.06688 11707804
-41.620407 16.751444 172.90953 8946039
-42.691456 16.762501 172.783 10787471
-43.685493 16.69669 172.63777 10787474
-40.718109 17.707529 173.36862 10655373
-41.700073 17.671568 173.23582 11247509
-42.479988 17.603224 173.11578 9274491
-39.938213 18.622684 173.79776 7433056
-40.921005 18.586664 173.66481 10129799
-41.701694 18.518051 173.54466 12299684
-37.45285 19.75392 174.89368 8617331
-38.07869 19.750383 174.73283 9735812
-39.109364 19.627485 174.41196 7564642
-40.021561 19.464792 174.1559 8354159
-40.979961 19.28245 173.91167 9735812
-34.489086 20.772299 176.55557 8090986
-35.316357 20.758175 176.27695 7564642
-36.4063 20.546228 175.78032 6577491
-37.360844 20.49015 175.49139 7564642
-38.197781 20.485121 175.27565 8617331
-39.212105 20.238829 174.86729 7893607
-31.613876 21.441845 178.94273 9931910
-32.21278 21.40988 178.56783 9931910
-33.008965 21.367933 178.07065 9274492
-33.808815 21.330851 177.61037 8090986
-34.844582 21.309811 177.23975 7564642
-35.675243 21.295467 176.95973 7564642
-131.06604 0.55957454 126.25984 10525073
-131.89871 0.55952621 125.84361 8617334
-132.94374 0.55958509 125.32127 8091247
-133.9931 0.55963796 124.79677 8353645
-134.83604 0.5597254 124.37538 8813428
-135.68216 0.55980855 123.9525 9537150
-136.53146 0.5599373 123.52808 9537664
-137.38387 0.56001192 123.10201 8090989
-138.23961 0.56013179 122.67433 9077882
-139.09866 0.56029713 122.24503 8090987
-139.96106 0.56045777 121.81409 8353389
-140.82698 0.56066382 121.38141 10984593
-141.69627 0.56086498 120.94698 8813428
-142.6893 0.40711182 120.31865 7433056
-143.51634 0.3299793 119.83897 9801348
-144.51474 0.37614751 119.37953 10130313
-145.50168 0.32959116 118.84618 9275004
-146.39017 0.32936567 118.40182 9669763
-147.28256 0.32915998 117.95557 9274237
-148.17889 0.32894868 117.50726 8287342
-149.07933 0.32878178 117.05704 10458511
-149.85542 0.25026059 116.6016 9735299
-150.66473 0.32832021 116.2641 9998984
-151.56787 0.32819402 115.80146 9077882
-152.41208 0.32785887 115.28899 7959657
-153.36272 0.37493354 114.73634 8814452
-154.27896 0.40642577 114.19102 8682867
-155.29846 0.56472778 113.69701 13222581
-156.14517 0.56485575 113.16661 12433322
-156.99518 0.56502897 112.63409 8089963
-157.84854 0.5652473 112.09953 8617334
-158.49063 0.56542057 111.69724 7565675
-69.413124 1.794392 159.18216 9603713
-70.350311 1.6879579 158.97667 10788500
-71.412781 1.6892333 158.78877 10789011
-72.230881 1.4741818 158.56429 9736836
-113.90523 1.0018263 135.40038 12761773
-114.51631 1.0022029 135.13327 12761773
-115.33289 1.0027028 134.77637 9208187
-116.15199 1.0031993 134.41846 7563618
-117.17953 1.0038484 133.96954 8221548
-118.21077 1.0045761 133.51912 6511954
-119.03885 1.0052104 133.15764 6511954
-119.8696 1.0058416 132.795 8813428
-120.70311 1.0065188 132.43126 9537150
-121.74907 1.0073936 131.97496 11115923
-122.79919 1.0082959 131.51703 9867398
-123.6427 1.00911 131.14919 12630447
-124.48915 1.0098701 130.78021 14605262
-125.12588 1.0105127 130.50275 8682867
-165.2428 1.061038 109.16803 7037530
-166.13881 1.0624989 108.61502 6511442
-167.03899 1.0639539 108.05952 6510930
-167.71671 1.0651791 107.64139 7234909
-168.39706 1.0663004 107.22158 8090991
-169.07971 1.0675186 106.80057 9537923
-68.590073 2.6550791 159.64597 10787473
-69.499283 2.506156 159.42973 9932166
-70.482224 2.5516348 159.27222 10460046
-71.300163 2.3370755 159.04796 9736836
-67.725403 3.4807355 160.10414 10392716
-68.702591 3.4119685 159.90549 10261130
-69.763573 3.4156208 159.7187 10393741
-70.368607 3.2007701 159.53215 10130825
-65.962898 4.9180479 160.94737 10262156
-66.806068 4.5424147 160.65919 10261899
-67.803177 4.4928479 160.46408 10196105
-68.784767 4.3731294 160.24585 10853522
-69.649063 4.0663066 159.97928 10855060
-65.030998 5.7826428 161.43187 9932678
-65.844597 5.5697641 161.20906 10327948
-66.902229 5.5758953 161.02377 10722448
-67.881142 5.509027 160.82552 10590863
-64.358994 6.5050287 161.81787 10392973
-65.122673 6.4373789 161.65741 10655889
-65.968422 6.443027 161.50957 10064265
-66.937012 6.4059629 161.32413 10064520
-62.591118 7.9502153 162.66498 10853012
-63.273827 7.8094926 162.49194 10524303
-64.218826 7.5248137 162.21925 9801348
-65.276115 7.5330396 162.03484 10064009
-66.011681 7.2460918 161.79845 9012093
-62.340427 8.6496811 162.94617 9274492
-63.310085 8.6147137 162.77539 9537664
-64.279228 8.5795012 162.59737 9143418
-65.187225 8.4113474 162.37494 10261132
-61.510746 9.5849619 163.36086 9603713
-62.427811 9.4405766 163.17171 8748404
-63.411076 9.4947796 163.03204 8682867
-64.050461 9.5016088 162.93271 9011576
-60.745846 10.346625 163.71236 9933702
-61.59449 10.355921 163.58054 9472895
-62.657433 10.367872 163.41545 9537664
-63.430462 10.30318 163.27327 8880246
-59.90546 11.734451 164.26509 11117208
-60.651928 11.448773 164.06032 10854292
-61.71452 11.461718 163.89561 9603968
-62.675907 11.178293 163.65744 10327178
-58.883305 12.755342 164.73575 10459281
-59.708313 12.544181 164.54102 11314589
-60.77029 12.557986 164.37668 9143929
-61.542736 12.494228 164.23486 10064262
-58.127384 13.634089 165.12125 7564651
-58.872257 13.466265 164.95232 8683130
-59.882015 13.390995 164.76932 9538181
-60.786396 13.373875 164.62064 7432545
-55.298222 14.987085 166.6225 9472899
-57.203335 14.523457 165.66872 12696753
-58.008862 14.306898 165.41722 9999245
-59.073933 14.322828 165.26318 8288116
-60.084629 14.107301 164.95361 9735044
-51.9072 15.936419 168.52705 9735043
-52.762623 15.948951 168.41826 11051416
-53.603424 15.791055 168.02705 9867401
-54.41412 15.459117 167.31757 9406590
-55.470604 15.472004 167.14043 10261898
-56.345554 15.194891 166.68581 10064779
-57.432911 15.019435 166.3322 14605262
-43.99979 17.006443 172.71266 10590353
-44.817097 16.556417 172.44843 9734788
-45.892757 16.569162 172.32193 9210491
-46.539055 16.577147 172.24606 9210491
-43.066406 17.763491 173.10287 10326664
-43.847878 17.695724 172.98288 9931907
-44.903004 17.478088 172.77484 9932422
-45.879536 17.182642 172.54782 10854288
-42.288269 18.67905 173.53198 10063494
-43.070457 18.611116 173.41188 9602943
-44.065769 18.669771 173.31195 8681843
-44.773357 18.40053 173.12744 8551025
-41.047668 19.761471 174.19685 9735812
-42.085064 19.532103 173.90654 9932164
-43.1577 19.542971 173.75876 11774108
-43.938309 19.47381 173.6241 10326665
-38.86729 20.728132 175.30257 7367010
-39.508812 20.732059 175.20038 7433058
-40.322033 20.491558 174.88086 8880503
-41.297207 20.449308 174.68822 9143161
-42.417473 20.261311 174.35901 9405307
-35.253178 21.883112 178.18219 8617331
-36.061115 21.65839 177.4039 8682611
-36.791176 21.550978 176.99001 8485232
-37.74802 21.262249 176.26497 7564642
-38.784092 21.247845 175.92645 7367010
-39.626274 21.244492 175.71898 7367010
-40.260193 21.243605 175.57437 8089963
-72.560722 1.7627019 158.61237 12236202
-73.547363 1.692006 158.41133 11050903
-74.619637 1.6934947 158.2218 8287342
-75.444496 1.4775763 157.99574 10392461
-125.55145 1.0109397 130.31734 8682867
-126.16895 1.0113914 130.01555 11183001
-127.19751 1.0121759 129.5071 11708831
-128.22992 1.0130051 128.9968 9143422
-129.05908 1.0136641 128.58708 7564651
-129.89099 1.0144192 128.17607 7038307
-130.72574 1.0151205 127.76386 7038307
-131.56335 1.015918 127.35024 9144191
-132.61473 1.0169212 126.83124 8946555
-133.67053 1.0179687 126.31015 9406335
-134.51874 1.0188516 125.89165 9339254
-135.37015 1.0197803 125.4717 10260872
-136.22461 1.0207049 125.05026 9537150
-137.08249 1.0216248 124.62737 11510937
-137.94362 1.0226401 124.2028 10787984
-138.80823 1.0237008 123.77678 11051672
-139.67618 1.024757 123.34907 8090987
-140.54767 1.0258584 122.91983 8024424
-141.42273 1.0270048 122.48877 10984593
-142.30139 1.0280964 122.05618 8813428
-143.18385 1.0292828 121.62177 7300958
-144.06998 1.0305643 121.18564 8025193
-144.95996 1.0317903 120.7477 9538432
-145.85385 1.0330613 120.308 9538432
-146.75217 1.0344265 119.86674 7169629
-147.65451 1.0357859 119.42363 7169629
-148.56107 1.0371399 118.97866 6511955
-149.47165 1.0385884 118.53164 9998216
-150.3866 1.040031 118.0827 11775139
-151.30588 1.0415175 117.63173 9932934
-152.22952 1.0430479 117.17863 8814710
-153.0957 1.0441684 116.67634 7039331
-153.94073 1.0451518 116.15337 13551541
-154.78896 1.046231 115.62845 10261899
-155.64053 1.0472552 115.10165 9735555
-156.49536 1.0483248 114.57285 10327180
-157.35371 1.0494896 114.04198 8879478
-158.21552 1.0506494 113.50917 12169634
-159.08084 1.0518039 112.9742 12169380
-159.94977 1.0530034 112.43715 7894382
-160.82239 1.054248 111.89796 9407364
-161.69873 1.0555869 111.35652 9012606
-162.57886 1.0568707 110.81289 9012606
-163.46291 1.0582486 110.26694 9866371
-164.35081 1.0596211 109.71863 7564130
-71.670265 2.662812 159.10263 9736836
-72.614601 2.5568941 158.89613 11972774
-73.685875 2.559684 158.70721 10525071
-74.510017 2.3443751 158.48158 9010808
-70.696701 3.4912591 159.58121 10130825
-71.681488 3.4225662 159.38123 10065545
-72.751396 3.4265914 159.19304 10919829
-73.526611 3.3569274 159.02985 10261899
-69.141342 4.9345875 160.38994 10459021
-69.983421 4.5904994 160.1136 9801860
-70.882156 4.5703597 159.94678 9801604
-71.831169 4.3880448 159.71124 9867142
-72.639717 4.0799742 159.45415 9735555
-68.207085 5.8020859 160.87598 12432037
-69.026154 5.5888667 160.65199 10393227
-70.092537 5.595655 160.46542 9933446
-71.038376 5.4922614 160.25954 9998983
-67.484612 6.6725273 161.32547 11511450
-68.09079 6.4579501 161.13878 11971744
-69.156479 6.4657741 160.95273 9866886
-70.142639 6.4000125 160.75359 9603969
-66.598434 7.3971076 161.75018 9012093
-67.367409 7.3301435 161.58913 9669763
-68.219475 7.3372092 161.44066 11182232
-69.195198 7.3014469 161.25443 10392973
-64.824463 8.8488703 162.60085 9537923
-65.51133 8.7083426 162.42719 9537923
-66.461807 8.4233227 162.15338 9406594
-67.526886 8.4333906 161.96825 10458254
-68.266663 8.1457195 161.73085 10787476
-64.691071 9.5086632 162.83321 9077625
-65.54673 9.518158 162.70024 8880763
-66.61647 9.5300837 162.52725 9406336
-67.441246 9.3173771 162.30986 10261129
-63.961708 10.604036 163.27985 9275004
-64.658638 10.347246 163.09169 9209467
-65.649101 10.403568 162.95158 9209467
-66.427773 10.339437 162.80862 8946299
-62.883442 11.771933 163.80386 10064262
-63.847813 11.48897 163.56532 9340797
-64.918686 11.503287 163.39977 9209467
-65.671593 11.217017 163.19379 9209467
-62.12746 12.650513 164.18933 10064262
-62.902443 12.587193 164.04721 8551537
-63.972851 12.60258 163.88199 9735299
-64.80555 12.391644 163.68614 9209467
-61.102352 13.675707 164.66174 10064262
-61.931969 13.464808 164.46637 11050899
-63.001095 13.480811 164.30153 8617331
-63.778614 13.418173 164.15926 9866885
-60.198524 14.57128 165.2648 8089962
-61.21228 14.356417 164.95532 10129544
-62.191387 14.294662 164.75217 11050643
-63.075367 14.153201 164.49298 10853012
-54.26424 15.972116 168.23126 8682867
-54.909901 15.982649 168.15248 10787726
-56.95351 15.49111 166.89267 10986134
-57.590305 15.499688 166.78658 11841700
-58.508175 15.321958 166.4525 10262155
-59.399509 15.169865 166.17154 8288111
-60.440968 15.069296 165.92902 6248015
-47.186199 16.585331 172.17009 9210491
-48.050068 16.596609 172.06886 10064262
-48.915356 16.608328 171.96765 8682867
-55.988655 16.000734 168.0229 9340796
-56.853897 16.015839 167.92061 9209467
-46.082119 17.80065 172.74895 11709084
-47.060654 17.505911 172.52196 9867908
-48.089809 17.427565 172.36784 9406845
-48.745586 17.067019 172.15604 8682867
-45.305939 18.716806 173.17799 9078137
-46.22562 18.698513 173.05925 9407870
-47.162434 18.549198 172.89055 9933444
-44.527893 19.636639 173.60861 8090729
-45.313824 19.569807 173.48845 8091243
-46.305668 19.537413 173.35573 9078137
-41.863895 20.74872 174.82693 10260358
-42.507206 20.753897 174.72554 8616048
-43.534309 20.516941 174.37366 8550511
-44.520073 20.444056 174.15558 7170141
-45.4189 20.288893 173.88808 8420208
-37.494347 21.813421 177.15915 10853012
-38.118141 21.803814 176.95049 7433058
-38.951412 21.792591 176.68295 8089963
-40.010124 21.789289 176.42943 6381143
-40.982609 21.515434 175.80765 6972764
-41.737881 21.241766 175.22925 8616048
-42.812263 21.250805 175.05997 8089704
-43.67263 21.258533 174.92485 7037274
-38.908718 22.343805 177.50282 8089963
-75.515671 1.9119211 158.14359 9932422
-76.559006 1.6963462 157.87895 9669763
-77.641388 1.6980473 157.6877 10788500
-78.425201 1.6265479 157.52234 10393741
-74.843857 2.6353574 158.52986 10392717
-75.622635 2.5649891 158.36577 9932934
-76.703812 2.568084 158.1752 10525072
-77.751648 2.3525362 157.90979 12433069
-74.12323 3.5046635 158.97864 9735555
-74.90168 3.4351041 158.81493 10327693
-75.765724 3.4386542 158.66302 9275004
-76.547653 3.3689244 158.49866 9932934
-72.347328 4.9528937 159.82829 8616822
-72.979965 4.6065001 159.58821 8485746
-73.936821 4.4694958 159.36795 9077882
-75.043533 4.3110709 159.1133 9341054
-75.873383 4.0960469 158.88673 9604226
-71.410263 5.8236461 160.31598 9932678
-72.235107 5.6100035 160.09084 8353650
-73.095871 5.6159835 159.94044 7695976
-74.151375 5.4768157 159.70193 8617331
-74.933784 4.968853 159.3756 9341054
-70.472466 6.6955996 160.80418 9735299
-71.297081 6.482275 160.5793 9077371
-72.372101 6.4908776 160.39185 7038049
-73.150993 6.4236937 160.22891 6840926
-73.847786 6.2822194 160.05318 7563619
-69.748207 7.5707455 161.25583 9735299
-70.358139 7.3556881 161.06828 9603969
-71.432381 7.3654089 160.88144 8879993
-72.426178 7.3008389 160.68135 7564392
-68.719681 8.7104082 161.85905 9735042
-69.564903 8.3903217 161.59102 9537921
-70.525322 8.4633846 161.44766 9406846
-71.443367 8.1400414 161.16551 9406847
-67.769081 9.6169338 162.36238 10063749
-68.758072 9.554038 162.1638 9340280
-69.831894 9.5664186 161.97798 10196362
-70.444138 9.3508339 161.78978 9341310
-67.01886 10.494816 162.76178 9340022
-67.800537 10.43108 162.6185 10129542
-68.881035 10.445462 162.45103 9603197
-69.716408 10.233685 162.24489 11510938
-66.031456 11.852383 163.32866 11708316
-66.827888 11.307072 163.03752 9603197
-67.906929 11.322363 162.87094 9734782
-68.691338 11.259349 162.72745 9340022
-65.126076 12.694004 163.72662 9603968
-66.122261 12.634809 163.55067 12103073
-67.175095 12.427725 163.32108 9866371
-67.932594 12.141134 163.11426 9603196
-64.367981 13.576587 164.11365 10655633
-65.148239 13.514477 163.97105 10064263
-66.226372 13.532122 163.8053 10458507
-67.064468 13.321561 163.60872 9866371
-62.56889 14.612402 164.94972 10261387
-63.435051 14.628237 164.83566 9538176
-64.297523 14.361796 164.47408 9932678
-65.207939 14.346108 164.31113 9998472
-66.088478 14.203526 164.03008 9866371
-59.932644 15.533005 166.39754 7169117
-60.787479 15.545971 166.25621 7169117
-61.653095 15.277333 165.89546 7498082
-62.558506 15.260174 165.72202 9406079
-63.44524 15.117524 165.45485 9472383
-49.998909 16.623579 171.84103 9208954
-51.084614 16.639462 171.71446 8682867
-51.954952 16.652632 171.61316 9011576
-57.287426 16.023628 167.87006 9209467
-58.156567 16.039566 167.77005 12170665
-59.245907 16.060259 167.64645 9867398
-48.405426 17.987194 172.53394 9209467
-49.226246 17.536348 172.26903 9603968
-50.288219 17.320707 172.06064 8814453
-51.077503 17.255583 171.94063 8880246
-47.630207 18.904583 172.96333 9735296
-48.258205 18.68157 172.80536 9603711
-49.396854 18.599569 172.63666 10064260
-50.304455 18.170904 172.36957 9932421
-46.853142 19.825579 173.39417 9735812
-47.481899 19.601738 173.2359 9998211
-48.569035 19.618885 173.1097 9603967
-49.416298 19.398853 172.92606 9209467
-44.869549 20.775698 174.35487 8420208
-45.730423 20.784693 174.22067 8814966
-46.619144 20.498831 173.85356 9471872
-47.531166 20.476294 173.68587 10063750
-48.43124 20.32271 173.41814 9735296
-42.13335 21.78812 175.94771 7037274
-43.19553 21.788919 175.70879 8616048
-44.064896 21.61445 175.29817 7959144
-44.822952 21.530704 175.04276 9012088
-45.827438 21.280537 174.58847 9275261
-46.690895 21.290199 174.45435 9734788
-39.544773 22.340456 177.34128 7367010
-40.397343 22.339048 177.1465 5921106
-41.463497 22.338291 176.90425 3749937
-42.316628 22.338266 176.71129 3749937
-79.030411 1.7730064 157.46907 11775907
-79.817902 1.7016275 157.3031 12565422
-80.692963 1.7030892 157.14853 10459534
-81.484337 1.631397 156.98172 9802116
-77.825348 2.7900288 158.05832 11709091
-78.877228 2.5745766 157.79227 12236202
-79.969612 2.5779829 157.59982 10657170
-80.760475 2.5072412 157.4335 10393997
-77.150734 3.5175529 158.44661 10327692
-77.936142 3.4479432 158.28162 14076870
-79.027229 3.4528263 158.08998 11248797
-79.864601 3.2365341 157.86168 9735812
-76.162468 4.5367775 158.9982 10788244
-77.074875 4.2783604 158.74104 10262158
-78.084427 4.3281279 158.58038 12235437
-78.873199 4.2591987 158.4151 12235437
-74.642731 5.8473711 159.75162 8090987
-75.279266 5.4995928 159.51031 9341054
-76.307358 5.4189119 159.29828 9604226
-77.338043 5.3380399 159.08565 8420212
-78.195984 4.9904413 158.80518 9539207
-73.485428 6.7207422 160.2794 6511962
-74.409615 6.5520678 160.05318 7827559
-75.400681 6.5164509 159.86433 9012089
-76.394646 6.4808822 159.67497 9077625
-72.759995 7.5990896 160.73227 6511962
-73.373932 7.3836269 160.5439 7037790
-74.457573 7.3941708 160.35564 7563619
-75.459923 7.3300238 160.15427 9537919
-71.729431 8.7425575 161.33728 8880502
-72.682358 8.4864502 161.07379 7432548
-73.766098 8.4985476 160.88609 7563619
-74.73275 8.2121391 160.60892 9340027
-70.776352 9.6518517 161.84206 12499630
-71.773102 9.5896473 161.64238 9341310
-72.855988 9.6030998 161.45535 8352877
-73.472221 9.3871593 161.26637 7563619
-70.044037 10.535302 162.28813 12366760
-70.828018 10.471578 162.13475 12302251
-71.910446 10.486081 161.94908 9669248
-72.743301 10.273011 161.72264 10851980
-69.287521 11.416954 162.68039 10326667
-70.075027 11.354354 162.53661 10129545
-71.16433 11.371082 162.36877 9801092
-72.00959 11.160166 162.17097 8616048
-68.148415 12.741532 163.26144 9603197
-69.125313 12.458821 163.02103 11313814
-70.213264 12.476818 162.85381 9866373
-70.975914 12.189938 162.64616 10590095
-67.38839 13.626583 163.64944 9274235
-68.174667 13.56531 163.5062 9867140
-69.261795 13.584553 163.33951 10393740
-70.105988 13.374302 163.14206 10590095
-65.60952 14.669378 164.55147 9537921
-66.547043 14.568727 164.31136 10064263
-67.483238 14.467648 164.06396 9142906
-68.255463 14.242317 163.69794 10656913
-69.125977 14.258472 163.5647 10656913
-62.931538 15.579978 165.90292 9011320
-63.866859 15.477801 165.65842 8748404
-64.803528 15.375898 165.41388 9866885
-65.741364 15.274143 165.1693 9669763
-66.680618 15.172662 164.92464 10262156
-52.608624 16.662754 171.53708 8682867
-53.263294 16.67318 171.46112 9274492
-54.356495 16.691051 171.3343 10195082
-60.339157 16.081783 167.52457 9735044
-61.436237 16.104122 167.40466 9011064
-62.096478 16.117943 167.33369 7761509
-51.618824 17.572849 171.99057 9011576
-52.330463 17.306387 171.80635 8814197
-53.340328 17.369343 171.70622 9471615
-54.134144 17.305399 171.58604 10853012
-50.514473 18.794838 172.57178 10064008
-51.500122 18.500914 172.34428 9537664
-52.593075 18.51965 172.21791 9142906
-53.361706 18.222118 172.01543 9405822
-49.738888 19.716063 173.00261 9669762
-50.531239 19.651604 172.88254 9932934
-51.532021 19.622345 172.74986 9932422
-47.886391 20.809265 173.88614 9734788
-48.832607 20.697802 173.644 9472124
-49.781483 20.587612 173.40901 9275004
-50.7383 20.48103 173.20081 9932934
-45.532562 21.793072 175.17906 9209467
-46.16111 21.790672 175.00029 12169381
-47.045616 21.626001 174.65608 9734788
-48.03936 21.555389 174.43842 9997959
-49.071056 21.319883 174.08693 9208699
-49.72163 21.328648 173.98706 8682867
-42.743378 22.338539 176.61519 7037274
-43.38356 22.339195 176.47142 6774102
-44.451057 22.341089 176.23289 8551537
-45.519272 22.343948 175.99556 8748660
-46.160515 22.346106 175.85376 11708831
-82.096703 1.778747 156.92755 9867909
-82.858551 1.7063476 156.69682 10262667
-83.640778 1.7059162 156.3504 12301224
-84.619431 1.7053952 155.91699 9801347
-85.599014 1.7049474 155.48323 9801603
-86.383453 1.7046632 155.13589 9209467
-87.364975 1.704338 154.70129 9209467
-88.34758 1.7040613 154.26624 9274236
-89.134583 1.7038739 153.91777 8550513
-90.119598 1.7037524 153.48175 8617331
-91.02607 1.6300637 153.05104 8616819
-91.853661 1.4827328 152.62566 9405566
-92.842163 1.4826148 152.18802 10327180
-81.104744 2.801445 157.48108 10130825
-81.946533 2.5843978 157.25171 9999239
-83.010643 2.5868719 156.98224 9999239
-83.794395 2.5867133 156.63527 11840672
-84.77491 2.5866146 156.20122 9801347
-85.756348 2.5866146 155.76678 9604224
-86.542206 2.5866539 155.41895 10130569
-87.40712 2.4762883 154.99194 9998983
-88.469398 2.3659322 154.4774 9472639
-89.060471 2.366034 154.21591 9735812
-80.207756 3.5316062 157.90981 10065033
-81.000771 3.4619455 157.74345 9012088
