# .PCD v0.7 - Point Cloud Data file format
VERSION 0.7
FIELDS x y z rgb
SIZE 4 4 4 4
TYPE F F F U
COUNT 1 1 1 1
WIDTH 1221
HEIGHT 1
VIEWPOINT 0 0 0 1 0 0 0
POINTS 1221
DATA ascii
123.48936 -28.691593 129.07346 9011576
119.10124 -28.696095 129.37955 9143675
118.47616 -28.695234 129.95058 10195594
114.17633 -28.699852 130.17773 9670019
113.38966 -28.69887 130.86125 10261899
110.25986 -28.820976 131.02188 9209984
109.37711 -28.796461 131.57196 10722963
108.66095 -28.774727 131.99779 7564651
105.77107 -28.988878 132.66193 9735812
22.272755 -28.928947 149.17958 10459536
21.137386 -28.854231 148.93733 10590864
20.383469 -28.805084 148.77493 9142907
11.158862 -28.765175 151.55273 11904668
10.351546 -28.600613 151.55566 10260358
9.3774157 -28.450384 151.21806 8616304
131.6981 -27.195185 126.73752 7958888
131.00314 -27.529341 127.16156 8287853
130.27299 -27.56979 127.75316 7958375
10.066384 -28.001007 151.6942 8616048
9.3228083 -27.577457 151.53845 8616818
8.4812479 -27.419273 151.23561 8682867
132.02148 -26.393566 126.84396 8880246
131.21364 -26.450958 127.49262 8813941
9.1513605 -26.8389 151.7552 8682867
8.5018282 -26.470858 151.61841 8880246
7.8474689 -26.375635 151.37195 8682867
132.87369 -25.482944 126.55945 10064521
132.08246 -25.511347 127.20781 9142651
131.517 -25.721401 127.58183 9537408
8.3298998 -25.687351 151.85268 9538176
7.5353732 -25.583199 151.54889 8288366
133.56023 -24.433264 126.47881 8484721
133.06107 -24.512083 126.85922 8089962
132.48274 -24.633909 127.28557 8813686
8.2507601 -24.955051 152.10699 10459278
7.4602103 -24.580534 151.91153 8090987
6.6125579 -24.403275 151.61356 8090987
133.75801 -23.252382 126.86865 8221548
133.18726 -23.686102 127.14201 7563619
7.2731719 -23.674015 152.18774 8880503
6.4021926 -23.554789 151.85674 9341054
5.6601634 -23.324284 151.6256 10129801
134.08632 -22.442024 126.97512 7037274
6.3686728 -22.68922 152.18338 10327693
5.5221229 -22.517118 151.88387 9208443
6.055614 -21.713055 152.43234 10459022
5.4177146 -21.544052 152.22212 9274236
4.7559752 -21.27075 152.04269 9405822
5.3229747 -20.574526 152.56319 8681843
4.5781341 -20.532093 152.25668 9735043
3.8374972 -20.308481 152.02339 9208443
4.4805274 -19.666235 152.55563 10393486
3.5975356 -19.445166 152.2596 9076857
4.2237601 -18.685457 152.83064 10591121
3.4814715 -18.464695 152.59549 9406078
2.7400737 -18.427965 152.28831 8681843
3.3021522 -17.539885 152.88196 8617074
2.4800334 -17.631954 152.48897 9012344
3.119844 -16.980608 153.02309 8092019
2.4850059 -16.636909 152.88307 9013118
1.7010188 -16.427937 152.6252 10789011
2.3824191 -15.844545 153.15062 8092019
1.5964484 -15.498438 153.03781 11708829
0.78065056 -15.30271 152.81996 9932422
0.42978999 -14.6991 153.16721 9142906
-0.32632306 -14.435425 153.05602 9735043
-1.3173242 -13.990904 153.77086 8419953
-2.4235368 -13.961241 153.40179 8880503
-9.2102156 -13.779158 155.39153 8419185
-10.333646 -13.780735 155.31995 8945272
-11.269446 -13.78207 155.25426 8092019
-12.017812 -13.783146 155.19766 11709860
-13.227988 -13.2866 156.12994 11841962
-14.155463 -13.276274 155.90317 8090987
-14.904811 -13.080444 155.80725 8090987
-13.430964 -12.714113 156.27373 13881805
-14.181716 -12.517792 156.17764 9012347
-15.224114 -12.471399 155.96057 7630180
-14.204747 -11.8524 156.41833 8090987
-15.008225 -11.513124 156.36322 7367522
-16.03174 -11.506025 156.13588 5919050
-16.835049 -11.167927 156.08037 5919050
-15.24116 -10.669434 156.62267 7170403
-16.113428 -10.600334 156.45224 6314323
-17.044348 -10.594889 156.24506 5656133
-16.255291 -9.6979008 156.75388 6380115
-17.161167 -9.693224 156.55209 5261887
-17.950687 -9.4051895 156.48112 5196350
-17.063419 -8.6157818 156.9722 5722695
-18.065008 -8.4835377 156.79607 4933178
-19.06601 -8.3518524 156.61983 4669750
-18.179888 -7.5589323 157.11197 4867129
-19.151958 -7.5559602 156.89467 4406578
-19.797874 -7.3228478 156.83565 4866873
-19.002787 -6.6068201 157.27895 4866873
-20.021389 -6.5493217 157.07132 4406578
-20.906742 -6.2897758 156.96796 5920074
-19.308426 -5.7754569 157.51755 4340785
-20.067455 -5.5799327 157.41888 4867129
-21.19145 -5.5784273 157.16589 6512211
-21.950052 -5.383471 157.06664 8420208
-20.282888 -4.9962049 157.58551 5920074
-20.972069 -4.6056728 157.57397 6051660
-21.946011 -4.5563321 157.37241 8880759
-22.760763 -4.2149563 157.31436 5393730
-21.289003 -3.6287446 157.86258 5920074
-22.040791 -3.6287138 157.69295 7433313
-23.094522 -3.5896819 157.46957 5393730
-22.076271 -2.9427929 157.93779 6775127
-22.894018 -2.5993826 157.87985 6380369
-23.928488 -2.6000881 157.64618 5985611
-23.144913 -1.7302964 158.1436 6840920
-24.027781 -1.6655424 157.96823 7301214
-24.910294 -1.600854 157.79295 9077110
-23.99427 -0.91485143 158.25252 6906712
-24.897112 -0.62900412 158.21443 10063747
-25.864506 -0.54813325 158.0461 13023917
-26.774017 -0.2855587 158.01811 12432037
-25.312067 0.11505842 158.66072 5920074
-25.959753 0.24701226 158.61836 9932161
-26.85154 0.31179547 158.46872 10787469
-27.824413 0.50950706 158.40492 8485229
-28.922756 0.9127959 159.02011 7695972
-29.691414 0.91155255 158.89024 7958888
-28.16094 0.91437244 159.18806 6511954
-30.078058 0.91102886 158.83736 5919050
-30.464827 0.91060495 158.78435 5919050
-48.885677 1.377035 163.31329 9867139
-49.527241 1.58902 163.30261 8485745
-50.472881 1.5465102 163.15762 9406078
-51.400173 1.6952584 163.08484 10261133
-49.802898 2.2262368 163.49706 8090987
-50.447044 2.4396691 163.48657 8945271
-51.483829 2.440547 163.34489 10195081
-52.461422 2.5126448 163.23732 9735046
-50.724815 3.0799351 163.68182 8681843
-51.371742 3.29494 163.67152 10852751
-52.412193 3.2968214 163.52975 9537407
-53.393505 3.3701975 163.42209 9010807
-51.651711 3.9384308 163.86769 10129030
-52.44862 4.227262 163.86374 9208954
-53.429035 4.4275594 163.80244 8419696
-54.385838 4.4630241 163.6843 10063749
-55.098347 4.8108768 163.7135 9538176
-53.347469 5.3808923 164.16095 9012343
-54.335091 5.4572787 164.05356 8946295
-55.386532 5.461987 163.91125 9538176
-56.044872 5.6820536 163.90128 10459278
-54.4244 6.2173481 164.31822 9471871
-55.369427 6.3747616 164.24614 9275004
-56.3354 6.3366137 164.09993 10459022
-56.996769 6.5585279 164.09023 10655889
-55.371052 7.0946064 164.50818 9208955
-56.316166 7.4839482 164.5206 10590096
-57.316792 7.4362884 164.36618 9998471
-58.132668 7.7348485 164.36324 9669762
-56.362934 8.3071651 164.81412 9406078
-57.238731 8.5343781 164.77368 9208955
-58.304768 8.5436287 164.63434 9340799
-59.096882 8.6241817 164.55516 9735302
-57.523907 9.1974297 164.94891 9011576
-58.281002 9.4699574 164.94029 9143419
-59.26593 9.4364357 164.81262 8946557
-60.063648 9.5188599 164.73975 9537923
-58.496922 10.312508 165.16573 9209467
-59.359241 10.322794 165.06653 9077883
-60.348656 10.290548 164.93962 9208954
-61.113899 10.566736 164.93121 10261129
-59.318348 11.166201 165.32269 9669761
-60.197533 11.445297 165.30162 10063492
-61.311672 11.193071 165.09436 9734782
-62.080418 11.471746 165.08621 9208435
-60.49371 12.193705 165.48949 9866371
-61.220547 12.418137 165.47014 9800578
-62.26511 12.306313 165.31299 10261127
-63.01289 12.681719 165.33615 11510938
-61.49287 13.40604 165.73219 10129799
-62.301838 13.494919 165.66277 9539200
-63.177563 13.510241 165.56349 11248023
-63.990734 13.600073 165.49382 9669251
-62.376087 14.17308 165.85603 9933702
-63.252926 14.189224 165.75687 10262667
-64.126831 14.498646 165.99959 9011575
-65.082756 14.549908 165.92876 8090987
-66.11132 14.732903 165.99425 8090987
-66.775505 14.746161 165.91365 9933961
-65.364655 15.193056 166.4476 8814198
-66.230751 15.371389 166.48534 8552055
-67.120056 15.522303 166.53349 9539204
-68.10733 15.581118 166.50668 9012862
-69.182449 15.776594 166.64478 10262927
-69.878067 15.796864 166.61609 8618361
82.060135 -43.275002 137.61221 9735043
81.091965 -43.351936 138.05818 9800836
80.228516 -43.335278 138.48994 9077625
79.345322 -43.420006 138.75583 8814197
78.36087 -43.665596 138.70702 9537920
77.264069 -43.719692 139.10144 10590608
76.424812 -43.719402 139.56293 7893352
73.855667 -43.723553 139.21092 8419696
73.352066 -43.723412 139.47583 8813686
72.510483 -43.723198 139.91341 10918805
71.497208 -43.722969 140.43201 8945528
68.294273 -43.727127 140.34763 11183510
67.447548 -43.727001 140.75478 12498856
66.428421 -43.726879 141.23676 9473152
65.576576 -43.726803 141.633 10262667
65.064331 -43.726757 141.8683 10262667
62.243683 -43.731209 141.51669 9143165
61.561016 -43.731197 141.81378 9800579
60.705593 -43.731205 142.1804 9735811
59.676353 -43.731228 142.61362 11709860
58.598492 -43.811142 142.73193 13551549
57.752361 -43.888435 142.81851 11972262
56.669399 -43.953888 143.10576 8089963
55.798889 -43.948074 143.42366 9537665
54.865299 -43.893723 143.57495 10721939
53.746704 -43.82972 143.75269 12103588
52.815842 -43.777283 143.89745 8881015
51.902985 -43.73983 144.08568 9341310
50.856365 -43.73682 144.44449 10392712
49.810947 -43.737072 144.80661 10458246
49.11269 -43.737251 145.04408 9537662
44.658909 -43.742882 144.98254 10525327
43.784756 -43.743195 145.24739 11183001
42.909149 -43.743526 145.50731 9932934
42.031921 -43.743877 145.7616 9538176
40.977322 -43.74432 146.05992 6050636
39.920574 -43.744785 146.35072 5392706
39.038414 -43.745197 146.58734 7038307
38.154728 -43.745621 146.81831 7432808
37.092529 -43.746151 147.08868 7564136
36.0285 -43.746708 147.35139 10064008
35.089523 -43.622547 147.61478 9734787
34.155869 -43.424698 147.3587 9735302
83.767097 -42.049355 137.26343 8813936
83.021461 -42.310146 137.526 7959143
82.226089 -42.533424 137.82811 9274748
81.233398 -42.577858 138.29916 9274748
80.368423 -42.56152 138.73169 8748916
79.814857 -42.745853 138.9303 8288365
34.190472 -42.564548 147.71478 9340802
33.281342 -42.493942 147.34785 10459281
84.782845 -41.29427 137.06616 9537402
84.147392 -41.512794 137.29143 9932160
83.181732 -41.451424 137.79166 9603197
82.185822 -41.494976 138.26465 9274748
81.437225 -41.843163 138.49362 8748660
33.925938 -41.564445 147.99611 7564651
33.146969 -41.578789 147.65224 8288116
32.313587 -41.131123 147.46773 8682867
86.576035 -40.168499 136.63484 12433069
86.014534 -40.349106 136.83885 10985367
85.105049 -40.521313 137.21765 8682352
84.112106 -40.448696 137.73582 9537402
83.280678 -40.608921 138.08105 10261126
82.594757 -40.854282 138.32037 9735043
33.047997 -40.638206 147.98021 8880249
32.212025 -40.462082 147.68706 10788243
88.029922 -39.032909 136.37442 11379095
87.07737 -39.39864 136.69684 11577503
86.067078 -39.528755 137.14218 9538177
85.213104 -39.585758 137.53992 8419182
84.311478 -39.623302 137.96887 8419440
32.855804 -39.758751 148.2429 8682867
31.995729 -39.585194 147.93834 9340797
31.248917 -39.339077 147.71143 8682867
88.80246 -38.400341 136.24782 11905438
87.969391 -38.442238 136.64125 10524044
87.033684 -38.534752 137.06503 9801349
86.211433 -38.641178 137.42729 8946296
85.309914 -38.831417 137.79491 8485233
31.891058 -38.597664 148.2816 10064520
31.161724 -38.492676 148.0067 8551284
30.52272 -38.329079 147.79399 7038307
90.70874 -37.144375 135.81296 8617081
89.895645 -37.40155 136.11023 8616566
89.041893 -37.489239 136.4955 9142649
88.161102 -37.464912 136.93904 9866115
87.301186 -37.520878 137.34015 11117209
86.678131 -37.819332 137.52725 12433069
31.157951 -37.621082 148.34807 8880251
30.327665 -37.457298 148.05251 8419700
91.970734 -36.195854 135.57204 9866631
90.906174 -36.518848 135.96677 8945789
90.041092 -36.572163 136.37141 9011324
89.059296 -36.505085 136.8819 8616306
88.314644 -36.682022 137.1777 9734529
31.053349 -36.952732 148.56577 9143166
30.222101 -36.521965 148.37482 9932424
29.471619 -36.375671 148.10699 8090736
92.779716 -35.389847 135.49748 9473152
91.913284 -35.600368 135.83942 9933191
91.025574 -35.573753 136.28722 9932937
90.158669 -35.62788 136.6925 9077115
89.437424 -35.792236 136.98174 8682357
30.079332 -35.611259 148.67133 10261132
29.184729 -35.569454 148.29988 10787471
94.649094 -34.23243 135.04263 10064776
93.846725 -34.338894 135.39476 9209980
92.991058 -34.493977 135.75357 9736067
92.030739 -34.365715 136.27774 9472384
91.204277 -34.688503 136.55475 11051415
29.166269 -34.571686 148.68452 10459276
28.318209 -34.419304 148.37682 8682867
95.532585 -33.464943 134.91641 9341053
94.860794 -33.509266 135.22914 9472639
93.965042 -33.480831 135.68147 8617843
93.070435 -33.453442 136.13274 8354927
92.493835 -33.635166 136.34346 8618099
28.891893 -33.585869 148.95352 13683136
28.241579 -33.614635 148.66022 10393741
27.562733 -33.363483 148.46478 9143418
97.495003 -32.198704 134.45949 9735555
96.776581 -32.441204 134.71562 10130570
95.912285 -32.595848 135.07884 9933190
94.944077 -32.465008 135.60791 10064264
94.049423 -32.726665 135.94308 10262155
93.371475 -32.865639 136.2209 9736067
28.254488 -32.69313 149.02846 10525327
27.415489 -32.45816 148.75717 9077373
98.727585 -31.137278 134.27962 9274495
97.847168 -31.40848 134.60384 10721426
96.900269 -31.577707 135.00183 10853012
95.99765 -31.548723 135.45772 10261388
95.322777 -31.594433 135.77147 10261388
27.369429 -31.533461 149.1011 9603717
26.528145 -31.588186 148.71478 9274751
99.638008 -30.425026 134.12602 8814459
98.794861 -30.437252 134.54079 9735046
97.889908 -30.408302 135.00368 9931910
97.027863 -30.713867 135.29405 9800324
96.123734 -30.951988 135.63553 10261388
27.086679 -30.837675 149.25232 10064011
26.306669 -30.573488 149.03465 8485495
25.35483 -30.12306 148.87587 8617080
103.18458 -29.23527 133.32188 7893349
102.5161 -29.34034 133.56126 9867401
101.72574 -29.339346 133.95029 9143680
100.81913 -29.539249 134.22624 10655890
99.974457 -29.639521 134.55693 9735046
98.96582 -29.766897 134.94373 8945787
26.192146 -29.870272 149.44368 9340545
25.189882 -29.535051 149.3093 8485238
24.401602 -29.166862 149.444 10853012
129.15031 -28.316881 128.34081 10129286
128.18974 -28.531082 128.74236 10129801
127.46421 -28.547085 129.33481 9472644
123.02198 -28.690901 129.51794 9406078
122.39587 -28.689993 130.10753 8682867
118.00568 -28.694599 130.37692 10853012
117.3755 -28.693764 130.9424 9932424
116.74312 -28.692936 131.50537 11183258
112.44043 -28.697721 131.67529 11841187
111.64508 -28.696777 132.34866 7960425
108.12393 -28.75868 132.31599 10590609
107.58675 -28.742987 132.6333 9471871
106.69215 -28.717369 133.15973 7103067
105.70094 -28.839542 133.23163 8814453
104.7039 -28.959343 133.28647 11182226
103.81457 -28.935425 133.80434 8879986
103.10338 -28.916824 134.21666 9143680
23.413351 -29.00494 149.41975 9143423
22.439631 -28.754898 150.31038 7564651
21.352339 -28.755783 150.46736 7892843
20.44549 -28.75654 150.59232 9142907
19.537796 -28.757309 150.71147 8616563
18.447718 -28.758257 150.84744 8550771
17.356651 -28.759228 150.97554 7563619
16.446781 -28.760056 151.07649 8092019
15.536275 -28.7609 151.17151 8092019
14.442969 -28.761934 151.27861 11315103
13.348891 -28.762991 151.37775 10721939
12.436715 -28.763889 151.45461 8089963
11.558448 -28.461027 151.99091 7760997
10.81717 -28.245287 151.92369 7037274
129.93674 -27.233826 128.19234 7563618
129.26292 -27.503929 128.62888 8550768
128.50114 -27.717674 129.13734 11313817
11.341989 -27.622046 152.39723 7037274
10.456405 -27.566273 152.03487 8813427
130.89548 -26.151011 127.89969 7629411
130.25304 -26.403557 128.31821 6313808
129.52568 -26.420008 128.91876 6971738
10.479693 -26.684113 152.39272 8221290
9.6653318 -26.394707 152.15338 9275004
131.63173 -25.281744 127.69274 9537408
131.06664 -25.492123 128.06635 8287341
130.39001 -25.480049 128.63794 10853524
9.7494249 -25.533817 152.52924 8419951
8.8675508 -25.48526 152.16562 10459278
131.97362 -24.624384 127.71584 10195082
131.29524 -24.612083 128.28894 9208443
130.72977 -24.823391 128.66252 10853012
9.3903875 -24.672865 152.7128 7235421
8.6830091 -24.576487 152.44383 11446430
7.8894782 -24.201691 152.24721 8090987
132.88628 -23.421198 127.51834 8089963
132.20534 -23.456619 128.07112 7826790
131.5619 -23.804688 128.4456 9076857
8.5491171 -23.569729 152.78258 10854037
7.7545352 -23.390654 152.50833 9603970
133.7448 -22.435722 127.26366 7037274
133.14209 -22.380461 127.79369 7563618
132.4928 -22.636345 128.21642 7037274
8.2952604 -22.768787 152.98814 10590609
7.489511 -22.611603 152.70044 8616563
6.7960143 -22.306452 152.51976 10591121
134.05901 -21.504387 127.43884 7432032
133.26585 -21.646986 128.0351 8089962
7.4961791 -21.740896 153.04657 8879735
6.7018046 -21.517538 152.78986 10064265
6.0634837 -21.165871 152.6514 10854036
134.73312 -19.99404 127.58528 13353909
134.23866 -20.56189 127.73174 10195337
133.46986 -20.868753 128.23041 10261132
6.7175994 -20.524155 153.18834 10064521
5.9230552 -20.499126 152.85339 10985367
134.91023 -19.323498 127.7524 8682867
134.50748 -19.541676 127.98663 8089962
6.4608035 -19.722475 153.3929 11906725
5.6630187 -19.632395 153.08215 11051672
4.9625506 -19.457008 152.84732 12038567
5.5968871 -18.695061 153.42267 9143675
4.7063479 -18.474127 153.12328 11314843
5.3570533 -17.823153 153.66196 8420208
4.6087031 -17.602295 153.42429 7564899
3.8607631 -17.566444 153.11391 7170141
4.4286113 -16.856302 153.63995 7762278
3.6823745 -16.591713 153.42039 8288880
3.1246066 -16.244768 153.31506 8092019
3.689569 -15.717249 153.79102 9670276
2.8051238 -15.456921 153.59245 8092019
2.0166507 -15.113665 153.5117 8092019
2.518867 -14.657127 154.10577 9735814
1.6491332 -14.565548 153.80437 11445915
0.90637726 -14.360331 153.6498 11709089
0.72388595 -14.047035 154.44691 9800836
-0.2061353 -14.021231 154.13968 9208443
-4.3371491 -13.772579 155.60812 10853012
-5.0871987 -13.773563 155.5845 10655633
-6.2121224 -13.775059 155.54269 9670024
-7.1493783 -13.776323 155.50191 9143681
-8.0862913 -13.777601 155.45499 9143424
-11.200362 -13.528912 156.89786 8814971
-11.942607 -13.319099 156.65842 9078656
-12.6774 -13.299685 156.34735 12630704
-12.038562 -12.595144 156.90172 10262415
-12.997144 -12.49576 156.52831 14342356
-12.358489 -11.787855 157.08063 13288633
-13.100818 -11.580482 156.84172 14472912
-13.974708 -11.314421 156.66887 8090987
-13.132808 -10.625755 157.20215 13814722
-13.874194 -10.615183 156.9541 8420467
-14.748109 -10.545284 156.77936 7301987
-13.951972 -9.7046986 157.27528 9209728
-15.029431 -9.6499329 157.04706 7564904
-15.784455 -9.4540138 156.9498 6445909
-14.307509 -8.8857155 157.49171 10064265
-15.004172 -8.6252403 157.4314 7366495
-15.869636 -8.4445992 157.30373 6116429
-16.704926 -8.2325277 157.19444 7235678
-15.85773 -7.5284247 157.645 6181965
-16.983114 -7.5242829 157.39365 7104089
-17.74058 -7.3286719 157.29572 5722695
-16.135508 -6.8178101 157.84521 6840405
-16.973492 -6.6051555 157.7355 7564126
-17.882875 -6.498848 157.57048 6051147
-18.53203 -6.3589749 157.4763 5919050
-17.054064 -5.7799621 158.02238 6840405
-17.81448 -5.5837383 157.92403 6182477
-18.868513 -5.5429325 157.7023 5063996
-18.078642 -4.6866398 158.19621 5919050
-18.936329 -4.6562858 158.01454 5721670
-19.806551 -4.4765034 157.88455 5261888
-20.508238 -4.2157555 157.82231 5920074
-18.900949 -3.6948431 158.377 5919050
-19.783346 -3.6291199 158.20213 5525060
-20.724672 -3.6288426 157.98981 5788488
-19.948889 -2.7784019 158.47835 6445903
-20.911427 -2.6966994 158.29131 5722438
-21.729855 -2.3529778 158.23335 6709588
-20.820482 -1.6621307 158.69313 7235161
-21.764919 -1.6631018 158.47972 6972758
-22.649063 -1.5982329 158.30415 6643540
-21.038675 -1.06914 158.8625 5393730
-21.805149 -0.87206292 158.76218 6051659
-22.831102 -0.67519546 158.6568 5656901
-23.75066 -0.28018042 158.70207 5722951
-23.038195 0.11960518 159.17551 5393730
-23.891022 0.27778804 159.10739 5789256
-24.76795 0.31599432 158.94016 5920330
-25.550659 0.51420259 158.91937 5920074
-25.875956 0.91944444 159.70695 6511954
-26.638012 0.91775298 159.53391 6511954
-27.590042 0.91569006 159.3177 6511954
-45.598042 1.3782401 163.76395 11378324
-46.234478 1.5894575 163.75369 9735040
-47.261494 1.589242 163.61299 10985364
-48.290234 1.5890906 163.47205 12629672
-48.931004 1.801002 163.4615 9867139
-46.504147 2.2247567 163.94824 8484973
-47.262302 2.3949506 163.90642 10590605
-48.260487 2.4805288 163.80089 12761259
-49.334438 2.4813769 163.65413 9472382
-47.414936 3.0756712 164.13354 7037274
-48.341251 3.2475348 164.06931 10261640
-49.297222 3.2916079 163.95439 8946295
-50.255211 3.3358784 163.83934 8550513
-49.327766 4.2192888 164.28822 9669248
-50.242924 4.3646297 164.21582 9865858
-51.237293 4.4210877 164.10022 9734529
-52.165722 4.8003969 164.11128 12431013
-50.421955 5.3696671 164.55751 10129030
-51.194462 5.4444561 164.47897 10457994
-52.239147 5.4485173 164.33736 9998468
-53.10117 5.6683884 164.29942 8092011
-51.352188 6.2386017 164.74667 9209722
-52.248375 6.2716694 164.63599 9209466
-53.264973 6.3635459 164.53023 9801089
-54.041668 6.5415769 164.48875 10853012
-52.2869 7.1125293 164.93552 9538174
-53.171841 7.3460698 164.89484 9603968
-54.202248 7.4697151 164.80334 9800580
-55.163097 7.7131505 164.76199 9274748
-53.259769 8.4274654 165.22507 9801090
-54.167904 8.4640255 165.1283 9734787
-55.197353 8.560421 165.03496 9077369
-56.109966 8.5977955 164.93785 9143162
-54.192738 9.3116608 165.37791 9604481
-55.193878 9.3944168 165.28386 9406078
-56.261456 9.4049511 165.16039 8682867
-57.053696 9.4864426 165.09076 8880246
-55.13055 10.20105 165.53169 9538431
-56.135471 10.285486 165.43773 9011576
-57.207039 10.297508 165.31422 9208699
-57.851391 10.30496 165.23999 9209467
-56.07312 11.095739 165.68652 10327178
-57.104389 11.404381 165.65619 9537920
-58.180538 11.418222 165.53271 9209467
-59.002647 11.725901 165.5269 9998726
-57.065571 12.442036 165.96994 10195593
-58.079235 12.530792 165.87617 9341053
-59.160023 12.546619 165.75272 13155503
-59.962536 12.633274 165.68343 11708316
-58.019085 13.349983 166.1274 10655633
-59.036812 13.440687 166.03375 10721935
-60.121891 13.458191 165.91034 9405821
-60.927784 13.546543 165.84103 9274235
-59.106892 14.115768 166.22659 9866629
-60.175728 14.293396 166.26266 9274235
-61.038933 14.437389 166.30365 9274492
-61.990719 14.488298 166.24706 10656913
-63.012745 14.670341 166.3277 9933702
-61.845081 15.125635 166.87669 10262667
-62.974224 15.265442 166.82927 9539200
-63.989025 15.451546 166.83281 9405814
-64.940216 15.502296 166.7417 9208435
-65.735085 15.679947 166.79678 9537665
79.054672 -43.121147 139.1537 9208955
78.267899 -43.264141 139.48343 9209211
77.467529 -43.291767 139.86618 8682867
76.605209 -43.281204 140.2948 6840151
75.686142 -43.528057 140.34644 7169373
74.568695 -43.718845 140.55971 8090475
73.550812 -43.718571 141.09311 8813686
70.480347 -43.722755 140.94324 9340798
69.630188 -43.722603 141.36391 10130314
68.777344 -43.722466 141.77895 9537665
67.750778 -43.722324 142.27055 8089963
64.551102 -43.726723 142.10147 10261902
63.69392 -43.726677 142.48602 8090995
62.662457 -43.72665 142.94084 9998215
61.800388 -43.726639 143.31439 9208443
61.109035 -43.726646 143.60934 9800579
57.60873 -43.731361 143.45818 12433069
56.917492 -43.732094 143.73485 9537665
55.879032 -43.733688 144.14578 8090221
54.832897 -43.731693 144.53696 8748667
53.961411 -43.731831 144.86339 10064267
53.087803 -43.731987 145.18411 9604482
52.387691 -43.732128 145.43739 9341310
48.763165 -43.737343 145.16144 9537152
48.062984 -43.737541 145.39334 8945015
47.010876 -43.737858 145.73532 9537152
45.95628 -43.738201 146.06956 9867397
45.075718 -43.738503 146.34258 10854036
44.193409 -43.738823 146.60988 9867141
43.13261 -43.739231 146.92386 10393485
42.246891 -43.739582 147.17984 9932934
41.359623 -43.739956 147.43008 9340798
40.292965 -43.740429 147.72348 9340798
39.224194 -43.740929 148.00932 8485489
38.5107 -43.741272 148.19583 9538176
36.253761 -43.406204 148.27737 10985366
35.424721 -43.268738 147.97173 9734787
79.884354 -42.358921 139.05139 8288365
79.33094 -42.543842 139.24966 8288365
78.466667 -42.530643 139.6804 9143162
77.42981 -42.516628 140.1963 8682867
76.532669 -42.699726 140.56419 9209467
36.028297 -42.541954 148.52203 10722452
35.240982 -42.615677 148.15083 8681843
34.693104 -42.234512 148.06403 9011838
81.226242 -41.346401 138.79689 8814709
80.370102 -41.590271 139.12064 8946295
79.439156 -41.519505 139.60748 8551281
78.585571 -41.610905 139.99118 10129801
77.78421 -41.810329 140.30571 8682867
35.338043 -41.67778 148.56401 8551029
34.56044 -41.481457 148.30402 8748666
83.086876 -40.084686 138.38683 10261132
82.284195 -40.409485 138.65184 9866373
81.384567 -40.38546 139.10452 9011832
80.527618 -40.474773 139.49069 8485744
79.630165 -40.541466 139.9059 7367263
34.378571 -40.615997 148.56583 10261901
33.491348 -40.341072 148.28938 10459281
84.104408 -39.325554 138.19035 8287854
83.272308 -39.464016 138.5446 9143419
82.420753 -39.525013 138.93948 8814710
81.451859 -39.468132 139.43954 9603970
80.719894 -39.650478 139.72682 9866372
34.216106 -39.688354 148.86046 9670019
33.41687 -39.477379 148.59697 9538177
85.901062 -38.192623 137.7601 7564643
85.181381 -38.273689 138.08203 9142907
84.372757 -38.598145 138.35011 8879735
83.376175 -38.528328 138.86893 9011833
82.522842 -38.589863 139.26451 9209468
81.732437 -38.887939 139.53423 8090987
33.238094 -38.658943 148.84154 9077629
32.455822 -38.515289 148.55887 9406591
86.921188 -37.170799 137.66776 11840932
86.226303 -37.415741 137.91174 10788244
85.37709 -37.508221 138.29283 9208956
84.335892 -37.530453 138.79671 9406079
83.521027 -37.748898 139.11035 8156524
33.175697 -37.857296 149.12996 9275267
32.242142 -37.481735 148.87299 10919833
88.130554 -36.414646 137.37555 9734529
87.294815 -36.459217 137.76932 10196363
86.237701 -36.43412 138.30006 10196364
85.320511 -36.609982 138.6812 8748405
84.626877 -36.856972 138.92368 8287854
32.240326 -36.605125 149.21718 9932939
31.33569 -36.554691 148.84476 9800838
30.711649 -36.179405 148.72195 10261132
89.862625 -35.145584 137.03178 8748407
89.056351 -35.439934 137.31079 8222065
88.191666 -35.496719 137.71388 7959150
87.30793 -35.475143 138.15773 8222578
86.517776 -35.588184 138.50151 8617335
31.965616 -35.983105 149.34291 9143166
31.385559 -35.5406 149.26549 10261132
30.618948 -35.367008 149.0014 9800838
90.908051 -34.383049 136.82332 10261643
90.157654 -34.560402 137.1214 8156013
89.270096 -34.537037 137.56789 7761773
88.383438 -34.514904 138.01344 7695979
87.636719 -34.694427 138.30913 7038307
31.245848 -34.792236 149.49939 10261132
30.383307 -34.577244 149.21004 8814457
29.653023 -34.22501 149.03197 9209467
92.113724 -33.385818 136.63077 8616563
91.121231 -33.546642 137.05457 9011321
90.241226 -33.629303 137.45445 7958636
89.315323 -33.662258 137.89691 8550772
88.498619 -33.9249 138.19348 7564651
30.379797 -33.709316 149.55006 8814455
29.429388 -33.418488 149.25243 10722706
94.073242 -32.089375 136.18748 11709090
93.060066 -32.408527 136.55783 9801861
92.199341 -32.434055 136.97116 9538177
91.305237 -32.410027 137.4209 12038307
90.41909 -32.651951 137.75978 8156270
30.180822 -32.83326 149.80855 9209467
29.384789 -32.55542 149.57277 10064776
28.577389 -32.459427 149.26045 9209467
94.870224 -31.447454 136.05325 10393230
94.096901 -31.45141 136.43231 10985367
93.217987 -31.506323 136.84274 10985367
92.284988 -31.480871 137.31218 11972259
29.210272 -31.696726 149.83501 9209467
28.448664 -31.53599 149.56804 8748920
27.859627 -31.287176 149.41058 9471875
96.860641 -30.179337 135.63478 9208443
96.012199 -30.436594 135.92329 9866374
95.073624 -30.466877 136.37842 10656145
94.176826 -30.547163 136.77702 10787988
93.281036 -30.669641 137.14803 9142907
92.701172 -30.853823 137.35939 10985367
28.520988 -30.634092 149.95436 9932425
27.662201 -30.421612 149.68825 10919062
99.737953 -29.126907 135.14302 9143167
98.926498 -29.293589 135.40277 9734789
98.070099 -29.406157 135.74374 10129289
97.156334 -29.539206 136.04919 9405823
96.206665 -29.591196 136.44814 9734788
95.403091 -29.759087 136.70108 10524816
27.384649 -29.7176 150.0806 10064011
26.511429 -29.46637 149.90498 9472131
25.517237 -29.145014 149.84114 8617080
127.30358 -28.250961 129.58698 10261646
126.45703 -28.431013 129.97031 9801607
125.47256 -28.385529 130.52032 10524813
124.73392 -28.425003 130.90292 10064520
121.45189 -28.688648 130.98669 9932935
120.66048 -28.687548 131.71422 9867398
116.42577 -28.692528 131.78552 11183258
115.78897 -28.691721 132.34335 11183258
115.14987 -28.690926 132.89865 11183258
110.84543 -28.695858 133.01686 8420720
110.04207 -28.694956 133.68048 8813941
105.66443 -28.699841 133.84679 10064265
105.01776 -28.699192 134.35292 10393743
104.20644 -28.698397 134.98151 7039331
102.57007 -28.9032 134.52477 8090995
101.8587 -28.885439 134.93428 6839895
100.96956 -28.863844 135.44406 11314076
100.43616 -28.851233 135.7487 12432045
25.270082 -28.885342 150.58875 9735046
24.498997 -28.833344 150.4283 9208703
23.54134 -28.772703 150.24513 7564651
13.489192 -28.474525 152.993 7039331
12.721526 -28.407969 152.68607 7170660
11.962447 -28.160326 152.45428 7037274
128.37811 -27.19805 129.42767 11379868
127.38477 -27.638554 129.79381 10458768
126.48648 -27.553574 130.31335 10787727
125.74449 -27.593548 130.69749 11445398
12.639701 -27.538548 152.99332 7301988
11.889272 -27.42388 152.71286 5919050
129.11348 -26.266289 129.33578 8090218
128.3425 -26.446501 129.76544 9932422
127.56398 -26.500315 130.1633 10393230
126.76083 -26.758987 130.49054 9998469
12.390424 -26.732672 153.20276 10261124
11.57833 -26.621515 152.89421 6971736
10.872067 -26.245857 152.73573 8813680
129.93932 -25.251749 129.12221 7563874
129.46594 -25.508589 129.39729 7563874
128.64865 -25.442301 130.01169 8090474
127.99272 -25.635527 130.28627 9735299
11.652614 -25.720549 153.28157 7629408
10.845958 -25.46637 153.03171 9274488
10.140224 -25.093361 152.87242 9406590
130.84377 -24.38303 128.77429 10853012
130.27855 -24.594713 129.1474 8748404
129.6013 -24.583818 129.71893 8353646
129.02271 -24.793161 130.07581 7563874
10.839894 -24.632004 153.35802 9998468
9.9640398 -24.531561 153.01747 6511954
131.2309 -23.414642 128.90584 9405822
130.48988 -23.491444 129.48938 8550513
129.77065 -23.923281 129.88789 8880247
10.680472 -23.910172 153.57333 9867141
9.7965307 -23.603233 153.31075 7104091
9.0406885 -23.368029 153.07544 9406590
132.17224 -22.334255 128.62653 8353391
131.43768 -22.352156 129.23244 7563618
130.79039 -22.608797 129.65305 8550513
9.6930246 -22.616364 153.65488 8682867
8.790103 -22.43445 153.33473 8550770
133.01134 -21.308016 128.40738 7037274
132.34998 -21.475857 128.88153 7103324
131.6821 -21.584349 129.38904 6576980
9.4588118 -21.741671 153.89807 9406590
8.6454973 -21.585064 153.60681 8813686
7.9424987 -21.462788 153.3499 8089963
134.04654 -19.982834 128.1647 8089962
133.31265 -20.418913 128.57336 8089962
132.42146 -20.673485 129.19901 7103324
8.7168074 -20.773558 153.95766 10590609
7.960567 -20.544189 153.71985 9603458
7.206409 -20.316257 153.48238 8683124
134.25218 -19.20085 128.36041 8879478
133.37943 -19.524048 128.93831 8682099
132.67529 -19.961727 129.3214 7169117
7.7881598 -19.612085 154.0123 9932935
6.9173388 -19.526892 153.668 8090987
135.05199 -18.351109 128.09137 11643551
134.37752 -18.460976 128.60352 10327437
133.71126 -18.63114 129.0806 9341571
7.608356 -19.047697 154.1566 8090987
6.8563113 -18.637772 153.9917 8814453
5.9781833 -18.346214 153.72551 9341054
135.21214 -17.526865 128.34546 11051674
134.55978 -17.592657 128.85986 10525587
6.5881228 -17.606359 154.28152 9340797
5.7865119 -17.428417 154.0038 9998983
4.9898334 -17.067007 153.80048 8420208
135.4501 -16.626482 128.5705 8354677
134.87201 -16.844685 128.95091 8815227
5.749866 -16.639536 154.29866 11116951
4.9974093 -16.419966 154.05862 10788243
135.93707 -15.501631 128.72107 8815227
135.80214 -15.952057 128.59375 8815227
5.7583785 -15.990013 154.55817 11314076
4.9607539 -15.634958 154.40506 11511454
4.0323768 -15.407761 154.16451 10065036
3.8200831 -14.681948 154.64799 11907238
2.9605498 -14.443584 154.58382 12038309
2.0323215 -14.084063 154.87689 12563625
1.2836547 -14.062777 154.63129 11709089
-0.022421397 -13.767115 155.67232 9208443
-0.96050888 -13.768274 155.66827 7039331
-2.0862069 -13.769688 155.65625 8420213
-3.0241227 -13.77088 155.64024 9538435
-3.7744622 -13.771847 155.62317 9275519
-9.9101934 -13.374319 157.51823 7959151
-10.763419 -13.312897 157.17233 8814971
-10.110778 -12.797014 157.65845 8814971
-10.857604 -12.586897 157.41724 8814971
-11.60295 -12.377611 157.17624 7564651
-10.942721 -11.757292 157.70682 9012349
-11.732871 -11.556738 157.44295 8946813
-12.376563 -11.215109 157.29822 12433327
-11.76427 -10.516863 157.83861 8946813
-12.579398 -10.637033 157.43774 13091257
-12.054381 -9.6879044 158.03902 7039331
-12.795058 -9.6740074 157.72314 10591637
-13.546916 -9.2766094 157.55344 9736329
-12.936862 -8.5716343 158.09547 8552312
-13.839499 -8.5037136 157.75868 9669765
-14.522048 -8.1136532 157.72876 8287597
-13.679553 -7.5785975 158.16937 9998729
-14.730426 -7.5329461 157.89662 7103067
-13.878211 -6.8268414 158.37491 9801345
-14.764796 -6.5635448 158.24713 6708565
-15.774165 -6.4309301 158.06938 8222055
-14.795863 -5.6880841 158.56367 8616815
-15.631293 -5.5494895 158.42722 6248013
-16.61167 -5.5472732 158.20773 6248013
-15.711989 -4.7423363 158.70737 6708309
-16.724226 -4.6102939 158.52875 5524292
-17.577291 -4.5113754 158.37367 6182221
-16.837366 -3.6699567 158.85086 7037273
-17.708467 -3.6300926 158.66982 6971735
-18.403585 -3.5643115 158.53729 6971735
-17.605585 -2.6961191 159.03743 8024166
-18.695513 -2.6469257 158.80959 6905942
-19.589464 -2.3847182 158.70457 7169368
-17.972326 -1.8576478 159.26373 8287341
-18.738916 -1.6603373 159.16348 8682096
-19.797419 -1.7007678 158.90973 7958626
-20.262758 -1.4641072 158.89204 6445903
-18.76515 -1.0662957 159.37656 10261132
-19.593637 -0.78383678 159.3166 6314063
-20.641985 -0.62225962 159.17691 5525059
-21.667326 -0.27652389 159.17336 5788487
-20.568785 0.12441492 159.7338 6840405
-21.540152 0.32267952 159.67039 6972502
-22.609034 0.36045933 159.45984 5393730
-23.462751 0.51860082 159.39163 5921098
-23.586817 0.92475951 160.22745 8288619
-24.731928 0.92208409 159.96703 7499360
-25.494745 0.92035735 159.79356 5921098
-43.241501 1.5481987 164.14859 9273205
-44.185688 1.5900385 164.03448 8549482
-45.131569 1.6319962 163.92026 8878961
-44.140533 2.3937857 164.33353 8088931
-45.206684 2.3940661 164.18759 7235163
-46.125298 2.5429986 164.11607 7761507
-44.534176 3.0730155 164.52698 10062977
-45.171394 3.2863839 164.51755 8090472
-46.200203 3.2874837 164.37704 7498592
-47.169273 3.3597286 164.27065 7958630
-47.872044 3.5028768 164.22659 7893096
-45.440197 3.9261394 164.71378 11378324
-46.134014 4.2695756 164.74391 9011060
-47.133968 4.3572655 164.63892 7366239
-48.168304 4.3595543 164.49811 8156524
-48.958523 4.6474786 164.49475 9077625
-47.098392 5.3588176 165.0087 8156524
-48.073238 5.4335723 164.9024 8946040
-49.111614 5.4369845 164.76146 8682867
-49.882195 5.5116181 164.68307 8617074
-48.149948 6.1887217 165.16011 9275005
-49.081669 6.3439388 165.09061 8748659
-50.15781 6.2621131 164.91881 11050642
-50.89629 6.5255346 164.91359 8090987
-49.152611 7.1231155 165.32349 10392969
-50.05661 7.4506726 165.31389 10656141
-51.135242 7.3410978 165.15216 9800575
-52.066792 7.7277255 165.15807 9734782
-50.302017 8.4047966 165.56903 9011316
-51.081413 8.4832058 165.50003 9734782
-52.04887 8.4469395 165.3745 10129542
-52.792774 8.7150059 165.36617 10459021
-51.160797 9.3577499 165.75114 10524302
-52.006786 9.3650093 165.653 10261129
-53.066647 9.3744698 165.53012 10196362
-53.937138 9.6019707 165.49471 9210491
-51.432117 10.017536 165.91557 10261129
-52.08786 10.243553 165.90515 10327179
-52.936844 10.251884 165.80695 10065288
-54.000435 10.262718 165.68404 9933702
-54.874447 10.492365 165.6489 10064262
-52.361137 10.906641 166.07034 11380380
-53.074566 11.267773 166.09326 10459790
-53.97802 11.303211 165.99675 10722706
-55.019287 11.434013 165.91226 9538175
-55.988796 11.686106 165.87234 10064262
-54.062511 12.402021 166.31409 9078137
-54.978298 12.44346 166.21785 9669504
-56.01659 12.546387 166.12541 9275003
-56.8083 12.73575 166.08794 10261387
-55.004745 13.30555 166.47156 12037793
-55.923962 13.348452 166.3754 9077625
-56.966293 13.453356 166.28302 9932678
-57.761311 13.644735 166.24577 10853012
-55.220119 14.05385 166.66904 14076861
-55.86536 14.0637 166.59543 10458509
-56.909077 14.268167 166.6351 9735299
-57.978645 14.380999 166.60736 10129801
-59.042812 14.590403 166.6801 10262156
-59.701008 14.60313 166.62088 10262156
-58.793091 15.072138 167.25247 9867142
-59.843098 15.279455 167.26741 10064777
-60.915882 15.393393 167.20795 9604228
-61.974628 15.60276 167.22333 9539200
-62.633263 15.615328 167.14296 9933702
-76.005875 16.813686 170.73897 9736836
75.351677 -43.203903 140.94279 8419696
74.708511 -43.262897 141.2356 7366496
73.846466 -43.256939 141.6622 7958377
72.783859 -43.368309 142.01318 7695205
71.907043 -43.649158 142.08727 7563619
70.817703 -43.717976 142.47955 8419440
69.958305 -43.717827 142.90213 9537665
66.720657 -43.722206 142.75473 10460046
65.859695 -43.722134 143.15262 10262667
64.996216 -43.722073 143.545 9867656
63.956932 -43.722027 144.00929 8090995
60.589703 -43.726662 143.82846 10458251
59.895832 -43.726685 144.11725 9603969
59.026814 -43.726742 144.47411 9406334
58.155392 -43.726807 144.82539 10590352
57.107105 -43.72691 145.24022 10458766
56.231319 -43.727016 145.58028 9405822
55.704769 -43.727085 145.78185 8682867
51.861744 -43.732239 145.62479 8881015
51.159397 -43.732395 145.8719 9800572
50.279804 -43.732601 146.17584 10458246
49.221966 -43.732883 146.53375 12102818
48.161549 -43.733181 146.88403 8747893
47.276051 -43.733452 147.17026 8879479
46.388676 -43.733746 147.45079 9669761
45.321705 -43.734116 147.78058 10655886
44.609226 -43.734371 147.99643 10655886
38.261055 -43.658417 148.70833 10459278
37.554508 -43.465534 148.74065 11183001
76.599258 -42.313148 140.68683 9209467
75.702255 -42.497749 141.05405 9998983
74.665924 -42.489143 141.56757 8419952
73.802338 -42.483452 141.99481 8616818
73.079666 -42.673138 142.27428 7563619
37.473629 -42.624199 149.1171 11248796
36.608368 -42.470654 148.8022 11248797
77.505447 -41.418949 140.6001 8880246
76.611069 -41.48975 141.01193 9801604
75.758636 -41.585327 141.39302 12630191
74.859283 -41.633396 141.81631 10722450
74.071533 -41.904686 142.09489 9011832
37.265858 -41.912029 149.30765 10985625
36.513947 -41.468369 149.1563 8617082
35.631886 -41.283142 148.84677 8090995
79.351578 -40.148373 140.20084 7959144
78.594437 -40.397114 140.47391 9669506
77.69075 -40.618931 140.82991 10129801
76.725845 -40.569553 141.32491 10459278
75.905258 -40.626545 141.70609 11709345
36.229168 -40.639194 149.35912 8419959
35.499027 -40.526302 149.08701 8946041
34.912872 -40.06884 149.01282 8090218
80.424004 -39.353458 139.9917 9274235
79.633392 -39.477867 140.33112 7563619
78.601311 -39.508308 140.82716 9340029
77.761765 -39.609261 141.2001 11774370
77.079605 -39.861046 141.435 11709345
36.200874 -39.896183 149.63924 9538182
35.562031 -39.50428 149.51646 8945783
34.760525 -39.494572 149.17276 7563618
82.223984 -38.115585 139.60201 8814710
81.524048 -38.428841 139.82101 9866884
80.58107 -38.478607 140.26544 13287347
79.643478 -38.40918 140.75505 9668993
78.864944 -38.68845 141.02637 9010808
35.286804 -38.467682 149.80513 8090218
34.587669 -38.595856 149.45152 7300446
33.833374 -38.256714 149.25789 8090995
83.418228 -37.355381 139.31895 8090987
82.50618 -37.534119 139.69643 9406847
81.630791 -37.519028 140.13361 9472127
80.755821 -37.50528 140.56996 10655631
80.021439 -37.689915 140.85753 9866372
34.431553 -37.515236 149.80905 8748662
33.577099 -37.44981 149.46437 8090995
84.34877 -36.458984 139.22038 8682611
83.498062 -36.517227 139.61598 8814710
82.632278 -36.606594 140.00653 9670019
81.662354 -36.653385 140.46545 9011320
80.860771 -36.920475 140.75299 7563619
33.522263 -36.606728 149.77237 9406853
32.769718 -36.274509 149.57683 9867403
86.239655 -35.188343 138.79901 8419956
85.419876 -35.384106 139.12418 9603201
84.550232 -35.471916 139.51724 9603457
83.639526 -35.447811 139.97548 10130313
82.735229 -35.644684 140.34181 9538176
33.38335 -35.68409 150.07523 11446173
32.419052 -35.572987 149.70085 10393490
87.257484 -34.448959 138.59445 7630442
86.435837 -34.47031 138.99052 8090992
85.551826 -34.45195 139.43326 11315100
84.668449 -34.434761 139.87523 10788243
84.102257 -34.621025 140.07938 10261643
32.454479 -34.627811 150.08815 6972509
31.530125 -34.389961 149.78098 8090736
89.186371 -33.150089 138.16629 9799807
88.377853 -33.447456 138.44466 8287857
87.510361 -33.506859 138.84799 7959406
86.49987 -33.43594 139.37407 9143677
85.681709 -33.764774 139.64508 11578272
32.181053 -33.62859 150.36282 7367263
31.563957 -33.551689 150.12558 6643542
30.818558 -33.398357 149.86266 7038307
90.055161 -32.378254 138.04887 9405823
89.401985 -32.600479 138.28102 9010807
88.412354 -32.537868 138.79324 8221805
87.522675 -32.518345 139.23895 8682867
86.773849 -32.700596 139.53424 9472126
31.555021 -32.877968 150.38678 7696228
30.675087 -32.481396 150.16135 8419695
29.835402 -32.061745 149.9624 9209467
91.902679 -31.231819 137.60042 11906721
91.325172 -31.416151 137.81058 11906721
90.390884 -31.591919 138.19971 8287598
89.431839 -31.512552 138.70364 7695205
88.566231 -31.748388 139.03481 8156012
87.814926 -31.9305 139.33136 8682867
30.613575 -31.640461 150.46559 8682611
29.75062 -31.442791 150.16928 9604225
93.266937 -30.082542 137.483 8550514
92.333397 -30.449087 137.73195 9341054
91.418869 -30.378178 138.22282 9012090
90.550163 -30.537148 138.5647 7827304
89.738815 -30.6486 138.89978 8353135
30.351238 -30.839706 150.66698 9011576
29.553404 -30.569513 150.44383 10394253
28.582455 -30.110512 150.28172 9734531
97.085205 -29.067688 136.64413 9734788
96.220078 -29.137033 136.99171 9603458
95.204025 -29.264977 137.35373 10196107
94.362 -29.422548 137.54848 10393231
93.417191 -29.556892 137.8479 9537665
92.477318 -29.591324 138.28096 8090989
29.445187 -29.856714 150.85944 9011576
28.665417 -29.606808 150.72235 10260875
27.958666 -29.315115 150.7637 10392461
124.54658 -28.124962 131.12679 10590347
123.70782 -28.30658 131.50523 11576992
122.73109 -28.264233 132.04988 10261900
121.99846 -28.305679 132.42841 9537664
119.8645 -28.68647 132.43666 8419698
119.22496 -28.685617 133.01161 8682867
114.66855 -28.690336 133.31277 10261899
114.02457 -28.689562 133.86237 8682867
109.55809 -28.694424 134.0764 8813941
108.91034 -28.693724 134.60112 7629411
108.26045 -28.693031 135.12329 8287597
103.71779 -28.697931 135.35645 6510930
103.0639 -28.697319 135.85298 7169116
102.40811 -28.696718 136.34691 8617075
99.902695 -28.838873 136.05234 9735555
99.191452 -28.822792 136.45596 9735812
98.302322 -28.80337 136.95811 9209470
97.590729 -28.788237 137.3584 8288371
27.404974 -29.031488 151.02632 9734531
26.626398 -28.977858 150.8678 9734789
25.850183 -28.924692 150.70863 10853012
21.643559 -28.74954 152.53737 10063750
20.908043 -28.750153 152.63878 9405821
19.803984 -28.751091 152.78461 7563874
18.883205 -28.75189 152.90016 6511954
17.961678 -28.752707 153.0099 9604225
16.855043 -28.753706 153.13441 14803421
15.9322 -28.754555 153.23225 13882064
14.963717 -28.52442 153.50449 14737630
14.0677 -28.525187 153.22409 8618621
125.5567 -27.292704 130.92203 10590347
124.71391 -27.475353 131.30222 9669760
123.73294 -27.433327 131.84892 9209467
122.99706 -27.475256 132.22903 10656402
14.675767 -27.842451 153.75719 16777215
13.907525 -27.592739 153.52217 10592412
13.141524 -27.344713 153.28751 7039331
126.56182 -26.192413 130.82986 9866627
125.67862 -26.565592 131.15364 10130053
124.74033 -26.599367 131.6463 8682867
124.00115 -26.641794 132.02797 9209467
13.813035 -26.603094 153.87131 8092020
12.91339 -26.468788 153.53377 7630695
128.10806 -25.19795 130.40331 9735299
127.45337 -25.391623 130.67705 9735299
126.65892 -25.358665 131.11905 9866883
125.79298 -25.455414 131.54645 9077367
125.01082 -25.805168 131.82521 8880245
13.584453 -25.723804 154.11871 9208443
12.764178 -25.613495 153.80621 8090216
12.04602 -25.420244 153.57065 8813680
129.13908 -24.354088 130.19293 7563874
128.48106 -24.548882 130.46803 8353902
127.683 -24.51635 130.91179 10261643
126.88683 -24.484442 131.35419 9472383
126.23409 -24.679466 131.62633 9209467
12.84056 -24.743181 154.18243 9209467
12.074374 -24.501719 153.94508 8879730
11.310452 -24.261803 153.70813 10261124
130.16678 -23.043259 129.97035 8089963
129.53142 -23.388037 130.33617 9340798
128.7018 -23.38426 130.82602 10064521
127.91312 -23.638992 131.14699 11051416
127.25712 -23.835197 131.42039 9735555
11.909244 -23.566923 154.24194 9801346
11.025323 -23.4681 153.89729 10393484
130.4695 -22.307821 130.06299 8089963
129.63885 -22.367243 130.69472 9537921
128.80284 -22.561991 131.10837 10788244
11.732612 -22.999996 154.38882 9209467
10.972938 -22.578503 154.22527 9143419
10.084037 -22.273664 153.95963 9406590
131.24641 -21.503542 129.79138 6248015
130.56462 -21.493774 130.36618 7629668
129.82651 -21.706177 130.88361 9537921
10.711589 -21.543871 154.51971 9538177
9.9232225 -21.549555 154.17532 9932935
131.55565 -20.571451 129.97101 8616306
130.76413 -20.716705 130.56471 9208700
9.8657293 -20.763615 154.46017 10130313
9.1057749 -20.464165 154.2484 10524815
132.48169 -19.382984 129.75542 8222061
131.66783 -19.649027 130.31091 10458254
130.96402 -19.93792 130.76369 11905701
9.8861361 -19.916973 154.80247 8682867
9.078414 -19.545763 154.59824 8682867
8.2691355 -19.361448 154.3197 9143418
133.45518 -18.290283 129.45503 8420727
132.65819 -18.436762 130.05275 8090989
131.99385 -18.607725 130.52788 11905701
8.8907156 -18.622232 154.88058 9406333
7.9998145 -18.512899 154.53703 9735554
134.23602 -17.287493 129.27411 9341571
133.57941 -17.549156 129.6998 7894639
132.97124 -17.496166 130.23323 6511954
7.9690146 -17.628605 154.87195 9209210
7.1035628 -17.464842 154.56093 9537919
134.99065 -16.394012 129.06396 7039331
134.41299 -16.61244 129.44392 10262415
133.72232 -16.603559 130.02542 8881021
7.6525702 -16.634981 155.12599 8682867
6.9454398 -16.521976 154.86372 10195848
6.1321902 -16.378527 154.56731 11314076
136.18129 -15.062271 128.95238 10591380
135.40981 -15.434498 129.28596 7697004
134.65901 -15.711367 129.68011 11183260
134.07146 -15.929634 130.05081 13024949
7.0298934 -15.797504 155.18567 8682867
6.1935191 -15.595358 154.96167 9669761
5.394897 -15.245584 154.86366 10261643
136.39789 -14.473101 129.36493 10591378
135.7325 -14.613091 129.77229 9144448
5.9151473 -14.786295 155.46843 9209467
4.9790244 -14.616081 155.2449 10721938
4.1613116 -14.257187 155.37061 12499374
3.3481784 -14.12203 155.30672 15723486
2.8000979 -13.804846 156.13451 13683904
2.0442214 -13.783421 155.88252 14934227
1.1032767 -13.765747 155.6694 11709089
0.54045814 -13.766428 155.67194 11709089
-7.8548303 -13.623796 158.31157 10129289
-8.6068296 -13.410957 158.06918 9471873
-9.3526983 -13.389866 157.75397 9143422
-8.8112669 -12.640196 158.28386 8550515
-9.6702986 -12.579369 157.93521 7762286
-9.016223 -11.867832 158.49895 9010808
-9.7200689 -11.706581 158.25706 9012091
-10.395843 -11.3871 158.08972 10065291
-9.7925138 -10.695976 158.62338 9209467
-10.544127 -10.487289 158.37947 11315355
-11.294314 -10.279598 158.13583 10065291
-10.757178 -9.5193787 158.66798 11052183
-11.615359 -9.4649334 158.31715 8880762
-10.965518 -8.742218 158.88351 10196363
-11.717349 -8.5360394 158.63852 8881020
-12.467799 -8.3307991 158.39378 7565675
-11.746505 -7.566319 159.00749 9472899
-12.49211 -7.5558729 158.68817 8683898
-13.242183 -7.3519039 158.44315 10591116
-12.627769 -6.6379652 158.99054 8617846
-13.520251 -6.4424005 158.68039 9670015
-12.927573 -5.6037707 159.26756 7893606
-13.672996 -5.5966949 158.94698 7301470
-14.428283 -5.3964667 158.75404 10591116
-13.701228 -4.7752228 159.258 8419950
-14.505103 -4.5652575 159.05376 11313813
-15.348216 -4.3515472 158.93353 7563619
-14.56467 -3.6722977 159.37039 7761254
-15.627208 -3.6317089 159.1369 8287084
-16.392534 -3.43466 159.03777 9010550
-14.767753 -2.9104152 159.59656 8023913
-15.553184 -2.7032831 159.49664 9010550
-16.472383 -2.5975277 159.32916 7760740
-17.197485 -2.2524168 159.29298 7037274
-15.693328 -1.856396 159.77814 9010550
-16.461481 -1.6586372 159.67796 9076857
-17.52688 -1.6198473 159.45189 8024169
-16.682745 -0.86515003 159.92053 9537408
-17.536047 -0.72405666 159.82568 7892583
-18.41527 -0.55499673 159.71259 7958376
