# .PCD v0.7 - Point Cloud Data file format
VERSION 0.7
FIELDS x y z rgb
SIZE 4 4 4 4
TYPE F F F U
COUNT 1 1 1 1
WIDTH 1204
HEIGHT 1
VIEWPOINT 0 0 0 1 0 0 0
POINTS 1204
DATA ascii
-147.08839 -13.186035 111.99969 8090987
-147.96655 -13.21757 111.54727 10261900
-148.84386 -13.518701 110.92227 9472384
-149.74541 -13.502427 110.36581 8420208
-150.65092 -13.48633 109.8068 7893608
-151.5712 -13.561978 109.19813 8418928
-152.38748 -13.589173 108.67582 7498337
-153.20683 -13.616773 108.15143 9142907
-153.98595 -13.566867 107.68637 8747893
-154.93121 -13.44619 107.14857 8879479
-155.76067 -13.474632 106.61751 9406337
-156.5934 -13.503382 106.08426 7367013
-157.42946 -13.532637 105.54865 8484973
-158.26895 -13.562297 105.01076 8945011
-159.11186 -13.592365 104.47054 9997187
-159.9584 -13.622938 103.92787 9537659
-160.88889 -13.423196 103.43414 9274492
-161.74318 -13.454111 102.88647 8617075
-162.60123 -13.485454 102.33622 8617075
-163.46301 -13.517229 101.78347 8156269
-164.2287 -13.624349 101.25759 8353391
-164.98041 -13.574046 100.80975 9011320
-165.85297 -13.60709 100.24973 7958888
-166.61125 -13.55684 99.797783 7893351
-167.33437 -13.66125 99.230461 8090987
-168.35927 -13.464992 98.745522 7959660
-169.24788 -13.49919 98.17485 8815481
-170.14081 -13.533895 97.601318 7038307
-171.0381 -13.569007 97.024864 10261899
-171.93982 -13.604678 96.44548 9670019
-172.61897 -13.631712 96.008987 10261899
-173.3008 -13.659051 95.57048 9801091
-173.93668 -13.674181 94.832382 8419695
-144.11525 -12.185812 113.9017 8092019
-144.7643 -12.206724 113.56786 10261900
-145.6573 -12.385818 113.04677 11313558
-146.43285 -12.486729 112.61694 9143162
-147.30893 -12.516337 112.16641 6972762
-148.1889 -12.546377 111.71373 8287597
-149.02698 -12.572971 111.22462 8551025
-149.83504 -12.597175 110.70879 8748917
-150.6461 -12.62171 110.19095 9077882
-151.45998 -12.646676 109.67111 8485232
-152.38483 -12.721125 109.06009 7959144
-153.30232 -12.704279 108.49394 7432800
-154.12621 -12.730461 107.96732 9405823
-155.05157 -12.714109 107.396 9142651
-155.99174 -12.790656 106.77457 8880250
-156.82616 -12.818132 106.24075 7893097
-157.66394 -12.845941 105.70473 8484973
-158.51033 -12.734952 105.22457 8484973
-159.28815 -12.667981 104.76778 9142646
-160.1364 -12.696507 104.22491 8814195
-160.99773 -12.491893 103.77666 8814195
-161.73759 -12.438542 103.33757 8288110
-162.49782 -12.542453 102.81651 9800581
-163.36023 -12.571956 102.26436 9143422
-164.22644 -12.601888 101.70966 8748148
-165.09654 -12.632251 101.15231 9932678
-165.9706 -12.663023 100.59229 10458764
-166.84874 -12.694251 100.02953 8090987
-167.73097 -12.725885 99.464066 10327949
-168.61734 -12.757954 98.895798 7959660
-169.50798 -12.79048 98.324638 7762027
-170.299 -12.899802 97.781982 8617331
-171.07701 -12.848635 97.318108 8880503
-171.85806 -12.797293 96.852066 9143675
-172.65886 -12.907766 96.302139 8880503
-173.56743 -12.942202 95.716469 8551537
-174.27483 -12.782477 94.898895 9341054
-174.80702 -12.476341 94.216301 8683124
-141.39108 -11.20845 115.66946 7565675
-142.0323 -11.22705 115.34055 7565675
-143.13512 -11.438445 114.7009 11906982
-144.11305 -11.5127 114.18057 10985880
-144.97995 -11.539195 113.73581 11181972
-145.85069 -11.566041 113.28906 8747891
-146.72525 -11.593297 112.84025 7563619
-147.60374 -11.620907 112.38931 7300702
-148.48621 -11.648951 111.93625 7037274
-149.31741 -11.673042 111.4398 7497825
-150.12758 -11.695625 110.9233 7433313
-150.94066 -11.718562 110.40485 8551026
-151.75673 -11.741832 109.88445 9340030
-152.57582 -11.765454 109.36195 8024681
-153.39798 -11.789459 108.8374 7103835
-154.22331 -11.813817 108.31064 9537665
-155.05182 -11.838509 107.78187 9537666
-155.88353 -11.863603 107.25081 8880250
-156.71861 -11.889006 106.71751 9406334
-157.55699 -11.914788 106.18207 8813936
-158.35484 -11.862057 105.7065 8353130
-159.32355 -11.73695 105.15605 8681835
-160.173 -11.763377 104.6134 8419695
-161.02603 -11.790212 104.06825 8814195
-161.88272 -11.8174 103.52068 8617076
-162.74315 -11.844997 102.9706 9143422
-174.64616 -11.589626 95.125107 10130570
-175.11726 -11.51213 94.382065 9933191
-175.58859 -11.434732 93.638542 9603969
-138.90608 -10.250637 117.30938 8880507
-139.75246 -10.272568 116.87637 9472643
-140.53331 -10.51577 116.38487 10788245
-141.38597 -10.538813 115.94823 8881019
-142.24223 -10.562161 115.50978 8486519
-143.10219 -10.585868 115.06956 8026225
-143.96594 -10.609927 114.62747 10524817
-144.94951 -10.68275 114.10529 12432037
-145.92299 -10.665475 113.62544 9142649
-146.79906 -10.690631 113.17676 8550771
-147.82549 -10.947462 112.55697 7892841
-148.48827 -10.967294 112.21724 7037274
-175.44304 -10.626003 94.46553 11906210
-175.91522 -10.548266 93.720856 9867140
-176.2804 -10.550848 93.099884 10064777
-136.23398 -9.2997189 119.04025 11577760
-137.07103 -9.3188858 118.61304 9275004
-137.95695 -9.6056242 118.05092 9077885
-138.99661 -9.5417309 117.55649 9077629
-139.9579 -9.6094999 117.04698 8682871
-140.80948 -9.630414 116.61196 9801606
-141.6647 -9.6516619 116.17519 7960432
-142.52353 -9.673213 115.73665 8420726
-143.38597 -9.6950474 115.29616 7564907
-144.15579 -9.7899218 114.87178 8222323
-145.04964 -9.9637642 114.3527 9537923
-145.70392 -9.9811335 114.0181 9142649
-175.78429 -9.818615 94.466293 11905692
-176.22826 -9.5780563 93.886185 9406589
-176.6375 -9.8243008 93.015762 9143675
-133.79347 -8.3650341 120.64834 10327692
-134.8558 -8.5335188 120.04666 14209991
-135.59723 -8.6225281 119.63857 11906981
-136.43275 -8.6402149 119.2127 11380381
-137.27144 -8.6580858 118.7852 9603969
-138.11336 -8.6762581 118.35596 9077627
-138.95863 -8.6947384 117.92506 7301477
-139.92137 -8.7607632 117.41593 8747893
-140.9729 -8.6947889 116.91718 9538179
-141.84978 -8.8342133 116.42081 7565675
-142.73524 -9.0046263 115.9073 9012090
-130.75735 -7.4295821 122.55511 7563619
-131.37175 -7.4402342 122.24297 6313549
-132.21935 -7.601615 121.75185 6774100
-132.95355 -7.6881623 121.34828 9407363
-133.78049 -7.7033358 120.92783 9406334
-134.81847 -7.7226624 120.39984 9866885
-135.86095 -7.7423296 119.86954 7695460
-136.69856 -7.7583203 119.44331 9932934
-137.53955 -7.7745671 119.01553 11446174
-138.38396 -7.7910438 118.58618 9275004
-139.13814 -7.8804493 118.17191 8748151
-140.01393 -8.0473289 117.66475 8550257
-128.76477 -6.5215836 123.92786 9405308
-129.60503 -6.6801858 123.44153 9340286
-130.44261 -6.8102179 122.96832 8616307
-131.53723 -6.5633945 122.52177 9735298
-132.44888 -6.5775037 122.05931 8354674
-133.27538 -6.590517 121.63988 10525583
-134.10484 -6.6037364 121.21889 7828075
-134.93744 -6.6171598 120.79643 7300446
-135.81935 -6.8983827 120.23862 6905688
-136.73332 -6.9438219 119.76254 10393485
-137.53059 -7.1062722 119.29641 9932934
-124.69094 -5.1585484 126.53087 8616819
-125.49346 -5.1677046 126.12514 9800838
-126.23811 -5.3946424 125.65847 9340801
-127.18644 -5.6248331 125.08846 8879222
-128.12968 -5.5742049 124.63676 8944757
-129.01219 -5.6481853 124.16419 9339256
-129.82796 -5.6588645 123.75114 9340286
-130.64648 -5.6697483 123.33664 9932423
-131.4521 -5.5922604 122.96498 12169640
-132.46715 -5.5176229 122.48731 11775649
-133.53372 -5.7093515 121.87398 13024941
-122.88956 -4.2680664 127.7399 7563619
-123.65911 -4.4938307 127.30807 9538177
-124.66891 -4.5041556 126.81186 9143420
-125.67327 -4.5143228 126.30453 8223091
-126.47974 -4.5225863 125.89717 9998217
-127.28863 -4.5310025 125.48846 9471359
-128.20992 -4.5847073 125.00483 9667707
-129.21248 -4.50739 124.53448 11180945
-130.0515 -4.6340761 124.06187 9207670
-130.89864 -4.7908564 123.57288 13024949
-121.26708 -3.382946 128.81493 9340541
-122.23952 -3.6087461 128.29315 9866885
-123.06735 -3.6160538 127.92336 8879991
-123.89708 -3.6234903 127.55125 8945783
-124.81467 -3.6750801 127.08086 8814453
-125.80485 -3.5957611 126.61752 8683127
-126.72216 -3.647429 126.13676 9340801
-127.44494 -3.7270634 125.74178 9471615
-128.28485 -3.8813975 125.25732 11378068
-128.89627 -3.8871427 124.94868 10654345
-119.65011 -2.5016186 129.88589 10656658
-120.41299 -2.7239709 129.45845 10196106
-121.23586 -2.7296202 129.09151 9537920
-122.26842 -2.7367752 128.63103 9406334
-123.30511 -2.7440615 128.16869 8814454
-124.13523 -2.7499506 127.79468 8814453
-124.85749 -2.8280189 127.40877 8682867
-125.89283 -2.98172 126.82675 9735043
-116.52415 -1.1834 131.80124 7563619
-117.13348 -1.1856613 131.53036 7563619
-117.89149 -1.405705 131.10596 8090733
-118.72251 -1.6887631 130.62384 7630443
-119.74061 -1.5768148 130.21773 10261901
-120.70275 -1.6356885 129.76765 10392970
-121.52811 -1.6395243 129.40041 9866885
-122.38583 -1.7897769 128.95984 8879990
-123.31564 -1.9409266 128.48705 8353389
-114.01421 -0.30951896 133.42398 7039331
-114.61903 -0.31067294 133.15535 10853012
-115.42744 -0.31224802 132.79633 10853012
-116.23328 -0.57458532 132.23843 9077113
-117.25143 -0.49003574 131.85289 8616561
-118.16851 -0.53573501 131.41216 7104090
-118.9873 -0.53772646 131.04846 10261901
-119.85693 -0.64931762 130.57869 8156272
-120.93545 -0.76176327 130.01601 10786699
-111.0473 0.56146187 135.46545 9801351
-112.04889 0.56101632 135.02188 8092019
-112.94208 0.34329921 134.4445 9407621
-113.84602 0.29896885 134.00746 6906973
-114.86139 0.38530877 133.63045 7892327
-115.77146 0.34103885 133.19073 9602945
-116.46923 0.12171178 132.69847 9735299
-117.48878 0.12053765 132.24643 8156521
-76.25338 1.9234272 158.01311 8682867
-76.865913 1.7069052 157.82475 10854036
-77.949707 1.7084613 157.63327 9998984
-78.781837 1.4914665 157.40578 10986135
-105.36825 1.0001715 139.13527 9011320
-106.16034 1.0001261 138.78807 9670277
-107.15337 1.000198 138.35298 9144190
-108.14915 1.0002991 137.91681 8617076
-108.94819 1.000393 137.56691 7039331
-109.95006 1.000568 137.12834 9998727
-76.022942 2.6200933 158.31097 9406590
-77.011459 2.5791759 158.12074 12104104
-77.795158 2.5084834 157.95581 11906726
-75.226006 3.5563214 158.79756 10130313
-76.152657 3.4069791 158.57832 9669762
-77.07296 3.3814638 158.40584 10327692
-73.728668 4.9722857 159.58522 9735555
-74.305634 4.5371199 159.32248 9603969
-75.350891 4.3234544 159.05844 9735812
-76.350105 4.2555118 158.85637 10590864
-73.701317 5.7047143 159.86032 9011834
-74.504128 5.5050778 159.64439 8090987
-75.361298 5.2759981 159.408 9341054
-72.712555 6.7256017 160.41209 6511962
-73.541641 6.5118456 160.18636 7169376
-74.539719 6.446372 159.9854 7893352
-71.987572 7.6032538 160.86432 9734788
-72.816521 7.3897982 160.63872 7169634
-73.898232 7.4000511 160.45088 7563619
-74.513359 7.184001 160.26219 7563619
-71.163177 8.7778988 161.44376 9341310
-71.90889 8.4898672 161.20538 9012089
-72.927322 8.4451647 161.0085 7498083
-73.78698 8.0649567 160.71593 7563619
-70.171082 9.8052931 161.99854 11710114
-71.000046 9.5923538 161.77315 10920342
-72.08062 9.6053686 161.58653 9143160
-72.695763 9.3894424 161.39783 7563619
-69.432854 10.688046 162.43051 9734788
-70.269928 10.476395 162.22403 12367274
-71.352051 10.490728 162.04219 10525584
-71.967247 10.274702 161.85356 9341310
-69.297836 11.355268 162.65326 10129544
-70.384697 11.371507 162.48586 10261131
-71.22834 11.160457 162.28836 9341310
-68.511284 12.610997 163.15698 9866369
-69.434471 12.476608 162.97008 11971487
-70.250771 12.400158 162.81754 9734788
-67.85923 13.797686 163.61855 9866371
-68.565346 13.540124 163.42888 9736067
-69.489906 13.526314 163.27812 10985107
-66.795265 14.706315 164.39421 10064263
-67.794151 14.486912 164.01637 9669506
-68.782608 14.265064 163.61324 10262411
-69.436226 14.277241 163.51329 11380380
-65.252388 15.515464 165.42656 9932935
-66.191772 15.413927 165.18208 9867142
-66.98909 15.191776 164.86963 10262156
-56.203796 16.73905 171.11562 9209467
-56.863716 16.750732 171.03943 10130059
-57.745209 16.766638 170.93787 10130059
-61.749355 16.125532 167.36668 9011064
-62.631454 16.144222 167.27301 8551025
-63.515812 16.163443 167.1804 7761509
-55.938721 17.477861 171.41774 9603969
-56.946308 17.449793 171.2847 9932676
-57.580315 17.228695 171.12675 10130059
-55.166317 18.396191 171.84727 9406078
-56.174004 18.368504 171.71442 9603710
-56.835896 18.381317 171.63846 9735296
-54.213886 19.814886 172.48105 9603457
-55.206806 19.521486 172.25316 10261129
-56.200405 19.227942 172.02507 10064004
-53.449154 20.745871 172.94978 10129801
-54.460186 20.68442 172.77563 9471615
-55.314117 20.465044 172.58417 9537665
-51.880005 21.876551 174.03563 9734787
-52.697102 21.6399 173.71877 10261131
-53.478764 21.569319 173.5361 10063753
-54.169086 21.414324 173.30319 8090987
-48.387505 22.929842 176.16768 9997960
-49.248577 22.934847 175.98061 9340289
-50.269993 22.802555 175.55423 9077374
-50.947445 22.384077 174.73943 9077114
-52.003716 22.384996 174.44888 10261131
-52.647457 22.390099 174.30704 9208443
-173.1526 -12.199312 96.303635 8419696
-173.82207 -12.222842 95.855827 8419952
-156.11504 -11.176503 107.40895 9669509
-156.9518 -11.200608 106.87519 10261132
-157.79189 -11.225018 106.33925 8945007
-158.63551 -11.249784 105.80087 8681835
-159.48254 -11.274906 105.26031 8681835
-160.33321 -11.300385 104.71732 8419695
-161.18744 -11.326221 104.17182 8814195
-162.04536 -11.352412 103.62395 8945786
-162.90703 -11.379009 103.07353 9143422
-163.68993 -11.639482 102.46933 8354163
-164.55865 -11.667344 101.91394 8025197
-165.43129 -11.695611 101.35591 12366760
-166.30791 -11.724212 100.79526 15063757
-167.18861 -11.753267 100.23186 9538175
-167.97087 -11.858999 99.696175 11051672
-168.73979 -11.805192 99.239212 10788500
-169.51186 -11.751155 98.780334 8156780
-170.30373 -11.858063 98.237778 8748917
-171.20287 -11.888878 97.661148 8354159
-172.19466 -11.681001 97.131012 8946296
-173.09346 -11.614635 96.597145 9471872
-173.98148 -11.57977 96.033875 8156780
-174.46596 -11.266029 95.66275 8090987
-147.53241 -10.484877 112.89505 9406335
-148.70856 -10.63244 112.24236 8484976
-149.60869 -10.770164 111.65561 8024169
-150.42101 -10.79115 111.13855 7695202
-151.23622 -10.812416 110.6195 8616307
-152.05449 -10.834063 110.09846 9537409
-152.95091 -10.627986 109.62885 7761509
-153.7758 -10.649785 109.10344 8814455
-154.60388 -10.671956 108.57607 8355190
-155.43521 -10.694401 108.04644 8091505
-156.34717 -10.487576 107.56747 8880250
-157.18565 -10.510259 107.03328 9537409
-158.02754 -10.533246 106.49684 8353129
-158.87286 -10.556615 105.95807 9076593
-159.72169 -10.580289 105.41698 12234145
-160.5741 -10.60432 104.87349 8090987
-161.43018 -10.628659 104.32758 9406334
-162.28989 -10.653377 103.77922 10064265
-163.15337 -10.67843 103.22832 8354163
-164.02071 -10.703835 102.67491 7302246
-164.89197 -10.729551 102.11885 7828077
-165.66594 -10.832008 101.58983 10722449
-166.42613 -10.775667 101.1394 12103588
-167.18942 -10.719064 100.68719 9209467
-167.97281 -10.822581 100.15174 7959145
-168.86188 -10.849953 99.583244 7827303
-169.75491 -10.877681 99.011749 8288366
-170.74971 -10.763834 98.438507 9341054
-171.56142 -10.789267 97.918854 8880503
-172.41011 -10.47655 97.524361 9077882
-173.19862 -10.419576 97.055412 9603458
-174.00735 -10.525578 96.502289 8419696
-174.75589 -10.589424 95.656693 9998728
-175.26289 -10.301339 95.003853 11906208
-144.54083 -9.4991798 114.79945 9537923
-145.19411 -9.5156956 114.46574 9537923
-146.09264 -9.6896648 113.94426 9274236
-146.87291 -9.7856407 113.51418 9077371
-147.75427 -9.8090792 113.06354 10721677
-148.72894 -9.6981878 112.62183 9208698
-149.56786 -9.6278419 112.18465 9076855
-150.44766 -9.7136755 111.59679 8813424
-151.33409 -9.669076 111.06233 9076856
-152.22252 -9.6901197 110.4976 9076858
-153.12102 -9.4812098 110.02797 8551028
-153.94791 -9.5007944 109.50237 8749177
-154.87656 -9.4766607 108.9325 9144192
-155.82014 -9.5458202 108.3121 9012349
-156.65758 -9.5663242 107.77953 8616820
-157.49834 -9.5871849 107.24471 9142649
-158.34254 -9.6083012 106.70761 9339768
-159.1902 -9.6297235 106.1682 9997439
-159.94362 -9.7272186 105.65425 9865853
-160.68216 -9.6681395 105.21858 8813939
-161.53972 -9.6903782 104.67267 8813942
-162.40099 -9.7130003 104.12426 9406335
-163.14897 -9.653863 103.68274 8946042
-163.91737 -9.7531595 103.15858 8222578
-164.78911 -9.7766485 102.60322 9275009
-165.66487 -9.8004446 102.04523 9538179
-166.54439 -9.8245478 101.48447 9735811
-167.4277 -9.8490095 100.92078 9340797
-168.3148 -9.8737755 100.35418 8419696
-169.20618 -9.8988514 99.784836 7169373
-170.10185 -9.9243078 99.212608 7432801
-170.77632 -9.9436302 98.781647 9143675
-171.54138 -9.7234726 98.398865 9867398
-172.44872 -9.7492018 97.81926 9538433
-173.36061 -9.7752867 97.236549 8879991
-174.27715 -9.8017311 96.650848 9340286
-175.00916 -9.5707912 95.958023 9537920
-175.49678 -9.5735178 95.129539 10261383
-175.94072 -9.3328342 94.549622 11905692
-142.23001 -8.5433979 116.3509 13023917
-142.87668 -8.5578527 116.02135 14077637
-143.67072 -8.8012009 115.52344 8090991
-144.62592 -8.6876583 115.09254 7564651
-145.48387 -8.6169386 114.69262 10656145
-146.36044 -8.6372871 114.24563 9735555
-147.24094 -8.6579237 113.79663 7959151
-148.12532 -8.6788521 113.34546 8814200
-148.90244 -8.6974859 112.94902 8090990
-149.86028 -8.7191982 112.40239 9997702
-150.67592 -8.7363615 111.88493 9208182
-151.49445 -8.7537832 111.36549 9076855
-152.31604 -8.7714586 110.84409 8813942
-153.14069 -8.78934 110.32066 9736836
-153.96849 -8.8075752 109.79508 9538690
-154.79941 -8.8260679 109.26746 9933193
-155.63361 -8.8447666 108.73773 9012606
-156.47104 -8.863821 108.20575 9340283
-157.31194 -8.8831291 107.67163 9142649
-158.15607 -8.9026442 107.13519 8353134
-158.79138 -8.9174976 106.73154 7563619
-139.46242 -7.2903399 118.25382 9537664
-140.22101 -7.3792348 117.83756 9668738
-141.00711 -7.6186938 117.3452 8813429
-141.93791 -7.7015629 116.84525 9669506
-142.87192 -7.6560025 116.39682 13156535
-143.81078 -7.6750517 115.91924 11183002
-144.71002 -7.6027222 115.49931 8288372
-145.73036 -7.4417639 115.05542 9341310
-146.65343 -7.7339525 114.47277 9801605
-147.31519 -7.7478819 114.13597 7564651
-135.90578 -6.1882682 120.48907 9932678
-136.88945 -6.4265475 119.89838 10985622
-137.85155 -6.5164909 119.37988 9275004
-138.72417 -6.6800308 118.87564 9604226
-139.64342 -6.4715357 118.50201 9208700
-140.49794 -6.4858274 118.0686 10129289
-141.35588 -6.5003262 117.63338 10261132
-142.21735 -6.5150299 117.19629 8617848
-143.08247 -6.5299654 116.75734 11380124
-143.87953 -6.7707171 116.259 15393498
-144.75142 -6.7865381 115.81625 10261646
-133.04082 -5.2594461 122.30658 13024941
-133.66359 -5.2674103 121.99173 13024941
-134.43112 -5.4996114 121.51169 10064776
-135.26665 -5.5109968 121.08901 7760997
-136.10527 -5.522563 120.66467 9932678
-136.94705 -5.5342836 120.23869 11380380
-137.79204 -5.5461597 119.81099 10261899
-138.75429 -5.6048231 119.30537 9143163
-139.8047 -5.5300632 118.81081 9011577
-140.68105 -5.6630588 118.31738 9931910
-141.56595 -5.8269353 117.80691 10525588
-142.21284 -5.8368392 117.47914 13024949
-130.40855 -4.3435569 124.00287 11182489
-131.02504 -4.3500605 123.69138 12893875
-131.78581 -4.5795493 123.2158 14013125
-132.6129 -4.5888205 122.7981 10525583
-133.65106 -4.6006274 122.27383 12827563
-134.69362 -4.6126328 121.7473 8353647
-135.5313 -4.6223712 121.3242 7563874
-136.37204 -4.6322899 120.89949 8090218
-137.216 -4.642314 120.47314 8682611
-138.06319 -4.652493 120.04511 7630436
-138.84521 -4.887094 119.55682 9340798
-139.48477 -4.8952856 119.23347 9011577
-127.79742 -3.4366033 125.68506 9142649
-128.40822 -3.4416475 125.37693 10654345
-129.3671 -3.6706834 124.80207 9207155
-130.28166 -3.6346061 124.35918 8944241
-131.21568 -3.6872914 123.87004 11315356
-132.04196 -3.694936 123.45354 10262412
-132.87111 -3.7026346 123.03556 9143931
-133.70326 -3.7104635 122.61599 10788242
-134.65083 -3.7642257 122.11972 7893096
-135.58662 -3.7285786 121.66628 5919050
-136.57274 -3.9625349 121.07614 7037274
-125.2057 -2.5375845 127.35422 8682867
-126.01348 -2.5425987 126.94742 10524301
-126.96548 -2.7690728 126.37715 7958634
-127.7783 -2.7746949 125.96764 10326921
-128.6722 -2.6480331 125.57253 8813170
-129.47508 -2.5648119 125.20523 10391431
-130.36697 -2.6343009 124.73031 9142393
-131.39568 -2.5221829 124.26203 9471871
-132.29909 -2.8070226 123.69223 9143931
-133.03926 -2.8869271 123.28888 8814710
-133.89914 -3.0425768 122.79433 7169629
-134.52626 -3.0475974 122.47847 7893096
-122.68197 -1.2064153 129.06322 10854036
-123.55034 -1.3856241 128.60638 8682867
-124.43427 -1.6533494 128.10025 9011575
-125.24398 -1.6570783 127.69823 9340540
-126.05294 -1.6607769 127.2916 12695467
-127.00173 -1.7205467 126.79193 11774110
-128.01714 -1.6066887 126.33102 9602943
-128.88933 -1.5852804 125.90353 8748149
-129.72621 -1.6783814 125.44635 10853012
-130.54997 -1.6823705 125.03255 9010808
-120.12354 -0.32165512 130.71059 9865854
-120.94929 -0.32325754 130.34392 9865854
-121.87378 -0.54480457 129.7662 9801090
-122.70467 -0.54684019 129.39706 10393485
-123.64117 -0.59329021 128.94763 8682867
-124.68577 -0.5076291 128.54236 9867141
-125.59791 -0.55402452 128.05682 9011831
-126.29591 -0.77745116 127.53515 12629674
-127.1096 -0.7798233 127.12711 9143161
-127.92595 -0.78224981 126.71768 8353134
-116.70115 0.55910027 132.96181 9077112
-117.51829 0.55881226 132.59996 9011573
-118.53084 0.38280436 132.00473 8485486
-119.45291 0.33823526 131.55948 11905950
-120.27813 0.33765942 131.19386 8945008
-121.20606 0.29280591 130.74574 9471352
-122.10359 0.26256382 130.32333 9076853
-123.06371 0.11411428 129.77434 11643808
-123.6908 0.11342564 129.49632 12630959
-79.122162 1.7829612 157.45303 12631472
-80.128632 1.7117914 157.24846 11841443
-81.137833 1.6403177 157.04329 9998983
-110.95499 1.0007383 136.68855 11314840
-111.76151 1.0009708 136.33577 8618360
-112.5702 1.0011495 135.98201 8092019
-113.58452 1.0014889 135.53851 10854550
-114.60224 1.0018563 135.09369 9274235
-115.41917 1.0021726 134.73663 8353134
-116.03347 1.0024074 134.46829 7563618
-78.399994 2.6560752 157.90311 12432814
-79.18721 2.5854528 157.73756 11907493
-80.185753 2.5445061 157.54556 10788756
-77.411606 3.6751945 158.45424 9932934
-78.245979 3.4595137 158.22678 13747905
-79.338005 3.4642427 158.03505 9802121
-79.956924 3.2468119 157.84514 9735812
-76.688118 4.5504436 158.90527 11183001
-77.442474 4.3788686 158.70833 10591125
-78.474983 4.2966032 158.49509 11840936
-79.232262 4.1243634 158.29729 10459796
-75.867287 5.7205162 159.48239 8880503
-76.616531 5.4318948 159.24315 9472384
-77.64312 5.3839917 159.04359 8814714
-78.506981 5.0029168 158.74997 10459796
-74.87635 6.7441735 160.03558 8090987
-75.709908 6.5301771 159.80896 8683124
-76.799316 6.5397291 159.61949 9735299
-77.417809 6.3231988 159.43007 7563619
-75.001541 7.5218182 160.30034 8418927
-75.934547 7.3756323 160.08112 7761254
-76.690857 7.2050552 159.88417 9735299
-73.493599 8.952527 161.09535 7563619
-74.132324 8.6032934 160.85329 7563619
-75.099503 8.4693747 160.63251 10655629
-75.963158 8.0884123 160.33899 10984593
-73.258568 9.6646824 161.3997 7958376
-74.25219 9.6326065 161.21184 8418927
-74.906334 9.6410732 161.09904 7826791
-72.453102 10.617623 161.894 9734014
-73.385162 10.473361 161.67558 8616048
-74.310097 10.456215 161.50539 9734014
-71.55706 11.464126 162.32793 9472127
-72.568245 11.40532 162.14848 9865600
-73.577591 11.345909 161.95891 8221547
-70.864937 12.612683 162.78436 10590095
-71.616219 12.513127 162.63515 9537921
-72.54689 12.379013 162.44711 9865858
-70.035652 13.836728 163.28529 10129545
-70.745216 13.579151 163.09499 9669250
-71.758224 13.643096 162.95372 8090987
-72.388161 13.428772 162.78914 10261132
-68.993141 14.751426 164.11244 10262411
-70.095406 14.580882 163.7485 9998726
-70.966286 14.306449 163.27948 8814198
-71.624092 14.319321 163.17909 8090987
-67.419662 15.554352 165.07329 9670277
-68.363457 15.453683 164.82867 9736579
-69.308693 15.353136 164.58397 9736323
-58.407494 16.778873 170.86163 10130059
-59.070957 16.791306 170.78528 10392461
-59.95726 16.808352 170.68359 10392461
-64.181267 16.178282 167.112 6511954
-65.070953 16.198532 167.02194 9998215
-65.740089 16.214067 166.95517 8813942
-58.144207 17.519163 171.16409 9998217
-59.156937 17.492285 171.0309 10129289
-59.793365 17.271309 170.87267 9931910
-57.498901 18.394402 171.56247 9998211
-58.384483 18.412298 171.46111 9998212
-59.049862 18.425982 171.38504 9471359
-56.531548 19.547871 172.10143 10261382
-57.389404 19.330696 171.91777 9735296
-58.414692 19.273855 171.77211 9735296
-55.644978 20.787077 172.66139 9537665
-56.593544 20.551708 172.46005 9735041
-57.487194 20.157454 172.20743 10129796
-54.06591 21.912134 173.70503 8616819
-54.884075 21.676483 173.38849 8616819
-55.761215 21.692085 173.25642 9669251
-56.578865 21.45676 172.93892 9866371
-51.404057 22.950254 175.51645 8092019
-52.483891 22.959475 175.28615 9866373
-53.319267 22.589888 174.50612 10261131
-54.182056 22.416101 174.07582 7827308
-55.060875 22.431782 173.94395 9143163
-50.114258 23.500774 176.61275 7564651
-50.76366 23.505526 176.47302 7828335
-51.413612 23.510572 176.33374 9736329
-169.68904 -9.1893263 99.793594 7169373
-170.13789 -9.2012062 99.507248 8419696
-170.81322 -9.2191296 99.076248 8617075
-171.71751 -9.2433519 98.499222 9143675
-172.62621 -9.2678318 97.919189 8814710
-173.53947 -9.2927208 97.336182 8419696
-174.45744 -9.317915 96.750114 8880248
-149.38675 -8.2510185 112.89147 7565667
-150.00684 -8.2635841 112.51156 10261132
-150.82358 -8.2799501 111.99374 9471355
-151.64323 -8.2965221 111.47404 9208182
-152.46588 -8.3132982 110.95233 8353391
-153.29161 -8.3303823 110.42857 8353391
-154.1205 -8.3477201 109.90277 9407615
-154.95261 -8.3653135 109.37483 10393486
-155.78784 -8.3831625 108.84476 8288624
-156.62648 -8.401268 108.31252 9340283
-157.46843 -8.4195795 107.77802 8353134
-158.31386 -8.4381962 107.24135 7563619
-159.18056 -8.6139259 106.62206 11708059
-159.93507 -8.7094727 106.10823 8748145
-160.79044 -8.7294083 105.56465 8813939
-161.64952 -8.7495985 105.0187 9406334
-162.51227 -8.7700729 104.47031 8484977
-163.37883 -8.7908506 103.91939 8485493
-164.24925 -8.8119383 103.36594 7564651
-165.12321 -8.8332796 102.80972 7564651
-166.00084 -8.8549051 102.25064 9669766
-166.88231 -8.8767853 101.6889 8880502
-167.76787 -8.8990498 101.12437 10130057
-168.52046 -8.6774206 100.75016 10064264
-169.26956 -8.5994673 100.31508 7432545
-170.17415 -8.4768038 99.802246 7038042
-171.07597 -8.4989214 99.227585 8749172
-171.98228 -8.521347 98.65004 8617331
-172.89311 -8.5441036 98.069511 8419952
-173.70201 -8.6459656 97.518028 8091503
-174.37459 -8.4999409 97.160767 8091762
-146.8004 -7.2808857 114.58662 9801605
-147.70889 -7.4514527 114.06168 7564651
-148.49797 -7.5439572 113.62865 10854804
-149.38947 -7.5625615 113.1749 9539457
-150.22731 -7.5785642 112.67569 9471355
-151.04559 -7.5936327 112.15746 9471355
-151.86687 -7.6089568 111.63728 9603199
-152.69116 -7.624537 111.11508 8221549
-153.5186 -7.6402965 110.59087 9012345
-154.34911 -7.656312 110.06461 9144187
-155.18285 -7.672533 109.53621 8880762
-156.01988 -7.6890349 109.00568 9998469
-156.8602 -7.7057171 108.47295 10985106
-157.70392 -7.7227063 107.93803 9537406
-158.55104 -7.7399015 107.40083 8353134
-159.40169 -7.7573524 106.86137 10260873
-160.25587 -7.7750344 106.31955 9668991
-161.11366 -7.7929726 105.77536 8813939
-161.97514 -7.8111677 105.22872 8353646
-162.84035 -7.8296189 104.67966 8814457
-163.70894 -7.8483267 104.12784 7564651
-164.58109 -7.8672414 103.57333 9669766
-165.45709 -7.8864369 103.01608 8683130
-166.26884 -7.7845035 102.55226 9275518
-167.01065 -7.6808639 102.13306 7958888
-167.82848 -7.6023321 101.6552 7761253
-168.72682 -7.4771399 101.14735 6905688
-169.6227 -7.4963708 100.57771 6248785
-170.52286 -7.515933 100.00524 7630691
-171.42741 -7.5357041 99.429962 8420206
-172.2309 -7.6347532 98.883133 8551538
-172.89845 -7.486887 98.529846 9011831
-173.70857 -7.5863395 97.97876 9668989
-174.30809 -7.8451209 97.489716 8420470
-144.02278 -6.3194938 116.37395 15393498
-144.89584 -6.3343673 115.93106 9143424
-145.69984 -6.5759816 115.42886 8881015
-146.57991 -6.5917649 114.98207 8881015
-147.46385 -6.6077561 114.53323 7894634
-148.35178 -6.6239533 114.08231 9539457
-149.24376 -6.6403828 113.62927 14341833
-150.22096 -6.7037821 113.06525 10986389
-151.13708 -6.6727285 112.5062 8616560
-152.05728 -6.641552 111.94467 8814454
-152.99246 -6.7034202 111.33276 9406847
-153.82205 -6.717433 110.80795 9539457
-154.65483 -6.7316766 110.28104 9012089
-155.49081 -6.7461257 109.75201 8090987
-156.33011 -6.7607808 109.22087 10524555
-157.17274 -6.7756424 108.68748 12037536
-158.01878 -6.7907586 108.15198 10984851
-158.86826 -6.8060322 107.61414 8287342
-159.72124 -6.8215613 107.07408 8616307
-160.57782 -6.8372469 106.53161 7893350
-161.43788 -6.8532133 105.9867 7893350
-162.30132 -6.8693371 105.43913 7827558
-163.06842 -6.9631715 104.91747 7564651
-163.8208 -6.8982487 104.47458 8025201
-164.57613 -6.8330297 104.03002 11511452
-165.35225 -6.9276066 103.50236 12498345
-166.18735 -6.8638597 103.00718 9867653
-167.20222 -6.7233291 102.43307 7958888
-168.09158 -6.7403727 101.86842 6510930
-168.98515 -6.7577238 101.30109 6774618
-141.06021 -5.3677063 118.24983 9736329
-141.70625 -5.3768582 117.92287 11380639
-142.59549 -5.5406585 117.41017 10788759
-143.36726 -5.6277671 116.9881 8486003
-144.23834 -5.6409855 116.54689 11774370
-145.11311 -5.6543608 116.10368 9143424
-145.9917 -5.6679673 115.65848 8354672
-146.87419 -5.6817551 115.21132 9209725
-147.76057 -5.695725 114.76205 10130830
-148.651 -5.7098756 114.31081 10131083
-149.46989 -5.9537139 113.8002 12960437
-150.33391 -5.9674573 113.31923 12433068
-151.15443 -5.9795294 112.80091 7564643
-151.97803 -5.9918065 112.28064 8617075
-152.80467 -6.0042391 111.75835 9735043
-153.63432 -6.0168767 111.23413 8617075
-154.46722 -6.0296698 110.70779 10788244
-155.30327 -6.0427198 110.17934 10261899
-138.98215 -4.4385619 119.67386 8616819
-139.8618 -4.599329 119.16728 9472384
-140.73985 -4.7306271 118.6737 9143675
-141.8018 -4.6533642 118.17434 10065037
-142.78337 -4.7111282 117.65944 10130830
-143.65308 -4.7222443 117.21972 8748922
-144.52647 -4.7335415 116.77809 11050648
-145.40369 -4.7449698 116.3345 11050648
-146.28467 -4.7565789 115.88898 9078142
-147.09554 -4.997129 115.38377 9736329
-147.76122 -5.0064631 115.04688 9736329
-136.07388 -3.5090692 121.51326 7893096
-136.70689 -3.5149491 121.19424 7432545
-137.48592 -3.7470691 120.70844 8353903
-138.33533 -3.7555261 120.28003 5920074
-139.18802 -3.7641137 119.84985 7103580
-140.0441 -3.7727816 119.41801 8025194
-140.90366 -3.7815809 118.98438 8354158
-141.76666 -3.7905102 118.54889 9209984
-142.74945 -3.8464053 118.03413 9801352
-143.7216 -3.8111668 117.56236 8945272
-144.7433 -4.0508332 116.95203 9669511
-132.49254 -2.1390316 123.87177 11315356
-133.35136 -2.2932632 123.37831 9142390
-134.09557 -2.3726153 122.97322 7629922
-134.93616 -2.5126989 122.49469 8287854
-135.77997 -2.6726182 122.00639 8156525
-136.76424 -2.6155825 121.53761 7695978
-137.75311 -2.5581968 121.06664 10392974
-138.67697 -2.62941 120.57499 8353647
-139.53246 -2.6357679 120.14437 7498337
-140.32173 -2.8688965 119.65304 8354158
-141.18355 -2.8758488 119.21902 6775126
-141.97815 -3.1102693 118.72451 8749175
-142.62898 -3.1159785 118.39659 9537409
-129.85216 -1.2337831 125.56725 10721940
-130.67696 -1.2370234 125.15327 8550257
-131.44052 -1.4633414 124.67757 9208187
-132.47862 -1.4679954 124.15636 11050131
-133.52095 -1.4726979 123.63297 8879475
-134.35834 -1.476509 123.21247 10128771
-135.19878 -1.4803498 122.79042 10064007
-136.04231 -1.484271 122.36676 10262156
-136.88905 -1.4881973 121.94157 7038307
-137.64534 -1.5672861 121.53048 8682871
-138.5237 -1.7228327 121.02666 9800835
-126.5237 -0.33463609 127.76433 10064262
-127.33896 -0.33626071 127.35557 7564643
-128.28445 -0.48665872 126.76697 7563619
-129.17192 -0.51841301 126.29912 8419958
-130.09573 -0.56528264 125.80148 9340544
-130.92236 -0.56737578 125.38699 8550257
-131.75175 -0.56952345 124.97106 9142651
-132.58406 -0.57167578 124.55366 11049874
-133.52074 -0.61913633 124.04951 8090216
-134.55605 -0.80227315 123.39243 11378324
-135.39809 -0.80489129 122.97015 8616820
-136.03156 -0.80687076 122.65235 10262156
-122.47601 0.55734837 130.40518 11709345
-123.31188 0.55713093 130.03517 12630959
-124.13702 0.40896106 129.54608 9998727
-124.86384 0.33452791 129.15897 8946039
-125.88493 0.33374369 128.65683 7959144
-126.90404 0.33297217 128.14705 8156779
-127.72234 0.33231837 127.73767 7564643
-128.43158 0.25715512 127.31881 7169635
-129.23669 0.10692458 126.78777 7038307
-130.26884 0.10569817 126.27103 8222579
-131.09744 0.10475251 125.85629 9931910
-81.482155 1.9332409 157.09033 10130825
-82.103271 1.7149566 156.89981 9670786
-83.134193 1.7153281 156.56944 11380636
-84.112389 1.7145696 156.13629 10985364
-84.973991 1.6039498 155.71078 9406845
-85.83606 1.4932795 155.28503 9209467
-116.64929 1.0026397 134.19926 9537662
-117.47249 1.0030465 133.83975 7563619
-118.29836 1.003449 133.4792 6511954
-119.12679 1.0038975 133.11757 7300958
-120.16626 1.0044147 132.664 9997700
-121.20978 1.0050755 132.20874 12628391
-80.757942 2.8098919 157.54207 10130825
-81.378838 2.592133 157.35178 9736067
-82.394669 2.6392705 157.17717 9867397
-83.267738 2.4857328 156.81868 11051669
-84.032173 2.3750165 156.43617 12761517
-80.529678 3.5136173 157.84216 9867653
-81.534256 3.4741929 157.64961 9012088
-82.330513 3.4041753 157.48271 9143674
-79.575035 4.4206228 158.34587 8684155
-80.587952 4.3530955 158.14151 9669762
-81.603645 4.2853646 157.93655 9406846
-78.218674 5.8863788 159.12694 8684155
-78.860069 5.5369415 158.88443 10065295
-79.854126 5.5114956 158.69891 13222841
-80.722923 5.1294255 158.40402 11709346
-77.987801 6.5948887 159.42928 8156012
-78.989838 6.5597396 159.23875 8880249
-79.784134 6.4928761 159.07338 11709089
-77.031433 7.5054851 159.93463 9340541
-78.042084 7.4417949 159.7321 7958891
-79.055374 7.3780355 159.52905 7762283
-76.303215 8.3899775 160.39003 11050643
-77.233002 8.3711367 160.21828 8616563
-78.173172 8.2254829 159.99799 7959147
-75.583801 9.5155268 160.93269 8945014
-76.40126 9.4366169 160.75877 11181972
-77.32769 9.2990007 160.54381 9603199
-74.648941 10.761015 161.5578 9142651
-75.488304 10.548145 161.33055 9273978
-76.499641 10.487789 161.12912 10458250
-73.915321 11.651879 162.01064 8616048
-74.757042 11.439612 161.78902 9405566
-75.767891 11.38009 161.58797 9866115
-73.151817 12.539625 162.39963 10851980
-73.783058 12.325449 162.23494 9273979
-74.886429 12.345183 162.06596 9668995
-72.961937 13.504551 162.72102 9537664
-73.929741 13.458513 162.55367 9603202
-74.700478 13.171106 162.34474 11379356
-71.202293 14.798312 163.82085 8419696
-72.292793 14.624891 163.4175 8090987
-73.169128 14.512679 163.13002 8946555
-74.047569 14.368484 162.80965 9933961
-69.745552 15.717377 164.78769 9933702
-70.548286 15.496073 164.47498 9471607
-71.327766 15.4325 164.28801 9208435
-72.230362 15.292387 164.02028 8814198
-60.623077 16.821384 170.60722 10853012
-61.290356 16.834665 170.53079 10326924
-62.181652 16.852751 170.42879 11181972
-66.411133 16.229952 166.8893 9143163
-67.308479 16.251743 166.80258 9143681
-67.983467 16.268373 166.73837 9143681
-60.361576 17.563272 170.91005 9932166
-61.379723 17.537584 170.77663 10459019
-62.018799 17.31691 170.61816 11905692
-59.71648 18.439989 171.30891 9208187
-60.606915 18.459078 171.20743 10393228
-61.276043 18.47368 171.13123 10854036
-58.748989 19.595081 171.84875 9209467
-59.610325 19.378536 171.66466 9801091
-60.640923 19.32299 171.51884 10459019
-57.863064 20.836119 172.40923 9866882
-58.751865 20.351227 172.12418 10129796
-59.71225 20.207581 171.95483 10262153
-56.48085 21.955564 173.34302 9537665
-57.173615 21.801832 173.10959 9142647
-57.960838 21.733582 172.92705 10129284
-58.864788 21.210842 172.45174 9932418
-53.78157 22.971912 175.01128 10260617
-54.431278 22.978712 174.87448 8616566
-55.500736 22.98469 174.60127 8353651
-56.209488 22.586405 173.92778 9208699
-57.264324 22.473646 173.61523 8616560
-52.064236 23.516073 176.19487 9736329
-52.932247 23.52392 176.01039 8617335
-53.801273 23.532515 175.82664 8616566
-163.85025 -6.1830883 104.7698 7564651
-164.72481 -6.1981559 104.21538 11511452
-165.60323 -6.21348 103.65834 8682867
-166.48573 -6.2290606 103.09874 9736067
-167.37227 -6.2447491 102.53648 8682867
-168.26292 -6.2607446 101.97151 7564134
-169.15778 -6.276897 101.40381 11381151
-169.97 -6.5342689 100.78218 7696488
-170.76819 -6.6305938 100.2399 9407100
-171.43088 -6.4810171 99.890411 10459531
-172.23553 -6.5777011 99.343979 8354158
-173.1496 -6.5954881 98.76355 9142647
-173.9614 -6.6932683 98.212097 8550512
-149.62097 -5.4947515 113.91446 12960437
-150.48154 -5.5073433 113.42973 9932679
-151.30322 -5.5186167 112.9111 7564131
-152.12782 -5.5300465 112.39053 8090731
-152.95549 -5.5416298 111.86792 8617075
-153.78629 -5.5534191 111.34344 9143419
-154.62032 -5.5653138 110.81671 10788244
-155.61578 -5.7357798 110.11927 9340798
-156.43074 -5.8260875 109.56996 8551537
-157.27483 -5.8390255 109.03655 7564643
-158.12233 -5.8521686 108.50095 9143419
-158.85771 -5.7850318 108.0708 8024170
-159.70445 -5.7349095 107.5631 8418928
-160.55078 -5.6533251 107.0691 8221549
-161.41136 -5.666635 106.52412 7367263
-162.27568 -5.6801167 105.97679 6774870
-163.14374 -5.6938057 105.42703 7038302
-164.09828 -5.4699316 104.92725 7959408
-164.97469 -5.4834766 104.37231 8354166
-165.855 -5.4972034 103.81482 9275263
-166.73941 -5.5110621 103.25473 9933446
-167.6279 -5.525178 102.69199 8354161
-168.41728 -5.618526 102.15655 7038307
-169.07195 -5.4675364 101.81268 13552573
-169.86752 -5.561162 101.27322 9209729
-170.77086 -5.5759292 100.70085 13025456
-171.67867 -5.5908785 100.12563 10656656
-172.59097 -5.6060362 99.547478 8616817
-173.40125 -5.7014718 98.998009 8550512
-147.24355 -4.5396118 115.49905 8881278
-148.15746 -4.7049031 114.97342 9144449
-148.95131 -4.792347 114.54012 10657172
-149.84827 -4.8046331 114.08631 9406335
-150.70357 -4.8155737 113.59583 9537665
-151.52679 -4.8255496 113.07678 7563875
-152.3531 -4.8357301 112.55576 8617075
-153.18237 -4.8460164 112.03273 8748405
-154.10249 -4.7171788 111.51427 9537920
-154.92751 -4.6336865 111.03535 9209211
-155.76695 -4.6439748 110.50597 9867142
-156.60973 -4.6544166 109.97452 9077624
-157.45567 -4.6649489 109.44077 8617331
-158.30481 -4.6756701 108.90463 9011832
-159.15721 -4.6865139 108.36612 8682612
-160.00212 -4.6024699 107.8737 8024170
-160.95287 -4.4721317 107.33532 9734787
-161.81651 -4.4829035 106.7896 9603457
-162.68384 -4.493856 106.24146 7301214
-163.55498 -4.5049415 105.6909 7038298
-164.43001 -4.5161824 105.13779 10788247
-165.3089 -4.5275311 104.58224 7959408
-166.08989 -4.6181722 104.05325 8156785
-166.73689 -4.4658017 103.71478 10328460
-167.52379 -4.5566697 103.18202 9012093
-168.41696 -4.5685682 102.61725 7433065
-169.31441 -4.5806732 102.04977 8091250
-170.21608 -4.5929127 101.47958 8880508
-171.12221 -4.6053085 100.90654 10459024
-172.0327 -4.6178856 100.33061 10261899
-172.84148 -4.7109761 99.783173 8748917
-173.40685 -4.6371927 99.461327 9998214
-144.44952 -3.5901477 117.28959 10458254
-145.57782 -3.7850971 116.64447 9866889
-146.50479 -3.6109924 116.25279 8749433
-147.39211 -3.620203 115.80507 10854294
-148.28333 -3.6295366 115.35534 9407621
-149.17863 -3.638994 114.90355 9933447
-150.07808 -3.6485746 114.44962 10919829
-151.00784 -3.5913143 113.94522 10985367
-151.90088 -3.6662366 113.35394 9998471
-152.72989 -3.6742547 112.83215 9669505
-153.48586 -3.9156497 112.25308 9735299
-154.27647 -3.845773 111.78964 10393741
-155.23564 -3.699193 111.25456 8682867
-156.07735 -3.7076499 110.7246 8748403
-156.92174 -3.7162125 110.19212 9867135
-157.76939 -3.7248807 109.65731 9735555
-158.62051 -3.7336555 109.12028 10261899
-159.47511 -3.7425854 108.58101 9735043
-160.33327 -3.7515721 108.03951 10853012
-161.19505 -3.760715 107.49568 10129289
-162.06046 -3.7700143 106.94947 10392461
-162.92964 -3.7793701 106.40085 8090730
-163.80269 -3.7888827 105.84979 7564642
-164.45985 -3.7961211 105.43501 12433069
-140.53056 -2.1888018 119.82986 7762021
-141.39409 -2.194406 119.39558 7762021
-142.19037 -2.4278293 118.90064 7827814
-143.06113 -2.5712123 118.40574 9932167
-143.86221 -2.668777 117.96455 8550514
-144.73912 -2.6756365 117.52305 10063753
-145.61975 -2.6826022 117.07959 9341057
-146.57793 -2.4597399 116.69241 9538691
-147.46695 -2.4663355 116.24498 9538691
-148.2603 -2.5495946 115.81364 8092019
-149.18135 -2.7115791 115.28578 10196362
-138.02 -1.2669579 121.46722 7893352
-138.82892 -1.4218581 120.9985 7892838
-139.76337 -1.4563941 120.51676 7563617
-140.74014 -1.5065575 120.00728 8222316
-141.60536 -1.5107636 119.57272 8748916
-142.47414 -1.5150511 119.13635 9011832
-143.34654 -1.5193692 118.69812 9274493
-144.22261 -1.5237182 118.258 9142651
-145.10245 -1.5280986 117.81601 9866885
-145.91266 -1.7631451 117.31346 9867399
-146.79953 -1.768187 116.86768 8420726
-134.58928 -0.35144082 123.72038 10655371
-135.6432 -0.35365325 123.1919 9537150
-136.47832 -0.50633901 122.65823 9538434
-137.21576 -0.58375168 122.23089 7827821
-138.06816 -0.58601171 121.80341 8617332
-138.92392 -0.58827722 121.37421 8353389
-139.78304 -0.59057319 120.94337 10392969
-140.74974 -0.63894266 120.42398 12564137
-141.7285 -0.59590936 119.96762 9735555
-142.68764 -0.82818645 119.31369 7959144
-143.5618 -0.83105695 118.87514 8353647
-144.2198 -0.83327615 118.5451 10261132
-128.8782 0.55547595 127.35165 7038307
-129.49709 0.55532128 127.04234 8814715
-130.32445 0.55512804 126.62874 9735560
-131.40028 0.44220129 125.99446 9538435
-132.27139 0.3291066 125.46216 8617334
-133.10773 0.32854861 125.04387 8222833
-133.94704 0.32798579 124.62413 7827301
-134.7894 0.327418 124.20282 9537150
-135.73416 0.28129146 123.69124 10392457
-136.64926 0.25017723 123.20739 9735556
-137.62117 0.097357377 122.59074 10130570
-138.47664 0.096368 122.16249 9077882
-139.12045 0.095722437 121.84026 7037274
-85.326561 1.9337291 155.6868 9604224
-86.150124 1.7865489 155.26346 9472638
-86.856468 1.7127695 154.92142 9209467
-87.838638 1.7122799 154.48665 9143418
-88.821884 1.7117718 154.05141 8747893
-89.609451 1.7114807 153.70282 8617075
-90.507889 1.667015 153.28749 8354159
-91.342514 1.4901009 152.84738 8681843
-122.04785 1.005609 131.84323 10787216
-122.88885 1.0061383 131.47652 9867398
-123.73274 1.006763 131.10866 13551549
-124.79202 1.0075495 130.64703 11314843
-125.84558 1.008233 130.17325 9932934
-126.66709 1.0086529 129.76717 12433069
-127.49114 1.0090687 129.35976 11314072
-83.717194 2.8164592 156.75215 12761517
-84.345154 2.6691873 156.41534 9801347
-85.247955 2.5953736 155.98636 9604225
-86.229927 2.5952008 155.55185 9933189
-87.016304 2.5951364 155.2039 9998983
-88.000313 2.5951357 154.76846 9341053
-88.906113 2.5214505 154.33818 11380125
-89.733231 2.3739812 153.91324 8090987
-82.924446 3.5536113 157.38622 10064776
-83.636444 3.4800324 157.05348 9735554
-84.422073 3.4800942 156.7059 12761517
-85.404984 3.4802203 156.27106 10854035
-86.388847 3.4805198 155.83585 9209211
-87.09761 3.4068284 155.49272 10064776
-87.924789 3.2592762 155.06778 9998983
-81.950493 4.5831189 157.98497 8682867
-82.783852 4.3659668 157.72974 9801348
-83.790733 4.3675594 157.34048 9735555
-84.577843 4.3678937 156.99232 11380122
-85.475853 4.3239298 156.57741 11248793
-86.311226 4.1465135 156.13675 8682867
-81.127014 5.7623968 158.56592 14209736
-81.886398 5.4720287 158.32425 10262411
-82.896614 5.3519201 158.07376 9275004
-83.866943 5.1840782 157.63361 9801348
-84.49794 5.0357676 157.29504 11380380
-80.398087 6.6474571 159.02159 14209736
-81.19622 6.5808291 158.85564 12959412
-82.083382 6.5896292 158.70168 9866630
-82.710609 6.3719378 158.51028 8682867
-79.399925 7.6799278 159.57936 9736326
-80.24514 7.465549 159.35052 9603201
-81.352608 7.4779172 159.15889 10064009
-81.979568 7.2605019 158.96765 12433069
-78.669853 8.5675898 160.03619 7039331
-79.293785 8.3510532 159.84576 9736326
-80.399834 8.3647661 159.65486 9735557
-81.248077 8.1503658 159.42542 10985367
-77.84243 9.7557764 160.62117 13880509
-78.600876 9.4663095 160.37999 10196620
-79.485077 9.478632 160.22787 9736326
-80.246109 9.1882448 159.98595 9736326
-76.842018 10.793851 161.18135 8089963
-77.686195 10.580942 160.95326 10590608
-78.790749 10.597999 160.76381 8025968
-79.417015 10.381135 160.57292 9736326
-76.109741 11.68742 161.64082 10984593
-76.733208 11.471107 161.45053 8879735
-77.836494 11.489349 161.26176 8486262
-78.683502 11.276303 161.03305 8486262
-75.993019 12.365347 161.89572 9668995
-77.10041 12.385552 161.71764 7433575
-77.949463 12.173174 161.49405 8486262
-75.203087 13.634801 162.40498 10984598
-76.145027 13.502504 162.21571 9209214
-76.978584 13.428478 162.06117 7235940
-73.619698 14.846517 163.43054 9933961
-74.503418 14.864863 163.28841 9604997
-75.214714 14.514965 162.76927 11379356
-76.278778 14.418027 162.49765 8880507
-71.944435 15.762831 164.44153 10261123
-72.864464 15.626575 164.20792 8552055
-73.547562 15.481821 163.97058 9276289
-74.438232 15.338773 163.66557 9012862
-62.851505 16.866577 170.35219 10458252
-63.522602 16.880754 170.27568 10656144
-64.419342 16.899982 170.17343 10459019
-68.434555 16.279696 166.69598 9143681
-62.591511 17.610285 170.65556 10326922
-63.615528 17.585846 170.52187 10458763
-64.257439 17.365288 170.36307 10459019
-61.946419 18.488632 171.05498 10327433
-62.842052 18.508965 170.95329 10261383
-63.515163 18.524464 170.87695 10459019
-60.978436 19.645475 171.59549 10064003
-61.843674 19.429558 171.41119 9998209
-62.879951 19.375267 171.26515 10195589
-60.20277 20.574474 172.02899 10263180
-60.984619 20.403656 171.87146 10064516
-61.949715 20.261015 171.70195 9932417
-58.686287 21.998924 173.01494 9735296
-59.441795 21.512293 172.51009 9144187
-60.07159 21.285795 172.31612 9407359
-61.092197 21.262257 172.17163 10131080
-56.780392 22.99106 174.25911 8616560
-57.634903 22.996374 174.03253 8616560
-58.401363 22.62311 173.5446 10655115
-59.413933 22.265894 173.10199 9275516
-60.23584 22.03121 172.78461 9144187
-54.45372 23.539362 175.68941 8616566
-55.106735 23.54661 175.55246 7038307
-55.978569 23.556906 175.37065 7038307
-56.851254 23.567751 175.18961 7038307
-58.939842 23.013937 173.75856 8616563
-153.71425 -3.2156873 112.41891 11381404
-154.55061 -3.2230844 111.89276 9932678
-155.39005 -3.2304876 111.36447 8682867
-156.23235 -3.2379963 110.83379 9537915
-157.07771 -3.2456105 110.30086 9537915
-157.92653 -3.2533302 109.76572 8617331
-158.77882 -3.2612062 109.22839 10854036
-159.63457 -3.2690883 108.68885 12433066
-160.49391 -3.2771268 108.14699 9405822
-161.35689 -3.2852716 107.6028 9405822
-162.00642 -3.2913961 107.19318 10853012
-162.65825 -3.2976749 106.78211 8945527
-163.53062 -3.3060861 106.23201 6511954
-164.40683 -3.3146038 105.67938 8090991
-165.20317 -3.5633209 105.07142 7564651
-166.08665 -3.5726016 104.51391 9143679
-166.97414 -3.5820138 103.95384 7959407
-167.8658 -3.5915585 103.39113 7827823
-168.76155 -3.6011853 102.82572 7827823
-169.66164 -3.6109695 102.25758 9143679
-170.56606 -3.6208866 101.68668 8089962
-171.36943 -3.7114663 101.14375 8484976
-172.03661 -3.5553958 100.79426 8156780
-172.74016 -3.7270415 100.27817 9933191
-148.65895 -2.2433696 115.74092 15197142
-149.33267 -2.2480655 115.40188 12170408
-150.1582 -2.4867132 114.89017 10196362
-151.03468 -2.4931941 114.41248 12433069
-151.86189 -2.498925 113.89288 10525325
-152.69208 -2.5047362 113.37127 10261895
-153.52542 -2.5106027 112.84772 9735299
-154.47198 -2.5644085 112.23178 9932678
-155.4108 -2.5242162 111.66146 9077883
-156.25383 -2.5303502 111.13071 8945781
-157.10008 -2.5365152 110.59789 8616561
-157.94978 -2.5428114 110.06276 9472383
-158.68689 -2.4690583 109.63345 11380379
-159.44518 -2.5538502 109.12122 14472389
-160.30452 -2.5603631 108.58007 8485489
-161.16747 -2.5669317 108.03654 7564386
-162.03407 -2.5735824 107.49078 8879734
-162.90448 -2.5803645 106.94257 7761765
-163.77866 -2.5871778 106.39199 7038042
-164.65672 -2.5940981 105.83887 7367007
-165.53874 -2.6010749 105.28329 7564651
-166.42473 -2.6081839 104.72516 9012089
-167.3148 -2.6153748 104.16446 8288371
-168.20909 -2.622648 103.60104 8814715
-169.00352 -2.7105119 103.06485 7959408
-169.66254 -2.5532274 102.72099 10655888
-170.4633 -2.6412268 102.18079 8089962
-171.3726 -2.6488259 101.60785 7037274
