# .PCD v0.7 - Point Cloud Data file format
VERSION 0.7
FIELDS x y z rgb
SIZE 4 4 4 4
TYPE F F F U
COUNT 1 1 1 1
WIDTH 1216
HEIGHT 1
VIEWPOINT 0 0 0 1 0 0 0
POINTS 1216
DATA ascii
43.619614 -60.062908 126.58407 10261643
42.962551 -59.998268 126.6525 9274749
40.750816 -59.87035 126.60648 8486000
39.87114 -59.598949 126.47661 8486000
38.999626 -59.414665 126.35792 8551538
37.816635 -59.156128 126.28883 6709590
79.751511 -58.371899 123.78176 9735816
78.868011 -58.453526 124.18413 9077626
77.900887 -58.599777 124.27482 9603969
76.872192 -58.744209 124.51099 10656658
75.731369 -58.747482 123.99078 10392973
74.833496 -58.747307 124.5328 9800580
73.560272 -58.750546 124.09574 9998727
72.811615 -58.750435 124.53472 8682867
71.808426 -58.75201 124.5295 9011832
70.806709 -58.753605 124.51698 9341054
70.055786 -58.753544 124.93962 11183001
68.818695 -58.75679 124.47971 12695722
67.91745 -58.756767 124.97181 8092011
66.69767 -58.760017 124.50358 8617337
65.946747 -58.760029 124.90119 7038307
64.993515 -58.761135 125.03094 7038307
63.992882 -58.763321 124.81184 6840919
62.942932 -58.830437 124.97698 8090986
61.892506 -58.896187 125.13062 8945528
61.137878 -58.896164 125.49939 9142651
37.974869 -59.010509 126.82017 7696232
36.899521 -58.955414 126.54441 8420208
35.919899 -58.851482 126.57864 10130310
34.995975 -58.807224 126.50274 10393225
33.945915 -58.804905 126.55202 8485743
33.030575 -58.80563 126.7923 10459278
32.11359 -58.806377 127.02595 10130313
31.092859 -58.808514 126.83372 9011578
30.076641 -58.810673 126.63342 8485237
29.008001 -58.811619 126.88026 9734788
27.937424 -58.812592 127.11855 9735046
27.018204 -58.813442 127.3154 8617080
25.968681 -58.815449 127.18346 8880247
25.129696 -58.817158 127.04587 9143417
24.0947 -58.818817 127.02722 9341051
22.903913 -58.688702 127.44566 8880509
21.990149 -58.490288 127.41762 7564651
21.006819 -58.36129 127.04885 8616566
80.786232 -57.459557 123.63866 9538694
79.913849 -57.544514 124.03418 10459025
79.042892 -57.631413 124.42833 8748660
21.889677 -57.720707 127.68351 7564651
20.992643 -57.576187 127.35198 8484722
20.208818 -57.512184 127.03773 9537409
81.705765 -56.288979 123.65603 9801608
80.874268 -56.473946 123.99131 9932680
80.053116 -56.561836 124.36047 10459022
79.421356 -56.782539 124.58299 9932166
21.706842 -57.081314 127.85618 7564651
21.013395 -56.644707 127.72787 8221549
20.073702 -56.660679 127.31461 8813686
19.276644 -56.338886 127.09621 9603457
82.73024 -55.371311 123.52013 8946557
81.977287 -55.456657 123.85674 10393231
81.006615 -55.589394 124.28153 10525071
20.766077 -55.900108 127.91412 8089963
20.068079 -55.643547 127.71288 9274237
19.10232 -55.548229 127.33218 9340798
18.442221 -55.410473 127.10062 11906725
83.535301 -54.493084 123.47648 9143936
82.772888 -54.518578 123.84179 8749435
81.83873 -54.59956 124.26941 9537922
81.379272 -55.012127 124.32996 10854036
19.815836 -54.888767 127.90092 9077370
19.042179 -54.538155 127.70396 9011832
18.07062 -54.650425 127.23902 8682867
84.608246 -53.491745 123.35033 6510930
83.92524 -53.644119 123.62551 7828076
82.989609 -53.646107 124.08559 8683642
82.241112 -53.93697 124.33742 9143936
18.769701 -53.652107 127.93501 9011832
17.876066 -53.687115 127.53424 9077626
17.091177 -53.46674 127.28084 8617337
85.60453 -52.36227 123.31342 6511962
84.797935 -52.570206 123.62716 8288370
83.858772 -52.571407 124.08929 8485492
83.107117 -52.861805 124.34283 8814457
17.886435 -52.765713 127.90076 9406593
16.90617 -52.597847 127.54144 9538181
16.173391 -52.498611 127.26253 10590868
86.564972 -51.168144 123.32009 13814461
85.891586 -51.506927 123.51569 10656658
84.975494 -51.50819 123.96642 11906722
84.301453 -51.80172 124.18052 8814457
17.634897 -52.034081 128.07838 9341059
16.949568 -51.622116 127.94274 8880509
16.029108 -51.662697 127.52768 10327952
15.243495 -51.366295 127.30312 8420470
87.574684 -50.286991 123.17666 12169640
86.882812 -50.437866 123.45693 12761775
85.929382 -50.496593 123.90304 11511964
85.177429 -50.726357 124.18116 11906722
16.69688 -50.894421 128.11847 9341059
16.009495 -50.659714 127.91235 8354677
15.0617 -50.590939 127.52827 8486263
14.419646 -50.314945 127.35808 7565675
88.587486 -49.156067 123.13179 9736067
87.804276 -49.51395 123.37397 12038822
86.912979 -49.505898 123.81636 11314586
86.141029 -49.778759 124.08708 10459021
15.751879 -49.921715 128.08998 8420470
15.105915 -49.645641 127.91802 8880764
14.094377 -49.559597 127.51308 8288627
88.8936 -48.448353 123.26524 8222060
87.926437 -48.622704 123.67172 10262667
87.109428 -48.830799 123.99068 10459533
14.922265 -48.871468 128.14186 9340801
13.992162 -48.618549 127.83765 9208700
13.110133 -48.581032 127.46982 8681843
90.550262 -47.26215 122.92536 7563619
89.778 -47.548855 123.19069 9011065
88.819778 -47.545547 123.66417 7037274
87.999245 -47.753609 123.98484 8617330
13.740457 -47.685127 128.09444 9274236
12.902788 -47.678219 127.73385 8747636
12.159524 -47.343555 127.54267 8748150
91.484009 -46.197918 122.94987 8090218
90.749237 -46.420876 123.1956 7563619
89.954926 -46.538624 123.53429 7563619
89.182167 -46.6273 123.85432 7037274
12.897779 -46.770756 128.08745 9735043
11.972234 -46.579029 127.76118 8419958
11.335911 -46.318615 127.58732 8090995
92.807671 -45.367935 122.99078 9209467
91.849899 -45.483749 123.36493 9077625
90.972137 -45.690788 123.6235 8092011
90.319458 -45.797306 123.85635 8092011
12.64038 -46.0583 128.2551 8090995
11.959774 -45.734085 128.12114 8090995
11.04683 -45.57766 127.83877 9999498
10.312285 -45.320808 127.70415 9933958
96.726784 -44.172539 122.75695 10722451
95.8153 -44.198219 123.11617 10326919
94.787003 -44.412945 123.0103 8089955
93.891228 -44.650742 123.14462 9932417
92.891518 -44.749825 123.47283 8814453
92.098991 -44.849068 123.77809 8682867
10.927862 -44.943584 128.28149 9472899
9.8972187 -44.73864 128.02217 8815477
8.9259911 -44.397434 127.99903 8815478
8.1104155 -44.234039 127.95884 10065033
98.417068 -43.760239 123.37125 7564651
97.810776 -43.976307 122.9129 10064779
97.16394 -43.952003 123.31326 11380380
7.6580286 -44.118198 128.16406 10130057
6.982132 -44.001507 128.27338 10064264
6.1109085 -43.925827 128.19345 9932423
5.1270361 -43.866783 128.37035 8946039
3.9560668 -43.845615 128.55209 9603969
3.0267847 -43.846985 128.57593 9209468
2.0973532 -43.848381 128.59305 10262156
1.0129182 -43.850029 128.60443 9735812
-0.071632624 -43.851704 128.60703 10458251
-1.0011704 -43.853157 128.60181 9931395
-1.9307234 -43.854641 128.58986 9405566
-3.0149739 -43.856384 128.56728 9341057
-4.09904 -43.858158 128.53592 9933192
-5.027998 -43.859699 128.50163 9932933
-5.9566374 -43.861259 128.46062 8682867
-7.098774 -43.860153 129.4552 8353647
-7.8784075 -43.861492 129.40886 8089963
-9.0530624 -43.666031 129.40671 9931907
-10.00019 -43.4827 129.28789 7498592
-10.938189 -43.568008 129.04803 8946296
-11.841851 -43.570469 128.84636 8618361
-10.189899 -42.660202 129.54922 6840919
-11.040915 -42.637085 129.3687 10853780
-11.906516 -42.692043 129.15614 9143677
-12.896053 -42.654583 128.9501 9209211
-11.247426 -41.773582 129.64146 9406334
-12.040528 -41.63982 129.51462 6380885
-12.895518 -41.664116 129.31572 6709850
-13.89313 -41.712132 129.07635 10261898
-14.749 -41.449482 128.98312 12630959
-12.307797 -40.890427 129.73172 6117714
-12.978756 -40.642132 129.67429 7630183
-13.976418 -40.691875 129.4343 9472128
-14.973369 -40.639355 129.23219 10788499
-15.941537 -40.547188 129.05112 10130569
-13.971415 -39.807796 129.76164 10261132
-14.982525 -39.621277 129.60582 9800837
-16.013451 -39.637726 129.37071 8814711
-16.872156 -39.575058 129.20309 9341313
-17.607447 -39.480049 129.07481 8486262
-15.014038 -38.906696 129.86249 9735046
-15.997518 -38.593952 129.75938 9801093
-17.066286 -38.604313 129.51811 10788244
-17.930712 -38.638412 129.31351 9933193
-18.838537 -38.316181 129.23071 10064775
-16.14115 -37.927071 129.97359 10458505
-17.047869 -37.660305 129.87057 11182485
-18.014261 -37.570385 129.68907 11972772
-18.941734 -37.553616 129.48915 12564650
-19.829338 -37.448708 129.3307 8090987
-20.504087 -37.212379 129.26797 8090987
-18.161749 -36.721272 129.96957 12761516
-18.993748 -36.600925 129.82916 12564650
-19.922663 -36.586346 129.62816 8090987
-20.887167 -36.537838 129.43179 8485745
-21.643042 -36.246693 129.37129 7433057
-19.241217 -35.855824 130.04906 10591118
-19.977167 -35.632923 129.96783 8156780
-20.9076 -35.620449 129.76573 9077882
-21.951727 -35.579624 129.54883 8025194
-22.883171 -35.387814 129.41267 8025192
-20.324362 -34.992306 130.12711 7893608
-21.00112 -34.705471 130.08257 9275261
-21.896685 -34.655678 129.90196 9077882
-22.983133 -34.645592 129.66434 8419692
-24.020174 -34.447807 129.50945 8353901
-22.053389 -33.805599 130.18083 8419693
-22.88994 -33.691845 130.03693 9537659
-23.97904 -33.684715 129.80101 9340280
-25.041317 -33.652954 129.63766 6774870
-25.963316 -33.46814 129.57921 7235421
-23.014427 -32.974072 130.27414 8616814
-23.88751 -32.728699 130.17073 10129539
-24.942579 -32.763432 129.97551 7169884
-26.034159 -32.719097 129.84267 8946039
-27.006804 -32.676273 129.72549 9275519
-27.862291 -32.463676 129.68623 10985881
-24.086697 -32.089504 130.36234 8814194
-24.933809 -31.815775 130.3222 7696228
-25.909578 -31.822105 130.18671 10393485
-27.004961 -31.778944 130.05292 9999242
-28.109592 -31.711557 129.9267 10065037
-28.978062 -31.560335 129.86328 9275522
-29.948105 -31.304558 129.82417 7696235
-25.980461 -31.070938 130.45093 9735555
-26.914373 -30.939762 130.38501 10525328
-27.798662 -30.827557 130.32611 8683381
-28.889559 -30.609896 130.3098 7630699
-29.947567 -30.600048 130.17261 8090993
-30.970789 -30.554422 130.0667 13748667
-31.984064 -30.417192 130.02313 11774108
-32.879517 -30.36331 129.9431 10130314
-29.888529 -30.000551 130.62828 7893614
-30.876703 -29.870583 130.59421 12695980
-31.926111 -29.77276 130.5265 11379351
-32.939598 -29.765608 130.39436 9866627
-33.953407 -29.706339 130.3401 11511967
-34.90337 -29.498461 130.46524 8354934
-35.863068 -29.414829 130.42331 8157554
-36.895473 -29.312325 130.47745 8287342
-37.861286 -29.332375 130.28694 7563619
-37.240559 -29.1054 131.09062 8616563
-38.049511 -29.122103 130.93112 8287342
-39.020676 -29.143005 130.73701 10393229
-40.006824 -29.078308 130.81195 8946045
-40.792137 -29.020439 130.89175 8485752
-41.82029 -28.990688 130.8508 10853520
-42.961437 -29.019169 130.61053 8551280
-44.130508 -28.911695 131.48674 8092011
-44.921776 -28.913702 131.21738 10262409
-46.027153 -28.916533 130.83316 8223347
-48.996994 -28.918859 131.62027 9867398
-49.947212 -28.921373 131.26151 9932422
-50.737408 -28.923475 130.95808 10129545
-53.140434 -28.924372 131.93776 9143167
-53.934395 -28.926537 131.6145 9998216
-54.726295 -28.928715 131.28683 9603970
-57.193146 -28.929792 132.23726 9011579
-57.829765 -28.931583 131.95943 9932421
-58.623817 -28.933832 131.60823 9011579
-61.79232 -28.936939 132.23399 8550772
-62.746696 -28.939724 131.78323 9274749
-65.822655 -28.942604 132.43651 8090475
-66.619415 -28.944996 132.03725 10261896
-69.281761 -28.946629 132.901 8813683
-69.972916 -28.873093 132.66202 9473408
-70.794556 -28.549004 132.66351 8880503
-71.786194 -28.468954 132.3623 8551539
-71.021431 -27.797901 132.9296 8617587
-71.975616 -27.784389 132.55504 8486262
-72.763985 -27.50112 132.35208 9012350
-71.884674 -26.925583 132.92757 9208957
-72.848114 -26.714785 132.62656 8025969
-73.652893 -26.674116 132.32207 9603973
-72.264977 -26.154434 133.07819 9011579
-72.992157 -25.910969 132.884 8946043
-73.871513 -25.782347 132.58427 9143162
-74.612732 -25.480968 132.40723 8682867
-73.141083 -25.079584 133.15027 9011579
-73.924904 -24.777615 132.95653 8946039
-74.91748 -24.755854 132.56989 8682867
-75.670662 -24.407764 132.40634 8682867
-74.193741 -24.004908 133.1521 8682867
-74.938339 -23.700939 132.97473 9275004
-75.857628 -23.631111 132.63608 8222577
-76.563019 -23.326345 132.47462 8288627
-75.28653 -22.742828 133.21133 9932934
-75.975853 -22.758947 132.9306 8485747
-76.949059 -22.745527 132.54839 9275776
-76.042587 -21.92955 133.22884 10196107
-76.837662 -21.855537 132.94127 10262412
-77.784561 -21.754681 132.60379 10196620
-76.992615 -21.025568 133.20465 9670020
-77.854668 -20.766865 132.96275 9012606
-78.755104 -20.564917 132.68338 8420727
-78.041229 -19.778776 133.27547 7565675
-78.942177 -19.721457 132.93922 9670279
-79.747162 -19.413387 132.73938 8353907
-78.885361 -18.777014 133.33186 12235689
-79.872986 -18.761492 132.94513 9998215
-80.574532 -18.777473 132.65993 10590351
-79.279564 -18.186546 133.40727 13551549
-79.942818 -17.879162 133.26448 11248537
-80.810028 -17.797503 132.95187 11511194
-81.498116 -17.671804 132.72783 11050644
-80.198479 -17.079166 133.4776 10656657
-80.923187 -16.764528 133.31331 10919573
-81.868919 -16.690222 132.9666 9603457
-82.465004 -16.372383 132.85469 10261132
-81.12323 -15.966295 133.54785 11380380
-81.891884 -15.796501 133.35873 9669251
-82.847504 -15.631342 133.10832 9800837
-82.911209 -15.017551 133.56549 9932166
-83.468262 -14.535176 133.74026 9406078
55.88525 -60.20715 126.07532 9538182
54.944088 -60.238205 126.15688 8748149
53.926926 -60.297848 126.1348 8089963
52.905487 -60.175339 126.25889 7367013
52.226242 -60.095058 126.34035 7038307
50.948456 -60.250107 126.24846 8682867
50.106663 -60.154026 126.34671 8550770
49.434673 -60.078449 126.42432 11709090
47.008457 -60.114117 126.45721 8092019
58.945293 -59.083054 125.96397 8287598
57.889347 -59.160213 126.22975 9208958
56.941235 -59.40398 126.3119 9209217
56.014061 -59.589207 126.50568 10130318
55.03302 -59.666157 126.61337 9932422
54.010948 -59.696251 126.61507 8089963
52.989933 -59.579594 126.7487 7235428
51.951862 -59.720924 126.64735 8222323
50.965557 -59.645882 126.73248 8156527
49.957943 -59.53894 126.86454 8287597
48.962242 -59.629566 126.81435 9669250
48.015324 -59.622486 126.82802 12958646
47.037457 -59.588066 126.91203 9670280
46.106354 -59.623882 126.91489 8157299
45.099934 -59.616631 126.90443 8814201
44.060192 -59.496616 127.07185 9077115
43.028664 -59.438995 127.18754 9077114
42.077946 -59.56863 127.05478 9867142
41.134087 -59.437092 127.12685 10525839
40.320454 -59.20752 127.19565 7498849
77.633217 -58.316517 124.84753 9406590
76.883286 -58.350899 125.20343 9471615
75.98333 -58.502434 125.42339 9866373
75.064865 -58.743843 125.60491 11643041
73.931664 -58.747154 125.06832 10129801
73.026039 -58.747025 125.59731 10129801
71.979652 -58.749195 125.41019 11183001
71.004372 -58.750244 125.57005 11775138
70.032684 -58.751305 125.72621 10919571
68.999901 -58.75349 125.52337 10065030
68.091148 -58.753475 126.01671 8092011
67.012657 -58.756767 125.45735 8354416
66.104385 -58.756786 125.93644 7762027
65.118706 -58.75845 125.89043 7827814
63.983154 -58.760143 125.91399 6511954
62.876289 -58.761311 126.10448 6840919
61.879547 -58.763538 125.86858 8418928
60.897461 -58.796936 126.16282 9405823
60.149448 -58.864586 126.15944 8813942
59.018833 -58.902222 126.51979 9340542
39.812767 -59.081451 127.3656 7038298
39.140041 -58.993969 127.36252 8683380
38.133751 -58.864021 127.35471 9143678
37.015755 -58.797337 127.5214 10262156
35.939526 -58.798122 127.8271 10590605
35.053085 -58.800114 127.6143 13812922
34.016937 -58.802238 127.43572 10985107
32.941521 -58.803093 127.71619 9538176
32.017887 -58.803852 127.94918 9209211
30.964779 -58.805393 127.98186 8748921
30.108576 -58.807037 127.87084 8156786
29.045057 -58.809021 127.75689 10063753
28.121218 -58.809864 127.96172 10064010
27.041489 -58.810871 128.19208 8617080
25.959909 -58.811913 128.41371 8221805
24.912039 -58.746838 128.21561 7893352
23.994402 -58.552658 128.19461 9077370
23.204458 -58.508884 127.94242 9670024
78.796371 -57.251125 124.70248 8682867
78.008385 -57.467484 125.0038 9406590
77.087715 -57.480259 125.45228 10064009
76.353798 -57.778381 125.6941 9208443
23.96023 -57.693081 128.59105 9405823
23.074118 -57.646935 128.22549 9538181
22.2609 -57.312622 128.00502 9143681
79.646889 -56.174408 124.71626 10524559
78.881203 -56.496574 124.96398 10326668
77.866104 -56.537773 125.44748 9208957
23.010355 -56.713749 128.56549 9076858
22.089867 -56.511902 128.24637 9077116
21.415348 -56.365215 128.01201 9537409
80.666397 -55.352112 124.54441 9405822
79.991135 -55.509434 124.81389 9866373
78.966766 -55.607845 125.27893 10129545
78.206833 -55.872295 125.547 9603457
22.814787 -56.014992 128.75601 8681843
22.113453 -55.577465 128.62463 9142909
21.168158 -55.620014 128.19852 10261132
20.473665 -55.188416 128.06779 10261132
81.525314 -54.276558 124.55352 9405822
80.860359 -54.572762 124.76208 10195594
79.957138 -54.582302 125.20313 8551026
79.269714 -54.802349 125.45333 8682867
21.86495 -54.830605 128.81125 9735046
21.188864 -54.688564 128.57442 9932425
20.276426 -54.498489 128.25412 9077372
82.710617 -53.215366 124.39615 8814457
81.962105 -53.50716 124.64757 9603458
81.028587 -53.514137 125.1046 9603201
80.231277 -53.729073 125.41096 8945527
20.844316 -53.706882 128.81186 9735046
19.999798 -53.599319 128.48849 8946299
19.224085 -53.555607 128.16977 8682867
83.579079 -52.140106 124.40031 8814457
82.82756 -52.431465 124.65347 9143165
81.890648 -52.43758 125.1125 9340541
81.090256 -52.651878 125.42067 9866630
19.839334 -52.736145 128.75891 9275265
18.944246 -52.612179 128.4196 8354676
18.288162 -52.321873 128.24892 8682867
84.451942 -51.064545 124.40263 9734788
83.959877 -51.413921 124.50459 9471616
83.04364 -51.55891 124.89763 9077372
82.276657 -51.58799 125.26373 9208955
19.651869 -52.105705 128.92508 9012350
18.957209 -51.687309 128.78783 8749435
18.032825 -51.575565 128.4308 9933193
17.339439 -51.335915 128.22398 9341059
84.832611 -50.486717 124.44727 9932679
83.852745 -50.559254 124.90076 9077372
83.08416 -50.70631 125.22026 8814457
18.704569 -50.953346 128.96605 9932681
17.975901 -50.600643 128.78828 10656913
17.086843 -50.607552 128.40004 12499631
16.400614 -50.200161 128.2621 9341059
85.761871 -49.487179 124.39101 9998726
84.970352 -49.59956 124.73579 9735299
84.131111 -49.686111 125.1145 9603971
17.758192 -49.810406 129.00366 14605262
17.094181 -49.688137 128.76363 12828338
16.146894 -49.475483 128.43617 8288884
86.859123 -48.445137 124.26888 11512219
85.960136 -48.527061 124.67892 9998469
85.062996 -48.610603 125.08742 9209467
16.912157 -48.907982 128.99054 9538178
16.151316 -48.558712 128.79747 9011835
15.298945 -48.544441 128.43343 9143421
87.748352 -47.367214 124.26364 9143930
86.896362 -47.404472 124.66847 10459020
86.108871 -47.539288 125.0023 9735554
15.967645 -47.781822 129.02238 9011835
15.092635 -47.57703 128.72321 9997700
14.216205 -47.506325 128.37082 9668993
89.513023 -46.103046 123.9994 7563619
88.788933 -46.284977 124.25166 6708567
88.029587 -46.437084 124.52999 8748917
87.09639 -46.563923 124.90746 10656912
14.815876 -46.735264 128.93317 10721168
13.927569 -46.58633 128.60629 9800320
13.282672 -46.321247 128.4305 9471612
90.831161 -45.219242 124.08764 8092011
89.870941 -45.389751 124.41715 10920083
89.048393 -45.510288 124.7213 7763054
87.947136 -45.862415 124.97054 9736072
14.723834 -45.978497 129.18991 9866113
13.929576 -45.690029 129.00476 10129286
12.994655 -45.573959 128.68459 9405818
12.251365 -45.312355 128.54929 9011578
94.954498 -44.108513 123.84457 9537145
93.882607 -44.130573 124.29428 9801346
92.842781 -44.337952 124.15397 9736067
91.876358 -44.564823 124.20547 8551794
90.851654 -44.617527 124.58766 10591374
90.113129 -44.756096 124.83217 15721430
12.967965 -44.876911 129.21709 9471868
12.009356 -44.72509 128.94643 9208698
11.161515 -44.497993 128.84032 9077884
10.25287 -44.250275 128.81029 9670531
97.766891 -43.735752 123.77348 11380380
96.873566 -43.787083 124.06821 9669766
96.030937 -43.910725 124.00954 10458247
95.220963 -43.882275 124.50373 10984591
9.741087 -44.111347 129.0694 12038823
8.9028168 -43.979523 129.15797 10065289
8.0247002 -43.908184 129.1039 11051415
7.175209 -43.861568 129.27592 8682867
6.1720428 -43.839363 129.52158 9603969
5.0796356 -43.840931 129.56718 10261388
3.9868586 -43.842522 129.60399 10196106
3.0500133 -43.843903 129.62807 9735812
2.1129749 -43.845306 129.64532 11775139
1.1758602 -43.846733 129.65591 10591121
0.082460165 -43.848415 129.65938 9144445
-1.0108845 -43.850128 129.65411 9012603
-1.9479887 -43.851616 129.64211 8287600
-2.8849776 -43.853127 129.62331 8748921
-3.821852 -43.854652 129.5977 9341057
-4.9517794 -43.834297 129.70618 8946296
-5.9160872 -43.62833 129.99844 8879989
-6.9220676 -43.541847 129.89038 8945527
-7.9014015 -43.445732 129.76782 8353135
-8.6254816 -43.360493 129.6384 8089963
-6.1264572 -42.972137 130.33737 10261897
-6.9879503 -42.691872 130.2491 9866373
-7.920805 -42.649338 130.05736 9274236
-8.8517189 -42.608952 129.86545 9471614
-9.6808128 -42.468731 129.73297 8682867
-7.3136415 -42.039795 130.41788 9932166
-7.9821215 -41.731518 130.38286 9932166
-8.8774738 -41.653683 130.21225 11905953
-9.9208269 -41.640663 129.98521 8419696
-10.875861 -41.439419 129.84729 6511954
-11.677854 -41.22921 129.74669 6117714
-8.960474 -40.886692 130.47754 10459024
-9.8372602 -40.661083 130.36549 7893615
-10.924572 -40.620716 130.13858 7696230
-11.972461 -40.544498 129.93387 6117714
-12.79549 -40.239853 129.86345 7893355
-10.011966 -40.018349 130.56459 8090995
-10.901652 -39.738495 130.46971 8814201
-11.931743 -39.603699 130.29012 7959148
-12.974536 -39.599335 130.06 8879736
-13.849697 -39.382862 129.94543 9735046
-11.132616 -39.023647 130.68309 9208443
-11.995796 -38.796135 130.5746 8682357
-12.950026 -38.615261 130.42882 9340287
-13.94274 -38.618145 130.20695 8814459
-14.832762 -38.503384 130.05159 9406082
-15.506824 -38.259529 129.99181 8617080
-13.147526 -37.793468 130.68915 9077116
-13.981787 -37.663784 130.5509 8222579
-14.914463 -37.639145 130.35234 8485494
-15.808904 -37.577587 130.17633 7761508
-16.579569 -37.388115 130.07503 9800832
-14.220108 -36.915432 130.77507 7564651
-14.956033 -36.68449 130.6963 7038303
-15.889768 -36.662136 130.49632 6511954
-16.882807 -36.67223 130.27182 7103834
-17.701351 -36.433475 130.17807 8485231
-15.295765 -36.039989 130.85939 6511954
-15.971063 -35.745949 130.81757 8945780
-16.868742 -35.686913 130.63901 6906712
-17.91403 -35.695541 130.40309 8222317
-18.875734 -35.513641 130.25655 9800580
-17.014332 -34.83532 130.92213 8748402
-17.851492 -34.7132 130.78041 8485233
-18.898146 -34.724194 130.543 8024681
-19.932035 -34.608948 130.35567 8024681
-20.67256 -34.351582 130.28618 9735812
-18.09807 -33.965649 131.00253 9537664
-18.875004 -33.780079 130.89777 6775127
-19.886229 -33.754108 130.68167 6642516
-20.961233 -33.679405 130.47005 7103323
-21.761732 -33.490021 130.36208 7235676
-19.185312 -33.097775 131.08141 6510930
-19.868193 -32.860104 131.01698 8682099
-20.878353 -32.785004 130.81923 9274236
-21.95529 -32.712376 130.60611 8024682
-22.902002 -32.544437 130.45761 5920074
-20.921366 -31.904322 131.13614 10656145
-21.874615 -31.816668 130.95567 8879221
-22.953613 -31.74604 130.74106 8748148
-23.91362 -31.679987 130.5519 6380368
-24.602058 -31.451555 130.50027 8090986
-22.017851 -31.040451 131.2115 7563619
-22.918652 -30.887283 131.08617 13879229
-23.959265 -30.693485 130.97926 10919314
-24.945601 -30.638002 130.84534 10327692
-25.926788 -30.493816 130.79074 10525071
-26.879692 -30.365866 130.75546 10656658
-27.919615 -30.263475 130.69313 8814454
-24.932306 -29.923475 131.36037 11379609
-25.905291 -29.836456 131.29524 8946296
-26.96559 -29.728924 131.2448 8090987
-27.913622 -29.671164 131.17366 9735812
-28.921968 -29.657049 131.04137 11576731
-29.992489 -29.503603 131.07619 10985109
-30.871084 -29.31476 131.27069 9537664
-31.910383 -29.223747 131.41406 8813683
-33.035431 -29.241583 131.20958 9602942
-33.839268 -29.25511 131.06102 13024949
-33.199348 -29.031464 131.85655 8813683
-33.845642 -29.042244 131.73738 11183004
-34.815228 -29.059141 131.5563 9341059
-35.919525 -29.032167 131.55069 11644323
-36.812943 -28.976603 131.6319 11906981
-37.915604 -28.904345 131.65019 10459023
-38.889446 -28.923334 131.4494 9077884
-39.540283 -28.937559 131.31883 8814713
-41.905975 -28.906139 132.21394 10853520
-42.860806 -28.90851 131.90675 8879989
-43.654945 -28.910498 131.64566 7828327
-46.290531 -28.911831 132.59839 9208443
-46.929138 -28.913471 132.37294 8090987
-47.884995 -28.915949 132.0295 10065033
-48.52087 -28.91761 131.79695 10065033
-50.907021 -28.91836 132.81694 9735556
-51.865959 -28.920927 132.44438 8288116
-52.663155 -28.923075 132.12941 7564651
-55.274982 -28.924458 133.05168 9208443
-55.915619 -28.926229 132.78299 9406078
-56.714737 -28.928452 132.44336 10458507
-59.231731 -28.929583 133.4025 10261132
-59.873707 -28.931408 133.11479 9011065
-60.834564 -28.934166 132.67789 9011065
-63.900726 -28.936905 133.37547 8747893
-64.863258 -28.939747 132.90944 9405823
-66.979828 -28.78863 133.74901 13353659
-67.933708 -28.78898 133.59647 9011063
-68.80545 -28.56304 133.4529 7761253
-69.760132 -28.421236 133.18765 8419952
-67.931931 -28.212645 133.82875 9932166
-68.993073 -27.753031 133.75208 6905688
-69.945816 -27.737431 133.38152 8156780
-70.653282 -27.571888 133.1647 7893352
-69.797707 -26.872877 133.77911 8288366
-70.779327 -26.848532 133.39781 9341566
-71.489281 -26.68269 133.18007 9734788
-70.257919 -25.928453 133.96571 7630180
-70.918327 -25.805714 133.75087 8683126
-71.826897 -25.734364 133.41711 9274494
-72.564392 -25.431726 133.242 9734788
-71.095261 -25.034801 133.98245 9011579
-71.840714 -24.685085 133.82257 9208957
-72.830215 -24.660929 133.43802 8354419
-73.613884 -24.358343 133.24458 8682867
-72.139755 -23.959703 133.98755 8617335
-72.89463 -23.713879 133.78331 9670020
-73.76432 -23.52313 133.51178 9538176
-74.498154 -23.277105 133.31592 9932934
-73.019058 -22.877228 134.06143 10525071
-73.910294 -22.712276 133.77122 10130313
-74.770119 -22.731144 133.42152 12433069
-73.924583 -21.86507 134.09735 8682867
-74.764946 -21.808958 133.78473 11446173
-75.60672 -21.753414 133.47137 9143418
-75.00106 -20.82793 134.07498 8880246
-75.888641 -20.723087 133.76265 11709346
-76.748932 -20.463419 133.52182 11906726
-75.889984 -19.832296 134.11101 9669762
-76.903885 -19.630058 133.78654 8881020
-77.762489 -19.399994 133.53476 7565675
-76.103004 -19.241461 134.25754 9932934
-76.790672 -18.733301 134.18279 8683898
-77.774162 -18.716017 133.798 8025969
-78.507973 -18.544472 133.57307 10459537
-77.21492 -17.957056 134.3183 9736071
-77.89682 -17.830065 134.09717 10459537
-78.834 -17.755354 133.754 9867398
-79.422928 -17.439182 133.64429 10656657
-78.090157 -17.037123 134.33235 10459537
-78.863312 -16.675987 134.16704 9472639
-79.883858 -16.648989 133.77196 10261899
-79.00592 -15.925428 134.40567 9209467
-79.773323 -15.755593 134.22446 9406846
-80.773201 -15.737503 133.84117 10196364
-80.815987 -15.076522 134.34729 10065035
-81.777725 -14.87295 134.1331 9078398
-82.718529 -14.613564 133.97305 9735558
-83.760429 -14.215482 134.56755 8748920
56.825356 -59.095921 126.96268 11379356
56.063004 -59.099751 127.3084 10392718
55.100857 -59.195755 127.19075 12103074
54.062786 -59.169449 127.30548 8089963
53.081772 -59.103603 127.54672 7893101
51.889755 -59.202175 127.26183 7038307
50.913872 -59.139183 127.49355 8090733
50.101051 -59.087719 127.68326 7037274
48.928024 -59.189644 127.38785 9340286
48.119484 -59.140427 127.57027 10065038
47.311165 -59.092003 127.74978 14076870
45.673096 -59.169128 127.54829 8814201
45.029812 -59.132565 127.68483 8814201
44.386765 -59.096539 127.81983 10590351
41.80949 -59.127918 127.79282 10262156
41.329849 -59.102989 127.88717 11381404
75.652603 -58.124977 125.90077 9208443
74.986504 -58.289276 126.16333 10327180
74.024582 -58.454952 126.47708 10261387
73.184341 -58.638847 126.80775 9735299
71.964828 -58.74691 126.20628 9143675
71.050758 -58.746838 126.72073 9538433
69.791412 -58.750172 126.24593 8092011
69.029747 -58.750149 126.66187 8092011
68.112938 -58.750141 127.1558 8617843
67.026321 -58.753483 126.58381 8814711
65.956924 -58.753525 127.14233 8485747
64.888023 -58.756855 126.56493 8353646
63.971832 -58.756935 127.02861 7958632
63.008907 -58.758106 127.13928 7695461
62.004284 -58.760372 126.89635 8813429
61.085709 -58.760513 127.3392 10984598
60.091614 -58.762779 127.08897 9274749
59.136814 -58.764015 127.17467 9274749
58.086002 -58.83609 127.30986 9275008
57.042511 -58.914433 127.45023 9669254
56.280087 -58.920883 127.80354 10064011
54.777195 -59.039192 127.70737 9076856
53.955856 -58.983627 127.91079 8089963
53.298935 -58.939777 128.07156 10261391
52.101227 -59.039207 127.78345 7564394
51.121273 -58.976151 128.01564 8090733
50.074478 -58.968895 128.06909 6839895
48.963795 -59.017345 127.94355 7959146
47.989494 -58.958481 128.16202 10394001
46.968376 -58.94162 128.24602 12498609
46.180096 -59.025978 127.99583 7367528
45.21109 -58.970787 128.202 8814201
44.10733 -58.978119 128.21011 11313816
43.187836 -58.945419 128.34233 8221548
42.137493 -58.975273 128.27621 8813685
41.029957 -58.965473 128.22429 10130825
40.070629 -58.868999 128.19574 7762021
39.098351 -58.802406 128.33229 8156782
38.035412 -58.793922 128.15364 8090992
37.108429 -58.794579 128.42339 7367271
36.179531 -58.795258 128.68646 8815475
35.015961 -58.796673 128.82076 9538685
34.08857 -58.799538 128.32973 10524813
33.160431 -58.800282 128.57094 9538176
32.075367 -58.801174 128.84373 9406591
30.988163 -58.802101 129.10774 9143678
30.004913 -58.803616 129.11169 8880506
29.082067 -58.8064 128.64265 9340288
27.996672 -58.807396 128.8815 9340545
27.004452 -58.749191 129.18033 8090737
26.168074 -58.513268 129.22127 8353391
25.246923 -58.372185 128.88077 8748149
76.808731 -57.054981 125.76064 11906725
76.094383 -57.462303 125.94894 9932422
75.121498 -57.555477 126.39113 9077369
74.371902 -57.59565 126.74461 8682867
25.967749 -57.774693 129.42828 9011833
25.101397 -57.577007 129.13098 9275261
24.32831 -57.446255 128.84767 9143163
76.912376 -56.504627 125.93069 9603717
75.925163 -56.657486 126.35562 9537667
75.149971 -56.708172 126.7172 8682099
25.096373 -56.627323 129.50288 9735812
24.159004 -56.638863 129.09241 9734531
23.485327 -56.325569 128.9241 10261132
77.958214 -55.493885 125.82154 8879992
77.085114 -55.587368 126.21415 7564651
76.213196 -55.68269 126.60545 8353909
24.188761 -55.697933 129.47588 9010808
23.234333 -55.55925 129.11723 8945015
22.521395 -55.296799 128.91191 8681843
78.809296 -54.485832 125.8073 9274492
77.931389 -54.507851 126.23096 9011322
77.15081 -54.555927 126.59624 8288116
23.940287 -54.944305 129.66515 9208187
23.221943 -54.626804 129.47916 9208187
22.273054 -54.549259 129.09877 8288115
21.570738 -54.116711 128.96501 9735046
79.981918 -53.34927 125.68642 9142903
79.102356 -53.440121 126.08314 9340282
78.224106 -53.532761 126.47855 9800834
22.809618 -53.720909 129.65746 8748408
22.021521 -53.590538 129.36749 8814458
21.155783 -53.488693 129.03265 9735046
80.873802 -52.322258 125.65972 9208955
79.922043 -52.545284 126.03889 9734784
79.118065 -52.516403 126.44655 9997955
21.901855 -52.66325 129.68095 8617080
21.018797 -52.637077 129.30881 10195340
20.205885 -52.323326 129.07999 9603973
81.870003 -51.447643 125.52041 8814453
81.042542 -51.556202 125.88443 9011832
80.131584 -51.674122 126.28574 9866371
79.38472 -51.971134 126.53435 10853012
20.947542 -51.712605 129.64108 9801095
20.028776 -51.532234 129.31334 8486263
19.355516 -51.40123 129.07269 9012350
82.679581 -50.522259 125.49349 8354163
81.932114 -50.584904 125.83654 9208955
80.992348 -50.595139 126.2953 10129545
20.746836 -51.023197 129.82431 9735812
20.044508 -50.603916 129.68408 8749177
19.139677 -50.606281 129.29077 10590352
18.407408 -50.252888 129.11169 10656913
83.717201 -49.296543 125.47491 10985879
83.01709 -49.515259 125.73186 9538434
82.129707 -49.585938 126.14058 9341315
81.428757 -49.824074 126.39015 9341315
19.790773 -49.867466 129.86273 9143675
19.076338 -49.693192 129.62125 10459278
18.153769 -49.522129 129.28819 9143418
84.811356 -48.227192 125.36535 9275261
83.999352 -48.440838 125.6796 9143675
83.052422 -48.448864 126.1429 8683382
82.296143 -48.744301 126.39677 9341315
18.935514 -48.954521 129.84975 9340285
18.163771 -48.599144 129.65436 9077369
17.297058 -48.580585 129.28578 8682868
85.734901 -47.211788 125.31805 9209467
85.003639 -47.552895 125.54137 9275260
84.112457 -47.552849 125.98051 8551538
83.4944 -47.676716 126.23521 8090987
17.96105 -47.678432 129.92735 10129545
17.204126 -47.625057 129.62007 9406077
16.314363 -47.523106 129.27417 9274749
86.748085 -46.324322 125.17715 10261641
85.990379 -46.558296 125.46021 9077881
85.032074 -46.624947 125.90968 9406848
84.212624 -46.837513 126.21845 10130570
17.110132 -46.670036 129.95369 9669506
16.181536 -46.616386 129.57201 10194821
15.41825 -46.518829 129.27924 10457479
88.702721 -45.152119 125.19042 9472900
87.922379 -45.404842 125.36333 9933450
86.926254 -45.649174 125.6505 9406334
86.032768 -45.818756 125.94952 8814453
16.061697 -45.744133 129.89655 10589836
15.021523 -45.489292 129.61525 9076595
14.333974 -45.280888 129.47546 10458253
93.017792 -44.043388 125.01595 9867653
92.00602 -44.128227 125.2214 9012600
90.997406 -44.214046 125.42212 13156274
90.00161 -44.436401 125.31271 13353398
89.058128 -44.550076 125.58669 9209985
88.006332 -44.803005 125.82704 9275777
87.324844 -44.980812 126.01117 10458510
14.954412 -44.875866 130.0761 8944751
13.98266 -44.719254 129.80386 9602940
13.143245 -44.404934 129.79874 8814195
12.310261 -44.229294 129.75304 10260871
98.962738 -43.709419 124.6729 9406851
98.210114 -43.708874 125.26501 7038307
96.521309 -43.713291 124.64468 14076861
95.919266 -43.712891 125.10675 11379608
95.025124 -43.789055 125.18267 9800319
94.085999 -43.844025 125.19067 9604481
93.436966 -43.822865 125.581 10657425
91.724625 -44.002731 125.78826 8092011
11.856702 -44.109547 129.97118 9537662
11.149388 -44.010906 130.00316 8682612
10.126516 -43.90276 130.02556 11709349
9.1151304 -43.851627 130.21112 12762037
8.1083984 -43.833565 130.48755 12498605
7.1650362 -43.834873 130.54138 9603969
6.2212791 -43.836201 130.58836 8288112
5.1198959 -43.83778 130.63434 8419702
4.0181398 -43.839378 130.67145 8156530
3.0735595 -43.840778 130.69576 9603203
2.1288197 -43.842194 130.71318 10591121
1.1839597 -43.843628 130.7238 10591121
0.23907733 -43.845085 130.72758 9210238
-0.86327004 -43.846802 130.72316 8288627
-1.9655364 -43.848553 130.70987 7762797
-3.0210431 -43.682903 130.90753 9144449
-3.8590014 -43.533291 130.78833 10196364
-4.690155 -43.514198 130.51547 10459020
-3.9751923 -42.677189 131.0907 10196363
-4.836525 -42.609161 130.81039 10524813
-5.7822723 -42.630512 130.54092 12169636
-4.1942825 -41.911396 131.29926 9932934
-4.8637953 -41.574577 131.19305 9932934
-5.7859516 -41.71312 130.88028 13288116
-6.8540592 -41.67868 130.65443 11380125
-7.6401768 -41.388313 130.5865 8681843
-5.913188 -40.692467 131.23027 10853525
-6.8303242 -40.6959 131.02412 9734787
-7.9675388 -40.737061 130.75479 8945015
-8.8318987 -40.46228 130.6636 8946302
-6.9448147 -39.877892 131.30183 8484720
-7.8251009 -39.664265 131.1844 8222062
-8.9292431 -39.741875 130.90898 9669766
-9.8238382 -39.616348 130.75569 8288374
-10.498947 -39.364117 130.69838 8090995
-8.2011776 -38.878326 131.3918 8682614
-8.9552059 -38.784828 131.25801 9867145
-9.8940811 -38.749439 131.06145 8880252
-10.79346 -38.677475 130.88719 11511195
-11.566158 -38.478848 130.78822 10655887
-9.1846943 -38.031895 131.48595 9867145
-9.9225349 -37.792252 131.40996 9800838
-10.86206 -37.759544 131.21223 14011582
-11.799889 -37.728691 131.01416 11379609
-12.636127 -37.59663 130.87637 9866373
-10.255542 -37.142597 131.57643 9208443
-10.930989 -36.840706 131.53748 10524301
-11.833311 -36.77198 131.36142 9932165
-12.771911 -36.743649 131.16225 9603460
-13.746529 -36.645409 130.98096 8419700
-11.92289 -36.003891 131.62619 9405823
-12.807871 -35.786514 131.50911 9997960
-13.808608 -35.790901 131.28397 7959150
-14.844294 -35.668941 131.09782 7498852
-15.636442 -35.395439 131.02222 8485229
-13.045282 -35.035397 131.73459 8748665
-13.823487 -34.841831 131.63251 8814201
-14.838861 -34.805737 131.41907 9011832
-15.91693 -34.720161 131.21001 10064262
-16.717524 -34.522747 131.1044 10129542
-14.12573 -34.155792 131.81932 9735555
-14.808276 -33.911255 131.75755 9735555
-15.831562 -33.748024 131.58951 9603969
-16.962112 -33.774002 131.32735 11116437
-17.801977 -33.652096 131.18489 11379356
-18.542692 -33.426811 131.10292 5920074
-15.952161 -33.049339 131.82161 9340797
-16.856337 -32.727001 131.73917 9931907
-17.870235 -32.68372 131.5287 9734529
-18.852839 -32.743896 131.2869 8353390
-19.690168 -32.452232 131.20801 10853524
-17.972687 -31.743357 131.85448 9142392
-18.903816 -31.627758 131.68936 10326151
-19.860891 -31.694748 131.45073 9405822
-20.626844 -31.588249 131.31911 8682099
-19.066126 -30.738413 132.00395 10062723
-20.027605 -30.648216 131.86331 8484720
-20.898962 -30.692167 131.65738 9340028
-21.784056 -30.564354 131.53642 7826791
-22.749094 -30.297859 131.50749 13352885
-23.467733 -30.219946 131.41362 13550517
-21.13994 -29.938599 132.1339 10458250
-21.948904 -29.783756 132.0806 8024169
-22.955328 -29.670467 131.97878 8353392
-23.871103 -29.631243 131.8262 10130058
-24.791395 -29.548866 131.7253 9208958
-25.742464 -29.426601 131.71637 7959405
-26.637497 -29.366119 131.65369 8090987
-29.018187 -29.183535 131.92197 10984852
-29.66081 -29.191753 131.81143 10984852
-25.965815 -29.150045 132.42946 9735812
-26.929739 -29.159634 132.27228 10064521
-27.893635 -29.17016 132.11227 11972519
-28.884562 -29.023024 132.45007 7498857
-29.96937 -28.98385 132.43227 7695979
-30.9382 -28.997078 132.26295 8024427
-31.90716 -29.011208 132.09068 8813683
-32.714745 -29.023653 131.94498 8813683
-33.769524 -28.891922 132.76382 8748923
-34.728561 -28.894131 132.5154 7564651
-35.685844 -28.896353 132.25996 13025205
-38.868149 -28.898741 133.14128 8814713
-39.829674 -28.901058 132.85558 7893614
-40.948898 -28.903782 132.51424 8090221
-43.886299 -28.905733 133.41508 10262924
-44.849728 -28.908161 133.09317 8092011
-45.81102 -28.910601 132.76514 8092011
-48.820259 -28.912857 133.59938 12630448
-49.784916 -28.915388 133.24228 12630448
-50.426842 -28.917082 133.0006 9735556
-53.022556 -28.918314 133.96664 9340289
-53.828598 -28.920498 133.64375 9537665
-54.793617 -28.923136 133.25079 9208443
-57.781055 -28.925495 134.03738 9800579
-58.748844 -28.928213 133.61591 11050644
-61.820129 -28.811604 134.39609 9405814
-62.861317 -28.616665 134.23615 10720651
-63.850632 -28.551416 134.26277 10721167
-64.750191 -28.530985 134.14735 8879479
-65.783676 -28.62715 133.97118 9405823
-66.745964 -28.503695 133.8847 9932166
-63.746666 -27.827351 134.54071 10129287
-64.819664 -27.670988 134.45111 8287598
-65.820694 -27.779034 134.27505 7892584
-66.73732 -27.734863 134.16597 8221548
-67.771698 -27.736887 134.02397 9405822
-68.623215 -27.527767 133.98386 6510930
-64.93924 -26.956591 134.69499 8617075
-65.8498 -26.765345 134.64035 7169116
-66.813828 -26.743292 134.51677 6905688
-67.736313 -26.697775 134.40736 8945271
-68.735893 -26.801729 134.19904 7432288
-69.486458 -26.45817 134.06543 6510930
-66.992371 -25.982059 134.7697 9932166
-67.844475 -25.76845 134.73114 9208699
-68.871101 -25.761089 134.55655 6708309
-69.716118 -25.683622 134.27737 6510930
-70.351807 -25.384188 134.14154 6510930
-68.954231 -24.869013 134.88037 7037786
-69.796547 -24.64411 134.65245 7498337
-70.78331 -24.617647 134.26996 6511954
-70.055305 -23.796749 134.88129 7959144
-70.805115 -23.749973 134.60112 6709333
-71.675095 -23.675501 134.28389 10459278
-70.885086 -22.957655 134.87955 9143418
-71.819077 -22.853123 134.54865 9867141
-72.606445 -22.776896 134.265 9932166
-71.261093 -22.107924 135.06261 10854036
-71.861305 -21.824583 134.93465 9669762
-72.69886 -21.766827 134.62378 9669250
-73.489304 -21.690176 134.33911 9208699
-72.875237 -20.768652 134.9445 9866629
-73.813843 -20.680838 134.60524 9801093
-74.549133 -20.448463 134.4035 8946811
-73.811005 -19.791826 134.95451 11116952
-74.787033 -19.773241 134.57323 8223605
-75.514069 -19.601776 134.35089 8682867
-74.100441 -19.079359 135.11832 9144448
-74.845688 -18.898098 134.89262 8092019
-75.668892 -18.753977 134.62134 9538692
-76.413635 -18.501959 134.42343 9012606
-74.995338 -17.977995 135.19341 8815484
-75.85331 -17.744349 134.94356 9735555
-76.725685 -17.760527 134.59021 8485745
-77.319443 -17.397449 134.49693 10459537
-76.02417 -16.81168 135.24236 9537918
-76.758438 -16.636953 135.01917 9801090
-77.774841 -16.608391 134.62633 10195849
-77.072441 -15.890913 135.1879 9537918
-77.838669 -15.720972 135.01378 9800835
-78.748856 -15.644976 134.70895 9406846
-78.218857 -15.178236 135.29291 10129545
-78.961098 -14.946177 135.19272 9209211
-79.835037 -14.792364 134.9705 9604228
-80.694618 -14.607729 134.77975 10525329
-81.82325 -14.185179 135.42497 9209984
-82.879395 -14.201467 134.95833 10262416
72.96756 -58.290737 127.13822 8946039
72.126114 -58.495922 127.45872 9209468
71.186539 -58.599514 127.90299 9077369
69.980103 -58.746788 127.31313 10129545
69.058365 -58.746769 127.81361 9406078
68.047607 -58.748459 127.77198 9208955
67.038536 -58.750164 127.72311 8946296
66.113884 -58.75021 128.20224 7301220
65.03653 -58.753586 127.6137 8419183
64.112724 -58.753677 128.07845 8879990
63.120163 -58.755413 128.01079 8222061
62.129505 -58.757164 127.93603 8683125
61.203461 -58.757313 128.37981 8683125
60.010185 -58.760708 127.84765 9537921
59.23922 -58.760876 128.20491 9537921
58.133759 -58.761906 128.4395 8814203
56.984367 -58.76453 128.14926 8353909
55.998241 -58.804878 128.42043 8748664
55.213192 -58.837513 128.47188 9932165
54.177311 -58.818886 128.43843 11313045
53.044849 -58.825489 128.50687 10261391
52.162041 -58.820126 128.64374 8288116
51.002533 -58.792126 128.61891 8617075
49.99522 -58.803322 128.78384 6510930
49.208866 -58.821892 128.77464 6906715
48.18465 -58.795635 128.68604 10394001
47.238235 -58.777225 128.9872 11972775
46.173695 -58.811314 128.95447 8682613
45.071785 -58.79324 128.79761 9998215
44.130867 -58.781754 129.09142 12432042
43.054985 -58.794247 129.2365 7037274
42.158207 -58.792267 129.18202 8484976
41.044357 -58.786419 129.1322 8880502
40.110233 -58.787025 129.42368 7959144
39.174053 -58.787655 129.70836 7367010
38.217903 -58.79052 129.23062 7433064
37.045895 -58.791908 129.37965 8288625
36.110092 -58.792599 129.64224 6512978
35.172398 -58.793316 129.89803 8815475
34.158787 -58.795723 129.60696 9538687
33.069904 -58.797688 129.51471 9209211
32.133236 -58.798462 129.74864 9209211
31.194902 -58.799263 129.97571 9867399
30.254923 -58.800083 130.19601 8090992
29.211452 -58.792522 129.9521 8090992
28.244669 -58.541828 130.03293 8222577
27.261671 -58.474125 129.7131 8683128
73.97216 -57.462254 126.99521 8682867
73.137161 -57.476868 127.40106 9209468
72.178192 -57.727127 127.77345 9341054
71.545166 -58.020763 127.96774 9735812
28.094847 -57.75333 130.35783 8419955
27.302565 -57.614826 130.06932 9340797
26.425222 -57.413738 129.76855 9471872
74.7519 -56.531235 126.98445 8682099
74.021378 -56.604229 127.31516 9800580
73.101616 -56.628254 127.75903 9209213
27.131083 -56.707771 130.35234 9735043
26.284704 -56.561302 130.0435 9734787
25.470095 -56.379395 129.76245 10064521
75.96286 -55.306427 126.87995 8814203
75.117928 -55.491413 127.22192 9537152
74.201515 -55.609482 127.62594 10326668
73.518631 -55.855896 127.86337 8814203
26.700773 -55.877934 130.49283 9011576
26.066389 -55.626907 130.31705 9011576
25.253834 -55.600452 129.97556 9142906
24.606022 -55.417583 129.76701 9011321
76.750565 -54.377449 126.86513 9143167
76.015038 -54.447857 127.19921 9208703
75.089203 -54.468525 127.64706 9537152
25.828939 -54.911346 130.49606 8354159
25.03163 -54.518742 130.30544 8156012
24.166407 -54.616787 129.89212 9603458
78.015007 -53.21806 126.70805 11050641
77.144836 -53.559601 126.99951 11182232
76.184753 -53.531288 127.48392 9406080
75.511284 -53.697033 127.74914 8681843
24.859821 -53.711388 130.54904 9011321
24.040457 -53.649261 130.21869 10590609
23.216162 -53.411934 129.95522 8880247
78.635925 -52.499897 126.69063 9734782
77.927338 -52.615322 126.99342 10392714
76.995964 -52.632957 127.44519 9997959
76.286575 -52.981197 127.65482 9734788
23.991114 -52.761639 130.54698 10656402
23.068787 -52.572746 130.22194 9012601
22.26642 -52.410309 129.93845 8289390
79.848595 -51.247738 126.59647 10261129
79.101669 -51.545612 126.84469 9800575
78.166931 -51.561485 127.29881 9734786
77.370148 -51.783237 127.60223 9734788
23.012899 -51.742252 130.52478 9407103
22.091112 -51.613064 130.17598 8486513
21.417431 -51.316902 129.99998 9538689
80.70887 -50.168064 126.60651 10261132
79.990509 -50.512863 126.82183 9406073
79.021049 -50.480457 127.31239 9603713
78.305702 -50.827236 127.52545 10590095
22.825226 -51.104057 130.69392 9538689
22.112757 -50.678185 130.55191 8223597
21.160978 -50.561409 130.18495 9143675
20.448687 -50.316322 129.97211 8617331
81.735725 -49.094139 126.53224 9933195
81.023186 -49.392471 126.76337 10459026
80.153946 -49.454716 127.16649 9077884
79.400299 -49.630104 127.4672 9012091
21.858969 -49.935135 130.73312 8617331
21.140839 -49.635422 130.53918 8617331
20.194998 -49.579113 130.15109 8551538
19.491718 -49.164608 130.00861 9142651
81.949234 -48.508774 126.66229 9538694
81.031059 -48.512917 127.11291 9275010
80.380852 -48.49065 127.44214 7893615
20.883257 -48.936436 130.70154 8617331
20.210802 -48.6497 130.52226 8814710
19.288996 -48.480907 130.18871 8945272
83.568192 -47.307877 126.34702 9341054
82.919998 -47.530682 126.57694 8881020
82.079597 -47.623325 126.95378 9341315
81.232338 -47.815792 127.29385 8946558
20.150766 -47.773979 130.83957 9406335
19.212122 -47.56218 130.51552 9537409
18.42317 -47.615505 130.15248 9997960
83.969055 -46.460873 126.51173 9604227
83.069397 -46.550056 126.91658 9275263
82.206306 -46.700035 127.26216 9538179
19.1873 -46.631474 130.86961 9142651
18.271849 -46.687077 130.45079 9734787
17.497934 -46.339256 130.25154 9603713
85.928909 -45.382622 126.36313 10129801
85.070335 -45.578091 126.6235 9801350
84.09594 -45.640797 127.05124 8617849
83.297119 -45.856331 127.2655 8092019
18.201227 -45.759487 130.81891 8682099
17.156023 -45.556862 130.49184 9603714
16.337591 -45.288094 130.33549 9932678
89.869339 -44.18084 126.08825 9012606
89.062851 -44.15815 126.56069 7565675
88.127243 -44.305969 126.51944 8025968
87.035774 -44.603157 126.56844 9866629
86.081444 -44.7621 126.8071 10721682
85.187614 -44.900139 127.12927 9472899
16.973177 -44.882523 130.94269 9208699
15.987554 -44.720631 130.66745 9800578
15.140001 -44.400646 130.66341 8879475
14.298568 -44.221523 130.62154 8747888
99.926819 -43.704399 125.89124 10590867
99.319252 -43.703953 126.37001 8814715
97.756729 -43.708557 125.61823 7038307
97.15004 -43.708141 126.08619 12037537
96.541489 -43.707741 126.55162 8089963
94.860939 -43.712208 125.90887 10327691
94.100693 -43.711746 126.476 9209467
92.949799 -43.807381 125.87246 10262667
92.137451 -43.78231 126.356 9143166
91.179771 -43.928223 126.314 7828585
90.105614 -43.955204 126.74361 8223345
13.844411 -44.09993 130.84593 8090216
13.131219 -43.998631 130.88249 8090987
12.260423 -43.897362 130.929 10721166
11.264103 -43.852345 131.05916 8616820
10.07506 -43.827751 131.44043 8485752
9.124754 -43.829033 131.50838 8485752
8.173995 -43.83033 131.56955 9341054
7.222806 -43.83165 131.62373 8683124
6.2712593 -43.832985 131.67108 8880247
5.3194237 -43.834347 131.71159 9340545
4.2085705 -43.835964 131.74991 8419702
3.0974457 -43.837605 131.77936 7038307
2.1449006 -43.839027 131.79692 7564650
1.1922643 -43.840477 131.80759 9077116
0.23953891 -43.841942 131.81145 8749432
-0.79316926 -43.770699 131.86133 7696493
-1.759989 -43.529121 131.7141 9472900
-2.7149212 -43.458496 131.32771 8618105
-1.9169466 -42.736801 131.96014 10394002
-2.8693621 -42.665298 131.57523 8947070
-3.6667588 -42.394142 131.33675 9407106
-2.8274148 -41.774673 131.94658 8420727
-3.8468897 -41.59219 131.57655 9604226
-4.5168018 -41.242821 131.43155 9209467
-3.1611845 -40.964146 132.12314 8617845
-3.8985722 -40.67149 131.91922 9275260
-4.8405218 -40.579552 131.57855 9209467
-5.5764103 -40.313313 131.44791 9143418
-4.1470766 -39.769131 132.16916 9209467
-4.855896 -39.621456 131.94119 9143674
-5.7996054 -39.557293 131.67903 8814197
-6.6846247 -39.325214 131.5649 7958888
-4.9747114 -38.759804 132.22737 9077625
-5.8172741 -38.597294 132.03291 7893095
