# .PCD v0.7 - Point Cloud Data file format
VERSION 0.7
FIELDS x y z rgb
SIZE 4 4 4 4
TYPE F F F U
COUNT 1 1 1 1
WIDTH 1209
HEIGHT 1
VIEWPOINT 0 0 0 1 0 0 0
POINTS 1209
DATA ascii
130.38855 -66.990494 -27.097004 8551538
130.74297 -66.870193 -26.190729 9340797
131.07811 -66.841972 -25.237476 9537919
131.31178 -67.168983 -24.182047 9669760
142.17119 -67.046776 48.314747 8682867
141.98357 -66.828819 49.09623 10130057
141.74652 -66.591042 50.042213 10722451
129.37679 -65.475807 -31.777901 7038307
129.56181 -65.769569 -30.902966 8748152
129.87729 -65.81266 -29.927132 10853012
130.17238 -65.856102 -29.01074 9931910
130.46683 -65.902557 -28.092857 8813942
130.73297 -65.993057 -27.208586 8945784
130.95985 -66.208382 -26.298943 9537919
142.30295 -66.028214 49.062294 10590608
142.08342 -65.793831 49.953995 10261900
141.83751 -65.652229 50.818985 9932935
128.95462 -64.625175 -33.977356 6511954
129.18102 -64.903023 -32.998714 7630440
129.50386 -64.922386 -32.02803 7038307
129.94868 -64.737633 -30.928534 8616565
130.2455 -64.777626 -30.011036 10524047
130.49242 -64.916962 -29.128178 9602945
130.72011 -65.121231 -28.228754 9866374
142.38321 -64.867065 50.115952 11051416
142.09805 -64.724487 51.093933 10261900
141.95047 -64.38607 51.891495 10459279
128.71051 -63.630219 -35.816044 7893610
128.9239 -63.86837 -34.920406 9998727
129.19672 -63.937496 -34.040588 6972505
129.52856 -63.935322 -33.06765 8156525
129.84776 -64.039192 -32.012325 7367270
130.22217 -63.908596 -31.058926 7695463
130.44113 -64.081551 -30.220238 9931910
142.46884 -63.845749 50.996811 9011833
142.14484 -63.814011 51.963554 9801605
128.26576 -62.463001 -38.43869 9734788
128.44131 -62.611973 -37.754753 7103324
128.65297 -62.834972 -36.881226 6971482
128.95587 -62.856213 -35.966904 6380113
129.25807 -62.880234 -35.051632 9537659
129.55948 -62.907074 -34.135315 7959142
129.86598 -63.008595 -33.119961 8747890
130.14398 -63.235458 -32.047192 8945526
142.66377 -63.109398 51.248608 10459279
142.46872 -62.860748 52.083641 10919827
142.18924 -62.741924 53.018303 9998726
127.95867 -61.410049 -40.527737 7563618
128.15538 -61.589588 -39.747242 7037274
128.40224 -61.773392 -38.814537 9076858
128.70766 -61.788811 -37.899414 8550770
129.01228 -61.806957 -36.983444 5655878
129.31616 -61.827881 -36.066601 6116940
129.57053 -61.94828 -35.183311 7169627
129.80608 -62.132805 -34.282883 7695970
142.81119 -61.970547 52.080681 10788241
142.57748 -61.762203 52.982452 10130312
142.35184 -61.50507 53.914978 12103587
127.49976 -60.449013 -43.596588 7037274
127.72704 -60.509907 -42.788055 7038298
127.96934 -60.624096 -41.810333 8814965
128.1825 -60.791817 -40.834217 8945783
128.52913 -60.770775 -39.862091 6971481
128.83418 -60.782166 -38.943855 6971481
129.03523 -60.947006 -37.995071 8747893
129.30077 -60.994301 -37.132488 5392706
129.50546 -61.139313 -36.286163 6511442
142.86229 -60.848118 53.272808 9669505
142.71315 -60.671154 54.083176 9537920
142.64807 -60.381626 54.895554 9471871
142.4597 -60.306618 55.611816 9011320
127.40522 -59.492252 -46.823311 8682873
127.57235 -59.614651 -45.84798 9669763
127.60348 -59.826115 -44.828163 9340798
127.8872 -59.860481 -43.898254 8551026
128.20898 -59.891373 -42.87915 7827562
128.44019 -60.007938 -41.865189 7301474
128.66983 -60.088131 -41.004814 8090218
128.89813 -60.170242 -40.144115 11378324
143.19402 -59.95451 54.317856 8089963
143.01694 -59.82869 55.119068 9011320
142.90399 -59.661594 56.072037 9340029
142.98436 -59.389778 57.015617 7958377
125.10021 -58.785133 -60.409344 7038307
125.66962 -58.802372 -59.773468 5985102
125.80514 -59.112106 -58.689724 8617079
125.54 -59.111244 -57.565674 7564651
125.94616 -59.10997 -56.660713 7564651
126.34578 -59.1087 -55.752777 8353908
126.40939 -59.107723 -54.821163 9998215
126.20026 -59.106827 -53.719166 10787472
126.64124 -59.105366 -52.657722 9668734
127.01195 -59.104118 -51.744953 7563619
126.72353 -59.103462 -50.807133 7366499
126.75452 -59.10252 -49.883842 7959149
127.13387 -59.161583 -48.771904 7564649
127.36919 -59.301373 -47.850304 8485494
143.56276 -59.191269 57.250317 8813686
143.29817 -59.197861 57.945564 9668738
143.4669 -59.055256 58.821781 9997959
143.27513 -59.015171 59.753548 9142651
143.88876 -58.976925 61.03511 8089963
143.51393 -58.976418 61.897377 8551280
144.28873 -58.974545 63.064659 12498087
143.90137 -58.974052 63.929138 10853520
144.67569 -58.972157 65.116486 14077894
144.35616 -58.971767 65.810074 14406091
145.13112 -58.969849 67.016983 14603214
144.80249 -58.969471 67.712692 13879491
144.47099 -58.969097 68.407043 10260876
145.23663 -58.849705 69.851105 8089962
144.91513 -58.718918 70.62957 8090218
124.84223 -57.708759 -61.271484 9735812
125.23171 -57.95422 -60.719349 7629923
125.73808 -58.037697 -60.129547 5392706
145.49753 -58.012524 70.194382 9735299
145.1707 -57.794094 70.900177 8813941
144.9081 -57.3778 71.638321 11380380
124.95951 -56.77235 -61.654137 7564646
125.5911 -56.999016 -60.851891 8287853
145.53909 -56.868134 70.93737 8616562
145.20053 -56.785103 71.566772 9735299
124.7082 -55.811584 -62.446266 6840925
125.36395 -55.863262 -61.713112 6643803
145.69003 -56.201347 71.156746 6510930
145.52437 -55.789768 71.728249 8879478
124.50078 -54.576229 -63.340401 9209467
124.97147 -54.934036 -62.639961 8683125
125.43813 -55.075989 -62.060974 9801349
145.74957 -54.789898 72.059158 11379868
124.72367 -53.75174 -63.547485 8748665
125.27346 -54.056038 -62.791073 9143422
124.57951 -52.607056 -64.322319 7827566
125.03176 -52.884979 -63.68515 9274753
125.42576 -53.264885 -63.055496 11905701
124.30292 -51.673378 -65.125412 11905954
124.69962 -51.904884 -64.573204 8024944
125.2411 -51.887745 -63.999756 7827566
124.38911 -50.917473 -65.441925 11182232
124.92611 -51.037758 -64.798912 9537925
124.17036 -49.780178 -66.293045 11445404
124.65528 -49.929085 -65.690575 11116438
125.11115 -50.225105 -65.039703 10787730
123.97317 -48.421181 -67.240921 10590603
124.37327 -48.788372 -66.611618 13221554
124.88767 -49.099972 -65.889359 9537919
124.13383 -47.799511 -67.404663 9209465
124.67558 -47.924103 -66.754135 9998469
123.76291 -46.74654 -68.411316 10590603
124.29961 -47.004929 -67.662781 8289133
124.8918 -47.102749 -66.966095 8682867
123.80763 -45.785484 -69.392509 7960171
124.18534 -46.09071 -68.64328 8749428
124.65287 -46.392254 -67.801727 8683891
123.3993 -44.480148 -72.577309 9801606
123.63176 -44.626953 -71.643509 9604229
123.79366 -44.946545 -70.503975 8354165
124.16489 -45.196987 -69.669563 7892843
124.50728 -45.393101 -69.07988 8089963
122.23777 -43.876862 -79.161209 9406079
122.82445 -43.969929 -78.58387 7959400
122.71645 -44.132393 -76.384369 8616048
123.2584 -44.131012 -75.499153 9668478
123.13814 -44.196724 -74.485947 8813685
123.419 -44.257599 -73.584373 9604228
123.83382 -44.280128 -73.030258 9341057
121.97007 -42.588501 -80.028801 8813683
122.3846 -42.988445 -79.464386 8682611
122.94836 -43.133427 -78.891708 7564898
122.10815 -41.808182 -80.28688 10524300
122.67133 -41.977451 -79.702835 8550768
122.39021 -40.823772 -80.514061 8222061
122.94083 -41.234688 -79.825706 9011320
122.01709 -39.947029 -81.249779 6577747
122.65639 -39.942833 -80.689461 7103835
121.77087 -38.782036 -82.001572 5393730
122.25211 -39.002987 -81.476761 8748405
122.73365 -39.225094 -80.951233 7103835
121.85564 -37.834682 -82.362114 6051404
122.47516 -37.988167 -81.746727 7564387
121.54161 -36.77906 -83.123199 11511193
122.16487 -36.85997 -82.537827 8221548
121.77868 -35.972275 -83.285271 11181715
122.40965 -36.00248 -82.716438 7563619
121.48135 -34.881207 -84.046799 6840662
122.06051 -35.012852 -83.478111 9142646
122.49406 -35.406063 -82.916153 11511193
121.60464 -33.851521 -84.401657 7761250
122.18889 -34.010124 -83.824173 6511954
121.41134 -32.709118 -85.07827 8090731
121.93048 -32.914726 -84.537727 6511185
117.32139 -31.588923 -110.97015 9011323
117.59729 -31.52104 -110.1709 8353651
121.45683 -31.944527 -85.381531 8025711
122.11607 -31.941797 -84.811165 6840408
117.93769 -31.436722 -109.17345 8024687
118.27234 -31.35301 -108.17805 10129541
118.60183 -31.269884 -107.18452 11905692
118.86153 -31.203859 -106.39117 10590091
118.85011 -30.926712 -101.13118 7433056
119.14796 -30.847891 -100.16316 8814709
119.44049 -30.769682 -99.197166 8552049
119.72816 -30.691994 -98.232925 7367007
120.01047 -30.614908 -97.27076 8748917
120.28812 -30.538368 -96.310318 7564643
120.50652 -30.477554 -95.543396 8419952
121.21272 -30.912809 -86.091736 12104107
121.79172 -31.064276 -85.508308 11380384
120.66827 -30.432186 -94.969009 8617075
120.89162 -29.675148 -88.322754 11905692
121.33545 -29.791632 -87.406212 8486261
121.48887 -30.094681 -86.424896 10854297
121.9269 -30.307419 -85.766808 14077126
121.01067 -29.3986 -89.076111 9011574
121.43559 -29.398026 -88.495605 9011574
132.8293 -73.56002 -15.011896 7498590
133.11879 -73.793144 -14.189284 8616299
133.44579 -73.800812 -13.298893 9405302
133.72914 -73.907837 -12.35498 10457478
134.08185 -74.057648 -11.413675 8286565
134.15474 -74.056625 -10.448303 9273720
134.22054 -74.055611 -9.4824972 10853012
134.27942 -74.054596 -8.5161896 10721678
134.33133 -74.053596 -7.5494676 9603709
134.3828 -74.052437 -6.4212575 8748659
134.73813 -74.051056 -5.3679204 10064520
134.90144 -74.049973 -4.4293065 10327692
135.26337 -74.048599 -3.371882 10591118
135.27812 -74.04763 -2.3981652 10131079
135.28583 -74.046661 -1.4244637 10261123
135.28645 -74.0457 -0.45063823 9210491
135.6777 -74.044357 0.52714688 9802371
135.86443 -74.043297 1.426023 11117719
136.04124 -74.042084 2.4899116 11709858
136.01364 -74.041138 3.469049 8551026
136.17621 -74.039932 4.5378051 7958376
136.33804 -74.038887 5.445127 7958633
136.68974 -74.03756 6.4477458 9010807
136.63354 -74.036644 7.4314685 9472639
136.76662 -74.035461 8.5108871 10261900
136.9893 -74.034401 9.368515 9077370
137.22937 -74.033119 10.446434 8550514
137.14429 -74.032219 11.433945 9537665
137.38394 -74.031044 12.386221 9274229
137.79976 -74.029907 13.161196 10458246
137.67667 -74.028862 14.317898 11510936
137.74916 -74.027649 15.497948 7762022
138.28285 -74.026413 16.23488 8486000
138.15593 -74.025551 17.229832 12565422
138.21645 -74.024399 18.335691 11315100
138.51054 -74.023239 19.224363 8090730
138.55518 -74.022102 20.335022 9933193
138.60616 -74.021049 21.365158 8815226
139.11943 -74.019806 22.133081 11840677
138.94991 -74.018967 23.133959 12169642
139.28619 -74.017639 24.157385 8616824
139.42305 -74.016403 25.288597 7695463
139.23076 -74.015594 26.291557 6510930
139.93834 -74.014099 27.127731 6510930
139.7327 -74.013298 28.134396 8418671
139.97878 -74.012154 29.062708 10129289
140.21837 -74.011009 29.994926 10853012
140.11594 -74.009872 31.244267 9802377
140.60818 -74.008453 32.210793 7565675
140.36586 -74.007683 33.222153 8485747
140.842 -74.006416 34.054852 9275773
140.79976 -74.005386 35.122536 8156780
141.01138 -74.00425 36.079586 9604482
141.21634 -74.003105 37.040436 9209467
141.47069 -73.792282 37.94202 10130312
141.52722 -73.728386 38.950974 9209727
141.36154 -73.792862 40.005119 8486263
141.31239 -73.544174 41.095909 8814972
132.78171 -72.593613 -15.921435 9208435
133.03542 -72.828262 -15.196072 8550763
133.42055 -72.931297 -14.307204 9011056
133.88319 -72.879143 -13.387136 9405302
134.06097 -73.246552 -12.708551 9536888
141.83774 -73.11277 38.304108 13024949
141.80168 -72.906952 39.150372 11906468
141.70166 -72.837677 40.103031 10262415
141.55298 -72.899467 41.06131 8354423
141.52791 -72.666451 41.899792 10590865
132.53888 -71.529861 -17.319393 9931906
132.85042 -71.911018 -16.35066 9405563
133.43964 -71.770477 -15.240965 9208441
133.73776 -72.02298 -14.407974 9274232
142.03448 -71.938477 40.07568 11906468
141.99652 -71.736061 40.92749 9077887
141.83102 -71.805809 41.990997 9077631
141.71049 -71.765961 43.01754 9143166
141.68661 -71.546494 43.809868 9537665
132.39268 -70.739441 -18.28677 9668733
132.80559 -70.778526 -17.39381 10260873
133.25708 -70.895218 -16.355206 9668995
133.64415 -71.041374 -15.426191 8813686
142.21082 -70.994919 41.361317 9011838
142.16512 -70.883987 42.017021 7630444
142.1049 -70.715469 42.943314 9472387
141.96529 -70.736992 43.944317 10787731
141.91353 -70.586464 44.756584 9537665
132.03957 -69.669655 -19.920345 10262156
132.3298 -69.718941 -19.273937 9866885
132.68423 -69.890846 -18.390991 10392460
133.09119 -69.921608 -17.517281 9602940
133.46054 -70.069786 -16.623533 10524304
142.36913 -70.277687 42.152847 7564651
142.43484 -69.79567 42.994827 11183001
142.2914 -69.82618 43.999943 12235690
142.17915 -69.756218 45.0457 9406079
142.11298 -69.447098 45.825977 9405819
131.95767 -68.60041 -20.98839 14076861
132.20477 -68.892113 -20.228519 11314071
132.69125 -68.759949 -19.325361 9406333
133.04753 -68.881203 -18.480965 10655886
133.29475 -69.181252 -17.714064 9274229
142.52632 -69.157974 44.073761 11183001
142.58119 -68.731117 44.844666 8682867
142.34418 -68.776878 45.901676 9405819
142.1756 -68.58107 46.603661 7563619
131.62129 -67.611778 -22.773378 9933190
131.80832 -67.75016 -22.073679 9933190
132.17476 -67.762878 -21.238873 11248278
132.56413 -67.887016 -20.323048 9866883
132.93239 -67.942207 -19.509079 8748660
133.21388 -68.101341 -18.788677 9340539
142.78925 -68.048218 45.163177 8090987
142.67426 -67.820175 46.009727 9208953
142.35265 -67.766777 46.995033 7826791
131.31937 -66.425293 -24.997789 8682867
131.54834 -66.658463 -24.062031 8091242
131.77638 -66.894951 -23.125137 8946551
132.07027 -66.962769 -22.198145 9604225
132.56419 -66.771072 -21.25951 9340540
132.85109 -67.045212 -20.431438 9735297
142.93808 -67.05526 46.096199 12037793
142.75534 -66.812088 46.891708 11840415
142.44698 -66.760933 47.836426 8682867
130.98257 -65.623047 -26.891693 9537409
131.17165 -65.749252 -26.193787 9142904
131.51485 -65.796028 -25.13237 9472124
131.86147 -65.791542 -24.118423 10458508
132.1534 -65.853676 -23.190268 9011576
132.45152 -65.922081 -22.261101 9932422
132.69305 -66.118866 -21.538347 10656399
143.00867 -65.903992 47.167053 11248795
142.74223 -65.901581 47.93708 9341054
142.5527 -65.646156 48.765755 11577503
130.71402 -64.482895 -28.965824 8616307
130.93095 -64.662354 -28.126001 9340030
131.13222 -64.915062 -27.249603 9734788
131.42668 -64.966751 -26.325872 9077111
131.81042 -64.904213 -25.268366 9932418
132.20882 -64.793457 -24.222008 11906466
132.43504 -65.017563 -23.30439 9932166
132.59938 -65.202904 -22.612627 9932166
143.11172 -64.883873 47.999084 9341054
142.83813 -64.755852 48.928757 10919829
142.73019 -64.375046 49.660927 11906725
130.41473 -63.717354 -30.708426 8484464
130.66229 -63.647724 -30.059034 9471359
130.91042 -63.786415 -29.173359 8418671
131.20712 -63.831623 -28.250351 8616307
131.50323 -63.8797 -27.325729 8945272
131.79881 -63.93066 -26.399435 8156265
132.07507 -64.073265 -25.426733 7432799
143.18773 -63.840408 48.934822 10196106
142.86592 -63.803402 49.90184 9274748
142.69107 -63.614933 50.612499 7564643
130.1317 -62.609123 -32.789028 9734014
130.35315 -62.776794 -31.949169 10851980
130.55939 -63.016861 -31.072357 8288110
130.95959 -62.812206 -30.126564 8419952
131.27867 -62.753792 -29.254494 9012088
131.57649 -62.798344 -28.328926 7432800
131.77992 -63.049152 -27.448444 7695717
131.99725 -63.232014 -26.60326 6511954
143.38438 -63.103333 49.18309 8682355
143.19012 -62.897839 49.968311 7168860
142.955 -62.689861 50.873798 9669505
129.79021 -61.513054 -35.027962 6775126
130.05511 -61.757767 -33.973522 8550510
130.32401 -61.917603 -33.003017 8484462
130.62492 -61.950546 -32.081429 8616048
130.92516 -61.986263 -31.158564 8946296
131.22763 -61.980148 -30.276241 8354158
131.52962 -61.976578 -29.392555 6906712
143.51671 -61.897587 50.132492 8287597
143.34064 -61.709408 50.846291 11774111
143.06166 -61.587254 51.783157 10919058
129.34309 -60.494041 -38.084576 8287342
129.61401 -60.584667 -37.070263 5392706
129.84979 -60.717419 -36.088226 8484972
130.08543 -60.884609 -35.061062 9011572
130.43787 -60.884071 -34.030598 9405561
130.73457 -60.911011 -33.10585 8747377
130.96115 -61.027668 -32.210716 9076342
131.19815 -61.160526 -31.289286 8617331
131.41917 -61.331345 -30.444378 8090986
143.53995 -60.948349 51.112709 13022893
143.40564 -60.779755 51.84417 10129542
143.1884 -60.615372 52.82061 9472125
143.20212 -60.283573 53.532715 9011320
128.36948 -59.411541 -44.921318 8156012
128.68541 -59.410862 -43.996632 8222062
128.99747 -59.411461 -43.070614 9077115
129.05547 -59.497292 -42.062965 7301474
129.24606 -59.5919 -41.058136 9208184
129.44939 -59.682522 -40.109795 10194565
129.47522 -59.887218 -39.135139 8550512
129.77522 -59.898476 -38.210011 8090474
130.1331 -59.888477 -37.178116 6840151
130.32587 -60.106709 -36.104553 10130570
130.58984 -60.18116 -35.157089 11051928
130.80812 -60.276825 -34.292961 9273975
143.81276 -60.160721 52.059364 8682867
143.66719 -59.997585 52.855972 9735040
143.709 -59.638733 53.838253 9734526
143.60634 -59.472347 54.79414 8813941
143.50575 -59.378521 55.628853 8089963
126.17555 -58.661732 -59.320107 5392706
126.62682 -58.739994 -58.792404 9669761
126.76701 -59.000801 -58.060555 10459535
126.87667 -59.109325 -56.892075 10788243
127.34428 -59.107834 -55.824867 9209984
127.4048 -59.106846 -54.886078 9998985
127.12524 -59.106167 -53.92849 10787215
127.50511 -59.104904 -53.012177 8353133
127.87833 -59.103649 -52.09314 7893097
127.92142 -59.102497 -50.973507 9011065
127.73351 -59.101631 -49.911419 8945528
128.08429 -59.100391 -48.990776 7038307
128.31091 -59.131741 -47.937172 7367271
128.49384 -59.172615 -47.043854 8485494
128.65678 -59.207298 -46.145927 8748150
128.86748 -59.242039 -45.093002 8748405
129.18468 -59.24136 -44.164696 7037789
129.44615 -59.241737 -43.390137 6972766
144.34497 -59.175396 55.160542 10063744
144.08592 -59.180115 55.857685 8419184
144.14888 -59.066181 56.763954 9011065
144.01219 -58.994907 57.835541 8813686
144.76788 -58.978149 58.956848 9735812
144.40479 -58.977634 59.824173 8484976
145.12234 -58.975647 61.154556 9735812
144.8219 -58.975243 61.850262 10195591
144.51869 -58.974842 62.544788 11511449
145.30383 -58.972939 63.724503 8879989
144.9128 -58.972446 64.59523 9735556
145.69766 -58.970528 65.795326 11906725
145.37512 -58.970135 66.493935 9735556
146.16075 -58.968197 67.713928 8288371
145.91476 -58.810291 68.67041 8221807
145.69324 -58.630646 69.425568 8089963
126.31882 -57.768604 -59.651291 5392706
126.88937 -57.911541 -58.960217 7563873
146.1936 -58.117725 68.946976 8550771
145.94632 -57.782955 69.601425 10130057
145.69284 -57.415192 70.289764 11380380
126.04982 -56.748432 -60.494785 8287336
126.55826 -56.892445 -59.869865 6116171
127.01186 -56.967926 -59.341118 6839893
146.22865 -56.875893 69.770187 11050903
145.84441 -56.748142 70.508293 10261643
125.84725 -55.50164 -61.389969 5393738
126.18056 -55.918095 -60.805325 6840151
126.70119 -56.074436 -60.160591 10392710
146.37856 -56.235271 69.972626 9734787
146.1626 -55.774517 70.663765 8287341
145.9498 -55.404778 71.28511 8089963
125.97336 -54.79417 -61.63813 6446426
126.49839 -54.92041 -61.004837 7564392
126.87677 -55.298786 -60.392765 13024949
146.44057 -54.821068 70.872505 10129289
146.04573 -54.802849 71.550812 10129545
125.70297 -53.847218 -62.441917 9932681
126.21553 -53.902851 -61.860115 11511454
126.66814 -54.172909 -61.226814 7038307
146.73454 -54.227921 70.798141 11379356
146.41653 -53.84927 71.603088 10392461
146.13794 -53.594746 72.253342 9734787
125.87409 -52.887329 -62.777317 9537924
126.39841 -53.103809 -62.095886 13748156
146.69453 -52.8102 71.872345 9735043
146.39687 -52.797672 72.382874 10524559
125.67112 -51.736248 -63.61898 8353909
126.2178 -52.004501 -62.885414 7893615
146.77441 -51.883888 72.395576 9669506
125.50965 -50.575504 -64.421204 8879736
125.92957 -50.843735 -63.82402 7300962
126.42315 -51.057976 -63.176872 8681843
146.98003 -51.00304 72.674522 9932678
125.55727 -49.908768 -64.73082 9931906
126.21566 -49.841316 -64.058861 10458506
125.34779 -48.822598 -65.544319 8682867
125.922 -49.01339 -64.823059 9208184
125.12141 -47.604557 -66.447311 8682867
125.58146 -47.89711 -65.7939 10129799
126.07095 -48.045937 -65.186523 8089961
124.98769 -46.426197 -67.40287 8682867
125.31138 -46.757519 -66.756386 8814195
125.8256 -46.975636 -66.049744 11510937
124.95967 -45.546055 -68.419983 8089963
125.24199 -45.830013 -67.79689 8747888
125.70251 -46.087761 -67.01178 9208435
124.32405 -44.533192 -71.329208 9735558
124.73288 -44.55759 -70.771812 9340801
124.97633 -44.707901 -69.807953 9011320
125.14739 -45.04525 -68.797905 8221549
125.6199 -45.171417 -68.130135 8089963
123.37557 -43.5681 -78.299072 6841687
123.75385 -43.873325 -77.709885 6906712
123.99393 -44.131569 -76.762688 9142135
124.44846 -44.130409 -76.017715 10260358
123.88274 -44.129398 -74.461632 10262156
124.32313 -44.128258 -73.717163 9341057
124.56522 -44.195118 -72.737656 9406850
124.76362 -44.333073 -71.777519 9143679
125.27832 -44.363548 -71.07869 8617336
123.49384 -42.91563 -78.512436 7893864
124.11649 -42.887047 -77.972046 10787729
123.20791 -41.892334 -79.266708 11181972
123.77501 -42.037117 -78.691132 10326923
123.43024 -40.837734 -79.583801 10853007
123.9237 -41.145149 -78.994331 10787216
123.20322 -39.719521 -80.311073 6775126
123.61468 -39.951317 -79.842636 9274235
123.26105 -38.953815 -80.611908 6709333
123.85814 -39.142597 -80.000084 7761509
123.01646 -37.908722 -81.307083 7037786
123.54787 -38.077847 -80.762024 6774615
122.71795 -36.508553 -82.21286 7563619
123.1505 -36.905033 -81.650238 8550768
123.63583 -37.125816 -81.121964 7169373
122.94883 -35.729836 -82.367447 7958376
123.3867 -35.95702 -81.877945 11248022
123.023 -34.962845 -82.65451 8616306
122.73415 -33.924526 -83.385338 6577491
123.26978 -34.087002 -82.839767 6248783
122.45837 -32.689148 -84.181946 5392706
122.95338 -32.904652 -83.657333 6116685
123.39259 -33.297997 -83.094185 5920074
118.20757 -31.696749 -113.96303 5392706
118.41618 -31.643494 -113.34779 6708826
118.75912 -31.555176 -112.32381 7761513
119.02966 -31.484852 -111.50599 9011320
122.66837 -31.796957 -84.398331 5392706
123.07337 -32.005604 -83.955055 6116429
119.16341 -31.449924 -111.09751 10854036
119.29615 -31.414995 -110.6893 9932678
119.05404 -31.154593 -105.79697 7564651
119.24451 -31.105526 -105.20346 9867404
119.49561 -31.040411 -104.41332 9867404
119.80457 -30.959612 -103.42743 8090476
120.10871 -30.879341 -102.44341 6510930
120.40716 -30.79978 -101.46148 8353389
120.70085 -30.720697 -100.48147 10656654
120.93191 -30.65786 -99.698929 8682867
122.35651 -30.693201 -85.195786 10656402
122.7205 -31.07637 -84.687134 6248271
120.8281 -30.386971 -94.395393 7563619
121.0906 -30.312113 -93.440765 7563619
121.29737 -30.252632 -92.678375 9735812
122.21201 -29.689129 -86.62291 10854297
122.61752 -29.964758 -85.540428 11643298
123.00485 -30.251534 -84.847336 8288110
121.76731 -29.401142 -88.069717 7564643
122.32379 -29.337017 -87.582809 9143677
122.76042 -29.4123 -86.789352 10919317
134.31795 -73.355377 -12.081878 10457478
134.49478 -73.63765 -11.446631 9800063
134.84109 -73.785614 -10.497757 9734272
135.21823 -73.737846 -9.5471144 9273977
135.42073 -73.869659 -8.6225338 9011576
135.50485 -74.046776 -7.6082206 9208698
135.56081 -74.051544 -6.6331525 11116949
135.79483 -74.050446 -5.7454247 9538176
136.02774 -74.049187 -4.6923699 9538176
136.05197 -74.048195 -3.7131791 9801859
136.06915 -74.047218 -2.7338281 10657166
136.07924 -74.046242 -1.7543492 9210491
136.42595 -74.044853 -0.68134731 9407614
136.88063 -74.043549 0.21090657 8618355
136.86946 -74.04258 1.1961551 9275517
136.85117 -74.041626 2.1812968 8551026
136.82062 -74.04052 3.3303847 7037274
137.27644 -74.0392 4.2344871 8418927
137.56268 -74.03801 5.1710677 9010807
137.51564 -74.037079 6.1610999 7563619
137.4615 -74.03614 7.1507754 9077882
137.80795 -74.034828 8.1667862 9735556
138.1469 -74.033493 9.1882038 8616820
138.07085 -74.032585 10.182411 11445918
138.18579 -74.031395 11.277172 9406077
138.52101 -74.03022 12.144485 9274230
138.62044 -74.029053 13.244902 9997951
138.51511 -74.02816 14.242323 10656141
138.83557 -74.026993 15.120657 10196879
139.15012 -74.025826 16.003405 9078656
139.00302 -74.024811 17.171396 10657171
139.28606 -74.023499 18.228733 10788499
139.58456 -74.022331 19.123575 11314844
139.43675 -74.021484 20.127876 10393743
139.72734 -74.020325 21.029762 8486262
140.01167 -74.019157 21.935865 12301227
139.81461 -74.018181 23.110895 14602957
140.5114 -74.016548 24.099327 10655633
140.32762 -74.015724 25.110205 9406333
140.34897 -74.014671 26.160641 6510930
140.85347 -74.013405 26.959818 7300446
140.64908 -74.012604 27.973063 7958120
141.05463 -74.011322 28.880718 8418671
141.14516 -74.010284 29.844402 8682612
141.11566 -74.009178 30.993258 11315100
141.54588 -74.007706 32.073555 8815478
141.30447 -74.006927 33.091652 9013115
142.07245 -73.86882 34.07119 9209468
141.9716 -73.720131 34.956032 7761510
141.94569 -73.615631 35.779079 10459278
141.84882 -73.606728 36.845619 9604225
141.80991 -73.454536 37.564957 9209467
134.14102 -72.457954 -13.203132 9536888
134.36546 -72.844955 -12.411006 10062720
134.83278 -72.798241 -11.433515 10524046
135.18225 -72.893799 -10.523218 9668479
135.53464 -72.941673 -9.6500149 9800065
142.31548 -72.943047 35.146358 10459278
142.27783 -72.787552 35.86441 11972004
142.11905 -72.842941 36.917061 10196362
142.04993 -72.660439 37.950104 10656657
141.9908 -72.503738 38.83569 11380124
134.00206 -71.721283 -14.110477 9274234
134.34776 -71.775398 -13.344766 9274235
134.73653 -71.883614 -12.444069 9931650
135.12877 -71.928093 -11.545124 10195340
135.39671 -72.156761 -10.702747 10853012
142.45403 -72.224495 36.091972 10326921
142.41788 -71.998299 36.996037 9538432
142.41988 -71.702782 37.802773 9406590
142.25589 -71.797104 38.786804 10261899
142.17419 -71.664139 39.777443 12696241
133.90863 -70.672401 -15.184627 8550514
134.2314 -70.864693 -14.350867 8945530
134.68817 -70.842087 -13.418195 7893358
135.03815 -71.024139 -12.536369 8945531
135.26105 -71.278763 -11.836482 8617080
142.69119 -70.917824 37.925205 9341054
142.59256 -70.84388 38.880188 8090987
142.45348 -70.856133 39.902992 10590865
142.35745 -70.738869 40.959019 9275010
133.46669 -69.374542 -17.193724 8681835
133.69884 -69.617889 -16.505926 9932165
134.04774 -69.907257 -15.536406 8484721
134.62367 -69.763718 -14.456884 7629928
134.89424 -70.111198 -13.601757 7038307
142.8347 -70.092033 39.132084 8090987
142.87224 -69.748116 39.803673 9538179
142.724 -69.806122 40.768661 9143424
142.58253 -69.822678 41.797409 8814459
142.58234 -69.538147 42.590687 11183001
133.34209 -68.538803 -18.154423 10590347
133.57506 -68.778305 -17.467865 9669246
133.99261 -68.768181 -16.606489 9274235
134.38361 -68.910439 -15.672501 8484720
134.73282 -68.906532 -14.948242 8089963
143.10199 -69.001595 40.134132 9734273
143.08067 -68.775467 40.925583 10787988
142.9518 -68.774643 41.907314 11906725
142.81357 -68.791451 42.910801 10590864
142.78372 -68.561157 43.778091 8682867
133.28082 -67.535614 -19.124067 9340539
133.50842 -67.759094 -18.461967 9472125
133.8669 -67.931122 -17.5704 9735296
134.35371 -67.819 -16.650127 8813683
134.58566 -68.185875 -15.859189 8418927
143.29312 -67.833939 41.931007 11183001
143.18597 -67.823357 42.774078 9472383
143.08537 -67.703506 43.872047 8682867
142.97984 -67.641685 44.845943 8156780
133.08569 -66.595482 -20.319834 9538175
133.347 -66.922493 -19.500568 9866626
133.87051 -66.752724 -18.551785 8485488
134.23074 -66.922974 -17.658043 8090987
134.39343 -67.32386 -16.982544 10261124
143.42947 -67.10466 42.92329 8551025
143.47853 -66.694351 43.692192 8616818
143.30772 -66.799477 44.697685 9077624
143.17479 -66.669914 45.793407 9472382
143.08379 -66.288902 46.524582 12037793
133.00525 -65.700043 -21.239017 9801349
133.34596 -65.805161 -20.440569 9538177
133.73949 -65.92952 -19.515881 10854034
134.13342 -65.959595 -18.669451 9011831
143.62114 -66.180145 44.038841 8090987
143.61855 -65.898003 44.843628 8090987
143.48868 -65.795303 45.8409 8880502
143.26379 -65.65181 46.711197 11051414
132.4595 -64.426605 -23.898325 8681843
132.64828 -64.559509 -23.193867 9274236
132.8613 -64.842918 -22.287941 10195851
133.2115 -64.944382 -21.443365 9933191
133.7361 -64.766373 -20.499212 10590607
134.0006 -65.138672 -19.63534 10656657
143.85349 -64.883141 45.759346 8090987
143.57326 -64.799904 46.762505 8617331
143.42102 -64.503853 47.528687 8485745
132.31662 -63.657745 -25.184937 7301469
132.60806 -63.760963 -24.211855 8747891
132.90575 -63.775753 -23.320196 9932166
133.21373 -63.845856 -22.387056 11445917
133.59964 -63.956203 -21.463646 9670020
133.86378 -64.034576 -20.847256 9143934
143.90189 -63.846294 46.871304 9077882
143.58221 -63.804024 47.838875 9538433
143.40941 -63.6119 48.549179 10591121
131.99104 -62.591522 -27.343397 6511954
132.26434 -62.839317 -26.260763 7563873
132.56532 -62.967514 -25.23164 8551022
132.88251 -62.923069 -24.349375 8484720
133.28116 -62.738895 -23.38501 9471871
133.51289 -62.914852 -22.546291 11577759
133.72552 -63.227467 -21.812738 10787985
144.07649 -63.235764 47.044102 9735555
143.95311 -62.899349 47.771702 10064520
143.70819 -62.740749 48.651825 9669506
143.56175 -62.46814 49.373695 7037274
131.75763 -61.557697 -29.194427 7301470
131.94539 -61.76635 -28.407415 6840919
132.24374 -61.813095 -27.477682 6709333
132.59122 -61.871292 -26.390804 8221802
132.93803 -61.933132 -25.301584 10787981
133.20686 -62.030025 -24.40213 9406335
133.43243 -62.028244 -23.741032 8813942
144.23698 -61.898506 48.060287 13287605
144.0625 -61.706596 48.773575 10129799
143.75505 -61.652035 49.717945 9340541
131.27124 -60.635197 -32.071564 7563619
131.55333 -60.665047 -31.172958 7301471
131.78368 -60.760422 -30.328156 8617331
132.05701 -60.794868 -29.458797 7564642
132.39148 -60.770859 -28.502052 7301470
132.66942 -60.878304 -27.465435 7367007
132.93134 -61.056503 -26.358335 8945524
133.13669 -61.235115 -25.504274 10261638
144.26344 -60.944675 49.036285 10261642
144.13219 -60.772892 49.766819 10261899
143.88445 -60.688381 50.652138 10261385
130.25647 -59.428135 -39.197395 9142648
130.59673 -59.436596 -38.108566 6510930
130.88393 -59.445168 -37.173595 9406846
130.93127 -59.547199 -36.173187 11446430
131.12268 -59.6632 -35.171993 11907237
131.32323 -59.772392 -34.22435 9932938
131.47684 -59.913822 -33.321301 8156529
131.66655 -60.035931 -32.333538 7498342
131.97551 -60.027706 -31.446375 7037530
132.28336 -60.021805 -30.557867 9931136
132.54195 -60.133995 -29.531767 9669506
144.48189 -60.265671 49.88987 9735555
144.35068 -60.027424 50.819115 9274747
144.31279 -59.756256 51.700939 9077368
144.35941 -59.459087 52.707306 9208952
144.27371 -59.36636 53.544079 10063744
127.59362 -58.726566 -57.760185 10327692
128.02113 -58.839382 -57.169857 10130570
128.22128 -59.107388 -56.204559 8815227
128.43011 -59.106113 -55.110291 8157555
128.12473 -59.105286 -53.986099 8025968
128.50497 -59.104015 -53.062599 9143676
128.87854 -59.10276 -52.136292 7499110
129.05547 -59.101513 -51.044411 10457481
128.72327 -59.100727 -49.938362 11115410
129.07426 -59.099483 -49.010574 7498336
129.41853 -59.098244 -48.08036 8485229
129.7561 -59.097008 -47.14761 8945523
129.42688 -59.096394 -46.214344 8879733
129.47409 -59.095276 -45.128319 8156268
129.84259 -59.093849 -44.039604 6577751
130.01361 -59.130074 -43.059227 6512472
130.11311 -59.178837 -42.156189 8156013
130.48077 -59.169361 -41.143311 8813171
130.51463 -59.25346 -40.126579 9207928
130.8114 -59.259727 -39.190899 9472125
131.10425 -59.267365 -38.253944 6510930
131.34549 -59.274612 -37.47208 8288109
144.85693 -59.168034 53.764591 10326916
144.84195 -59.077084 54.754417 9208435
144.80806 -58.981289 55.741264 9142389
145.61646 -58.979424 56.865978 8681835
145.3367 -58.978992 57.564251 7958377
144.98274 -58.978466 58.435272 7563618
145.71237 -58.976475 59.758354 8222317
145.34518 -58.975956 60.631607 8617075
146.14615 -58.974049 61.800957 9735812
145.76634 -58.973545 62.676613 12235172
146.56732 -58.971615 63.866371 9735556
146.25375 -58.97121 64.569115 9011833
145.93745 -58.970818 65.270584 7564643
146.73302 -58.968876 66.483612 7367267
146.80901 -58.581444 67.481468 9209471
146.50858 -58.271534 68.307106 7038307
127.28241 -57.56506 -58.725807 8090987
127.7076 -57.974392 -58.046265 8222573
128.29611 -58.112637 -57.338326 8090987
147.09726 -57.697464 67.723091 8551543
146.65987 -57.630371 68.50769 9603972
127.49466 -56.829124 -58.89743 7564129
128.09462 -57.091625 -58.109795 8024938
147.19673 -57.093258 67.984673 7038307
146.9864 -56.719524 68.604355 7366497
146.7065 -56.455513 69.263756 10524047
127.26691 -55.788311 -59.707611 9734527
127.85191 -55.869461 -59.034195 8287081
128.23033 -56.254871 -58.418388 7892581
147.30716 -55.744801 68.755989 9734531
146.84167 -55.73843 69.545021 10853012
127.00194 -54.710327 -60.576668 9931906
127.44074 -54.977619 -59.959709 9800063
127.97234 -54.925949 -59.415527 9339512
147.2534 -54.833221 69.493965 9011064
146.82414 -54.772331 70.260605 9734531
126.79379 -53.464741 -61.474953 7038307
127.17466 -53.840923 -60.861443 7628896
127.73529 -54.025597 -60.158131 8812911
147.45831 -53.858662 69.840599 9142650
147.1037 -53.790222 70.486877 10918805
126.97631 -52.765427 -61.657158 10656146
127.49246 -52.8423 -61.060032 8221289
127.83106 -53.257973 -60.470619 9339512
147.41553 -52.883617 70.605118 11050391
147.08003 -52.75988 71.258469 9143162
126.70403 -51.639004 -62.560051 9932681
127.03004 -52.002396 -62.01239 10787216
127.65096 -51.865757 -61.418152 10326149
147.64996 -52.043804 70.806381 8090730
147.31752 -51.826145 71.52121 8419695
147.04955 -51.41008 72.268341 9209467
126.79476 -50.877083 -62.874825 9405051
127.35886 -51.05283 -62.172653 9931137
147.61052 -50.928169 71.665085 9143418
147.27676 -50.711826 72.381241 9932678
126.57935 -49.727173 -63.729179 11905693
127.14166 -49.925426 -63.016712 9997186
127.64194 -50.322727 -62.26326 10128515
147.8385 -50.229324 71.7771 11379356
147.56905 -49.81348 72.526543 10787475
126.86757 -48.807499 -63.916901 11181971
127.4229 -49.087799 -63.167542 9865344
147.89403 -48.814625 72.688141 9209467
147.6936 -48.806877 73.03141 9538176
126.53809 -47.911495 -64.756599 9208440
127.10283 -48.025139 -64.087257 8813939
147.9534 -48.007401 73.161324 9472130
126.30839 -46.703342 -65.711945 10918800
126.80682 -47.008244 -64.970352 9669505
127.26237 -47.205856 -64.359116 9406590
125.8543 -45.525051 -67.479355 9208435
126.23493 -45.784554 -66.777939 10457990
126.70693 -45.986282 -66.043274 11247252
126.99408 -46.308208 -65.373268 9406590
125.86739 -44.551975 -69.566391 9011061
126.24441 -44.595451 -68.955223 8616305
126.20322 -44.917747 -67.942902 9142643
126.63079 -45.162453 -67.050598 9866110
124.38112 -43.549953 -77.41275 9736329
124.93761 -43.764332 -76.812599 10327694
125.02275 -44.072006 -75.956856 9998215
125.07684 -44.128788 -74.969902 8683129
125.60851 -44.127396 -74.067749 9341057
125.41336 -44.143459 -71.949135 7564651
125.85457 -44.261181 -70.926926 9603971
125.99615 -44.407757 -70.09623 9142647
124.60219 -42.724136 -77.619194 10788502
125.10665 -43.001312 -77.034737 11906983
124.79372 -41.89489 -77.85363 11182744
125.36795 -42.195213 -77.195694 9736329
124.47065 -40.963722 -78.596008 10129288
124.97751 -41.06422 -78.095688 9866887
124.14046 -39.804592 -79.446678 10458252
124.71626 -39.948833 -78.870422 10656145
125.13816 -40.352119 -78.300323 10458252
124.3473 -38.74176 -79.753929 8157040
124.85345 -39.05064 -79.166862 10985623
124.06962 -37.828247 -80.417786 7564131
124.61832 -37.997162 -79.857574 7432803
123.79482 -36.594276 -81.226326 9735812
124.22838 -36.99334 -80.661621 7432545
124.80968 -37.133396 -80.086014 6511701
123.92007 -35.80537 -81.478516 8880246
124.50109 -35.970024 -80.891838 7037787
124.14507 -34.805466 -81.739883 7432800
124.61638 -35.084545 -81.197136 7564643
123.76637 -33.905392 -82.48642 8222056
124.28452 -34.02832 -81.974174 7827556
123.60285 -32.586941 -83.23587 7367005
123.98677 -32.976887 -82.719086 6775125
124.53217 -33.197689 -82.137901 8813936
123.62949 -31.809889 -83.561623 7037786
124.26521 -31.957411 -82.942001 8156263
119.42798 -31.380169 -110.28155 9932678
119.68853 -31.310854 -109.46696 8485232
120.00961 -31.224617 -108.45029 10919829
120.32454 -31.138952 -107.43575 10261643
120.63409 -31.053829 -106.42296 10458510
120.87743 -30.986151 -105.6143 9406078
121.17633 -30.90206 -104.60529 8879734
121.10328 -30.610971 -99.112747 8682867
121.27249 -30.564283 -98.527458 9077626
121.55051 -30.487013 -97.553558 9537921
123.30684 -30.751709 -84.331085 5392706
123.92757 -30.88195 -83.724289 7235167
124.29356 -31.179033 -83.268852 8089962
121.82386 -30.410244 -96.581497 9143163
122.0919 -30.334085 -95.611603 7827306
122.35522 -30.258434 -94.643524 6643290
122.6133 -30.18342 -93.677666 6906719
122.86683 -30.1089 -92.713654 9537923
123.1151 -30.035015 -91.75174 12169124
123.30832 -29.704166 -85.201134 12236461
123.57566 -29.933277 -84.587067 7959405
124.01659 -30.132986 -84.01915 7564651
122.98065 -29.129683 -87.385399 10260871
123.4229 -29.206583 -86.59314 11313558
123.64206 -29.352663 -85.867355 12366759
124.08037 -29.430923 -85.075783 14605262
135.85483 -73.606895 -8.2799749 9406078
136.16481 -73.579964 -7.5760818 9669250
136.50313 -73.69503 -6.6737447 10393999
136.88522 -73.784584 -5.6561589 8289140
137.08459 -73.875298 -4.7696023 9670276
136.85422 -74.047462 -3.7301412 9210491
137.07507 -74.046211 -2.6651978 9539199
137.28658 -74.04512 -1.762444 10065543
137.69455 -74.043755 -0.77402157 7894632
137.69049 -74.042778 0.21720272 8223597
137.67921 -74.041817 1.2082648 8092019
137.6608 -74.040848 2.1992583 7367010
138.04372 -74.039505 3.2020888 8946041
138.4193 -74.038155 4.2106376 13353139
138.3792 -74.037209 5.2068324 9734529
138.33191 -74.03627 6.2028308 8156012
138.61076 -74.035065 7.1508231 9341054
139.06036 -74.03389 7.9138312 9209468
138.98146 -74.032822 9.0814018 9998728
138.8932 -74.031746 10.248276 12959409
139.23883 -74.030563 11.116987 10590608
139.57877 -74.029388 11.990255 9077109
139.48245 -74.028488 12.994677 9603193
139.57884 -74.027298 14.104815 8946295
139.90393 -74.026115 14.989204 9604743
139.98439 -74.02494 16.104715 9933707
139.85841 -74.024055 17.111952 10261643
140.40117 -74.022812 17.867252 10788244
140.47234 -74.021713 18.907076 12762546
140.32607 -74.020851 19.91778 9407106
140.8808 -74.01944 20.830185 7499367
140.85698 -74.018227 22.073803 14274248
140.90105 -74.017151 23.123587 13550269
141.42276 -74.015877 23.911625 9931910
141.24031 -74.015045 24.929037 10261897
141.51181 -74.013878 25.8571 8617330
141.77681 -74.012718 26.789282 7564642
141.57364 -74.011894 27.809164 7432032
141.9859 -74.010605 28.72179 7958120
142.21716 -73.977142 29.810457 7301470
142.30284 -73.850479 30.857931 11315100
142.44221 -73.755501 31.922272 13880515
142.28857 -73.799438 32.96759 9603713
142.25314 -73.639656 33.68132 10854036
135.7894 -72.601128 -9.3670835 10063495
136.01443 -72.839523 -8.6167183 9537664
136.38574 -72.886383 -7.700192 9997959
136.85033 -72.798233 -6.689528 14077885
137.0721 -73.113846 -5.8752656 11578270
142.76968 -72.920609 31.756794 11775395
142.67839 -72.831581 32.698105 9998471
142.52368 -72.87722 33.746597 9932678
142.43015 -72.793427 34.690849 8418927
135.494 -71.373322 -11.20114 9735046
135.64638 -71.730759 -10.511076 10524048
135.94257 -71.922562 -9.6366453 9668736
136.4267 -71.768211 -8.6414499 9274491
136.74518 -71.961205 -7.7135339 9735043
137.01083 -72.028175 -7.0267167 14077885
142.95964 -71.952995 33.005283 9274749
142.92908 -71.734848 33.844425 8353391
142.77289 -71.783119 34.897106 7958376
142.65538 -71.765205 35.839611 9931136
142.67093 -71.480522 36.51358 9339257
135.28081 -70.571037 -12.410766 8485237
135.55151 -70.869698 -11.53316 8419702
135.99887 -70.758926 -10.58408 10064010
136.34985 -70.905113 -9.6230993 9471615
136.70615 -70.953247 -8.7406864 9734529
143.19905 -70.974037 33.909447 8089963
143.13841 -70.856827 34.696247 8747378
143.02643 -70.786446 35.742989 8813170
142.91389 -70.728287 36.760239 8484719
142.87939 -70.517761 37.608017 10262156
135.16142 -69.709381 -13.382116 7630443
135.55423 -69.763351 -12.516933 7564650
135.91849 -69.907524 -11.563162 8222579
136.33833 -69.871452 -10.60939 10064010
136.56401 -70.169327 -9.8023415 9471359
143.31229 -70.261536 35.031319 9339257
143.34183 -69.914993 35.770912 9076341
143.2504 -69.777412 36.848358 7630180
143.08762 -69.867165 37.835682 9670019
143.06352 -69.621307 38.70266 7367264
143.07643 -69.340858 39.384628 9734273
135.01855 -68.746346 -14.487273 8024428
135.36786 -68.879532 -13.647906 7432550
135.86705 -68.78434 -12.68573 7695720
136.20065 -68.914131 -11.821517 7959151
136.42403 -69.292297 -10.945382 9735046
143.51471 -69.074768 36.794807 6380625
143.47992 -68.863869 37.645798 7959401
143.36493 -68.809433 38.671013 7827815
143.24791 -68.748589 39.729713 9405308
134.6557 -67.415901 -16.358809 8089963
134.8416 -67.766518 -15.677698 8813683
135.19789 -67.896629 -14.826142 8879477
135.70737 -67.800293 -13.84555 9208444
135.96912 -68.101273 -13.047779 8813686
143.75763 -67.989952 37.966621 7367264
143.68327 -67.889511 38.811298 7761510
143.58627 -67.830284 39.713287 8484464
143.45988 -67.836678 40.655617 11115668
143.4113 -67.677788 41.466732 12299426
134.52721 -66.581085 -17.327009 8813683
134.77104 -66.777916 -16.653582 8879476
135.1852 -66.810463 -15.763484 8682098
135.5808 -66.952682 -14.819963 9340029
135.91092 -67.073822 -14.030582 9866374
143.95288 -66.814087 39.754486 9405565
143.8521 -66.741585 40.721909 9800322
143.68723 -66.805138 41.797913 9405562
143.64731 -66.603081 42.663017 8089963
134.39639 -65.557388 -18.458885 9341054
134.65997 -65.840286 -17.67207 8814454
135.05571 -65.924988 -16.776039 8484464
135.52818 -65.855759 -15.849546 8747635
135.71643 -66.205124 -15.164171 8813686
144.12 -65.982117 40.799034 10063492
144.07951 -65.80014 41.612972 9537148
143.97818 -65.708778 42.637138 8484719
143.83467 -65.726105 43.679459 10063750
143.83247 -65.442818 44.483955 10984852
134.23628 -64.689377 -19.521183 10130313
134.59314 -64.841537 -18.649605 9143675
135.05574 -64.796883 -17.72278 11117209
135.3965 -65.022194 -16.823307 9537664
144.28577 -65.151825 41.849281 8681842
144.31262 -64.759079 42.737778 9602941
144.14319 -64.859489 43.746101 12563624
144.08382 -64.688934 44.671654 9801093
144.0573 -64.484093 45.443291 9011579
134.16351 -63.740208 -20.469454 9801606
134.52307 -63.849934 -19.627867 10985879
134.92073 -63.925663 -18.735361 8814710
135.27457 -63.957481 -17.971104 10591121
144.51329 -64.189445 42.79808 9931905
144.48932 -63.965454 43.603317 10721680
144.41348 -63.809967 44.612179 8682871
144.25389 -63.798164 45.761116 9669507
144.12325 -63.619968 46.484222 10130313
133.76341 -62.602802 -22.258121 9932934
134.01979 -62.88279 -21.48876 9143931
134.45016 -62.865078 -20.606443 8749175
134.88127 -62.850101 -19.720453 9669507
135.13791 -63.137806 -18.944054 8880503
144.66785 -63.066853 44.746437 7038307
144.6647 -62.78381 45.558037 8880247
144.41747 -62.810452 46.532562 9669762
144.27948 -62.47271 47.303802 8682867
133.45836 -61.663647 -24.075764 8813942
133.66824 -61.767483 -23.341795 8813942
133.9787 -61.776932 -22.513399 9077625
134.37415 -61.887005 -21.585817 9209467
134.73607 -61.991005 -20.744102 9209467
135.04115 -62.080471 -20.033031 9011065
144.92888 -61.957111 45.850525 9603969
144.78044 -61.714886 46.699352 9472383
144.47495 -61.655361 47.644253 11248536
133.03329 -60.528477 -27.140724 10261638
133.23698 -60.642269 -26.268509 9011317
133.41742 -60.830132 -25.344076 9537660
133.69426 -60.911308 -24.41526 8813942
134.05096 -60.825817 -23.547758 9208956
134.35767 -60.860786 -22.623241 9011832
134.67046 -61.059124 -21.698854 9801861
134.89941 -61.273666 -21.005571 12433837
145.04297 -60.953114 46.785378 8682867
144.91269 -60.776966 47.514557 9406590
144.59918 -60.739307 48.492653 10985364
132.08408 -59.497456 -33.105515 7564651
132.2623 -59.507702 -32.477001 7367013
132.52638 -59.524158 -31.533371 7958118
132.94814 -59.547348 -30.456438 10391943
133.02536 -59.644592 -29.553686 9801348
133.09761 -59.908836 -28.43874 8420211
133.43842 -59.925678 -27.388092 9274491
133.72455 -59.9683 -26.445641 9340026
133.93054 -60.096386 -25.53437 9076854
134.1821 -60.176735 -24.601944 9274232
145.20357 -60.268658 47.805473 9801347
145.08464 -60.042439 48.671249 9406590
144.9339 -59.84568 49.560513 9406590
145.16917 -59.437252 50.523338 10919829
144.96286 -59.360153 51.628426 8682867
128.56491 -58.717976 -56.720512 8815227
129.02112 -58.802803 -56.183922 7960176
129.36845 -58.997017 -55.325356 7565675
129.13545 -59.104401 -54.043442 10787727
129.51608 -59.103123 -53.112587 8091503
129.89 -59.101849 -52.179024 6643287
130.25716 -59.100578 -51.24279 7826276
129.60555 -59.100235 -50.275803 9799551
129.95892 -59.09898 -49.341633 8484717
130.30557 -59.097736 -48.404999 10853261
130.64548 -59.096485 -47.465794 9603196
130.64378 -59.095375 -46.337151 10458247
130.411 -59.09454 -45.274944 9273977
130.72829 -59.093315 -44.335087 7959143
131.03876 -59.092094 -43.393059 7038298
131.34244 -59.090878 -42.448654 6840919
131.63928 -59.089664 -41.502274 6511954
131.37389 -59.088875 -40.45509 7103580
131.32092 -59.089695 -39.340858 7695717
131.61409 -59.096928 -38.400009 6774358
131.80058 -59.149208 -37.344021 7432289
131.93472 -59.201279 -36.445072 9867142
132.21675 -59.212799 -35.502033 14605262
132.495 -59.225639 -34.557396 13814723
132.61722 -59.281025 -33.658321 9867404
132.78004 -59.339939 -32.601368 7367013
133.04538 -59.356358 -31.654049 8484205
133.22034 -59.367931 -31.021572 9931136
145.61121 -59.161495 51.665985 9603714
145.51596 -59.091694 52.739811 10261126
145.61026 -58.982601 53.650211 11576727
145.3465 -58.982155 54.348663 9208435
146.16518 -58.980289 55.465332 10391941
145.82382 -58.979744 56.341385 11181201
146.64293 -58.977852 57.477951 8681835
146.21756 -58.977211 58.532135 6511186
146.96291 -58.975197 59.866341 7563874
146.66864 -58.974777 60.570992 9341054
146.37155 -58.974358 61.274452 9735812
147.18333 -58.972431 62.4562 10327948
146.79985 -58.97192 63.33828 9735812
147.61172 -58.969971 64.54097 9735812
147.54721 -58.789745 65.503944 9341054
147.51785 -58.540058 66.415947 8222577
128.6929 -57.767445 -57.099327 8880504
129.29068 -57.969078 -56.347031 9670022
147.78255 -57.741997 66.536552 6972513
147.39099 -57.715996 67.21492 8288371
128.44675 -56.783726 -57.898384 7892581
129.03568 -56.809933 -57.250793 9931908
129.41908 -57.017231 -56.726086 9471875
148.04726 -56.943829 66.657204 6511962
147.72089 -56.718838 67.367081 7959406
147.45981 -56.295597 68.107559 7038307
128.24706 -55.521732 -58.797348 10458249
128.62643 -55.907845 -58.180023 9142647
129.09862 -56.034946 -57.603035 8484718
148.01781 -55.821114 67.504097 9406849
147.69003 -55.597702 68.215164 9077112
128.40814 -54.721889 -59.057098 10326663
128.96332 -55.043621 -58.285362 11708315
148.24884 -55.12265 67.610748 10590604
147.98619 -54.700039 68.353531 9800833
147.6571 -54.478115 69.065811 6510930
128.10846 -53.849148 -59.852005 9339512
128.71687 -53.885128 -59.177773 9273976
129.19838 -54.208233 -58.484684 10458249
148.22745 -53.765015 68.610886 8813939
147.89316 -53.638206 69.264328 7695203
128.33998 -52.938343 -60.09594 9208437
128.93187 -53.063831 -59.391026 9274231
148.20654 -52.731068 69.38028 8155753
147.85101 -52.66177 70.028725 10458509
128.12854 -51.799744 -60.939926 9537916
128.73367 -51.981644 -60.190201 9208435
148.41113 -51.878643 69.640846 8682608
148.05544 -51.686863 70.376541 8156522
127.86708 -50.837856 -61.742027 10128515
128.44714 -50.800179 -61.138195 9537916
128.85008 -51.041172 -60.574081 9208435
148.42908 -50.796921 70.378716 6840919
147.99709 -50.776588 71.121231 11379350
127.6498 -49.599995 -62.646133 9405051
128.03708 -49.970276 -62.02882 9536637
128.57423 -49.97015 -61.450768 9537659
148.43745 -50.256279 70.748535 10853262
148.3165 -49.80014 71.276314 11840675
148.09924 -49.430351 71.905098 9011838
127.77375 -48.773376 -62.960171 9602429
128.30913 -49.011242 -62.255234 7695460
128.69788 -49.382114 -61.63607 8681843
148.59538 -48.843655 71.485542 10985625
148.19464 -48.826679 72.172966 9472388
127.6087 -47.609295 -63.768002 7959144
128.0144 -47.841896 -63.205444 9143416
128.47795 -48.143852 -62.543137 5920074
148.69125 -48.239349 71.753143 10985625
148.47272 -47.870033 72.383675 9011838
148.24889 -47.411148 73.086655 8287600
