# .PCD v0.7 - Point Cloud Data file format
VERSION 0.7
FIELDS x y z rgb
SIZE 4 4 4 4
TYPE F F F U
COUNT 1 1 1 1
WIDTH 1211
HEIGHT 1
VIEWPOINT 0 0 0 1 0 0 0
POINTS 1211
DATA ascii
137.51915 -73.980453 49.501404 9537923
137.81534 -73.978668 50.643497 9209727
137.44083 -73.977875 51.634377 9603969
137.7088 -73.976318 52.62254 9867141
137.78906 -73.789948 53.479504 9472639
137.41354 -73.799522 54.477905 10789269
137.26492 -73.519348 55.377621 10000264
137.11293 -73.279373 56.085075 9210491
137.5472 -72.715843 -5.2215958 10065291
137.81195 -72.842552 -4.485189 9603198
138.14966 -72.935341 -3.609674 10063492
138.40129 -73.13166 -2.8396001 11904668
138.02806 -73.095093 53.637207 10854036
137.83798 -72.854172 54.456165 9209468
137.51202 -72.82795 55.430096 9210235
137.22406 -72.670296 56.440117 9472895
137.55522 -71.590004 -6.2425156 10065291
137.74066 -71.904396 -5.5183873 10065291
138.20006 -71.801643 -4.5386748 11049873
138.32886 -72.236397 -3.835906 10786958
138.03804 -72.08783 54.728298 9406590
137.83226 -71.832329 55.608746 9143675
137.54997 -71.745323 56.523758 9209469
137.29262 -71.640656 57.385994 9209211
137.15727 -71.402565 58.041889 9735555
137.5036 -70.587898 -7.2887321 10853012
137.79742 -70.770691 -6.4325595 9801349
138.15585 -70.880493 -5.4927287 9341054
138.39345 -70.989876 -4.8360434 9734784
137.9156 -70.818298 56.494522 9472387
137.59137 -70.805618 57.447266 8682867
137.27142 -70.708069 58.481239 9341054
137.17824 -70.281357 59.223717 9735812
137.55084 -69.568291 -8.119772 13023917
137.71994 -69.848495 -7.4655223 10590095
138.09933 -69.89489 -6.5351124 10327180
138.31496 -70.11042 -5.8317614 9735299
138.02534 -70.210541 56.850773 8617592
137.88121 -69.894226 57.61837 9143163
137.58369 -69.872253 58.50362 9538433
137.35841 -69.668861 59.380829 9735812
137.19016 -69.535957 60.01506 9735812
137.53555 -68.530563 -9.1137104 8089963
137.67654 -68.882957 -8.4586754 10195079
138.13275 -68.779419 -7.4871664 9801092
138.31979 -69.136589 -6.7197981 10064008
137.97137 -68.844444 58.520763 9209211
137.68942 -68.745071 59.446674 10262156
137.32292 -68.779991 60.468441 10657170
137.16374 -68.400314 61.188519 10460046
137.44923 -67.677696 -10.103336 10261132
137.72052 -67.734596 -9.4163399 9208956
138.04788 -67.918404 -8.4808044 9077113
138.34769 -68.042274 -7.6651993 12169380
137.97142 -67.826485 59.648594 11183000
137.65324 -67.85643 60.536087 10986646
137.32826 -67.782005 61.341938 10065288
137.49539 -66.478302 -11.103209 9209467
137.63229 -66.885078 -10.407231 9406335
138.09462 -66.760139 -9.4411707 9537665
138.28658 -67.057709 -8.7174931 9537665
137.91574 -67.113373 60.599895 11381404
137.66733 -66.863945 61.415375 9143674
137.23357 -66.699707 62.280365 9077625
137.67885 -65.740639 -11.355314 8222062
138.00609 -65.863258 -10.476494 9603714
138.27771 -65.96701 -9.7455311 9143163
137.92027 -65.785172 61.768658 8748404
137.51088 -65.674171 62.540585 9340286
137.21147 -65.455536 63.202965 10261132
137.63559 -64.789398 -12.334944 7827822
137.98065 -64.846786 -11.474841 9011324
138.32593 -64.906891 -10.611734 10261899
137.86646 -64.786163 62.570435 9011064
137.41066 -64.770973 63.352852 9011064
137.16283 -64.474113 63.983459 9011064
137.68468 -63.665367 -13.250793 7696237
137.95197 -63.83757 -12.473997 7761773
138.21661 -64.010788 -11.694947 9340289
138.0166 -64.144318 62.772942 9011064
137.74002 -63.781754 63.499138 6774102
137.27017 -63.651932 64.386871 7498340
137.62259 -62.666401 -14.224054 8090736
137.86591 -62.900658 -13.516007 8222579
138.26746 -62.887047 -12.613721 7564649
137.95059 -62.835987 63.815681 7695463
137.5453 -62.743938 64.567696 9209984
137.13971 -62.653629 65.319221 10920854
137.63901 -61.55677 -15.117217 7038307
137.84456 -61.821457 -14.469598 7696236
138.21562 -61.995876 -13.543888 8748661
137.90695 -61.871193 64.577087 9802119
137.49237 -61.767574 65.353325 11052440
137.14772 -61.488567 66.136124 9801862
137.62314 -60.590199 -16.286575 9997960
137.88196 -60.79591 -15.440909 9143166
138.23573 -60.889198 -14.557907 8814202
138.38576 -61.214695 -13.854014 8617331
137.78 -60.861191 65.572945 9999241
137.50394 -60.554863 66.446014 8485745
137.15926 -60.266586 67.437477 7564643
137.49773 -59.475655 -19.121954 8682867
137.83475 -59.476192 -18.409653 8551282
137.85214 -59.736824 -17.487934 8156268
138.0468 -59.971443 -16.503134 8814455
138.25366 -60.157692 -15.74271 9143166
137.93613 -59.95673 66.589012 10262156
137.59613 -59.767689 67.448891 7959401
137.50148 -59.517437 68.295555 7762023
137.26367 -59.32859 69.349792 11049871
137.59453 -58.498295 -40.208778 10261132
137.78534 -58.654747 -39.476841 8222060
138.01242 -58.763786 -38.490631 7893095
138.15434 -58.887405 -37.556965 9142906
138.1805 -59.047676 -36.544258 9866629
138.30786 -59.086052 -35.427689 15130582
138.03323 -59.085186 -34.479942 13354429
137.75221 -59.084332 -33.535603 8223090
137.98526 -59.082813 -32.542885 12762802
138.21129 -59.081303 -31.548567 11315359
138.43004 -59.079792 -30.552557 8684155
137.61461 -59.07967 -29.685829 8946556
137.81995 -59.078182 -28.694288 8682100
138.05025 -59.076458 -27.535542 10194823
138.27118 -59.074741 -26.375025 9669251
138.42307 -59.073517 -25.544912 9011579
137.61691 -59.073223 -24.548685 8485494
137.78522 -59.071781 -23.557169 9603969
137.94627 -59.070343 -22.564491 9932934
137.95186 -59.101284 -21.463858 7367775
137.97473 -59.153736 -20.536446 6710357
138.07671 -59.242649 -19.621883 7038810
138.18369 -59.336323 -18.707926 7893096
137.8196 -59.130318 69.634369 9471613
137.44193 -59.077515 70.694786 12694440
137.5723 -58.952663 71.604462 10260868
137.13463 -58.952152 72.428741 9340022
137.80511 -58.949837 73.640579 10590089
137.35492 -58.949333 74.465942 9603200
136.99162 -58.94894 75.12455 9406078
137.65344 -58.946606 76.359009 9406078
137.18724 -58.946121 77.183685 10129545
137.75124 -58.943676 78.603409 8419701
137.17479 -58.943115 79.593208 10129545
137.82874 -58.940746 80.869637 9011574
137.43413 -58.940384 81.530182 9932418
137.54199 -58.646011 82.570869 9735039
137.14545 -58.438492 83.309303 8353390
137.63885 -57.408905 -41.298428 11379348
137.76358 -57.732765 -40.572018 9142903
138.06349 -57.793991 -39.628124 6774870
138.36269 -57.85767 -38.68367 9274493
138.48511 -58.186615 -37.95813 7761509
137.89175 -57.957169 82.707375 9011574
137.45538 -57.719078 83.347855 8353904
137.01875 -57.482292 83.987885 8287592
137.79097 -56.810429 -41.524208 11379348
138.10092 -56.884762 -40.536293 7958886
138.41006 -56.961769 -39.548004 6906456
137.67593 -56.779926 83.612755 8156785
137.19011 -56.603882 84.276199 7761766
137.65068 -55.59964 -43.288403 7038307
137.83356 -55.921379 -42.394623 8485229
138.13629 -55.977982 -41.447697 10392710
138.38936 -56.110363 -40.561054 7695714
138.56332 -56.361996 -39.77153 6511954
137.49356 -55.723896 84.411865 8025199
137.13467 -55.466419 84.97287 8287592
137.66457 -54.639202 -44.322521 12433069
137.84241 -54.883305 -43.530323 9341058
138.17624 -54.892952 -42.545307 8945523
138.43089 -55.02282 -41.656784 10655626
137.70709 -54.779045 84.68821 9340801
137.21873 -54.605801 85.353172 11379612
137.69846 -53.562088 -45.428909 7695974
137.87787 -53.804066 -44.634521 9998727
138.21338 -53.811058 -43.647491 9340797
138.46965 -53.938492 -42.756947 11181204
137.54152 -53.742451 85.456993 11248283
137.12016 -53.444607 86.113098 13024949
137.74174 -52.726288 -46.237812 9143166
137.90541 -52.906918 -45.558186 7104094
138.25751 -52.937744 -44.495979 8156523
138.53923 -52.978027 -43.628735 8485488
137.7753 -52.781033 85.718971 9406846
137.28552 -52.597355 86.391281 9011576
137.74904 -51.77272 -47.283714 10261132
137.93103 -52.011471 -46.485394 9340545
138.26932 -52.014248 -45.494827 6643543
138.44975 -52.256214 -44.697544 8485488
137.58275 -51.697662 86.545113 8551798
137.14365 -51.562599 87.131371 7893355
137.71458 -50.726582 -48.554733 9208443
137.95935 -50.939194 -47.602436 9340286
138.29938 -50.939556 -46.609653 9603458
138.48128 -51.179611 -45.810074 8288112
137.78902 -50.862499 86.769035 8684155
137.36011 -50.68494 87.367058 9341314
137.65018 -49.51783 -50.095543 10854036
137.79176 -49.769566 -49.400387 8945271
138.0612 -49.868473 -48.503323 9142650
138.36847 -49.911674 -47.558147 9143163
138.48827 -50.224529 -46.85828 9011576
137.53668 -49.838116 87.631981 12301997
137.1286 -49.653252 88.209854 13420219
137.67094 -48.452328 -51.227081 9209467
137.80864 -48.759991 -50.480862 11511708
138.12303 -48.799221 -49.519268 8879478
138.43663 -48.840492 -48.55785 9208443
138.57202 -49.152081 -47.814007 9011576
137.83121 -49.048244 87.727898 11184031
137.46098 -48.674217 88.366821 14737108
136.93565 -48.595177 89.02243 8814453
137.77322 -47.882355 -51.56625 10129542
138.08354 -47.910824 -50.628567 9077367
138.42822 -47.905128 -49.628788 9274745
138.59648 -48.081367 -48.940624 9932161
137.55998 -47.822742 88.724632 12894650
137.17558 -47.668018 89.258186 9275262
137.71017 -46.68317 -53.128914 8682867
137.85042 -46.929916 -52.425415 9208697
138.12372 -47.023804 -51.521351 9471869
138.40492 -47.118332 -50.585258 9668991
138.55394 -47.369221 -49.861393 8090987
137.51715 -46.667969 89.46283 7959662
136.96968 -46.784832 89.988609 12368043
137.85237 -45.762669 -54.324802 11905951
138.07861 -46.036488 -53.523571 9537918
138.3343 -46.122589 -52.608685 10984337
138.46425 -46.346848 -51.711018 8682867
137.35397 -45.856083 90.481148 8288369
137.07896 -45.473118 91.250954 7564648
138.01161 -44.422268 -57.078037 8089963
138.25203 -44.511486 -56.402802 8550513
138.03107 -44.804741 -55.467476 9997700
138.23679 -45.156288 -54.618816 11905438
138.56067 -45.389511 -53.646095 10919057
137.6911 -45.127277 90.94413 7564648
137.32686 -44.962994 91.561127 8419700
137.30002 -44.594639 92.360069 7498854
137.07671 -44.448513 93.173737 9077625
137.98648 -43.766693 -65.23233 8879993
138.24876 -43.910645 -64.749199 9669766
138.47046 -44.121326 -63.777637 8616563
137.86626 -44.11945 -61.711601 11314588
138.37451 -44.117397 -60.551083 9077625
137.93767 -44.15387 -58.405823 11774110
138.28197 -44.252094 -57.576653 11049875
137.70161 -44.208927 93.603043 11380380
137.37575 -44.115074 94.434914 9538176
137.21362 -43.94054 95.465889 8485232
137.84856 -43.919987 97.403435 10853012
138.08748 -42.93008 -65.550705 8353391
137.9366 -41.752003 -66.258919 9142906
138.40283 -41.909325 -65.768768 8550514
138.18001 -40.860477 -66.477814 9669507
138.52135 -41.159492 -66.029305 9537665
137.95064 -39.686535 -67.253578 9933191
138.30348 -40.093903 -66.742065 10064777
138.1577 -38.82206 -67.49147 9341310
138.60091 -39.257576 -66.885971 7564643
137.84341 -38.022903 -68.159843 11117977
138.33824 -37.890091 -67.785828 14341833
138.16389 -36.832756 -68.455971 9406847
138.53271 -37.340458 -67.881248 12960181
137.8989 -35.746685 -69.220581 8617331
138.33568 -35.920609 -68.74836 7762022
138.06238 -34.955532 -69.45845 7894120
138.58904 -35.058773 -68.943802 7038298
137.85936 -33.648464 -70.240211 7894120
138.32938 -33.934513 -69.697159 9276029
138.0574 -32.867924 -70.424652 8551796
138.4803 -33.138638 -69.929932 9736836
137.94604 -31.561865 -71.121239 7564643
138.298 -32.018482 -70.603462 8156781
138.15353 -30.768005 -71.347969 8748917
138.49901 -31.104597 -70.846436 8617331
137.95291 -29.812836 -72.245361 10064777
138.26735 -30.089823 -71.790947 10393485
138.16837 -29.126753 -96.567314 7564898
138.24686 -29.02256 -95.3965 9407614
138.30844 -28.940369 -94.465416 8092011
138.38763 -28.862982 -93.551682 7564392
138.46686 -28.786745 -92.643112 8090479
138.54303 -28.711071 -91.737549 6511962
138.63388 -28.617167 -90.610107 12299684
138.72031 -28.524038 -89.486938 8946039
138.76999 -28.468485 -88.815285 8090995
138.14886 -28.915911 -73.515846 9932678
138.32227 -29.373917 -72.578568 10525071
138.01999 -27.578112 -75.39846 9274492
138.11166 -27.914917 -74.506653 9932166
138.50053 -28.181477 -73.804222 9603201
138.26926 -27.117296 -76.611664 9603457
138.4173 -27.274765 -75.829521 9471871
138.49551 -73.612122 -2.1756034 10855060
138.65401 -73.746941 -1.4698552 9407358
138.79675 -73.765495 -0.51300764 8749684
138.92082 -73.832443 0.48746526 10065035
138.92892 -73.966782 1.4402615 9276034
138.86765 -74.037834 2.4872704 8157555
138.84081 -74.036606 3.4869442 10656657
138.80679 -74.035393 4.4864149 12300709
138.97528 -74.034042 5.411839 9471613
139.12897 -74.032486 6.5059237 8880246
139.07306 -74.031288 7.5074134 9011832
139.00999 -74.030106 8.5084343 9538434
138.93976 -74.028938 9.5089836 10985622
138.86217 -74.027779 10.508996 12169638
138.77747 -74.026619 11.508438 9274487
138.68549 -74.025475 12.507242 9603193
138.58632 -74.024345 13.505342 10458246
138.80365 -74.022705 14.606063 10525328
138.77985 -74.021553 15.547899 9275777
139.07184 -74.01989 16.598225 9539206
138.94313 -74.018791 17.598972 11315100
138.80719 -74.017693 18.598782 8090730
138.66402 -74.016609 19.597654 9275262
138.51369 -74.015541 20.59539 9933193
138.69881 -74.014084 21.578955 9275520
139.07605 -74.012611 22.394087 13748161
138.90549 -74.011566 23.394753 9932938
138.72774 -74.010513 24.394146 7564651
138.54274 -74.009491 25.392265 7695463
138.76678 -74.007874 26.470827 7103067
138.98242 -74.006256 27.553968 9208187
138.77464 -74.005249 28.553808 9010808
138.5596 -74.00425 29.552109 9011321
138.54633 -74.00296 30.596268 7827819
139.01962 -74.001381 31.405914 9012863
138.784 -74.000404 32.405941 12631473
138.54115 -73.999443 33.404198 7368040
138.81085 -73.997795 34.462437 7630441
138.87032 -73.996269 35.614929 9144446
138.60426 -73.995338 36.613762 10525326
138.54146 -73.994087 37.669136 10985876
138.98497 -73.992508 38.511993 10130569
138.69801 -73.991592 39.51162 10656915
138.40392 -73.990692 40.509113 9209467
138.83644 -73.989098 41.365257 11379864
138.7392 -73.987885 42.429268 9866117
138.42403 -73.987007 43.426991 7432032
138.73813 -73.985435 44.385654 7760740
138.72716 -73.984215 45.366081 8681581
138.57487 -73.982941 46.519749 11576471
138.69028 -73.981789 47.334846 10260614
138.66122 -73.980591 48.321243 8681843
138.68146 -73.898766 49.581333 9537152
138.81892 -73.798065 50.56337 9208699
138.51569 -73.769379 51.474171 10196106
138.25453 -73.684387 52.325611 9406590
138.49506 -72.531914 -3.1742682 10786958
138.69348 -72.792206 -2.4698696 9931908
138.99123 -72.872025 -1.5620832 9274236
139.22089 -72.895828 -0.51338887 10130313
139.31071 -73.161926 0.32283664 9144448
139.0638 -73.180679 50.539806 9208443
138.87033 -72.853172 51.464836 9142906
138.54816 -72.817894 52.437916 8814453
138.27654 -72.704063 53.351883 9867141
138.49107 -71.460327 -4.1731415 10786958
138.62816 -71.831062 -3.5101886 11115666
139.08278 -71.799835 -2.4759326 8945014
139.27533 -72.099556 -1.5839901 8681843
139.36111 -72.315323 -0.84842634 9405822
139.045 -72.039185 51.863659 9208443
138.90805 -71.712685 52.62344 8814456
138.58237 -71.727638 53.5509 9472383
138.3322 -71.586006 54.43343 9406590
138.1778 -71.326164 55.169827 9406590
138.66862 -70.764854 -4.4002447 10326922
139.00993 -70.85479 -3.5190711 9208955
139.27861 -70.983345 -2.7721186 9208443
138.99051 -70.753639 53.450748 11183002
138.6703 -70.732338 54.402626 9406590
138.31206 -70.753654 55.417267 9538178
138.13716 -70.577415 56.120296 9735302
138.6055 -69.768494 -5.4681177 9735300
138.93433 -69.917702 -4.5612803 10261644
139.25781 -69.97905 -3.7482524 9932679
139.10303 -70.14399 53.802418 10591124
138.91104 -69.902916 54.626923 9735556
138.63501 -69.79393 55.547989 8946300
138.30553 -69.768898 56.529491 9012093
138.16171 -69.451614 57.297241 9735302
138.57759 -68.831917 -6.3982234 9735299
138.98772 -68.785194 -5.4823933 10919317
139.26402 -68.996132 -4.6414104 10459023
138.97594 -68.896332 55.556557 7565675
138.78073 -68.658737 56.384518 8748921
138.4183 -68.684418 57.404808 10590094
138.22087 -68.450706 58.234978 9340539
138.60802 -67.669205 -7.4008312 13090735
138.90602 -67.863945 -6.5241189 8025965
139.25049 -67.942726 -5.6458926 8946039
139.00006 -67.769821 56.734829 7697003
138.73885 -67.726051 57.539127 9537917
138.37439 -67.754456 58.562206 9077624
138.1946 -67.583298 59.272205 9340539
138.54352 -66.751534 -8.3991423 10130568
138.84169 -66.892166 -7.5720649 11446683
139.23357 -66.897476 -6.6507831 8092019
138.96312 -67.05571 57.633049 8090987
138.81659 -66.740311 58.406414 9603711
138.44975 -66.817047 59.382835 9801603
138.16566 -66.718544 60.314049 12368299
138.53944 -65.797417 -9.2899323 9011577
138.8674 -65.790108 -8.5297232 8091246
139.19891 -65.973633 -7.5850406 9604998
139.0327 -65.90007 58.712059 8880245
138.80112 -65.717514 59.584595 8815734
138.46359 -65.747429 60.528023 13026486
138.26067 -65.567406 61.283722 10131082
138.58234 -64.599037 -10.296288 8946296
138.77553 -64.941269 -9.5284624 8682868
139.23761 -64.828827 -8.5518789 9012347
139.38365 -65.177147 -7.888721 9868169
138.86777 -64.773468 60.437679 10065801
138.52203 -64.761047 61.400723 9013117
138.15089 -64.677567 62.16629 8880249
138.48706 -63.760864 -11.293175 9077372
138.81628 -63.746357 -10.536624 8946296
139.15019 -63.919949 -9.5955839 9143675
139.29071 -64.326904 -8.891078 8617331
138.97272 -64.170166 60.802696 10065801
138.80641 -63.853195 61.578129 9802634
138.36369 -63.73 62.48027 9736328
138.08693 -63.366596 63.207245 7760997
138.52316 -62.577721 -12.301346 7893613
138.71912 -62.91111 -11.535205 8222321
139.15347 -62.865513 -10.561668 8946296
139.33092 -63.130325 -9.9020786 8617331
138.75479 -62.801392 62.478893 11381152
138.30757 -62.698303 63.309227 8222576
138.50787 -61.649319 -13.19453 7564642
138.75189 -61.780178 -12.503046 8090986
139.12155 -61.856613 -11.56803 9011832
139.31868 -62.190903 -10.79846 9077369
138.89427 -62.056732 62.772621 8684155
138.59132 -61.839417 63.440399 8287856
138.21078 -61.715733 64.173264 9341313
138.60381 -60.516502 -14.379315 8090736
138.73 -60.890594 -13.509245 7433056
139.11162 -60.868465 -12.661035 7433056
139.32806 -61.133003 -11.753464 7630179
138.87421 -60.928421 63.65226 9142651
138.4839 -60.732235 64.555077 9209214
138.28172 -60.408432 65.324409 9538691
138.53502 -59.413219 -17.402639 7432289
138.75117 -59.462589 -16.584585 9077882
138.79224 -59.719009 -15.529218 9143677
139.03491 -59.895538 -14.591126 7367013
139.22067 -60.179695 -13.665007 6511954
138.9351 -60.009369 64.819061 8089963
138.68871 -59.821423 65.518974 8222062
138.50319 -59.56575 66.42514 8880504
138.32196 -59.355625 67.395821 8156780
138.57751 -58.560944 -37.269871 6510930
138.76636 -58.723461 -36.536709 8616562
139.05779 -58.785583 -35.616661 11511711
139.13335 -58.917015 -34.572533 14143945
138.97964 -59.066669 -33.564655 8289141
139.02661 -59.081448 -32.432167 15064533
139.25177 -59.079922 -31.430323 15064533
139.43401 -59.078655 -30.594254 9208443
138.64163 -59.078293 -29.55505 9997186
138.84604 -59.076797 -28.556084 9076601
139.04318 -59.075306 -27.555685 9603200
139.23311 -59.073826 -26.553789 10984852
139.18982 -59.072464 -25.424547 10458765
138.62689 -59.071819 -24.381229 10920086
138.79393 -59.070366 -23.382452 10065035
138.95378 -59.068924 -22.382515 8157041
139.10628 -59.06749 -21.381413 6578517
139.25163 -59.066059 -20.379248 6512978
139.05809 -59.090778 -19.399288 6906200
138.78458 -59.177204 -18.616995 7300702
139.05 -59.235085 -17.634171 7037274
139.31143 -59.294247 -16.648897 8485749
138.88214 -59.157257 67.672569 10262156
138.63219 -59.099358 68.483047 8222579
138.4959 -59.000122 69.457298 7564651
138.17694 -58.953407 70.446358 13154991
138.86496 -58.951084 71.648384 9340022
138.42665 -58.950562 72.480217 8089955
138.07289 -58.950142 73.144005 9340022
138.75258 -58.947807 74.368813 10195076
138.20659 -58.947205 75.365898 10261129
138.7897 -58.94474 76.778259 10853012
138.32057 -58.944252 77.609535 9077372
138.60788 -58.941486 79.542587 9340289
138.12247 -58.941021 80.372902 9406078
138.57764 -58.640381 81.442665 10524298
138.14088 -58.384583 82.179832 9735039
138.62691 -57.462646 -38.35461 7761509
138.78424 -57.759251 -37.563377 6379856
139.08357 -57.864151 -36.572453 9472124
139.33774 -57.991348 -35.688293 8353903
139.46468 -58.267464 -35.00882 16248807
138.7468 -57.887165 81.714775 10458505
138.26576 -57.74408 82.390297 10458505
138.65819 -56.73262 -39.080067 9011320
138.87575 -56.792171 -38.378521 7432800
139.20642 -56.769405 -37.438835 5393730
139.45604 -56.911354 -36.551399 10788237
138.88712 -57.225044 81.948692 9932419
138.53091 -56.840591 82.583603 9340798
138.18124 -56.490791 83.185074 9209470
138.62445 -55.757984 -40.269238 7761509
138.82779 -55.966446 -39.442413 7103835
139.14857 -55.927155 -38.550076 7038042
139.42664 -55.928394 -37.737213 5393730
138.82701 -55.797173 82.818611 9735812
138.3255 -55.757793 83.424339 8617335
138.66618 -54.669682 -41.365231 11379348
138.84174 -54.919769 -40.573055 7761507
139.17342 -54.93692 -39.585629 7432801
139.42601 -55.073593 -38.69561 7958889
138.60063 -54.880108 83.591721 8354164
138.18309 -54.570641 84.249847 9209470
138.7052 -53.584576 -42.465633 10523531
138.9169 -53.797592 -41.609215 11707291
139.25269 -53.848576 -40.572235 9735040
139.45126 -54.077091 -39.736935 10261640
138.88467 -53.97377 83.764633 8288371
138.44293 -53.738503 84.409607 9143676
138.00101 -53.504398 85.054199 10985111
138.72966 -52.862839 -43.201752 9011063
139.03181 -52.751797 -42.444103 9339515
139.33717 -52.808388 -41.489582 8418671
139.46489 -53.131466 -40.755116 9340795
138.66905 -52.876522 84.625275 9867398
138.24655 -52.577034 85.283615 9735812
138.6855 -51.900974 -44.406895 9143418
138.94379 -52.026936 -43.51215 9998214
139.342 -51.858086 -42.538799 9931395
139.50368 -52.044708 -41.857986 7563619
138.55582 -51.721046 85.39917 10064521
138.04993 -51.687344 86.006905 9209467
138.71735 -50.823528 -45.5196 7893613
138.97722 -50.947247 -44.6227 8025456
139.315 -50.954601 -43.62841 10130569
139.4946 -51.200237 -42.82933 11050643
138.67583 -50.91938 85.70488 9210242
138.26108 -50.589161 86.371269 9276292
138.677 -49.509567 -47.107498 9340286
138.81645 -49.765865 -46.413723 9143163
139.08356 -49.870861 -45.516525 9143932
139.38861 -49.920582 -44.57053 8683640
139.50621 -50.238129 -43.872005 9012603
138.60126 -49.741219 86.446297 9670793
138.09192 -49.602036 87.116669 9473671
138.70285 -48.437347 -48.231621 9340286
138.83813 -48.749741 -47.487324 9340286
139.15018 -48.795441 -46.52536 9406079
139.41209 -48.917412 -45.624279 9473409
138.72012 -48.966568 86.738281 10328723
138.3199 -48.583256 87.417282 10921117
138.80725 -47.865711 -48.56654 9011575
139.11523 -47.900375 -47.6287 9340541
139.42252 -47.936947 -46.690842 9274748
138.64124 -47.681396 87.544228 8617595
138.13075 -47.652431 88.154694 11841964
138.69948 -46.66069 -50.289539 9932161
138.8909 -46.909431 -49.419407 9011574
139.16064 -47.008705 -48.515411 9208954
139.40321 -47.126099 -47.665096 8748661
139.52805 -47.364056 -47.023979 7564643
138.75836 -46.879543 87.85334 7038307
138.33482 -46.661564 88.521233 8091251
138.00581 -46.257427 89.251038 7038307
138.74478 -45.70311 -52.383881 12431013
138.83272 -45.929119 -51.604507 11313046
139.10081 -46.015804 -50.622826 9603453
139.36725 -46.104263 -49.641872 9406074
139.50897 -46.333138 -48.69894 9800834
138.74454 -45.921043 88.786041 7038307
138.35568 -45.715946 89.479515 6775130
137.96573 -45.511719 90.173126 6511954
139.00102 -44.52161 -55.544369 7629154
139.15675 -44.665432 -54.642445 9668479
138.97289 -44.982357 -53.558842 9997701
139.18578 -45.102646 -52.59708 11970979
139.39368 -45.241447 -51.562206 10129545
139.55923 -45.367249 -50.788662 9208187
138.70636 -45.172729 89.708717 8288365
138.31554 -44.968201 90.403923 8288365
138.29684 -44.55518 91.348419 9011833
138.40521 -44.291805 92.38456 10130314
138.95316 -43.71162 -64.401886 10721680
139.2655 -43.915863 -63.737556 8221546
138.99606 -44.11924 -62.611969 7564128
139.43904 -44.117458 -61.609402 11313301
138.8734 -44.115345 -59.386497 8288622
139.29297 -44.11359 -58.384914 13352371
139.56897 -44.112423 -57.715675 10063238
139.13626 -44.27047 -56.565876 8024169
139.63338 -44.320438 -55.794861 7037274
138.40962 -44.055393 93.520226 9867141
138.08342 -43.961235 94.354111 11380380
138.55339 -43.920403 96.40802 8222064
138.0844 -43.920124 97.07225 10853012
139.19817 -42.929085 -64.566116 10392458
138.97209 -41.908916 -65.264038 9537665
139.29961 -42.126011 -64.867706 10261388
138.78281 -40.427841 -66.154068 12433069
139.22571 -40.868313 -65.546524 9669507
139.66859 -41.31097 -64.937859 8813941
138.90527 -39.805344 -66.348969 10459279
139.41068 -39.933079 -65.838448 9208956
139.16292 -38.944145 -66.540428 8156524
138.98143 -37.850842 -67.234444 8617331
139.45102 -37.92564 -66.78154 7827815
139.13255 -36.91814 -67.555191 7762278
139.67369 -37.089844 -66.991539 5920074
138.95992 -35.708981 -68.297935 11315612
139.3951 -36.037273 -67.751846 9473408
139.15958 -34.901405 -68.514595 9933702
138.92328 -33.852219 -69.214546 7894120
139.40538 -33.997936 -68.725296 9670531
139.12643 -32.820675 -69.509644 8222829
139.5683 -33.056499 -69.014351 8090987
138.8246 -31.644211 -70.313675 8090987
139.2119 -31.999857 -69.811203 9143418
139.13925 -30.863125 -70.420624 10393227
139.59813 -31.143034 -69.86573 12432295
139.14532 -29.671267 -71.386787 7893608
139.44221 -30.005388 -70.83638 9143418
138.75056 -28.703056 -73.226677 9011320
139.32446 -28.947386 -72.676193 8288628
138.84036 -29.409014 -72.003212 8617331
138.80203 -28.431688 -88.368462 11380127
138.84883 -28.376642 -87.699776 8880510
138.92302 -28.28558 -86.589012 8419957
138.99297 -28.195244 -85.482574 9209467
139.04562 -28.123573 -84.60083 9209467
139.09541 -28.052362 -83.721954 9340798
139.15359 -27.964136 -82.62764 10590606
139.20769 -27.876486 -81.537453 10590606
139.24773 -27.807055 -80.668732 9208435
139.27606 -27.755152 -80.018829 10853012
138.89583 -27.625267 -74.370026 9931910
139.20564 -27.936157 -73.537285 8945272
139.3718 -28.376228 -72.914162 7564651
138.8231 -26.970684 -76.266602 9735043
139.16257 -27.118065 -75.500832 10326668
139.41991 -27.327497 -74.648949 9471359
139.4254 -73.667 1.6629797 10262414
139.65025 -73.573639 2.5049882 10196364
139.83737 -73.684715 3.5169749 8946039
140.02393 -73.799377 4.5320983 9209211
140.1442 -73.882996 5.54739 10721678
139.96045 -74.031448 6.5492897 8880246
139.90424 -74.030251 7.5567441 9077882
139.84085 -74.029053 8.5638294 9209214
139.77007 -74.027878 9.570344 10985622
139.69209 -74.026703 10.576354 14604230
139.60683 -74.025558 11.581759 8945783
139.51434 -74.024406 12.586561 9208435
139.84972 -74.022896 13.465407 9406588
139.97083 -74.021675 14.327227 8684155
140.06715 -74.020271 15.358587 9933707
139.94737 -74.019157 16.366581 10723222
139.82027 -74.018044 17.373701 9208443
139.68599 -74.016937 18.379921 11315100
139.54436 -74.015846 19.385071 11314844
139.81493 -74.014183 20.452898 8486262
139.88109 -74.012901 21.408775 9933193
139.91292 -74.011452 22.533651 15721438
139.74136 -74.010391 23.540308 12037544
139.56252 -74.009346 24.545761 7629929
139.58684 -74.008003 25.589687 7103067
140.08916 -74.006416 26.381708 6510930
139.88976 -74.005386 27.389591 6971481
139.68311 -74.004372 28.396004 9866117
139.46913 -74.003365 29.400845 11379612
139.76924 -74.001686 30.45084 11775652
139.86201 -74.000145 31.601166 9736585
139.62494 -73.999146 32.60725 13355195
139.38066 -73.998184 33.611637 7300702
140.06027 -73.996277 34.493702 8485745
139.80232 -73.995323 35.501179 9604994
139.53711 -73.994377 36.506752 12235940
139.5788 -73.993103 37.476978 12235940
139.92775 -73.991516 38.416435 11183512
139.64149 -73.990585 39.422802 9933451
139.34798 -73.989677 40.427189 11840931
140.00053 -73.98774 41.352409 12630191
139.69302 -73.986847 42.35923 10326668
139.56578 -73.985542 43.51593 9010808
139.72453 -73.984131 44.491211 8878448
139.57991 -73.982849 45.650261 7695200
139.689 -73.960808 46.619583 8023908
139.85638 -73.745743 47.614288 10655632
139.5083 -73.747276 48.621552 9602945
139.25871 -73.686447 49.41272 10853012
139.45634 -72.364136 -0.34641588 10261898
139.52634 -72.713493 0.53920197 10393227
139.66742 -72.916573 1.4986304 10262157
139.92426 -72.840134 2.5104399 9670276
140.15585 -72.80809 3.4834743 8682867
140.24953 -73.146294 4.4554825 9077625
140.35516 -73.325546 5.2186632 10590092
140.05449 -73.167931 47.682423 10851980
139.92285 -72.832092 48.437378 8945015
139.60422 -72.787613 49.410503 10326668
139.30754 -72.684143 50.38546 9931910
139.14969 -72.415962 51.14106 9208443
139.48668 -71.621597 -1.4352262 9011064
139.62813 -71.800415 -0.51415014 9668992
139.87762 -71.766586 0.5353421 10392711
140.07681 -71.818939 1.5038224 9735553
140.21825 -72.023979 2.4681334 9274749
140.10057 -72.015541 48.830242 7037274
139.93245 -71.826256 49.527916 9274237
139.58083 -71.833076 50.539566 10392461
139.27148 -71.714935 51.567471 9668738
139.18765 -71.274963 52.299644 9208443
139.5993 -70.710121 -2.2745686 9405822
139.77477 -70.79454 -1.5215286 9800580
139.96693 -70.889069 -0.51474667 9932676
140.18816 -70.878021 0.44696093 10064260
140.3176 -71.071007 1.3382987 9209467
140.07059 -71.2509 49.7672 10919318
139.88388 -71.000389 50.58696 10655633
139.67381 -70.831573 51.383457 10195082
139.38295 -70.699066 52.37381 8946300
139.21094 -70.516663 53.07513 12433069
139.51811 -69.676208 -3.4192457 9340285
139.79405 -69.894753 -2.5711837 9340027
140.17087 -69.752975 -1.4829839 10787215
140.27892 -70.008949 -0.58277512 10261384
140.36595 -70.224983 0.15867507 10261382
139.98065 -69.857178 51.577435 9143164
139.70825 -69.740044 52.497314 8617336
139.38284 -69.706276 53.47805 9867402
139.15997 -69.512817 54.339104 8814715
139.52402 -68.692314 -4.3140559 9011321
139.84978 -68.752663 -3.4966474 8813685
140.17877 -68.905052 -2.5776176 10458250
140.31714 -69.12867 -1.8635747 9340027
139.99638 -68.821083 52.683716 7038307
139.6868 -68.833809 53.566845 8419958
139.37726 -68.811226 54.489162 10854036
139.20198 -68.632523 55.194569 8682867
139.59656 -67.536728 -5.211637 9801091
139.76903 -67.821663 -4.5451231 9011577
140.15518 -67.874039 -3.5938888 9602943
140.375 -68.094574 -2.8761811 13023917
139.99216 -68.122475 53.472668 8354165
139.75999 -67.850494 54.446484 13617081
139.39952 -67.869843 55.46814 9669761
139.20401 -67.631531 56.297974 7894381
139.49269 -66.59211 -6.3268361 8092019
139.68573 -66.898392 -5.5926657 9538431
140.15431 -66.787781 -4.5991035 9932932
140.2908 -67.213745 -3.8865304 9209467
139.98088 -66.961304 54.79253 12564394
139.78461 -66.76844 55.57415 9538175
139.48355 -66.739685 56.4772 8682867
139.28174 -66.528542 57.295174 7695717
139.48993 -65.629272 -7.2224984 9868169
139.73143 -65.779266 -6.5192771 11578012
140.09903 -65.880379 -5.5663218 9801347
140.34315 -65.983353 -4.9004102 10656398
140.0428 -65.95636 55.72678 10985620
139.86497 -65.779526 56.437355 9208699
139.50081 -65.803291 57.464783 9537662
139.22972 -65.636368 58.434216 9669503
139.08241 -65.275467 59.260521 8092011
139.53491 -64.420792 -8.2333889 9932934
139.67476 -64.832741 -7.5259914 10130827
140.07773 -64.840172 -6.576859 12235172
140.34024 -65.015823 -5.8007798 12563880
140.01929 -65.083633 56.761955 9406334
139.82008 -64.894203 57.54834 9340541
139.53175 -64.82148 58.463173 8879990
139.26183 -64.665588 59.416985 7828583
139.09181 -64.530952 60.058147 8092011
139.44032 -63.573864 -9.2366495 10854036
139.66389 -63.77404 -8.5291042 9275004
140.05315 -63.807709 -7.587831 9472640
140.24802 -64.156494 -6.8099771 9603969
140.07675 -64.083145 57.704346 8484976
139.87666 -63.84853 58.54327 8747892
139.59216 -63.746166 59.479881 7761766
139.25429 -63.727825 60.477905 9276285
139.10307 -63.416634 61.260132 11907239
139.47853 -62.380985 -10.249054 8617331
139.62117 -62.78421 -9.5430412 8354159
139.95926 -62.909309 -8.6370354 8090987
140.29024 -62.949848 -7.8257461 9011832
139.87872 -62.886467 59.60323 8879478
139.60246 -62.816223 60.480572 9077885
139.35721 -62.605808 61.423279 10065550
139.13353 -62.466728 62.076012 13551549
139.59587 -61.782734 -10.52714 7761509
139.99518 -61.764709 -9.6101217 7761509
140.27922 -62.001961 -8.7268658 7893352
139.89833 -61.986721 60.543484 8616562
139.6739 -61.696873 61.514072 8354161
139.25314 -61.653297 62.452122 10591637
139.53334 -60.428574 -12.444941 7038298
139.66234 -60.744205 -11.563637 7367007
139.93336 -60.946434 -10.619443 7761509
140.28975 -60.969799 -9.7145128 10129546
139.9028 -61.031437 61.615898 7432546
139.63805 -60.806709 62.505207 8880249
139.36697 -60.524803 63.312454 10985110
139.06354 -60.366066 64.064957 8089963
139.61182 -59.365005 -15.496205 9735812
139.82317 -59.416687 -14.670569 7564392
139.79761 -59.652431 -13.603503 6379856
139.9926 -59.814262 -12.653559 6380112
140.17804 -60.061241 -11.652922 7498593
140.3318 -60.303391 -10.817844 7761509
140.02063 -60.076115 62.881432 9208443
139.717 -59.916134 63.636101 9866630
139.43661 -59.701279 64.53022 8550770
139.36543 -59.38829 65.432098 9077883
139.55467 -58.647587 -34.320671 7565675
139.74187 -58.816189 -33.585762 7565675
140.0316 -58.885921 -32.662098 12498606
140.32468 -58.91201 -31.667555 10853524
140.22249 -59.077606 -30.499975 9011833
139.68028 -59.076893 -29.421883 9932675
139.88367 -59.075394 -28.41538 8946296
140.07983 -59.073898 -27.407421 8484720
140.26869 -59.072411 -26.398031 12168865
140.42064 -59.071171 -25.555986 11511708
139.59126 -59.070885 -24.546078 9670278
139.75945 -59.069424 -23.540295 7960176
139.92041 -59.06797 -22.533384 6116943
140.07405 -59.066525 -21.525347 5392706
140.22041 -59.065086 -20.516209 5853514
140.3595 -59.063652 -19.506042 8289138
139.75258 -59.063091 -18.487 7234653
139.69972 -59.085094 -17.373394 8222318
139.96191 -59.144909 -16.383282 9209470
140.03603 -59.238117 -15.540597 8419957
140.39017 -59.247425 -14.727517 7563874
139.9299 -59.189789 65.700699 10855060
139.67993 -59.127018 66.509766 9538947
139.43117 -59.043457 67.444916 9341311
139.19058 -58.954712 68.449265 10788247
139.89583 -58.952385 69.641182 11577762
139.46962 -58.951839 70.479248 9143681
139.12543 -58.951405 71.148117 9143681
139.82278 -58.949055 72.362907 11050900
139.29124 -58.948425 73.367737 10590089
139.89471 -58.945953 74.771599 11378324
139.43761 -58.945438 75.60952 10852494
139.0687 -58.945038 76.278084 11378324
139.75278 -58.942646 77.538208 10261132
139.18391 -58.942062 78.542419 10261132
139.77937 -58.65966 79.417313 10063753
139.24165 -58.616516 80.358078 9208954
139.63948 -57.666218 -35.171375 10458511
139.81081 -57.883686 -34.427982 9735559
140.09947 -57.997379 -33.458263 8749435
140.38007 -58.11586 -32.506744 13748673
139.88422 -57.824017 79.834908 9932419
139.49037 -57.821945 80.502914 11182228
139.05109 -57.754601 81.294189 11576985
139.69154 -56.561886 -36.25523 11182994
139.86214 -56.822933 -35.46521 9274489
140.18912 -56.853611 -34.476456 7563619
140.43697 -57.002708 -33.586365 10195334
139.75157 -56.987518 80.654991 9143417
139.39705 -56.777946 81.404121 10392713
139.07271 -56.629028 82.059105 9932419
139.61487 -55.819599 -37.309433 5393730
139.84981 -55.899052 -36.534927 10459272
140.24153 -55.747543 -35.561287 10656139
140.41226 -56.009743 -34.769501 8353133
139.70398 -55.767929 81.603867 10064007
139.33429 -55.62989 82.290199 9603201
139.66167 -54.722649 -38.400478 6182989
139.83505 -54.978794 -37.60778 5393730
140.16498 -55.003536 -36.617165 8025190
140.46329 -54.905045 -35.85664 10261637
139.48515 -54.828964 82.563942 9866373
139.1382 -54.534664 83.157768 9734787
139.75301 -53.601444 -39.388424 12892844
139.93588 -53.886463 -38.535816 10064519
140.28575 -53.909946 -37.488365 7104607
140.44858 -54.197605 -36.691193 4670782
139.76109 -53.903973 82.772346 10458254
139.36658 -53.671875 83.371231 9866117
139.60272 -52.411316 -41.158909 7563619
139.73038 -52.735126 -40.42392 9340795
140.03442 -52.796486 -39.467705 10393225
140.33783 -52.860081 -38.510872 7893865
140.46347 -53.188656 -37.776634 7565157
139.5648 -52.864521 83.588982 9603457
139.19337 -52.576206 84.181679 9208443
139.71245 -51.835468 -41.4828 8221548
140.01268 -51.884975 -40.551018 8551280
140.34708 -51.902012 -39.555756 7038298
140.50705 -52.093582 -38.874493 7038298
139.82199 -51.809872 83.875534 9405822
139.31529 -51.773567 84.48571 9011064
139.73094 -50.84631 -42.535549 10129543
139.98865 -50.976326 -41.637772 8945270
140.32446 -50.990707 -40.641308 9077881
140.502 -51.241997 -39.842026 7564642
139.62665 -50.916359 84.599449 9866629
139.20154 -50.616882 85.260796 9603713
139.69707 -49.521713 -44.116169 8288627
139.82863 -49.840584 -43.375557 10524557
140.13696 -49.895157 -42.414444 9471613
140.39528 -50.025444 -41.514656 8616563
140.57399 -50.275108 -40.713543 9735812
139.87424 -49.986568 84.827797 10129801
139.42738 -49.753826 85.477402 9208954
138.98026 -49.522293 86.126709 8684155
139.64899 -48.561226 -45.331436 8749432
139.83124 -48.804165 -44.527481 8420212
140.17078 -48.811928 -43.527687 8550771
140.43062 -48.939976 -42.625923 10458507
139.68739 -48.919533 85.638268 9932420
139.26212 -48.614647 86.302811 9932677
139.63319 -47.723145 -46.315071 9735043
139.7993 -47.904491 -45.627319 12367020
140.1403 -47.909851 -44.625896 9472384
140.44556 -47.952656 -43.686924 8814198
139.53534 -47.734703 86.473595 9735041
139.02423 -47.703789 87.085838 7828335
139.70644 -46.771313 -47.208462 8288109
139.8869 -46.964775 -46.445728 11511455
140.18881 -47.012512 -45.506542 13024950
140.42955 -47.135494 -44.656235 9011833
140.55312 -47.377773 -44.016216 7564643
139.67639 -47.000401 86.717407 8287859
139.33948 -46.666523 87.34343 7169893
139.01506 -46.307381 88.017403 7038307
139.737 -45.68716 -49.53027 9471867
139.87872 -45.916748 -48.58577 9735042
140.14209 -46.008812 -47.604229 8748404
140.32413 -46.204208 -46.618214 10458766
140.48186 -46.335361 -45.849407 10459279
139.62936 -45.965805 87.703255 7630187
139.28061 -45.698715 88.422882 8683131
139.65793 -44.562286 -54.259403 8813171
139.90298 -44.557781 -53.584274 9405822
140.11617 -44.604031 -52.514332 10129546
139.97675 -44.77264 -51.623837 8945271
139.99483 -45.013741 -50.519413 8155755
140.24336 -45.087227 -49.566959 7300703
140.44238 -45.230412 -48.53265 9932419
140.60429 -45.360313 -47.760223 8682867
139.63109 -45.092297 88.726685 10459025
139.32487 -44.84277 89.500259 9867399
139.30989 -44.447395 90.581108 8683124
139.29756 -44.252979 91.533859 8288365
140.02562 -43.82737 -63.394257 7761251
140.54549 -43.996967 -62.764812 9010549
139.87466 -44.115688 -60.603706 11774108
140.30305 -44.113911 -59.594833 8024937
140.58492 -44.112736 -58.920738 13024949
139.70563 -44.111843 -57.380466 10063238
140.04993 -44.112461 -56.543427 7300446
140.23785 -44.245689 -55.450676 7037274
140.26627 -44.352592 -54.493492 7037274
140.5126 -44.348015 -53.815449 7037274
139.4431 -43.997299 92.598305 10063750
138.94971 -43.983612 93.238144 10459278
139.71298 -43.921127 94.738342 8682867
139.25139 -43.920834 95.40773 8879992
139.73824 -43.917328 97.743301 10458507
139.38155 -43.917122 98.245667 10655631
139.77971 -42.673328 -64.175034 11378324
140.23589 -42.978802 -63.621532 9734270
140.09012 -41.816975 -64.317299 10129030
140.41142 -42.182831 -63.85392 11378324
139.93327 -40.576817 -65.061119 7037274
140.2338 -41.001537 -64.587448 8353134
140.05374 -39.823074 -65.321762 8484976
140.52707 -39.980389 -64.825264 8089962
139.7269 -38.629871 -66.193428 8813941
140.17036 -38.958942 -65.639679 9011577
139.98616 -37.765739 -66.384865 9800837
140.35966 -38.130955 -65.875526 9142908
140.28073 -36.872723 -66.559021 8682101
139.97778 -35.898033 -67.302986 8025706
140.43196 -36.025803 -66.837852 7432807
140.17107 -34.84565 -67.644684 10986647
140.62306 -35.27887 -67.032585 7038307
139.9503 -33.959087 -68.264702 14077889
140.37839 -33.972431 -67.883629 12498860
139.75427 -32.5 -69.106583 8090987
140.22015 -32.930771 -68.500801 12498089
140.68614 -33.363476 -67.893959 11708831
139.8629 -31.871346 -69.299736 8814453
140.3842 -31.986332 -68.79026 9340801
140.18658 -30.922014 -69.460152 11182742
140.42322 -31.4135 -69.018768 10261641
140.07951 -29.818991 -70.40641 11511708
140.52693 -30.16345 -69.768608 11182485
139.85565 -29.094023 -98.238235 8089963
139.89993 -29.030369 -97.521675 7564135
139.95627 -28.945961 -96.569366 9932163
140.02304 -28.864851 -95.629761 7761771
140.10172 -28.787348 -94.703743 9010550
140.19562 -28.691273 -93.550751 9208186
140.28505 -28.595894 -92.402344 8682613
140.35309 -28.520218 -91.487282 11707804
140.40228 -28.46385 -90.802971 11707804
140.03369 -28.82041 -72.193413 8814971
140.49947 -28.989584 -71.72361 8617336
140.43398 -28.42634 -90.347748 13549237
140.48016 -28.370481 -89.666534 10787220
140.55342 -28.277962 -88.534973 9735561
140.62248 -28.186129 -87.40789 13024949
140.67432 -28.113293 -86.509743 12696236
140.7233 -28.040964 -85.614716 9209467
140.75822 -27.986982 -84.945244 11512220
139.77252 -27.674086 -73.336479 8814971
140.22745 -27.985018 -72.612457 9078399
140.33629 -26.816597 -75.352928 9931910
140.1983 -27.123812 -74.416542 8747636
140.30089 -27.375938 -73.611839 9406848
140.44829 -73.38504 5.7293258 11510936
140.53389 -73.670616 6.5789037 9997955
140.71909 -73.795532 7.6050172 8879990
140.92194 -73.712357 8.635561 7761512
140.94467 -73.81945 9.5595922 7235684
140.81779 -73.990776 10.463021 12498858
140.78813 -74.024117 11.617887 7696747
140.88341 -74.022964 12.444451 8814457
141.12907 -74.021439 13.425022 9734787
141.02319 -74.020302 14.440785 9867400
140.90999 -74.01915 15.455711 11183260
140.78949 -74.018013 16.469769 13486781
140.66159 -74.016899 17.482983 10788244
140.52649 -74.0158 18.495201 13486781
140.80789 -74.014107 19.567703 9867143
141.08105 -74.012436 20.645262 7499625
140.95007 -74.011536 21.491379 12103850
140.81366 -74.010635 22.336603 15721438
140.64351 -74.009567 23.349802 14273992
140.66356 -74.008118 24.484688 9735042
140.80382 -74.006798 25.400286 8551024
140.93799 -74.005203 26.546467 7300446
140.73741 -74.004166 27.560444 7432032
140.52951 -74.003151 28.572983 8879222
140.52771 -74.001823 29.630201 10129289
141.01913 -74.000221 30.446037 10262668
140.79041 -73.999214 31.460529 9341825
140.55432 -73.99823 32.473328 8289141
140.52512 -73.996933 33.536739 8354159
140.99995 -73.995316 34.370991 9407615
140.74281 -73.994354 35.385242 8748660
140.47847 -73.993393 36.397552 10591120
140.74037 -73.99173 37.481289 10591119
140.78476 -73.990196 38.656898 9801863
140.54541 -73.989433 39.500874 7039331
140.62581 -73.98806 40.512375 10065037
140.86118 -73.986404 41.611729 10525072
140.8252 -73.874397 42.524002 8682616
140.82233 -73.732483 43.496395 9076859
140.83292 -73.728676 44.570354 8878447
140.54926 -73.75235 45.598598 7695200
140.26535 -73.651398 46.533825 6906455
140.38089 -72.437218 3.8691673 8682867
140.46352 -72.667595 4.6147532 8682867
140.62445 -72.813431 5.5677552 9997955
140.88026 -72.749695 6.5958681 11774364
141.06651 -72.873337 7.624557 9274231
141.25745 -72.848877 8.4298134 10128769
141.31407 -73.043564 9.0015259 8681835
141.14696 -73.098961 43.924236 9537665
141.03505 -73.152534 44.635036 8549739
140.9633 -72.791451 45.466743 8549739
140.6499 -72.786224 46.381096 7235163
140.33342 -72.735428 47.35482 10523015
140.20204 -72.398628 48.110134 7037274
140.43471 -71.576378 2.6893053 8024687
140.56226 -71.777084 3.5850339 8485491
140.78116 -71.779251 4.5581813 9537406
140.96935 -71.894783 5.5821595 7826789
141.19981 -71.858719 6.5434604 9866370
141.31296 -72.115639 7.4680381 8747631
141.14601 -72.020515 45.794308 8286824
140.94418 -71.863052 46.554478 8286825
140.63228 -71.822205 47.503849 9734014
140.31941 -71.784081 48.453197 7037274
140.52942 -70.673759 1.622069 9275259
140.67624 -70.827454 2.525466 8353651
140.87558 -70.884789 3.5029078 8222066
141.12462 -70.863029 4.5700259 11247769
141.26364 -71.05938 5.5093617 8221807
141.06268 -71.247337 46.895435 7037274
140.9241 -70.971825 47.603512 9010292
140.6505 -70.862495 48.518105 7103324
140.3647 -70.755653 49.465317 9867658
140.21509 -70.485237 50.1996 10919318
140.49036 -69.532227 -0.43137968 9669762
140.5905 -69.852295 0.53932679 9866882
140.78737 -69.884666 1.4645773 9735041
141.08542 -69.732124 2.5336261 8090736
141.22856 -69.93763 3.5062699 8419444
141.29872 -70.295143 4.4060478 11444892
141.02032 -69.941566 48.470005 8419955
140.77065 -69.714027 49.44672 8092019
140.41765 -69.719589 50.463696 8552056
140.22929 -69.470375 51.286766 8683128
140.45407 -68.554832 -2.2024879 11181972
140.54298 -68.765778 -1.4610338 11181972
140.7695 -68.756012 -0.47389305 9538177
140.97203 -68.802101 0.49924946 9538177
141.16525 -68.90078 1.5176307 9340798
141.3259 -68.985428 2.3685246 8814200
140.99763 -68.820923 49.781738 8092019
140.74414 -68.761742 50.582291 8486520
140.38924 -68.770309 51.601505 8354417
140.21703 -68.586044 52.305511 7038307
140.6564 -67.747375 -2.5010037 12102816
140.85303 -67.889458 -1.5313009 8418926
141.07741 -67.872597 -0.56509221 8880503
141.28384 -67.923531 0.43303347 9538177
141.3721 -68.139915 1.1804906 9538177
141.02278 -68.05912 50.555737 10393743
140.83325 -67.810226 51.381821 9999495
140.47678 -67.820663 52.403385 8288623
140.22072 -67.60347 53.386803 9406849
140.44812 -66.445282 -4.2282805 9209467
140.58516 -66.872231 -3.5137043 8748149
141.03502 -66.757202 -2.5069442 10524047
141.23131 -66.844429 -1.5771689 7695461
141.33519 -67.157097 -0.60215259 8814454
141.05765 -66.919792 51.72134 10591889
140.83493 -66.721535 52.586754 9143931
140.50711 -66.686325 53.57444 10787986
140.2449 -66.62236 54.404079 11446170
140.15556 -66.325851 54.99131 10985620
140.62206 -65.755737 -4.4584799 10393226
140.972 -65.837212 -3.5649099 9076858
141.27463 -65.969681 -2.689038 8353135
140.91321 -65.765099 53.420166 9405822
140.58963 -65.740913 54.383343 10459022
140.26491 -65.719238 55.34692 10985620
140.60109 -64.710587 -5.4726901 9537920
140.88455 -64.914497 -4.621603 10261898
141.28273 -64.968979 -3.6401792 10129289
141.02379 -65.157555 53.77343 9405822
140.88063 -64.834312 54.545898 9735043
140.54933 -64.803513 55.538574 8748660
140.26891 -64.694199 56.471172 8682355
140.5287 -63.749294 -6.5297627 9669251
140.92891 -63.745197 -5.5977635 8879479
141.21181 -63.998161 -4.7026267 9471615
141.04854 -64.027641 54.953667 8681843
140.91226 -63.784153 55.617989 9210491
140.69279 -63.62426 56.430141 9275772
140.35785 -63.644524 57.376945 9274492
140.12677 -63.457699 58.252533 9537408
140.5502 -62.642967 -7.5011134 8222573
140.83405 -62.888016 -6.6111593 8616819
141.23567 -62.882271 -5.6774368 8484721
140.97531 -62.756474 56.574287 10591630
140.64641 -62.7388 57.545498 9537664
140.27911 -62.763485 58.580963 9734787
140.09732 -62.590416 59.298809 8287341
140.53894 -61.694115 -8.4037685 7695717
140.85237 -61.791245 -7.5811772 7893352
141.21347 -61.862679 -6.6708403 8221805
141.3571 -62.274776 -5.9544106 8813686
141.08276 -62.151516 56.933735 11512476
140.87021 -62.070969 57.637989 8945271
140.72148 -61.754089 58.419357 9471616
140.35204 -61.826969 59.407677 9866117
140.14906 -61.594688 60.25238 8484976
140.49762 -60.358376 -10.321411 7761509
140.64172 -60.562298 -9.5851593 9274493
140.82971 -60.864044 -8.646636 7760998
141.1411 -60.975704 -7.7419896 7563618
141.39607 -61.068508 -6.9772301 8813942
140.95374 -60.923283 58.732655 9668994
140.7395 -60.808941 59.573448 8682099
140.46667 -60.734001 60.523998 8287597
140.32323 -60.493217 61.399719 7760997
140.12689 -60.428341 62.119507 8484976
140.92917 -59.379696 -12.393298 5524292
140.84985 -59.521317 -11.535667 6511186
140.92444 -59.772015 -10.577683 6774870
141.08783 -60.013084 -9.6138391 8221805
141.2981 -60.241295 -8.6738262 7892583
140.93683 -60.051517 60.662102 9208699
140.7386 -59.937355 61.502831 9932678
140.62273 -59.719513 62.392677 11248539
140.3027 -59.549515 63.335258 11248282
140.05295 -59.413128 64.117485 9866630
140.64995 -58.492249 -31.297832 9800580
140.91428 -58.620975 -30.382301 8946296
141.04536 -58.802589 -29.467733 8157039
141.16652 -58.918606 -28.611179 9669504
141.06409 -59.072968 -27.595236 9340027
141.25426 -59.071468 -26.578773 8089963
141.20512 -59.070091 -25.433306 8222316
140.62448 -59.069447 -24.375437 7565675
140.7914 -59.067982 -23.362261 7039073
140.92508 -59.066769 -22.51704 5721928
141.05328 -59.065548 -21.671015 5392706
141.20074 -59.064102 -20.65481 5722442
141.34079 -59.06266 -19.637535 8289138
140.81859 -59.061893 -18.537119 8946296
140.61574 -59.060814 -17.482821 9735812
140.73288 -59.059406 -16.46987 9472641
140.84279 -59.058002 -15.456088 8288371
140.8278 -59.168011 -14.361765 6905944
