# .PCD v0.7 - Point Cloud Data file format
VERSION 0.7
FIELDS x y z rgb
SIZE 4 4 4 4
TYPE F F F U
COUNT 1 1 1 1
WIDTH 1199
HEIGHT 1
VIEWPOINT 0 0 0 1 0 0 0
POINTS 1199
DATA ascii
108.79407 -28.082811 -148.9781 8485745
109.59469 -28.058985 -148.20479 7038307
110.23405 -28.04068 -147.58681 8024943
110.89354 -28.16744 -146.87518 9011579
111.62083 -28.220556 -146.13466 6050636
112.41609 -28.200071 -145.36476 6708563
113.05132 -28.184448 -144.74947 11642520
113.84425 -28.165827 -143.98097 11644066
114.63612 -28.148075 -143.21306 11644580
115.26878 -28.134653 -142.5992 7103324
115.95099 -27.903492 -142.04759 7563874
116.68819 -27.943718 -141.3038 6708566
117.47781 -28.092373 -140.45334 6313807
118.10762 -28.081732 -139.84087 5919050
118.73685 -28.07164 -139.22862 8551283
119.52265 -28.059965 -138.46367 11907753
120.30769 -28.049164 -137.6989 11710374
120.93517 -28.041224 -137.08727 9866374
121.71895 -28.032192 -136.32295 10129802
122.50207 -28.024055 -135.55873 10392202
123.12814 -28.018291 -134.94742 10260614
123.7539 -28.013081 -134.33606 9405819
124.53561 -28.007442 -133.57198 8748404
125.31697 -28.002735 -132.80782 10590096
125.94169 -27.999676 -132.19641 11773857
126.72234 -27.9967 -131.43199 8089963
127.50267 -27.994686 -130.6674 8089963
128.12682 -27.9937 -130.05557 8550257
128.75079 -27.993364 -129.44354 8747636
129.53059 -27.99382 -128.67818 7761253
130.31033 -27.995125 -127.9125 7037274
130.93408 -27.996912 -127.29961 8879479
131.71376 -28.000025 -126.5331 9405822
132.49347 -28.003992 -125.76607 8813941
133.11729 -28.007881 -125.15199 10590352
133.74118 -28.012417 -124.53753 9736071
134.52129 -28.018919 -123.76892 7235940
135.30156 -28.026318 -122.99954 8354163
135.92599 -28.032927 -122.38354 7433064
136.70679 -28.042124 -121.61278 10788246
137.48802 -28.052221 -120.8412 9472643
138.1805 -27.930502 -120.22366 8880505
138.79907 -27.852097 -119.65679 9077884
139.58188 -27.864613 -118.88237 8880505
140.3652 -27.878031 -118.10696 8354162
140.99237 -27.889479 -117.48583 7762026
141.61992 -27.901514 -116.86398 9472129
142.40503 -27.917511 -116.08553 9800836
143.19083 -27.934397 -115.30592 9669250
143.8201 -27.948612 -114.6813 9537665
144.51288 -27.744341 -114.10564 10261388
145.30135 -27.763659 -113.32218 7103835
146.09073 -27.783865 -112.53741 8353387
146.72296 -27.80073 -111.90844 9208182
147.35591 -27.818266 -111.27846 9734529
148.14809 -27.841076 -110.48956 9602943
148.94136 -27.864826 -109.69909 9340542
149.61549 -27.891672 -109.09345 7433059
150.34061 -27.928333 -108.52211 7038307
151.06763 -27.965637 -107.94907 7827566
151.94963 -28.007946 -107.20956 9932683
152.92819 -27.834112 -106.53325 9274752
153.62761 -27.867311 -105.93004 9340030
154.20959 -27.97843 -105.29884 9142650
154.83987 -28.065981 -104.67991 9603456
155.79634 -27.982759 -104.15133 7038307
156.5376 -28.002941 -103.29512 7630699
157.04308 -27.982475 -102.28503 7039331
159.75446 -27.704046 -100.53883 10129798
159.73416 -27.638433 -99.728668 10853263
101.82698 -26.779503 -154.44714 7037274
102.59131 -27.017019 -153.99678 10261388
103.60362 -27.039598 -153.5175 7234653
104.33182 -27.130302 -153.14287 9602942
117.15729 -27.446276 -141.09688 5919050
117.63057 -27.43804 -140.63676 6708565
118.26114 -27.427549 -140.02347 6708565
118.8911 -27.417704 -139.41032 7563616
119.67787 -27.406269 -138.64424 8092019
120.46393 -27.395649 -137.87849 8092019
121.09218 -27.387857 -137.26601 7301990
121.87688 -27.378992 -136.5006 7169891
122.66105 -27.371008 -135.73538 8616822
123.28794 -27.36532 -135.12321 10260614
123.91448 -27.360229 -134.51111 10260614
124.69722 -27.354717 -133.74593 8813940
125.56783 -27.204535 -132.96815 10064012
126.15962 -27.129154 -132.42596 14536389
126.94157 -27.126242 -131.66023 10457996
127.72333 -27.124159 -130.89432 8550513
128.34848 -27.123245 -130.28142 8550513
128.9736 -27.122885 -129.66833 8484975
129.75473 -27.123268 -128.90164 7564641
130.53586 -27.124487 -128.13466 8748404
131.16075 -27.1262 -127.52071 8089962
131.9418 -27.129133 -126.75288 7695204
132.72293 -27.132948 -125.98456 7432803
133.40561 -26.91851 -125.42395 9012863
134.03094 -26.922798 -124.80824 11842216
134.81282 -26.929003 -124.03796 6775390
135.59489 -26.936077 -123.26705 7564648
136.22075 -26.942421 -122.64973 6709598
136.89694 -27.01255 -121.95058 9077372
137.68384 -26.904736 -121.23345 10918799
138.40585 -26.881348 -120.53693 8419956
139.10056 -26.75956 -119.9174 8814713
139.88527 -26.77153 -119.14144 8419956
140.67046 -26.784412 -118.36449 7433060
141.29913 -26.795383 -117.74211 9012088
141.92819 -26.806908 -117.119 9406590
142.71523 -26.822245 -116.33902 9537920
143.50296 -26.83839 -115.55788 10524559
144.13373 -26.852036 -114.93197 8813686
144.76508 -26.866302 -114.30529 7826790
145.55516 -26.884951 -113.52058 7497824
146.34612 -26.904501 -112.7345 11378324
146.97968 -26.920837 -112.10456 9537147
147.61385 -26.937796 -111.47367 9734528
148.33109 -27.002182 -110.73714 9931909
149.12021 -26.935928 -109.99662 9143165
149.8851 -27.010019 -109.29034 8090992
150.68916 -26.914593 -108.71905 9341056
151.40898 -26.860283 -108.19339 9143423
152.07581 -26.983704 -107.62698 10919063
152.77045 -27.079844 -107.05923 10261391
162.41499 -27.334341 -97.651909 9208435
162.3766 -27.269287 -96.83773 9932419
165.04599 -26.983128 -94.972565 7761509
167.6404 -26.628635 -92.231201 6511954
101.19509 -25.881695 -155.10095 7037274
101.88828 -26.072571 -154.70241 9011321
102.92086 -26.064302 -154.2261 11182746
103.702 -26.22912 -153.79712 9274492
139.91046 -26.111893 -119.45267 9012091
140.6967 -26.124296 -118.67491 7301214
141.48354 -26.137512 -117.89615 8354159
142.11349 -26.148811 -117.27229 9472383
142.9017 -26.163675 -116.49139 9340798
143.69061 -26.179417 -115.70931 9735299
144.32225 -26.192711 -115.08268 9076856
144.95454 -26.206602 -114.45517 7037274
145.65102 -26.000753 -113.87667 7826533
146.44345 -26.019501 -113.0896 9668477
147.23682 -26.039093 -112.30116 9537147
147.87231 -26.055473 -111.66925 9734271
148.50861 -26.072428 -111.03638 10326668
149.30499 -26.094488 -110.24372 9405566
150.15533 -26.126459 -109.48769 9143678
150.70148 -26.152161 -109.05828 9143678
170.25812 -26.313326 -89.9804 7695716
172.8972 -26.015326 -87.952309 7563619
172.79001 -25.952219 -87.119438 10787215
175.45084 -25.67128 -85.313454 10854036
175.3264 -25.608686 -84.476723 10128513
99.839127 -24.527519 -156.27428 7367005
100.40288 -24.759054 -155.91951 8287592
101.16914 -24.994684 -155.46902 10984078
102.12109 -25.068304 -154.99728 10590351
102.90517 -25.472486 -154.4709 9537665
177.94899 -25.305544 -82.344299 14604238
180.63266 -25.006918 -80.187263 10853012
180.53535 -24.967136 -79.627831 7563619
183.20801 -24.664461 -77.413765 7762021
99.654228 -23.814425 -156.64639 6709077
100.57807 -23.87422 -156.19327 9865853
101.38998 -23.888315 -155.81047 10984078
101.955 -24.120924 -155.45468 10063488
99.016571 -22.915638 -157.30328 7498081
99.941185 -22.974342 -156.85027 7432542
100.75371 -22.987358 -156.46764 10260867
101.31934 -23.219519 -156.11165 11904668
98.16626 -21.983765 -158.07225 6510930
99.099426 -22.07106 -157.60381 6116942
100.11563 -22.085962 -157.12578 5657160
100.68211 -22.317715 -156.76956 10063488
96.876213 -20.927605 -159.09531 8681843
97.509125 -21.024265 -158.76253 8484464
98.461685 -20.891222 -158.37354 7169373
99.25071 -21.292593 -157.84598 5196611
96.152435 -19.728783 -159.91267 8288627
96.841858 -20.034063 -159.46989 8221292
97.631851 -19.953596 -159.13527 7168861
98.430573 -19.903481 -158.78439 7432544
95.465866 -18.677782 -160.65337 10262416
96.107887 -18.952618 -160.24492 8355190
97.053062 -18.91736 -159.82002 7564133
97.786346 -18.999889 -159.44629 5919562
94.410347 -17.771936 -161.50832 8682867
95.38723 -18.004395 -160.96063 10985881
96.40641 -18.013546 -160.48338 8815484
97.18013 -18.24563 -160.03059 6973278
93.800522 -17.018751 -162.09505 9011832
94.664932 -17.055099 -161.67865 9735553
95.627563 -17.152721 -161.19199 11512225
96.328812 -17.33869 -160.79118 9538950
91.865692 -15.523161 -163.84033 9341310
92.477882 -15.526321 -163.5528 7563619
93.21524 -15.882423 -162.93983 8353646
93.965889 -15.975858 -162.53238 10459275
94.913536 -16.202934 -161.92735 11314583
95.679756 -16.432707 -161.45773 10985881
90.224121 -14.649492 -165.52583 9012091
91.039024 -14.652033 -165.13487 9012091
91.795425 -14.912182 -164.45253 9341310
92.651215 -14.944779 -164.01321 7827302
93.460464 -15.092575 -163.46017 7959144
73.017021 -13.793829 -181.86705 10853012
73.656403 -13.790554 -181.57132 10853012
74.425255 -14.012591 -180.97395 7564386
75.28334 -14.010047 -180.59789 8288109
76.069275 -14.236297 -180.05057 8682867
87.512878 -14.264111 -168.13373 10787985
88.127945 -14.265113 -167.84167 10787985
88.948212 -14.266765 -167.45155 8354676
89.768463 -14.268618 -167.06055 8946556
72.290337 -12.853373 -182.58336 9735299
72.899307 -13.086418 -182.20656 9998471
73.752945 -13.082184 -181.81172 8287853
74.5242 -13.157244 -181.4232 7958888
75.212982 -13.311648 -181.04109 9405822
71.560539 -11.909823 -183.30222 10853012
72.171265 -12.143665 -182.92433 9340798
73.026855 -12.139379 -182.52867 9471875
73.799942 -12.214652 -182.13924 7958888
70.82753 -10.963278 -184.0238 9340801
71.440086 -11.197894 -183.64482 10129801
72.297668 -11.193554 -183.24821 9406081
73.072639 -11.269101 -182.8578 9603460
70.091446 -10.01344 -184.74825 8420470
70.705788 -10.248878 -184.36806 9077886
71.56543 -10.244635 -183.97044 8419958
72.342316 -10.320454 -183.57907 8419702
68.549133 -8.5844679 -186.03996 14208451
69.166756 -8.8213015 -185.65779 10458253
69.999077 -9.0567904 -185.17636 9275008
70.953453 -9.0522919 -184.7348 8551543
71.659615 -9.5278711 -184.21526 9011323
67.803795 -7.6259489 -186.77226 9208443
68.423347 -7.8637276 -186.38872 14866124
69.424408 -7.8109446 -185.94492 10195337
70.353661 -7.9752355 -185.44714 9406079
67.055176 -6.6636338 -187.50751 11906724
67.67662 -6.9025087 -187.1226 9472383
68.680168 -6.8497829 -186.67769 11708319
69.611992 -7.0148597 -186.17836 10458253
66.302956 -5.6974254 -188.24577 10460046
67.062881 -5.8883853 -187.81589 10985622
68.094353 -5.9811525 -187.29935 9603969
69.016716 -6.0098324 -186.85928 10919316
65.547333 -4.7273231 -188.98686 8814715
66.309547 -4.9192595 -188.55551 8288627
67.343842 -5.0127425 -188.03737 9603969
68.32106 -5.2038078 -187.50655 11906724
65.007019 -3.7523108 -189.62985 10064779
65.716049 -4.043263 -189.18346 9998987
66.726822 -3.9910707 -188.7348 10722709
67.351913 -4.2332153 -188.34706 11906724
64.299072 -2.9373088 -190.28642 9340797
65.093567 -3.0168672 -189.88527 9012349
65.969765 -3.0143991 -189.47914 11183260
66.596878 -3.2578144 -189.08995 9341571
65.180328 -2.2797232 -190.14134 9998985
65.838425 -2.2781208 -189.83621 11183260
105.48019 -27.745882 -152.33302 13550517
106.15334 -27.730679 -151.7485 11906469
106.79871 -27.70916 -151.12621 14077894
107.44307 -27.688246 -150.50464 8616563
108.24691 -27.663048 -149.7287 8156780
109.04936 -27.638788 -148.95377 8354159
109.69022 -27.620077 -148.33463 7301479
110.33006 -27.601971 -147.71599 7038307
111.12863 -27.580284 -146.94359 8353651
111.92586 -27.55953 -146.17201 6445392
112.5627 -27.543575 -145.55528 6971735
113.19869 -27.528225 -144.93907 8354159
113.99261 -27.509977 -144.16946 11052443
114.78542 -27.492601 -143.40047 15066331
115.41881 -27.479452 -142.78571 8748661
154.78481 -27.490341 -105.36462 8287856
155.34537 -27.521801 -104.93053 9406592
156.07045 -27.559986 -104.33391 7038307
156.78914 -27.597513 -103.73019 8814715
157.50986 -27.635742 -103.12431 8420469
158.39621 -27.681503 -102.35318 8420209
159.16476 -27.707714 -101.50353 8814452
159.59097 -27.717751 -100.97015 10129798
161.03505 -27.384253 -100.53513 8682867
161.67062 -27.409538 -99.858116 10524298
162.24121 -27.424345 -99.139259 10524039
162.45164 -27.399599 -98.468468 9208435
104.66336 -26.84247 -153.10442 11181972
105.42041 -27.080227 -152.63766 12169379
106.29265 -27.069025 -151.94872 9275006
106.93882 -27.047956 -151.3255 10261388
107.58387 -27.027515 -150.703 7563619
108.38873 -27.002882 -149.92587 7234911
109.1921 -26.979128 -149.14978 7433064
109.83368 -26.960817 -148.52963 7038048
110.4743 -26.94311 -147.91013 7038307
111.27374 -26.92189 -147.13651 9011579
112.07198 -26.901539 -146.36377 7498337
112.70955 -26.885933 -145.74614 8222574
113.34634 -26.870953 -145.12901 7565675
114.14119 -26.853081 -144.35826 8946810
114.93493 -26.836075 -143.58817 13355456
115.56911 -26.823151 -142.9725 9341055
116.20261 -26.810854 -142.35728 9998727
116.99352 -26.796274 -141.58865 7563618
117.78357 -26.782608 -140.82051 5919050
118.41493 -26.772364 -140.2063 5919050
119.04568 -26.762644 -139.59236 7563616
119.83343 -26.751436 -138.82524 8092019
120.62041 -26.741007 -138.05835 8683643
121.24947 -26.733393 -137.44508 6775134
122.03514 -26.724705 -136.67857 6511962
122.82028 -26.716888 -135.91228 7301220
123.44798 -26.711271 -135.2993 11049873
124.07529 -26.706257 -134.68637 7827301
124.85905 -26.70084 -133.9202 8090220
125.60827 -26.623829 -133.22429 8353910
126.3233 -26.475176 -132.59845 12628909
127.10629 -26.472307 -131.83171 8747894
127.8891 -26.470222 -131.06479 12037537
128.51505 -26.469282 -130.45103 9406332
129.14096 -26.468893 -129.83719 8419693
129.92323 -26.469227 -129.06956 8419693
130.70535 -26.470392 -128.30153 8222059
131.33102 -26.472002 -127.68681 8089962
132.11311 -26.474884 -126.91798 7037274
132.89534 -26.47855 -126.14874 8092019
152.46107 -26.462568 -107.57098 10261391
153.15681 -26.648973 -106.96551 8879730
153.96591 -26.721552 -106.32675 8419440
154.81 -26.811968 -105.65366 7367013
155.55859 -26.852695 -105.07468 7630185
156.30936 -26.894169 -104.4937 7038307
157.06235 -26.93631 -103.91066 7433065
157.81775 -26.979227 -103.32565 8354675
158.57094 -27.022038 -102.73563 8354159
159.31403 -27.06357 -102.13563 8090987
160.12897 -27.334612 -101.30853 10064262
165.11804 -27.069534 -96.067688 9011319
167.80627 -26.778965 -94.159645 9405304
167.7363 -26.714327 -93.331375 10128514
170.40561 -26.419863 -91.365105 8813680
170.34717 -26.377148 -90.810226 8813680
103.9584 -25.642658 -153.91336 9537665
104.80743 -25.902027 -153.41495 9472639
105.75175 -26.040049 -152.89545 8091501
106.52538 -25.963968 -152.28325 7959659
107.17275 -25.943697 -151.65839 7563619
107.88826 -25.921988 -150.96745 7037275
108.63303 -26.16338 -150.11375 6839896
109.38271 -26.098042 -149.41153 6905948
110.02528 -26.080252 -148.79012 7169634
110.66693 -26.063091 -148.16933 7498857
111.46767 -26.042454 -147.39423 8682614
112.26715 -26.022688 -146.61989 8617335
112.90572 -26.007555 -146.00107 10525587
113.5435 -25.992975 -145.38271 7565675
114.33963 -25.97563 -144.61047 7433315
115.13468 -25.959114 -143.83882 9078139
115.76984 -25.946566 -143.22203 9341311
116.40438 -25.934586 -142.60559 9142651
117.19656 -25.920465 -141.83549 8024170
117.98792 -25.907162 -141.06592 7497825
118.62026 -25.897165 -140.45056 6313807
119.40994 -25.885532 -139.6817 8616559
120.19886 -25.874697 -138.91319 9012351
120.82942 -25.866728 -138.29861 9932940
121.45953 -25.859312 -137.68419 8156787
122.24654 -25.850798 -136.91632 7367013
123.033 -25.843151 -136.14859 7827307
123.66171 -25.837709 -135.53448 8484977
124.2901 -25.832817 -134.92046 7827046
125.07518 -25.827492 -134.15294 8089963
125.85984 -25.823036 -133.38536 8156531
126.4873 -25.820045 -132.77122 8814203
127.27129 -25.817226 -132.00346 8551030
128.05504 -25.815142 -131.23552 13024943
128.68187 -25.814173 -130.62103 10261895
129.30858 -25.813786 -130.00633 9867138
130.09189 -25.814074 -129.2377 8419693
130.87509 -25.815178 -128.46872 8419693
131.50162 -25.81674 -127.85325 8353134
132.21063 -25.862923 -127.134 7038042
132.98549 -25.778873 -126.41664 7104607
133.69466 -25.826511 -125.69654 8092019
134.32141 -25.830593 -125.07953 8092019
135.10507 -25.836494 -124.30769 8814970
135.88895 -25.843231 -123.53518 8945784
136.51627 -25.849257 -122.91656 8089960
137.14381 -25.85586 -122.29754 8089963
137.9286 -25.864948 -121.5229 9932163
138.71384 -25.874813 -120.74748 9406335
139.34235 -25.883415 -120.1264 9735812
140.03203 -25.673237 -119.55679 9340542
140.81902 -25.685352 -118.77834 7301214
141.60666 -25.698351 -117.99897 8354159
142.2372 -25.709446 -117.37463 10262156
142.86826 -25.721039 -116.74955 8682867
143.65778 -25.736399 -115.96697 9209213
144.44812 -25.752542 -115.18324 8945528
145.08107 -25.766232 -114.55534 7826533
148.22575 -25.396593 -111.65791 9405566
148.70378 -25.409039 -111.18258 9010808
149.50142 -25.430513 -110.38905 8879222
150.35829 -25.46254 -109.63596 9143678
151.10347 -25.646646 -108.98186 9867399
151.75121 -25.752081 -108.4383 9011836
152.48486 -25.787201 -107.86195 8945524
153.22636 -25.823986 -107.28785 9208435
154.06929 -25.91201 -106.61672 8616561
154.99464 -25.869038 -105.94337 8287856
155.84326 -25.95887 -105.26722 8682613
156.59586 -25.998964 -104.68545 8091249
157.26367 -26.111174 -104.13451 7565675
158.03537 -26.305937 -103.46827 8091503
158.60443 -26.337833 -103.02777 8617587
173.00243 -26.078836 -88.788414 8090475
175.65523 -25.776276 -86.714394 9011320
175.57404 -25.734177 -86.152885 9932678
178.16728 -25.407175 -83.742226 15197144
102.67853 -24.579287 -154.93459 9537665
103.24347 -24.812796 -154.57851 9537665
104.05742 -24.829409 -154.19379 9800063
104.98551 -24.893637 -153.73686 8025194
105.84638 -25.090887 -153.2579 5394762
108.39783 -25.467772 -150.69885 6510930
108.88164 -25.453972 -150.23117 7235168
109.52591 -25.436052 -149.60822 6971998
110.16925 -25.418638 -148.98586 7564651
110.81168 -25.401926 -148.36406 8288115
111.61333 -25.381714 -147.5878 9932420
112.4137 -25.362421 -146.81233 8419440
113.13918 -25.199551 -146.18352 10854552
113.84677 -25.06711 -145.55678 8749435
114.59232 -25.139032 -144.78864 8486519
115.33479 -25.080307 -144.0901 7827814
115.97102 -25.068104 -143.47206 6775126
116.71198 -25.01088 -142.77426 9011320
117.45333 -25.085651 -142.00877 7958377
118.19269 -25.029821 -141.31181 8418928
118.82607 -25.020172 -140.69531 7563616
119.61703 -25.008837 -139.925 7498594
120.40728 -24.998325 -139.15508 8946299
121.03889 -24.990524 -138.53934 12893621
121.67001 -24.983332 -137.92377 8156787
122.45839 -24.975056 -137.15454 6840927
123.24612 -24.96759 -136.38541 7300706
123.87592 -24.962322 -135.77025 10260359
124.50539 -24.9575 -135.15506 11445658
125.29179 -24.952305 -134.38615 8945527
126.07782 -24.947916 -133.6172 7827307
126.70634 -24.945023 -133.00201 7564651
127.49171 -24.942232 -132.23291 9011839
128.27679 -24.940189 -131.46364 8814707
128.90472 -24.939192 -130.84801 6643540
129.53255 -24.938778 -130.2323 6643540
130.3172 -24.93899 -129.46233 10985105
131.10181 -24.940016 -128.69205 9998212
131.72943 -24.941448 -128.07549 9734271
132.35712 -24.943453 -127.45865 7300957
133.14172 -24.946722 -126.68718 7827302
133.92647 -24.950813 -125.91517 8092019
134.55435 -24.954693 -125.29711 9342084
135.33946 -24.960356 -124.52397 8353905
136.12474 -24.966772 -123.75019 8089960
136.75323 -24.972572 -123.13057 8681840
137.38194 -24.978928 -122.51047 8221548
138.16821 -24.987638 -121.7346 10392456
138.95486 -24.997175 -120.95786 7827049
139.58458 -25.005423 -120.33576 8879480
140.21461 -25.014244 -119.71313 10392461
141.00278 -25.026051 -118.93376 8156267
141.7915 -25.038656 -118.15343 9604226
142.42302 -25.0494 -117.52834 9933191
143.12405 -24.928989 -116.90177 8617078
143.90843 -24.855045 -116.16979 8814458
144.70035 -24.870674 -115.38484 9800323
145.33452 -24.883778 -114.75591 9668478
145.96936 -24.897476 -114.1261 8089704
146.76375 -24.9154 -113.33749 8616047
147.55913 -24.934128 -112.54751 9997186
148.1904 -24.860428 -111.96569 10260358
148.89932 -24.744453 -111.3291 9537152
149.5383 -24.761078 -110.69368 9010808
150.38048 -24.789558 -109.92852 8748151
151.2928 -24.829947 -109.21052 9538434
152.02573 -24.863167 -108.63478 10787985
152.76163 -24.897139 -108.058 11709087
153.50533 -24.932724 -107.48345 10129795
154.25214 -24.969128 -106.90779 9471864
155.00107 -25.006157 -106.33022 7827562
155.86911 -25.277594 -105.55701 9274236
180.77715 -25.066849 -81.028931 9208187
102.49655 -23.86389 -155.30629 9800576
103.4241 -23.925953 -154.85052 10523273
104.23959 -23.941938 -154.46532 9734013
104.80596 -24.176472 -154.10812 7958629
124.03687 -24.30455 -135.94734 10260360
124.66712 -24.299852 -135.33138 16248798
125.45454 -24.294727 -134.5614 8089963
126.24154 -24.290436 -133.7914 7827307
126.87086 -24.287592 -133.17538 7827823
127.65727 -24.284767 -132.40527 11051675
128.44341 -24.282778 -131.63496 5920074
129.07222 -24.281782 -131.01863 5920074
129.70082 -24.281338 -130.40208 7367262
130.4865 -24.281464 -129.6311 14406082
131.27216 -24.282473 -128.8598 11905954
131.95776 -24.064281 -128.29825 10787473
132.58653 -24.066183 -127.68034 8879475
133.3726 -24.069271 -126.90754 7827044
134.15872 -24.073164 -126.13421 8092019
134.78773 -24.076866 -125.51515 7695719
135.49957 -24.125759 -124.79187 7760997
136.27837 -24.043701 -124.06944 8681840
136.99063 -24.09399 -123.34497 10260870
137.6205 -24.100042 -122.72385 8681841
138.40826 -24.108423 -121.94672 10326663
139.20651 -23.833559 -121.30338 7826790
139.88811 -23.905136 -120.59816 8221549
140.51967 -23.913511 -119.9742 9010808
141.25479 -23.979315 -119.21944 8024426
142.05017 -23.87265 -118.49332 8485488
142.73337 -23.946974 -117.78512 8682866
143.36023 -23.868841 -117.20982 7564647
144.14633 -23.794064 -116.47658 7564651
144.93359 -23.71978 -115.74192 9669509
145.65207 -23.778349 -115.00721 11049617
146.28847 -23.791405 -114.37615 8156523
146.92546 -23.804932 -113.74418 8682611
147.7227 -23.822704 -112.95288 8747891
148.521 -23.841255 -112.16016 9405307
149.16054 -23.85668 -111.52481 10853012
149.8008 -23.872677 -110.88843 10063494
150.46777 -23.893291 -110.26977 9668735
151.38297 -23.932262 -109.55196 7565675
152.30092 -23.97213 -108.8317 9933191
152.95381 -24.076635 -108.28601 11380122
153.715 -24.26302 -107.6305 9800830
101.86098 -22.961382 -155.96375 10984078
102.78918 -23.022221 -155.50819 9866882
103.60514 -23.037058 -155.1232 10851980
104.17218 -23.271168 -154.76591 10851980
145.2063 -23.101486 -115.78926 11182231
145.84302 -23.113619 -115.15829 12432037
146.48032 -23.1262 -114.52648 9537918
147.11835 -23.139427 -113.89377 9537918
147.91682 -23.15662 -113.10162 9142392
148.71629 -23.174593 -112.30795 8616049
149.35686 -23.189617 -111.67188 9997702
149.99811 -23.205137 -111.03472 10590091
150.67131 -23.22595 -110.4192 9340027
151.40445 -23.256096 -109.84467 7565675
101.01221 -22.025326 -156.73366 8090470
101.94868 -22.114801 -156.26279 10852493
102.96909 -22.131857 -155.78197 10129799
103.53679 -22.365461 -155.42447 10261385
99.645065 -20.664804 -157.91472 4078901
100.3343 -20.972412 -157.47108 4078901
101.31459 -20.930702 -157.03253 8353388
102.10468 -21.334665 -156.5034 10721165
99.002922 -19.76111 -158.57567 5920074
99.73661 -19.845011 -158.20117 4012852
100.55365 -19.855675 -157.81743 4012852
101.28857 -19.940493 -157.44203 5985613
98.358955 -18.856653 -159.23779 6511955
99.09346 -18.939819 -158.86325 5920074
99.911026 -18.949556 -158.47957 4802109
100.64663 -19.03363 -158.10416 4472374
97.265083 -17.797092 -160.17143 7563619
98.244064 -18.031696 -159.62227 6972249
99.266731 -18.042618 -159.14288 6117453
100.04214 -18.276525 -158.6888 6183246
96.657532 -17.041435 -160.75816 8683128
97.524391 -17.079248 -160.34003 8945272
98.489609 -17.178627 -159.85139 8089962
99.192223 -17.366129 -159.44934 7761253
94.724571 -15.539405 -162.4962 12235684
95.337975 -15.543463 -162.20735 9538175
96.074516 -15.901486 -161.59537 9932678
96.826958 -15.996284 -161.1875 9340030
97.776001 -16.225388 -160.58235 8682100
98.545853 -16.457146 -160.11581 9340030
93.076248 -14.659614 -164.15363 7959144
93.891495 -14.663084 -163.75929 7959144
94.654381 -14.926189 -163.09351 9340796
95.512566 -14.960139 -162.65407 8946038
96.32795 -15.110254 -162.1109 9537918
75.99881 -13.779918 -180.4875 7959144
76.663223 -13.930058 -180.05353 7564651
77.424072 -14.004395 -179.64886 10262160
78.187592 -14.079589 -179.2523 7564651
78.861115 -14.232347 -178.84529 11381404
90.383545 -14.270218 -166.76678 7762026
90.998718 -14.271918 -166.47238 6511962
91.818985 -14.274468 -166.07913 7104098
92.639206 -14.277268 -165.68497 9077627
75.065422 -12.83996 -181.29958 8682355
75.885277 -13.072726 -180.82501 8485492
76.737579 -13.069468 -180.43044 8748923
77.507248 -13.14543 -180.04228 10196367
74.341843 -11.896351 -182.0157 7235421
75.029175 -12.177668 -181.5831 7958888
76.018005 -12.126353 -181.14445 7827560
76.789413 -12.202431 -180.75546 8090994
73.615395 -10.949747 -182.73433 8879995
74.304581 -11.231952 -182.30049 8222060
75.295509 -11.180367 -181.86095 7564386
76.068695 -11.2566 -181.4711 7959144
72.936035 -10.15876 -183.36836 9340289
73.712166 -10.23493 -182.97713 9077374
74.570076 -10.231415 -182.58005 9669507
75.345078 -10.307877 -182.18927 7959144
71.570137 -8.5704002 -184.64244 9011323
72.208862 -8.9508972 -184.19249 7827566
73.01384 -9.043313 -183.78136 7827822
73.818039 -9.1358299 -183.37053 8156530
74.618439 -9.3560925 -182.91002 10064521
70.832306 -7.6123691 -185.37088 9734788
71.448822 -7.8503013 -184.98872 8616823
72.31189 -7.8468275 -184.58917 8419445
73.09185 -7.9239678 -184.19583 7827822
70.091278 -6.6507425 -186.10234 8681843
70.709602 -6.8896976 -185.71886 8813685
71.574745 -6.8863959 -185.31827 9734788
72.356613 -6.9638982 -184.92384 9011323
69.346863 -5.6855216 -186.83621 9208443
69.967079 -5.9254494 -186.45161 8681843
70.834282 -5.9223199 -186.04997 9208443
71.618164 -6.0003018 -185.65434 9274237
68.381447 -4.7171731 -187.6741 13551549
69.221283 -4.9574823 -187.18729 10524045
70.090683 -4.9545746 -186.7845 9011064
70.876572 -5.033011 -186.38783 8879478
67.682526 -3.9066386 -188.32468 10261899
68.472176 -3.9855456 -187.92607 10918802
69.480591 -3.9337773 -187.47833 10128774
70.183586 -4.2243681 -187.03484 9734273
66.927933 -2.9300385 -189.06787 9933451
67.719727 -3.0096169 -188.668 7959916
68.811813 -3.0067449 -188.16171 9142393
69.653931 -3.2493906 -187.67285 7563619
66.306335 -2.0309458 -189.71817 13024949
67.101349 -1.9799757 -189.36923 8749433
68.140396 -2.0760708 -188.84784 8616817
68.903519 -2.2709846 -188.41493 10786703
68.149689 -1.2884852 -189.16011 8090730
159.55597 -26.3918 -102.29072 9736323
160.24596 -26.661345 -101.65174 10985363
161.01118 -26.706341 -101.05727 13023917
161.85812 -26.800814 -100.34837 10129801
162.70317 -26.803963 -99.687782 10195080
163.56006 -26.809065 -99.029259 9537150
164.36684 -26.898453 -98.282906 7827303
165.02704 -26.928267 -97.606377 10787469
165.73383 -26.892082 -97.042809 8879730
166.737 -26.810783 -96.469513 9076596
167.3387 -26.832258 -95.74955 9537150
167.80135 -26.832336 -94.949959 9537150
170.49167 -26.484188 -92.200127 8616304
157.68452 -25.600729 -104.05106 10459537
158.25336 -25.631426 -103.61121 10065036
159.00806 -25.810156 -102.96497 8814966
159.7769 -25.715059 -102.43249 9407359
160.54233 -25.757906 -101.83991 10327691
161.31024 -25.801498 -101.24509 9537923
162.08069 -25.845785 -100.64808 9537923
162.85379 -25.890789 -100.04878 8222319
163.62953 -25.936571 -99.447182 9142393
164.33127 -26.211117 -98.797096 10260872
165.11197 -26.258785 -98.190926 11905692
173.14053 -26.163908 -89.907738 8682867
175.77557 -25.839781 -87.55941 9865342
178.44235 -25.532763 -85.438904 7039331
178.35089 -25.490664 -84.871529 12039082
105.53053 -24.63793 -153.58636 5394762
106.16067 -24.796345 -153.19035 6249813
106.75864 -24.856119 -152.61862 8091245
107.40732 -24.836617 -151.99217 8287341
108.21657 -24.813076 -151.2101 6905688
109.02435 -24.790363 -150.42912 7761254
109.66937 -24.772844 -149.80518 7235428
110.31348 -24.755901 -149.18192 7564651
111.11725 -24.735489 -148.40367 8879992
111.9197 -24.715942 -147.62636 8419440
112.56065 -24.700954 -147.00514 7169629
113.16389 -24.614115 -146.45747 8288882
156.04739 -24.717022 -105.67802 9734015
156.89453 -24.808659 -105.0021 9800836
157.70332 -24.823914 -104.38954 10459537
158.54468 -24.730217 -103.8021 9736071
159.30711 -24.770245 -103.21304 9801861
160.07201 -24.810942 -102.62185 10262413
160.83939 -24.852312 -102.02853 9077887
161.51997 -24.966568 -101.46699 8683128
162.30635 -25.164536 -100.78834 8288627
162.88698 -25.197308 -100.33874 7039331
181.01474 -25.167505 -82.438759 7563619
104.89783 -23.732025 -154.24384 7958629
105.46489 -23.966932 -153.88612 5920590
106.26819 -23.980984 -153.47746 5920592
106.94576 -23.967518 -152.88756 8089963
107.70222 -23.901478 -152.17908 8550514
108.46129 -23.968496 -151.40015 8089962
109.21501 -23.903904 -150.69359 8747892
109.86104 -23.886957 -150.06837 8222321
110.50619 -23.870564 -149.44379 7564644
111.31117 -23.850834 -148.66402 8353903
112.1149 -23.831846 -147.88515 8090475
112.75687 -23.817331 -147.26273 6840664
113.39799 -23.803318 -146.64079 6710106
114.14861 -24.007326 -145.80042 8420212
114.94743 -23.99122 -145.02487 9603715
115.58564 -23.978981 -144.40497 7696229
116.22314 -23.967276 -143.78542 7893608
117.01906 -23.95339 -143.0116 9077370
117.81403 -23.940304 -142.2383 9010808
118.4493 -23.930433 -141.62003 8682099
119.08398 -23.921103 -141.00206 8617074
119.87659 -23.910196 -140.22997 6971994
120.66843 -23.900053 -139.45824 6445651
121.30136 -23.892553 -138.84105 7367272
121.93385 -23.885588 -138.22406 7104099
122.67064 -24.097412 -137.39328 6774873
123.45975 -24.090179 -136.62276 7563619
124.14431 -23.865419 -136.06561 10260360
124.77509 -23.860771 -135.44904 14602949
125.56318 -23.855745 -134.67841 8089963
126.35087 -23.851503 -133.90773 8550513
126.98077 -23.848656 -133.29118 8090995
127.76787 -23.845882 -132.52039 11051675
128.55469 -23.843891 -131.74936 12630444
129.18398 -23.842892 -131.13251 5920074
129.81316 -23.842348 -130.51541 7367262
130.59953 -23.842541 -129.74377 13748922
131.38588 -23.843431 -128.97183 12958897
135.12054 -23.418203 -125.5239 7563619
135.59311 -23.421366 -125.05866 7563619
136.38095 -23.427235 -124.28265 10720908
137.16899 -23.433836 -123.50605 10852750
137.7998 -23.439734 -122.88419 9010805
138.43085 -23.446133 -122.26177 10260101
153.29453 -23.790077 -108.1599 11709087
153.85501 -23.815739 -107.72868 9800830
154.6041 -23.850298 -107.15209 9273974
155.35532 -23.88571 -106.57352 7958120
156.09961 -23.82999 -106.04148 7760998
156.93625 -23.733286 -105.45895 8484207
157.79416 -23.821047 -104.77674 8420726
158.73688 -23.776007 -104.09131 9209726
159.5275 -24.09193 -103.35598 9801604
160.29378 -24.131477 -102.76418 10064779
104.71758 -23.013422 -154.61594 8813424
105.6499 -23.076458 -154.15761 6314832
106.45467 -23.089931 -153.74829 7892584
107.13335 -23.076937 -153.15724 8813686
107.94645 -23.054237 -152.37096 8353135
108.75803 -23.032341 -151.58586 8747892
109.4061 -23.01544 -150.95869 8748151
110.05312 -22.999018 -150.33214 9143420
110.80575 -22.936455 -149.62561 7959400
111.5603 -23.006985 -148.84935 9012089
112.31051 -22.945772 -148.14449 8090475
112.95351 -22.931705 -147.5208 9077114
113.59566 -22.918167 -146.89766 6709596
114.3972 -22.901972 -146.11949 8419183
115.19762 -22.886559 -145.34203 7958888
115.8371 -22.874798 -144.7206 7235421
116.47594 -22.863512 -144.09959 8617331
117.27341 -22.850216 -143.32393 8814709
118.07002 -22.837618 -142.54872 8879478
118.70661 -22.828136 -141.92899 10918801
119.3426 -22.819159 -141.30959 8089962
120.1368 -22.80868 -140.53566 7169372
120.9303 -22.798922 -139.76216 5919050
121.56451 -22.791719 -139.14359 6248785
122.19833 -22.78499 -138.52516 5985355
122.9367 -22.997509 -137.69247 6116685
123.72745 -22.990538 -136.9202 7563619
124.3596 -22.985489 -136.30249 7826791
124.99152 -22.980986 -135.68486 11313303
125.78091 -22.976055 -134.91283 7498337
126.56998 -22.97188 -134.14079 7958888
127.20092 -22.969114 -133.52316 8288372
127.98936 -22.966394 -132.75096 10656918
128.77756 -22.964426 -131.97868 12762032
129.40794 -22.963396 -131.36066 11051925
130.03825 -22.96286 -130.74251 11315356
130.826 -22.962952 -129.9695 15854812
131.61372 -22.963774 -129.19623 10458510
132.24387 -22.964994 -128.5773 10063753
132.87401 -22.966726 -127.9581 10523529
133.66183 -22.96962 -127.18367 8024941
134.44974 -22.973269 -126.40868 8156015
135.07214 -22.888422 -125.84117 7563619
135.76965 -22.76041 -125.22196 8287084
136.55856 -22.766064 -124.44505 12036767
137.34778 -22.772429 -123.66744 10457736
137.97939 -22.778124 -123.04478 9734015
138.61133 -22.784294 -122.42161 9996929
139.40158 -22.792765 -121.64184 8089705
140.19243 -22.801954 -120.86127 8352877
140.8255 -22.809893 -120.23602 9931910
141.459 -22.818336 -119.61015 9208444
142.25145 -22.829651 -118.82687 8485488
143.04459 -22.841656 -118.04251 10261383
143.67967 -22.85187 -117.41419 8879990
144.31528 -22.862627 -116.78513 7959408
145.06273 -22.764397 -116.10169 9472130
145.97049 -22.669748 -115.25918 12432037
146.60849 -22.682129 -114.62694 9537918
147.2471 -22.695055 -113.99368 9537918
147.88641 -22.708433 -113.35963 9142392
148.68661 -22.725952 -112.56551 8418927
149.48788 -22.74424 -111.77004 10721423
150.12982 -22.759409 -111.13245 10590091
150.80731 -22.780272 -110.51897 9340027
151.67926 -22.966333 -109.76694 7696747
152.5248 -22.793684 -109.19928 9341056
153.38686 -22.886686 -108.50089 8945525
154.13553 -22.919521 -107.92538 9668478
154.95702 -22.728354 -107.39701 9668479
155.71051 -22.762075 -106.81752 8286827
156.46625 -22.796368 -106.23608 7826791
157.1369 -22.903635 -105.68523 8813171
157.912 -23.09296 -105.01897 9800832
103.93437 -21.924768 -155.4167 10523786
104.8561 -21.941259 -154.98195 10194563
105.83532 -22.18391 -154.42972 6314832
106.40455 -22.41939 -154.07077 9536891
111.32897 -22.305132 -149.43385 7564642
111.81297 -22.294077 -148.96455 8090987
112.45756 -22.279909 -148.33937 7432801
113.1013 -22.26619 -147.71475 9406081
113.74419 -22.253023 -147.09068 7038307
114.54672 -22.237259 -146.3114 9866373
115.34811 -22.222212 -145.53279 6511954
115.98833 -22.210749 -144.91042 6511954
116.62794 -22.199738 -144.28854 7564642
117.42642 -22.186781 -143.51172 9143670
118.22392 -22.17449 -142.73544 8089963
118.86129 -22.165232 -142.11484 12168610
119.49811 -22.156525 -141.49454 10524044
120.2933 -22.146288 -140.71954 6971994
121.08775 -22.136734 -139.9449 6840919
121.72279 -22.129677 -139.3255 5985611
122.41048 -21.902138 -138.76662 5655877
123.20343 -21.89469 -137.99243 6182733
123.99586 -21.887955 -137.21841 7563619
124.62943 -21.883101 -136.59927 8616049
125.26257 -21.87875 -135.98022 9142646
126.05372 -21.873964 -135.20651 7498593
126.8444 -21.869892 -134.43275 8682355
127.47673 -21.867218 -133.81369 8551029
128.2668 -21.864532 -133.03981 7696236
129.0567 -21.862539 -132.26576 8222830
129.68849 -21.861511 -131.64641 12038822
130.32016 -21.86096 -131.02692 13355194
131.10965 -21.860952 -130.25226 14473418
131.89912 -21.861656 -129.47734 10261131
132.53069 -21.862782 -128.85707 9143165
133.16225 -21.864378 -128.23656 10327438
133.95184 -21.867035 -127.46047 8879995
134.74158 -21.870419 -126.6839 9077374
135.37344 -21.873667 -126.06222 8616049
136.00551 -21.87746 -125.44012 8616049
136.79584 -21.882809 -124.66191 10918801
137.58652 -21.88887 -123.88306 9405307
138.21931 -21.894295 -123.25939 8484463
138.85242 -21.900185 -122.63521 9207927
139.64421 -21.908287 -121.85413 8945012
140.43658 -21.917063 -121.07228 9602686
141.07085 -21.924625 -120.44608 9931910
141.70549 -21.932739 -119.81918 10129289
142.49951 -21.943525 -119.03463 10129543
143.29419 -21.955029 -118.24904 11642522
143.9305 -21.96484 -117.61967 9800833
144.56737 -21.975069 -116.98964 7827819
145.28775 -22.031988 -116.25378 8880245
146.07898 -21.956722 -115.51577 11577242
146.80092 -22.014925 -114.77775 8814452
147.44057 -22.027374 -114.14381 9537918
148.08084 -22.040373 -113.50895 9208441
148.95616 -21.962656 -112.68969 9208443
149.75052 -21.851641 -111.96681 10524045
150.39375 -21.866224 -111.32816 10129541
151.0797 -21.887232 -110.71896 8484720
151.81537 -21.915659 -110.14328 8682356
152.62199 -21.720655 -109.61554 10063749
153.54968 -21.757637 -108.89269 8879477
154.48709 -21.796412 -108.17188 9931651
155.16936 -22.053524 -107.54436 9931651
155.7352 -22.077929 -107.10956 8088931
102.50395 -20.706049 -156.57024 10064263
103.19456 -21.015835 -156.12512 10261385
104.18677 -20.903942 -155.70918 9998213
105.03992 -21.047033 -155.25548 11378324
130.64781 -21.198135 -131.04288 14078917
131.28023 -21.198215 -130.42235 14210247
132.07074 -21.198866 -129.64642 11182745
132.70312 -21.199913 -129.02538 7565675
133.33565 -21.201359 -128.40401 9143679
134.12622 -21.203976 -127.62693 9011581
134.91702 -21.207172 -126.84942 8419702
135.54982 -21.210316 -126.22695 9010550
136.18269 -21.213913 -125.60409 9011320
136.97417 -21.219057 -124.82491 9340541
137.85867 -21.077545 -124.02902 9207928
138.45985 -21.00843 -123.47443 9405307
139.09412 -21.013996 -122.84924 9010549
139.88741 -21.021704 -122.06693 9800579
140.68121 -21.030094 -121.28378 10458509
141.31674 -21.037306 -120.65653 9931910
141.95262 -21.045015 -120.02869 10129289
142.67204 -21.098961 -119.29538 10326667
143.46129 -21.0205 -118.56086 11773852
144.25169 -20.942474 -117.82507 9800323
144.88336 -20.862635 -117.24594 8616819
145.5224 -20.872799 -116.61378 10721935
146.32201 -20.886185 -115.82239 10656398
147.12256 -20.900263 -115.02976 9735297
147.76379 -20.912035 -114.39457 10984849
148.40565 -20.924326 -113.75848 7367009
149.04834 -20.937078 -113.12145 7958888
149.91855 -20.729883 -112.37307 8879734
150.72453 -20.747042 -111.57351 10918799
151.42105 -20.768145 -110.96953 8813428
152.15889 -20.795109 -110.39291 8287341
152.82936 -21.047335 -109.76474 8682099
153.57178 -21.075819 -109.18566 8089963
101.86395 -19.798883 -157.23164 7234909
102.60028 -19.884348 -156.85527 10524043
103.42073 -19.896608 -156.46928 9735812
104.15844 -19.983051 -156.09192 9603200
150.43895 -20.063818 -112.20158 7958888
150.92348 -20.073853 -111.72106 10918286
101.22224 -18.89106 -157.89401 4866361
101.95918 -18.975756 -157.51776 6182221
102.78014 -18.986988 -157.13188 9208699
103.51845 -19.07259 -156.75459 9669506
100.12965 -17.827084 -158.82849 6183246
101.11122 -18.063946 -158.27754 4866361
102.13797 -18.07662 -157.79555 6182221
102.91535 -18.312496 -157.33983 8419184
99.523689 -17.06881 -159.41508 7958630
100.39349 -17.108078 -158.99501 7038041
101.37196 -17.088722 -158.54811 5392961
102.06648 -17.398357 -158.10092 4866361
97.590302 -15.559834 -161.14552 7563619
98.20549 -15.564739 -160.85504 8879479
98.941628 -15.924774 -160.24409 8813941
99.696602 -16.020994 -159.83574 9602683
100.64769 -16.252214 -159.23041 9142133
95.930008 -14.672918 -162.76935 9537918
96.745728 -14.677319 -162.37149 9011831
97.518547 -14.943843 -161.7256 8089963
98.481361 -14.906791 -161.30783 8287083
99.203163 -15.131968 -160.75465 9734527
78.551262 -13.770924 -179.30556 8814971
79.373444 -13.884304 -178.84758 10722451
80.271515 -14.044672 -178.33191 9800839
81.172821 -14.074169 -177.90189 10524047
81.846069 -14.228067 -177.4985 9932166
93.254623 -14.279516 -165.38866 6511954
93.869835 -14.281913 -165.0919 7235421
94.690369 -14.285359 -164.69531 8682867
95.511208 -14.289053 -164.29767 11643036
77.836517 -12.829552 -180.01656 9143681
78.575943 -13.016142 -179.59795 9406852
79.5839 -13.107764 -179.09283 8551288
80.487076 -13.137085 -178.66145 9208960
77.118958 -11.885585 -180.73 9143681
77.860123 -12.072613 -180.31041 9735817
78.870232 -12.164292 -179.80429 8748924
79.77523 -12.193476 -179.37215 7959152
76.398422 -10.938723 -181.44597 10854036
77.141464 -11.126248 -181.02527 11117210
78.153778 -11.218083 -180.51805 11643556
79.108765 -11.405352 -179.99901 9867404
75.674988 -9.988966 -182.16441 7959144
76.419922 -10.177009 -181.74266 7367007
77.434471 -10.269 -181.23433 10064522
78.177734 -10.457344 -180.81322 12235693
74.154144 -8.5600624 -183.44621 9208443
74.998039 -8.6767921 -183.0072 9998727
75.853348 -9.0925808 -182.44252 8222060
76.825043 -9.1253004 -181.97795 7170143
77.457359 -9.5058851 -181.53098 8814971
73.422325 -7.6023221 -184.17181 8681843
74.172356 -7.7919173 -183.74706 9208443
75.193069 -7.8845801 -183.23567 9274492
76.106949 -7.9136724 -182.79941 8418927
72.687393 -6.6411867 -184.89998 9734788
73.519287 -6.8794494 -184.41759 9077114
74.598511 -6.8759465 -183.91759 9866885
75.378433 -6.9538603 -183.52393 9340285
72.165833 -5.6757436 -185.53044 9076857
72.863625 -5.9638729 -185.09035 9208700
73.86515 -5.9123845 -184.64572 9998215
74.646912 -5.990653 -184.25102 10195850
71.476364 -4.869144 -186.175 8681843
72.261406 -4.9477587 -185.77866 8814198
73.128677 -4.9452286 -185.37672 9537664
73.96286 -5.1855445 -184.89244 9076857
70.732742 -3.8976588 -186.9111 9866629
71.519775 -3.9767108 -186.51363 8946296
72.389122 -3.9743781 -186.11061 8617331
73.008614 -4.2163305 -185.72548 9537664
69.985886 -2.9221463 -187.65022 9668480
70.774963 -3.0017953 -187.25154 11905696
71.646469 -2.9997339 -186.8475 9406847
72.267685 -3.2428083 -186.46115 8617331
69.235771 -1.9426402 -188.39252 8089706
70.026962 -2.0228858 -187.99263 9997446
70.900589 -2.0210714 -187.58745 11511200
71.523643 -2.2652926 -187.19978 8617331
68.587914 -1.2876511 -188.95694 11379356
69.244873 -1.28645 -188.65213 8352878
70.120338 -1.2849329 -188.24593 9076859
70.77639 -1.2837832 -187.94157 10590356
167.05208 -26.377417 -96.65107 9076596
167.80411 -26.42168 -96.014488 9537150
168.55154 -26.465643 -95.371468 8813428
169.2991 -26.509949 -94.724831 9405304
169.92581 -26.536106 -94.008781 10523784
170.45862 -26.548145 -93.238762 10261124
164.48463 -25.754917 -98.889305 10260872
165.41063 -25.966118 -98.100151 13089966
166.18179 -25.85726 -97.572113 9668730
166.91649 -25.667973 -97.107948 8681835
167.70724 -25.716597 -96.493752 9866114
168.50099 -25.765963 -95.877029 8418927
169.29675 -25.815952 -95.257133 9734015
170.08075 -25.864445 -94.626503 9603453
170.75487 -25.983898 -94.020348 9406074
171.49739 -26.184223 -93.270683 9340026
172.38281 -26.232664 -92.416634 10261132
173.09579 -26.255814 -91.467232 9471871
173.24222 -26.228182 -90.75045 8682867
175.93375 -25.924847 -88.690681 9865342
178.57806 -25.596161 -86.292725 9341307
161.87704 -24.677813 -101.33071 9537923
162.45706 -24.709639 -100.88198 8288627
163.24673 -24.908287 -100.20052 7828076
163.93457 -25.024689 -99.632683 7826790
164.79195 -24.840712 -99.074211 7168860
165.57565 -24.885855 -98.466888 11445143
166.44016 -24.70215 -97.902954 9668730
167.23016 -24.748331 -97.290489 8681835
168.02303 -24.795204 -96.675499 9537145
168.73935 -25.073927 -96.012688 8616303
169.33771 -25.110416 -95.548042 9208435
159.67462 -23.638885 -103.45141 9143932
160.44193 -23.677732 -102.85924 8814715
161.13713 -23.944469 -102.21757 8814715
161.90898 -23.985004 -101.62125 7762541
162.68344 -24.026163 -101.02267 7631211
163.53662 -23.839451 -100.46863 7039331
164.31691 -23.881569 -99.865242 7037274
165.17703 -23.695078 -99.305862 8155754
165.87177 -23.811197 -98.732887 7760997
166.67433 -24.01227 -98.040726 10655625
157.48619 -22.614229 -105.55504 10062979
158.0571 -22.640669 -105.1156 11248533
158.74719 -22.902946 -104.47978 8881013
159.61255 -22.990728 -103.79206 9341309
160.56381 -22.944954 -103.10056 8946299
161.4357 -23.034353 -102.40714 8485751
162.28479 -22.844957 -101.85732 8090993
163.06174 -22.884159 -101.25777 7762796
163.84128 -22.924213 -100.65588 9209727
164.42761 -22.954578 -100.20304 8486262
105.97473 -21.513186 -154.63417 7695714
106.74519 -21.88378 -154.0912 8418926
107.50249 -21.901464 -153.39368 9142651
108.26263 -22.000309 -152.59756 7892584
108.94463 -22.00807 -151.92444 7564392
109.5976 -22.124884 -151.22429 8090737
110.24567 -22.109081 -150.5965 11314074
110.99951 -22.047022 -149.88857 8156780
111.91061 -21.849268 -149.09531 7038298
112.55567 -21.835346 -148.46953 6775130
113.19997 -21.821878 -147.84427 9143166
114.00408 -21.805759 -147.06352 8419701
114.80708 -21.790361 -146.28357 7958888
115.44858 -21.778597 -145.66013 7235421
116.08932 -21.76733 -145.0372 6511954
116.72942 -21.756571 -144.41469 8946035
117.52851 -21.743776 -143.63713 9735550
118.32674 -21.731768 -142.86009 8090473
118.9646 -21.722607 -142.23894 13023917
119.60191 -21.714052 -141.61798 10524044
120.3978 -21.703945 -140.84227 7893096
121.19295 -21.694607 -140.06699 7761765
121.82845 -21.687653 -139.44688 5920074
155.31113 -21.60284 -107.64272 9931651
156.08234 -21.788059 -106.9812 8484205
156.75313 -21.893469 -106.43111 7958377
157.513 -21.926956 -105.84698 9274235
158.27515 -21.961086 -105.26081 11248279
159.03972 -21.995762 -104.67261 12630187
159.80667 -22.031057 -104.08228 8881013
160.65034 -21.838963 -103.53773 9012089
161.44919 -22.154743 -102.7963 7827307
162.19772 -21.911953 -102.34598 8813430
105.37543 -20.753071 -155.21756 10720651
106.11432 -20.841063 -154.83908 7235420
106.92285 -20.853083 -154.42822 5920074
107.76751 -20.837011 -153.67587 8287598
108.58356 -20.816381 -152.88571 7892584
109.239 -20.933893 -152.1828 8024943
109.83769 -21.008583 -151.55734 7564651
110.57039 -20.928101 -150.87944 12826797
111.32569 -21.030247 -150.08638 8814453
112.1063 -20.957815 -149.35738 8090218
112.75243 -20.94438 -148.7303 6379602
113.39771 -20.931404 -148.10381 7367271
114.20311 -20.915867 -147.3215 7498600
114.95515 -20.990618 -146.54555 9603202
115.59953 -21.112173 -145.85146 10129289
116.241 -21.101208 -145.22757 6380625
116.98814 -21.044825 -144.52335 8946291
117.73576 -21.121721 -143.75064 9735550
118.48118 -21.066536 -143.04741 8879988
119.11981 -21.057674 -142.42531 10129286
119.75791 -21.049267 -141.80351 10129285
120.55478 -21.039469 -141.02672 8090473
121.35089 -21.030296 -140.25029 7761765
121.98722 -21.023537 -139.62939 6117453
122.62313 -21.017231 -139.00871 5524548
123.41743 -21.010027 -138.23311 6050891
124.21115 -21.003468 -137.45763 6380368
124.84573 -20.998787 -136.83739 6511954
125.48002 -20.994507 -136.21721 8682352
126.27243 -20.98988 -135.44203 9668735
127.06449 -20.985897 -134.66689 9603458
127.69787 -20.983244 -134.04672 9603201
128.48941 -20.980642 -133.27151 8683380
129.28067 -20.978634 -132.49611 7696741
129.91353 -20.977606 -131.87566 9736324
130.51253 -20.903292 -131.32584 8682867
131.39413 -20.755724 -130.5359 14605003
132.18535 -20.756321 -129.75931 10459537
132.81828 -20.757269 -129.13768 9012606
133.45137 -20.758713 -128.51588 9012606
134.24269 -20.761175 -127.73816 9603460
135.03416 -20.76432 -126.95988 8419702
135.66754 -20.767368 -126.33695 9011320
136.30104 -20.770811 -125.71358 9998727
137.09325 -20.775887 -124.93375 9340541
137.72722 -20.780331 -124.30944 10062979
144.21124 -20.405178 -118.13833 10853012
152.96788 -20.597754 -109.86441 8089963
153.71143 -20.625637 -109.28506 8682099
154.49142 -20.929893 -108.56196 11445144
155.425 -20.876011 -107.88741 8418154
156.2813 -20.956703 -107.20959 8944756
157.04074 -20.988241 -106.62666 8089963
157.80243 -21.020327 -106.04173 8484720
158.64865 -20.918119 -105.45451 9076600
159.33298 -21.086279 -104.86581 12038050
160.013 -21.193295 -104.30804 7828582
104.7372 -19.842106 -155.87968 9997700
105.4765 -19.929216 -155.50127 10786701
106.30083 -19.943066 -155.11282 8156008
107.1692 -20.064909 -154.58792 7169629
108.07305 -20.159716 -153.72107 9274237
108.72645 -20.143827 -153.08803 8813686
109.37885 -20.128393 -152.45583 8813686
110.11665 -19.962702 -151.81635 7564651
110.8915 -19.871231 -151.10266 9340287
111.70322 -19.854033 -150.31506 8550257
112.35153 -19.84078 -149.68573 9997703
112.99894 -19.827978 -149.05707 7103324
113.64551 -19.815577 -148.42899 7563877
114.45248 -19.800795 -147.64478 8616823
115.26038 -19.919918 -146.79144 10195335
115.85165 -19.998785 -146.17116 8616556
116.4945 -19.988317 -145.54575 6446160
117.29704 -19.975899 -144.76466 9143413
118.09865 -19.964104 -143.98422 7827812
118.73919 -19.955187 -143.36031 7893606
119.37917 -19.946705 -142.73674 10589835
120.17828 -19.936768 -141.9577 11971229
120.97664 -19.927485 -141.17911 9997955
121.61476 -19.920523 -140.55656 8222316
122.2524 -19.914026 -139.9342 6840919
123.02242 -19.851393 -139.21057 6445906
123.76118 -19.963745 -138.4285 6972505
124.48097 -19.894743 -137.75739 7235677
125.11687 -19.890215 -137.13574 7958886
125.83621 -19.822292 -136.46449 9800063
126.57262 -19.936937 -135.68359 9471356
127.28509 -20.099775 -134.9016 8945012
127.9196 -20.097198 -134.28032 8616302
128.71248 -20.094603 -133.50374 7959400
