# .PCD v0.7 - Point Cloud Data file format
VERSION 0.7
FIELDS x y z rgb
SIZE 4 4 4 4
TYPE F F F U
COUNT 1 1 1 1
WIDTH 1211
HEIGHT 1
VIEWPOINT 0 0 0 1 0 0 0
POINTS 1211
DATA ascii
169.90298 -30.586424 -6.9610233 9340027
170.03404 -30.819012 -5.9435368 11905692
170.24963 -30.851603 -4.9271545 11117208
170.46611 -30.88546 -3.9083192 10722450
170.79416 -30.722931 -2.8888223 9209728
170.9642 -30.750927 -2.0695627 10393743
171.17673 -30.786945 -1.0432508 10985107
171.34135 -30.902693 -0.055892706 8221801
171.50691 -31.063583 1.0161555 11905180
171.73523 -31.032949 1.9810946 10262667
173.89209 -31.024654 19.933729 8090730
173.92215 -31.047237 20.785351 6249039
174.03604 -30.866959 21.861292 5920074
174.06577 -30.890921 22.716171 7235418
174.10263 -30.921968 23.786709 7498590
174.24696 -30.749161 24.875166 7695204
174.2729 -30.774904 25.735039 9142651
174.30481 -30.808104 26.81209 10459022
174.33641 -30.842314 27.891298 9867399
174.44635 -30.660931 28.770838 7565675
174.45442 -30.735474 29.764832 8616563
174.48099 -30.68058 30.807255 8353391
174.37997 -30.660898 31.71277 8814197
169.59918 -29.439508 -12.601629 9142392
169.73796 -29.525753 -11.860342 11049616
169.70134 -29.786055 -10.95201 9931394
169.98227 -29.708345 -9.9815073 8155751
170.12135 -29.776783 -9.0160341 8353130
170.31303 -29.800949 -8.0005445 8879215
170.34726 -30.015572 -6.9775715 9668989
170.55238 -30.044353 -5.9597473 10129798
170.75729 -30.074089 -4.9400005 9735555
170.9212 -30.098665 -4.1225777 10459278
171.04396 -30.117481 -3.5086267 9538176
174.84126 -30.037468 28.189756 9538691
174.85501 -30.057255 28.839968 8090991
174.87291 -30.084215 29.70805 7563619
174.85907 -30.112843 30.788851 7892584
174.92839 -29.88213 31.756754 9406588
174.95872 -29.736485 32.763626 9867138
174.87779 -29.676928 33.692757 9209211
174.95354 -29.458376 34.727516 9538433
174.88844 -29.369978 35.809235 9933191
167.61594 -28.380404 -26.600559 10263180
167.90916 -28.622993 -25.820328 9999751
168.36476 -28.673573 -24.855947 10261899
168.67413 -28.779072 -24.142771 9932934
168.82402 -29.212299 -15.879885 11906724
169.12341 -29.247383 -14.883593 8417897
169.42149 -29.283232 -13.884696 8287859
169.59959 -29.305059 -13.284122 7038307
175.71548 -29.074224 36.644394 8090219
175.54492 -29.082897 37.711475 9471355
175.37186 -29.09227 38.778992 9866627
175.23192 -29.100212 39.633064 9735812
176.49847 -28.962671 43.065498 9208443
176.33862 -28.962183 43.700958 9208443
176.06702 -28.96138 44.758846 8681842
177.38673 -28.953802 51.064018 10787214
177.19788 -28.953339 51.702682 7958376
176.94275 -28.952774 52.553169 7234909
178.2164 -28.945456 58.596123 9011579
177.97624 -28.845392 59.706345 7630183
178.11742 -28.546669 60.471512 6511701
177.82108 -28.546238 61.326729 5064258
159.16887 -27.760571 -101.35869 10129798
159.33902 -27.685095 -100.13207 10853263
159.31961 -27.619852 -99.32415 11576729
159.29797 -27.554913 -98.519043 11445141
167.52737 -27.529303 -27.412205 9736323
167.7476 -27.763487 -26.827698 10263180
168.21443 -27.813488 -25.866684 9868166
168.61533 -27.927084 -24.961449 11117208
178.49434 -28.096704 59.882484 5787980
178.34943 -27.870396 60.551136 7235423
178.02371 -27.824862 61.541382 4603964
158.99426 -26.433012 -102.86133 9736323
159.24861 -26.980804 -102.39447 9209723
159.76021 -27.386658 -101.73328 11576729
161.39491 -26.540148 -87.423119 7037790
161.31409 -26.458981 -86.383919 9339254
167.61447 -26.86603 -27.756886 9208955
168.1319 -26.75156 -26.88843 9537921
168.46837 -27.039165 -25.988182 10393485
178.50755 -27.193027 60.845268 7235423
178.43964 -26.74054 61.542336 4735293
178.10561 -26.68429 62.56834 6380118
159.02321 -25.745926 -103.15091 9144187
159.59756 -25.777794 -102.70944 9736323
161.23021 -26.378317 -85.349182 10589577
161.1433 -26.298166 -84.318878 10589577
161.05334 -26.218521 -83.293015 9471608
162.77306 -25.491653 -75.477707 7038307
162.6445 -25.415918 -74.474945 7038307
167.3028 -25.407955 -29.442493 7761509
167.4976 -25.762201 -28.813417 9011320
167.94342 -25.890196 -27.893564 9866373
168.34137 -25.930254 -27.128935 9010808
178.67529 -25.835045 61.865337 5392706
178.52933 -25.608458 62.537594 5524292
178.20161 -25.563961 63.532257 5787722
158.81528 -24.586256 -103.83051 9736323
159.18726 -24.881596 -103.42024 10130825
162.51311 -25.340588 -73.47654 8681835
162.3791 -25.265768 -72.482559 10260867
163.92712 -24.63838 -65.533646 7368552
163.81181 -24.586309 -64.807053 8684155
163.56895 -24.493093 -63.582981 9077114
163.36302 -24.417671 -62.604847 9931137
167.38867 -24.745445 -29.788946 8945529
167.83011 -24.828323 -28.911421 9011320
168.16949 -24.930531 -28.207596 7761253
178.76517 -24.700459 62.862873 5392706
178.54099 -24.701046 63.509109 5655879
178.2419 -24.702238 64.370689 6840152
158.84344 -23.897924 -104.1212 9407102
159.41888 -23.927034 -103.68018 9406851
164.75668 -23.917072 -57.540756 11182745
164.52289 -23.844177 -56.57769 9340802
164.28714 -23.771738 -55.619392 7564651
167.3586 -23.737101 -30.613396 7960176
167.75124 -23.831282 -29.817114 9077114
168.07838 -24.080772 -29.023069 10590353
178.80084 -23.866869 63.683388 5721671
178.55209 -23.792034 64.483917 5919050
178.30315 -23.717566 65.284775 6313808
158.63394 -22.737206 -104.80245 12038050
159.00685 -23.031321 -104.39203 9538686
166.7612 -22.459246 -33.70092 10262411
167.11984 -22.64809 -32.647156 9210237
167.34686 -22.909798 -31.733236 10657173
167.68103 -23.00371 -30.893415 9012349
178.86305 -22.879751 64.597397 5919306
178.50211 -22.927277 65.586037 5919050
178.4149 -22.654402 66.139763 8484205
158.74971 -21.974726 -105.06156 13748154
159.23788 -22.073938 -104.65366 9538686
166.44022 -21.649525 -36.764404 9208435
166.72409 -21.79743 -35.709724 10984590
167.09413 -21.890097 -34.810608 11116949
167.25018 -22.096785 -33.797871 10262411
167.57741 -22.112724 -32.818344 9407362
167.86481 -22.129236 -32.03841 9209985
179.02151 -22.194576 64.899033 5919050
178.90549 -21.829462 65.63797 6313808
178.65033 -21.739679 66.472839 9931136
178.47725 -21.436373 67.3069 9405049
158.52332 -20.65774 -105.82606 8879478
159.02744 -20.91004 -105.33709 11182998
159.45844 -21.391228 -104.79886 7039322
166.87755 -21.278076 -36.859322 9208435
167.29691 -21.302601 -35.899982 10261123
179.18787 -20.821077 65.938568 8682608
179.0394 -20.592733 66.619102 8089704
178.73712 -20.594997 67.487839 9536635
178.58797 -20.367102 68.169495 7037274
158.62318 -19.737938 -106.16825 8024941
159.20146 -19.761202 -105.72783 7565163
179.19771 -19.903378 66.924469 9931136
179.04877 -19.674734 67.606712 9536635
178.74579 -19.677294 68.477196 8484205
158.41034 -18.57328 -106.85374 7565675
158.78561 -18.865074 -106.44263 7697261
179.3098 -18.829336 67.788597 9865857
179.05768 -18.754555 68.597908 7760739
178.80531 -18.680088 69.407722 9405050
158.43661 -17.879402 -107.14832 8420470
159.01596 -17.900064 -106.7083 7565675
179.37042 -17.829464 68.718895 8024425
179.06625 -17.8321 69.592751 9997443
178.83801 -17.834332 70.248329 11708315
158.22296 -16.712847 -107.83617 9735296
158.72958 -16.961653 -107.34673 8157555
179.40936 -16.950518 69.578201 8155755
179.0744 -16.907366 70.591354 9866114
178.92378 -16.677467 71.279739 9537150
158.38554 -15.946991 -108.13252 9735296
158.95616 -16.118244 -107.59291 9012089
179.42725 -16.023973 70.581985 8616306
179.30167 -15.687088 71.574905 9076600
179.1949 -15.299045 72.64328 8945271
158.34413 -14.448464 -110.15529 10853262
158.1895 -15.028728 -109.11427 10787726
158.72888 -15.196058 -108.55246 10458761
179.69244 -14.73115 72.595398 8484721
179.60097 -14.54617 73.398781 8616306
179.44598 -14.398933 74.262199 9734529
156.99878 -13.832388 -120.16835 8287850
157.71201 -13.843064 -119.51924 11379348
157.52762 -14.139579 -115.27895 10789018
158.21324 -14.13798 -114.33134 8486009
180.19797 -14.006977 75.853271 9208182
179.96545 -14.010074 76.521858 9932678
179.72755 -14.012879 77.188347 10854036
180.61775 -13.619413 78.609756 9011320
180.4182 -13.62556 79.299545 8681843
180.15175 -13.633935 80.22023 8681843
156.76367 -12.87228 -120.88554 7037274
157.26236 -13.165082 -120.25085 8682609
180.60893 -12.988991 79.47081 9010808
180.39117 -12.916527 80.327789 9076601
180.1348 -12.841599 81.16864 7563874
156.88359 -12.105893 -121.15849 10721935
157.48703 -12.159806 -120.54312 7038298
180.74593 -11.813735 80.539513 9405566
180.46829 -11.721196 81.407509 8747893
180.21786 -11.478559 82.079224 11972003
156.69664 -10.853732 -121.97729 13024941
157.25919 -11.051111 -121.32887 11249305
180.80284 -10.597291 81.647278 9866117
180.42555 -10.514327 82.437347 10524047
156.46693 -9.7429514 -122.76589 9734528
156.98306 -9.7465076 -122.26128 11906976
157.42947 -9.9914255 -121.70188 11578012
180.84369 -9.5990257 82.472244 9471616
180.42348 -9.4678211 83.402527 7563619
156.57349 -8.7765408 -123.15355 9734528
157.18204 -8.8609447 -122.51776 9998727
180.99777 -8.7119799 83.494225 8155499
180.68176 -8.4689112 84.406311 9866116
156.33524 -7.8056951 -123.87934 9734528
156.94232 -7.8572931 -123.26161 10918801
156.55928 -6.7858567 -124.1796 14143167
157.06287 -7.0800691 -123.53949 15722454
156.34084 -5.7776384 -124.90513 6511954
156.85936 -5.9825969 -124.29569 10854033
156.48183 -4.8818598 -125.22325 6709077
157.10498 -5.128037 -124.49095 8090987
156.16035 -3.982904 -125.99353 7301214
156.86566 -4.1473989 -125.22277 7103835
172.5582 -32.382622 7.8740597 7761509
172.75906 -32.540569 9.0287151 8813943
172.86719 -32.606224 9.902914 8222577
172.952 -32.484798 10.811827 8814713
172.98363 -32.500725 11.648863 8814713
172.1263 -31.402287 4.3315887 10853012
172.25702 -31.428883 4.9568329 10129289
172.39449 -31.604998 5.8598404 8879222
172.57228 -31.716919 6.8357716 8024169
172.79056 -31.764444 7.8852444 7498337
172.96536 -31.803408 8.7272701 9011320
173.12953 -31.843355 9.779501 7038307
173.17807 -31.86335 10.826502 8814713
173.21791 -31.883034 11.874472 9604229
173.25757 -31.903767 12.9237 8551544
173.39349 -31.62945 13.73085 11380382
173.47961 -31.528202 14.829565 8616565
173.54124 -31.480721 15.816057 8484979
173.62538 -31.363115 16.736361 9801094
173.64842 -31.378157 17.370836 13024949
171.62912 -30.430513 0.19232583 6511954
171.75128 -30.452175 0.81191087 9603458
171.95459 -30.489079 1.8465674 10591121
172.06625 -30.729548 2.8819487 11051928
172.27663 -30.770174 3.9216425 11116952
172.48831 -30.812086 4.9640903 9734531
172.6628 -30.847382 5.8004341 9734531
172.88165 -30.892612 6.8488274 9734783
173.22672 -30.677067 7.8169479 8879476
173.38332 -30.775082 8.7495403 8156271
173.51219 -30.863134 9.8545074 8419700
173.5777 -30.829706 10.8526 9406592
173.60825 -30.844515 11.692677 10722709
173.64589 -30.864017 12.743959 9538438
173.76645 -30.677706 13.803469 10261903
173.78041 -30.738243 14.771885 8354166
173.85107 -30.677277 15.78894 9143166
173.86421 -30.739567 16.760042 8419952
173.89816 -30.763639 17.819063 12367275
173.93159 -30.788702 18.879705 9669763
173.98381 -30.73851 19.661983 9143163
174.075 -30.628744 20.804024 7038298
174.41672 -30.287107 22.976562 9208435
174.43732 -30.309994 23.833673 8419179
170.81728 -29.446747 -6.9950924 9405559
171.00079 -29.471233 -5.9737606 9800573
171.20665 -29.500378 -4.9513035 8945523
171.37119 -29.524549 -4.1317635 9077625
171.47237 -29.711487 -3.0213945 8157555
171.63062 -29.77949 -2.0751741 9078399
171.83502 -29.812761 -1.0448225 9538176
172.03943 -29.847031 -0.012202978 6511954
172.20287 -29.875198 0.81579614 7761509
172.40697 -29.911415 1.8532126 8090471
172.61084 -29.948582 2.8930895 8485484
172.77388 -29.979136 3.7270033 9800576
172.97774 -30.01836 4.7720833 10589840
173.0291 -30.2523 5.8140545 10129289
173.1916 -30.285452 6.6536694 9537403
174.16548 -30.081972 13.836647 9538182
174.19128 -30.098049 14.681858 8090995
174.22296 -30.11899 15.73975 9998732
174.35638 -30.011221 16.879982 9604739
174.42879 -29.962309 17.663588 9143932
174.45837 -29.985853 18.726849 10393230
174.4873 -30.010363 19.791714 10261132
174.66162 -29.833136 20.66349 9143163
174.65013 -29.907448 21.674179 7499105
174.81473 -29.75102 22.674318 7564640
174.89072 -29.711174 23.683233 7958886
174.88416 -29.777327 24.668295 8484720
174.96991 -29.72646 25.711723 9537409
174.9622 -29.794277 26.700409 9539199
175.13467 -29.711113 27.633751 11183253
175.38777 -29.508497 28.626701 9933190
175.4935 -29.463875 29.685865 10393486
175.42111 -29.524632 30.672802 8353391
175.54068 -29.343721 31.565496 9341051
175.44504 -29.346872 32.201984 11709340
168.96945 -28.67178 -23.632572 9932934
169.28008 -28.778358 -22.915947 10261129
169.71422 -28.828207 -21.936972 10195079
169.77565 -29.033255 -20.910259 9734782
169.8701 -29.032345 -20.094612 9931902
169.98241 -29.031218 -19.074409 10985364
170.08904 -29.03009 -18.053598 10788500
170.18907 -29.028973 -17.032125 9735812
170.28336 -29.027855 -16.010086 9406077
170.37117 -29.026747 -14.98747 10589839
170.45319 -29.025639 -13.964344 9668479
170.58076 -29.036005 -13.150204 8090736
170.86479 -29.070688 -12.139897 10261132
171.05801 -29.091118 -11.121729 8484977
171.2272 -29.108597 -10.100442 8813680
171.39459 -29.126797 -9.0778885 8353130
171.55989 -29.145695 -8.0535831 8681835
171.72343 -29.165228 -7.0279636 9405559
171.85283 -29.181383 -6.2061234 11972259
171.94902 -29.193823 -5.5894337 9208435
175.75807 -29.268528 27.474892 9210491
176.31163 -29.048756 32.804054 11709340
176.18155 -29.053688 33.657455 9472126
176.01721 -29.060402 34.723934 8287342
175.88406 -29.066271 35.577377 7564643
177.11435 -28.964653 40.517532 11512220
176.86229 -28.96382 41.580292 13289145
176.65588 -28.963161 42.429317 11380124
178.05852 -28.955528 48.716343 8287859
177.81772 -28.954897 49.571018 10260871
177.57291 -28.954268 50.424603 11313557
178.91922 -28.946947 56.451885 7827302
178.80359 -28.788918 57.50597 6511187
178.78325 -28.549904 58.546844 5392706
178.48744 -28.547995 59.402298 7038307
160.48764 -27.426456 -101.11725 8682867
160.85011 -27.446302 -100.80746 8682867
168.83986 -27.669661 -24.718147 10656657
169.12988 -27.913113 -23.930681 9932934
169.66708 -27.760788 -22.967556 10129543
169.90172 -28.071102 -22.237526 10261129
179.23442 -28.101555 57.741844 5392706
179.09019 -27.8741 58.409821 5721671
178.76511 -27.826836 59.400192 6116688
159.9516 -26.487972 -102.12476 11380120
160.35744 -26.969477 -101.57316 12103073
161.7514 -26.953897 -92.686523 13023917
161.68651 -26.870094 -91.624756 8551031
161.61839 -26.786798 -90.567589 7038307
161.54706 -26.704054 -89.514893 11248539
161.47252 -26.621872 -88.466736 8354164
168.75768 -26.49922 -25.845598 10261129
169.05571 -26.846628 -24.956625 10393227
169.51591 -26.895264 -23.984552 9932676
169.88493 -26.934958 -23.204435 9734782
179.3273 -26.970234 58.726959 6839896
179.12856 -26.807144 59.481056 6576980
178.85561 -26.611975 60.484718 6248272
160.17358 -25.810053 -102.26664 10064521
160.67633 -26.069139 -101.77553 10853012
163.25989 -25.79987 -79.533142 10854035
163.14235 -25.722105 -78.512642 9340286
163.02202 -25.644796 -77.496544 7564643
162.89891 -25.567944 -76.48494 8814201
168.57385 -25.672392 -26.889204 9010808
168.98039 -25.782366 -25.983051 9866115
169.44092 -25.828066 -25.012762 12629160
169.64047 -26.060207 -24.417839 13023917
179.41969 -25.836803 59.715942 5919050
179.27432 -25.609215 60.387367 6182222
178.94734 -25.563093 61.381939 6774103
159.96649 -24.646784 -102.94721 10064779
160.33986 -24.943439 -102.53537 9275265
164.51596 -24.920357 -69.448769 12630444
164.40865 -24.86697 -68.709671 9012091
164.26338 -24.79612 -67.727768 5393738
164.11549 -24.725725 -66.750092 7038818
164.00299 -24.673199 -66.019356 8684155
168.48698 -24.820463 -27.705942 9010808
168.82355 -24.923018 -26.99777 9471359
169.32259 -24.811548 -26.087133 9011064
169.58006 -25.206593 -25.241199 10129798
179.53529 -24.776785 60.556511 8879479
179.22745 -24.745813 61.478928 8089963
178.99033 -24.624514 62.297607 7168861
159.99591 -23.956573 -103.23786 9735815
160.5742 -23.98641 -102.79446 9406851
165.50235 -24.157448 -60.703316 9340027
165.27513 -24.082914 -59.725189 8155754
164.98845 -23.990479 -58.50856 7563618
166.26373 -23.492207 -53.40971 5919050
166.07143 -23.438616 -52.691685 7564642
165.87814 -23.38533 -51.975952 10262156
168.42975 -23.516207 -28.805376 10524815
168.71994 -23.910955 -27.969007 8418667
169.20932 -23.903017 -27.058758 9734271
169.48813 -23.928223 -26.477142 9010808
179.54887 -23.866234 61.526005 9998474
179.24028 -23.835787 62.450096 8089963
179.07932 -23.562708 63.217026 8089963
159.78726 -22.792334 -103.92001 8814715
160.1615 -23.087688 -103.5081 8814715
165.74864 -23.349976 -51.500439 10262156
168.18469 -22.563725 -30.636976 8617591
168.38881 -22.785061 -29.839468 10788243
168.83531 -22.820431 -28.873547 9142907
169.20366 -22.919313 -27.96142 8681835
169.42606 -23.077208 -27.30172 8681835
179.61292 -22.878042 62.435822 8089963
179.25253 -22.924118 63.424469 6314576
179.16608 -22.650566 63.976974 5920074
159.89891 -21.96578 -104.21126 9012598
160.39523 -22.127861 -103.76888 8814715
167.97073 -21.34878 -34.569965 10656913
168.03087 -21.554602 -33.952431 10656913
168.39386 -21.619362 -33.058792 9735813
168.38535 -21.90373 -31.856768 10657173
168.64252 -21.985075 -30.927679 9143935
168.84872 -22.202282 -29.919399 11380380
169.11777 -22.222843 -29.338823 11380380
179.77251 -22.192642 62.734665 8089963
179.65746 -21.826653 63.471924 6051660
179.37091 -21.735891 64.399147 7498593
179.25812 -21.27882 65.230148 7301213
159.75313 -20.478745 -104.99286 8814203
159.99222 -20.952068 -104.60083 9077627
167.68179 -21.328825 -35.14069 11380380
168.6235 -20.989674 -34.280437 9932163
179.94174 -20.818348 63.768539 5920074
179.79398 -20.589153 64.447815 6117453
179.49229 -20.59024 65.316284 8222057
179.34392 -20.361671 65.996613 8682608
159.78123 -19.784815 -105.28608 8814203
160.36232 -19.80867 -104.84335 11379356
179.95341 -19.899652 64.750305 6511954
179.80516 -19.670256 65.431297 8090728
179.50275 -19.671692 66.301331 9735039
179.35394 -19.442774 66.983383 10853262
159.56927 -18.616802 -105.97248 8420470
159.94591 -18.909716 -105.55981 8946045
180.06741 -18.825016 65.609604 10129540
179.81589 -18.749308 66.41819 12432037
179.56413 -18.673931 67.227173 10064262
159.59685 -17.921074 -106.26698 9800838
160.17902 -17.942284 -105.82468 10129803
180.12981 -17.82457 66.535324 10261640
179.82623 -17.826227 67.408615 10525071
179.59842 -17.827707 68.06369 10261899
159.38438 -16.751266 -106.9559 7565675
159.76175 -17.043179 -106.54289 9077885
180.28979 -17.129837 66.841919 9735555
180.1405 -16.898964 67.527588 9143675
179.83617 -16.900892 68.402649 8090987
179.68628 -16.670349 69.089478 6510930
159.54056 -15.982647 -107.24588 8223088
160.02171 -16.074839 -106.82771 8617331
180.30057 -16.202429 67.836067 9735555
180.16371 -15.972138 68.528488 7827302
180.06793 -15.680584 69.380112 8288110
179.88239 -15.442654 70.32959 7695461
159.25975 -14.469874 -109.38115 10853518
159.45872 -14.916699 -108.39741 11379605
159.88272 -15.229408 -107.661 8419952
180.35216 -14.836125 70.348434 8617075
180.26561 -14.569807 71.417984 12629675
180.14975 -14.392413 72.277702 8089963
158.29718 -13.85546 -119.06862 9603967
158.89267 -14.136386 -113.37943 6840925
159.43262 -14.13511 -112.61522 6511954
180.96262 -13.997396 73.623581 9208182
180.73375 -14.00009 74.292267 9734529
180.42784 -14.003983 75.184227 9997702
181.21475 -13.602225 76.544441 10458253
180.94971 -13.609704 77.461731 9932166
180.75058 -13.61545 78.150314 8089963
158.31844 -13.134837 -119.3823 12236200
181.44109 -13.123574 76.383293 10129286
181.26656 -12.938942 77.236893 9800320
180.97984 -12.85205 78.354019 8945014
180.80437 -12.667436 79.210831 9734531
158.03758 -11.857308 -120.19379 8420208
158.60747 -12.177155 -119.60098 12433836
181.49655 -12.174462 77.439285 8681835
181.35999 -11.860996 78.329834 9867652
181.125 -11.708491 79.352562 9406590
181.08534 -11.233161 80.117081 9208187
157.81627 -10.638186 -120.99615 10131083
158.36421 -10.805018 -120.41425 12433836
181.59377 -10.504405 79.299072 9736836
181.32666 -10.510628 80.224815 10129544
181.10274 -10.435777 81.084106 9866117
157.56975 -9.5090027 -121.81049 11578012
158.01669 -9.7540445 -121.25051 10854547
158.47462 -10.000134 -120.69875 15197142
181.70699 -9.6311455 80.482224 10788241
181.46915 -9.5548267 81.337296 9406079
181.30644 -9.3151121 82.052521 10260875
157.68886 -8.7025537 -122.10458 8091504
158.21751 -8.8675537 -121.50566 9735299
181.72462 -8.6459398 82.349579 9668479
181.48462 -8.3548021 83.191025 10062979
157.44101 -7.568243 -122.92281 13156786
157.8894 -7.8135567 -122.36124 7037274
158.33769 -8.0591698 -121.79966 7037274
157.56017 -6.7573957 -123.21905 14011838
158.09035 -6.9221268 -122.61873 9077111
157.3111 -5.6176906 -124.04124 10591118
157.8508 -5.9125438 -123.36548 15196110
157.55788 -4.7616048 -124.23613 8683123
157.97287 -5.1301188 -123.64448 10591118
173.71904 -30.397903 9.3956699 7564651
172.7821 -29.317133 -0.0089299679 7103835
172.90059 -29.337088 0.82207704 7761509
173.01779 -29.357641 1.6544459 6117195
173.16241 -29.38389 2.696707 6314574
173.30522 -29.410872 3.7406886 9536890
173.45134 -29.439518 4.7869759 7563619
173.48712 -29.670553 5.8312302 9208443
173.65028 -29.703079 6.6730862 8813683
173.8542 -29.744701 7.7281761 8682097
174.0582 -29.787399 8.7860832 8156529
174.1794 -29.815233 9.6322975 10391945
174.21443 -29.831411 10.684732 9208186
174.39484 -29.74028 11.790968 9011578
174.45877 -29.736061 12.68618 10722452
174.72112 -29.507034 13.671982 10919832
174.73764 -29.523865 14.730244 10261903
174.70714 -29.577282 15.700756 10722709
174.87114 -29.463158 16.649086 9999753
174.97287 -29.385962 17.720987 8092017
174.96672 -29.399315 18.570749 8880507
174.95697 -29.416721 19.633923 8814197
170.27908 -28.683844 -20.97011 9800574
170.73256 -28.596066 -20.123554 9208435
171.13942 -28.617336 -19.281988 9800574
172.04446 -29.206509 -4.9717484 10064002
172.17065 -29.223816 -4.1473694 9208435
172.32664 -29.246117 -3.1152914 8091762
172.48068 -29.269098 -2.0815713 9078399
172.60213 -29.287951 -1.2534196 9538177
172.69257 -29.302341 -0.6317327 7761509
175.89009 -29.123167 19.743309 9143163
175.88069 -29.137449 20.599321 10063753
175.86717 -29.155903 21.670078 8617075
175.85497 -29.171255 22.527592 6512978
175.83781 -29.191113 23.600809 6840663
175.81859 -29.211681 24.675177 9537407
175.80154 -29.228632 25.53562 9668995
175.77824 -29.25054 26.61253 9210491
176.74637 -28.977936 27.634438 9210491
176.68277 -28.989563 28.495783 9538691
176.65402 -29.013119 29.58198 9670023
176.62967 -29.032515 30.452482 9670023
176.50369 -29.042393 31.52445 10919825
176.37611 -29.04652 32.377495 11709340
177.78659 -28.967014 37.534195 9076597
177.55244 -28.966162 38.601013 9143163
177.36038 -28.965488 39.453411 8551543
178.69914 -28.957293 46.35997 10392718
178.41197 -28.956484 47.432114 8879995
178.23656 -28.956003 48.074608 8287859
179.79431 -28.948936 53.651817 9734788
179.59616 -28.948473 54.299171 7958377
179.51283 -28.793486 55.360725 7300446
179.52205 -28.557129 56.407402 8880246
161.30069 -27.460651 -100.28381 10524298
161.8721 -27.475243 -99.565659 10984591
162.05989 -27.446426 -98.880646 9208435
170.24222 -27.684111 -21.865622 10326922
170.59169 -27.866503 -21.007978 10589834
170.97604 -27.825935 -20.262819 9471607
171.24242 -27.943386 -19.626833 9208435
179.97353 -28.11021 55.60001 7563619
179.76996 -27.926151 56.390987 8616306
179.49913 -27.764551 57.351334 7169117
161.10542 -26.555391 -101.2364 11248024
161.54248 -26.924616 -100.70167 10326923
162.03757 -27.4028 -98.336014 9208435
162.00235 -27.337763 -97.521179 9932419
161.95248 -27.251526 -96.438797 9274747
161.89915 -27.165842 -95.360886 8682867
161.85716 -27.101875 -94.555389 11379607
161.81303 -27.038212 -93.752808 11379607
170.1118 -26.675997 -22.957615 10261643
170.51848 -26.791157 -22.039209 10327436
170.98337 -26.842665 -21.055433 10984593
171.1843 -27.079372 -20.453993 11379348
180.06848 -26.977139 56.581001 9011065
179.8703 -26.812796 57.334801 8747893
179.63029 -26.59454 58.26899 6905689
161.22874 -25.823917 -101.47597 9537923
161.83453 -26.136253 -100.88407 8288627
163.77882 -26.17651 -84.442429 10459278
163.70125 -26.116247 -83.660629 9998727
163.59528 -26.036404 -82.621979 10985622
163.48637 -25.957018 -81.587769 10789012
163.37459 -25.878191 -80.558266 10262667
169.95537 -25.837774 -23.962729 11248021
170.36627 -25.922636 -23.06085 10064519
170.83804 -25.880823 -22.139536 10064776
171.12547 -26.216858 -21.281376 10590095
180.16296 -25.842163 57.565758 9734788
179.95802 -25.658417 58.360405 7958633
179.68544 -25.497494 59.325043 6511187
161.12337 -24.708904 -102.05904 8288627
161.39819 -25.070749 -101.69091 9209215
165.06216 -25.209644 -73.431419 7038307
164.963 -25.154884 -72.679581 8814715
164.82852 -25.082205 -71.680717 9735043
164.69122 -25.009987 -70.686142 9669504
164.58653 -24.956089 -69.942825 14603206
166.16728 -24.383595 -63.666634 10853012
169.70407 -24.371212 -25.676176 10129798
169.87669 -24.726486 -25.034662 9537918
170.29105 -24.851492 -24.092749 10458763
170.70631 -24.977728 -23.148018 9998726
180.28046 -24.780844 58.40226 7433056
179.97308 -24.748419 59.324883 6248526
179.8134 -24.474409 60.089073 7826791
161.15402 -24.016689 -102.34965 8025201
161.6601 -24.275093 -101.85641 8288627
166.00546 -24.327002 -62.922943 9471359
165.78319 -24.251368 -61.933487 8287085
165.61516 -24.194935 -61.194412 7563619
166.95961 -23.691019 -56.066586 9734529
166.64497 -23.600199 -54.854744 8550514
166.39136 -23.52807 -53.890045 5919050
169.80309 -23.702589 -26.024622 9997442
170.21471 -23.782305 -25.125542 9603711
170.62752 -23.863085 -24.223389 9670017
180.29573 -23.868862 59.368294 6511954
179.9734 -23.791346 60.384132 11446432
179.75269 -23.562725 61.274174 8089963
161.25922 -23.096075 -102.68821 8156787
167.74611 -23.085865 -49.480103 14078923
167.53731 -23.033342 -48.766052 16777207
169.52672 -22.669449 -27.735128 8681835
169.72589 -22.824265 -27.070589 9208179
170.08485 -22.923315 -26.150734 10260869
170.52603 -22.960779 -25.170891 9867395
170.72787 -23.191441 -24.57233 10064774
180.50746 -23.108799 59.599415 7959144
180.36157 -22.879505 60.274193 13089457
179.9874 -22.878393 61.355087 10393488
160.98888 -21.857872 -103.44978 8090221
161.55824 -22.183172 -102.8792 8089963
168.93602 -21.417551 -32.658348 9867398
169.20436 -21.436016 -32.078144 11709345
169.54289 -21.453938 -31.089102 9603970
169.54155 -21.645247 -30.039467 10261643
169.69466 -21.856794 -29.017775 9800835
169.90187 -22.076519 -28.00453 9076593
170.24321 -22.102659 -27.22114 10457478
170.4135 -22.323383 -26.409725 10261126
180.52229 -22.193708 60.570244 7564643
180.45454 -21.73527 61.273506 7564643
180.11765 -21.67757 62.309418 7761510
179.93555 -21.276846 63.278809 5920074
160.72153 -20.520342 -104.25402 8814203
161.19244 -20.889254 -103.73695 8813430
168.91417 -21.009874 -33.706039 9932163
169.30228 -21.03714 -32.938358 9867398
169.6909 -21.064898 -32.168373 13551549
180.69397 -20.818316 61.598488 7564643
180.54713 -20.588348 62.276909 7563875
180.21654 -20.542461 63.281189 6577492
160.94498 -19.832827 -104.39919 9406339
161.45393 -20.086952 -103.90574 12432045
180.70786 -19.898722 62.57658 7563619
180.56029 -19.66853 63.256531 7563619
180.22874 -19.6229 64.262566 6774870
160.73375 -18.661419 -105.0865 7564651
161.01146 -19.02141 -104.71709 8485239
180.82368 -18.82329 63.431396 8747893
180.57274 -18.746658 64.23938 8419182
180.32156 -18.670406 65.047752 8682608
160.76277 -17.963837 -105.38106 8287859
161.34785 -17.985638 -104.93641 8419187
180.83636 -17.899323 64.416 8221546
180.52365 -17.869232 65.350815 8024423
180.43608 -17.592134 65.909424 8682608
160.55125 -16.790678 -106.07092 11380380
160.93004 -17.083685 -105.65643 9011064
181.049 -17.127316 64.656372 7037274
180.90034 -16.895767 65.340782 8813683
180.59654 -16.896776 66.215424 9471612
180.44734 -16.665628 66.900986 9735555
160.60355 -16.093445 -106.38242 10261899
161.18652 -16.112247 -105.93611 9340027
181.06151 -16.199211 65.646278 8813683
180.99423 -15.831587 66.412407 9930878
180.75984 -15.74152 67.265968 10984851
180.64862 -15.437535 68.134407 9735299
160.36127 -14.496249 -108.44759 7828326
160.60225 -14.948388 -107.49296 8617331
161.04181 -15.263651 -106.76477 9143675
181.26088 -14.829759 67.703491 10786187
181.03401 -14.831059 68.364487 9735812
181.03354 -14.564198 69.213219 8617075
180.84875 -14.387197 70.293503 9143675
159.27382 -13.876484 -118.31431 8617334
159.70108 -14.134472 -112.23196 6511954
160.23473 -14.133197 -111.46349 7235676
160.7653 -14.131924 -110.69288 8683120
181.72214 -13.989518 71.395317 10591124
181.41882 -13.992444 72.286514 9735817
181.59422 -13.787901 73.3741 8879475
181.87572 -13.584902 74.255783 9471352
181.61165 -13.59163 75.170547 9471355
181.41325 -13.596828 75.857132 10129286
159.4516 -13.077383 -118.54579 6709597
182.06766 -12.950255 74.420296 9339765
181.8522 -12.87658 75.270973 8945008
181.63629 -12.803053 76.122879 10129286
159.18628 -11.785315 -119.34021 9275516
159.31931 -12.431773 -118.94307 5920082
182.12479 -12.001148 75.470688 8945524
181.90869 -11.926945 76.32399 10260873
181.69223 -11.852907 77.178612 9142387
181.6852 -11.218484 78.038811 9736836
158.91902 -10.49115 -120.13589 15197142
159.40002 -10.861934 -119.60048 10986135
182.2569 -11.086505 76.213303 9603712
182.11234 -10.731767 77.185867 10196105
181.91637 -10.449463 78.242958 10131337
159.03386 -9.7171516 -120.40298 12828081
159.65552 -10.017413 -119.79277 9341315
182.4781 -9.6226339 78.209351 11052182
182.17172 -9.5944319 79.188217 10526094
182.1098 -9.3121662 80.0504 14076861
158.73917 -8.7098923 -121.10152 9931906
159.33917 -8.879076 -120.55449 9341315
182.67686 -8.8328695 79.515091 10788241
182.44492 -8.8351517 80.199318 10788241
182.13524 -8.8384762 81.112213 9998726
158.47917 -7.5735474 -121.90879 7037274
158.94196 -7.8199325 -121.35713 8089961
159.45114 -8.0689573 -120.84026 7564651
158.59981 -6.7618308 -122.20396 9208184
159.23027 -6.8466082 -121.57779 7563617
158.35228 -5.62079 -123.02538 13156786
158.92107 -5.8183169 -122.3708 9274235
159.25256 -6.1132088 -121.89791 7037274
158.4942 -5.1314678 -123.13587 13156786
174.97156 -29.29298 10.734547 9142905
174.97549 -29.300089 11.368116 9142905
171.45758 -28.398769 -18.817005 9341054
171.65862 -28.638796 -18.212805 9077882
172.12648 -28.697947 -17.216513 8880503
172.53786 -28.822935 -16.28067 9340289
172.79816 -29.001381 -15.606845 9340289
173.20595 -29.021162 -12.085904 7564135
173.25786 -29.020275 -11.253806 8418928
173.30579 -29.019398 -10.421541 9537409
173.35991 -29.018303 -9.3808098 10524045
173.40811 -29.017208 -8.3398457 10261130
173.44971 -29.016123 -7.2986145 13353398
173.4854 -29.015041 -6.2571087 12761775
173.50926 -29.014183 -5.4237728 10064002
173.53325 -29.013117 -4.3819294 9340537
173.55147 -29.012051 -3.3399923 10854036
173.56293 -29.010994 -2.2979791 9341569
173.56854 -29.009943 -1.2559202 9538433
173.64781 -29.02223 -0.42199302 8288109
173.7984 -29.047007 0.6220305 7103833
173.9473 -29.072449 1.6678374 8287592
174.09404 -29.098726 2.7155421 8748142
174.23897 -29.125618 3.7652667 8089705
174.35312 -29.147617 4.606596 8089705
174.49403 -29.175825 5.6600647 10260871
174.63309 -29.204735 6.7154026 8419440
174.74289 -29.22838 7.561264 7826791
174.8783 -29.258659 8.6206074 8813944
174.96324 -29.281597 9.679285 11378324
174.96844 -29.288307 10.312296 10063238
175.90678 -29.007599 11.43309 9932676
175.91205 -29.02006 12.495411 9142905
175.91518 -29.033155 13.558512 8879479
175.91608 -29.044149 14.40942 10130059
175.91521 -29.058563 15.474306 9933450
175.91226 -29.073664 16.540092 7565675
175.90694 -29.089466 17.606779 7894639
175.89964 -29.105934 18.674496 8617331
175.89421 -29.116192 19.315586 9012089
177.32245 -28.981237 23.807661 12432037
177.23206 -28.98068 24.446301 10590092
177.07629 -28.979759 25.509943 9077111
176.91457 -28.978844 26.572689 11840413
176.81447 -28.978296 27.209887 10657166
178.45119 -28.969612 34.325737 8287342
178.23598 -28.968739 35.396538 9405823
178.01465 -28.967871 36.466064 9734529
179.46968 -28.959591 43.34911 9209468
179.20049 -28.958759 44.425999 8090475
178.98042 -28.958103 45.286217 10787988
180.47011 -28.916908 50.55941 10262156
180.44183 -28.78672 51.33342 9998728
180.29312 -28.773607 52.293098 9668994
180.21483 -28.671976 53.149567 9471616
180.21115 -28.560677 54.251476 8682100
171.56102 -27.723879 -19.161699 9800832
171.97557 -27.816679 -18.24577 7564643
172.39143 -27.910816 -17.326235 9143419
180.61847 -28.059723 52.247341 9406590
180.59946 -27.858248 53.185802 9208700
180.45361 -27.928877 54.230476 9340030
180.23854 -27.773932 55.207748 8616307
162.26505 -26.624504 -100.34296 9471359
162.6622 -26.988613 -99.781097 10589836
164.18614 -26.523476 -88.923248 8354164
164.09529 -26.440994 -87.861443 7367012
171.41371 -26.819735 -20.202538 10853004
171.88487 -26.852999 -19.220953 10787727
172.32224 -26.866861 -18.323755 8419952
172.4959 -27.232641 -17.671637 7564643
180.8143 -27.187944 53.486534 11905701
180.78459 -27.057089 54.26786 9011065
180.59007 -26.81369 55.257118 9537409
180.35757 -26.571775 56.19603 9405823
162.39017 -25.891005 -100.58212 8485491
162.99867 -26.205057 -99.987572 9537150
164.00131 -26.35902 -86.804253 9208699
163.90428 -26.277555 -85.75174 9208699
163.82965 -26.216785 -84.965302 10459278
165.62485 -25.515711 -77.511002 11576473
165.52216 -25.457735 -76.740433 8681843
165.4182 -25.39996 -75.972237 8681843
171.15938 -25.36536 -21.911953 10064519
171.4263 -25.735619 -21.067352 11313559
171.75075 -25.856262 -20.311264 11774109
172.16673 -25.901909 -19.431541 10392973
180.9053 -25.851025 55.414291 10261132
180.68692 -25.620239 56.299782 9340030
180.36642 -25.540758 57.312603 9734788
161.89781 -24.751177 -101.46413 9537923
162.50655 -25.063145 -100.87036 7499368
165.34793 -25.361513 -75.461609 8681843
165.24127 -25.304298 -74.698029 7038307
165.13326 -25.247284 -73.936615 7038307
166.70763 -24.611052 -66.864426 5393738
166.54414 -24.54056 -65.875732 8617334
166.3782 -24.470528 -64.891289 9275264
166.2522 -24.418306 -64.155716 10853012
171.00601 -24.495834 -22.937227 9867139
171.30161 -24.738806 -22.138916 9669503
171.77043 -24.786398 -21.15081 11050388
172.08878 -24.89089 -20.420475 10853266
181.02467 -24.788242 56.24691 9471616
180.70366 -24.708624 57.261276 8155756
180.48427 -24.478575 58.148956 9406590
162.21637 -24.026567 -101.55534 7039331
162.82622 -24.337997 -100.96095 7039331
167.6412 -23.893682 -58.760063 7563618
167.4567 -23.838013 -58.021893 10853012
167.2092 -23.764261 -57.041794 11379095
170.94528 -23.637226 -23.765593 10261387
171.14774 -23.869507 -23.16514 9603453
171.61646 -23.914635 -22.17898 9405816
172.02895 -24.026516 -21.252104 9997959
181.04166 -23.874762 57.209736 9011065
180.71988 -23.795744 58.2257 8156523
180.49989 -23.56579 59.115177 6511954
162.06677 -22.440147 -102.38479 9011579
162.38525 -23.07555 -101.86034 7499625
168.43509 -23.262728 -51.880608 6511954
168.22948 -23.209393 -51.15741 7959142
167.95389 -23.138588 -50.197208 8682867
169.07124 -22.662695 -45.2756 9669503
170.65663 -22.34226 -25.817944 10064774
170.90016 -22.361433 -25.224951 9210491
171.14386 -22.750637 -24.15937 10130312
171.54591 -22.839128 -23.218235 10064008
171.89558 -23.013798 -22.354586 9932677
181.25455 -23.114367 57.437813 8090987
181.04872 -22.929375 58.236549 9275260
180.77487 -22.767241 59.206238 7235421
162.1908 -21.702168 -102.6267 9208188
170.33148 -21.496866 -28.703636 9536888
170.52818 -21.508181 -28.105377 9536888
170.7664 -21.622532 -26.987989 11115152
171.03915 -21.746117 -26.084404 9604736
171.3651 -21.770891 -25.292036 10064774
171.61729 -22.000177 -24.277176 10195849
181.27109 -22.197981 58.40522 10459534
181.14966 -21.803732 59.192204 7827558
180.8745 -21.605734 60.205425 10064006
161.88875 -20.571344 -103.36317 12432045
162.3615 -20.94178 -102.84399 9866118
170.39758 -20.951864 -31.157616 9538948
170.70436 -20.998194 -30.311121 10262671
170.86771 -21.138905 -29.213234 10459280
171.18622 -21.156017 -28.211071 9932166
171.41467 -21.162962 -27.193052 9471871
181.44522 -20.821188 59.428066 7038307
181.23804 -20.636118 60.230694 8945784
180.96251 -20.474184 61.204853 9406333
162.0123 -19.831287 -103.6064 11510943
162.6256 -20.137451 -103.01184 10984599
181.46078 -19.900499 60.402725 8617593
181.25316 -19.715364 61.206863 11116438
180.97681 -19.553539 62.182884 8879735
161.70868 -18.699505 -104.34449 8814203
162.18257 -19.068483 -103.82515 9274494
181.57899 -18.824203 61.25322 11709091
181.26741 -18.792749 62.18615 11511454
181.10522 -18.515516 62.960068 9340286
161.9346 -18.007738 -104.49045 9668735
162.44679 -18.261208 -103.99477 9012091
181.59335 -17.899237 62.234085 9406082
181.26659 -17.821861 63.261574 9866373
181.04265 -17.590614 64.16275 8813683
161.72394 -16.831079 -105.18127 10590091
162.00293 -17.191896 -104.81018 9340027
181.80717 -17.127197 62.471245 8617081
181.6591 -16.894945 63.154587 8484977
181.32599 -16.84865 64.165924 8418926
161.58536 -15.433235 -106.19762 8090987
161.90337 -15.904628 -105.57445 9076856
162.26743 -16.381371 -104.98176 9340027
181.8213 -16.198193 63.457146 7893608
181.75549 -15.83001 64.221046 9866626
181.48309 -15.738741 65.165466 10194820
181.49532 -15.283747 66.053009 9733499
161.46559 -14.523367 -107.50911 8090987
161.80571 -14.83028 -106.71253 8419952
162.28214 -14.99408 -106.09841 10590091
182.01617 -14.826659 65.50087 10786187
181.91216 -14.678634 66.289581 9733499
181.70744 -14.605246 67.124863 8943983
181.62016 -14.383084 68.089088 9142651
160.24252 -13.897153 -117.54962 9998729
160.82285 -13.909593 -117.08779 8089963
161.02921 -14.131289 -110.30647 13023917
161.42297 -14.130333 -109.72566 7762021
161.815 -14.129379 -109.14364 6511954
182.40118 -13.983891 69.391029 8089963
182.09985 -13.986181 70.281754 8419698
182.30237 -13.776698 71.119598 9933195
182.46851 -13.571039 72.201141 10591124
182.20531 -13.576938 73.11367 11905692
160.02699 -12.68664 -118.28001 7564648
160.59698 -13.008146 -117.6831 8551285
182.77556 -12.855775 72.069092 9012095
182.45657 -12.909923 73.113388 9537144
182.32881 -12.628852 73.930283 9208179
160.31911 -11.724916 -118.49619 6446168
182.9516 -12.141958 72.393959 8681835
182.83443 -11.906922 73.1129 9734523
182.57042 -11.912301 74.029152 9471351
182.35492 -11.837723 74.881081 9668988
159.90361 -10.506463 -119.38023 9341315
160.41762 -10.75704 -118.86739 5919050
183.01071 -11.190553 73.439949 9734523
182.95622 -10.812204 74.238602 10458503
182.74223 -10.72128 75.127419 9340796
182.59938 -10.40536 76.013329 8946038
160.21637 -9.7339659 -119.49434 10065037
160.83212 -10.034585 -118.87651 5919050
183.16763 -9.6554575 76.079964 9340539
182.94704 -9.4923525 77.127579 10392457
182.804 -9.3049679 78.002846 9405563
159.89774 -8.5615215 -120.2751 8420215
160.38025 -8.9329996 -119.7367 8420215
183.17766 -8.8302231 78.164162 11313302
183.2514 -8.5181465 79.068047 14603720
183.1833 -8.3616686 79.738197 14076861
160.01407 -7.7823696 -120.54337 7893357
160.63919 -8.0824261 -119.93069 7564651
159.81773 -6.8517437 -121.11874 7037274
160.33919 -7.1014395 -120.60791 8090479
159.6416 -6.1160331 -121.58961 7564651
172.76997 -28.564228 -16.022945 9340289
173.02716 -28.742138 -15.347688 8156530
173.2841 -28.843369 -14.391603 9341059
173.56059 -28.874487 -13.365313 8486007
173.16441 -29.021828 -12.709718 7038307
176.16701 -29.001339 4.8752995 9734014
176.14502 -29.000721 5.5098896 8419440
176.11221 -28.999903 6.3558807 8419440
176.06528 -28.998886 7.4131145 7367011
176.01248 -28.997873 8.4700851 8486262
175.95285 -28.996868 9.5267124 9997959
175.90187 -28.998253 10.584 7563619
177.86536 -28.985006 19.542185 8288366
177.76462 -28.984249 20.396282 9143158
177.63356 -28.983297 21.463306 8616301
177.52397 -28.982544 22.316221 9734788
177.41028 -28.981796 23.168709 7892582
179.13416 -28.972633 30.675631 10984596
179.01901 -28.972092 31.320768 10984596
178.82178 -28.971201 32.395058 9471608
178.61855 -28.970314 33.468189 9208182
180.18961 -28.961946 40.325783 7564651
179.98883 -28.961267 41.190788 7367013
179.73273 -28.960423 42.270813 10855060
180.9303 -28.814997 46.253975 9932416
180.91394 -28.61166 47.178989 9998212
180.81743 -28.632364 48.084602 7169635
180.6962 -28.659206 49.218605 9340798
180.60928 -28.610384 50.286381 9604226
180.58112 -28.479898 51.060177 10130313
172.71303 -27.691118 -16.85519 7564651
172.98309 -27.811113 -16.20982 8748666
173.37474 -27.773565 -15.447658 8419702
173.73204 -27.964243 -14.567527 10064524
181.10251 -27.812977 48.239235 9142904
181.04042 -27.75728 49.079376 9538177
180.9126 -27.826832 50.121536 9472640
180.82744 -27.763502 51.224808 10393485
180.7785 -27.609724 52.294205 8682867
163.23595 -26.683437 -99.594627 9537150
163.7225 -26.979584 -98.923912 8221805
164.61172 -26.9657 -94.575157 6511954
164.55626 -26.901583 -93.759827 6511954
164.47964 -26.816618 -92.676712 8682608
164.4201 -26.753263 -91.867363 13023917
164.35861 -26.69021 -91.060959 7367010
164.27402 -26.606615 -89.989738 7630187
172.62654 -26.384655 -18.103876 9538176
172.88805 -26.793139 -17.238775 8946042
173.33087 -26.813364 -16.325701 7564651
173.71948 -26.802523 -15.547842 9011581
181.25655 -27.088858 49.372921 10064262
181.26387 -26.879541 50.079079 9735813
181.13539 -26.949116 51.124649 9669762
181.10886 -26.705727 52.289623 9143418
181.03612 -26.639135 53.268551 8683124
181.01471 -26.45046 54.179356 9472383
163.55757 -25.959686 -99.683105 8616306
166.14561 -25.830391 -81.66555 9011064
166.05127 -25.770794 -80.881004 7629928
165.92323 -25.691715 -79.838844 7564651
165.79225 -25.613197 -78.801422 9011579
165.69234 -25.554665 -78.026253 11576473
172.56805 -25.515646 -18.936533 10459278
172.7717 -25.753767 -18.328587 9735555
173.24524 -25.807138 -17.326124 9867142
173.66174 -25.927086 -16.384319 8814200
181.45143 -26.07589 51.152039 9603969
181.46797 -25.793924 52.022827 9209211
181.41844 -25.637787 53.097633 6841687
181.33144 -25.573629 54.211792 8288621
181.10912 -25.549957 55.159615 8683379
163.06442 -24.81588 -100.56762 7039331
163.6759 -25.12948 -99.971016 7826791
167.33583 -24.897774 -70.86293 7038302
167.18266 -24.825357 -69.856758 9011838
167.02692 -24.753498 -68.854919 9011838
166.86855 -24.682043 -67.857506 9538179
172.32014 -24.628517 -20.167671 10590095
172.61838 -24.874825 -19.361572 10656401
173.09164 -24.9254 -18.361883 9998727
173.41302 -25.032398 -17.623323 9867141
181.69025 -24.909723 53.035606 7368031
181.67163 -24.703993 53.98114 7828326
181.44749 -24.717829 55.104725 9867397
181.2289 -24.486341 55.992188 8682867
163.4364 -23.847679 -100.7293 7038559
163.99835 -24.40259 -100.06035 7037274
168.36736 -24.11919 -61.741241 11182489
168.18747 -24.062408 -60.991833 10261387
167.94592 -23.987085 -59.996872 5920074
167.76344 -23.930861 -59.253754 5919050
169.24727 -23.479294 -54.801903 7564642
169.0457 -23.424747 -54.067596 8089963
168.84315 -23.370502 -53.335693 8813686
172.30312 -23.481216 -21.145407 10327177
172.54373 -23.791096 -20.403484 10458508
173.01741 -23.838629 -19.405521 10787986
173.35388 -24.161095 -18.459402 10130313
181.88838 -24.027536 54.284668 10064265
181.72401 -23.921255 55.189655 9999239
181.45148 -23.757385 56.157413 9012088
181.24615 -23.572058 56.955185 8682867
163.12212 -22.647535 -101.50631 10393743
163.59337 -22.826824 -101.0748 8946812
168.70758 -23.334442 -52.849407 9406331
168.57155 -23.298584 -52.36438 6511954
169.88989 -22.853056 -47.898483 10063750
169.66779 -22.800797 -47.179565 8550512
169.37029 -22.731468 -46.225082 7037274
172.24236 -22.61731 -21.978436 9669245
172.56276 -22.718452 -21.246782 10129797
172.94197 -22.754093 -20.449753 10327433
173.26381 -22.856705 -19.713881 10196360
182.00099 -23.123135 55.2747 10460046
181.78162 -22.8909 56.164856 9802116
181.45935 -22.810896 57.183029 10656913
163.27026 -21.800222 -101.77981 8946556
170.62509 -22.308022 -41.979965 10063753
171.92917 -21.605158 -24.320141 10984339
172.18204 -21.835175 -23.302387 10853012
172.59189 -21.868605 -22.302595 9998213
172.92264 -21.966614 -21.360514 10064003
173.09169 -22.122307 -20.678091 10459019
182.01906 -22.205151 56.239109 11381404
181.87732 -21.801437 57.095474 13815489
181.60663 -21.588358 58.112469 11643808
163.0619 -20.623693 -102.46732 9011579
163.41829 -20.951176 -102.0541 8486262
171.23439 -20.766941 -30.120522 13486011
171.53998 -20.785786 -29.32534 9998473
171.84875 -20.801249 -28.31749 9932166
172.06723 -20.806782 -27.293854 8879990
171.95793 -20.991014 -26.220968 8814709
172.1694 -21.001076 -25.407709 11445400
172.47462 -21.019188 -24.395405 11444889
172.65257 -21.240616 -23.364437 10261387
172.89941 -21.259983 -22.76347 10261387
182.19551 -20.826963 57.25684 15197142
181.97476 -20.594643 58.1511 10064776
181.65076 -20.515553 59.17345 8420212
163.18726 -19.881559 -102.71013 9077373
182.21289 -19.904974 58.227966 8090987
181.9915 -19.672585 59.124065 9867913
181.66678 -19.593925 60.148159 7564650
162.88391 -18.746298 -103.44968 9341055
163.35965 -19.116726 -102.92828 8617335
182.33311 -18.827679 59.074497 8091249
182.00784 -18.748823 60.100166 7038307
181.78523 -18.516697 60.998528 10262671
163.00957 -18.001997 -103.69435 9406848
163.62686 -18.307396 -103.09711 9012091
182.34944 -17.901682 60.051918 7038307
182.02318 -17.823122 61.079254 9143168
181.79993 -17.590895 61.979515 10261391
162.70567 -16.86561 -104.43623 9537919
163.23578 -17.072119 -103.94856 9012091
182.56439 -17.129379 60.285931 7038307
182.35556 -16.942722 61.0942 9603462
182.0778 -16.77939 62.075272 7827566
162.75151 -15.469231 -105.29443 8089963
162.89418 -16.013739 -104.74127 8353134
182.58025 -16.199478 61.268196 8617081
182.44882 -15.891796 62.121368 7959407
182.26106 -15.66157 63.038246 8617331
182.25366 -15.282487 63.856384 8354159
162.575 -14.551275 -106.56704 9735042
162.95506 -14.862909 -105.79546 8287597
182.76976 -14.825562 63.298752 8814710
182.6689 -14.6771 64.086357 8156780
182.46669 -14.603094 64.921074 9866369
182.38617 -14.380628 65.884163 10786187
161.47821 -13.682163 -116.67822 8089963
162.06111 -13.694748 -116.21425 8089963
162.22324 -14.130019 -108.57226 9735296
162.92926 -14.144698 -107.91665 9735296
183.15123 -13.979172 67.164604 8878963
182.85181 -13.980809 68.055115 8616307
183.19695 -13.659896 68.940689 10260875
183.05943 -13.558659 70.150665 10590094
182.86267 -13.562608 70.833694 12432037
161.19011 -12.709016 -117.35564 8616820
161.77341 -12.720476 -116.89195 8550513
183.54834 -13.07753 69.074493 11379356
183.36685 -12.844355 70.016327 11510937
183.03857 -12.850493 71.15625 11971744
161.42188 -11.695748 -117.64314 9208955
161.80048 -11.993794 -117.20758 8089963
183.60927 -12.129934 70.109711 8090987
183.43733 -11.943105 70.956749 9209210
183.20438 -11.781183 71.984863 7827815
161.00092 -10.76625 -118.40475 5919050
161.58543 -10.775609 -117.94111 9077369
183.73555 -11.1779 70.920578 8814452
183.57785 -10.865752 72.047935 8880501
183.42365 -10.632066 73.009094 9143416
183.43765 -10.24117 73.870087 10393224
161.38861 -9.750453 -118.57096 9143162
184.00278 -9.7669334 73.328201 7564643
183.86598 -9.6109571 74.13063 9472638
183.63522 -9.5337191 74.981689 10129797
183.57304 -9.2983246 75.731773 9537918
161.07907 -8.5758867 -119.3586 6709082
161.32202 -9.0670385 -118.94003 7695717
184.15994 -8.83356 75.976913 10655883
184.02885 -8.5968122 76.962433 10852751
183.92462 -8.3616199 77.96302 10326664
160.90909 -7.841073 -119.83205 7564651
174.25853 -28.323994 -13.205954 13024949
174.3532 -28.552404 -12.581296 9603972
174.63194 -28.585426 -11.547091 9076857
174.91107 -28.61945 -10.510474 10326925
175.15269 -28.693644 -9.5535603 8945272
175.45253 -28.644518 -8.5549536 9208443
175.64999 -28.787914 -7.6621056 9208443
175.78471 -28.953087 -6.9625759 9208443
176.24631 -29.009338 -3.1666105 10458246
176.25328 -29.008694 -2.5316999 8879991
176.25922 -29.007839 -1.6851118 10262156
176.26064 -29.006777 -0.62683082 9275261
176.2562 -29.005716 0.43148637 9931137
176.24783 -29.004873 1.2780688 9470843
176.23151 -29.00383 2.3361876 9931650
176.20917 -29.002787 3.3943198 9932678
176.18658 -29.001955 4.2405834 9142135
178.3049 -28.98889 15.264893 7960175
178.20479 -28.987907 16.335247 10721677
178.11986 -28.987129 17.190994 9604480
178.00774 -28.986164 18.260128 9209468
177.91394 -28.985392 19.114956 9012089
179.67441 -28.975368 27.443924 9603713
