# .PCD v0.7 - Point Cloud Data file format
VERSION 0.7
FIELDS x y z rgb
SIZE 4 4 4 4
TYPE F F F U
COUNT 1 1 1 1
WIDTH 1201
HEIGHT 1
VIEWPOINT 0 0 0 1 0 0 0
POINTS 1201
DATA ascii
-147.53282 -71.849701 18.641205 8880502
-148.38394 -71.756874 17.841125 9143674
-148.94028 -71.675507 17.058815 11117207
-149.19536 -71.606369 16.29985 11248793
-150.0553 -71.526215 15.662365 9932423
-150.90662 -71.430969 14.832645 7827308
-151.45724 -71.34803 14.027256 7038307
-101.49892 -70.472366 74.927544 11182492
-102.21137 -70.575645 74.522453 8222833
-103.03485 -70.739212 74.035912 7959150
-103.60009 -70.883995 73.688492 9537923
-151.70062 -71.277946 13.251835 7038307
-152.56505 -71.195396 12.586826 9406081
-153.41644 -71.097809 11.726925 9866374
-153.96117 -71.013184 10.898037 9142651
-154.21255 -70.956726 10.293919 6511954
-101.4794 -69.597862 75.300156 8288370
-102.43513 -69.686127 74.777596 8748150
-103.11993 -70.03743 74.283699 11904668
-100.22133 -68.260185 76.49469 7760997
-100.71983 -68.688583 76.063507 6510930
-101.76257 -68.625992 75.55925 8222061
-102.41144 -68.961983 75.090012 8287600
-99.599983 -67.409821 77.16333 9867404
-100.2063 -67.504654 76.815681 7234653
-100.99802 -67.732529 76.318565 6971993
-101.69058 -67.776794 75.94809 7564642
-99.082825 -66.239822 77.911507 12235693
-99.58255 -66.658058 77.48394 9867404
-100.48058 -66.552353 77.071159 8617332
-101.19401 -66.833092 76.591972 8090986
-98.995483 -65.482635 78.269958 10656663
-99.85318 -65.708961 77.739975 8748662
-100.54347 -65.744942 77.374077 6511954
-98.236412 -64.547203 79.0439 7564130
-99.163658 -64.59845 78.551163 9932935
-100.0423 -64.81665 78.013908 8880246
-97.763794 -63.454334 79.726448 7629923
-98.419228 -63.660984 79.318512 8485745
-99.182457 -63.761925 78.888512 9604226
-97.170471 -62.473984 80.389473 7236188
-97.845573 -62.619251 80.026039 9537405
-98.68071 -62.720459 79.57563 11643036
-99.186127 -63.126614 79.150192 9209726
-96.451355 -61.179359 81.236046 6512978
-97.121109 -61.630615 80.752586 8288364
-98.006737 -61.701771 80.324402 9669762
-98.653847 -61.981789 79.895714 9209726
-95.837685 -60.307373 82.04052 9866883
-96.400787 -60.57843 81.589142 8091241
-97.323845 -60.7542 81.052094 7696488
-94.721771 -59.227474 83.753365 9406589
-95.339035 -59.493202 83.040459 10261640
-95.956482 -59.725605 82.496788 8616818
-96.752045 -59.888206 81.984222 6446166
-83.726471 -58.382122 96.9245 8419439
-84.720444 -58.488598 96.436035 9932422
-85.393105 -58.742714 95.644966 7037274
-85.777626 -58.799751 94.805397 7037274
-86.374985 -58.801678 93.976967 8551540
-87.162964 -58.803757 93.245049 10591123
-87.945061 -58.80584 92.506889 7959145
-88.610306 -58.807621 91.868843 7564131
-89.083191 -58.809475 90.947174 8024938
-89.63559 -58.811131 90.28537 7103066
-90.098534 -58.813129 89.235634 6642517
-90.846741 -58.815193 88.47287 8089963
-91.482773 -58.816956 87.813927 9142651
-92.114059 -58.818718 87.150436 9471616
-92.822205 -58.843628 86.225563 8682356
-93.407234 -58.911533 85.437675 7498856
-94.132584 -58.982876 84.860626 8090991
-94.617096 -59.032227 84.475319 8814711
-83.24469 -57.433151 97.520729 8682867
-83.977127 -57.577984 97.134193 8748660
-84.74305 -57.818321 96.694374 11709089
-82.641182 -56.219097 98.277718 7959401
-83.253281 -56.514702 97.884773 7433056
-84.124451 -56.695786 97.421516 8090730
-82.066513 -55.375969 98.873245 8090987
-82.637253 -55.441517 98.590988 8353902
-83.552567 -55.548882 98.137428 7762021
-84.130592 -55.952412 97.716492 10130313
-81.924706 -54.622417 99.238663 9012089
-82.876122 -54.470905 98.872635 10459279
-83.491837 -54.763561 98.479225 8814709
-81.409576 -53.598801 99.879723 10327692
-82.22963 -53.614201 99.505775 9472384
-82.87027 -53.694889 99.186104 9341054
-80.748917 -52.339195 100.68064 9076857
-81.438797 -52.687618 100.23162 10459022
-82.212219 -52.606659 99.917137 9011576
-80.017349 -51.307243 101.42208 9012606
-80.778206 -51.601063 100.96314 8879222
-81.737152 -51.739067 100.47778 9998215
-79.504845 -50.165413 102.1097 9012606
-80.114212 -50.520565 101.69412 8617848
-81.03891 -50.712479 101.20266 9208956
-81.650162 -51.029018 100.80144 8681843
-78.868835 -49.127193 102.81259 9209467
-79.413345 -49.461678 102.43404 9341570
-80.327927 -49.616188 101.96232 7960176
-81.017586 -49.979698 101.50722 9012606
-78.775208 -48.425343 103.13704 9735554
-79.736816 -48.550098 102.65625 9670278
-80.50309 -48.837368 102.1975 8486519
-78.208763 -47.332138 103.83083 9867140
-79.017097 -47.475082 103.41135 9735554
-79.714668 -47.76326 102.98297 9143675
-77.630791 -46.353481 104.48367 9669504
-78.307831 -46.471851 104.13287 9669761
-79.128464 -46.579082 103.72225 9998469
-76.887947 -45.219978 105.46384 8748404
-77.659836 -45.532463 104.88813 8090987
-78.490326 -45.615486 104.4473 9472125
-79.032249 -45.878269 104.04754 12432037
-75.602066 -44.207844 107.08805 9274747
-76.384293 -44.47929 106.34539 8551285
-77.195152 -44.594513 105.86054 9801090
-77.82193 -44.793037 105.40488 10064262
-66.393204 -43.409336 118.67881 8879221
-67.100395 -43.592293 118.26864 10326409
-67.469246 -43.744495 117.26997 12036255
-68.454315 -43.746662 116.69662 9208187
-69.003807 -43.748718 115.71276 9209215
-69.405472 -43.750446 114.80955 8222579
-70.232361 -43.752296 114.30491 7959408
-71.055618 -43.754154 113.79428 9669766
-71.27623 -43.75631 112.33512 11643552
-72.08522 -43.75816 111.81699 8682867
-72.890434 -43.759998 111.29311 9142651
-73.425308 -43.76123 110.94086 8089963
-73.754097 -43.771175 109.4244 9537920
-74.652008 -43.875042 108.65681 9669506
-75.308365 -43.936253 108.15581 10655373
-76.063339 -44.039627 107.46558 9275007
-65.772614 -42.175316 119.24297 11904668
-66.421982 -42.60323 118.97071 11575962
-67.159195 -42.980644 118.7015 9142393
-65.667297 -41.461685 119.52454 10983566
-66.522751 -41.641872 119.30712 13746872
-65.118103 -40.37355 120.02235 7957344
-65.863297 -40.549023 119.82615 10523015
-64.474274 -39.046356 120.62502 10261132
-65.086655 -39.433208 120.3744 9405306
-65.829468 -39.581482 120.18862 9733499
-64.471695 -38.310242 120.89668 6511954
-65.218933 -38.481228 120.7018 8353646
-63.763302 -37.316845 121.38776 6511954
-64.606087 -37.383892 121.21425 6709333
-65.221146 -37.769032 120.96381 9011320
-63.758446 -36.581017 121.65969 6841430
-64.48587 -36.560917 121.53869 7038042
-63.104546 -35.261574 122.26125 6512978
-63.890244 -35.654343 121.97784 7959910
-63.237835 -34.506882 122.51575 8288618
-63.934765 -34.7645 122.29783 10064259
-62.607494 -33.220432 123.10101 5919050
-63.267826 -33.63084 122.83324 7038809
-64.015839 -33.988125 122.5695 8288618
-62.602947 -32.508907 123.36422 7498337
-63.355843 -32.667953 123.17257 7498593
-61.976757 -31.422272 123.87553 6840151
-62.726112 -31.553526 123.69476 7827302
-63.348114 -31.929333 123.44627 8682867
-61.33461 -30.16116 124.64149 9734531
-61.963196 -30.473177 124.31094 7892840
-62.638336 -30.767242 124.01136 8024937
-60.684498 -29.202965 125.59667 9734531
-61.384602 -29.538231 125.11944 9537409
-61.948418 -29.881781 124.74813 8616307
-53.112186 -28.247252 134.73059 12038058
-53.866425 -28.3922 134.4267 11775143
-54.532272 -28.704866 133.60034 10722711
-55.174507 -28.706144 133.33632 8092019
-56.207733 -28.710728 130.90309 9735556
-56.994377 -28.712317 130.56204 8551287
-57.778767 -28.713905 130.21663 8090737
-58.59301 -28.718046 127.87933 7565675
-59.516132 -28.720715 127.4557 10524813
-60.082809 -28.898205 126.67649 9538690
-60.827282 -28.982552 126.2785 8616819
-53.166599 -27.343256 135.05396 8025969
-54.00605 -27.497267 134.84888 8223348
-52.542995 -26.424839 135.5025 7565675
-53.351349 -26.512066 135.32755 7894639
-52.469379 -25.56315 135.83295 8749434
-53.251053 -25.703882 135.64297 7565675
-51.878105 -24.397087 136.367 8748921
-52.667583 -24.640766 136.13771 8288883
-51.342735 -23.117867 136.93286 9537923
-51.928917 -23.486641 136.69344 9537923
-52.678905 -23.685593 136.48756 8288627
-51.190105 -22.360092 137.23898 10458254
-52.031826 -22.484907 137.04428 10064010
-50.516018 -21.335634 137.73552 7563619
-51.344753 -21.389874 137.56912 9077114
-50.680542 -20.516468 138.0083 7563619
-51.445648 -20.536274 137.86577 8221549
-50.058392 -19.381149 138.53653 9800835
-50.742962 -19.574623 138.3443 9735044
-51.404675 -19.945393 138.09079 7563619
-50.005001 -18.404654 138.90579 9406077
-50.679527 -18.68643 138.68279 11643296
-49.441093 -17.236958 139.4357 12629930
-50.117245 -17.518082 139.21265 8484720
-49.49308 -16.346323 139.75471 13748410
-50.174198 -16.598047 139.54156 10064006
-48.791595 -15.481858 140.26813 9932423
-49.399372 -15.63166 140.05734 12498861
-48.063026 -14.358617 141.22726 7563619
-48.767433 -14.72697 140.81818 7826791
-44.959133 -13.676666 144.78583 7563619
-45.655567 -13.677965 144.56728 7563619
-46.350956 -13.67927 144.34593 7563619
-46.889572 -13.910908 142.48309 8814454
-47.600674 -13.919678 142.3324 7366496
-118.76868 -75.988808 56.629818 10262156
-118.99003 -75.958511 56.033562 8814197
-119.31711 -75.913269 55.137951 7366239
-119.95979 -75.854927 54.386318 7564133
-120.59747 -75.796646 53.628098 6643031
-121.23269 -75.738365 52.864498 6840152
-121.91283 -75.672737 51.942242 7038048
-122.57619 -75.616165 51.285496 8287858
-123.16121 -75.556389 50.38348 7038049
-123.81875 -75.499779 49.714848 7365983
-124.39406 -75.440247 48.801029 7563362
-125.12593 -75.380356 48.220341 6774102
-125.69123 -75.277924 47.190353 9471614
-110.60954 -74.187141 65.406334 6642517
-111.25221 -74.276062 64.974739 7103068
-112.00771 -74.389656 64.425255 8353647
-112.65397 -74.575974 63.790268 8616819
-113.28718 -74.84462 63.001179 9340798
-113.9212 -75.015236 62.458965 9143681
-126.39171 -75.186859 46.621208 9208435
-126.98297 -75.092026 45.868252 9933707
-127.46056 -74.9953 44.933334 8881021
-128.18413 -74.919868 44.356453 10985881
-128.74625 -74.831444 43.304588 10524559
-129.44019 -74.757317 42.671787 9734787
-130.13509 -74.682816 42.03334 10261643
-130.68063 -74.594307 40.961422 9538176
-131.39954 -74.52002 40.353714 9472128
-131.99747 -74.443306 39.564674 6182222
-132.64969 -74.356705 38.648342 5919050
-133.30637 -74.291481 38.143581 5919050
-133.41231 -74.250275 37.479588 6445650
-105.4416 -73.329391 71.737862 7564650
-106.08809 -73.57077 71.309074 8354165
-106.88789 -73.627655 70.777267 7236453
-107.33156 -73.832672 69.84259 8091759
-108.15721 -73.841087 69.083702 9735555
-108.6534 -73.841614 68.196091 9801348
-109.20888 -73.888306 67.449974 10459278
-109.82015 -73.975914 66.736404 6971993
-110.44105 -74.07299 66.026077 6642517
-111.29398 -74.115997 65.448936 7037275
-133.91898 -74.171555 37.157749 6050892
-134.51448 -74.00386 36.393497 6182222
-135.12845 -73.86895 35.513786 7235425
-135.76688 -73.772079 34.808681 7827814
-136.59581 -73.66716 34.145325 8354159
-137.04172 -73.577103 33.381031 9406847
-137.65533 -73.465836 32.443253 7564642
-138.33676 -73.376053 31.760643 6840925
-138.91216 -73.291496 31.071339 9077116
-104.82285 -72.423615 72.428162 8222580
-105.488 -72.603867 72.015175 7367271
-106.38638 -72.727203 71.507233 9472387
-106.96154 -72.886436 71.148758 8617337
-139.54745 -73.189766 30.202873 8090480
-140.071 -73.093468 29.328712 8089963
-140.90186 -73.007469 28.794376 8747892
-141.42192 -72.910378 27.907856 10721935
-142.04588 -72.807182 27.01302 8946039
-142.60713 -72.720688 26.290134 9867141
-143.44012 -72.6325 25.729378 9209211
-143.95485 -72.537712 24.820278 8353390
-144.34689 -72.477287 23.922382 11181972
-145.22995 -72.412582 23.350132 9866629
-146.04129 -72.309296 22.758816 9142909
-104.0522 -71.365196 73.259056 9537923
-104.79748 -71.602303 72.781715 7893615
-105.69962 -71.664658 72.297142 9669766
-106.33681 -71.974556 71.844643 7038307
-146.013 -72.256042 22.21439 8616822
-146.54456 -72.18219 21.813419 8616822
-147.05505 -72.07312 21.044994 8155755
-147.58531 -71.963623 20.094158 9340027
-148.44629 -71.871033 19.301159 9011576
-149.01135 -71.789734 18.52301 10459022
-149.57349 -71.708115 17.739597 9143422
-150.13246 -71.626175 16.950855 10853012
-151.00388 -71.545555 16.312473 10853012
-151.56348 -71.462616 15.511105 7958888
-152.11993 -71.379318 14.704426 7564394
-152.68803 -71.310112 14.079029 10261391
-104.04797 -70.591003 73.582245 8025201
-104.92982 -70.622238 73.12088 9735301
-105.70047 -70.922112 72.604683 11576988
-152.64366 -71.266945 13.518932 11905701
-153.54942 -71.212692 13.226162 9537411
-154.10333 -71.128067 12.401188 9010808
-154.65401 -71.043053 11.570827 10458254
-155.20221 -70.958145 10.735134 8550771
-156.12669 -70.902878 10.42075 8485235
-102.9208 -69.266808 74.704613 8287600
-103.44744 -69.655746 74.275459 10523531
-104.3417 -69.623093 73.83432 8222323
-104.98479 -69.787033 73.439362 8222323
-102.94274 -68.553932 74.98909 8287600
-103.76514 -68.684074 74.51696 9010808
-104.52736 -68.85582 74.058159 8090479
-102.22767 -67.587631 75.753471 8025195
-103.15975 -67.651169 75.253181 7300963
-103.85858 -67.772346 74.84758 8814200
-101.64461 -66.464653 76.515663 7564642
-102.37498 -66.666168 76.06073 7893608
-103.15675 -66.74588 75.63015 6906717
-100.93237 -65.480118 77.286156 7564642
-101.68634 -65.649284 76.832634 8025193
-102.56168 -65.657051 76.384323 8485488
-103.07098 -66.084862 75.947922 6445394
-100.42983 -64.55085 77.927109 7959144
-101.12448 -64.585724 77.559433 7301214
-101.89417 -64.755791 77.097549 7038298
-99.772469 -63.480396 78.705322 10393227
-100.53889 -63.689087 78.22908 9077625
-101.39687 -63.637428 77.814247 8617075
-101.90708 -64.055145 77.381599 9734788
-99.112595 -62.419388 79.480949 9209726
-99.816879 -62.563747 79.06292 9406848
-100.72587 -62.752659 78.522385 9143418
-98.449516 -61.367638 80.253212 8749175
-99.085854 -61.680603 79.800911 7828589
-100.03461 -61.603981 79.350479 8617847
-100.64485 -61.866985 78.931221 9735301
-97.932404 -60.33231 81.079491 6643546
-98.546181 -60.6049 80.593269 7564647
-99.378197 -60.69556 80.122322 7104867
-100.05494 -60.882378 79.639938 7564905
-96.636307 -59.226402 82.908676 6510930
-97.24897 -59.429298 82.25293 6248274
-97.972855 -59.694622 81.616493 5722703
-98.872032 -59.96582 80.957191 6643546
-85.809555 -58.318554 96.015671 8748148
-86.673828 -58.544418 95.44603 5393733
-87.267601 -58.736336 94.750214 5723469
-87.846832 -58.804134 93.749184 9341313
-88.521057 -58.805923 93.111809 9604227
-89.190681 -58.807724 92.469536 10129799
-89.96582 -58.809811 91.713982 8814451
-90.64164 -58.812019 90.750237 6445138
-91.091553 -58.813625 90.000786 5984843
-91.635635 -58.815277 89.326233 7497826
-92.079414 -58.817116 88.385757 7695204
-92.820084 -58.819183 87.606003 8682612
-93.554436 -58.821255 86.820404 7958891
-94.178513 -58.823032 86.141945 7038307
-94.797668 -58.824799 85.459023 7498856
-95.443268 -58.920387 84.50666 8946040
-96.210762 -59.012321 83.837891 9735298
-96.889847 -58.990711 83.61187 6510930
-85.307358 -57.442867 96.59169 10722194
-86.019943 -57.502808 96.248093 8353646
-86.858498 -57.775906 95.762604 6182478
-84.643112 -56.462269 97.282417 8419695
-85.299812 -56.601101 96.932266 8155754
-86.219185 -56.626293 96.509819 7300702
-84.149742 -55.286064 97.974831 10854036
-84.689255 -55.644318 97.589371 10194565
-85.498199 -55.562836 97.259193 9010550
-86.084351 -55.860695 96.876991 6510930
-84.010513 -54.527954 98.340996 8287854
-84.888809 -54.706432 97.875572 9602429
-85.46637 -54.77639 97.588448 9931137
-83.388275 -53.457642 99.048805 9998727
-84.267197 -53.631546 98.584946 9472127
-84.944313 -53.777203 98.222923 8616049
-82.677704 -52.391499 99.794563 8353903
-83.497948 -52.547005 99.364403 9274748
-84.386208 -52.756931 98.88192 9603713
-82.187424 -51.248623 100.47257 8681843
-82.869743 -51.48502 100.07194 7761514
-83.758774 -51.690384 99.591026 8682356
-81.517014 -50.357105 101.13158 8681843
-82.165459 -50.487553 100.78875 8024686
-83.041031 -50.584229 100.35772 8551030
-80.882378 -49.309887 101.83736 9012606
-81.428619 -49.649418 101.45609 8748920
-82.381256 -49.53656 101.07502 8682616
-83.119797 -49.857811 100.61495 10853012
-80.867935 -48.542995 102.15267 8683384
-81.714249 -48.64164 101.73396 7629668
-82.338951 -48.791031 101.3941 8879736
-80.227692 -47.502697 102.85817 9406848
-80.97464 -47.678123 102.45311 9735044
-81.701126 -47.650333 102.139 7563618
-79.698563 -46.503895 103.49724 9209467
-80.331932 -46.639244 103.15919 10064009
-81.157135 -46.751862 102.74435 8682100
-79.013916 -45.341209 104.41228 10721934
-79.714165 -45.621048 103.90165 9735557
-80.52774 -45.72311 103.47171 9998474
-81.064026 -46.047401 103.06969 9012350
-77.166557 -44.083389 106.82789 9011838
-77.917786 -44.191051 106.13686 10853520
-78.488762 -44.510715 105.41921 9077624
-79.248566 -44.694382 104.85059 9142906
-79.935158 -44.965206 104.31738 9669766
-67.836433 -43.328693 118.45376 9142393
-68.516693 -43.574619 118.14666 9340285
-69.320602 -43.746902 117.52304 8090992
-69.574448 -43.749153 116.03187 11380380
-70.271049 -43.75071 115.61059 9406594
-71.103676 -43.752579 115.09965 8354165
-71.656914 -43.753822 114.7559 10064779
-72.011246 -43.756317 113.1909 8814457
-72.962013 -43.75848 112.57987 9142651
-73.637985 -43.760036 112.13856 8089963
-73.825157 -43.762157 110.67469 9537920
-74.621872 -43.764008 110.13789 10655889
-75.546799 -43.766167 109.505 9867141
-76.081146 -43.793091 108.77969 11446174
-76.528008 -43.870399 107.84539 9011838
-77.277145 -43.946877 107.25079 8024944
-67.815697 -42.494289 118.76482 8813685
-68.574265 -42.784443 118.52402 8419696
-67.180344 -41.58881 119.21059 10852495
-67.899292 -41.638245 119.06545 8221804
-66.481049 -40.227055 119.83573 10786187
-67.135483 -40.653751 119.563 9602683
-67.878601 -41.029449 119.29342 7564643
-66.486427 -39.513485 120.09769 9733499
-67.237122 -39.689838 119.90018 9011320
-65.875473 -38.410759 120.61184 9800322
-66.622864 -38.558746 120.42535 9734016
-67.239624 -38.949192 120.17272 9734788
-65.91684 -37.416023 120.97102 8682612
-66.60817 -37.716404 120.7383 8485232
-65.170609 -36.35598 121.4933 8222061
-65.99794 -36.56377 121.27071 6050635
-64.516685 -35.030956 122.0969 10064259
-65.306213 -35.426384 121.81186 9406333
-66.096291 -35.82391 121.52589 6971994
-64.70285 -34.317432 122.32694 8485742
-65.353882 -34.533527 122.13243 10064261
-64.670044 -33.485313 122.63934 8485743
-65.438026 -33.754726 122.40452 8682867
-64.017471 -32.597752 123.0816 7630692
-64.742157 -32.628227 122.94239 9340796
-63.435566 -31.431349 123.61452 8682867
-64.088715 -31.642122 123.42142 9077626
-64.742645 -31.85401 123.22773 10064519
-62.683327 -30.236719 124.34576 8682867
-63.396263 -30.5259 124.02293 8946039
-64.162125 -30.839266 123.70495 9209468
-62.228851 -29.092983 125.68813 8090221
-62.756889 -29.548943 124.86156 9011067
-63.499454 -29.890139 124.46835 8353135
-54.532928 -28.129007 134.52304 10065038
-55.20842 -28.331091 134.32921 10065038
-55.731766 -28.649431 133.46895 8090731
-56.455318 -28.708704 132.79822 9340289
-57.253262 -28.71031 132.45599 7564651
-58.248817 -28.714863 130.00702 8617080
-59.029438 -28.716455 129.65349 9932424
-59.808556 -28.71805 129.2961 9537664
-60.805557 -28.753944 127.01283 8617331
-61.572285 -28.873629 126.49805 7300703
-54.589153 -27.316059 134.81259 8420727
-55.257675 -27.57571 134.59882 8420469
-53.949406 -26.008978 135.40723 9736070
-54.593365 -26.453079 135.12979 9012606
-53.921589 -25.447283 135.61899 9275776
-54.658993 -25.567326 135.44449 10789268
-53.287502 -24.407909 136.114 8618104
-53.967564 -24.60643 135.92064 9802119
-54.623447 -24.98069 135.66684 11381404
-53.300453 -23.45134 136.46405 7828333
-54.012779 -23.640558 136.26849 9012346
-52.69183 -22.277861 137.00394 9209215
-53.422913 -22.554672 136.77274 8090991
-51.972965 -21.021761 137.59377 9537665
-52.708931 -21.360321 137.33897 10326668
-53.427429 -21.652246 137.10445 8221549
-51.932739 -20.431183 137.81848 8879479
-52.751583 -20.512207 137.64392 9734788
-51.496925 -19.23852 138.3349 7563619
-52.089039 -19.608166 138.0941 9142907
-52.846371 -19.805323 137.88766 11379356
-51.342411 -18.473303 138.6442 8089963
-52.192268 -18.595257 138.44911 7103835
-50.68396 -17.26292 139.20653 7563619
-51.497986 -17.491508 138.97845 6774615
-50.848209 -16.328669 139.52174 8945269
-51.588913 -16.478191 139.33578 6642515
-50.110664 -15.410897 140.06384 12893360
-50.850067 -15.517701 139.86246 10721675
-49.490692 -14.381498 140.95807 9932423
-50.298485 -14.681095 140.584 11511709
-51.061264 -14.965186 140.22984 10261124
-42.335484 -13.296401 150.26778 6511962
-42.654469 -13.575111 150.0175 6511962
-47.045231 -13.680573 144.12079 5721671
-47.911522 -13.682209 143.83514 7366240
-48.312218 -13.928682 142.18085 6642517
-49.024235 -13.93799 142.02827 7563619
-42.411461 -12.541677 150.53253 7235684
-42.745373 -12.923121 150.33289 6511962
-42.487648 -11.785255 150.79776 8091760
-114.8791 -75.302902 61.730473 9143681
-115.83352 -75.423019 61.168777 7300959
-116.58007 -75.686615 60.561569 8155756
-117.31142 -76.035507 59.798512 9340030
-117.82977 -76.095413 58.994389 10195080
-118.20258 -76.0653 58.116924 7039331
-118.86372 -76.006348 57.379047 7959661
-119.57539 -75.93985 56.484524 9143419
-120.19655 -75.879097 55.613834 7037274
-120.87653 -75.822144 54.976471 8880247
-121.48849 -75.761536 54.09367 8222317
-122.16296 -75.704498 53.444294 7629924
-122.68636 -75.645271 52.445515 9865602
-123.4343 -75.586967 51.888081 11049874
-123.94622 -75.528053 50.877972 7432807
-124.64256 -75.476952 50.463207 6510930
-125.20023 -75.415802 49.464619 7366239
-125.88484 -75.359604 48.860443 7760994
-126.40372 -75.273438 47.943825 9668986
-113.13708 -74.33461 63.990971 8090475
-113.86748 -74.451797 63.442158 8485233
-114.52042 -74.728836 62.652256 9077887
-115.29591 -74.930443 61.953289 11445917
-116.09228 -74.992401 61.483162 7038298
-127.19022 -75.162689 47.175739 9208435
-127.6985 -75.078659 46.491238 8946554
-128.3797 -74.971024 45.534451 8552313
-129.00003 -74.893997 44.777313 10920087
-129.52838 -74.826653 44.08831 10524560
-130.23532 -74.740738 43.246201 9076857
-130.96587 -74.666344 42.649521 10590861
-131.45807 -74.58696 41.691498 8682356
-132.06369 -74.509949 40.905365 8089963
-132.79007 -74.434799 40.290092 7498082
-133.36926 -74.349754 39.322166 5919050
-133.98932 -74.2799 38.687756 5919050
-134.09695 -74.238403 38.01992 5919050
-107.41782 -73.38636 70.709373 6511954
-108.04909 -73.553833 70.275543 9471871
-108.99369 -73.567337 69.826859 9735043
-109.47924 -73.799149 69.173393 7367263
-109.99744 -73.839706 68.118965 8485488
-110.84732 -73.836952 67.28582 9735299
-111.40025 -73.864143 66.597908 10590609
-111.98372 -73.935875 65.853325 7366495
-112.61124 -74.039665 65.132179 7300446
-113.299 -74.104454 64.532036 8616819
-113.88573 -74.155067 64.051796 8419440
-134.68481 -74.181061 37.83604 6445650
-135.23479 -74.028397 37.113026 6840664
-135.83318 -73.891838 36.310795 6709333
-136.48718 -73.786858 35.518635 7038298
-137.16864 -73.69043 34.85009 8419951
-137.91507 -73.575874 34.003674 8617331
-138.24257 -73.489342 33.144142 7893607
-139.09239 -73.390823 32.463017 6906714
-139.745 -73.29863 31.728786 8090479
-107.4218 -72.597115 71.034714 6709077
-108.32177 -72.647247 70.556305 8287853
-108.96095 -72.952698 70.104607 9735043
-140.26459 -73.206139 30.900261 8945786
-140.84898 -73.106354 30.022675 7827049
-141.69666 -73.005653 29.311924 8089963
-142.27162 -72.919121 28.597427 8747892
-142.77864 -72.825562 27.746418 8879733
-143.41713 -72.731186 26.975124 8550770
-144.263 -72.628311 26.235214 10459023
-144.83437 -72.542107 25.498463 9340027
-145.173 -72.482559 24.597984 9340027
-146.0784 -72.40934 23.847073 7563877
-146.89885 -72.305634 23.254459 7564392
-106.28577 -71.224442 72.181671 8090730
-106.79469 -71.684242 71.732224 9077369
-107.73196 -71.61657 71.283699 9340285
-108.3868 -71.796883 70.875954 9735043
-146.8709 -72.251991 22.706451 8616822
-147.40817 -72.177643 22.304436 7893356
-147.93414 -72.072464 21.533993 8155755
-148.49577 -71.985847 20.76421 9340027
-149.06955 -71.904617 19.990318 8024427
-149.64044 -71.823029 19.211163 11642780
-150.20827 -71.741119 18.42662 11642524
-151.07806 -71.64637 17.610157 6775130
-151.96109 -71.5653 16.970951 9405822
-152.22211 -71.494591 16.195881 8879734
-152.78452 -71.411041 15.387905 7301476
-153.66943 -71.328331 14.729168 9800581
-106.14622 -70.576126 72.521515 9011320
-107.05456 -70.658333 72.025574 8748404
-107.81813 -70.777275 71.587952 6511954
-153.6114 -71.270393 13.9771 11905701
-154.54308 -71.230347 13.873806 8813686
-154.7924 -71.158722 13.081898 10984852
-155.34904 -71.073425 12.250095 8681843
-156.23911 -70.988266 11.562801 8616307
-156.79997 -70.903526 10.718052 8485235
-105.51095 -69.485825 73.296745 8024687
-106.17936 -69.731339 72.855026 7695980
-107.11527 -69.767143 72.364304 7893353
-104.81052 -68.438774 74.08712 7761772
-105.62387 -68.618652 73.598991 7432808
-106.47913 -68.760506 73.105301 7038307
-104.38048 -67.468323 74.708298 8880506
-105.02717 -67.626556 74.313866 7367271
-105.81588 -67.761452 73.856873 8024944
-103.66376 -66.461372 75.490349 7433063
-104.42886 -66.643059 75.025993 9735813
-105.31876 -66.663025 74.565208 8617335
-105.8336 -67.103424 74.120766 8287859
-103.0061 -65.359955 76.281525 8681843
-103.75121 -65.564117 75.818047 6379859
-104.64664 -65.740982 75.289413 8814714
-102.42295 -64.344925 76.999062 6445394
-102.93998 -64.637184 76.614967 7037275
-103.97582 -64.646797 76.08445 8221548
-104.66497 -65.03157 75.574432 8090992
-101.83749 -63.338322 77.714226 8616822
-102.39037 -63.63406 77.310585 8090220
-103.26879 -63.651596 76.856941 5919050
-103.78911 -63.944118 76.471161 7563618
-101.2501 -62.340157 78.427208 9734788
-101.7671 -62.623802 78.046753 8616822
-102.67975 -62.643898 77.574791 8090479
-103.33222 -62.84383 77.160278 6445394
-101.1702 -61.558552 78.79248 9603459
-102.08833 -61.644531 78.29039 8879737
-102.60848 -61.928364 77.908234 9734788
-99.84053 -60.210178 80.25576 8090736
-100.43351 -60.53904 79.686424 8090736
-101.30497 -60.63377 79.182571 9208702
-102.15576 -60.849541 78.600883 6511962
-98.344292 -59.149155 82.418999 7893611
-98.798286 -59.252266 81.89286 5985874
-99.353241 -59.489048 81.199814 6840921
-100.07535 -59.635857 80.641045 7564389
-100.7961 -59.848118 80.0849 8222322
-87.986099 -58.411915 94.989548 6315349
-88.690475 -58.525497 94.555672 9604485
-89.221039 -58.758499 93.937439 11709089
-89.889084 -58.808117 92.968407 12366500
-90.668716 -58.810223 92.207298 8024936
-91.331734 -58.812027 91.549545 7103323
-91.989975 -58.813831 90.887016 5919050
-92.652084 -58.81596 89.968269 7696228
-93.096931 -58.817772 89.05368 8090219
-93.63459 -58.819553 88.267632 8221805
-94.167145 -58.821445 87.388054 8090475
-94.795311 -58.823227 86.705185 7498856
-95.521713 -58.82531 85.902657 7564649
-96.241684 -58.827385 85.094307 8748404
-96.85318 -58.829163 84.396553 7300702
-97.415924 -58.933746 83.575775 7498081
-98.15522 -59.019432 82.951653 9011834
-99.106201 -59.042885 82.449219 7169886
-87.356606 -57.491051 95.653305 6510930
-88.015244 -57.536564 95.33963 6052178
-88.807304 -57.693008 94.921715 8881020
-86.743591 -56.395042 96.367226 6510930
-87.36293 -56.702438 95.966339 7563874
-88.224854 -56.528736 95.649338 9669764
-86.10675 -55.191299 97.135109 9010550
-86.689468 -55.601791 96.709305 6840151
-87.618736 -55.722698 96.244072 10722194
-88.201164 -55.799873 95.951912 11577503
-85.341843 -54.091789 97.91861 9010550
-86.030594 -54.480228 97.454079 9536637
-87.000031 -54.631653 96.958611 8353648
-87.623077 -54.935791 96.557365 9603969
-85.52269 -53.377636 98.123543 8813171
-86.264755 -53.56395 97.716103 9208187
-87.001854 -53.847412 97.27195 8090995
-84.756798 -52.465801 98.832306 9274748
-85.564819 -52.575748 98.426216 8287599
-86.377563 -52.765491 97.985596 8814715
-84.128998 -51.398724 99.542671 9274749
-84.880981 -51.612408 99.119934 9932679
-85.730064 -51.67411 98.714912 8419700
-83.581551 -50.401382 100.18938 9537667
-84.122871 -50.624161 99.85733 8353392
-85.054848 -50.724792 99.39946 9472386
-82.986885 -49.184101 100.9458 7038307
-83.535797 -49.528439 100.56132 8879995
-84.421959 -49.661297 100.11105 9800837
-85.012695 -50.055573 99.687752 9669253
-82.349113 -48.133469 101.65431 9537408
-82.899178 -48.474667 101.27065 8287858
-83.727371 -48.597485 100.85039 10392973
-84.364655 -48.744434 100.50586 11182742
-82.307495 -47.424679 101.95834 8616306
-83.088036 -47.545116 101.56037 8484979
-83.84111 -47.727806 101.14961 11445658
-81.760422 -46.370575 102.62776 8287341
-82.445496 -46.497791 102.26978 9208443
-83.199211 -46.676941 101.86013 9208702
-81.026604 -45.218727 103.61669 8223348
-81.74044 -45.558723 103.04277 8682614
-82.58046 -45.645416 102.60289 9537410
-79.093384 -44.164783 105.69674 8089963
-79.780022 -44.195507 105.28773 8089963
-80.498367 -44.496986 104.50178 8420727
-81.325256 -44.635971 103.98406 9143679
-81.982117 -44.895996 103.46154 9932681
-69.052551 -43.283619 118.25564 8616820
-69.922729 -43.440353 117.85667 8090992
-70.397415 -43.711342 117.08301 7301477
-71.149994 -43.750977 116.42297 7367271
-71.849075 -43.752552 115.9925 8353651
-72.20813 -43.755077 114.40909 9406336
-73.032059 -43.75695 113.8842 10392462
-73.85218 -43.758823 113.35343 10260875
-74.219582 -43.760525 112.43415 9142651
-74.579559 -43.762211 111.5135 9011577
-75.515839 -43.764385 110.88053 8880246
-76.447037 -43.766567 110.24002 9275004
-76.597366 -43.768635 108.77218 10985625
-77.119705 -43.769867 108.40157 7695980
-78.029671 -43.772038 107.74734 9011838
-78.637138 -43.861912 106.95168 10063750
-79.295029 -43.984253 106.23152 8089963
-80.12323 -44.02084 105.73975 8089963
-69.198723 -42.477505 118.52193 8945784
-70.060402 -42.633018 118.18618 8156528
-68.571793 -41.320774 119.06371 9011577
-69.326736 -41.590755 118.82712 9208700
-68.557686 -40.449394 119.38723 7498850
-69.30481 -40.827969 119.11583 9340286
-67.945084 -39.560154 119.82301 7169628
-68.66301 -39.482319 119.72494 6511954
-67.333946 -38.452076 120.33915 8616819
-68.005745 -38.567204 120.17812 7169884
-68.667908 -38.739021 119.99795 7564386
-67.256599 -37.55471 120.68341 8156267
-68.004234 -37.666763 120.51014 6511954
-66.58255 -36.311623 121.26039 5919050
-67.406845 -36.603653 121.00728 7630179
-67.959915 -36.9874 120.7683 6511954
-66.62709 -35.454071 121.56849 7695972
-67.323753 -35.753025 121.33537 8090730
-65.929688 -34.380302 122.08721 9669761
-66.747185 -34.56028 121.87659 7695973
-66.064621 -33.432812 122.4125 8814453
-66.839386 -33.68927 122.18118 7827302
-65.414841 -32.293129 122.94713 10130055
-66.180374 -32.54361 122.71964 11972001
-65.450226 -31.395884 123.27175 11182742
-66.176414 -31.614077 123.06297 14076861
-64.861343 -30.366621 123.88096 9275261
-65.518257 -30.563938 123.61199 8879991
-63.458065 -29.084106 125.50024 8814203
-64.180969 -29.50119 124.68827 8484722
-64.946167 -29.736834 124.33121 8616563
-55.934811 -28.186605 134.25412 9208443
-56.612221 -28.390329 134.0593 9734787
-57.315998 -28.420906 133.92372 9340289
-57.890316 -28.711599 132.17856 9800582
-58.684311 -28.713211 131.82739 9537666
-59.318253 -28.7145 131.5434 9537664
-60.274807 -28.719009 129.0791 9735812
-61.050232 -28.720613 128.71359 8946296
-61.823586 -28.722218 128.34377 8617331
-62.291798 -28.80953 126.57887 7563619
-62.95327 -28.834986 126.38337 8353909
-63.615082 -28.86087 126.18665 8814203
-55.905041 -27.415134 134.54358 9208443
-56.689503 -27.561428 134.35103 9406078
-55.180038 -26.054535 135.17294 11182745
-56.011147 -26.437462 134.88495 11643552
-56.842346 -26.821907 134.59644 11182745
-55.38028 -25.359507 135.39355 11907748
-56.117039 -25.457325 135.22733 12959924
-54.697128 -24.455822 135.84717 10789267
-55.34285 -24.553938 135.69696 10262667
-56.086578 -24.68153 135.51854 10262667
-54.726315 -23.525761 136.18466 9275517
-55.452965 -23.718494 135.98524 9143931
-54.130764 -22.144888 136.79865 8353135
-54.781246 -22.589504 136.51987 8814198
-54.10112 -21.391951 137.08131 8616307
-54.837715 -21.547031 136.894 8616307
-53.485271 -20.354942 137.5722 8616307
-54.146095 -20.417923 137.43222 8418928
-53.466248 -19.510786 137.88663 8879990
-54.294212 -19.666561 137.68295 8089963
-52.858498 -18.382505 138.40977 6906456
-53.535938 -18.666735 138.18529 8287853
-52.131981 -17.116112 139.00478 8813680
-52.798908 -17.488592 138.74966 10064008
-53.489647 -17.683725 138.55569 8879990
-52.239368 -16.300097 139.28647 8155752
-52.985458 -16.538187 139.06691 9997956
-51.505085 -15.320485 139.87796 8813680
-52.281883 -15.467176 139.65045 7695201
-53.037033 -15.701685 139.36606 8813680
-51.066788 -14.268718 140.76778 8288365
-51.691334 -14.62845 140.37943 8813680
-52.135036 -14.985126 140.02548 8813680
-43.29599 -13.426705 149.98317 6841696
-44.050705 -13.52723 149.70932 8815483
-44.797955 -13.670713 149.32489 8092019
-48.430664 -13.683193 143.66113 6642517
-49.121475 -13.684505 143.42601 6116429
-49.811325 -13.685822 143.18802 4867385
-50.271885 -13.954874 141.75899 7695972
-51.164021 -13.967357 141.56506 6511954
-42.822105 -12.167301 150.59787 8091760
-43.454281 -12.552011 150.34425 7170660
-44.254589 -12.749551 150.12985 9144190
-42.757465 -11.332062 150.9171 8288881
-43.533791 -11.469368 150.72916 9275776
-42.995667 -10.459 151.19653 8222318
-42.859657 -9.5798006 151.54436 6445394
-42.794437 -8.7369576 151.86621 10788244
-117.06328 -75.373207 60.650494 8353135
-117.77818 -75.557343 60.137127 9537152
-118.45416 -75.750237 59.57346 9865859
-119.02764 -75.986092 58.69978 8222576
-119.76385 -75.970879 57.990356 8485491
-120.32829 -75.914337 57.016537 7892839
-120.95295 -75.862907 56.458313 6905945
-121.47649 -75.80262 55.425182 9077882
-122.26118 -75.744255 54.931004 8617075
-122.77267 -75.684258 53.886517 7564131
-123.47576 -75.627884 53.310352 7564134
-124.05376 -75.565979 52.323559 9142652
-124.67784 -75.5159 51.810223 9077115
-125.27097 -75.455231 50.892597 8484721
-126.02316 -75.396133 50.315804 7432032
-126.52132 -75.336227 49.282257 7563616
-127.23831 -75.258484 48.680775 9208435
-115.1314 -74.304832 63.119556 9537918
-115.85635 -74.423737 62.560955 12366759
-116.48971 -74.715004 61.769733 8879989
-117.23537 -74.844292 61.186436 8616307
-117.89026 -74.972832 60.687817 8616307
-127.90697 -75.149925 47.809174 10721418
-128.50897 -75.053734 47.048901 12892846
-129.1244 -74.966255 46.288517 11840931
-129.63914 -74.886452 45.348625 11248795
-130.38031 -74.812035 44.763142 8946295
-131.0968 -74.725342 43.917416 7893862
-131.62389 -74.657326 43.214039 12235683
-132.24185 -74.579689 42.430592 10064008
-132.91693 -74.492058 41.519966 8353135
-133.61929 -74.415848 40.857586 8090475
-134.16571 -74.336807 39.966549 5919050
-134.67752 -74.268326 39.237484 5919050
-110.00303 -73.52813 69.336113 6511954
-110.82276 -73.59581 68.812897 7301476
-111.4389 -73.785034 68.208176 9341057
-112.26987 -73.852997 67.300278 10985367
-112.80419 -73.836571 66.334694 9472127
-113.31358 -73.860374 65.537163 7432288
-114.18053 -73.905556 64.942017 9077369
-114.8022 -74.007896 64.202461 6774359
-115.4937 -74.075195 63.588428 6774614
-116.17866 -74.140114 62.966755 12037794
-135.39893 -74.187172 38.599461 6577235
-136.0847 -74.030586 37.756824 8288365
-136.6806 -73.889542 36.90731 6709333
-137.22739 -73.786873 36.063755 7696228
-138.07356 -73.680679 35.398296 8288365
-138.67389 -73.576584 34.544682 8024679
-139.20691 -73.483833 33.729351 10063235
-139.86604 -73.391541 32.998413 6511954
-140.72638 -73.291679 32.307522 8945786
-109.43855 -72.527008 70.03833 8353646
-110.24355 -72.694336 69.559662 7169632
-111.12172 -72.796989 69.070541 7038307
-141.05099 -73.205658 31.429283 9734788
-141.63364 -73.119507 30.724598 8287857
-142.32602 -73.027069 30.013935 8089963
-143.07979 -72.916832 29.118004 8287858
-143.65834 -72.829552 28.39555 9603716
-144.23424 -72.741951 27.668015 12433069
-144.88246 -72.639336 26.797913 9866630
-145.67256 -72.538132 26.007366 11774108
-146.0188 -72.479645 25.102669 9932163
-146.93773 -72.421799 24.532032 8747891
-147.48465 -72.321144 23.771599 9340026
-108.92735 -71.500603 70.724007 9735043
-109.64873 -71.651695 70.294525 9274493
-110.47672 -71.760117 69.82856 9866887
-148.00847 -72.210663 23.003059 7169374
-148.53592 -72.103241 22.23082 8550512
-149.41385 -72.008537 21.442753 8879477
-149.98993 -71.912216 20.481121 9340027
-150.26405 -71.842278 19.720459 9011579
-151.15096 -71.762283 19.096321 9998215
-152.03287 -71.666885 18.277836 9142908
-152.60866 -71.583443 17.47694 9602944
-152.87131 -71.512527 16.699436 10853012
-153.76353 -71.430107 16.047459 8681843
-154.63237 -71.317703 15.008862 10261132
-108.22995 -70.519394 71.485558 8945527
-109.05186 -70.618843 71.026405 10458510
-109.85744 -70.777946 70.550751 11379869
-154.58878 -71.273949 14.441021 8813686
-155.48357 -71.189842 13.769108 9537408
-156.34796 -71.075722 12.707363 8681843
-157.24922 -70.990021 12.017864 15722454
-157.19299 -70.94651 11.44257 12103844
-158.09976 -70.862221 10.742741 8485235
-107.51618 -69.53183 72.258095 7301214
-108.34189 -69.607086 71.806999 6972250
-109.20124 -69.690086 71.33564 9077114
-106.93737 -68.467781 72.993668 7038307
-107.52052 -68.617744 72.634956 7235426
-108.42201 -68.668564 72.155533 8156012
-108.98704 -69.000587 71.730515 7169117
-106.27872 -67.3339 73.798882 7038307
-106.8802 -67.725937 73.330444 7038307
-107.87463 -67.613609 72.871498 7696236
-108.40282 -67.930984 72.471321 8419184
-105.77282 -66.368217 74.456635 7038307
-106.37636 -66.560112 74.070244 7433063
-107.23018 -66.725197 73.567833 6840928
-107.81654 -66.871086 73.209435 7367272
-105.18738 -65.332138 75.184227 9143678
-105.71104 -65.635292 74.792305 8946555
-106.60614 -65.669983 74.323158 8749175
-107.3065 -65.899872 73.871918 7564651
-104.59982 -64.305061 75.909363 8681843
-105.15967 -64.61187 75.497528 8024684
-106.05291 -64.641533 75.031456 9077881
-106.58009 -64.94487 74.637657 10196874
-104.32659 -63.534126 76.368439 8418927
-105.23 -63.705948 75.83815 7300958
-106.1233 -63.824162 75.335274 8287853
-103.73023 -62.578857 77.068192 7695461
-104.5396 -62.638626 76.632225 7827558
-105.31533 -62.811043 76.166573 6051660
-103.141 -61.516422 77.808868 8945529
-103.92606 -61.683578 77.34066 8222061
-104.72031 -61.704025 76.928703 7893864
-101.92901 -60.271954 79.143456 9143166
-102.66068 -60.544239 78.558067 7695977
-103.38899 -60.6106 78.143951 8616050
-104.13596 -60.888145 77.572685 9142391
-100.0626 -59.144226 81.627266 6511954
-100.65575 -59.206905 81.106979 6643543
-101.30374 -59.378933 80.350349 8090736
-102.03401 -59.668961 79.617348 9011580
-102.86896 -59.870068 79.014969 7761512
-103.54305 -59.940899 78.611832 8813171
-90.005928 -58.492012 94.064095 10853778
-90.762192 -58.52874 93.64344 7498848
-91.391426 -58.678875 93.090218 7630434
-91.935097 -58.81216 92.153336 8024936
-92.707474 -58.814274 91.374763 7630434
-93.473595 -58.816391 90.58992 10393481
-94.124855 -58.818203 89.911957 9340540
-94.565102 -58.820061 88.950111 9670019
-95.099579 -58.821728 88.252014 8748404
-95.748795 -58.823692 87.455475 7432288
-96.254066 -58.825817 86.351036 8617075
-96.87468 -58.827614 85.65313 7563874
-97.490181 -58.829403 84.950768 8156011
-98.100601 -58.831192 84.243942 9801605
-98.814827 -58.838379 83.420868 9801092
-99.587959 -58.951405 82.545692 6972504
-100.18612 -59.01358 82.028648 6972504
-101.06139 -59.057629 81.433014 6643543
-101.65641 -59.121334 80.908295 8616823
-89.351257 -57.543388 94.737686 10262415
-90.145493 -57.600868 94.358437 7828590
-90.942116 -57.66082 93.977119 8090986
-88.7668 -56.328167 95.48658 11314331
-89.37381 -56.669724 95.077538 11117467
-90.284195 -56.710632 94.652832 7565418
-88.080811 -55.10788 96.283112 11577503
-88.773178 -55.507469 95.812477 10524815
-89.703239 -55.707214 95.315331 11051674
-90.250351 -56.080891 94.920219 8618105
-88.126785 -54.438698 96.530548 10130057
-88.967407 -54.616154 96.08242 10393229
-89.631981 -54.975872 95.640335 11577503
-87.377831 -53.558067 97.219208 9604228
-88.3181 -53.581257 96.788536 9735555
-89.053474 -53.714409 96.405365 8682867
-86.753036 -52.47562 97.934174 9275264
-87.58136 -52.620197 97.505058 9604227
-88.302605 -52.720276 97.141808 9735812
-86.250336 -51.302563 98.631538 9998217
-86.87841 -51.598011 98.231354 9275264
-87.711853 -51.738518 97.801582 8880508
-85.61908 -50.232159 99.345146 7038307
-86.247986 -50.523926 98.946114 8222066
-87.081711 -50.660221 98.517929 9603972
-87.633629 -51.016891 98.127213 8814715
-85.028389 -49.393265 99.947472 10261132
-85.614395 -49.455681 99.65992 8814201
-86.495537 -49.551353 99.226845 7367271
-87.04287 -49.778763 98.890228 10261132
-84.989113 -48.615223 100.27831 10590862
-85.859009 -48.48457 99.941399 9998216
-86.491432 -48.773586 99.541817 9143166
-84.382347 -47.560661 100.9746 11577500
-85.179176 -47.584839 100.60805 9998726
-85.8526 -47.708824 100.25664 9209467
-83.675064 -46.364246 101.77297 7564392
-84.382996 -46.709183 101.31712 10327691
-85.224106 -46.59549 100.98627 9735554
-83.101456 -45.35627 102.57294 9208702
-83.817871 -45.622543 102.06876 7104098
-84.679985 -45.814407 101.56112 10327436
-81.364258 -44.078011 104.9948 9932681
-81.935081 -44.169174 104.42813 11643554
-82.464325 -44.478821 103.64059 11052185
-83.252777 -44.756927 103.01073 8024686
-84.006523 -44.957569 102.50618 7564392
-71.06675 -43.41246 117.425 8222576
-71.905472 -43.481216 117.02305 8814707
-72.522217 -43.642197 116.26519 10129290
-73.100632 -43.755386 115.2066 9142651
-73.930313 -43.757275 114.67529 9142651
-74.61882 -43.758854 114.22804 9143163
-74.804207 -43.761013 112.72688 9142651
-75.61573 -43.762894 112.18291 11643552
-76.557877 -43.765087 111.54157 12235690
-77.093826 -43.766342 111.17162 10459278
-77.240738 -43.768433 109.68467 9472387
-78.030426 -43.770298 109.12357 10919575
-78.946472 -43.772476 108.4616 7039331
-79.727493 -43.774353 107.88856 8089963
-79.775528 -43.814445 106.60625 9406079
-80.704254 -43.894032 105.92165 10854037
-81.263855 -43.977238 105.38729 9407106
-70.496628 -42.498127 118.0454 9275264
-71.227791 -42.577255 117.68739 9275260
-71.996208 -42.754772 117.27332 8814707
-69.870689 -41.381836 118.77158 9340286
-70.511787 -41.539635 118.4223 11116952
-71.405502 -41.733738 117.94569 11380376
-69.875389 -40.466255 119.10322 9669251
-70.823776 -40.649395 118.63935 10590609
-69.302307 -39.360851 119.65682 8682355
-70.095749 -39.609997 119.36555 8682356
-70.762527 -39.8983 118.96725 9011321
-68.796761 -38.074028 120.22019 7564386
-69.350197 -38.462059 119.97951 8485744
-70.161217 -38.754402 119.69358 8090219
-68.75386 -37.393387 120.47852 6906712
-69.506531 -37.507568 120.30361 8288365
-68.086807 -36.322109 120.99103 6971994
-68.75351 -36.490482 120.81124 6577747
-69.399467 -36.771439 120.59362 7367263
-67.977287 -35.588509 121.28059 7235421
-68.709106 -35.628647 121.13664 7104091
-67.402527 -34.407864 121.81702 6971994
-68.128967 -34.633698 121.60561 7893607
-68.686279 -35.016823 121.36607 7564642
-67.402588 -33.477791 122.15973 7432800
-68.171227 -33.733467 121.92982 8617331
-66.86795 -32.282532 122.69445 12433069
-67.562286 -32.626114 122.44531 9011577
-66.834496 -31.456461 123.00488 10392974
-67.663116 -31.774338 122.74135 8089963
-66.20163 -30.402136 123.61355 9537922
-66.970039 -30.604525 123.34539 9011321
-64.776535 -29.137444 125.10229 9143419
-65.613464 -29.35391 124.59998 9406080
-66.293472 -29.689466 124.1302 9932424
-58.021412 -28.452265 133.78745 9866374
-58.837025 -28.547758 133.60817 8156267
-59.79266 -28.715471 131.32812 9208443
-60.581482 -28.717087 130.96552 9208443
-61.211117 -28.718384 130.67239 9537664
-62.286484 -28.723181 128.11963 9011579
-63.05592 -28.724789 127.74178 10524303
-63.976719 -28.726723 127.28315 8814203
-64.277664 -28.887165 125.98814 9603717
-65.106537 -28.920681 125.73814 9866632
-57.370129 -27.458424 134.26865 9208444
-58.152618 -27.579905 134.08568 9142651
-58.807648 -27.960571 133.82967 9011320
-57.376888 -26.413891 134.65228 10656145
-58.106678 -26.698318 134.41855 9010808
-56.713879 -25.268688 135.19131 11577503
-57.509277 -25.518923 134.9586 10195338
-56.801914 -24.394077 135.49797 9472128
-57.53196 -24.558723 135.30826 10392461
-56.106434 -23.552719 135.93083 8683380
-56.839497 -23.590315 135.78745 8024685
-55.373238 -22.183962 136.56476 9143931
-56.168777 -22.531862 136.29591 9603714
-56.874023 -22.942408 136.02002 7103842
-55.487392 -21.376995 136.84186 9339773
-56.228882 -21.620077 136.62129 8353393
-54.832378 -20.304218 137.35287 8747893
-55.62326 -20.416252 137.17186 9668738
-56.287514 -20.792362 136.91592 8681843
-54.752071 -19.465424 137.67615 8484464
-55.569603 -19.523806 137.51016 9537152
-54.235287 -18.35745 138.17569 9077113
-54.968201 -18.686127 137.92508 8682099
-53.561943 -17.148649 138.74017 9735043
-54.229954 -17.522631 138.48425 9340285
-55.024601 -17.631826 138.30359 9011320
-53.580853 -16.342056 139.03395 8682354
-54.325714 -16.493662 138.8465 7235421
-53.031719 -15.00221 139.85437 7695718
-53.709087 -15.403753 139.44479 6972510
-54.474934 -15.732635 139.10054 6511954
-52.45895 -14.13961 140.89047 8813680
-52.996048 -14.477974 140.26604 8419440
-53.667568 -14.665609 140.00262 9143166
-44.753895 -13.322312 149.83052 12828597
-45.418198 -13.501321 149.42871 9868171
-46.23344 -13.673378 148.88615 12959667
-50.327911 -13.68681 143.00706 7367263
-51.187386 -13.688458 142.70123 8288365
-51.699833 -13.975093 141.44791 9209467
-52.236107 -13.98293 141.33037 7367263
-44.844395 -12.471731 150.12793 9538691
-45.560898 -12.763895 149.89349 9801865
-44.226799 -11.231595 150.69421 7302246
-44.945206 -11.523787 150.45941 9077885
-44.119072 -10.468741 150.99432 8091760
-44.868881 -10.475483 150.85922 10853012
-43.543179 -9.3810759 151.49664 8090475
-44.267788 -9.6421251 151.2724 8748407
-42.852383 -8.1612892 152.06798 10788244
-43.585316 -8.358532 151.86575 7827305
-44.298153 -8.7481098 151.59619 9340289
-43.061935 -7.3284235 152.33768 10788244
-43.673885 -7.4931202 152.16879 7301221
-43.215813 -6.4276481 152.64212 8025456
-43.742931 -6.8178725 152.40526 7038307
-43.124428 -5.4576921 153.01547 7564651
-119.09397 -75.340668 59.743965 7827560
-119.84542 -75.503288 59.235069 7893608
-120.51614 -75.753494 58.58366 7827814
-121.04971 -75.881393 57.786037 7827559
-121.69597 -75.836655 56.947205 8814454
-122.35817 -75.776863 56.182755 7564131
-123.01538 -75.717094 55.41161 7564131
-123.67012 -75.657333 54.634892 7300702
-124.31976 -75.597672 53.851486 7958633
-124.79713 -75.54509 52.990604 9077114
-125.55887 -75.485802 52.423565 11051416
-126.07658 -75.42598 51.395931 7695204
-126.83442 -75.366478 50.816051 7432032
-127.4259 -75.305382 49.881382 7958633
-128.02621 -75.24173 49.335136 9011059
-117.03477 -74.351852 62.160362 9537918
-117.96117 -74.441612 61.563583 8945271
-118.67433 -74.693932 60.797924 8616821
-119.36047 -74.878197 60.167431 7959403
-119.83627 -75.108604 59.634438 7564642
-128.64018 -75.144798 48.577408 9669503
-129.33112 -75.029953 47.613804 11183001
-129.86653 -74.955994 46.924583 11775138
-130.46355 -74.871651 45.989098 9867142
-131.18245 -74.796005 45.356045 6775383
-131.86464 -74.715355 44.586155 6775382
-132.48718 -74.6353 43.761543 9933187
-133.01807 -74.566597 43.050095 11380380
-133.63406 -74.486366 42.214504 9866887
-134.30194 -74.405251 41.419655 7630185
-135.01212 -74.328163 40.749554 6445138
-135.34311 -74.267242 39.961708 6971482
-112.10834 -73.426773 68.307648 8748921
-112.91833 -73.583176 67.819237 7827048
-113.59117 -73.735489 67.217453 10195851
-114.134 -73.85495 66.273186 7498595
-114.93959 -73.853394 65.73951 9537662
-115.38405 -73.838051 64.891998 9537662
-116.03749 -73.911102 63.978069 6774614
-116.76133 -74.033066 63.099957 7038298
-117.3789 -74.139236 62.342381 9537918
-135.42715 -74.235657 39.455208 7366240
-136.26082 -74.168922 39.164154 8353647
-136.82002 -74.032669 38.315342 9735812
-137.49246 -73.89341 37.552261 7038298
-137.97388 -73.786942 36.614845 7959400
-138.81468 -73.695335 36.122536 7761253
-139.37169 -73.595222 35.265106 7563617
-140.03864 -73.492493 34.406452 7695714
-140.63438 -73.406769 33.715839 6511954
-141.23056 -73.320564 33.019909 8748147
-141.53755 -73.263008 32.493042 9734788
-111.42548 -72.375633 69.090866 7038307
-112.23563 -72.642128 68.568375 9867399
-113.09249 -72.767166 68.080841 8419954
-141.84431 -73.205292 31.964275 9142909
-142.4333 -73.118614 31.256905 9142909
-143.29181 -73.031082 30.722008 8617080
-143.60907 -72.944084 29.826149 9011581
