# .PCD v0.7 - Point Cloud Data file format
VERSION 0.7
FIELDS x y z rgb
SIZE 4 4 4 4
TYPE F F F U
COUNT 1 1 1 1
WIDTH 1224
HEIGHT 1
VIEWPOINT 0 0 0 1 0 0 0
POINTS 1224
DATA ascii
132.88431 -29.967215 114.22183 6511954
28.630226 -29.779591 150.57716 10260875
27.947847 -29.434917 150.61093 10326668
27.280037 -29.30386 150.37413 10064011
151.48547 -28.493174 107.83408 8617845
149.64821 -28.737856 107.88681 12761517
149.12619 -28.736393 108.60506 9209467
144.78557 -28.738667 109.49203 9143419
144.12314 -28.736935 110.36043 8946043
139.86656 -28.73937 111.15761 11904668
139.32864 -28.738058 111.8286 9471100
137.79962 -28.985027 111.69444 7563619
137.33244 -28.97113 112.13939 9602945
136.55319 -28.948542 112.87901 9537409
27.007719 -29.008663 150.94731 9734532
26.230017 -28.955143 150.78854 9735046
25.121552 -28.750113 152.00403 9274747
24.205275 -28.750708 152.15131 9471874
23.104649 -28.751442 152.32106 9340545
22.1866 -28.752069 152.45659 9669251
21.26766 -28.752716 152.58623 10063750
20.532019 -28.753246 152.68637 8089963
17.386465 -28.640312 154.6248 11183001
16.607203 -28.384798 154.38737 15987441
16.53211 -27.503979 154.7019 15066081
15.853128 -27.577805 154.3781 16777215
16.292227 -26.501474 154.99294 14407894
15.612974 -26.577959 154.66798 16382457
15.492373 -25.553228 155.01956 10459025
14.765932 -25.263748 154.81828 9208443
15.57279 -24.76811 155.36385 9208443
14.794302 -24.522522 155.1228 9603202
14.01819 -24.278494 154.88219 11709351
14.693686 -23.707842 155.40027 9603202
13.891077 -23.451042 155.15309 11708830
14.46398 -22.820316 155.65042 10984849
13.745447 -22.503668 155.4633 11511194
13.522848 -21.63496 155.70906 12300969
12.841555 -21.497227 155.46764 12826795
12.841227 -20.510765 155.85603 12630191
12.202913 -20.056004 155.75812 8682867
12.739828 -19.588091 156.17542 8682867
12.024958 -19.483828 155.90623 7564642
12.628946 -18.955275 156.37651 6511954
11.857874 -18.536186 156.20686 7235421
11.083158 -18.306408 155.96124 8682867
11.622675 -17.645992 156.45543 8682867
10.909159 -17.546265 156.18501 10065801
11.51026 -17.011911 156.65636 8682867
10.787218 -16.646017 156.48663 8092011
10.165152 -16.192484 156.39529 9078906
10.766581 -15.65684 156.90004 8092011
10.046656 -15.395981 156.77783 11513247
9.6423092 -14.693835 157.16176 11182486
8.9996548 -14.545716 157.00119 9537407
7.9649606 -13.959482 157.83243 10195336
7.1913247 -13.935945 157.58351 10458766
1.3181442 -13.753075 160.20871 9537664
0.54582822 -13.753917 160.21219 9077114
-0.612661 -13.755199 160.21103 8420467
-1.5880104 -13.429825 161.11018 8880759
-2.3598266 -13.405451 160.78487 10261644
-2.2202659 -12.680574 161.13072 9866888
-2.9451346 -12.416211 160.92021 9734788
-2.4699149 -11.551832 161.46654 8617081
-3.1069617 -11.51531 161.20453 9406338
-3.3948836 -10.599266 161.44012 8748664
-4.1210799 -10.240073 161.2664 12432037
-3.4838881 -9.7313805 161.74301 8090987
-4.1310973 -9.3435936 161.61482 10524556
-4.2178664 -8.5102224 161.90509 10656141
-4.9124122 -8.4580269 161.62431 12432037
-4.4072852 -7.7440124 162.12442 11905950
-5.1193938 -7.3702044 161.9626 12169639
-5.2469573 -6.5175743 162.24278 11511967
-5.906095 -6.2712998 162.05371 10591121
-5.3362594 -5.6826086 162.53259 11051416
-6.0638061 -5.425972 162.31793 10196363
-6.2037978 -4.5186934 162.61423 9735813
-6.8985724 -4.4730062 162.33078 10262156
-6.13693 -3.8798616 162.89459 12103073
-6.9161811 -3.4744062 162.71609 10722449
-7.6944747 -3.0702949 162.53748 8420726
-7.1275306 -2.4709489 163.01932 9208443
-7.8988357 -2.4682984 162.68568 8749433
-7.332109 -1.8669 163.16862 9208443
-8.111887 -1.4626575 162.98964 12828085
-8.8908291 -1.0596368 162.81056 16248807
-8.1287632 -0.65560257 163.30061 14210509
-8.8335323 -0.41371578 163.18959 15724262
-9.1295567 0.15333867 163.52774 14210509
-9.7229633 0.45681953 163.52269 9405823
-10.945555 0.96707588 164.03535 10590097
-21.297697 1.555887 167.97133 9735043
-22.233751 1.6235554 167.78433 10063753
-21.464323 2.257869 168.19359 9932166
-22.193106 2.4246509 168.09026 10195338
-23.080851 2.5696473 167.94286 10064010
-22.317022 3.3128405 168.39116 9932166
-23.129377 3.5221357 168.28465 9471615
-23.941961 3.7311912 168.17805 9142907
-23.046171 4.5144157 168.67108 9142907
-23.986708 4.5816092 168.48291 8748149
-24.800882 4.7913074 168.37616 8089963
-24.031702 5.4353466 168.78893 9669507
-24.973574 5.5024877 168.60046 10261128
-24.266863 6.0767956 168.97325 11380380
-24.946917 6.5569444 168.99519 10721934
-25.801271 6.6053586 168.79071 11774108
-25.14794 7.5772128 169.28566 9735297
-25.946547 7.5705571 169.04897 9275003
-25.786993 8.4341393 169.36179 8880246
-26.586054 8.4270182 169.12482 7169117
-26.073515 9.4267979 169.58327 9734786
-26.92642 9.5672503 169.37595 8748149
-26.278593 10.380276 169.81651 6511954
-26.890013 10.591651 169.70203 7629668
-27.627649 10.656602 169.50539 6313808
-26.995462 11.390138 169.91695 6511954
-27.856352 11.497276 169.69705 7564128
-27.164534 12.11738 170.09122 10853262
-27.9779 12.327388 169.91692 10656139
-28.791059 12.537395 169.74271 12432037
-27.926928 13.316579 170.23651 11840157
-28.788813 13.471342 170.03099 10787726
-28.89274 14.302908 170.32515 7367774
-29.771631 14.653949 170.51103 6183246
-30.595049 14.760794 170.37212 8420208
-30.71295 15.252449 171.02382 8025194
-31.473181 15.577779 171.29417 7959404
-32.494011 15.749127 171.41484 11314332
-33.332207 15.753556 171.31715 13024949
-38.173569 16.501806 173.73329 9538177
-39.25383 16.51454 173.64896 10459787
-39.90295 16.522579 173.59846 9210491
-38.426369 16.965012 173.87988 10064519
-39.171753 17.493757 174.0096 11248789
-40.161285 17.541403 173.94543 9210491
-40.887653 17.9216 174.02312 9735296
-39.188309 18.362226 174.3217 9210491
-40.076565 18.606993 174.33714 9998980
-41.164818 18.622778 174.25339 9603711
-41.838978 18.865801 174.28569 9209467
-40.134674 19.306532 174.58479 9735296
-41.026485 19.553873 174.60075 9998211
-42.118614 19.571173 174.51727 9340796
-41.097832 20.263266 174.89934 9735296
-41.987446 20.397659 174.89206 9472124
-42.903229 20.657305 174.98247 9603969
-43.79652 20.792591 174.97182 9932934
-42.798592 21.276045 175.46603 8682867
-43.840218 21.490343 175.50114 9406590
-44.86076 21.805313 175.61603 9866373
-44.755917 22.315052 176.08774 9734787
-45.836945 22.323118 175.89169 10261131
-46.722691 22.90332 176.66573 10260874
-47.594395 22.911674 176.51344 8616566
-48.025341 23.479412 177.25716 8616566
-48.683815 23.486872 177.14639 7038307
-49.342766 23.494631 177.03603 7038307
-49.562397 24.065311 177.81966 9011579
-50.446331 24.07679 177.67302 9011579
66.779472 -44.111259 137.66347 10262416
65.950729 -44.112183 138.06558 8092019
65.120949 -44.11404 138.46519 8947064
64.123619 -44.117359 138.94182 6510930
63.124382 -44.121956 139.4153 7039331
62.290634 -44.126682 139.80742 8486006
61.324787 -44.243393 139.89798 9341055
60.323036 -44.251301 140.36174 9999495
59.411621 -44.237606 140.85205 9868169
58.478783 -44.39447 140.90727 10197136
57.451881 -44.54158 141.11258 9539207
56.451122 -44.557758 141.57468 9011321
55.567162 -44.533623 141.83327 8550770
54.715672 -44.332939 142.17393 9866887
53.732635 -44.166153 142.68681 11248279
52.869865 -44.225967 142.47083 11379348
115.86233 -43.286114 120.5254 7038307
114.99275 -43.386696 120.95335 8090221
114.11044 -43.405537 121.42169 8089963
113.29684 -43.307964 121.9006 8814201
112.38333 -43.366501 122.28694 9274752
111.41687 -43.598225 122.62993 9537923
110.57956 -43.630867 123.21884 8813938
107.92598 -43.740032 123.35971 9340027
107.47929 -43.739422 123.74779 9340027
106.73166 -43.738415 124.39107 9932163
103.59157 -43.740368 124.92662 11643554
102.83707 -43.739441 125.54691 7565675
102.07878 -43.738525 126.16216 8222573
99.57309 -43.741371 126.1363 10591124
98.963715 -43.740688 126.61314 7630443
98.045898 -43.739689 127.32306 10195850
97.277191 -43.738869 127.90988 9076856
94.34256 -43.741402 128.1606 9670274
93.413635 -43.740505 128.83719 10261132
92.479813 -43.739632 129.50706 9866631
89.418381 -43.742222 129.78595 10393232
88.634933 -43.741566 130.32077 8617081
87.848175 -43.740929 130.85054 7564394
86.900024 -43.740189 131.48016 7564651
83.707993 -43.742928 131.7579 10853012
82.912674 -43.742386 132.258 9340542
81.954437 -43.741756 132.85197 10789012
81.152756 -43.741253 133.34187 9077884
80.509262 -43.74086 133.7301 9538694
77.021881 -43.743755 134.06752 10261641
76.374847 -43.743423 134.43561 10392718
75.401024 -43.742947 134.98238 10458513
74.423294 -43.742493 135.52202 8354166
73.605759 -43.742138 135.96651 9143680
72.554787 -43.807617 136.13016 9735558
71.741295 -43.848854 136.28505 9011320
70.721283 -43.898434 136.46574 8879478
69.727615 -43.894657 136.96075 8616307
68.732246 -43.892132 137.45241 9801092
67.901634 -43.890957 137.85956 9538691
67.069817 -43.890659 138.26428 9736329
66.07016 -43.891399 138.74698 7894125
65.235855 -43.892895 139.14665 8617843
52.745918 -44.00071 143.19531 9340799
51.820812 -43.949013 143.33806 10261132
50.896942 -43.898251 143.47755 10458509
49.789825 -43.838421 143.64096 12431013
42.41412 -43.744896 147.12662 9932934
41.704628 -43.745106 147.32793 9538176
40.638702 -43.745441 147.62396 9340798
39.570656 -43.745804 147.9124 8419696
38.679054 -43.74612 148.14696 9538176
37.718811 -43.669868 148.48712 10919829
36.748249 -43.45919 148.47903 11314332
118.53506 -42.252247 119.5069 7564651
117.69231 -42.353989 119.91984 8946044
116.79466 -42.534405 120.33027 8617078
116.0088 -42.419109 120.8015 8222576
115.11751 -42.618931 121.20049 8419441
114.21812 -42.556179 121.71143 10591121
113.32111 -42.495132 122.22041 9340799
112.28281 -42.764839 122.67014 9603460
111.74012 -42.999916 122.86659 10261132
36.633976 -42.608562 148.76648 11511968
35.92503 -42.440353 148.52518 10327695
120.50574 -41.161919 118.89017 9734531
119.71772 -41.309383 119.25496 10853012
118.85394 -41.45158 119.66274 7958635
117.88357 -41.627701 120.11416 8089963
117.05812 -41.527046 120.60069 9998727
116.15175 -41.463177 121.11584 10064520
115.21135 -41.68465 121.53253 9406847
114.46626 -41.824577 121.87717 10985879
113.83262 -41.91795 122.18084 11906725
36.437923 -41.601948 149.07845 8090995
35.667534 -41.541069 148.76836 8419444
121.35179 -40.532139 118.67268 7892584
120.66957 -40.553005 119.05124 9142651
119.83519 -40.450069 119.54356 9274237
118.86029 -40.558281 120.02518 9931910
118.05088 -40.569214 120.45744 9931910
117.22627 -40.648457 120.86983 10261643
116.30838 -40.858772 121.27895 10854036
35.755608 -40.695744 149.13921 8814714
35.09338 -40.287041 149.0128 8879990
122.45225 -39.362526 118.33384 9274492
121.71339 -39.644703 118.80738 8419184
120.81834 -39.47599 119.41216 9142651
119.92441 -39.601543 119.843 8813686
119.09286 -39.680416 120.25928 9273980
118.44662 -39.77282 120.57014 10853012
34.89267 -39.599892 149.19617 8090218
34.149017 -39.226635 149.02055 8090218
123.37386 -38.503922 117.9669 10524815
122.6447 -38.626083 118.51914 9932678
121.93114 -38.563499 119.14168 8089963
121.16201 -38.72271 119.53529 9734531
34.794319 -38.660332 149.52319 7234653
34.062351 -38.406639 149.30562 7629927
124.39488 -37.522984 117.57433 10655633
123.61639 -37.581413 118.19778 10853268
122.83884 -37.640892 118.82004 8682356
122.24977 -37.954403 119.16516 7563619
34.707985 -37.837578 149.80959 9143419
33.896126 -37.53804 149.5753 8090736
33.08749 -37.240791 149.34155 8090995
125.27461 -36.528877 117.30611 9012350
124.51838 -36.574131 117.91718 9603201
123.76297 -36.620239 118.52713 10327692
33.728508 -36.669094 149.8445 8748924
32.998497 -36.422001 149.62518 10196368
126.8046 -35.193398 116.65466 8682867
126.20792 -35.506645 117.00638 9866884
125.47763 -35.514484 117.6133 9208699
124.70117 -35.680927 118.1843 9274492
124.04842 -35.938099 118.60918 11380380
33.639885 -35.847446 150.12935 9537920
32.896439 -35.485241 149.94954 11577761
127.23688 -34.540958 116.60001 9209211
126.409 -34.514069 117.30492 10261899
125.67081 -34.636791 117.8644 9735043
32.754646 -34.871822 150.12947 7432804
32.099808 -34.437462 150.01636 6775131
128.13162 -33.508652 116.33742 9735555
127.35557 -33.483284 116.99808 9340797
126.60783 -33.769871 117.48852 11248794
32.110207 -33.564541 150.36435 7235677
31.350689 -33.531048 150.04817 6775130
129.07585 -32.511375 116.01703 11577760
128.32721 -32.528645 116.63478 9735555
127.68677 -32.508251 117.1798 8682867
31.843418 -32.673752 150.59921 8288365
31.143108 -32.536797 150.34938 7564642
130.81339 -31.141472 115.20864 11906725
130.08739 -31.417444 115.68585 9998987
129.30331 -31.571598 116.26881 10985625
128.51712 -31.626373 116.90034 10590865
30.995283 -31.522705 150.68433 8353903
30.296993 -31.389359 150.43398 9011576
131.06601 -30.47658 115.31828 8024685
130.26945 -30.5347 115.9592 8353648
129.57443 -30.540495 116.53814 9603713
30.785383 -30.526754 150.98517 8089963
30.074083 -30.580484 150.66876 9406590
133.66977 -29.187483 114.33876 7038307
133.00256 -29.328035 114.76942 7038298
132.08997 -29.590885 115.27763 6643540
131.23062 -29.712769 115.85547 7761253
130.63556 -29.894926 116.17201 6510930
30.060625 -29.838642 151.14792 8287598
29.2377 -29.444021 151.12932 8747892
28.37361 -29.102554 151.21761 10853012
151.61743 -28.047462 107.92732 8617845
150.97583 -28.259014 108.56949 10261898
150.33496 -28.470936 109.21046 9209467
148.73254 -28.735302 109.14224 7564651
148.20422 -28.733856 109.85597 8748920
143.45511 -28.735218 111.22453 8946044
142.91745 -28.733854 111.9133 9011320
138.51611 -28.736113 112.83053 7695205
137.83372 -28.734507 113.66113 7564651
135.77338 -28.926659 113.61635 9077372
134.9929 -28.905483 114.35109 7432808
134.36826 -28.889009 114.93726 8287859
27.938826 -28.823702 151.93326 7563619
27.156237 -28.771822 151.78354 10129545
26.219786 -28.749422 151.81976 8682867
25.670879 -28.749763 151.91296 8682867
19.695951 -28.747713 154.95917 13551549
18.859922 -28.655605 155.10144 8814709
17.871508 -28.461319 154.90593 8485746
151.67142 -27.375137 108.24002 8617845
151.09471 -27.364218 108.92979 9735044
150.46574 -28.025524 109.30489 10985364
17.781778 -27.606031 155.20413 9932936
17.049471 -27.309607 155.00308 14407894
151.93576 -26.480963 108.42741 11577504
151.43642 -26.696602 108.89857 9340286
17.608503 -26.673788 155.49635 7893355
16.884523 -26.550844 155.23061 10853784
152.22687 -25.660538 108.54182 10590609
16.921328 -25.714159 155.57637 6709339
16.210047 -25.315168 155.42487 9537409
152.54474 -24.91427 108.58297 10590609
16.767035 -24.673262 155.91966 6972766
16.095732 -24.434599 155.72237 8485489
15.883959 -23.607796 155.95633 10261383
15.101202 -23.363903 155.71268 10984849
15.654844 -22.716467 156.20824 10984849
14.922907 -22.431122 156.00299 11445401
14.903685 -21.632505 156.30931 10064008
14.251753 -21.433092 156.10493 11314076
14.928289 -20.975964 156.57864 9208443
14.151999 -20.550339 156.40929 10064008
13.37734 -20.126938 156.23984 10787732
13.987803 -19.59902 156.71265 9208443
13.267351 -19.493788 156.44144 9011320
13.816496 -18.834162 156.93956 9208443
13.08489 -18.557064 156.73119 8748404
12.984842 -17.692312 157.02831 8946039
12.28586 -17.353163 156.85851 8814453
12.177435 -16.603779 157.1066 9011832
11.526419 -16.446039 156.88622 8092011
12.071699 -15.778444 157.39972 8616562
11.282183 -15.443382 157.28334 8222316
11.011595 -14.74967 157.70876 9734527
10.240835 -14.473072 157.59697 11840415
9.3258991 -14.001442 158.2684 9077884
8.5472279 -13.977308 158.01938 9208443
4.6000466 -13.749615 160.15073 12432037
3.6349359 -13.750613 160.17448 11445657
2.6697068 -13.751627 160.19287 11182744
1.8973945 -13.75245 160.2032 9537664
-0.23050462 -13.278083 161.75882 9735812
-0.81385195 -13.259523 161.51305 8616563
-1.065931 -12.554511 161.68112 8221549
-1.7880646 -12.254576 161.48578 10459281
-1.2481209 -11.565124 161.99138 8353650
-1.9482361 -11.389601 161.75671 10130317
-1.9919525 -10.551563 162.06752 8748666
-2.576345 -10.275703 161.92261 10459281
-2.095571 -9.5976458 162.39792 10064524
-2.8599334 -9.4263287 162.13376 10787988
-2.9786201 -8.493865 162.4492 9669505
-3.7566352 -8.2820292 162.19499 9537918
-3.1146941 -7.7656164 162.67674 9932933
-3.7658401 -7.377337 162.54701 10721934
-3.8524337 -6.5365987 162.8403 10853779
-4.551538 -6.4872766 162.55635 10591121
-4.0767074 -5.5971951 163.11263 10525329
-4.8416839 -5.4319577 162.84578 10591123
-4.8865676 -4.5298085 163.18127 9538949
-5.5498176 -4.2843432 162.99014 9736071
-4.9757171 -3.6870322 163.47429 9012606
-5.7078643 -3.4313946 163.25723 9933192
-5.8479552 -2.5157189 163.55695 10327178
-6.5473151 -2.4728954 163.27032 12103073
-6.1692405 -1.8692844 163.6725 12103073
-6.7582412 -1.4640939 163.57661 10063750
-7.3472457 -1.0597291 163.4805 9208443
-6.8420768 -0.51911896 163.96799 10655630
-7.6740623 -0.41200468 163.69325 12170156
-7.778295 0.2592923 164.20056 11709348
-8.5631771 0.46091092 164.02809 12959928
-9.5908985 0.97342116 164.63358 13484989
-19.022318 1.4216559 168.43701 10262156
-19.833033 1.6301587 168.33057 9340798
-20.770735 1.6977243 168.14319 9011833
-20.070971 2.4737568 168.58914 8616819
-20.995413 2.5129571 168.39423 8748148
-20.789892 3.276041 168.72346 8419440
-21.859373 3.5267825 168.57411 8485232
-21.015455 4.0969586 168.97639 9537405
-21.836679 4.448626 168.92067 7038298
-22.591379 4.8006287 168.88011 7564130
-21.881239 5.3740244 169.25333 7761509
-22.824549 5.4408789 169.06444 9142907
-22.0501 6.0878816 169.47946 8682867
-22.8039 6.3707118 169.4135 8287597
-23.691465 6.6323433 169.3094 10196106
-22.921598 7.3755155 169.75905 5919050
-23.740911 7.587007 169.65176 7761510
-24.547621 7.5820661 169.45831 10524556
-23.915083 8.3792982 169.89236 7038307
-24.668516 8.4875984 169.70683 9275260
-24.624918 9.3109789 169.97319 8683125
-25.57033 9.5184946 169.75935 8551282
-24.864359 10.177715 170.16971 7169893
-25.549902 10.533407 170.07788 7367010
-26.299158 10.815719 169.94466 6511954
-25.604715 11.435006 170.33936 7893351
-26.467325 11.541695 170.11879 7235420
-25.767702 12.35352 170.57431 9735039
-26.695032 12.386166 170.31194 9932418
-26.470861 13.389829 170.68683 8024935
-27.393747 13.521348 170.45621 8946292
-26.90325 14.342382 171.08029 5921098
-27.726851 14.448676 170.94055 6447185
-28.605257 14.799567 171.12642 5921098
-28.715948 15.292476 171.78235 5921098
-29.458094 15.463522 171.63672 6117453
-30.411371 15.745152 171.71719 7564899
-35.158054 16.469475 173.96954 8090987
-35.945988 16.661177 173.97411 10524300
-36.897144 16.717354 173.91618 10524302
-36.087521 17.398888 174.2289 9931907
-37.022354 17.541609 174.20357 9471614
-37.994873 17.513678 174.11354 10524814
-36.889542 18.487396 174.55585 8681843
-37.90588 18.577597 174.50487 8485489
-38.924168 18.668495 174.45403 8947063
-37.828426 19.42971 174.81877 7170141
-38.848343 19.521572 174.7681 8420208
-39.87019 19.614235 174.71761 9933189
-38.934441 20.239569 175.15077 8420208
-39.746361 20.445692 175.20778 9735044
-40.729786 20.629723 175.2269 9997958
-41.619923 20.763998 175.21982 9735296
-40.620937 21.248306 175.71436 9734788
-41.657352 21.460659 175.74864 9932166
-42.671822 21.77356 175.86266 9077372
-42.835453 22.31469 176.53337 9340289
-43.689388 22.314821 176.33716 9077372
-44.544861 22.883989 177.03996 8092019
-45.633118 22.893206 176.85226 9866373
-46.272419 23.461428 177.55492 8617078
-47.367496 23.472303 177.36845 8616566
58.438251 -44.15984 141.58221 11709860
57.765484 -44.167561 141.88589 11709860
56.754711 -44.180084 142.33907 9537665
55.897221 -44.180683 142.67931 9537665
54.971287 -44.128563 142.84081 9866887
110.3958 -43.318111 123.46159 8813936
109.63759 -43.472191 123.80756 10261124
108.75314 -43.417271 124.30727 9077367
107.87045 -43.363758 124.80537 8946295
106.98949 -43.311886 125.30166 8945528
105.98197 -43.462177 125.51312 8813686
105.11922 -43.53194 126.03035 8682357
104.30421 -43.73127 126.40776 7564651
103.62225 -43.700558 126.81969 7564651
101.16411 -43.737457 126.89464 8749429
100.3979 -43.736584 127.50018 8092019
99.782303 -43.735897 127.9812 9735817
96.504791 -43.738068 128.49165 9077370
95.57341 -43.737137 129.18387 9735558
94.793556 -43.73637 129.75571 9735558
91.698074 -43.738926 130.06033 7564651
90.912811 -43.738235 130.60855 8486261
89.966263 -43.737427 131.26036 9736068
89.174072 -43.736778 131.79839 9735812
85.947311 -43.739471 132.103 9735302
85.150024 -43.738895 132.61688 9932681
84.349556 -43.738338 133.12561 7893352
83.385048 -43.737686 133.7299 5722183
80.025467 -43.740574 134.01938 9538694
79.378532 -43.740204 134.40189 9407106
78.567642 -43.73975 134.87624 9209467
77.753647 -43.739319 135.34535 9209467
76.773232 -43.738819 135.90201 10524560
75.95327 -43.738422 136.36064 11905701
75.459877 -43.738194 136.63348 11905701
71.632431 -43.741348 137.01273 9011320
70.971321 -43.7411 137.35519 9340798
70.1427 -43.740814 137.77847 9669763
69.144859 -43.740494 138.28012 10985622
68.143509 -43.740196 138.77457 10591375
67.306404 -43.73996 139.18124 10196872
66.466774 -43.73975 139.58249 9933958
65.456146 -43.739521 140.05753 9867910
64.495392 -43.856373 139.7506 7432544
63.396122 -43.899406 140.01775 7039331
62.39024 -43.904648 140.48819 10392975
61.550758 -43.910053 140.87804 9208955
60.710526 -43.916691 141.26665 9867910
59.700512 -43.925854 141.73039 9802120
58.85741 -43.934414 142.11452 11709860
58.012947 -43.943913 142.49626 13551549
56.997963 -43.956409 142.95154 9011321
55.966225 -43.958736 143.36581 9011321
55.042217 -43.911766 143.54337 10064267
54.109673 -43.858063 143.69232 12037796
52.992283 -43.794701 143.86703 10591118
52.068649 -43.748135 144.02675 8881015
51.194107 -43.743164 144.31935 10327434
50.149609 -43.743286 144.68394 10458246
49.277264 -43.743401 144.98228 9997954
48.403042 -43.743538 145.27495 9208187
47.351753 -43.743721 145.61948 9208187
46.298027 -43.743931 145.95633 9275004
45.418095 -43.744118 146.23146 10525327
44.536415 -43.744328 146.5009 10130569
43.476364 -43.744602 146.8174 10393485
42.768471 -43.744793 147.02452 9932934
38.803947 -43.47057 149.36772 9998727
38.046959 -43.306679 149.10376 10788243
112.4765 -42.235538 122.78243 9340289
111.51208 -42.463173 123.20955 8222320
110.65533 -42.582432 123.62289 8353642
109.76155 -42.418449 124.17226 9340279
108.8666 -42.65715 124.55735 8682609
107.96627 -42.523129 125.09802 8814709
107.13243 -42.716618 125.4686 9340798
105.6033 -43.023064 126.1162 9340030
37.976547 -42.528858 149.38089 11314587
37.197521 -42.463192 149.06877 10985625
115.11871 -41.18745 121.78612 9341054
114.28419 -41.295074 122.19234 10591121
113.39563 -41.481224 122.59547 9801093
112.60153 -41.497684 123.01714 9932168
111.65145 -41.613605 123.48228 8551288
110.74322 -41.476131 124.02862 7367005
109.86874 -41.504333 124.48883 7038297
108.96399 -41.814671 124.84985 7827302
108.38393 -41.982693 125.09395 8288109
37.718475 -41.621284 149.62616 9012095
37.002106 -41.45425 149.38124 8880509
116.96762 -40.219639 121.18499 10064520
116.23167 -40.443233 121.49054 9735555
115.35655 -40.548611 121.91946 9472640
114.46864 -40.57185 122.38902 9341054
113.55183 -40.431118 122.94132 9669763
112.59758 -40.615433 123.38065 9997960
111.81941 -40.648628 123.7869 9866631
110.92426 -40.817719 124.20056 8090470
36.964813 -40.668324 149.67435 8090995
36.363693 -40.29776 149.55949 8814460
119.76207 -39.038433 120.16124 8616307
118.91982 -39.393082 120.47029 9931910
118.07185 -39.499569 120.8842 10458254
117.22136 -39.483063 121.34982 9735555
116.35426 -39.493839 121.81322 8946296
115.47435 -39.624332 122.23448 7959145
114.62701 -39.5187 122.7349 9669763
113.73489 -39.70789 123.13874 9801093
112.90163 -39.819504 123.54265 10261641
37.033218 -40.0303 149.95503 8090995
36.231014 -39.53801 149.8009 9933193
35.431263 -39.049046 149.64644 8090218
121.45682 -38.328224 119.53781 9734531
120.80368 -38.420692 119.85229 9010808
120.10869 -38.441505 120.21873 7892583
119.13461 -38.581596 120.68684 8616563
118.21716 -38.519798 121.20714 9340542
117.36122 -38.411957 121.71305 9209211
116.43665 -38.650375 122.11423 8682867
115.55823 -38.758507 122.54386 8090475
36.116283 -38.595806 150.12187 11708830
35.354263 -38.422718 149.85954 8090218
122.62066 -37.138992 119.23843 7893614
121.93024 -37.526878 119.591 8485235
121.05655 -37.410187 120.12978 9011060
120.14108 -37.615017 120.53979 7892582
119.21901 -37.55349 121.0624 7893611
118.48328 -37.505398 121.47902 7893611
117.69638 -37.661091 121.8398 8288111
116.6768 -38.007915 122.24777 11183001
35.963024 -38.018047 150.28279 10984852
35.219208 -37.495346 150.16591 11313815
34.36425 -37.051895 149.96962 9867403
123.62427 -36.340195 118.77489 9735812
122.93889 -36.527672 119.25972 8222577
122.12993 -36.500324 119.90947 7038307
121.2085 -36.440704 120.44489 7563616
120.17281 -36.787762 120.86146 6905687
119.38009 -36.943275 121.22545 7893611
35.045044 -36.592842 150.44547 13550517
34.285427 -36.426643 150.18146 10722450
124.58199 -35.12389 118.54588 9932422
123.81396 -35.464886 119.02773 10327949
123.04883 -35.495647 119.65308 8354163
122.22646 -35.714401 120.1767 7893356
121.37255 -35.827377 120.60756 7892581
34.908821 -35.834213 150.68491 12432552
34.147926 -35.500893 150.4861 9998471
125.435 -34.317493 118.21169 9208443
124.74503 -34.505379 118.70032 9932422
123.95143 -34.483173 119.37437 9603714
123.35201 -34.536331 119.8506 8485749
34.035183 -34.670071 150.76411 8879991
33.355824 -34.428314 150.56467 6774615
126.47133 -33.237164 117.85316 12959412
125.70753 -33.44046 118.39613 9866629
124.9106 -33.529381 119.0207 9011321
124.20256 -33.728077 119.51936 8813943
33.377609 -33.646782 150.88164 6116685
32.620033 -33.321396 150.68111 7367263
127.20677 -32.49345 117.58806 10261899
126.72711 -32.479095 117.9958 11511966
125.92832 -32.456055 118.67445 9341055
125.23526 -32.6455 119.1649 8090992
33.216454 -32.563931 151.23785 7235421
32.532101 -32.462341 150.98102 8617330
128.30815 -31.200436 117.27542 10787988
127.64515 -31.45999 117.70758 11512222
126.85797 -31.556761 118.3202 9801604
126.09317 -31.834103 118.82919 9209467
32.23856 -31.615294 151.18706 8156779
31.545288 -31.35 150.99078 7367263
129.19104 -30.389994 116.94524 10787988
128.58072 -30.441404 117.42915 10787988
127.82898 -30.461264 118.04681 12499118
127.0099 -30.813103 118.54298 10262155
32.157902 -30.743689 151.49501 8025197
31.427734 -30.420944 151.34204 8222061
131.47874 -29.130503 116.3563 7827046
130.47583 -29.494408 116.75478 7563874
129.55161 -29.622969 117.34705 10064265
128.71254 -29.8393 117.83345 10787988
31.096067 -29.858017 151.57977 8353647
30.629606 -29.430838 151.7196 8748404
29.754629 -29.205366 151.52182 8089963
150.04741 -28.465776 109.55426 9209467
149.47256 -28.456028 110.24126 9866374
148.89781 -28.446745 110.92779 9734788
147.40576 -28.731714 110.92204 8090479
146.86946 -28.730293 111.62976 7038307
142.51163 -28.73284 112.42786 7959408
141.96783 -28.731499 113.11177 9800582
137.14597 -28.73292 114.48732 9735558
136.5925 -28.731661 115.14557 8617336
134.05563 -28.881023 115.22984 10853012
133.43027 -28.865292 115.8134 9867141
132.64792 -28.846254 116.54108 9406590
29.516562 -28.933422 152.25165 8418928
28.52919 -28.864508 152.05299 7563619
24.725922 -28.744196 154.24216 9998215
23.982269 -28.744684 154.35869 8156531
23.051878 -28.745314 154.49904 7564651
21.93429 -28.74609 154.66037 8617337
20.815634 -28.746891 154.81366 10788247
19.967203 -28.468107 155.60405 11313819
19.201357 -28.245905 155.5681 8616563
150.72786 -27.133194 109.49405 10261132
150.22644 -27.573061 109.84207 9932167
149.59161 -27.652172 110.55038 9603202
18.977602 -27.55751 155.74234 7366496
18.248499 -27.226711 155.5562 10260876
151.16901 -26.422062 109.3694 9603202
150.4917 -26.455557 110.1536 9668995
18.874998 -26.718779 156.02837 7037274
18.223459 -26.351259 155.89044 8616819
151.8851 -25.504084 109.03467 9735044
151.33244 -25.569647 109.65307 8089963
150.89854 -25.562479 110.17159 9142651
18.24658 -25.578089 156.20522 7893352
17.529459 -25.482588 155.93159 6446423
152.67786 -24.464756 108.67709 10590609
152.17619 -24.681892 109.1501 9011321
151.62273 -24.747818 109.76948 8089963
18.06745 -24.680407 156.48132 7827816
17.289381 -24.472452 156.22557 5656909
152.90515 -23.450178 108.97618 9866630
152.36729 -23.705395 109.47092 9142908
17.214716 -23.580723 156.54466 6775131
16.425528 -23.334808 156.29897 9537918
153.13303 -22.433325 109.27604 9800581
16.978346 -22.87303 156.72096 8024938
16.262293 -22.477018 156.56624 9340539
153.47964 -21.757053 109.24403 8089963
16.261927 -21.515676 156.94476 8090987
15.569914 -21.520008 156.64279 9537918
16.13632 -20.675905 157.22104 11907239
15.391253 -20.581205 156.93491 11248538
15.26774 -19.54035 157.29124 12827310
14.492502 -19.34568 157.03148 10854038
15.021166 -18.523653 157.58464 9538691
14.306719 -18.445683 157.30528 9143934
14.254404 -17.683811 157.58261 9143934
13.553282 -17.267342 157.44235 9932934
13.498426 -16.542454 157.70403 10130057
12.712553 -16.313919 157.45296 9406334
13.292536 -15.659917 158.00323 7958632
12.485178 -15.425421 157.81085 6839895
12.397779 -14.714708 158.33569 6774102
11.551416 -14.410929 158.31599 8418926
10.891531 -14.050595 158.76685 8813683
10.303011 -14.032027 158.57988 7037274
7.8800988 -13.746346 160.02556 9078140
6.7227197 -13.747477 160.07727 12629936
5.7580285 -13.74844 160.11423 13550781
5.1790795 -13.749023 160.13365 12432037
1.0723327 -13.385458 162.28181 9801092
0.35478437 -13.296835 162.00533 9143419
0.94229352 -12.727526 162.48425 8616563
0.15891875 -12.507377 162.23102 8616563
0.092634574 -11.65431 162.5379 9077625
-0.62510836 -11.346223 162.34775 8682612
-0.62743914 -10.519338 162.67216 8551284
-1.4098412 -10.303308 162.41776 9011838
-0.86552966 -9.6049948 162.92865 9604485
-1.5702111 -9.4313669 162.69128 10393488
-1.0255944 -8.7298479 163.20363 8486262
-1.8094269 -8.5160894 162.94766 8946556
-1.7169052 -7.6237741 163.33897 8091761
-2.4862647 -7.4546618 163.07173 9472128
-2.6048484 -6.5139904 163.39043 8419183
-3.3878264 -6.3039517 163.13336 9406334
-2.8070312 -5.7119827 163.61832 8287597
-3.4616714 -5.3708467 163.46852 9077369
-3.4827476 -4.542201 163.78548 9998728
-4.1865478 -4.4958439 163.49838 11183003
-3.673326 -3.7629409 164.00941 10459537
-4.4776206 -3.4314966 163.79091 9407363
-4.6785293 -2.5200305 164.06277 7565675
-5.3845801 -2.2752061 163.85286 9208443
-4.6085639 -1.8725405 164.34856 10261132
-5.395864 -1.4655014 164.16739 10919315
-6.1822524 -1.0598062 163.98618 10655630
-5.6722655 -0.51768351 164.47618 11182486
-6.3273177 -0.38284054 164.30002 10655630
-6.4801497 0.29742748 164.79376 10195849
-7.1360183 0.4317804 164.62134 11709348
-8.2281246 0.97991973 165.23564 10261387
-17.822821 1.5304718 168.75063 9342079
-18.634336 1.7390187 168.64244 10064775
-17.852095 2.2695951 169.01619 9736836
-18.665014 2.4785445 168.90939 9998724
-19.46876 2.4757867 168.72633 9340540
-18.695784 3.2204726 169.17726 9603711
-19.58761 3.3656168 169.02896 9801089
-20.319254 3.5325136 168.92505 10590347
-19.599478 4.3342543 169.38507 10984848
-20.632532 4.5250459 169.22179 9668734
-19.992193 5.2405853 169.63185 7563619
-20.488123 5.4953275 169.61385 8024169
-21.350473 5.5194392 169.42743 8353133
-20.752371 6.4178224 169.89568 10721419
-21.551401 6.5209236 169.75288 9077111
-22.293829 6.9474115 169.74263 7300958
-21.515646 7.6002345 170.16074 7103323
-22.449022 7.6377778 169.96321 5919050
-21.749083 8.2487841 170.34813 6840151
-22.487188 8.4178114 170.24352 6248015
-23.249487 8.528758 170.11194 6182222
-22.474459 9.2592812 170.55807 7103579
-23.420042 9.3233566 170.33025 7432804
-23.460867 10.286771 170.61565 7498856
-24.278704 10.576626 170.46465 7433063
-23.5124 11.504025 170.97533 9143678
-24.318708 11.494118 170.73538 7235685
-25.133989 11.703155 170.56029 8682608
-24.357 12.37133 170.99428 7761772
-25.163584 12.361022 170.75407 13023917
-24.526907 13.176558 171.19229 8222062
-25.266024 13.516138 171.0797 8682355
-26.040571 13.891914 170.96783 5393730
-26.230192 14.479424 171.51015 5393729
-27.207197 14.828239 171.65836 4342065
-27.355104 15.451454 172.13658 4342065
-28.117102 15.52349 172.02119 4736823
-28.752085 15.74694 171.9939 5920074
-32.879883 16.601093 174.20456 7762029
-33.796936 16.639952 174.14314 8814196
-34.753479 16.809792 174.12587 8946039
-33.802509 17.528809 174.46355 10458507
-34.811989 17.6159 174.41203 10787215
-35.823185 17.70369 174.36063 9931907
-34.729774 18.46236 174.72432 12299684
-35.74255 18.551062 174.67314 9471357
-36.624626 18.793499 174.68803 12432037
-34.929626 19.238024 174.98785 10260358
-35.665188 19.403894 175.00354 10721422
-36.679577 19.493235 174.94394 11576729
-37.563255 19.737112 174.95149 7170141
-36.561306 20.217121 175.4272 11181972
-37.584747 20.423672 175.45872 7630692
-38.56398 20.606005 175.47713 8748917
-38.449684 21.223965 175.96452 8420208
-39.48513 21.436594 176.01491 10656145
-40.489929 21.745378 176.11119 9734788
-40.675682 22.302757 176.91493 9734788
-41.323158 22.305965 176.79993 9997960
-42.279724 22.58975 177.03323 9537667
-43.240852 22.874374 177.26683 9340289
-43.892593 22.878981 177.15315 9340289
-44.086548 23.442677 177.93147 8420471
-45.178761 23.451532 177.74255 8881278
104.25218 -43.339127 126.65456 7564651
103.24855 -43.437588 127.10922 7893869
102.41777 -43.427738 127.52232 9078394
101.52667 -43.375698 127.98204 9604482
100.63718 -43.32515 128.44035 8486520
99.688049 -43.341785 128.8175 8749692
98.803543 -43.515945 129.05934 10590610
97.850548 -43.556286 129.63634 9208699
97.05365 -43.597649 130.09351 11840931
96.439018 -43.699448 130.35744 10854036
94.010048 -43.735622 130.32257 13024177
93.065514 -43.734753 130.99677 12366248
92.274811 -43.734043 131.55342 9736836
91.639717 -43.733494 131.99529 9341823
88.378311 -43.736141 132.33139 9143675
87.419456 -43.735405 132.96481 9011831
86.455986 -43.734688 133.59131 9603712
85.649841 -43.734108 134.10826 8879991
82.57798 -43.737164 134.22844 5392706
81.767868 -43.736652 134.72165 7629923
80.791862 -43.736069 135.3073 8550514
79.975571 -43.7356 135.79001 8089963
79.156036 -43.735149 136.26758 9735043
78.498589 -43.734795 136.64648 9735043
74.965652 -43.737968 136.90422 10524562
74.139519 -43.73761 137.35167 9472644
73.144783 -43.737206 137.88214 9932936
72.313011 -43.736877 138.31889 9143163
71.47834 -43.73658 138.7504 9077370
70.473541 -43.736237 139.26164 9537664
69.633507 -43.735973 139.68225 10261643
69.128342 -43.735817 139.93214 11380380
64.442154 -43.739311 140.52559 8090987
63.764133 -43.739182 140.83302 8090995
62.744465 -43.739014 141.28854 9143680
61.892448 -43.738895 141.66261 9208443
61.037872 -43.738792 142.03136 9800835
60.009632 -43.738693 142.46709 11183772
59.150513 -43.738628 142.82471 12630704
58.289055 -43.738579 143.17683 13156791
57.25267 -43.738537 143.59276 10459023
56.216789 -43.741261 144.01045 8550514
55.344902 -43.738533 144.33604 8090995
54.474377 -43.738564 144.66524 9406339
53.427299 -43.738613 145.05359 9538434
52.55275 -43.738682 145.37161 9801605
51.676037 -43.738758 145.68394 8683892
50.621719 -43.73888 146.05206 10458246
49.741158 -43.738995 146.35316 11708313
48.858704 -43.739136 146.64864 11181975
47.797455 -43.739315 146.9964 8089963
46.911259 -43.739491 147.28046 9274748
46.023247 -43.739677 147.55888 10130055
44.955513 -43.739929 147.88615 10655886
43.885468 -43.740204 148.20567 8287853
42.992031 -43.740452 148.46622 10656657
42.096985 -43.740715 148.72102 9275005
41.02095 -43.741058 149.01987 11380380
40.116707 -43.662144 149.48203 9340798
39.487457 -43.464542 149.62852 10261899
107.05119 -42.309452 125.6792 9472127
106.18773 -42.417019 126.07224 9340030
105.23479 -42.598007 126.46844 9077115
104.37463 -42.487637 126.93613 9998730
103.48477 -42.541393 127.35265 8880507
102.6458 -42.442062 127.80566 8289134
101.70728 -42.588154 128.20921 9341310
100.81598 -42.53838 128.66806 9735817
99.993317 -42.593304 129.05116 8092019
98.951103 -42.836143 129.46684 8420212
98.376053 -43.004818 129.68233 8813941
39.213211 -42.608105 149.88611 9932934
38.504292 -42.305557 149.69769 10919829
109.10956 -41.216911 125.01614 6510930
108.09395 -41.512012 125.44323 8156523
107.24153 -41.514595 125.90207 8879734
106.34367 -41.460636 126.38 9077114
105.39272 -41.603275 126.7906 9208700
104.49155 -41.549107 127.25579 10327949
103.59224 -41.496334 127.71954 9209214
102.64951 -41.642559 128.12479 7762536
101.66406 -41.987022 128.47169 8881015
101.12846 -41.957527 128.74731 9735817
39.148418 -41.727097 150.20465 9340795
38.374371 -41.540527 149.94243 9275004
111.72404 -40.154999 124.04043 9208435
110.89685 -40.268208 124.44043 7564642
110.01641 -40.459919 124.83688 5920074
109.14908 -40.525837 125.27787 6248782
108.18903 -40.558727 125.78236 6511954
107.30128 -40.509991 126.27882 8419439
106.40009 -40.45694 126.75572 8879990
105.48202 -40.764305 127.08385 8682355
104.63141 -40.95525 127.42573 10262156
38.206036 -40.62989 150.22771 9735555
37.435749 -40.277737 150.03229 9341058
114.18676 -39.082203 123.15121 10064265
113.55082 -39.179276 123.45457 9801089
112.72896 -39.537205 123.75137 10064261
111.87369 -39.553905 124.20598 9143414
110.97715 -39.501385 124.71117 7236190
110.08276 -39.450401 125.2146 5920074
109.14168 -39.600491 125.66087 6511954
108.3541 -39.625053 126.07569 7630435
107.44447 -39.912819 126.44691 7695716
38.132736 -39.82695 150.51187 12104103
37.529366 -39.424698 150.40849 10854292
115.66183 -38.354786 122.65328 11248539
114.70254 -38.500267 123.11127 10722194
113.79715 -38.445217 123.6223 10261639
112.90143 -38.545113 124.06468 10459277
112.00608 -38.602058 124.52439 9603452
111.22437 -38.499298 124.9882 9012857
110.34048 -38.693836 125.38542 8617843
109.51427 -38.810883 125.78324 11183001
37.352486 -38.666782 150.63002 11511966
36.671551 -38.399315 150.43999 10722193
117.98558 -37.267006 121.84521 7893611
117.33941 -37.363541 122.15427 9077625
116.58334 -37.50835 122.50283 10656657
115.68709 -37.535416 122.97528 9866886
114.77744 -37.480534 123.48851 7958377
113.97416 -37.5014 123.91335 9735297
113.0132 -37.62299 124.38203 10130054
112.14281 -37.736706 124.80504 10525070
37.269543 -37.835495 150.92114 9209467
36.510887 -37.460716 150.73965 10984852
120.33537 -36.175892 121.02434 5919050
119.44136 -36.284645 121.46219 6775132
118.50643 -36.525536 121.86788 7893611
117.59367 -36.623489 122.32018 8946039
116.67751 -36.567612 122.83739 9669762
115.76353 -36.512974 123.35281 10985622
115.03416 -36.470295 123.76382 8813942
114.00597 -36.889229 124.14696 9932677
36.326527 -36.585155 151.0042 10129545
35.597458 -36.39143 150.76428 12563624
122.68112 -35.0718 120.1598 7893614
122.05276 -35.17701 120.50702 7301219
121.19759 -35.538563 120.82021 7892581
120.39771 -35.515453 121.26123 7497823
119.48694 -35.541431 121.74196 7893611
118.6478 -35.448467 122.23273 7696235
117.73299 -35.54842 122.68536 9143675
116.80281 -35.792328 123.08728 10854034
115.91893 -35.905285 123.51786 12563370
36.1912 -35.822552 151.24559 9734788
35.453918 -35.500019 151.05281 10656144
122.96497 -34.388081 120.24385 8024942
122.31733 -34.428772 120.67073 7433061
121.45079 -34.523418 121.09947 8484979
120.52381 -34.577633 121.57735 10129289
119.67099 -34.556847 122.04597 8485496
118.90498 -34.704651 122.3987 7564651
118.25374 -34.80415 122.70934 7564651
35.376198 -34.721893 151.32526 11905952
34.631611 -34.352596 151.14767 9143162
124.06389 -33.197571 119.8847 8090989
123.29881 -33.677002 120.29904 8090731
122.43707 -33.558842 120.96242 8419441
121.51669 -33.586327 121.44773 9011581
120.8011 -33.709969 121.78317 9932169
34.707985 -33.583015 151.48363 7958632
33.886269 -33.294308 151.24089 7695717
124.99803 -32.32634 119.51323 9406849
124.25844 -32.453144 120.07199 7827818
123.41425 -32.598724 120.70901 8156268
122.51697 -32.978207 121.15722 8748149
34.53833 -32.706913 151.75479 9208955
33.796486 -32.467674 151.52724 8814198
125.9532 -31.551516 119.07906 9867398
125.18881 -31.600994 119.69485 8946299
124.39006 -31.580826 120.37213 7038307
123.8573 -31.776485 120.72558 7564643
33.633511 -31.514723 151.83153 8880249
32.80661 -31.311911 151.55273 7038307
127.53191 -30.205566 118.45669 13552061
126.87106 -30.498653 118.84215 9735811
126.11702 -30.58246 119.42467 9143676
125.32111 -30.644819 120.05146 7235685
124.71259 -30.962481 120.39333 8090992
33.399761 -30.639029 152.08105 7893614
32.614777 -30.430664 151.84798 7762028
130.23224 -29.102077 117.5081 7761253
129.76418 -29.091974 117.93848 9142907
128.90012 -29.222057 118.46256 9142907
127.94884 -29.579453 118.72903 10064520
127.1675 -29.699026 119.26318 9735811
126.47318 -29.781433 119.76147 9209467
32.58498 -29.750908 152.30853 9275262
31.760815 -29.359959 152.3401 8682868
31.105349 -29.045504 152.56712 8682867
148.46687 -28.44026 111.44234 8616822
147.89227 -28.43215 112.12803 7827564
146.59979 -28.729591 111.98259 9537667
146.05788 -28.728191 112.68593 10458766
141.28326 -28.729839 113.96286 8813944
140.59402 -28.728193 114.81001 9406847
136.17517 -28.730724 115.63731 8879995
135.616 -28.729486 116.29075 9537667
135.19464 -28.728567 116.77913 9537667
132.17825 -28.835238 116.97653 9406590
131.70822 -28.824421 117.41113 9603970
131.08102 -28.810373 117.98939 7761253
30.497452 -28.917881 152.71725 9932419
29.914862 -28.741064 153.32655 9932419
28.990536 -28.741585 153.50266 9209211
27.880022 -28.742229 153.70688 10195338
26.953526 -28.742788 153.87115 9932419
26.025997 -28.743362 154.02943 10327177
25.28334 -28.743834 154.15256 9932419
21.214762 -28.430231 156.36937 9143681
20.476641 -28.299641 156.10049 8946045
149.43073 -27.112078 111.04361 8616822
148.81691 -27.606836 111.49417 7695721
148.22902 -27.76635 112.10178 8090479
21.042971 -27.849379 156.52377 7564651
20.306437 -27.514238 156.3362 8287600
150.12396 -26.22508 110.71867 9537409
149.69939 -26.4881 111.07468 7695720
149.07532 -26.508928 111.8029 6511962
20.187742 -26.737181 156.59094 8221548
19.560228 -26.463976 156.42627 7300446
150.46477 -25.555687 110.6897 10261132
149.88657 -25.547138 111.38016 7827559
149.38794 -25.764982 111.84927 7564642
19.49098 -25.500536 156.77599 9208444
18.738161 -25.392311 156.49181 8682867
151.28029 -24.591862 110.26291 8550770
150.65332 -24.612431 110.99484 9143675
150.22716 -24.876766 111.35205 8814710
19.318502 -24.558321 157.07246 7367007
18.617342 -24.553776 156.76994 7564645
152.13889 -23.324419 109.95528 8090995
151.59341 -23.477625 110.51627 8156785
150.99011 -23.759487 111.07365 8090987
19.214914 -23.919645 157.2793 7038298
18.373819 -23.525257 157.06966 7630693
17.639776 -23.046349 156.93976 6446423
152.47618 -22.377573 110.08609 9077374
151.89717 -22.489908 110.70972 8090995
18.260336 -22.712925 157.34056 8486000
17.587103 -22.437889 157.15665 9275774
153.28835 -21.412695 109.66403 9011065
152.59935 -21.561571 110.39748 9800838
17.590822 -21.583324 157.49484 9868426
16.808626 -21.382002 157.23471 9473414
153.52298 -20.618801 109.83074 8682100
152.87132 -20.837212 110.48111 9537667
17.347677 -20.563747 157.79086 11052188
16.626219 -20.479782 157.51085 11578274
154.1524 -19.485754 109.71959 7761254
153.75229 -19.594351 110.13313 8024169
16.532148 -19.609724 157.81264 11907239
15.790236 -19.327702 157.60179 11511708
154.4902 -18.345051 109.95844 7563874
16.415022 -18.793745 158.08319 8684155
15.742304 -18.52644 157.89645 9538691
15.719862 -17.737452 158.19745 8881019
14.90019 -17.490004 157.93919 7565675
15.487001 -16.833416 158.45238 9538691
14.753424 -16.522984 158.25636 8025712
14.487757 -15.715052 158.48988 8090475
13.839193 -15.517184 158.33876 8287597
13.725485 -14.739352 158.88963 8287341
12.908392 -14.396002 158.96724 7695460
11.87604 -14.082074 159.07837 9734527
10.966875 -13.746572 159.88449 7629410
10.000822 -13.744335 159.90909 7038307
9.0370388 -13.745238 159.96544 7630442
2.3185678 -13.361018 162.83205 10459278
1.5962776 -13.271809 162.55376 10130057
2.1241479 -12.567335 163.05997 11709345
1.4144577 -12.506195 162.77618 9406846
1.403006 -11.691123 163.09193 9209467
0.74674451 -11.344035 162.9438 9209467
1.3387626 -10.766805 163.42783 11710116
0.55023801 -10.548636 163.17155 9209467
0.43729246 -9.6115894 163.49129 9209467
-0.33638155 -9.4384556 163.22375 8814968
-0.23960648 -8.5465899 163.61674 8814970
-1.0271279 -8.332509 163.35922 8486262
-0.47845232 -7.6250124 163.87573 9341313
-1.1878067 -7.4533176 163.63554 8157554
-0.63879931 -6.7424192 164.15349 8486262
-1.4277626 -6.5305762 163.89452 7104352
-1.4319626 -5.6882319 164.2242 6379344
-2.1554465 -5.3853431 164.0295 6642516
-2.3053222 -4.552742 164.29211 6116429
-3.014894 -4.3049426 164.08174 7958632
-2.5289283 -3.60232 164.56915 5919050
-3.2849021 -3.3618844 164.33582 8616563
-3.3449798 -2.5250192 164.63963 8089962
-4.015615 -2.2795112 164.44542 8616306
-3.4320655 -1.6715648 164.93854 8089962
-4.1724219 -1.4161339 164.71791 9011064
-4.2324386 -0.55006087 165.07446 10261131
-5.0236411 -0.34684861 164.89339 11117208
-5.1203933 0.32914758 165.40808 10064520
-5.9622169 0.43586081 165.13213 10130313
-6.2659011 0.98931688 166.103 10459278
-7.0528235 0.9855265 165.75508 11182746
-16.433218 1.5718722 169.25488 10131338
-17.236437 1.8494043 169.04428 9342079
-16.531504 2.418483 169.54266 9736836
-17.383078 2.5261629 169.25883 9276286
-17.494951 3.3325903 169.53188 8552053
-18.306002 3.5408416 169.38417 10590347
-17.52799 4.1848397 169.83742 7564647
-18.340559 4.3936014 169.69223 9011831
-19.166059 4.8166828 169.6619 10590347
-18.379694 5.3564515 170.04002 8222061
-19.275896 5.5017529 169.89082 8485231
-18.410326 6.1083651 170.31157 9142907
-19.229631 6.3189216 170.20398 8155755
-20.177629 6.3850679 170.01372 10524041
-19.46913 7.1806698 170.46889 11247763
-20.205584 7.4542313 170.4034 10392456
-20.90782 7.6040759 170.29985 10063747
-20.338072 8.4758892 170.75185 10590091
-21.27437 8.5128117 170.55338 9405820
-20.570662 9.12747 170.94051 9340027
-21.190844 9.3412113 170.87915 8353652
-21.939749 9.408473 170.73447 7959148
-21.338243 10.324888 171.20966 8879994
-22.256029 10.425426 171.00899 8879993
-23.081366 10.852489 170.90137 9143678
-22.098146 11.522183 171.39644 9669253
-22.906729 11.511705 171.15565 9406849
-22.335752 12.398439 171.59644 8090992
-23.145071 12.38741 171.35526 8814713
-23.117216 13.343687 171.65791 9143678
-23.939539 13.626607 171.50343 8946298
-24.101709 14.402014 172.14932 9734788
-24.94079 14.62316 172.09271 7761510
-26.004293 14.853356 172.11185 5393730
-25.005018 15.312992 172.52756 8287598
-25.845449 15.53449 172.46013 6774870
-26.814402 15.604827 172.3045 4670774
-30.755823 16.592588 174.46754 6709333
-31.65666 16.62274 174.32774 7038299
-32.400585 16.902559 174.35274 7301474
-31.592062 17.586788 174.68181 7696228
-32.57296 17.547844 174.57149 7038298
-33.322369 17.831329 174.6122 9077111
-31.849653 18.279062 174.89485 8090987
-32.509895 18.516695 174.92633 7827814
-33.585983 18.527428 174.8418 9274747
-34.46434 18.768366 174.85658 11707804
-32.772442 19.21459 175.1566 7564642
-33.448853 19.46236 175.26073 9143675
-34.443443 19.518711 175.18835 9801348
-35.409592 19.716961 175.1869 10260358
-34.40926 20.200117 175.68057 9997957
-35.428612 20.404911 175.71129 9273720
-36.423138 20.709009 175.82106 7563361
-35.635799 21.197554 176.29268 8616048
-36.284332 21.203171 176.21657 7826533
-37.331974 21.423952 176.34587 8090730
-38.350498 21.741488 176.5264 9341054
-38.950836 22.296074 177.22377 10524814
-40.159424 22.486149 177.27507 10129802
-41.071026 22.861555 177.64896 9997960
-41.721611 22.864962 177.53377 10261132
-43.213661 23.436373 178.08347 7564651
96.876747 -43.325447 130.29195 10854036
96.067749 -43.444202 130.6427 9472643
95.250351 -43.444958 131.04497 10525072
94.372513 -43.404785 131.49332 15721430
93.398949 -43.322483 132.0058 11313561
92.542328 -43.364872 132.41058 8814969
91.513077 -43.349976 132.83514 9210237
90.633354 -43.525875 133.03784 9735812
89.841751 -43.57621 133.48073 11907237
88.917236 -43.731266 133.83856 10130826
88.271317 -43.730766 134.26456 9537918
84.840324 -43.733551 134.62 5920074
83.865013 -43.732899 135.22781 5919306
83.048988 -43.73238 135.72905 5919306
82.229858 -43.731876 136.22511 7498082
81.572548 -43.73148 136.61877 8813686
78.004135 -43.734543 136.92827 9735043
77.343353 -43.734215 137.30142 12301226
76.514771 -43.733822 137.76311 12038054
75.517021 -43.733368 138.31071 10327693
74.682671 -43.733006 138.76175 9735812
73.845329 -43.732666 139.2074 8946040
73.173759 -43.732407 139.56061 8813686
