# .PCD v0.7 - Point Cloud Data file format
VERSION 0.7
FIELDS x y z rgb
SIZE 4 4 4 4
TYPE F F F U
COUNT 1 1 1 1
WIDTH 1188
HEIGHT 1
VIEWPOINT 0 0 0 1 0 0 0
POINTS 1188
DATA ascii
-178.74384 -52.765213 5.6439066 9932679
-178.96677 -52.835438 4.6651678 8550770
-179.24434 -52.740185 3.715905 10064262
-179.44281 -52.795158 2.8556182 9076851
-179.69095 -52.865631 1.7776269 8682093
-179.93903 -52.937878 0.69697273 8090987
-180.13753 -52.997108 -0.16972841 9341054
-180.29214 -53.125114 -0.9655143 9472128
-180.45232 -53.337288 -1.9076587 9734788
-181.34883 -53.190495 -9.1305914 9077370
-181.45995 -53.080517 -10.30499 8747892
-181.52597 -53.033627 -11.112971 8681843
-181.56825 -53.063534 -11.993506 8354159
-181.70155 -52.882149 -13.101729 9208956
-181.75354 -52.922691 -14.205712 8879991
-181.82504 -52.866459 -15.048739 8814198
-181.91653 -52.770599 -15.983037 9274493
-181.9671 -52.815727 -17.091944 8616562
-182.01714 -52.862549 -18.202547 8155755
-182.05675 -52.901337 -19.09244 8484718
-182.09602 -52.941284 -19.983589 8748403
-182.14459 -52.992874 -21.099356 7958375
-182.19269 -53.046249 -22.217039 9537407
-182.31255 -52.868176 -23.123583 11050388
-182.43213 -52.691082 -24.032167 10590095
-182.49394 -52.659122 -24.860487 8089963
-182.59816 -52.573807 -26.070135 8682100
-178.09412 -51.742146 9.703619 7565675
-178.40311 -51.736023 8.5000296 9340539
-178.59213 -51.85973 7.5755568 8550765
-178.79126 -51.908821 6.7215853 6906456
-179.07108 -51.742722 5.8683558 7563619
-179.32005 -51.806995 4.7960081 8748149
-179.56902 -51.872997 3.7212169 8681835
-179.76819 -51.927174 2.8593719 9076851
-179.93555 -52.214001 1.7789582 8484715
-180.13455 -52.270943 0.91364372 8090987
-182.11899 -52.073566 -15.118421 9734788
-182.15999 -52.107952 -16.00539 8879991
-182.28197 -51.922386 -16.901443 9011057
-182.33241 -51.968281 -18.013821 8089963
-182.38243 -52.015827 -19.127916 8089961
-182.422 -52.055218 -20.02066 7893095
-182.54283 -51.873924 -20.924377 8946039
-182.59148 -51.926025 -22.044352 8945527
-182.67047 -51.888763 -23.125689 9405823
-182.75969 -51.801838 -24.076607 10261130
-182.79755 -51.847221 -24.97773 8418928
-182.82433 -51.945473 -26.01342 8221549
-182.90176 -51.913914 -27.103739 9471097
-182.92062 -51.92778 -28.067513 8945007
-182.8802 -51.785374 -28.813177 10457478
-177.71422 -50.729107 12.688878 9471871
-178.00435 -50.789707 11.460814 10458506
-178.21436 -50.835056 10.569777 9011574
-178.41429 -50.879429 9.7196426 8288108
-178.65755 -50.856865 8.79811 9998469
-178.98041 -50.728878 7.7196512 11445401
-179.19431 -50.827358 6.7349501 8551281
-179.39421 -50.876736 5.8774767 8419184
-179.56305 -51.156883 4.8014746 9011321
-179.76274 -51.208988 3.9407394 9537659
-182.62675 -51.351269 -19.154556 8089961
-182.66664 -51.390217 -20.048504 7366495
-182.86942 -50.98642 -20.9631 8485232
-182.90869 -51.027321 -21.860502 8089963
-183.02675 -50.906445 -23.082708 8616307
-183.08749 -50.911896 -24.121088 9142907
-183.12573 -50.956608 -25.02384 8485233
-183.16365 -51.00243 -25.928053 8879479
-183.1904 -51.101269 -26.967392 10194564
-183.29128 -50.881184 -28.104364 9536888
-183.17465 -50.892479 -29.08688 10062976
-183.17799 -50.602333 -29.917543 8681835
-183.13675 -50.461361 -30.666019 10128769
-177.3295 -49.733273 15.668171 7563619
-177.64058 -49.714466 14.474763 11511193
-177.83177 -49.82803 13.556927 9142907
-178.03252 -49.867893 12.710175 9142907
-178.2908 -49.862755 11.704001 11708315
-178.61409 -49.756573 10.591668 10458505
-178.8148 -49.80011 9.7396297 9340538
-179.01544 -49.844803 8.8861456 9669504
-179.18578 -50.118645 7.8139219 13287347
-179.38628 -50.165943 6.957408 10656142
-183.37199 -50.288166 -25.058443 8617075
-183.4102 -50.333439 -25.963936 9143163
-183.53041 -50.156612 -26.8834 10523529
-183.58556 -50.123638 -27.719856 10128769
-183.60677 -49.77063 -28.930555 9339509
-183.46452 -49.781731 -30.041061 8681835
-183.35025 -49.791782 -30.929693 9734267
-183.31624 -49.57872 -31.832954 9668990
-176.99007 -48.762001 18.432669 8089962
-177.25145 -48.674786 17.535582 8353135
-177.44423 -48.837841 16.538414 6643285
-177.64592 -48.873341 15.694627 8880503
-177.92882 -48.793591 14.702 9406591
-178.22916 -48.751335 13.585382 9142650
-178.43065 -48.790443 12.736781 10261130
-178.6825 -48.840881 11.673987 10984850
-178.85411 -49.10894 10.604803 11181970
-179.00505 -49.141109 9.9651556 10458505
-183.82091 -49.100227 -29.192064 9076596
-183.82103 -48.838608 -29.964386 9208181
-183.67329 -48.89476 -30.985489 10457734
-183.55846 -48.905716 -31.875956 9209467
-183.47971 -48.841881 -32.697495 9736323
-176.87276 -47.52375 20.286089 7958884
-177.05176 -47.863735 19.515686 8090470
-177.25438 -47.895031 18.674427 8089962
-177.58632 -47.720688 17.628698 8616306
-177.83945 -47.762676 16.573381 8222060
-178.04179 -47.797462 15.72773 7433313
-178.29465 -47.842518 14.668894 9143419
-178.4678 -48.104771 13.602474 8089963
-178.61934 -48.133591 12.965314 10064009
-184.00175 -48.213997 -30.358681 9536894
-183.99666 -47.996883 -31.041302 11905438
-183.88174 -48.007698 -31.933365 9604481
-183.73286 -48.066395 -32.956669 9407102
-183.66203 -47.92347 -33.949371 11446942
-176.73294 -46.422829 21.418819 7563619
-177.0448 -46.714603 20.592211 8024424
-177.44487 -46.789768 19.557131 7892837
-177.64818 -46.820446 18.714033 9142651
-177.9021 -46.860268 17.65855 9142651
-178.07675 -47.116951 16.594395 9340542
-178.27957 -47.151386 15.747642 6512211
-184.16882 -47.184734 -32.060555 8814453
-184.17091 -46.895569 -32.899597 9538688
-184.01299 -46.966946 -33.958252 12696497
-183.95375 -46.776505 -34.998306 13551806
-183.88101 -46.642578 -35.979733 13485499
-176.45012 -45.46439 23.109509 9011320
-176.65225 -45.650139 22.415516 8089963
-176.94736 -45.780571 21.659822 8221805
-177.42505 -45.872776 20.634974 8089963
-177.68091 -46.144741 19.582018 7563619
-177.88461 -46.175072 18.737835 8813686
-184.38432 -46.009178 -33.855991 13354171
-184.31215 -45.921539 -34.991066 14077894
-184.28952 -45.792027 -35.999233 13090226
-184.12061 -45.850788 -37.02597 8747891
-184.14862 -45.658039 -37.955269 7563619
-176.1909 -44.533321 25.23535 7564651
-176.43269 -44.572689 24.619835 7564651
-176.73822 -44.848816 23.579016 8813941
-177.20082 -44.932419 22.556147 9208699
-177.41238 -45.195347 21.715776 8682356
-184.73808 -45.209972 -35.995262 12432037
-184.61565 -45.224182 -36.895077 9668992
-184.66855 -44.991463 -37.924225 7761254
-184.49446 -45.051487 -38.954506 8945784
-184.71992 -44.805798 -39.88591 9933191
-184.81297 -44.644871 -40.807434 9077372
-184.85329 -44.543457 -41.828671 10985367
-184.70148 -44.557125 -42.730328 10985367
-173.59421 -43.729572 46.228088 11906208
-174.0787 -43.797276 45.460342 7300958
-174.20627 -43.998924 44.375561 8682867
-174.41818 -44.000603 43.53603 8682867
-174.67715 -44.002701 42.485092 9143419
-174.93025 -44.004791 41.432747 9143166
-175.12801 -44.006458 40.589783 9143166
-175.27379 -44.007713 39.956886 10261132
-175.66406 -44.08329 29.274614 7367527
-175.95583 -44.122967 28.453012 8091503
-176.24625 -44.1633 27.629683 8486003
-176.60759 -44.21463 26.597927 11511193
-176.96754 -44.267082 25.563707 9340545
-185.58513 -44.273323 -42.93499 10919061
-185.43103 -44.287605 -43.841164 8945525
-185.27505 -44.302471 -44.747341 8682867
-185.11708 -44.317898 -45.653542 9734270
-186.13914 -44.171692 -47.811329 9537659
-185.90717 -44.173019 -48.70723 9603714
-185.67091 -44.174343 -49.602005 7037274
-186.8177 -44.182793 -53.782742 8551539
-186.55698 -44.184093 -54.681877 7827814
-186.35872 -44.185074 -55.355515 8288365
-173.4494 -42.574131 47.083027 7958632
-173.88498 -42.820286 46.393143 8485232
-174.36183 -43.013332 45.682358 6510930
-173.55676 -41.91045 47.335232 8813941
-174.18877 -41.927044 46.532593 8682355
-173.47008 -40.676628 48.163078 7366239
-173.96776 -40.836773 47.445309 7629411
-174.38751 -40.896328 46.883884 7958632
-173.33426 -39.544186 48.993469 8090476
-173.8192 -39.684753 48.303139 7038048
-174.15685 -39.957237 47.720673 7038307
-173.44756 -38.732105 49.324562 9866884
-174.07336 -38.889748 48.447582 8090735
-173.14856 -37.717461 50.291027 7564643
-173.77438 -37.871872 49.415863 10458764
-172.98077 -36.872028 50.994385 7564643
-173.47722 -36.797562 50.414825 7564643
-173.88712 -37.058693 49.748428 9340799
-172.90829 -35.515816 51.876797 8879735
-173.24672 -35.779888 51.297386 7564388
-173.7375 -35.838001 50.647564 7564390
-173.0251 -34.586578 52.273422 8089963
-173.57965 -34.769173 51.46986 6840926
-172.83713 -33.638641 53.063782 10260872
-173.31717 -33.810623 52.360092 8418671
-173.75761 -34.03923 51.673115 6511962
-172.56038 -32.564186 54.039711 9406846
-173.0403 -32.838287 53.276512 11379095
-173.60205 -32.89772 52.535858 8089963
-172.7356 -31.83584 54.245377 9867653
-173.29732 -31.892782 53.50631 10063235
-172.45143 -30.333052 55.830803 10787732
-172.65715 -30.701145 55.164062 10787732
-173.04904 -30.914358 54.464207 10787732
-173.49298 -30.865227 53.870071 12432037
-172.33929 -29.460768 57.171516 10262156
-172.67491 -29.74473 56.269531 11117209
-173.17502 -29.964027 55.374054 10787732
-170.08623 -28.392351 74.945419 10393228
-170.47763 -28.482574 74.220985 8485488
-170.86911 -28.573437 73.495995 10656657
-170.67313 -28.951044 69.706749 9735555
-170.9239 -28.952375 69.089714 11906724
-171.25485 -28.954147 68.265839 14077894
-171.66292 -28.956364 67.233566 8682867
-171.87248 -29.058764 59.78627 7564643
-172.23007 -29.084024 59.214252 8683123
-172.70667 -29.118088 58.449585 9143163
-169.931 -27.484703 75.854607 9208443
-170.32307 -27.574057 75.129684 11182486
-170.83147 -27.638361 74.226517 10656656
-169.77472 -26.576685 76.765724 8814456
-170.1675 -26.665209 76.040352 9208443
-170.62329 -26.681181 75.260277 10195336
-170.89001 -26.917055 74.642235 15196110
-169.89684 -25.752344 77.147888 9670534
-170.46741 -25.770908 76.172493 9208443
-170.73473 -26.006405 75.55381 9208443
-169.79971 -24.799408 77.991402 9802376
-170.3105 -24.860176 77.086693 11381404
-170.57837 -25.095255 76.467278 9208443
-169.34613 -23.246778 79.863808 9208443
-169.69772 -23.5798 79.033394 13552060
-170.15715 -23.786905 78.110855 11644066
-170.54749 -24.036144 77.274803 11380639
-169.18556 -22.335508 80.784508 9208443
-169.45517 -22.568991 80.163338 9471871
-170.0289 -22.583637 79.185539 11445660
-170.41296 -22.821165 78.368431 16774119
-169.35738 -21.582382 81.032028 8945527
-169.8688 -21.670231 80.106934 9405822
-170.25362 -21.907297 79.288879 9208443
-169.19557 -20.668875 81.956497 8419952
-169.67677 -20.709646 81.115959 9867141
-170.06671 -20.839998 80.365456 9603457
-169.03288 -19.754257 82.883301 8090987
-169.43065 -19.838167 82.152557 8156780
-169.94624 -19.894615 81.243156 9998727
-168.93333 -18.595875 83.87751 7892841
-169.34261 -18.69466 83.117218 8353647
-169.79346 -18.855762 82.242363 8484464
-168.8539 -17.466063 84.81794 8090991
-169.25366 -17.548939 84.085144 7959405
-169.65341 -17.632233 83.352104 7695977
-168.68871 -16.546566 85.752975 7169374
-169.08913 -16.629017 85.019333 8748920
-169.55327 -16.636333 84.232048 9209214
-169.82623 -16.870531 83.604774 9209214
-168.59236 -15.631868 86.726524 8418928
-168.97588 -15.71232 85.982582 10261132
-169.3595 -15.793139 85.238792 9735557
-169.66219 -15.948532 84.539627 9209214
-168.30168 -14.578309 88.721649 11182998
-168.61917 -14.807069 87.854263 9603712
-169.08508 -14.812717 87.064148 8090476
-169.40129 -15.042325 86.197739 10261132
-167.22784 -13.436999 99.540703 8090987
-167.29112 -13.785872 99.03421 7827817
-167.75807 -13.898808 97.951714 8815481
-168.11111 -13.900224 97.345253 9736836
-168.21027 -14.157176 90.49279 8682867
-168.63792 -14.167026 89.938927 9998727
-168.98674 -14.170467 89.34243 11380380
-167.26244 -12.723301 99.832428 9867398
-167.84131 -12.983237 99.358337 8090987
-166.93921 -11.757958 100.45714 8090987
-167.50125 -11.856593 100.06437 11051672
-167.05832 -10.806526 100.80072 8880503
-167.63812 -11.06394 100.32714 8090987
-166.73364 -9.8403559 101.4261 9209467
-167.29602 -9.9361238 101.03402 9341053
-166.95258 -8.8082428 101.74062 8090218
-167.51622 -8.9024324 101.3483 10525071
-166.69304 -7.441689 102.49921 8748404
-167.19603 -7.7892094 102.03403 7432288
-166.80984 -6.4818516 102.84575 9012088
-167.39195 -6.7341161 102.37278 6510930
-166.48204 -5.5122733 103.47342 10855060
-167.04663 -5.6020265 103.08245 8880502
-166.70082 -4.4695029 103.79263 9473154
-167.26668 -4.5576911 103.40155 8814715
-166.35448 -3.3364439 104.50332 9209467
-166.938 -3.5848081 104.03124 7564651
-166.6515 -2.4905715 104.68771 8485749
-166.96986 -2.8575697 104.32901 7564651
-166.14142 -1.3942139 105.48445 7038307
-166.72569 -1.6405034 105.01277 7893613
-166.53055 -0.54367924 105.72938 7564649
-166.75749 -0.91033757 105.31194 7038307
-166.32509 0.4344655 106.7243 7301472
-166.72984 0.066580445 106.13671 7301479
-166.19254 1.0539689 108.62689 6840663
-180.60112 -53.384579 -2.5615551 8419440
-180.74998 -53.432522 -3.2167008 9077114
-180.92175 -53.489719 -4.0912828 8682867
-180.97856 -53.514301 -4.9647512 8682867
-181.02328 -53.536522 -5.8385725 7564642
-180.54425 -52.55423 -1.1127368 8814453
-180.74902 -52.698589 -2.1296151 9274748
-180.99773 -52.777229 -3.2221386 9866373
-181.16637 -52.832756 -4.0978727 9209211
-181.21956 -52.855934 -4.9723978 8288109
-181.27554 -52.883709 -6.0662832 6840663
-181.33101 -52.913067 -7.1611814 7563619
-181.37498 -52.93792 -8.0379324 9735044
-181.49918 -52.74398 -8.9198008 9011320
-181.5424 -52.770958 -9.7984877 9340798
-181.8213 -52.410278 -12.231103 8682867
-180.09879 -51.779331 1.7798661 9472124
-180.39062 -51.766098 0.65341842 9341054
-180.54741 -51.908375 -0.17187418 9538433
-180.82901 -51.749706 -1.0432502 9077369
-181.04214 -51.862984 -2.0471413 9011576
-181.31482 -51.84988 -3.0982773 9998472
-181.49255 -51.956226 -4.1066294 9143675
-181.54106 -51.977703 -4.982625 7564642
-181.59731 -52.005054 -6.0784464 6446162
-181.65306 -52.034065 -7.1752653 7563619
-181.77783 -51.838531 -8.0574884 9471872
-181.82173 -51.864014 -8.9369993 9801349
-181.87602 -51.897503 -10.037595 9406334
-181.92987 -51.932564 -11.139403 9998214
-182.00276 -51.872261 -11.980083 9932676
-182.09573 -51.771915 -12.911452 8682867
-182.14815 -51.811489 -14.017709 8814455
-182.28113 -51.631851 -15.132514 9011323
-182.32239 -51.665993 -16.02035 8879991
-179.72514 -50.723244 4.805028 8090987
-179.93768 -50.937199 3.655154 9537659
-180.17525 -50.841213 2.8640506 9340026
-180.37527 -50.895576 1.998475 10853522
-180.6579 -50.836792 0.97584999 10788244
-180.9576 -50.818672 -0.17402185 9933191
-181.15796 -50.876945 -1.0465919 9011576
-181.35837 -50.936401 -1.9211131 9471871
-181.54251 -51.114254 -2.9065945 10063752
-181.73671 -51.298241 -4.1132021 7564642
-181.78233 -51.318657 -4.9902906 6511954
-181.90808 -51.120228 -5.8709402 6183246
-181.96413 -51.148563 -6.969573 7564899
-182.18105 -50.738171 -8.0771055 8420208
-182.22523 -50.763252 -8.9586 8090480
-182.269 -50.78936 -9.8408442 9143420
-182.3233 -50.823555 -10.944909 9867141
-182.37708 -50.859402 -12.05033 9472126
-182.41966 -50.889332 -12.935765 9472126
-182.452 -50.969296 -13.953906 9274493
-182.53461 -50.919804 -15.021876 8222064
-182.56601 -51.002705 -16.042803 10261132
-182.60712 -51.037567 -16.93292 8747886
-182.68172 -51.005882 -17.975697 8813680
-182.86127 -50.676907 -18.957661 8551023
-182.91138 -50.724785 -20.076361 7563874
-183.03278 -50.542366 -20.982483 9209467
-183.07224 -50.58297 -21.880667 8353135
-183.1017 -50.614079 -22.555172 8616307
-179.3468 -49.685928 7.8201666 12629674
-179.56062 -49.893242 6.6750727 9735043
-179.77625 -49.882359 5.8449831 9866374
-180.04948 -49.855396 4.8123045 8682612
-180.3004 -49.91922 3.7331474 9471359
-180.5827 -49.754185 2.8687217 9010808
-180.78362 -49.807556 2.0012119 9931910
-181.03484 -49.875923 0.91411674 9208187
-181.20399 -50.164223 -0.17532457 9274492
-181.35463 -50.207317 -0.83035767 9011576
-182.52245 -50.134624 -10.075955 9735046
-182.56601 -50.161915 -10.960513 9406335
-182.67752 -50.052521 -12.145114 9735297
-182.74384 -50.006008 -12.960141 10656142
-182.78635 -50.036545 -13.848128 9932167
-182.9026 -49.912384 -15.020549 8682358
-182.9725 -49.896286 -16.080166 8419184
-183.01389 -49.930504 -16.972292 8616302
-183.08556 -49.875355 -17.824286 8813680
-183.1671 -49.83041 -18.901409 8879478
-183.24828 -49.786819 -19.980766 8484976
-183.27802 -49.875938 -21.011589 9340797
-183.3177 -49.916023 -21.911001 8484721
-183.35712 -49.95723 -22.811815 8221549
-183.4059 -50.010414 -23.939859 8485233
-183.53635 -49.842228 -25.081539 8617075
-183.65694 -49.663979 -25.999832 9471614
-183.77751 -49.486423 -26.920544 9734527
-183.8035 -49.530087 -27.82902 9405560
-179.0143 -48.676937 10.613564 11181970
-179.17908 -48.867439 9.6858311 9011574
-179.33687 -48.979847 8.900651 9669504
-179.6691 -48.819859 7.8328085 10195848
-179.92088 -48.877842 6.7589979 9537664
-180.14461 -48.836338 5.9420862 8616819
-180.40485 -48.757195 5.0374308 9800581
-180.65688 -48.819595 3.9562442 9273980
-180.82738 -49.101376 2.8715255 9010808
-180.97845 -49.140812 2.2202671 9010808
-183.0405 -49.380951 -14.089999 7761514
-183.06163 -49.396549 -14.535094 7761514
-183.30838 -49.018631 -16.33338 9734779
-183.33965 -49.044033 -17.003893 8353130
-183.38104 -49.078838 -17.898815 8813680
-183.50377 -48.892635 -18.803585 9340030
-183.55475 -48.938831 -19.926075 9142651
-183.60522 -48.98661 -21.050428 11313818
-183.64529 -49.026119 -21.951485 8747892
-183.685 -49.066685 -22.853886 8089963
-183.78726 -48.953678 -23.862473 8682612
-183.8784 -48.885834 -24.960604 8617075
-183.98621 -48.770611 -26.047737 9274491
-184.02469 -48.815788 -26.957701 9010801
-184.04852 -48.858276 -27.867105 9537147
-183.99509 -48.796413 -28.690544 9405562
-178.627 -47.673462 13.613886 8089963
-178.79294 -47.858974 12.68896 8747893
-178.9516 -47.967171 11.906573 9866630
-179.27687 -47.858585 10.790111 9997959
-179.53693 -47.854366 9.7757082 9669250
-179.739 -47.89753 8.9188013 8879734
-180.07233 -47.736244 7.8485785 9734788
-180.32515 -47.793133 6.7724066 11050644
-180.44632 -48.057198 5.9072733 9340286
-180.59789 -48.093025 5.2593966 10261132
-183.84073 -48.309597 -20.854258 11905696
-183.89117 -48.358177 -21.981821 9735298
-184.01317 -48.175289 -22.896006 8485489
-184.1351 -47.993164 -23.812479 8353647
-184.25699 -47.811687 -24.731195 9143419
-184.30605 -47.865459 -25.868139 9603199
-184.35472 -47.920784 -27.00733 9405560
-184.37563 -47.961769 -27.91786 10129286
-184.28239 -47.974289 -28.812222 8879221
-184.1674 -47.939041 -29.84016 9339515
-178.23514 -46.686237 16.608423 8420208
-178.43817 -46.720371 15.760942 7170141
-178.66107 -46.890293 14.635454 8419696
-178.94565 -46.810165 13.636686 8089963
-179.14853 -46.847897 12.784692 11380125
-179.35141 -46.886669 11.93135 11182746
-179.63626 -46.810116 10.92624 8485232
-179.93872 -46.771648 9.7957573 9603458
-180.06104 -47.030823 8.9333506 9537409
-180.21307 -47.063351 8.2885504 9537409
-184.59259 -47.237915 -26.816275 9405560
-184.67172 -47.14106 -28.039736 9997442
-184.60643 -47.075844 -28.864145 9997187
-184.49229 -47.083988 -29.757168 9997187
-184.34914 -47.095695 -30.873835 9076600
-184.31516 -46.881191 -31.781651 9340027
-178.02693 -45.603661 19.546915 8879479
-178.25587 -45.563328 18.775955 8813686
-178.37868 -45.804161 17.704069 9932167
-178.62479 -45.842472 16.643324 7432288
-178.82132 -45.874252 15.793325 7892838
-179.01752 -45.906952 14.942163 8550511
-179.31796 -45.775879 13.967429 8353390
-179.46802 -45.983215 12.806046 10064009
-179.67152 -46.021465 11.951171 8814198
-179.8241 -46.05069 11.309153 9735043
-184.82121 -46.403378 -29.126627 9536894
-184.8264 -46.186974 -29.812311 8879221
-184.74352 -46.128452 -30.864979 9208442
-184.69218 -45.994186 -31.847691 8747892
-184.70964 -45.747955 -32.859589 10590091
-184.69696 -45.595596 -33.913883 14143422
-184.60655 -45.604679 -34.586952 14077894
-177.61032 -44.364082 23.694931 9274748
-177.96466 -44.419365 22.652838 10393229
-177.98843 -44.635002 21.78545 9669251
-178.21936 -44.897881 20.725838 7695205
-178.4001 -45.073761 19.731945 8747893
-178.71318 -44.97176 18.823221 9142651
-178.95668 -45.007092 17.760244 9011065
-179.15112 -45.036236 16.908653 8286826
-185.27995 -45.156864 -31.950327 9340027
-185.16072 -45.167206 -32.848671 9932162
-185.21761 -44.930325 -33.87188 13946043
-185.04724 -44.985775 -34.900925 14406596
-185.18103 -44.814213 -35.851009 12893617
-185.30748 -44.641945 -36.80191 9800578
-185.51306 -44.489346 -37.772209 8353134
-185.33357 -44.503201 -38.898903 8550770
-174.82339 -43.681976 44.53223 8485494
-175.42078 -43.572514 43.471458 9011837
-175.83316 -43.653042 42.616402 8748664
-175.41701 -44.008961 39.323524 7565161
-175.60466 -44.010624 38.478233 7039331
-175.78818 -44.012287 37.632027 7565161
-176.01158 -44.014362 36.57299 9011065
-176.2291 -44.01638 35.51268 9866374
-176.39833 -44.018082 34.663528 9406081
-176.60397 -44.020142 33.600895 10786703
-176.80356 -44.022198 32.537098 7038307
-176.9585 -44.023846 31.685192 9340289
-177.14609 -44.02589 30.61924 7038307
-177.3278 -44.027889 29.55225 9341054
-177.46834 -44.029575 28.69784 8090987
-177.60477 -44.0312 27.842815 8683124
-177.76929 -44.03323 26.773033 8681843
-177.9278 -44.035259 25.702364 9010808
-177.68327 -44.181023 24.794132 8551030
-186.1095 -44.228027 -39.764244 9143163
-185.96202 -44.240257 -40.670155 9275007
-185.77493 -44.256371 -41.802567 9932424
-186.86319 -44.167336 -44.892052 8682867
-186.64497 -44.168682 -45.791397 9340795
-186.36671 -44.170353 -46.91433 9208435
-187.63512 -44.178509 -50.852333 8419702
-187.45047 -44.179504 -51.529648 7893615
-187.13719 -44.181152 -52.657112 7893614
-174.81207 -42.663696 45.312805 6839895
-175.13763 -42.815956 44.610592 7959407
-175.59373 -42.793934 43.752319 8946044
-174.63417 -41.53764 46.200687 6510930
-175.10678 -41.681423 45.499756 7234653
-175.53091 -41.732056 44.708755 9932937
-175.75046 -41.982986 44.089737 11380380
-174.82372 -40.685875 46.45932 7103322
-175.36517 -40.883591 45.640594 7563616
-174.45375 -39.69585 47.500492 7038307
-175.08263 -39.858383 46.61673 8090216
-174.37003 -38.62727 48.22821 7038307
-174.92624 -38.830849 47.411774 9274492
-175.33153 -39.210434 46.682037 8090216
-174.55873 -37.7463 48.504944 7301222
-175.06148 -37.902195 47.783318 9274749
-174.06599 -36.328548 49.949417 8617331
-174.38528 -36.729103 49.315407 7104099
-174.97083 -36.666286 48.617382 7564648
-174.24495 -35.597813 50.15078 7564392
-174.73505 -35.731815 49.457825 7367269
-175.0768 -35.999756 48.872807 7367269
-173.87566 -34.502777 51.253689 6511962
-174.35742 -34.783459 50.484573 6643548
-174.92259 -34.849232 49.736862 7367269
-174.05412 -33.772041 51.456738 6840926
-174.61259 -33.954838 50.648109 7104098
-173.88364 -32.927849 52.164463 8879478
-174.47444 -32.822472 51.483833 8550773
-174.93219 -33.267597 50.64843 8616822
-173.74126 -31.488705 53.184753 9141875
-174.15044 -31.830385 52.470932 8418153
-174.65671 -31.657427 51.935898 8287859
-173.67616 -30.446465 54.155453 12695725
-174.06677 -30.702147 53.359276 9141875
-174.52913 -30.820919 52.659607 8615274
-173.49149 -29.556324 55.474533 10787732
-174.01765 -29.822506 54.490654 11116438
-174.40659 -30.07766 53.692299 9141875
-171.22258 -28.437328 72.997154 8288365
-171.61456 -28.529154 72.270653 10656657
-172.123 -28.596563 71.365105 9669250
-172.06517 -28.958572 66.198982 7564392
-172.38228 -28.96034 65.369591 7564392
-172.77284 -28.962549 64.330612 8747890
-173.15752 -28.964752 63.289482 8353130
-173.38539 -28.966074 62.663689 7892581
-173.06396 -29.143906 57.874706 10262156
-173.42096 -29.17012 57.298477 9537921
-173.89673 -29.205448 56.528374 10787732
-174.25343 -29.232265 55.949295 10787732
-171.19524 -27.381039 73.796654 8288365
-171.46158 -27.617811 73.178635 7104091
-171.91759 -27.636389 72.396446 10656657
-172.18375 -27.874264 71.777908 13024949
-171.25426 -26.659014 74.212196 12038052
-171.76424 -26.723721 73.305977 7696228
-172.10692 -26.737192 72.718491 8288365
-171.09924 -25.747225 75.12397 9997957
-171.60994 -25.810797 74.217354 10788243
-172.0041 -25.901096 73.488312 9406589
-170.83116 -24.801119 76.250854 10261643
-171.34021 -24.893618 75.326447 8551798
-171.84947 -24.98691 74.401146 10064777
-170.82454 -23.438931 77.233818 10459795
-171.25938 -23.755064 76.274925 10525328
-171.69392 -24.072323 75.315948 7565675
-170.66621 -22.524965 78.152603 14077379
-171.17743 -22.615231 77.226204 9999501
-171.63744 -22.628716 76.441025 7565675
-170.5071 -21.610231 79.073441 9011835
-170.98822 -21.653145 78.231697 9736329
-171.44206 -21.825195 77.343971 11380639
-170.39888 -20.771807 79.854088 11117208
-170.74471 -20.780233 79.265167 10459022
-171.26024 -20.838923 78.354546 8288624
-170.31342 -19.628593 80.814392 12432037
-170.58466 -19.863058 80.189827 10787472
-171.04677 -19.873796 79.403526 11576987
-171.31772 -20.109062 78.778847 7564643
-170.17505 -18.405586 81.920845 10457996
-170.49905 -18.71736 81.152168 9537408
-170.9621 -18.727184 80.364914 8617079
-171.23375 -18.96245 79.739182 10787729
-170.01248 -17.485765 82.851616 8089963
-170.41255 -17.569593 82.117622 9865859
-170.87646 -17.578566 81.32943 9800581
-171.1488 -17.813734 80.702614 9143422
-169.97661 -16.413456 83.677765 9209214
-170.24977 -16.647951 83.050026 8089963
-170.7144 -16.656147 82.261185 10457996
-170.98737 -16.891344 81.633461 15194062
-169.79973 -15.497957 84.862633 10854036
-170.13748 -15.729486 84.010178 9537666
-170.60205 -15.73691 83.220024 9406079
-170.82503 -15.967551 82.566605 8089963
-169.81737 -14.596708 86.151192 8683383
-170.15013 -14.87211 85.190063 10458254
-170.56531 -15.058902 84.220169 9931910
-168.33609 -13.479707 98.832787 8815481
-168.34523 -13.901169 96.940208 7894126
-168.81013 -13.903054 96.12822 7037274
-169.27184 -13.904941 95.3144 10260358
-169.21915 -14.172797 88.944527 5920074
-169.68347 -14.177823 88.14814 8091756
-170.2632 -14.184381 87.15168 8092016
-168.478 -12.719932 99.078072 7959660
-168.15065 -11.719049 99.720947 12301482
-168.7162 -11.818027 99.325897 8222573
-168.27493 -10.796351 100.0482 8090731
-167.94522 -9.7945795 100.69132 8879990
-168.51103 -9.8905745 100.29681 6511443
-167.77168 -8.1875219 101.50139 11380380
-168.27005 -8.6808624 100.97536 10261899
-167.90775 -7.3875632 101.76599 7563618
-168.47508 -7.4801598 101.37204 8090218
-168.03017 -6.4566832 102.09633 6905946
-167.69815 -5.4515123 102.74226 7564392
-168.26622 -5.5413404 102.34906 7038307
-167.93745 -4.566906 102.97958 7827823
-167.60811 -3.5922201 103.61052 8156787
-168.1772 -3.6796317 103.21767 7959408
-167.72668 -2.6210277 103.96085 9406851
-168.31416 -2.8699009 103.48606 7564651
-167.39661 -1.6444395 104.59299 8090991
-167.96643 -1.729267 104.20094 10525073
-167.57664 -0.66906333 104.98399 7433065
-168.10321 -0.91576636 104.47107 10129798
-167.49066 0.39285371 105.96061 8880251
-167.85211 0.064873993 105.43693 9537923
-167.32257 1.0551323 107.9333 7432544
-181.81377 -50.668144 -3.3130715 9340542
-181.97803 -50.638912 -4.1197309 6511954
-182.02379 -50.659092 -4.9979372 6511954
-182.14969 -50.460373 -5.8797483 6183246
-182.20593 -50.488411 -6.9798651 8420208
-181.36827 -49.727741 -0.1761867 9208187
-181.53142 -49.935444 -1.1230403 9471873
-181.77089 -49.843189 -1.9272453 9800582
-181.97232 -49.902737 -2.8058236 9406336
-182.26869 -49.74918 -3.9082329 7564388
-182.34592 -49.77919 -5.0081911 6775126
-182.39146 -49.800117 -5.8886118 7433313
-182.42732 -49.869617 -6.9012766 7893864
-182.51337 -49.809513 -7.9611902 9012091
-182.54832 -49.881779 -8.9758444 8617080
-182.61571 -49.831779 -9.78757 9735046
-182.72784 -49.720562 -10.970912 8945530
-182.77119 -49.748486 -11.857072 8682867
-180.99049 -48.665886 2.8734901 9931910
-181.15465 -48.867962 1.931136 8879222
-181.3123 -48.989872 1.1324757 7958376
-181.63879 -48.898178 -0.013896123 9405823
-181.89919 -48.91029 -1.0540439 8616823
-182.1839 -48.748806 -1.9334117 11379356
-182.38626 -48.807194 -2.8139164 9866632
-182.59412 -48.869835 -3.9166481 8288116
-182.66827 -48.898476 -5.0184679 8353906
-182.7141 -48.919109 -5.9004183 8617587
-182.75955 -48.940792 -6.7830973 7762278
-182.81589 -48.969425 -7.8875437 9669506
-182.8717 -48.999584 -8.9931021 8617080
-182.91597 -49.024925 -9.8785143 8353909
-182.95987 -49.051296 -10.764802 8090478
-183.09544 -48.864796 -11.879546 8287342
-183.14946 -48.90073 -12.990582 8551024
-183.22267 -48.840633 -13.838668 7564899
-183.31613 -48.740349 -14.778466 8485490
-183.38098 -48.732903 -15.806468 8879476
-183.5027 -48.600529 -17.019634 8353130
-183.54422 -48.634979 -17.915407 7892581
-180.60846 -47.62265 5.9118891 10459020
-180.77359 -47.819336 4.97363 10064009
-180.98256 -47.949196 3.961972 9734531
-181.23549 -48.012253 2.8762558 9931910
-181.51973 -47.845772 2.0061462 8353134
-181.72234 -47.898376 1.1332864 7826790
-182.00829 -47.836933 0.10171972 7695462
-182.31171 -47.815929 -1.0581428 7695978
-182.43195 -48.091488 -1.9370548 8879995
-182.58412 -48.134644 -2.5980923 9735046
-182.92175 -48.242401 -5.2468748 9341054
-182.95624 -48.257896 -5.9092913 9341054
-183.00185 -48.279285 -6.7931318 10591121
-183.13927 -48.086891 -7.9028502 9801092
-183.19536 -48.116573 -9.0103979 9143167
-183.32088 -47.920471 -9.9021101 8222579
-183.36511 -47.946392 -10.790326 8616306
-183.48045 -47.800507 -11.817349 7826790
-183.56526 -47.745682 -12.888539 8353901
-183.59869 -47.823631 -13.913041 8157802
-183.64154 -47.85408 -14.806058 8157802
-183.67416 -47.934792 -15.832845 8682350
-183.75731 -47.885376 -16.910454 8024166
-183.78908 -47.9688 -17.940275 8353133
-183.83054 -48.003952 -18.838388 8418928
-183.8717 -48.040195 -19.737745 7563619
-184.04553 -47.752983 -20.878323 9998213
-184.14754 -47.639267 -21.878622 9077625
-184.25957 -47.506199 -22.927624 8353647
-184.29956 -47.546669 -23.834349 8353647
-180.22223 -46.597073 8.9406214 9142651
-180.43173 -46.829414 7.7757425 9537409
-180.64894 -46.924366 6.7831163 10261642
-180.85184 -46.970406 5.9188089 10064520
-181.11378 -46.889198 5.0104666 10130311
-181.39011 -46.859966 3.9690921 9932930
-181.64415 -46.921749 2.8809917 9077367
-181.92934 -46.754017 2.0089252 6971737
-182.0507 -47.024342 1.1339024 5919050
-182.20332 -47.063889 0.4768399 5919050
-183.73376 -47.088032 -11.70151 10261132
-183.78845 -47.122688 -12.816302 10459531
-183.92419 -46.936977 -13.939015 11709852
-183.96733 -46.96693 -14.833684 9341819
-184.01013 -46.997864 -15.729318 9602937
-184.06325 -47.038097 -16.850561 9273972
-184.16702 -46.948025 -18.023495 8156011
-184.23944 -46.891838 -18.881977 8616564
-184.28096 -46.927292 -19.783354 8353135
-184.35292 -46.872807 -20.644739 8419695
-184.45538 -46.78796 -21.826479 8682867
-184.50613 -46.836475 -22.959307 8222061
-184.5464 -46.87648 -23.86727 8617075
-184.58638 -46.917549 -24.776695 9209467
-184.62604 -46.959648 -25.687647 8814453
-184.75778 -46.789791 -26.840914 8879988
-184.79694 -46.834061 -27.755722 9405560
-179.61572 -45.558308 13.468181 9866624
-179.75974 -45.583828 12.826244 9866624
-179.95131 -45.618561 11.969162 7564643
-180.10481 -45.830292 10.804038 8814454
-180.30435 -45.915489 9.8142242 9537664
-180.50116 -45.955383 8.9533701 8945272
-180.83838 -45.79385 8.09694 8682100
-181.08122 -45.845509 7.0158243 9801348
-181.18854 -46.102978 5.9283667 10064520
-181.39615 -46.071186 5.1335096 9932932
-181.66556 -45.975616 4.1926069 9735551
-181.81842 -46.011662 3.5393016 9011830
-184.26556 -46.339375 -15.9756 9931902
-184.29762 -46.363182 -16.649242 9931902
-184.40765 -46.256371 -17.779346 8353391
-184.56793 -46.001415 -18.916958 8616822
-184.60875 -46.036076 -19.819916 9734788
-184.65034 -46.071945 -20.724178 8945523
-184.83215 -45.899937 -21.646667 8616817
-184.87563 -45.945526 -22.780687 7892840
-184.91846 -45.992504 -23.916662 8090219
-184.95221 -46.031303 -24.827116 8617075
-185.12914 -45.861759 -25.75919 9011832
-185.15976 -45.901772 -26.672909 8682867
-185.14934 -46.000607 -27.75284 9143417
-185.17932 -45.82328 -28.803101 9143161
-185.23097 -45.551197 -29.878334 8681843
-185.14294 -45.557381 -30.550661 11905692
-178.84117 -44.553642 19.707338 9340030
-179.01897 -44.576263 18.854759 9537409
-179.26311 -44.611317 17.790001 8287342
-179.42044 -44.782242 16.643274 9076341
-179.54713 -44.876049 15.855889 10523015
-179.74078 -44.907242 15.000951 8089959
-179.98222 -44.947544 13.930596 8879986
-180.22308 -44.989162 12.858412 8879986
-180.41528 -45.023556 11.999141 8682608
-180.655 -45.067867 10.923153 10129540
-180.82631 -45.176773 9.9144716 9406077
-180.92914 -45.350224 8.973609 8813686
-185.39645 -45.414856 -25.114744 8682867
-185.72054 -45.126335 -28.582941 8420720
-185.73235 -44.927723 -29.73065 9340798
-185.58545 -44.937813 -30.854004 10787471
-185.52943 -44.876991 -31.687096 9340027
-185.74828 -44.64658 -32.799988 9208437
-186.13422 -44.447002 -33.715965 9208435
-185.9995 -44.455338 -34.617573 14143422
-185.86284 -44.464321 -35.518963 13354422
-176.07118 -43.380104 42.374386 9406590
-176.28992 -43.634312 41.754395 9406590
-176.78775 -43.697784 40.749855 8683124
-177.22681 -43.831093 39.804077 9801605
-178.4706 -44.106316 23.809351 9472130
-178.82738 -44.161453 22.762356 10261132
-179.11147 -44.206352 21.922569 9406335
-179.44925 -44.259663 20.868172 9274493
-179.68234 -44.288681 19.799685 10261132
-179.84517 -44.307293 18.941547 9866374
-180.0063 -44.326405 18.082441 9866374
-186.30006 -44.437302 -32.589214 9208435
-186.71524 -44.182724 -35.91478 9866369
-186.61076 -44.19001 -36.594208 8944754
-186.43428 -44.202766 -37.726269 9274233
-186.25507 -44.216446 -38.858574 8089963
-187.38857 -44.163933 -42.638966 8419700
-187.12938 -44.165634 -43.766342 8354159
-186.97054 -44.166656 -44.442055 8814710
-188.17381 -44.175503 -48.816059 8879995
-187.93715 -44.176846 -49.721764 8419702
-187.75671 -44.177845 -50.400326 8419702
-175.99033 -42.463596 43.250931 9932937
-176.20961 -42.716496 42.630936 8946040
-176.68382 -42.729034 41.711067 9669762
-177.02756 -43.045273 40.803917 8879990
-175.90833 -41.548779 44.12854 11380380
-176.12816 -41.800354 43.508461 10656658
-176.52696 -41.847115 42.706089 9669763
-176.86658 -41.963394 41.962822 6511954
-175.62567 -40.613754 45.407005 8090216
-175.94577 -40.874626 44.587143 8879735
-176.44484 -40.930611 43.585045 9932679
-176.78487 -41.045277 42.84211 9406337
-175.82317 -39.821499 45.6371 8747888
-176.34067 -39.78709 44.685135 8353135
-176.70207 -40.128651 43.722378 10590609
-175.7009 -38.714531 46.50766 7761251
-176.16713 -38.77425 45.815002 8090216
-176.5759 -38.756386 45.044765 8089963
-175.56345 -37.574013 47.344772 9866113
-176.05591 -37.714283 46.645069 7893095
-176.49042 -37.843121 45.927696 7761252
-175.67902 -36.755447 47.676834 7696232
-176.31458 -36.91254 46.787891 7564131
-175.51628 -35.781433 48.448639 7367269
-176.07849 -35.971863 47.63229 6840668
-175.20604 -34.882526 49.361824 7367269
-175.80992 -34.856892 48.619019 8354164
-176.26102 -35.235863 47.832214 7367269
-175.13335 -33.516052 50.250343 8616822
-175.4769 -33.78117 49.664062 7498598
-175.9753 -33.838203 49.005264 11511712
-174.97766 -32.368633 51.116837 7038307
-175.32144 -32.631828 50.531086 7630187
-175.81569 -32.761417 49.834282 8287601
-175.08257 -31.701763 51.374931 7630187
-175.65187 -31.761646 50.624657 8945531
-175.99696 -32.025146 50.036934 10853012
-175.04436 -30.577122 52.278545 7300446
-175.35002 -30.873064 51.589222 7761772
-175.75723 -31.093128 50.883186 9537667
-175.08568 -29.296225 54.593121 9735045
-174.96294 -29.697624 53.632629 9273719
-175.30475 -29.986462 52.677204 8089445
-175.78156 -30.20834 51.807312 7038307
-172.48775 -28.340948 70.932381 8287597
-172.75365 -28.57972 70.313759 8484975
-173.21001 -28.601074 69.528954 9208184
-173.60303 -28.695795 68.79863 9931906
-173.53593 -28.966955 62.245949 7892581
-173.75974 -28.968275 61.61869 7038042
-174.12769 -28.970474 60.571556 8287853
-174.48982 -28.972672 59.522293 9077114
-174.77472 -28.974426 58.681263 9537409
-174.98593 -28.975744 58.049759 9537409
-174.60997 -29.259491 55.368881 10261132
-172.54895 -27.617805 71.344994 11116696
-173.05916 -27.685614 70.436241 8287597
-173.4528 -27.779327 69.705666 9931906
-172.44984 -26.751087 72.130379 8287597
-172.90742 -26.77005 71.345261 12234920
-173.30159 -26.862785 70.614388 12761263
-172.25797 -25.607834 73.269371 8682867
-172.64012 -25.849842 72.452377 8288112
-173.14946 -25.946077 71.524879 9209217
-172.17941 -24.467901 74.214966 16774119
-172.5625 -24.709169 73.39695 16116446
-173.08315 -24.819735 72.440346 10392974
-171.97258 -23.474546 75.272408 9012605
-172.41844 -23.662827 74.386497 9735813
-172.9955 -23.661188 73.415184 13156019
-171.86755 -22.635685 76.048134 14076861
-172.21306 -22.646414 75.458275 11314586
-172.72789 -22.708597 74.546364 8222831
-171.78635 -21.492538 77.001259 8684155
-172.05641 -21.728653 76.377632 11445658
-172.57193 -21.789755 75.46524 10985106
-171.62822 -20.574371 77.923355 7564643
-171.89883 -20.810104 77.299019 9011574
-172.44574 -20.779516 76.399345 10392970
-172.63152 -21.059538 75.886284 11182228
-171.46933 -19.655197 78.847672 10458505
-171.74045 -19.89076 78.222443 8617073
-172.20326 -19.90263 77.434013 9735039
-172.60236 -19.989689 76.699417 10524555
-171.46111 -18.279549 79.843712 10787729
-171.6571 -18.742701 79.18261 9011834
-172.1209 -18.753645 78.393402 9735039
-172.44435 -19.067816 77.624001 10919055
-171.51839 -17.545677 80.271255 8156786
-172.03752 -17.602755 79.355743 7432806
-172.30977 -17.838951 78.728264 9011574
-171.35722 -16.622147 81.202301 9998985
-171.87717 -16.678371 80.286034 8485232
-172.27843 -16.763451 79.549065 7498081
-171.24571 -15.634283 82.261177 9406079
-171.66954 -15.80081 81.348473 11051415
-172.10582 -15.991041 80.391434 8090474
-170.86699 -14.611399 84.368309 9931910
-171.29897 -14.844162 83.302986 10459023
-171.79236 -14.9276 82.352928 8682100
-172.07945 -15.083529 81.643013 8089963
-169.45103 -13.523193 98.120415 7630698
-169.50105 -13.905884 94.906517 8616048
-169.8429 -13.9073 94.293633 8484720
-170.40761 -13.909657 93.269463 9340030
-170.72646 -14.189892 86.3536 8288112
-171.30484 -14.197269 85.354942 7497825
-169.48756 -12.804978 98.412956 7433063
-169.38693 -11.840952 98.898582 8485745
-169.97276 -12.101832 98.419868 9143675
-169.40211 -10.927776 99.288567 7695717
-169.26854 -9.6710215 99.920685 7432801
-169.54405 -10.1614 99.534851 7169373
-169.16515 -8.7034245 100.4078 7169373
-169.14784 -7.4948821 100.94646 6511701
-169.73593 -7.7502112 100.46854 5393730
-169.16167 -6.5750885 101.33958 8157041
-168.93976 -5.5524373 101.92455 10789015
-169.52859 -5.8052921 101.44717 7038307
-168.95316 -4.6296463 102.31929 8288629
-168.83429 -3.5247259 102.87592 8354165
-169.32021 -3.8552644 102.42876 9209729
-168.95863 -2.5828145 103.20988 10195593
-168.62424 -1.5703598 103.86047 8682867
-169.19769 -1.655228 103.46614 10129798
-168.39928 -0.4269461 104.65405 8682867
-168.80351 -0.75502419 104.15617 11576729
-168.21072 0.55640292 105.6612 9537923
-168.70906 0.31009105 105.12675 9143421
-169.20787 0.062927514 104.59168 10129798
-168.45879 1.0563494 107.23608 7564651
-182.59737 -47.653004 -1.9395438 8879995
-182.76236 -47.861439 -2.8945572 9735046
-182.89639 -48.031174 -3.8362515 8814458
-183.01976 -47.901894 -4.8091688 8748921
-183.11771 -47.816765 -5.9152021 9341054
-183.24431 -47.61734 -6.8031759 10262156
-183.37064 -47.418671 -7.692647 9011832
-183.42702 -47.447815 -8.8015261 8617076
-182.21503 -46.58691 1.1342 5919050
-182.38728 -46.871719 0.037855968 5919821
-182.62794 -46.887375 -0.92960274 5854028
-182.84576 -46.994808 -1.9431888 7695978
-183.10968 -46.922291 -2.8722336 7762029
-183.31116 -46.882462 -3.7142937 7893615
-183.38316 -46.909161 -4.8203173 10656146
-183.44104 -46.933861 -5.9270239 9341054
-183.56787 -46.733917 -6.8165865 9933191
-183.61351 -46.755768 -7.7038755 9932678
-183.6701 -46.784531 -8.8141832 9340541
-183.72623 -46.814827 -9.9256964 9340285
-183.77078 -46.840202 -10.815907 8813685
-183.89627 -46.645065 -11.712535 9668995
-183.95114 -46.679375 -12.828313 10854033
-181.59415 -45.489895 5.9405718 10459020
-181.78328 -45.531952 5.0706053 9735297
-181.97211 -45.574913 4.1990366 9011830
-182.11313 -45.797386 3.0182102 8814195
-182.30901 -45.892395 2.01175 6971737
-182.50488 -45.941074 1.1349305 5919050
-182.79688 -45.870747 0.21225248 5524805
-183.03952 -45.897469 -0.79004395 4867385
-183.18953 -46.119442 -1.9482623 5590855
-183.39653 -46.094978 -2.7602742 7564651
-183.63911 -46.00082 -3.7223294 7564651
-183.70641 -46.025871 -4.8302031 11380381
-183.86345 -45.914597 -6.0161638 8090987
-183.95088 -45.864204 -6.8321276 9604226
-183.99345 -45.884903 -7.7211332 9208955
-184.01561 -45.951763 -8.743144 9472127
-184.11768 -45.895439 -9.8148375 9932166
-184.13855 -45.96476 -10.838887 8682355
-184.17891 -45.989712 -11.731566 9603458
-184.20221 -46.062458 -12.757577 8815224
-184.44389 -45.791039 -13.812627 11578011
-184.45628 -45.876564 -14.874747 11643290
-184.53844 -45.818527 -15.731584 10129282
-184.64485 -45.720913 -16.68161 8945007
-184.67711 -45.750561 -17.581474 8156269
-184.87459 -45.584885 -18.724146 9011322
-184.91316 -45.624489 -19.853178 8879732
-184.94325 -45.657299 -20.75773 9208435
-180.2449 -44.3563 16.792036 8878962
-180.40181 -44.376961 15.930642 9536635
-180.55704 -44.398224 15.068382 7103322
-180.74858 -44.425617 13.98915 5920074
-180.93768 -44.453873 12.908583 7893349
-181.08687 -44.47718 12.043052 8682608
-181.2345 -44.501099 11.176371 8682608
-181.33681 -44.629864 9.9780102 10458248
-181.41859 -44.757809 8.9969587 9405560
-181.58978 -44.791271 8.1291113 9208439
-181.82681 -44.840137 7.0432901 9801091
-182.06467 -44.89069 5.9552641 9604226
-182.25464 -44.932232 5.0829058 10261895
-182.44424 -44.974747 4.2091398 9011830
-182.63025 -45.064987 3.2016761 9406330
-182.81689 -45.140881 2.236573 8813682
-182.94681 -45.331989 1.1368283 5919050
-183.08795 -45.367085 0.47645843 5919050
-184.54851 -45.329777 -10.195161 9011320
-184.57649 -45.346973 -10.865499 8353646
-184.61311 -45.370674 -11.760089 7761509
-184.64908 -45.395271 -12.65545 7433832
-185.00813 -45.019032 -13.799872 9734788
-185.04285 -45.045528 -14.698907 9340024
-185.08551 -45.079838 -15.823976 8681835
-185.1189 -45.108292 -16.725153 8681835
-185.30995 -44.932636 -17.642708 7827307
-185.34216 -44.962868 -18.546806 8090479
-185.3815 -45.001904 -19.678526 7893099
-185.41986 -45.042301 -20.811928 8287596
-185.4498 -45.075668 -21.720076 8484973
-185.61577 -44.99757 -22.691648 7695461
-185.67134 -45.012913 -23.658119 7958120
-185.79207 -44.92189 -24.63759 8682356
-185.95784 -44.785789 -25.738876 11248538
-185.92482 -44.863304 -26.7845 7564642
-185.94955 -44.902103 -27.702614 9143931
-186.03595 -44.711391 -28.632011 8881015
-177.46722 -43.558331 39.558392 7761253
-177.64159 -43.805038 38.924648 8353646
-178.00772 -43.840031 37.883205 9735300
-177.97182 -44.016022 36.757317 7037274
-178.14703 -44.017696 35.899742 7037274
-178.36003 -44.019779 34.826557 8683125
-178.56702 -44.021866 33.752174 8880503
-178.72771 -44.023529 32.891827 9142904
-178.88434 -44.025188 32.030613 9668991
-179.07404 -44.02726 30.953079 8946044
-179.25766 -44.029327 29.874487 9933191
-179.39975 -44.030979 29.010798 9341054
-179.5713 -44.033009 27.930206 9077114
-179.73668 -44.035091 26.848656 9471359
-179.86423 -44.036682 25.982744 9931910
-179.9875 -44.038368 25.116146 9143166
-180.13562 -44.040409 24.032084 8090736
-180.27759 -44.042442 22.947235 7893356
-180.38625 -44.044067 22.078707 8813942
-180.5161 -44.046093 20.992275 9208700
-180.63982 -44.048065 19.905174 9143678
-180.73383 -44.049732 19.03491 9670021
-180.85663 -44.059265 18.167463 10262156
-180.82425 -44.148365 17.174822 8024939
-181.25484 -44.109745 16.005774 7629154
-181.37236 -44.125595 15.356119 7893349
-186.81099 -44.412632 -28.981766 8420720
-186.71745 -44.416519 -29.658365 9275004
-186.59108 -44.422314 -30.560236 9208955
-186.43044 -44.430298 -31.687384 9208955
-187.22142 -44.151665 -32.517906 9011833
-187.08897 -44.159161 -33.423965 9208435
-186.92072 -44.169395 -34.55616 9208435
-186.78424 -44.178108 -35.462006 8088931
-188.07903 -44.159115 -39.474373 10458504
-187.83879 -44.160843 -40.605961 9471872
-187.64153 -44.16222 -41.510109 9537667
-188.91347 -44.171108 -45.864845 9867142
-188.74678 -44.172123 -46.546932 9669507
-188.52092 -44.173481 -47.455406 9867142
-188.34879 -44.1745 -48.136051 9340289
-177.28769 -42.622467 40.63842 8682355
-177.6082 -42.891602 39.813061 7103323
-178.10976 -42.957298 38.800865 9603970
-178.43044 -43.229366 37.972229 12433069
-177.18686 -41.850697 41.438126 6840925
-177.59625 -41.840298 40.66264 8287598
-178.01025 -41.800797 39.901142 7958632
-178.27168 -42.139149 39.134655 9406591
-177.06374 -40.472004 42.758163 8748665
-177.42616 -40.817356 41.79253 8090737
-177.94118 -40.787743 40.829865 10064010
-178.2314 -40.914524 40.174568 9011576
-176.98056 -39.554844 43.639488 10985623
-177.32249 -39.668484 42.894436 10393232
-177.82629 -39.725857 41.884739 11313821
-178.14949 -39.991398 41.056915 10261391
-176.89639 -38.639084 44.521835 9735044
-177.23854 -38.75103 43.777016 10919574
-177.6418 -38.794949 42.970032 9603717
-177.86465 -39.047165 42.344963 7038307
-176.81117 -37.724586 45.405266 7564389
-177.15379 -37.83503 44.660656 9274494
-177.5571 -37.876987 43.854027 10853012
-177.78041 -38.128033 43.229034 10853012
-176.61617 -36.647232 46.564121 7169373
-176.96719 -36.910355 45.746609 6775129
-177.47151 -36.960464 44.739128 6710109
-177.69518 -37.210205 44.114002 9208958
-176.37965 -35.705723 47.409546 8419696
-176.80801 -35.758736 46.840645 8419696
-177.31831 -35.868782 45.892433 6840922
-177.60899 -36.293667 45.000061 5921106
-176.30865 -34.331596 48.299469 10985625
-176.63272 -34.734257 47.658195 8945784
-177.27129 -34.718182 46.824364 7235422
-176.49094 -33.594559 48.500298 12103335
-176.98871 -33.727959 47.798004 7695973
-177.33582 -33.996841 47.205849 7696485
-176.25166 -32.658237 49.346863 9537408
-176.7489 -32.789291 48.645943 9866117
-177.17986 -32.837711 48.077026 8287341
-176.44005 -31.800299 49.611771 9011065
-177.00748 -31.982973 48.792053 10853012
-176.36624 -30.619701 50.598312 10326669
-176.72604 -30.968512 49.782387 8682100
-175.79874 -29.352335 53.425289 9735558
-176.12593 -29.517572 52.522984 7564133
-176.2946 -29.819298 51.72747 8156527
-176.64479 -29.997114 50.984333 10261644
-173.95903 -28.561703 68.293953 9931906
-174.35271 -28.657387 67.561836 9734788
-174.74661 -28.753723 66.82888 9406080
-175.19453 -28.977058 57.417271 8748148
-175.46938 -28.978807 56.572868 9932419
-175.74014 -28.980555 55.727154 10524555
-176.19296 -29.002466 54.705383 9801093
-173.8222 -27.493065 69.286903 12432039
-174.11928 -27.780315 68.581093 11971488
-174.6619 -27.761169 67.679794 8814200
-173.55649 -26.570364 70.393059 10064268
-173.9384 -26.815029 69.574638 10195335
-174.51225 -26.841328 68.588478 9932163
-174.77939 -27.082338 67.966194 9142648
-173.40451 -25.652821 71.303932 7564651
-173.78708 -25.896685 70.485039 9735045
-174.36179 -25.921513 69.498795 9142648
-174.62944 -26.161894 68.876114 9142648
-173.40512 -24.284716 72.279724 7564651
-173.66814 -24.685915 71.549957 7893615
-174.12839 -24.900204 70.621437 7564651
-174.47856 -25.241352 69.787621 9142648
-173.25124 -23.365864 73.195091 11379865
-173.52032 -23.603922 72.571678 9340799
-174.03546 -23.668818 71.657326 9866889
-173.09653 -22.446507 74.112373 8287597
-173.36609 -22.684193 73.488342 8814197
-173.91278 -22.657393 72.586227 7168860
-174.21307 -22.943035 71.876251 10853269
-172.9409 -21.526646 75.031464 9340539
-173.21101 -21.763882 74.406837 8287597
-173.67351 -21.778854 73.616814 9143163
-174.0721 -21.868608 72.881096 7103067
-173.05502 -20.842941 75.327301 11182228
-173.51814 -20.85689 74.536957 9734784
-173.91727 -20.945847 73.800858 8287597
-173.03279 -19.695372 76.18425 9340539
-173.4388 -19.706623 75.492035 8748659
-173.76161 -20.022476 74.722511 10195592
-172.83925 -18.495543 77.367142 11050641
-173.20433 -18.780661 76.548393 9406332
-173.75919 -18.642015 75.712341 10459278
-172.65701 -17.501501 78.384094 8090987
-173.11539 -17.673426 77.48893 9077624
-173.60181 -17.716002 76.638817 9341054
-172.5356 -16.461327 79.331413 7037274
-172.92519 -16.700413 78.504219 8090987
-173.44359 -16.78899 77.567375 9735296
-172.3533 -15.540491 80.506218 7366495
-172.81151 -15.777118 79.456779 8550767
