# .PCD v0.7 - Point Cloud Data file format
VERSION 0.7
FIELDS x y z rgb
SIZE 4 4 4 4
TYPE F F F U
COUNT 1 1 1 1
WIDTH 1173
HEIGHT 1
VIEWPOINT 0 0 0 1 0 0 0
POINTS 1173
DATA ascii
-7.0332618 -45.591892 -142.49367 9011577
-6.5131049 -45.535324 -142.34529 9735812
-6.0519729 -45.48941 -143.44185 9735812
-5.3558021 -45.413719 -143.23563 9735812
-4.3589187 -45.309528 -144.17792 9341053
-3.1732304 -45.18486 -145.06741 14209480
-2.6486332 -45.127701 -144.89845 8617333
-1.62235 -45.020355 -145.83778 7564649
-0.92208219 -44.944054 -145.60211 8090992
0.11994049 -44.835022 -146.53534 9274235
0.99989581 -44.743698 -147.53488 9734529
1.7036731 -44.666912 -147.28062 9537407
2.5987537 -44.573887 -148.27853 11051416
3.1276729 -44.516174 -148.08054 10261644
3.479388 -44.477802 -147.94771 10261644
4.3902383 -44.38316 -148.94186 8617593
5.4915338 -44.267719 -149.87253 11315104
6.0214868 -44.202644 -149.63599 9340545
7.1344056 -44.063004 -150.48476 7564651
8.6180983 -43.895798 -151.22786 8617331
9.7625608 -43.77034 -152.1357 10788243
10.473041 -43.69157 -151.8194 9736326
11.277839 -43.60384 -152.88321 10788756
12.4523 -43.475109 -153.79083 15723486
12.987319 -43.415756 -153.53955 13880770
14.177699 -43.285225 -154.44244 11116697
14.712829 -43.225861 -154.18326 9143422
15.561728 -43.133286 -155.25887 8617079
16.782583 -42.99939 -156.16402 8682867
17.141008 -42.959633 -155.98193 8682867
-90.767693 -74.583199 -96.48394 8813945
-88.339043 -74.635109 -97.838844 10261382
-87.597298 -74.602676 -98.435349 10064774
-85.639549 -74.669304 -99.32328 7234394
-84.861244 -74.612991 -99.86821 6510930
-116.00954 -73.887917 -82.49939 9932163
-115.55795 -74.075005 -83.019241 8814711
-114.87132 -74.144753 -83.720543 8354933
-113.86683 -74.296913 -83.907196 7893615
-113.2638 -74.297455 -84.731339 9340289
-112.07664 -74.296188 -84.907074 9471873
-111.19715 -74.296326 -85.726105 8353646
-110.28691 -74.29538 -85.879364 10130313
-109.66975 -74.29583 -86.67765 9537664
-108.76432 -74.294876 -86.821259 8616307
-107.87313 -74.294952 -87.609055 10064265
-106.86837 -74.294029 -87.870674 8484977
-106.07757 -74.294006 -88.513123 8550763
-105.23391 -74.293533 -88.891922 7301213
-104.28266 -74.293076 -89.389679 9143160
-103.37933 -74.293076 -90.138123 7630184
-102.48934 -74.292076 -90.239334 7695979
-101.84087 -74.292389 -90.981216 8091247
-100.87183 -74.291702 -91.348602 9932165
-99.933426 -74.291367 -91.911812 11181972
-99.056274 -74.331772 -92.309738 9010807
-98.058861 -74.315048 -92.842056 9142646
-97.281075 -74.36364 -93.224388 7695203
-96.603859 -74.350044 -93.786835 8945266
-95.499031 -74.38755 -94.202324 10391686
-94.710411 -74.373001 -94.783882 9339256
-93.896797 -74.38063 -95.29068 8485233
-92.881187 -74.438606 -95.680977 8616818
-92.143883 -74.398918 -96.302032 9142904
-91.326065 -74.407776 -96.790596 9011315
-90.32222 -74.476501 -97.171951 8945523
-89.503922 -74.449524 -97.796593 9669245
-88.692268 -74.442413 -98.341789 7893606
-87.801895 -74.445435 -98.899094 11643805
-86.89193 -74.49044 -99.310074 10393739
-86.112083 -74.489578 -99.742645 7958114
-85.183456 -74.465469 -100.24183 7431772
-84.240685 -74.484314 -100.59668 8352872
-83.457283 -74.430794 -101.13412 8813679
-82.621613 -74.365265 -101.74773 8089958
-81.511787 -74.421478 -102.03535 8681835
-80.659561 -74.41832 -102.42697 7366237
-79.795883 -74.379257 -102.95665 6511699
-78.972839 -74.336861 -103.57254 7432289
-78.205208 -74.314552 -104.11336 7826791
-77.221657 -74.30307 -104.36601 7366239
-76.323654 -74.281128 -104.98672 7432288
-75.443382 -74.281013 -105.63103 7432032
-74.488091 -74.298714 -105.90211 7169373
-73.710693 -74.282066 -106.41791 6971994
-72.94413 -74.279823 -106.94856 7366751
-72.185585 -74.279518 -107.38038 7038298
-71.068413 -74.278679 -107.77783 9011576
-70.164833 -74.27845 -108.37773 14077894
-69.38623 -74.278236 -108.88578 5920082
-68.60405 -74.278 -109.38811 6644317
-67.686752 -74.277687 -109.96689 8815738
-66.764877 -74.277374 -110.53829 9143930
-65.97081 -74.27713 -111.02165 7696228
-65.173218 -74.276848 -111.49934 6972762
-64.022827 -74.275833 -111.81043 7760994
-63.116821 -74.275383 -112.27251 6642515
-62.310303 -74.275032 -112.72952 7695205
-61.500523 -74.274666 -113.18069 9142651
-60.687481 -74.274323 -113.62601 8616307
-59.81778 -74.274025 -114.15327 9011064
-58.94788 -74.274155 -114.96781 9932678
-58.122013 -74.273712 -115.39467 9011833
-57.293087 -74.273361 -115.81555 9604226
-56.322113 -74.27285 -116.29874 9208703
-55.347282 -74.272339 -116.77419 7564651
-54.508469 -74.271866 -117.17499 8814711
-53.666756 -74.271355 -117.5697 8419955
-52.681129 -74.270813 -118.02235 8090733
-51.755287 -74.270767 -118.76321 7827302
-50.988911 -74.270432 -119.18098 6971738
-50.132832 -74.269867 -119.55024 6643029
-49.40107 -74.161774 -120.37827 6840151
-48.616875 -73.941017 -120.76719 7037530
-47.604115 -74.006897 -121.03615 7037274
-46.493881 -74.002594 -121.33587 7629923
-45.80101 -73.907288 -121.55855 7169629
-116.93978 -72.768776 -81.89328 9209467
-116.42078 -73.093536 -82.421204 8946297
-115.83688 -73.139366 -83.217316 8749691
-115.29983 -73.390076 -83.81768 8683898
-48.42152 -73.235123 -121.11373 7169629
-47.577072 -73.185493 -121.35954 6379601
-46.612881 -73.131828 -121.63904 5919820
-45.709778 -73.084854 -121.89959 5920074
-44.863297 -72.943771 -122.18111 6906713
-44.100716 -72.659515 -122.49522 8090731
-117.25549 -71.939445 -81.972153 9208954
-116.61008 -72.101952 -82.781372 8090987
-116.05984 -72.39167 -83.375626 8092019
-46.775291 -72.221359 -121.94585 5722444
-45.849495 -72.042618 -122.2632 5722959
-44.944298 -71.999306 -122.52287 5985873
-43.975029 -71.991302 -122.78616 6840667
-43.30825 -71.7547 -123.05622 7235685
-118.01266 -71.057457 -81.460426 10656399
-117.44483 -71.089073 -82.242905 10787726
-116.96194 -71.148506 -82.887749 8090987
-45.791267 -71.341545 -122.54867 5393738
-45.0247 -71.056786 -122.86403 6643803
-44.205872 -70.964966 -123.11924 5919050
-43.061073 -71.093071 -123.34379 6577239
-42.294098 -70.740318 -123.46848 6445394
-118.79859 -70.077179 -80.970276 9405815
-118.32255 -70.163765 -81.588181 11380123
-117.75404 -70.28228 -82.316612 11643036
-44.141537 -70.223587 -123.42179 5919050
-43.286194 -70.219597 -123.64149 6445652
-42.318619 -69.916664 -123.7737 6445394
-119.74221 -68.785294 -80.454575 9734527
-119.15871 -69.054855 -81.108505 9669244
-118.52616 -69.205818 -81.906845 10985364
-43.289574 -69.496208 -123.93044 5919050
-42.303818 -69.031418 -124.09774 6379601
-41.38839 -68.943565 -124.03857 6445394
-120.39654 -67.958092 -80.053574 10063235
-119.94039 -68.134987 -80.586212 9208440
-119.36951 -68.161804 -81.375969 10853264
-42.286983 -68.214409 -124.39642 6248786
-41.389675 -68.05809 -124.36427 7103837
-40.642075 -67.652695 -124.43865 8090987
-121.33759 -66.860214 -79.418831 8617075
-120.81286 -67.173569 -79.961945 8879733
-120.22323 -67.206802 -80.774162 8813939
-119.68076 -67.445412 -81.389687 11247252
-41.462486 -67.144951 -124.70728 7301727
-40.560783 -66.948143 -124.68951 8354157
-122.0807 -65.759621 -79.065506 8617075
-121.59809 -66.012527 -79.587387 8090219
-120.99252 -66.140984 -80.36174 7564130
-120.4494 -66.464737 -80.924377 7761509
-41.318649 -66.393517 -124.96918 6511954
-40.576023 -66.020905 -125.03201 8090984
-39.725731 -65.884018 -124.99734 9537660
-122.46906 -64.970184 -79.016525 7892840
-121.90716 -65.006744 -79.787384 7168861
-121.36227 -65.241379 -80.408844 7037274
-40.501556 -65.159874 -125.34112 8880499
-39.646835 -65.027496 -125.3044 9537661
-38.971909 -64.613808 -125.38906 9142392
-123.2273 -64.020164 -78.546432 10195337
-122.69523 -64.095985 -79.250336 7892584
-122.16315 -64.173637 -79.953079 7300702
-40.35463 -64.505302 -125.56709 11380372
-39.724045 -64.056213 -125.66924 9734784
-38.911346 -63.988903 -125.61278 8945013
-140.89842 -63.156338 -68.937775 7828333
-140.23947 -63.047264 -69.66716 9538176
-139.2063 -62.957703 -69.997871 9472383
-138.17636 -62.868961 -70.321388 9932423
-137.51682 -62.761627 -71.033699 8617080
-136.85437 -62.654617 -71.740555 8419443
-135.61339 -62.609299 -71.515984 8089963
-124.1849 -62.959747 -78.001953 8551281
-123.50235 -63.19606 -78.719788 10918800
-122.91457 -63.295914 -79.459946 10129541
-39.59602 -63.237293 -125.95754 8418927
-38.812859 -63.108784 -125.92652 8550256
-38.045242 -62.871262 -125.93719 9142650
-135.34984 -62.566891 -71.794907 8089963
-134.82121 -62.482449 -72.350243 12300452
-134.15845 -62.37711 -73.040497 13550517
-133.26738 -62.286011 -73.463547 12695209
-132.15283 -62.209545 -73.618858 12037536
-131.48938 -62.105919 -74.291992 9405819
-130.68738 -61.980675 -75.091919 8221546
-129.7742 -61.71991 -75.406128 9405046
-126.7904 -61.763748 -76.574692 9011321
-125.93877 -61.888321 -77.240814 8748405
-125.26331 -62.049419 -77.77729 8156012
-124.56843 -62.265167 -78.344193 8089963
-123.85993 -62.520432 -78.944771 9340027
-38.82386 -62.202637 -126.26083 7760998
-37.960686 -62.022888 -126.24065 7367525
-37.284252 -61.620274 -126.32104 7039331
-128.6976 -61.381931 -75.618019 9865341
-127.85003 -61.392605 -76.287842 9931909
-127.22979 -61.438763 -76.836334 8813686
-126.5772 -61.453972 -77.487602 8616307
-38.663509 -61.496975 -126.50417 7563619
-38.031189 -61.058731 -126.60218 9274233
-37.194294 -60.93063 -126.56812 8221806
-37.9627 -60.40131 -126.91897 9010806
-37.106232 -60.090771 -127.06772 9208184
-36.264381 -59.853794 -127.18536 10721678
-35.650864 -59.565178 -127.48738 12432037
-36.115814 -59.433128 -127.95463 10458508
-35.354446 -59.44482 -127.83727 9669250
-34.367229 -59.299797 -128.32214 9998471
-33.791801 -59.263603 -129.1241 9209468
-32.709808 -59.262665 -129.40874 8748402
-31.625559 -59.261684 -129.68469 9142387
-31.042135 -59.262123 -130.44151 9866113
-30.27841 -59.261894 -130.93086 8879733
-29.181311 -59.260834 -131.18582 10195338
-28.39411 -59.029091 -131.84702 9537665
-27.475916 -58.807087 -131.9798 7893352
-28.364679 -58.305252 -132.21202 8617075
-27.441347 -57.986057 -132.2782 8288110
-26.625238 -57.736511 -132.3248 9340286
-27.568533 -57.090473 -132.61275 10063753
-26.61661 -56.988029 -132.59811 9077114
-27.409113 -56.281155 -132.90002 10261132
-26.561205 -56.163876 -132.8965 8484977
-25.756117 -55.992054 -132.91531 9866630
-26.564508 -55.268433 -133.22426 8287342
-25.698423 -55.136616 -133.22507 10722195
-24.951525 -54.814499 -133.30196 9011321
-25.797934 -54.146816 -133.59254 9538177
-24.778509 -53.980061 -133.59772 8551283
-25.612833 -53.405312 -133.8537 8617075
-24.924963 -53.051327 -133.94551 8813942
-24.014528 -52.891972 -133.95393 8287600
-24.803072 -52.210571 -134.24641 9011065
-24.039637 -51.923992 -134.30946 9208444
-23.254328 -51.974541 -134.24797 8616307
-23.989935 -51.020702 -134.63722 8879479
-23.084471 -51.175568 -134.53098 8616049
-22.439871 -50.790485 -134.63658 9142393
-23.820387 -50.220852 -134.92064 8418928
-23.151205 -50.17038 -134.9024 8813170
-22.247805 -50.055805 -134.89485 8418154
-22.960855 -49.23045 -135.23587 8352619
-22.213392 -49.092678 -135.24532 8220774
-21.466856 -48.956314 -135.25435 8484205
-22.265112 -48.4426 -135.54697 9340028
-21.367296 -48.084431 -135.75893 10458250
-20.407167 -47.795578 -135.89915 9208184
-21.380213 -47.49485 -136.24657 10853012
-20.518576 -47.386612 -136.29025 9208183
-19.632402 -47.112869 -136.67381 8682095
-18.748079 -46.745762 -137.16046 9076855
-18.199923 -46.564316 -137.34305 8616301
-16.704851 -46.58429 -138.74997 8813686
-17.693247 -46.52935 -137.30829 7300958
-16.001642 -46.473042 -138.50198 8550766
-15.130319 -46.454845 -139.7095 9011065
-14.265016 -46.360981 -139.52101 9274232
-13.350133 -46.265762 -140.49789 8353648
-12.656373 -46.190445 -140.33665 9010803
-11.725942 -46.093517 -141.30824 8485747
-11.030896 -46.017982 -141.13647 8682867
-10.08471 -45.91943 -142.10274 8485234
-8.9502306 -45.8004 -143.02513 9736836
-8.251462 -45.72438 -142.83411 9736068
-7.4506888 -45.641586 -143.84616 9736836
-6.7502875 -45.565399 -143.64537 9735812
-5.5836844 -45.442837 -144.55119 9735299
-4.5783629 -45.337811 -145.51065 9208443
-3.8748486 -45.261238 -145.29015 15920098
-3.0299962 -45.173729 -146.30127 16776175
-2.3250134 -45.096897 -146.07077 8617335
-1.1117947 -44.969265 -146.96059 9209213
0.293246 -44.820694 -147.78624 8287855
1.5369174 -44.689705 -148.67038 11643552
2.0686023 -44.631794 -148.47525 11906725
2.7954662 -44.557144 -149.5527 7038298
3.3285854 -44.498974 -149.35046 8616563
4.6035333 -44.364647 -150.22382 11183517
5.8935761 -44.224762 -151.08232 13156790
6.4266 -44.154701 -150.82498 7564651
7.5512948 -44.015835 -151.6911 8090992
8.5132017 -43.90892 -152.68405 7565159
9.0498304 -43.849445 -152.45001 11380124
10.206134 -43.722683 -153.36855 10788757
11.556838 -43.574394 -154.20685 8091760
12.094703 -43.514736 -153.95769 12959666
12.923141 -43.424374 -155.04266 10261132
13.461852 -43.364662 -154.78619 12959412
14.484912 -43.252708 -155.78821 10787729
16.063246 -43.079208 -156.52643 9011578
17.116484 -42.963932 -157.53569 8682867
-114.82105 -73.891228 -84.176941 9012606
-114.36875 -74.082596 -84.695091 8156530
-113.70629 -74.11805 -85.60479 9208703
-112.65542 -74.289513 -85.807159 9537666
-111.83367 -74.298607 -86.637299 7761509
-110.9154 -74.297653 -86.788834 8945783
-110.12449 -74.297668 -87.460846 8089963
-109.27186 -74.297165 -87.864426 9077112
-108.31264 -74.296768 -88.391647 11709089
-107.35516 -74.296349 -88.912598 7958377
-106.50201 -74.295807 -89.295128 8024169
-105.70229 -74.295769 -89.933472 10063492
-104.79983 -74.294792 -90.044174 9932164
-104.04418 -74.295204 -90.928497 8485493
-103.03817 -74.29422 -91.153679 8485493
-102.23005 -74.294151 -91.764107 8617334
-101.28567 -74.293808 -92.336502 8946041
-100.30708 -74.293076 -92.693817 9471358
-99.640968 -74.293373 -93.419861 10326664
-98.79715 -74.292595 -93.620766 9734528
-97.823952 -74.292213 -94.185814 9274231
-96.890953 -74.292076 -94.873528 8945271
-96.009842 -74.29097 -94.925331 9536636
-95.213371 -74.291222 -95.735474 7892584
-94.234245 -74.290764 -96.269974 7695202
-93.396156 -74.28997 -96.433228 7892581
-92.703239 -74.290131 -97.109314 9143159
-91.709007 -74.289757 -97.703064 9340795
-90.76757 -74.288811 -97.87748 9801090
-90.064255 -74.288933 -98.5345 8945523
-89.076797 -74.299278 -99.118149 7696228
-88.26133 -74.293243 -99.409111 10064774
-87.29274 -74.287628 -100.00175 13880509
-86.337029 -74.318268 -100.50739 7365979
-85.618736 -74.302467 -100.99085 7563358
-84.750984 -74.286499 -101.39306 8287080
-83.777916 -74.286209 -102.01095 7563619
-83.045006 -74.286209 -102.61738 7695204
-82.068459 -74.2854 -102.92296 8024421
-81.331131 -74.285179 -103.41806 7498079
-80.350258 -74.284523 -103.80679 8222060
-79.479561 -74.284485 -104.48471 8682867
-78.603462 -74.28437 -105.15558 9141619
-77.66169 -74.28344 -105.32583 8088931
-76.864838 -74.283432 -105.98462 8221292
-75.882133 -74.282524 -106.23598 8747893
-75.118874 -74.282417 -106.78528 7432033
-74.351631 -74.282272 -107.32912 5984587
-73.4515 -74.282082 -107.95635 6182478
-72.327011 -74.281265 -108.36402 7827558
-71.558739 -74.28093 -108.79085 8682611
-70.777138 -74.280708 -109.30887 7235941
-69.991859 -74.28051 -109.8213 7235941
-68.870483 -74.27948 -110.09636 6710366
-67.947487 -74.279152 -110.67769 7039331
-67.152313 -74.278923 -111.16965 8683639
-66.353699 -74.278656 -111.65581 8420208
-65.551521 -74.278328 -112.13621 6972762
-64.611244 -74.278008 -112.68911 6642515
-63.666542 -74.277634 -113.2345 6840150
-62.853081 -74.277275 -113.69547 7563618
-62.036301 -74.276939 -114.15054 8945272
-61.216263 -74.276581 -114.5997 7366239
-60.255329 -74.2761 -115.11604 10788243
-59.290352 -74.275681 -115.62469 8879735
-58.459721 -74.275276 -116.05395 7827047
-57.626102 -74.274857 -116.47722 8090475
-56.789322 -74.274422 -116.89449 7564651
-55.809265 -74.273895 -117.37345 7827566
-54.985283 -74.274086 -118.18227 7893615
-54.136303 -74.27359 -118.58037 8419955
-53.27375 -74.223244 -119.05679 8814454
-52.536789 -74.106674 -119.50161 8682612
-51.516518 -73.971657 -119.9994 7432544
-50.458679 -73.896004 -120.31252 5919050
-49.641212 -73.752502 -120.58717 6116429
-115.55119 -72.766373 -83.857224 9933193
-115.07431 -73.036095 -84.360451 8486519
-114.47455 -73.186333 -85.112968 8156787
-113.99244 -73.342346 -85.695496 8879995
-52.594292 -73.433907 -119.91707 8616819
-51.63789 -73.168373 -120.27602 6774870
-50.653618 -72.993034 -120.60771 5327942
-49.67992 -72.963028 -120.88068 3814705
-48.865452 -72.969818 -121.0967 6577750
-48.168934 -72.868835 -121.32249 8090987
-116.48143 -71.645027 -83.252373 9340539
-115.96116 -71.972183 -83.78064 9670278
-115.37457 -72.021988 -84.578033 8683898
-114.83575 -72.275497 -85.179047 9078143
-50.758713 -72.214424 -120.8792 5919821
-49.863373 -71.964867 -121.21558 3419948
-48.840767 -72.163956 -121.41349 7038043
-47.964523 -72.155899 -121.65181 6840664
-47.168945 -71.848938 -121.98354 6314836
-116.7335 -71.023544 -83.289627 8880245
-116.20058 -71.059677 -84.019897 9407105
-115.69895 -71.150787 -84.671165 9144448
-49.603649 -71.37851 -121.51103 3222569
-49.021141 -71.167885 -121.74844 5392706
-48.110481 -71.114632 -122.01338 5524548
-47.08625 -71.090286 -122.29772 5920080
-46.119957 -70.878387 -122.63871 5920338
-45.277863 -70.620537 -122.96397 6446167
-117.60929 -69.877052 -82.777748 11576727
-117.02643 -70.154495 -83.425812 9537918
-116.39376 -70.314575 -84.218575 8946042
-48.81583 -70.456375 -122.07737 5392706
-48.166161 -70.279724 -122.31979 5392706
-47.343575 -70.026054 -122.63828 6183508
-46.279976 -69.972282 -122.94447 6052180
-45.217339 -69.922531 -123.24889 5985359
-44.458839 -69.889404 -123.46523 6182223
-118.40173 -68.79583 -82.342377 11248793
-117.86048 -69.040138 -82.952545 11379864
-117.30135 -69.091301 -83.710312 10721676
-47.134041 -69.31897 -122.96667 6446423
-46.51474 -69.040138 -123.24021 5656909
-45.541309 -69.011307 -123.51263 5854032
-44.396164 -69.193176 -123.75005 6182481
-43.540604 -69.060425 -124.03084 5656137
-42.904335 -68.765068 -124.25568 6445394
-119.19698 -67.935219 -81.763222 10985364
-118.74044 -68.116096 -82.293953 10985366
-118.13931 -68.111168 -83.146584 11248536
-117.68261 -68.295082 -83.675537 11379348
-45.421402 -68.370293 -123.79155 5788240
-44.594788 -68.127777 -124.10677 5525068
-43.615261 -68.124184 -124.37113 5788750
-42.785847 -67.931244 -124.55041 5789005
-119.93525 -66.828148 -81.420738 7761509
-119.45371 -67.086998 -81.937347 10722451
-118.84855 -67.223671 -82.7061 11248795
-118.30653 -67.554146 -83.262886 11906725
-44.552658 -67.382668 -124.40485 4932931
-43.701801 -67.134476 -124.72881 4867905
-42.794144 -67.006599 -124.89054 5525833
-42.095207 -67.052078 -124.80464 6117970
-120.35043 -66.043488 -81.330849 7235421
-119.75838 -66.080612 -82.144012 8156523
-119.21436 -66.32209 -82.759834 10985623
-42.801003 -66.08297 -125.22887 6709850
-41.916286 -66.112091 -125.13238 6314834
-41.237076 -65.689415 -125.21991 8090984
-121.23711 -64.830147 -80.846054 7563873
-120.59869 -64.977257 -81.65506 7629923
-120.08721 -65.217072 -82.225998 6511954
-42.680004 -65.25489 -125.52383 7894123
-42.000938 -65.134743 -125.50018 7630692
-41.112923 -64.864845 -125.51071 7827812
-121.87448 -64.010643 -80.464172 7037274
-121.38479 -64.061623 -81.123917 7629666
-120.89505 -64.11412 -81.782845 8551025
-41.877007 -64.309021 -125.79137 7563101
-41.068039 -64.017075 -125.81793 8221800
-40.438866 -63.833927 -125.82236 9735550
-142.06418 -63.185024 -69.287964 7038307
-141.53229 -63.097023 -69.876015 8090992
-140.73135 -62.965538 -70.752487 9538176
-139.31241 -62.895172 -70.68013 8682867
-138.78012 -62.808586 -71.254494 8090737
-138.11227 -62.700699 -71.967667 8748665
-137.57622 -62.614594 -72.534981 8089963
-122.83401 -62.923759 -79.827072 10129541
-122.27431 -63.151318 -80.444748 8353388
-121.67825 -63.183708 -81.265015 7629666
-41.09473 -63.201962 -126.12031 9273461
-40.157162 -63.026516 -126.09112 8945011
-136.05594 -62.526703 -72.58255 7695973
-135.38782 -62.420448 -73.278786 7564643
-134.71686 -62.314651 -73.969757 7300958
-133.70226 -62.230194 -74.25882 8419181
-132.69086 -62.146671 -74.541031 8813682
-131.88527 -62.021729 -75.349472 7037274
-131.21127 -61.917919 -76.017899 8616820
-130.80571 -61.855869 -76.416672 10261903
-125.21288 -61.627197 -78.534607 8287342
-124.72974 -61.742332 -78.862137 8287342
-123.88119 -62.089008 -79.436447 9142648
-123.21727 -62.151588 -80.213158 10392713
-122.48265 -62.368687 -80.896057 9471866
-40.967606 -62.381199 -126.40935 9536633
-40.238739 -62.124737 -126.43084 9010548
-39.485683 -61.798088 -126.47568 8089705
-127.15447 -61.21312 -77.417343 8616307
-126.50022 -61.229263 -78.068169 8418928
-125.84583 -61.246796 -78.716141 7563619
-124.91656 -61.428082 -79.272552 9011065
-124.20078 -61.464592 -79.893967 8353135
-40.170219 -61.141098 -126.78564 8878963
-39.281273 -61.038612 -126.7351 8681841
-39.183662 -60.329281 -127.09747 9931392
-38.426701 -59.983475 -127.29599 9602941
-37.819771 -59.668209 -127.53867 8550256
-37.435028 -59.487637 -127.9208 8550256
-36.695526 -59.364014 -128.23448 8418928
-35.640892 -59.265186 -128.61464 9142907
-34.990402 -59.265404 -129.26027 9471871
-34.177963 -59.2654 -129.94406 9341054
-33.08913 -59.264469 -130.23232 9012089
-32.153927 -59.263626 -130.47197 10129286
-31.69195 -59.264294 -131.28493 9537147
-30.601515 -59.084305 -131.94196 8616303
-29.670401 -58.938667 -132.05179 8287853
-29.68276 -58.110256 -132.3555 7761765
-28.725924 -58.000648 -132.3432 9142906
-29.679693 -57.357609 -132.63068 7038298
-28.857206 -57.103783 -132.67845 8024938
-27.929045 -56.78492 -132.74423 9932167
-28.82073 -56.190529 -133.0105 9340286
-27.942736 -55.923923 -133.05992 9471871
-27.128798 -55.574974 -133.14301 8419696
-28.013639 -55.046017 -133.38495 9077369
-27.126097 -54.895439 -133.39142 8551282
-27.905455 -54.287704 -133.6564 9735043
-27.061724 -54.08725 -133.68353 8748405
-26.243509 -53.968018 -133.68233 8617075
-27.106993 -53.26453 -133.98706 8617075
-26.187761 -53.085575 -134.0022 8419440
-25.32807 -52.70462 -134.09445 8418928
-27.030115 -52.51141 -134.25835 8617075
-26.338362 -52.155437 -134.35074 7037274
-25.345179 -51.954838 -134.36972 7300446
-26.110476 -51.24741 -134.67046 6510930
-25.380991 -51.052444 -134.70186 7695205
-24.525099 -50.747684 -134.76645 8221549
-25.316858 -50.067074 -135.05885 8221549
-24.514605 -49.936859 -135.06253 7432548
-23.84321 -49.885479 -135.04457 8418928
-24.532789 -49.027031 -135.41194 8616050
-23.637327 -49.087093 -135.33659 8813428
-23.561506 -48.249477 -135.85716 7760998
-22.715864 -47.953278 -136.0305 8813684
-22.012838 -47.835133 -136.02747 12432037
-21.839163 -47.411404 -136.59592 9866115
-20.999212 -47.09774 -137.00465 10326666
-20.094393 -46.769638 -137.45308 9734528
-17.583685 -46.711067 -139.01782 8616307
-16.521296 -46.605839 -140.00116 9537409
-16.172903 -46.568066 -139.92932 8813686
-15.651116 -46.511402 -139.82016 8879479
-14.743352 -46.417038 -140.81189 9340030
-14.045823 -46.341324 -140.65633 8616307
-12.947202 -46.226189 -141.6019 7762027
-12.248548 -46.150307 -141.4353 9209467
-11.48338 -46.071426 -142.45901 8814199
-10.354341 -45.953037 -143.39854 9208443
-9.651433 -45.876587 -143.21301 9208443
-8.6818209 -45.775501 -144.19083 9736836
-7.9774222 -45.698864 -143.99503 9736836
-6.9918075 -45.596054 -144.96747 8617075
-6.1395316 -45.505558 -145.35202 9734273
-5.2846084 -45.414711 -145.728 11707548
-4.2691436 -45.308685 -146.69815 14209736
-3.7372258 -45.250721 -146.52898 16776175
-2.5286343 -45.123615 -147.43663 10129798
-1.8187649 -45.046272 -147.2002 11576729
-0.94893384 -44.9561 -148.22 9669762
0.11252472 -44.845036 -149.18385 9209727
0.82595706 -44.767246 -148.92844 9933193
1.7247837 -44.67392 -149.9523 7959656
2.4392765 -44.596031 -149.68658 7038298
2.8161762 -44.559689 -150.91513 7038298
3.5329273 -44.481441 -150.64034 7697002
4.4613175 -44.384975 -151.66817 10985881
5.1789918 -44.306633 -151.38303 13880000
6.1222367 -44.200237 -152.38103 12499373
6.8382554 -44.105881 -152.03058 9209467
7.6158051 -44.011227 -153.08115 8486003
8.9479055 -43.862183 -153.92853 8486262
9.48841 -43.802235 -153.68947 9933193
10.656875 -43.674175 -154.61925 8486261
11.478309 -43.584648 -155.72029 7039331
11.840575 -43.544407 -155.55167 7039331
12.382606 -43.484341 -155.29778 10129802
13.220344 -43.392994 -156.39963 10985367
13.763587 -43.332714 -156.13857 10985367
14.978889 -43.19952 -157.06638 10196107
15.846061 -43.104923 -158.18053 8092019
16.391584 -43.044365 -157.90494 8682351
17.463003 -42.944389 -158.99115 9405816
-113.41946 -73.904968 -86.123726 7564651
-112.84378 -74.004051 -86.633347 7695718
-112.15571 -73.979111 -87.313644 7366495
-111.34975 -74.011444 -87.932487 7761252
-110.71568 -74.114922 -88.428871 8879474
-109.79799 -74.299347 -88.786865 8287594
-108.75507 -74.298592 -89.181839 12038055
-107.84467 -74.298653 -89.9664 9076858
-106.92926 -74.297653 -90.084503 9142648
-106.28178 -74.297997 -90.858429 9931906
-105.37154 -74.297012 -90.96711 9208442
-104.45065 -74.296967 -91.719978 9472129
-103.48182 -74.296486 -92.203987 10458765
-102.62162 -74.295914 -92.554306 7565161
-101.95644 -74.296227 -93.297012 9143420
-100.93748 -74.295105 -93.446777 9668737
-100.01118 -74.29512 -94.211868 9734789
-99.186775 -74.294922 -94.796921 8485237
-98.29306 -74.2939 -94.857384 9734788
-97.497078 -74.294167 -95.686768 8813944
-96.534615 -74.293365 -95.985413 8813686
-95.663368 -74.292908 -96.411293 8024170
-94.970451 -74.293068 -97.103683 8484716
-93.994667 -74.292458 -97.506813 8616302
-93.018013 -74.291779 -97.900925 9472123
-92.314529 -74.291946 -98.574135 9011315
-91.33683 -74.291252 -98.954712 10064260
-90.358513 -74.290581 -99.326324 9406073
-89.644745 -74.290665 -99.980324 7498592
-88.669968 -74.290108 -100.43944 7827300
-87.941254 -74.289864 -100.87897 10393225
-86.962502 -74.289291 -101.3223 7102810
-86.234421 -74.28933 -101.95174 7037274
-85.212807 -74.288811 -102.48219 6643284
-84.393074 -74.288162 -102.74894 6511954
-83.408501 -74.287788 -103.3112 8090217
-82.542099 -74.287735 -104.01522 6709333
-81.675499 -74.287308 -104.46249 7235165
-80.844276 -74.286774 -104.80347 7893352
-79.818939 -74.286011 -105.18359 6840922
-79.063164 -74.28598 -105.76144 11378068
-78.303238 -74.285881 -106.33371 10259843
-77.539246 -74.285782 -106.90051 8352618
-76.506317 -74.284966 -107.25102 8155756
-75.575668 -74.284462 -107.69662 7432033
-74.527229 -74.283768 -108.12672 5919050
-73.750381 -74.283615 -108.66621 5392706
-72.969604 -74.283424 -109.2001 8353646
-72.185005 -74.283211 -109.72834 9669250
-71.396652 -74.283005 -110.25088 8090990
-70.471977 -74.282761 -110.8531 9275265
-69.38752 -74.281631 -111.03603 9341569
-68.542404 -74.281456 -111.63158 11381404
-67.740372 -74.281166 -112.12778 10657428
-66.934776 -74.280922 -112.61817 9078138
-66.125641 -74.280632 -113.10269 7630435
-65.177193 -74.280289 -113.66046 7038300
-64.224297 -74.279907 -114.21056 7301214
-63.219143 -74.278786 -114.34695 6642516
-62.397678 -74.278458 -114.80464 7563618
-61.75272 -74.278839 -115.58761 7432802
-60.783497 -74.278404 -116.10844 9998728
-59.810131 -74.277924 -116.62143 9011578
-58.972321 -74.277534 -117.05447 8156010
-58.131382 -74.277107 -117.48145 7892840
-57.277596 -74.224487 -117.98421 7761770
-56.404575 -74.132515 -118.38667 8222061
-55.517166 -73.940964 -118.93723 8748146
-54.451759 -73.848938 -119.2587 9011577
-53.60627 -73.743652 -119.52616 9735044
-113.80325 -73.104561 -86.10495 8617336
-113.15748 -73.113258 -86.785263 7761508
-112.43224 -73.048401 -87.526375 7958374
-111.79372 -73.247078 -88.043304 7563617
-56.518757 -73.497238 -118.83916 8813936
-55.586945 -73.130249 -119.23051 8616817
-54.591213 -72.974457 -119.55781 8748405
-53.705059 -73.003212 -119.78466 8617075
-52.803604 -72.972977 -120.03827 8419439
-52.156586 -72.782928 -120.28519 6511954
-114.709 -71.869926 -85.614937 9998985
-114.06571 -72.033134 -86.393585 9735812
-113.40995 -72.115105 -87.048622 9275003
-112.89339 -72.324379 -87.447647 9734779
-55.314045 -72.326889 -119.61306 7564643
-54.663692 -72.131325 -119.86283 7564643
-53.755371 -72.155426 -120.09747 7169884
-52.871906 -72.131378 -120.34383 7103835
-51.958508 -72.063911 -120.61501 6972249
-51.030102 -71.764359 -120.97952 6511957
-115.35094 -71.091942 -85.200256 11380380
-114.85062 -71.098328 -85.903275 10525328
-114.36413 -71.167816 -86.544952 9735812
-53.833061 -71.412056 -120.36269 9077114
-52.987968 -71.127754 -120.69899 8419183
-52.116646 -71.020454 -120.97419 7235421
-51.13549 -70.987595 -121.25021 7367265
-50.193489 -70.940651 -121.52116 4735805
-116.26724 -69.907776 -84.654938 8616822
-115.72625 -70.159584 -85.260056 10656401
-115.13598 -70.212997 -86.060425 10327437
-52.158539 -70.233856 -121.26572 9208187
-51.341789 -70.015327 -121.56905 10655889
-50.199596 -70.159386 -121.82022 5788233
-49.213814 -70.087128 -122.11269 5590085
-48.36858 -69.820343 -122.44224 5787464
-117.11506 -68.852188 -84.125023 8485235
-116.62942 -69.002304 -84.716293 7498600
-116.02479 -69.149574 -85.477531 8813942
-115.54455 -69.41954 -85.985306 10064265
-51.127609 -69.376472 -121.87239 8945527
-50.427788 -69.235062 -122.11472 7103835
-49.433475 -69.06562 -122.44687 6248271
-48.401501 -69.038467 -122.73435 5919050
-47.530159 -68.948395 -123.00294 5525323
-46.770683 -68.606094 -123.33858 5393738
-117.79374 -67.923744 -83.753693 11379348
-117.33656 -68.109253 -84.28231 8485235
-116.73341 -68.111336 -85.133392 8485235
-49.483852 -68.287697 -122.73276 6445394
-48.546585 -68.003326 -123.09381 6116429
-47.628441 -67.955002 -123.35887 5393738
-46.741581 -68.010101 -123.57576 5393738
-45.859528 -67.956787 -123.83309 5262152
-118.20559 -67.135811 -83.670364 9998727
-117.61316 -67.181396 -84.478767 8156271
-117.06966 -67.429977 -85.089508 7038307
-48.489765 -67.305855 -123.3775 7301474
-47.746841 -67.094162 -123.65842 6249045
-46.771595 -67.176506 -123.88855 6578009
-45.885693 -67.179352 -124.12529 4538172
-45.02441 -67.043953 -124.40861 4406587
-44.247627 -66.766579 -124.72392 4340793
-119.08733 -65.914131 -83.197716 11117209
-118.44918 -66.069733 -84.000969 8683381
-117.93836 -66.316032 -84.566986 7959149
-47.510643 -66.562996 -123.92628 6446423
-46.825294 -66.29995 -124.21151 8814453
-46.022049 -66.148796 -124.48532 6578268
-45.101658 -66.110245 -124.74723 5393482
-44.028717 -66.069122 -125.05112 6578265
-43.181168 -65.798187 -125.35387 9735812
-119.83033 -65.040443 -82.700836 9077369
-119.23163 -65.146278 -83.479904 10722452
-118.74174 -65.205467 -84.134659 8025454
-45.959141 -65.455994 -124.76888 7039331
-45.178413 -65.177917 -125.08548 7236710
-44.312614 -65.046638 -125.36842 8618357
-43.26894 -64.958908 -125.63063 11512475
-120.66306 -63.986435 -82.191429 8156267
-120.10542 -64.180237 -82.856735 7958888
-119.52122 -64.26754 -83.626984 7959660
-44.33345 -64.273804 -125.66026 9210491
-43.398346 -64.049049 -125.96796 9802371
-42.416321 -63.957775 -125.97443 9734782
-142.83524 -63.144199 -70.083046 8090992
-142.0354 -63.014935 -70.97113 9538177
-141.49484 -62.926785 -71.556747 9209211
-140.06087 -62.856323 -71.477448 9735555
-139.38751 -62.747463 -72.196915 8287597
-138.71155 -62.638981 -72.911652 11380380
-121.47607 -62.761299 -81.818161 7629666
-120.95849 -63.124275 -82.319778 7893606
-120.31722 -63.274902 -83.1306 7301214
-43.291901 -63.290539 -126.30726 14604230
-42.39357 -63.104805 -126.28577 11510679
-41.498672 -62.755348 -126.32485 9536633
-138.30472 -62.574024 -73.338043 11380380
-137.17294 -62.550186 -72.958107 9274491
-136.63376 -62.46452 -73.51947 10459276
-135.95743 -62.357738 -74.216438 7564643
-135.27858 -62.251343 -74.908737 8156267
-133.77338 -62.167004 -74.929062 7169115
-133.23199 -62.083004 -75.472672 5919050
-132.55301 -61.978302 -76.147705 9670023
-131.87161 -61.873955 -76.817932 11906725
-130.3992 -61.793919 -76.813354 9734015
-129.73946 -61.700264 -77.482117 9470844
-129.18735 -61.614864 -78.000717 9010550
-122.65914 -61.924782 -81.201401 11116434
-121.9205 -62.060711 -81.986343 8616815
-121.22778 -62.267277 -82.628326 8287850
-120.67783 -62.379539 -83.193939 6511954
-42.379433 -62.239647 -126.60244 10655370
-41.604233 -61.934891 -126.63704 10129026
-128.77045 -61.550175 -78.386131 8287342
-127.96203 -61.344639 -78.744919 7892584
-126.97805 -61.05558 -78.990593 7563619
-126.14077 -60.836456 -79.319328 7563619
-125.39672 -60.921638 -79.911011 8747893
-124.60515 -61.004005 -80.558708 8879478
-123.63538 -61.294991 -80.904541 10326666
-122.90885 -61.338943 -81.619102 10721678
-122.32562 -61.433678 -82.170105 6511954
-41.515045 -61.121655 -126.92831 9865599
-40.647682 -61.064224 -126.86163 9273720
-41.20929 -60.550323 -127.13522 9536633
-40.678154 -60.177822 -127.36395 9142390
-39.877178 -59.856598 -127.56538 10062720
-39.004776 -59.652153 -127.59297 10851980
-39.644829 -59.52808 -128.02531 9208183
-38.837021 -59.39933 -128.34808 10852494
-38.040886 -59.32383 -128.60078 9734271
-37.120876 -59.26799 -129.11623 8221549
-36.193604 -59.267208 -129.38498 9142907
-35.523232 -59.267696 -130.27742 8222064
-34.568851 -59.267208 -130.77336 7564643
-33.6297 -59.266411 -131.02367 8485745
-32.689697 -59.188583 -131.71053 9274231
-31.909704 -58.966763 -132.16414 8747629
-31.13048 -58.823818 -132.17378 8879215
-31.887506 -58.154278 -132.46011 9339769
-30.978014 -58.007015 -132.4642 8879732
-30.321039 -57.766121 -132.51634 8287853
-31.100073 -57.067928 -132.81438 8945528
-30.166521 -56.951736 -132.80577 7432289
-30.961325 -56.292122 -133.09055 8419440
-30.197672 -56.077339 -133.12727 8156012
-29.368582 -56.045609 -133.09352 8945784
-30.065619 -55.244095 -133.42485 8748661
-29.265299 -55.06337 -133.44717 9800836
-28.550077 -54.688076 -133.54518 9735043
-29.344938 -54.116581 -133.7979 9537921
-28.314482 -53.943096 -133.80495 8945783
-29.33695 -53.400028 -134.05968 10261132
-28.471609 -53.010662 -134.15466 9932167
-27.592726 -52.900383 -134.14684 8222060
-28.52799 -52.1912 -134.4576 9011065
-27.625029 -52.008244 -134.47508 8155753
-26.745432 -51.808823 -134.49988 7563874
-27.557268 -51.200127 -134.76701 8681836
-26.634947 -51.037205 -134.77609 8550251
-27.525347 -50.518661 -135.01459 8681835
-26.749308 -50.14587 -135.10847 9405046
-25.870962 -49.908283 -135.14732 9339514
-26.708597 -49.321117 -135.40799 8681835
-25.817263 -49.067539 -135.49152 9141879
-24.966898 -48.659027 -135.67841 9010550
-25.862425 -48.432865 -135.95326 9010550
-24.916948 -48.174267 -136.07825 9273721
-24.145624 -47.837708 -136.32487 8747635
-23.420572 -47.669991 -136.41104 9142649
-24.018515 -47.499294 -136.92453 8353134
-23.200003 -47.309036 -137.0735 8879477
-22.279501 -47.17532 -137.11801 9340028
-21.497034 -46.9519 -138.00758 10458253
-19.501482 -46.924885 -139.39568 8089963
-18.803492 -46.84927 -139.26747 8550514
-17.919664 -46.757515 -140.28104 10261132
-17.219713 -46.68161 -140.14233 10261132
-16.319765 -46.588097 -141.15143 8813686
-15.968617 -46.550022 -141.07733 8813686
-15.442838 -46.49295 -140.96458 8616307
-14.526227 -46.397667 -141.96661 8287342
-13.53354 -46.292 -142.34843 8090991
-12.713746 -46.20509 -142.76166 7498856
-11.766812 -46.106468 -143.76064 7762027
-11.059785 -46.029686 -143.5808 9208443
-10.096623 -45.929302 -144.57458 10853524
-9.3879862 -45.852337 -144.38432 12039850
-8.4087191 -45.750187 -145.37283 9736836
-7.6990523 -45.67297 -145.17174 9736836
-6.8811927 -45.58849 -146.20782 11378583
-6.3476005 -45.530392 -146.04961 11378583
-5.6939864 -45.463764 -147.14163 13022893
-4.980535 -45.386108 -146.92111 12958642
-3.9548047 -45.278961 -147.90215 11709089
-3.2403386 -45.201183 -147.67087 14209736
-2.1982014 -45.092201 -148.64624 9143161
-1.1418087 -44.981735 -149.62485 10129798
-0.60339093 -44.923077 -149.43683 10656658
0.46887085 -44.810921 -150.41168 9933193
1.0081928 -44.752148 -150.21588 9933193
2.0963581 -44.638199 -151.18695 9933702
3.1991794 -44.522762 -152.16129 8092019
3.7410572 -44.463619 -151.95084 9538950
4.8600831 -44.346382 -152.92126 8092019
5.4026322 -44.287132 -152.70299 9209467
6.5355973 -44.151318 -153.61073 9209467
8.0439062 -43.963512 -154.3277 7960175
9.3897696 -43.814697 -155.19093 9933193
9.9340506 -43.754349 -154.94687 13550517
10.751327 -43.665272 -156.05553 8486261
11.946631 -43.534271 -157.00439 9208443
12.493575 -43.473587 -156.74599 10064009
13.705504 -43.340759 -157.69019 8617335
14.252585 -43.280113 -157.42375 8092019
15.298614 -43.165623 -158.45491 9933193
16.727461 -43.014153 -159.32524 9142644
-110.5633 -73.780273 -88.960785 10128771
-109.97187 -73.915993 -89.434662 8287594
-109.19854 -74.139587 -90.072113 8616307
-108.42641 -74.065689 -90.885536 11709090
-107.5238 -74.264343 -91.107361 8024170
-106.70606 -74.299858 -91.658539 8484719
-105.83855 -74.299301 -92.028999 7169376
-104.97021 -74.298721 -92.392136 8024941
-104.0478 -74.298805 -93.192772 9538176
-103.01566 -74.297668 -93.352036 8354676
-102.34475 -74.298004 -94.097603 9209212
-101.47767 -74.297401 -94.436424 8682615
-100.49677 -74.296837 -94.889572 6709341
-99.700745 -74.297104 -95.737801 6972770
-98.799568 -74.296051 -95.795891 8287859
-97.964348 -74.29586 -96.36866 9471617
-97.069824 -74.295677 -96.994217 9142651
-96.202492 -74.295021 -97.294136 8616307
-95.302284 -74.294769 -97.904373 8484716
-94.400238 -74.294579 -98.507317 8353130
-93.532669 -74.293869 -98.787621 8813938
-92.625282 -74.293625 -99.375298 8879216
-91.911118 -74.293663 -100.04565 10063492
-90.95314 -74.292763 -100.21031 9472125
-89.934647 -74.292313 -100.78139 9077882
-89.210419 -74.292412 -101.43231 8221543
-88.224854 -74.291832 -101.88393 7760994
-87.42215 -74.291313 -102.21862 7168860
-86.497963 -74.290947 -102.7543 7037274
-85.75956 -74.290977 -103.38034 6643284
-84.767845 -74.290329 -103.80161 8287850
-84.02272 -74.289978 -104.21277 8419436
-83.027634 -74.289352 -104.61808 7695460
-82.275856 -74.289314 -105.21907 8155755
-81.519745 -74.289246 -105.81455 6840922
-80.484245 -74.288513 -106.19762 5525064
-79.643906 -74.287933 -106.52676 9339257
-78.634636 -74.28743 -107.04344 10523015
-77.736977 -74.287285 -107.70708 8286827
-76.963058 -74.287163 -108.26978 8024170
-76.009377 -74.286652 -108.71643 8287342
-75.183212 -74.286087 -109.06403 8089963
-74.399551 -74.285957 -109.60827 8089963
-73.570251 -74.2854 -109.94329 8287853
-72.607452 -74.284775 -110.36069 12300458
-71.681831 -74.284569 -110.97315 7169628
-70.75135 -74.284294 -111.57813 6511954
-69.949684 -74.284065 -112.09027 10459023
-69.144241 -74.283806 -112.59659 13354939
-68.335274 -74.283539 -113.09714 11183517
-67.522644 -74.283257 -113.59183 9933703
-66.570053 -74.282906 -114.16126 9012345
-65.612839 -74.282547 -114.7231 6052176
-64.788574 -74.282219 -115.1981 5065021
-63.774658 -74.281113 -115.33562 5525316
-62.945995 -74.280754 -115.79732 6972762
-62.295479 -74.281151 -116.58714 9209467
-61.413204 -74.204063 -117.12298 7433064
-60.475876 -74.065643 -117.55479 7038307
-59.400341 -73.95459 -117.88955 7958889
-58.479378 -73.861877 -118.17246 8221803
-57.713234 -73.787155 -118.40694 7367013
-111.67913 -72.907135 -88.330261 7694946
-110.92434 -73.11174 -88.956421 10720651
-110.14061 -73.132195 -89.70591 8221545
-109.43555 -73.236168 -90.335922 8616563
-108.78332 -73.395676 -90.885948 11051416
-60.354568 -73.427132 -117.83645 7038307
-59.506775 -73.11647 -118.18358 8484973
-58.629478 -72.98465 -118.46983 8024682
-57.678375 -73.071289 -118.6918 7629927
-56.789936 -73.065002 -118.93269 8156011
-56.022198 -72.742416 -119.26301 8484973
-113.17837 -71.776207 -87.448952 9735295
-112.52332 -72.06385 -87.943436 7695202
-111.81751 -72.125053 -88.600471 8024166
-111.11579 -72.177185 -89.25412 8419179
-110.41471 -72.312981 -89.863785 8024421
-109.87591 -72.462669 -90.308876 10129025
-58.687229 -72.188942 -118.76057 7761512
-57.794586 -72.148781 -119.01567 7630183
-56.903622 -72.11158 -119.26915 7301477
-55.983166 -72.030334 -119.54755 8090475
-55.159058 -71.748146 -119.8774 9669251
-114.10374 -71.030739 -86.924942 7893608
-113.46006 -71.119171 -87.509079 8682866
-112.7356 -71.166862 -88.194427 9471609
-112.0249 -71.157181 -88.895523 9208698
-111.36964 -71.311836 -89.455536 10129025
-57.78923 -71.482651 -119.27347 7037274
-57.031384 -71.104446 -119.62252 7168860
-56.153767 -70.983963 -119.90446 10063753
-55.050804 -71.068542 -120.16801 8551026
-54.044476 -70.952965 -120.48266 7695717
-53.392551 -70.762154 -120.73112 7037274
-115.03311 -69.797432 -86.468903 10064265
-114.4715 -70.128075 -86.999825 9538433
-113.70988 -70.106224 -87.782501 7564643
-113.02996 -70.158295 -88.422012 8748405
-112.46644 -70.38446 -88.858345 10261132
-56.204403 -70.194031 -120.1949 9208443
-55.189835 -70.198639 -120.46549 7498593
-54.181049 -70.084091 -120.78039 6774614
-53.193645 -70.045006 -121.06052 7432031
-52.367268 -69.775322 -121.38614 6905944
-51.714302 -69.590271 -121.6327 6511954
-115.79423 -68.799026 -86.025307 8813942
-115.25151 -69.053627 -86.631126 10524816
-114.60653 -69.040779 -87.448318 12037795
-113.96433 -69.239693 -87.976593 10985364
-55.300812 -69.503601 -120.70322 6511954
-54.358814 -69.149513 -121.09235 6774614
-53.354019 -69.004829 -121.41779 8221546
-52.431988 -68.939705 -121.6904 9603198
-51.55188 -69.020096 -121.89574 6511954
-50.897934 -68.837898 -122.14137 6511954
-116.12934 -68.116402 -85.983849 7169373
-115.52425 -68.124527 -86.833801 9208699
-115.066 -68.3172 -87.35952 10261132
-53.396999 -68.220428 -121.70816 9668991
-52.618309 -68.003899 -122.00051 11313816
-51.614182 -68.186348 -122.19987 8814197
-50.692631 -68.127869 -122.46979 8288109
-49.863277 -67.869026 -122.79202 6971994
-49.208115 -67.692215 -123.03594 6971994
-116.9405 -67.025238 -85.528221 8024943
-116.30209 -67.189682 -86.326378 7629924
-115.71507 -67.474739 -86.975586 7761509
-52.45332 -67.427704 -122.26656 10984598
-51.723362 -67.19136 -122.55349 8682613
-50.844028 -67.092972 -122.82742 6380371
-49.920803 -67.038239 -123.09634 7433059
-48.916084 -66.912788 -123.41434 8617330
-47.971405 -66.585945 -123.79379 7564645
-117.70087 -66.016739 -85.09214 7367271
-117.13625 -66.07254 -85.854706 8682359
-116.59107 -66.323883 -86.466042 9471616
-50.880211 -66.313263 -123.11782 6183766
-50.069126 -66.005737 -123.45392 8683639
-49.07774 -65.985748 -123.72775 9012604
-48.054508 -65.984711 -124.00284 7630699
-47.178928 -65.970833 -124.24324 9209725
-118.50906 -65.081474 -84.542038 7367781
-118.01839 -65.143547 -85.196144 8485236
-117.44006 -65.183289 -85.988289 8616566
-49.858826 -65.300842 -123.78168 10262156
-49.198612 -65.126945 -124.02587 8091248
-48.161087 -65.21225 -124.27156 8025455
-47.14843 -65.129318 -124.57532 9802375
-46.215137 -65.023796 -124.86649 7434089
-45.433498 -64.745316 -125.1835 7039331
-119.41841 -63.84993 -84.036667 5394762
-118.87264 -64.181351 -84.598083 7367781
-118.26228 -64.324127 -85.370247 8025197
-117.77794 -64.589912 -85.88649 8813945
-48.367241 -64.393684 -124.53123 8288627
-47.375355 -64.139885 -124.89523 7762284
-46.294197 -64.092369 -125.20371 7170917
-45.368347 -64.05481 -125.46675 7170917
-44.530861 -63.817131 -125.78303 9210491
-43.869534 -63.656647 -126.02235 9210491
-143.98308 -63.153248 -70.423233 7564649
-143.35428 -63.063675 -71.190231 9801605
-142.67587 -62.953976 -71.929787 9012088
-141.2238 -62.88279 -71.848328 7038307
-140.68033 -62.794968 -72.428421 8682616
-139.86198 -62.6637 -73.292892 10458766
-120.18822 -62.867531 -83.570793 7432800
-119.64033 -63.110699 -84.191078 8288111
-119.04238 -63.155109 -85.00795 8354162
-118.51389 -63.478745 -85.549896 7367781
-47.313156 -63.448124 -125.17821 7038307
-46.513771 -63.138611 -125.51189 9407364
-45.501396 -63.029217 -125.82578 7039331
-44.573471 -62.994949 -126.08802 9604992
-43.690041 -62.922073 -126.35324 9868164
-139.31444 -62.576488 -73.865387 10261643
-137.89679 -62.509262 -73.762375 10261643
-137.21484 -62.401588 -74.46553 12367271
-136.39316 -62.272839 -75.302811 11051415
-135.35678 -62.187485 -75.589432 6708566
-134.46054 -62.124176 -75.732613 7563874
-133.77606 -62.018562 -76.413467 7366754
-132.9514 -61.892303 -77.22403 7038307
-131.93082 -61.810005 -77.489143 9472388
-130.93694 -61.739445 -77.761261 9471100
-130.30202 -61.660492 -78.450592 8287084
-121.24126 -61.818806 -83.1493 8090473
-120.58692 -62.006065 -83.773331 7038042
-119.98428 -62.129757 -84.430298 9405822
-119.45515 -62.370083 -84.921707 11379356
-45.523506 -62.257885 -126.11671 8089963
-44.703636 -61.971066 -126.44721 8748404
-43.773605 -61.940022 -126.70878 8288109
-42.95475 -62.130356 -126.70011 9471353
-129.60802 -61.555496 -79.101486 7563619
-129.0451 -61.468742 -79.615173 8814201
-124.65482 -60.720894 -81.136292 9208702
-124.01374 -60.788422 -81.659103 9537410
-123.25915 -60.822006 -82.360573 8945526
-122.2954 -61.085629 -82.78994 6709333
-121.56364 -61.234993 -83.367607 6972249
-121.03469 -61.274536 -84.008636 7958888
-44.479675 -61.278435 -126.77394 7037274
-43.813293 -61.120083 -127.01371 8945528
-42.872971 -61.154041 -127.05094 8418671
-42.099937 -60.798042 -127.10461 7563619
-42.940033 -60.377193 -127.44212 9142651
-42.036304 -60.068626 -127.58454 8747893
-41.166939 -59.728897 -127.77303 8945269
-41.916225 -59.535702 -128.24034 9011065
-41.266541 -59.484562 -128.334 9208440
-40.303055 -59.354172 -128.71503 8747628
-39.520424 -59.301685 -129.02753 9931910
-38.616768 -59.270718 -129.61075 10786958
-37.685921 -59.269962 -129.89027 10063492
-36.616348 -59.269299 -130.39221 9076858
-36.064873 -59.270088 -131.30777 9274237
-35.121819 -59.269272 -131.56886 7235427
-34.215206 -59.051422 -132.12634 7827307
-33.316109 -58.900322 -132.2392 9471615
-34.037006 -58.172886 -132.57097 8616822
-33.412674 -57.972988 -132.60995 9735044
-32.535172 -58.107552 -132.51265 8879215
-33.184959 -57.2159 -132.87437 9471355
-32.421612 -57.132591 -132.86308 9076595
-31.652613 -56.821346 -132.93481 9932423
-33.164982 -56.525574 -133.12584 8681835
-32.470531 -56.150352 -133.22504 9273975
-31.545397 -55.967365 -133.24129 9801093
-30.852674 -55.596478 -133.33911 7563619
-32.25592 -55.226852 -133.55113 9339771
-31.591627 -54.987179 -133.60246 8814198
-30.771433 -54.972679 -133.56284 8222061
-31.420797 -54.028477 -133.94386 8616307
-30.643934 -54.094116 -133.87726 9340286
-29.970758 -53.971729 -133.88521 9340798
-30.625948 -53.181488 -134.21021 9734788
-29.750307 -53.055569 -134.2083 9142651
-29.055082 -52.692741 -134.30295 8287342
-30.565256 -52.37891 -134.50049 9537409
-29.790659 -52.079216 -134.56772 8747893
-28.894472 -51.884102 -134.59 9208444
-29.692087 -51.218193 -134.87735 8287342
-28.926439 -50.945606 -134.93513 9076858
-28.189974 -50.745266 -134.96812 9405046
-28.930925 -50.056644 -135.26068 8484721
-28.022406 -49.995007 -135.2334 9668219
-28.066359 -49.221909 -135.56952 9931392
-27.244688 -48.962822 -135.68646 9142387
-27.141771 -48.415867 -136.09026 9340024
-26.36014 -48.118748 -136.33174 10062977
-25.515837 -47.737427 -136.7829 10457222
-24.872702 -47.567585 -136.96883 9010550
-25.289736 -47.348679 -137.37735 10851980
-24.585077 -47.35524 -137.24434 8550254
-23.917902 -47.239269 -137.30577 7563619
-22.752306 -47.156429 -138.41402 9537148
-21.079054 -47.095951 -139.67268 9143163
-20.201696 -47.000835 -139.52048 8747890
-19.325506 -46.909985 -140.54892 9471871
-18.446001 -46.814617 -140.38287 9537409
-17.729273 -46.741035 -141.44054 9668735
-16.847464 -46.645367 -141.26123 9537409
-16.291853 -46.589325 -142.35536 9734269
-15.584092 -46.512505 -142.20218 9340030
-14.837335 -46.435703 -143.26018 8813939
-14.127564 -46.358608 -143.09665 8813943
-13.187566 -46.260891 -144.11151 10853012
-12.476335 -46.183578 -143.93729 7762027
-11.341474 -46.064621 -144.9012 9340800
-10.807076 -46.006599 -144.76242 9208443
-9.655858 -45.885834 -145.71822 14736595
-7.9522262 -45.704994 -146.51962 9867653
-6.948278 -45.600266 -147.52083 8879476
-6.2307143 -45.522175 -147.30516 9734273
-5.2102866 -45.415668 -148.30081 9208443
-4.6712089 -45.356991 -148.13113 9208443
-3.6350644 -45.248741 -149.12329 8090730
-2.7499287 -45.154697 -149.50262 8354159
-1.8622296 -45.06031 -149.87297 8682867
-0.97606015 -44.968483 -150.92688 8814968
-0.25234345 -44.88958 -150.67056 9209727
0.8311069 -44.776222 -151.657 9933447
1.3744724 -44.716942 -151.4567 9933702
2.4740894 -44.601856 -152.43935 11381404
3.5886753 -44.485161 -153.42557 8092019
4.1344895 -44.425606 -153.2103 8092019
5.2655091 -44.307129 -154.1926 9209467
5.8118882 -44.2467 -153.96674 9209467
6.955687 -44.101582 -154.85788 11183513
