# .PCD v0.7 - Point Cloud Data file format
VERSION 0.7
FIELDS x y z rgb
SIZE 4 4 4 4
TYPE F F F U
COUNT 1 1 1 1
WIDTH 1173
HEIGHT 1
VIEWPOINT 0 0 0 1 0 0 0
POINTS 1173
DATA ascii
-144.82306 -68.842697 -15.010739 9735812
-144.1684 -68.757462 -15.930039 8617331
-143.40913 -68.700882 -16.619148 7893607
-143.06703 -68.596863 -17.630501 10591634
-142.77768 -68.510651 -18.470375 8354932
-142.6021 -68.459106 -18.973011 9406587
-135.95773 -68.876549 -29.808311 9602940
-135.90347 -68.851524 -30.621254 9077110
-135.7728 -69.028618 -31.509808 7498081
-94.907684 -69.244629 -104.11192 8616303
-94.193695 -69.067291 -104.66954 8748148
-93.478447 -68.891693 -105.22472 9932163
-161.85161 -67.707336 16.190697 10853012
-161.96861 -68.020439 15.729445 10195083
-142.42502 -68.407768 -19.474453 6511954
-141.77034 -68.357147 -20.084595 6841693
-141.05621 -68.290382 -20.85363 7039331
-140.69264 -68.189491 -21.842144 9933191
-140.32344 -68.089279 -22.826672 10195593
-139.94872 -67.989571 -23.807194 9406079
-139.31363 -67.921654 -24.532364 8089963
-139.11871 -67.761139 -25.744434 8353647
-138.50267 -67.538605 -26.497326 10129798
-136.9003 -67.58979 -28.254868 10064265
-136.6926 -67.817238 -28.91901 9603197
-136.47151 -68.005066 -29.748199 8287851
-136.27902 -68.166451 -30.532982 8484973
-94.341705 -68.089706 -105.00179 9669247
-93.648376 -67.963051 -105.5207 9998982
-93.019768 -68.058395 -105.89841 11051668
-162.27255 -66.838295 16.074013 8222064
-162.18805 -67.359512 15.829329 7564392
-137.78271 -67.267868 -27.224045 10129798
-137.25391 -67.304253 -27.982342 10261384
-137.35735 -67.224915 -28.865494 9735299
-94.365372 -67.227715 -105.3661 7367008
-93.789154 -67.082016 -105.81509 9209980
-93.00779 -67.088966 -106.33381 10065545
-92.488785 -66.733284 -106.83727 10855060
-162.56705 -65.883072 16.260818 7564392
-93.841957 -66.452888 -106.05721 8814966
-93.283806 -66.047707 -106.60859 7761765
-92.429718 -65.948166 -107.22284 9801860
-91.90847 -65.59568 -107.72633 10855060
-162.8055 -65.275009 16.28421 7564392
-93.404564 -65.31929 -106.84912 7367008
-92.826492 -64.989655 -107.38047 9078139
-91.959564 -64.987434 -107.96037 11381404
-92.892265 -64.18615 -107.69083 10065803
-92.191414 -64.182327 -108.16055 11381404
-91.517494 -63.889023 -108.73991 10723474
-92.393791 -63.180878 -108.46691 10920854
-91.667519 -63.019817 -109.02296 9736580
-91.051865 -62.897018 -109.48824 7762533
-92.407043 -62.328323 -108.83395 10262156
-91.87915 -61.981144 -109.33958 8222317
-91.089813 -62.00021 -109.8579 6840919
-91.284904 -61.136635 -110.10873 7038298
-90.539169 -61.045292 -110.562 8288365
-91.440079 -60.472252 -110.35463 7367263
-90.841263 -60.232868 -110.91449 8551538
-90.16378 -59.88448 -111.51557 8617336
-89.61731 -59.670254 -111.93676 5393730
-90.395142 -59.501801 -112.07351 5393219
-89.751091 -59.417095 -112.65348 5393730
-89.299423 -59.25441 -113.47761 5920076
-88.803436 -58.932186 -114.32143 6905946
-88.12429 -58.758907 -114.79446 7760739
-88.919571 -58.089561 -114.68235 7168860
-88.132904 -58.025806 -115.09038 7234652
-88.887169 -57.536015 -114.92477 7760994
-88.337784 -57.124271 -115.35615 7103066
-87.596725 -56.99271 -115.76688 7037274
-88.497253 -56.400345 -115.56309 7760994
-87.815155 -56.078388 -116.11105 6971737
-87.151054 -55.708797 -116.68346 6971992
-87.991791 -55.371639 -116.63274 7037274
-87.379578 -55.209652 -117.10398 7827301
-86.743454 -54.91568 -117.8128 9275004
-86.0662 -54.667225 -118.46056 8288366
-85.878708 -54.677769 -120.0051 8814711
-84.709038 -54.626415 -122.04475 7169630
-85.254791 -54.55608 -120.04778 7762027
-83.986176 -54.538429 -122.25529 8616819
-83.95697 -54.4832 -123.47336 8616819
-83.227547 -54.39484 -123.67654 8879991
-83.003677 -54.315926 -124.95139 7038298
-82.427238 -54.220303 -125.71522 8551281
-81.844208 -54.124233 -126.47271 10721935
-81.597076 -54.042202 -127.76061 11905692
-80.848221 -53.952728 -127.94106 8288108
-80.58683 -53.868938 -129.23302 9077111
-79.979378 -53.770199 -129.99104 9537663
-79.365471 -53.671005 -130.74249 9406847
-79.272224 -53.606815 -132.00793 9735812
-78.888077 -53.561371 -132.08719 9538686
-78.50412 -53.516132 -132.16553 12038050
-78.012444 -53.404804 -133.51332 11182998
-77.509293 -53.291935 -134.86841 13550517
-76.923843 -53.223438 -134.97467 7631202
-76.601311 -53.13166 -136.29764 6512978
-75.814514 -53.040024 -136.43102 8813945
-75.675346 -52.969471 -137.72662 7564650
-75.133926 -52.853466 -139.101 8089963
-74.541122 -52.788757 -139.20184 7564392
-74.192154 -52.699459 -140.56433 8945786
-73.395325 -52.612965 -140.69044 8616822
-73.633621 -52.587055 -141.96851 6511962
-73.031021 -52.521873 -142.05812 7564651
-72.658043 -52.42939 -143.43672 9341059
-72.050797 -52.363987 -143.51993 8419959
-71.664001 -52.269905 -144.90491 11116692
-70.651321 -52.108501 -146.37334 11248023
-70.241425 -52.011326 -147.77638 9537667
-69.619781 -51.945076 -147.84203 7038307
-123.22223 -78.49453 -55.993866 7564651
-125.40807 -77.589943 -50.286156 10655890
-125.04977 -77.791809 -51.157078 8880507
-124.71636 -77.931046 -52.025703 7367011
-124.4023 -77.970558 -52.953381 8353389
-124.08675 -78.013428 -53.881504 7038298
-123.76765 -78.103668 -54.764664 9932933
-123.44042 -78.343155 -55.496178 10196367
-114.45855 -78.273773 -71.602699 7563619
-113.93088 -78.099686 -72.359238 9208699
-113.31714 -77.98378 -73.188416 9537410
-112.71739 -77.935425 -73.960907 7695972
-112.11734 -77.890472 -74.731728 7300958
-111.51698 -77.848839 -75.501022 9142650
-110.91624 -77.810654 -76.268814 9866372
-110.39266 -77.687309 -76.990532 10260869
-126.00079 -76.855469 -49.323582 10787218
-125.65225 -76.946938 -50.296143 11116184
-125.34037 -76.979431 -51.22541 9406594
-125.03869 -76.93866 -52.210419 7038816
-124.75394 -76.974075 -53.051941 8945782
-124.33444 -77.279999 -53.988754 9340795
-113.38704 -77.426834 -73.426834 10984855
-112.9426 -77.204521 -74.108047 9471871
-112.39711 -76.977493 -74.917442 8024681
-111.79509 -76.936279 -75.68853 8089963
-111.19271 -76.898453 -76.458122 7169377
-110.58726 -76.969597 -77.167885 9997442
-109.93204 -77.014824 -77.954575 7300445
-109.3829 -76.804749 -78.758659 7037274
-127.55743 -75.644051 -46.477814 7958888
-127.11954 -75.764748 -47.536762 8024426
-126.64899 -76.003731 -48.512497 9208186
-126.31632 -76.029625 -49.505199 11247763
-126.00019 -76.055634 -50.434952 11116178
-125.64468 -76.177124 -51.298897 10524561
-125.32761 -76.277779 -52.102974 6841437
-112.01723 -76.20742 -75.838295 7103840
-111.44437 -76.040222 -76.709366 7038048
-110.82571 -76.107658 -77.439621 8945013
-110.23177 -76.123116 -78.166054 8089960
-109.6301 -76.097839 -78.935661 8221547
-109.07101 -76.0345 -79.685349 9076599
-108.55608 -75.858749 -80.487404 9076599
-107.98769 -75.720139 -81.362122 9734526
-130.08066 -74.487946 -42.48027 7103580
-129.71205 -74.563126 -43.400608 6116173
-129.2276 -74.669823 -44.19397 6116173
-128.78267 -74.799973 -45.055855 8813942
-128.24394 -75.01812 -45.911739 7432800
-127.89682 -75.062798 -46.879917 8945527
-127.53651 -75.136391 -47.81646 9208443
-127.15777 -75.251747 -48.705833 9208441
-126.73102 -75.39814 -49.666611 11247762
-110.58699 -75.489227 -78.416199 9339513
-109.9838 -75.387566 -79.289139 9142391
-109.47923 -75.29229 -80.031898 9471355
-108.92094 -75.158859 -80.887825 9339769
-108.36384 -75.106346 -81.643616 9208184
-107.70193 -75.056557 -82.371307 9076856
-107.34856 -74.716133 -83.283653 8353135
-106.60476 -74.630455 -84.081779 10326919
-133.78645 -73.731918 -35.49868 6249039
-133.68344 -73.858795 -36.276993 6709333
-133.45143 -73.977531 -37.301262 7498849
-132.73544 -74.166306 -38.00378 9932931
-132.23962 -74.16758 -38.986671 7301470
-131.76759 -74.185059 -39.972572 9735556
-131.35609 -74.213219 -40.80154 8287853
-130.68625 -74.331421 -41.633526 8287853
-130.48808 -74.362129 -42.438454 6511955
-130.40981 -74.353851 -43.282337 5393730
-106.85979 -74.501106 -84.406479 11247763
-106.42274 -74.404228 -85.189507 8157039
-105.74773 -74.36245 -85.945374 8486262
-105.36726 -74.240746 -86.784187 8353391
-104.61461 -74.226334 -87.65374 8419179
-104.41805 -74.227898 -88.646942 7564127
-104.06777 -74.229172 -89.561516 7038297
-103.42183 -74.229858 -90.313255 9669251
-102.77048 -74.230537 -91.060364 8353651
-102.41886 -74.231956 -92.074631 8616822
-102.0579 -74.233414 -93.088493 7565161
-101.38657 -74.234062 -93.825699 9143420
-100.80392 -74.235138 -94.759636 9011322
-100.53488 -74.23642 -95.649696 6709341
-99.936562 -74.237495 -96.578529 6446169
-99.240067 -74.238052 -97.300262 8024944
-98.952583 -74.239372 -98.189949 9537407
-98.698532 -74.035934 -99.278816 9340027
-97.979645 -74.015175 -99.888374 8419440
-97.368431 -73.819077 -100.40701 9406076
-134.18239 -72.804573 -34.68251 8813421
-134.11353 -72.858429 -35.355045 7433055
-134.00931 -72.94165 -36.365387 7827558
-133.84047 -73.253189 -37.128433 8156523
-98.176033 -73.144676 -100.16487 11050130
-97.42337 -73.071182 -100.70473 10195335
-96.840851 -72.765564 -101.23394 10195338
-134.67337 -71.630249 -33.772945 7036242
-134.48846 -72.004631 -34.459396 8681835
-134.43822 -71.925095 -35.539738 7761763
-134.28716 -72.194771 -36.267139 7235421
-98.172104 -72.390778 -100.50491 10261132
-97.66597 -72.01355 -101.01472 8222060
-96.891571 -72.00209 -101.5415 9011320
-96.323868 -71.844101 -101.99462 9538176
-161.61667 -70.570808 13.025619 9931651
-161.09146 -70.798302 12.395789 8484979
-160.66957 -70.826935 11.582465 8485238
-160.57162 -70.755295 10.601668 8681843
-159.50195 -70.74231 9.9482107 9208185
-159.39729 -70.671608 8.9762411 8681843
-158.81265 -70.630417 8.1727972 9471359
-158.22549 -70.589745 7.3754797 10261644
-158.08542 -70.506378 6.2218618 8551538
-157.03229 -70.495842 5.6080999 7762021
-156.93378 -70.441048 4.8460379 6182734
-135.15979 -70.461815 -32.858402 7366751
-134.97668 -70.832695 -33.546761 7694685
-134.86392 -70.927078 -34.638374 8879472
-134.66595 -71.303711 -35.500626 7235934
-97.626854 -71.212524 -101.39953 7038298
-97.047127 -71.113235 -101.83451 9011577
-96.281914 -71.046204 -102.37998 9998472
-95.773331 -70.676636 -102.88796 9538176
-161.93518 -69.747589 14.152907 7959149
-161.92963 -70.100479 13.444388 8747894
-156.85797 -70.399979 4.2751226 7564651
-156.29646 -70.374832 3.6920996 8879996
-155.70779 -70.336533 2.9246283 8090737
-155.57166 -70.269203 1.983016 9340545
-154.74483 -70.239716 1.2230673 9405563
-154.33432 -70.168091 0.10139376 8748149
-154.18556 -70.102112 -0.82925504 8089963
-153.15538 -70.095535 -1.3811426 10985622
-152.94852 -70.008133 -2.4871531 8813685
-152.72516 -69.914719 -3.4058352 8485232
-151.64999 -69.885277 -3.9343157 8682867
-151.37204 -69.773041 -5.0245371 7300958
-151.13562 -69.680016 -5.930337 9011320
-150.48335 -69.620071 -6.6341448 10326920
-149.78162 -69.542549 -7.5107775 13550517
-149.53545 -69.451164 -8.4036455 8090986
-135.38538 -69.846893 -32.798115 7959144
-135.28616 -69.919357 -33.811409 7234650
-135.15416 -70.107651 -34.702213 8682608
-97.12262 -70.13871 -102.21986 10392974
-96.518539 -69.993584 -102.69171 10327179
-95.868073 -69.865074 -103.18747 10326407
-162.21014 -68.964844 14.255034 9340028
-162.35236 -69.23452 13.479133 9931651
-149.38556 -69.396461 -8.9381304 6972762
-149.23404 -69.341949 -9.4715281 6972762
-148.40579 -69.310303 -9.9609423 6051666
-147.87073 -69.209015 -11.002183 6446426
-147.55257 -69.099854 -12.053754 11642012
-147.00827 -68.99939 -13.082593 9406337
-146.45992 -68.953041 -13.629552 9143934
-145.91077 -68.880638 -14.408654 9275005
-145.57574 -68.774094 -15.44101 9735812
-145.2348 -68.668175 -16.469353 6248786
-144.46611 -68.611458 -17.161907 6907487
-143.79855 -68.527794 -18.070072 12433322
-143.56407 -68.458549 -18.745243 12433322
-135.84319 -68.723488 -32.055592 6840151
-135.66829 -69.037521 -32.913036 7235165
-135.56967 -69.135773 -33.789528 6971993
-96.730652 -69.173126 -102.91611 9998470
-95.938942 -69.06205 -103.49911 8682096
-95.279251 -68.902008 -104.01512 9734270
-162.43283 -67.742928 14.997512 9208702
-162.5305 -68.103966 14.282516 10983824
-143.44565 -68.424042 -19.082085 7039331
-143.20674 -68.355217 -19.754265 6841693
-142.84395 -68.252472 -20.759495 7039331
-142.11945 -68.185486 -21.53273 10196620
-141.39459 -68.119453 -22.297665 13683134
-141.02014 -68.018867 -23.286423 10722451
-140.64011 -67.918861 -24.271118 10722451
-140.25452 -67.819489 -25.25177 9077370
-139.68033 -67.755447 -25.962734 8682867
-139.59966 -67.655212 -26.877045 8748403
-139.25298 -67.55098 -27.508518 10129798
-136.78171 -67.525887 -30.298634 7038298
-136.4556 -67.833633 -31.133751 9142132
-136.30353 -67.919777 -32.094303 7432028
-136.0116 -68.201904 -32.978607 6708309
-96.228729 -68.269432 -103.65865 9273976
-95.417557 -68.013283 -104.31697 8682096
-94.712822 -67.746475 -104.90533 10457992
-162.73991 -66.848991 15.091018 7761769
-138.81966 -67.390282 -27.946472 11576729
-138.2406 -67.176331 -28.526318 11380380
-137.51138 -67.084816 -29.312862 9734271
-137.29276 -67.118607 -30.236874 9208182
-137.05098 -67.206169 -31.137783 8155493
-136.83673 -67.291214 -31.870842 7563613
-95.76915 -67.014336 -104.52273 6709845
-94.960304 -66.993507 -105.07203 6644052
-162.83163 -65.890984 15.758857 7564392
-163.06047 -65.92292 15.219169 7564392
-95.763512 -66.220131 -104.87664 8485997
-95.175468 -66.130798 -105.3087 6512978
-94.400162 -66.076111 -105.85059 6050892
-93.879555 -65.718193 -106.35606 7367008
-163.18536 -64.881744 15.875014 8551538
-95.222153 -65.318497 -105.63566 9143670
-94.622749 -65.031265 -106.16261 7498594
-93.82164 -64.932335 -106.74119 7761766
-163.45186 -63.883865 16.148766 8748916
-94.704994 -64.116196 -106.51114 8222060
-94.136627 -63.94154 -106.9677 7300702
-93.351395 -63.969154 -107.47991 9143675
-163.75928 -62.842854 16.377731 7696228
-163.78075 -63.30291 15.981658 8288365
-94.156616 -63.223579 -107.2709 6511187
-93.433136 -63.081879 -107.81652 7959402
-92.764137 -62.83559 -108.37185 10460560
-93.821213 -62.094761 -107.99259 5919050
-93.005096 -61.995781 -108.58118 7893609
-92.437843 -61.599525 -109.13471 9538177
-93.805878 -61.309441 -108.34902 5919050
-93.298195 -61.01997 -108.81572 5787464
-92.424934 -61.05159 -109.38494 7366752
-91.898346 -60.842472 -109.82879 7366752
-93.198769 -60.380543 -109.22902 5919050
-92.659363 -60.236366 -109.72723 6445394
-92.019676 -60.019028 -110.40173 5524549
-91.548828 -59.669788 -111.13282 4734777
-91.459389 -59.461849 -111.73116 5392708
-91.113808 -59.394936 -112.13131 4142639
-90.675247 -59.155224 -113.15478 5064510
-90.025642 -58.857899 -113.8308 5920076
-90.257492 -58.100071 -114.02847 6577236
-89.514915 -57.832657 -114.49853 7037531
-90.368378 -57.168121 -114.35532 7892582
-89.643219 -57.046078 -114.75584 7037274
-89.010414 -56.994255 -115.08301 7037274
-89.762039 -56.369755 -115.02038 7563617
-89.099701 -56.042439 -115.57777 7168859
-88.469048 -55.732872 -116.10073 7760994
-89.45285 -55.499596 -115.93715 7037274
-88.791359 -55.251167 -116.60332 7235164
-88.162949 -54.958332 -117.32383 7301471
-87.550003 -54.798065 -117.79997 8090986
-86.781387 -54.883568 -120.039 6511954
-86.336136 -54.825008 -121.55758 7565675
-85.612877 -54.736645 -121.77614 7301989
-85.416672 -54.660549 -123.05583 6841178
-84.86911 -54.59399 -123.21433 6511954
-84.504211 -54.54961 -123.31876 6511954
-84.292328 -54.471668 -124.60178 6511954
-83.739899 -54.404797 -124.75323 8616819
-83.329773 -54.302891 -126.09081 9208700
-82.90889 -54.199413 -127.43591 10064265
-82.346542 -54.131958 -127.57639 11643036
-81.720581 -54.004086 -128.96843 9011574
-80.889648 -53.851879 -130.40736 9472125
-80.425674 -53.743214 -131.76439 7037274
-79.848831 -53.674919 -131.88705 9275005
-79.5625 -53.587219 -133.20702 7039322
-78.980934 -53.518753 -133.32361 7039322
-79.072754 -53.475353 -134.57448 7038298
-78.290726 -53.383541 -134.72299 9144188
-77.979927 -53.292641 -136.056 11182740
-77.388718 -53.223492 -136.16125 8814963
-76.866196 -53.10783 -137.53273 9603968
-75.931442 -52.944157 -138.97379 9274235
-75.588364 -52.85144 -140.33524 8089963
-74.989655 -52.786179 -140.43512 8616822
-74.437965 -52.674255 -141.84518 7169891
-73.468628 -52.516956 -143.32216 7169893
-73.093826 -52.42363 -144.71779 9735044
-72.480591 -52.35762 -144.79959 9011321
-71.885956 -52.240658 -146.22678 12563879
-71.694168 -52.166412 -147.61531 9209467
-71.071121 -52.099831 -147.68571 9209467
-70.449837 -51.979469 -149.12764 9734528
-122.99399 -78.521187 -56.606499 8749433
-122.5531 -78.501694 -57.480789 9341825
-123.78739 -77.708641 -55.174797 16247774
-123.50446 -77.892685 -55.834976 12170153
-123.17807 -77.969421 -56.690998 9144447
-122.73623 -77.949959 -57.566475 8420470
-122.21797 -78.108376 -58.405109 7762279
-121.7599 -78.08625 -59.271225 7959400
-121.22443 -78.064789 -60.280361 8814453
-120.68784 -78.047638 -61.288307 8945264
-120.22682 -78.036674 -62.151302 11116692
-119.76485 -78.029053 -63.013508 8485487
-119.30189 -78.024788 -63.874969 6906454
-118.83791 -78.023888 -64.735786 8879471
-118.37283 -78.02626 -65.595993 7695714
-117.90666 -78.032021 -66.455688 8352361
-117.43935 -78.041107 -67.314926 9273720
-116.97078 -78.053497 -68.173744 10458253
-116.50095 -78.069214 -69.032188 7366240
-115.97188 -78.049484 -69.855774 7827564
-115.37255 -77.986404 -70.63633 9077115
-114.81239 -77.8834 -71.391533 9998471
-114.33064 -77.696548 -72.098427 9406335
-124.8455 -76.51236 -53.319149 8682611
-124.51986 -76.730835 -54.06908 9340795
-124.14029 -76.959663 -54.973846 11643036
-123.82114 -77.008842 -55.906052 12497837
-123.48438 -77.05143 -56.831612 7893614
-123.04102 -77.031944 -57.709038 8551799
-122.56378 -76.968582 -58.642471 10328461
-122.01421 -77.014107 -59.626133 7301214
-121.50883 -76.960876 -60.603935 8419695
-121.04734 -76.946754 -61.470322 9735297
-120.58494 -76.935921 -62.335823 11972518
-120.12155 -76.928391 -63.200573 8683123
-119.6572 -76.924202 -64.064568 7103833
-119.19184 -76.923279 -64.92794 8616556
-118.72538 -76.925705 -65.790703 7498081
-118.25787 -76.931396 -66.652985 9142904
-117.7942 -76.985741 -67.470505 8286311
-117.26136 -77.135925 -68.342491 9273720
-116.79046 -77.151512 -69.203133 7498600
-116.28072 -76.993645 -70.088837 7498601
-115.71883 -76.888245 -70.847542 8551030
-115.06001 -77.011963 -71.592857 8879992
-114.34095 -77.086647 -72.441582 9274749
-113.74928 -76.957512 -73.251167 8157297
-113.11119 -76.657104 -74.218269 8879734
-125.81619 -75.762352 -51.595867 9932681
-125.54935 -75.741127 -52.490211 4867385
-125.22768 -75.824379 -53.303467 6248526
-124.90344 -75.862129 -54.234879 8419694
-124.56545 -75.940712 -55.116421 9273979
-124.149 -76.106026 -56.053535 9076089
-123.79881 -76.229797 -56.885502 6905435
-123.28445 -76.298721 -57.822865 7564651
-122.74804 -76.269989 -58.839363 11511711
-122.21062 -76.245544 -59.854443 10722195
-121.74899 -76.228233 -60.72337 9406334
-115.84875 -76.147438 -71.118622 8287859
-115.28948 -76.28167 -71.735039 8551029
-114.77939 -76.067566 -72.573273 9340801
-114.09577 -76.044937 -73.44175 8748921
-113.44751 -75.934868 -74.359558 8287853
-112.79274 -75.92469 -75.179771 9274492
-112.2837 -75.728653 -76.017502 8024170
-111.78566 -75.623016 -76.764748 7958634
-111.28625 -75.51963 -77.510994 7958634
-129.11044 -74.537315 -45.63485 6510930
-128.89734 -74.541679 -46.259697 6511442
-128.57439 -74.549355 -47.195824 7958888
-128.05003 -74.632599 -48.127731 9537408
-127.62621 -74.723106 -49.004475 9405819
-127.23483 -74.817474 -49.862423 9866365
-126.75298 -75.019402 -50.701694 11313555
-126.31017 -75.141609 -51.619492 10458505
-126.06425 -75.082024 -52.534435 5327680
-125.65958 -75.204422 -53.486023 4867385
-125.44081 -75.227577 -54.108109 8089963
-114.36452 -75.378265 -73.861427 8420470
-113.96835 -75.351601 -74.385872 8091247
-113.27316 -75.201385 -75.432358 9932166
-112.67554 -75.113991 -76.28093 9603202
-112.10268 -75.023712 -77.136703 9799807
-111.54577 -74.981163 -77.929153 8681842
-111.01238 -74.90136 -78.715675 8682354
-110.46958 -74.84845 -79.485634 9997698
-109.93568 -74.728569 -80.363007 9931905
-109.47414 -74.667526 -81.14283 8945013
-108.91362 -74.609604 -82.054527 9010806
-108.28807 -74.587364 -82.815903 8485238
-133.49866 -73.817726 -38.539085 9603968
-133.29349 -73.954353 -39.467758 9275261
-132.70058 -74.170364 -40.339027 9604226
-132.36021 -74.172043 -41.458633 8419696
-131.66916 -74.172302 -42.012581 7762022
-131.07652 -74.17556 -42.801468 5656902
-130.59573 -74.266922 -43.762421 7366752
-130.25897 -74.288193 -44.629967 7234909
-129.91559 -74.308891 -45.494278 8420463
-129.38004 -74.380356 -46.430901 6971737
-129.05591 -74.388031 -47.370579 7958888
-128.78265 -74.3955 -48.152683 8550769
-110.32059 -74.462692 -81.048988 10853004
-109.92214 -74.457092 -81.573959 9668734
-109.32168 -74.449814 -82.359291 8682358
-108.69724 -74.429878 -83.126076 7959151
-108.24284 -74.31118 -84.023247 7893099
-107.60091 -74.287323 -84.777382 10590091
-107.14391 -74.250252 -85.57238 10787471
-106.59674 -74.226265 -86.508354 9208700
-105.97281 -74.227013 -87.278488 8353391
-105.658 -74.228493 -88.304756 8879990
-105.33389 -74.230011 -89.330986 7958884
-104.68961 -74.230713 -90.091927 9471356
-104.03982 -74.231422 -90.848198 9471871
-103.67664 -74.232681 -91.767235 8222065
-103.56195 -74.234116 -92.645432 11642780
-102.78172 -74.234879 -93.517509 9866886
-101.99451 -74.235641 -94.383324 8814712
-101.7328 -74.236969 -95.280891 9406335
-101.46383 -74.238289 -96.178574 9077372
-100.77016 -74.238899 -96.9114 7564392
-100.36519 -74.09021 -97.982361 8814197
-99.74894 -73.929611 -98.669411 9142648
-99.14196 -73.747185 -99.244514 9734784
-134.06938 -72.63208 -37.075966 8682867
-133.88005 -73.015686 -37.762451 7630435
-133.82597 -72.965233 -38.749752 8682867
-133.68849 -73.211334 -39.408775 7762021
-100.47921 -73.386032 -98.50544 9143417
-99.974495 -72.999832 -99.01815 11248020
-99.137543 -73.053551 -99.557976 9734784
-98.630585 -72.812958 -100.00712 10590091
-134.3766 -71.828865 -36.856243 8024937
-134.2588 -71.957726 -37.825676 7432288
-134.08875 -72.271774 -38.592415 7169116
-99.439102 -72.140923 -99.76329 9866369
-98.594437 -72.009018 -100.39129 10457737
-98.087578 -71.630806 -100.90199 7038298
-161.92221 -70.545799 11.872039 10326409
-161.69865 -70.663666 11.071082 11247765
-161.55083 -70.696693 10.277366 11905692
-160.44728 -70.669815 9.4268713 10063492
-160.31543 -70.584717 8.2544851 9339772
-159.24243 -70.573174 7.6182547 9012088
-159.12537 -70.503242 6.6504278 7301470
-159.00351 -70.43354 5.6842031 6511954
-157.96332 -70.437271 5.2624197 6511954
-134.76022 -70.943817 -35.988773 5920074
-134.68951 -70.956635 -36.898518 7301727
-134.58577 -71.084 -37.684513 6971737
-99.579697 -71.401176 -99.999641 9011318
-99.003922 -71.051567 -100.54402 9471612
-98.187416 -70.943535 -101.14238 7893350
-162.35738 -69.805145 12.691886 8090479
-162.41718 -70.008301 12.040092 8484979
-157.88751 -70.395966 4.6874685 7563619
-157.78331 -70.341042 3.922164 9471872
-157.18846 -70.302299 3.1465216 10261902
-156.59126 -70.264099 2.3769751 8617080
-156.4218 -70.183144 1.2414007 8615790
-155.37326 -70.175545 0.66753298 9207670
-155.22527 -70.108925 -0.26981443 8418670
-155.07271 -70.042702 -1.2055063 9142907
-154.03156 -70.036453 -1.7580042 10261643
-153.81111 -69.944687 -2.8697176 8089963
-153.53317 -69.830566 -3.9771624 8748149
-152.49382 -69.820358 -4.3217134 7761253
-152.21045 -69.707718 -5.4173594 8156267
-151.92058 -69.595665 -6.5091829 6906456
-151.38176 -69.5186 -7.3420725 7695717
-150.59927 -69.476685 -7.9133577 8288109
-135.24918 -69.768799 -35.074165 7235934
-135.11566 -69.960732 -35.967552 5985867
-134.98103 -70.155411 -36.861763 7696485
-99.033485 -70.219917 -100.89635 9931649
-98.380692 -70.158592 -101.3635 8024936
-97.662468 -69.986298 -101.92443 7695972
-162.58171 -68.619118 13.497703 9931651
-162.69112 -68.937546 12.766715 7761515
-150.29767 -69.366653 -8.989583 6249039
-149.98901 -69.256805 -10.061864 8485745
-149.32451 -69.198593 -10.743909 9209214
-148.65973 -69.140961 -11.41882 9011323
-148.33611 -69.03141 -12.475274 11642012
-148.00638 -68.922508 -13.527837 8156529
-147.45079 -68.849258 -14.316384 7630185
-146.6743 -68.811745 -14.838658 7827303
-146.33394 -68.704842 -15.875707 7366752
-145.98761 -68.598518 -16.908714 8157555
-145.41937 -68.501602 -17.911934 7828589
-144.5946 -68.475502 -18.344429 9736326
-135.63901 -68.851341 -34.246803 6906713
-135.53928 -68.970657 -35.033367 6972762
-135.49326 -68.911072 -35.968159 5985867
-98.63723 -69.184448 -101.62668 8551540
-97.92157 -68.995735 -102.19326 9077882
-97.268112 -68.864601 -102.69214 9932934
-162.8808 -67.751411 13.600821 9800063
-162.97562 -68.052689 12.936576 8813939
-145.39749 -68.42263 -18.621578 9736326
-144.29692 -68.388588 -19.192169 9801863
-143.93452 -68.284927 -20.205772 8879734
-143.56633 -68.181816 -21.215332 8354418
-143.19252 -68.079323 -22.220825 10656914
-142.45715 -68.013123 -22.989937 10722451
-141.72153 -67.947876 -23.750641 11314843
-141.40094 -67.86422 -24.575111 10064265
-141.0762 -67.780975 -25.396549 8682867
-140.68159 -67.681725 -26.378551 7958888
-140.28149 -67.583031 -27.35643 8682867
-139.87598 -67.48494 -28.330074 9143162
-136.29608 -67.784172 -33.203552 6510930
-136.05405 -67.998215 -34.188736 6314576
-135.85307 -68.179131 -35.11433 7169885
-135.79306 -68.111809 -35.797707 7169885
-98.094124 -68.115936 -102.47076 9275004
-97.257019 -68.087448 -103.04742 9867141
-96.678154 -67.898544 -103.52194 8617331
-163.04901 -66.710716 14.32698 8813939
-163.11258 -67.031235 13.738372 10523529
-139.41853 -67.348228 -29.114758 8090218
-138.69472 -67.085678 -29.839619 8090218
-137.86525 -66.791641 -30.709259 8024422
-137.37894 -66.878525 -31.646801 6971734
-137.08569 -67.003548 -32.581768 6445391
-136.70299 -67.224121 -33.481453 5985097
-136.45665 -67.397537 -34.393837 5788488
-98.021347 -67.513863 -102.78931 8617331
-97.506073 -67.145844 -103.30108 8617331
-96.708237 -67.03495 -103.88625 7564642
-96.190445 -66.808395 -104.33216 6512978
-163.34402 -65.824371 14.465476 9142647
-163.44342 -66.143082 13.765647 9405819
-97.458618 -66.352898 -103.68613 9735555
-97.042145 -65.948334 -104.14264 8946295
-96.157135 -66.027817 -104.69857 8485997
-163.58865 -64.603241 15.167998 9209467
-163.65388 -64.921104 14.577407 9208954
-97.170143 -65.216934 -104.37968 10788244
-96.461792 -65.162788 -104.8765 11708572
-95.671478 -64.946342 -105.4997 11248277
-163.84003 -63.861107 15.270217 8551537
-163.93983 -64.097382 14.668769 8090218
-96.6278 -64.312553 -105.14056 12432037
-95.960327 -64.055077 -105.69976 11971485
-95.252129 -63.84623 -106.26475 10655883
-164.09929 -62.491573 16.012131 6511954
-164.11205 -62.944721 15.50022 9012088
-96.172897 -63.050304 -106.00083 11642521
-95.399437 -63.058865 -106.5136 9471611
-94.751083 -62.955135 -106.99229 5919050
-164.24751 -61.85606 16.225807 6775130
-164.47641 -61.993713 15.514876 9209214
-95.576797 -62.197563 -106.77488 8682099
-94.768974 -62.099895 -107.35738 5919050
-94.243721 -61.8843 -107.80318 5919050
-164.65726 -60.998627 16.199051 7367015
-95.562073 -61.232597 -107.21018 7498081
-95.035309 -61.01646 -107.65722 5787465
-94.225441 -60.922295 -108.2396 5458500
-93.695465 -60.572128 -108.7479 5195329
-165.19713 -60.121544 16.520409 9011323
-95.227081 -60.30349 -107.87323 5919050
-94.600266 -60.090824 -108.50784 4734780
-93.978508 -59.888401 -109.13983 4537402
-93.320572 -59.719036 -109.79603 5919050
-92.794563 -59.587479 -110.35427 3024936
-93.714867 -59.418964 -110.36323 3024936
-92.891113 -59.401493 -111.00611 3024936
-92.481682 -59.248726 -111.92849 3550760
-92.111801 -58.954998 -112.72822 4142639
-91.340996 -58.974907 -113.14426 4274226
-92.043579 -58.175632 -113.12838 5524293
-91.331161 -58.112064 -113.50231 5524549
-90.783287 -57.694927 -113.93911 7037274
-91.637924 -57.170944 -113.74153 5919050
-90.856522 -56.807446 -114.27067 7629410
-91.201752 -56.165348 -114.57301 8945013
-90.474075 -55.87096 -115.17112 12432039
-90.044708 -55.344395 -116.06503 7827044
-89.674362 -55.065365 -117.08746 6511955
-88.130753 -55.097607 -119.76637 6511954
-87.598679 -55.005875 -120.55346 6314576
-87.059654 -54.913593 -121.33456 6248272
-86.694695 -54.816338 -122.67827 6510930
-86.146881 -54.749485 -122.84144 6643030
-85.581985 -54.627998 -124.2402 6577748
-84.844925 -54.538544 -124.44836 6511954
-84.630997 -54.459846 -125.74408 7368037
-84.222015 -54.357307 -127.0995 6709078
-83.471481 -54.266968 -127.2931 7563619
-83.234131 -54.185123 -128.60248 7563619
-82.477097 -54.094479 -128.78767 10458505
-82.225349 -54.010845 -130.1015 7629920
-81.77314 -53.903015 -131.4693 6248782
-81.002998 -53.811607 -131.63927 7037274
-80.727112 -53.724766 -132.96675 9077882
-79.950516 -53.633053 -133.12798 9735812
-80.247421 -53.613491 -134.34401 7038307
-79.659882 -53.544327 -134.46014 7038298
-79.361282 -53.454395 -135.80278 16777207
-78.76899 -53.38496 -135.91264 11841960
-78.257935 -53.270046 -137.29587 6512978
-77.661118 -53.200443 -137.39903 6512978
-77.334244 -53.106907 -138.75145 8880249
-76.796448 -52.988598 -140.14622 12629416
-76.189926 -52.918411 -140.23788 8089963
-75.646072 -52.805473 -141.65363 7892842
-74.889359 -52.670601 -143.11259 7564392
-74.52681 -52.578133 -144.51892 6511962
-73.912338 -52.511841 -144.60551 9011321
-73.329437 -52.395554 -146.04518 9011321
-72.710373 -52.32909 -146.12462 11906725
-72.525986 -52.255405 -147.51773 11511194
-71.916367 -52.135731 -148.97255 8090987
-71.287445 -52.068684 -149.04036 9406076
-71.082886 -51.992027 -150.45634 9208185
-117.74907 -76.577614 -67.868759 10853012
-117.43534 -76.58625 -68.443558 9734530
-116.96388 -76.601807 -69.305542 7038307
-116.63696 -76.606163 -69.872887 7038307
-124.67088 -75.599594 -55.566895 5918026
-124.44865 -75.627396 -56.188034 8286573
-123.95676 -75.764511 -57.228916 8023916
-123.42572 -75.81678 -58.147919 8156270
-122.94318 -75.772675 -59.114407 11511711
-122.48669 -75.755478 -59.988853 10722194
-122.02856 -75.741051 -60.861954 11182745
-121.47463 -75.891006 -61.686359 9209979
-121.01248 -75.881516 -62.555862 10196618
-120.54885 -75.874947 -63.424343 7301470
-120.08369 -75.871361 -64.29184 6643540
-119.61695 -75.870682 -65.158447 9143161
-119.14868 -75.87294 -66.02417 7563875
-118.67875 -75.878113 -66.889053 9143419
-118.20719 -75.886215 -67.753242 10129545
-117.73392 -75.89727 -68.616707 10524304
-117.259 -75.911247 -69.479492 7038307
-116.73483 -75.897453 -70.313309 8551030
-116.2245 -75.755081 -71.100716 9077373
-115.54541 -75.789551 -71.893356 9011833
-127.12543 -74.598961 -51.23695 10984590
-126.89516 -74.609024 -51.856377 9997953
-126.54633 -74.625221 -52.784477 5656645
-126.08994 -74.719933 -53.802246 5656647
-125.54355 -74.911446 -54.69051 6972512
-125.17089 -74.980759 -55.607956 6839385
-124.77405 -75.052879 -56.623356 8286573
-124.38489 -75.082855 -57.561279 8813687
-123.82961 -75.17514 -58.440872 7892839
-123.37299 -75.155251 -59.319603 9669507
-122.91476 -75.138077 -60.196987 10919573
-122.45478 -75.12365 -61.073036 14406084
-121.99313 -75.111984 -61.947819 8486512
-121.52974 -75.103035 -62.821381 8486512
-121.06454 -75.096848 -63.693817 6775126
-120.59756 -75.093391 -64.565086 7826790
-120.11565 -75.169838 -65.334457 9800578
-119.55413 -75.249252 -66.247307 8748661
-119.08228 -75.254196 -67.114929 9538176
-118.60853 -75.261856 -67.981674 10129545
-118.1328 -75.272278 -68.847534 7038307
-117.65517 -75.285439 -69.712616 7038307
-117.1349 -75.192719 -70.648788 9471873
-116.64375 -75.068367 -71.410309 8879734
-115.94987 -75.173622 -72.143204 8353646
-115.3567 -75.127579 -72.935799 9143165
-114.90257 -74.956055 -73.815804 8749178
-114.44165 -74.78463 -74.692459 8222834
-113.9215 -74.728333 -75.48288 9866374
-113.34642 -74.625854 -76.448021 9405823
-112.85798 -74.582748 -77.276001 10063495
-133.48491 -73.643562 -40.048706 6511954
-133.34586 -73.893906 -40.708252 7959400
-133.21947 -73.987854 -41.724293 9340286
-132.63086 -74.174477 -42.684143 7630436
-131.97849 -74.175018 -43.355339 6051404
-131.44139 -74.176201 -44.323891 5393730
-131.12131 -74.177567 -45.274498 9210491
-130.61575 -74.18766 -46.16045 7827814
-130.08945 -74.202667 -46.93523 7367007
-129.43039 -74.228844 -47.860168 9274237
-128.97879 -74.278908 -48.756554 9405823
-128.57939 -74.328568 -49.493729 9142651
-128.24104 -74.340775 -50.430893 9274232
-127.76627 -74.402534 -51.278095 10787212
-127.25455 -74.453041 -52.359226 7366237
-126.90306 -74.469803 -53.290421 4998716
-126.6665 -74.481636 -53.910393 4867385
-112.69473 -74.424805 -78.28318 8617075
-112.02227 -74.421677 -79.137199 8748917
-111.41985 -74.397491 -80.010918 9932162
-110.92683 -74.372002 -80.75486 9734526
-110.43441 -74.297897 -81.745522 9142649
-109.99371 -74.262978 -82.778114 8287859
-109.4982 -74.247955 -83.524773 7498601
-109.28513 -74.225189 -84.405914 8485238
-108.67635 -74.22599 -85.195473 9340027
-108.06175 -74.226768 -85.980598 10261643
-107.33749 -74.227646 -86.890892 9801092
-107.03103 -74.229195 -87.926445 9208700
-106.82095 -74.230583 -88.833916 8813942
-106.18016 -74.231323 -89.605576 7892584
-105.5339 -74.23204 -90.372597 9931906
-104.9849 -74.23317 -91.334488 10063492
-104.74989 -74.234573 -92.240524 7169635
-104.18492 -74.235695 -93.19783 8945783
-103.51274 -74.236366 -93.950386 9735297
-102.99036 -74.237427 -94.839752 9077627
-102.84396 -74.238663 -95.62104 11049616
-102.40748 -73.944817 -96.658882 11050387
-101.59657 -74.087914 -97.365181 11445401
-101.07515 -73.832748 -97.903969 9932676
-133.79405 -72.833855 -39.834297 6774870
-133.67213 -72.973351 -40.807777 7301214
-133.49852 -73.297066 -41.57621 9603202
-102.43285 -73.168846 -97.09008 11905951
-101.89988 -73.197968 -97.579033 10656141
-101.13713 -73.079895 -98.199211 9143417
-100.55279 -72.762329 -98.735001 10787727
-134.18289 -71.935692 -38.969685 6839895
-134.10799 -71.957573 -39.883812 7037274
-134.00087 -72.093506 -40.672897 7629923
-101.89796 -72.406204 -97.98819 7564643
-101.39104 -72.017792 -98.503548 7564643
-100.61065 -71.993729 -99.040001 9340282
-100.04001 -71.825439 -99.499779 9011318
-162.2085 -70.510666 10.517425 12891820
-161.87582 -70.5839 9.7106314 11050129
-161.3996 -70.596565 8.8992682 8879479
-161.28519 -70.525429 7.9169226 9537152
-160.20009 -70.51416 7.2793417 9142651
-160.0791 -70.443962 6.3060827 10129801
-134.68015 -70.747391 -38.060966 6379857
-134.54738 -70.917999 -39.028854 7300702
-134.396 -71.145432 -39.969387 7432288
-101.35864 -71.209862 -98.886971 8089955
-100.77528 -71.100533 -99.328857 9537145
-100.00491 -71.020767 -99.883499 8748403
-99.495972 -70.640289 -100.3967 9011318
-162.77499 -69.727531 11.382682 10721422
-162.77356 -69.995255 10.751624 10721422
-159.9534 -70.373993 5.3344412 9011321
-158.87617 -70.364235 4.7198477 9932679
-158.71683 -70.281456 3.5648565 11906725
-158.11417 -70.242744 2.7861242 8287858
-157.50928 -70.204575 2.0134878 6445653
-157.33521 -70.123291 0.87174135 6971480
-156.27524 -70.116028 0.29706484 7563360
-156.12347 -70.049164 -0.64534086 9733757
-155.69586 -69.977859 -1.7719202 8682615
-154.88281 -69.963646 -2.325738 8616307
-154.6774 -69.879265 -3.2564821 9142907
-154.39392 -69.764755 -4.3695688 9603456
-153.59828 -69.720154 -4.9680452 10326923
-153.05533 -69.641747 -5.8145151 8551026
-152.75995 -69.529228 -6.9117136 7630181
-152.55969 -69.454491 -7.6411409 7367525
-151.52428 -69.447128 -7.959096 6643287
-135.07538 -69.817986 -37.237385 6249039
-134.97162 -69.92778 -38.126793 6643541
-134.85989 -70.020607 -39.199821 7498081
-100.84219 -70.274696 -99.653358 10720907
-100.25268 -69.963951 -100.18963 9800577
-99.488136 -69.951149 -100.71033 10523272
-162.9868 -68.513046 12.344855 8484979
-163.08023 -68.869781 11.61785 10655629
-152.40732 -69.398712 -8.1868792 6972766
-151.37256 -69.391747 -8.5009089 5920074
-151.11598 -69.299644 -9.4017191 5920074
-150.79932 -69.188271 -10.478978 7039331
-150.52968 -69.09539 -11.373681 7039331
-149.68237 -69.064171 -11.857163 9011579
-149.12547 -68.962334 -12.901258 11510426
-148.79028 -68.852966 -13.958665 7498857
-148.50641 -68.762314 -14.836869 10656658
-147.77655 -68.721413 -15.378789 8485489
-147.09758 -68.634964 -16.314865 11577760
-146.7458 -68.528267 -17.352566 8749435
-146.50819 -68.457512 -18.042229 7565675
-135.54207 -68.659134 -36.547638 6643541
-135.36511 -68.998611 -37.306866 6117453
-135.24777 -69.103058 -38.412003 6117453
-100.35742 -69.035286 -100.53469 11970975
-99.58252 -69.101059 -101.02726 9931907
-99.014412 -68.845047 -101.52456 7894126
-163.25409 -67.862816 12.285361 8748147
-163.43631 -67.964485 11.586089 8813940
-146.328 -68.404587 -18.558163 8354163
-145.81622 -68.352089 -19.150566 8748917
-145.35742 -68.296494 -19.757778 9011320
-144.66747 -68.213951 -20.661774 7695716
-144.2939 -68.110504 -21.675777 9209211
-143.91458 -68.007683 -22.685589 10327692
-143.5943 -67.92247 -23.524101 8682867
-142.95892 -67.859802 -24.237137 8814453
-142.37788 -67.799332 -24.917984 8748661
-141.77344 -67.708809 -25.872322 8485232
-141.3735 -67.609177 -26.858479 7498081
-140.97882 -67.515335 -27.842499 9668994
-140.72878 -67.460678 -28.499569 9011064
-136.16107 -67.631393 -35.718689 6709590
-135.93401 -67.840294 -36.535892 5656902
-135.74747 -67.996277 -37.489529 6643541
-135.55196 -68.302101 -38.189781 7169885
-99.931 -68.198181 -101.19663 8748921
-99.117722 -67.945541 -101.85751 7630954
-98.536537 -67.744522 -102.33898 8814457
-163.37976 -66.805687 13.165954 8813939
-163.56723 -66.918106 12.437057 8419439
-140.52386 -67.412491 -28.987984 7760997
-140.15857 -67.322609 -29.795395 6510930
-139.78983 -67.233116 -30.59977 8090474
-138.9938 -66.941376 -31.307262 7892838
-138.25009 -66.676208 -32.019451 6971734
-137.70221 -66.506912 -32.770069 5721670
-137.33777 -66.659996 -33.735138 5854023
-136.93054 -66.884659 -34.72242 6511954
-136.61427 -67.06385 -35.610687 6117453
-136.40352 -67.194878 -36.485001 5393730
-99.508301 -67.122482 -101.96281 7696747
-98.55513 -67.063583 -102.63126 8880248
-97.929123 -66.762779 -103.18755 8617331
-163.75508 -65.85424 13.129081 9405819
-163.98347 -65.84481 12.418197 9866115
-137.76003 -66.262207 -34.18964 7169368
-99.436104 -66.519562 -102.28131 7894126
-98.918915 -66.149315 -102.79543 10064522
-98.117744 -66.035698 -103.38503 10064521
-97.644501 -65.62542 -103.8828 10788244
-163.92209 -64.693642 14.003837 8090218
-164.06796 -64.960701 13.219748 8419182
-98.999214 -65.242462 -103.14641 11906725
-98.398636 -64.944717 -103.67928 11314588
-97.565994 -65.025848 -104.19952 10788244
-164.2708 -63.757618 14.032752 8550769
-164.31116 -64.198799 13.371711 8616562
-98.426567 -64.081337 -104.0413 11117209
-97.731293 -64.149887 -104.47537 11511967
-97.003403 -63.97105 -105.04028 11840674
-164.38464 -62.791565 14.840682 10525071
-164.60852 -62.85083 14.060874 8090218
-97.913795 -63.106987 -104.81327 12103586
-97.152817 -62.99736 -105.36979 11577498
-96.548409 -62.708073 -105.90095 11905692
-164.72699 -61.871025 14.870688 10130316
-164.85072 -62.090179 14.214423 7761512
-97.510521 -62.074841 -105.53766 10459531
-96.612625 -62.011242 -106.1653 10524555
-95.998711 -61.811813 -106.66325 9340027
-165.0249 -60.654991 15.833587 7695979
-165.07654 -61.012699 14.951926 9604230
-96.989944 -61.189526 -106.27566 10524554
-96.178558 -61.089066 -106.86179 9537403
-95.696022 -60.690849 -107.35957 6971735
-165.87917 -59.587669 16.454567 9011323
-165.52835 -60.030659 15.828429 8814202
-96.9356 -60.406433 -106.66505 9208435
-96.459976 -60.084332 -107.23711 7366492
-95.725052 -59.964142 -107.84623 5721671
-95.12249 -59.760349 -108.4517 4471609
-95.628571 -59.464973 -108.84877 4932158
-94.73642 -59.413197 -109.73408 4800574
-94.450287 -59.072571 -110.86335 4735037
-93.756218 -58.94381 -111.48852 3616815
-93.055206 -58.8134 -112.10631 4077107
-94.131866 -58.050644 -111.66059 4800829
-93.349716 -58.059418 -112.25002 5590086
-92.620796 -57.927788 -112.86367 5655879
-94.121849 -57.501846 -111.92062 5919050
-93.591217 -57.232811 -112.46049 6182993
-92.821411 -57.115799 -113.10651 6248272
-92.188011 -56.839592 -113.62861 5919050
-93.083878 -56.444645 -113.42397 6643030
-92.378662 -56.160484 -114.09398 6445394
-91.741577 -55.779995 -114.79411 7958120
-92.053307 -55.486515 -115.23782 8221292
-91.226273 -55.405369 -115.62165 8813683
-90.883247 -55.287991 -116.90568 6775125
-89.385201 -55.252384 -119.35149 7761766
-89.230972 -55.180336 -120.6442 5920074
-88.507126 -55.091274 -120.87789 5985614
-87.973511 -54.972656 -122.28899 5919821
-87.242722 -54.88324 -122.51275 6248787
-87.056946 -54.807396 -123.81309 6576980
-86.498627 -54.712643 -124.60284 6380370
-85.933258 -54.617405 -125.38633 6380882
-85.536415 -54.51569 -126.75164 7368037
-84.972969 -54.44775 -126.90211 6973278
-84.560104 -54.344208 -128.27002 6709078
-83.991608 -54.275902 -128.41411 10064265
-83.562622 -54.170502 -129.78452 7893095
-83.122498 -54.063499 -131.1629 9011315
-82.544067 -53.994667 -131.29561 5393730
-82.087601 -53.885811 -132.67625 5393730
-81.504242 -53.816711 -132.80238 7893096
-81.031448 -53.705921 -134.18536 8090737
-80.54718 -53.593662 -135.57622 7038307
-79.953995 -53.523933 -135.69044 15132124
-79.852005 -53.456364 -137.01076 13487042
-79.054604 -53.363083 -137.15523 8617588
-78.739777 -53.270481 -138.51805 8616563
-78.213852 -53.152946 -139.92435 7039331
-77.606049 -53.082367 -140.02084 7039331
-77.063324 -52.962925 -141.42929 8945271
-76.452423 -52.893234 -141.52141 9866371
-76.31282 -52.82502 -142.89189 10326921
-75.347084 -52.666832 -144.39961 6511962
-74.776085 -52.551235 -145.8517 9734788
-74.155685 -52.484467 -145.93593 7563619
-73.775673 -52.389355 -147.36452 8090728
-72.756195 -52.225422 -148.87819 8419951
-71.929115 -52.082062 -150.37054 8090987
-71.513374 -51.982479 -151.82875 9734528
-126.42787 -74.494194 -54.529854 8287859
-126.18719 -74.507484 -55.148701 7432808
-125.82271 -74.528488 -56.075825 8222066
-125.45389 -74.550926 -57.001663 8616309
-124.90726 -74.602005 -57.937534 7893358
-124.38674 -74.63092 -58.701576 7629927
-123.94345 -74.620377 -59.591518 7300446
-123.49751 -74.612015 -60.479931 7564133
-123.04763 -74.605072 -61.366131 10722962
-122.59374 -74.599518 -62.250225 8486512
-122.13587 -74.595428 -63.132057 8092011
-121.67403 -74.59272 -64.011711 8156525
-121.20824 -74.591476 -64.889175 9011063
-120.59262 -74.678284 -65.732643 9668736
-120.09725 -74.708893 -66.545769 8748405
-119.62111 -74.712448 -67.416191 9472128
-119.14169 -74.717903 -68.284798 8551026
-118.65903 -74.72525 -69.151779 7169891
-118.17308 -74.734497 -70.017036 7630186
-117.72121 -74.700935 -70.854988 9077371
-117.1975 -74.625702 -71.649582 8353390
-116.48344 -74.638824 -72.472595 7761253
-115.92245 -74.615486 -73.290688 8550770
-115.54672 -74.600578 -73.834572 10261132
-133.39253 -73.477249 -42.131222 8418928
-133.25 -73.716095 -42.894554 8287598
-132.95522 -73.950745 -43.997955 7696229
-132.55209 -74.070953 -44.752918 7366751
-131.90948 -74.178818 -45.543037 8090730
-131.58061 -74.180176 -46.496956 8288621
-131.2449 -74.181503 -47.448479 6511442
-130.51126 -74.182198 -48.254829 8485488
-129.77283 -74.182884 -49.053001 8418928
-129.4187 -74.184227 -49.991409 9142651
-129.05777 -74.185524 -50.927265 7761508
-128.42314 -74.223381 -51.825768 7366237
-128.02386 -74.239548 -52.672325 6050379
-127.65699 -74.248596 -53.603539 5458755
-127.02234 -74.326019 -54.421505 7432808
-126.66101 -74.345596 -55.353584 8682616
-126.29531 -74.366623 -56.284199 9537667
-125.92522 -74.389099 -57.213573 11839646
-125.67208 -74.40239 -57.830601 7038307
-117.38817 -74.499107 -72.056244 7037274
-116.92141 -74.478531 -72.742653 7037274
-116.35818 -74.455093 -73.563637 8485232
-115.85282 -74.39106 -74.519356 9800838
-115.43794 -74.331932 -75.337074 8683385
-114.86317 -74.312805 -76.150818 9669252
-114.28797 -74.297073 -76.963715 9142651
-113.71874 -74.288872 -77.780121 10458766
-113.38533 -74.219254 -78.758652 9341054
-112.81707 -74.220146 -79.577972 9735812
-112.24303 -74.221016 -80.393196 9735812
-111.66305 -74.221886 -81.204201 8089963
-111.41018 -74.223473 -82.254601 8419701
-111.03191 -74.224625 -83.115852 8617080
-110.54703 -74.225906 -84.108589 10392719
-109.94023 -74.226685 -84.907265 8485238
-109.32776 -74.227524 -85.701553 9011576
-108.70957 -74.22831 -86.49144 9537664
-108.4107 -74.229843 -87.536934 8813685
-108.1024 -74.231377 -88.582565 10985622
-107.46346 -74.232124 -89.363449 10721939
-106.81884 -74.232864 -90.139809 8089963
-106.16867 -74.233612 -90.91143 9471356
-106.07126 -74.235092 -91.80249 9010806
-105.70686 -74.236389 -92.73851 7695462
-105.15246 -74.074249 -93.754204 8090987
-104.59893 -73.960464 -94.471687 9340540
-103.93938 -73.901169 -95.189941 10787728
-103.25656 -73.759048 -96.001747 9866628
-102.82007 -73.555626 -96.522408 10261641
-133.62875 -72.845978 -42.029076 8682100
-133.51524 -72.923607 -43.194023 8418928
-133.36365 -73.175728 -44.013527 10656656
-104.74226 -73.134651 -94.905136 9143417
-104.19044 -73.047874 -95.475899 10261641
-103.45879 -73.018379 -96.188805 9011833
-102.78569 -72.956703 -96.862389 10590349
-102.2887 -72.791191 -97.421249 11905951
-134.23009 -71.47081 -40.62468 7959144
-134.03772 -71.86161 -41.31657 7958376
-133.91418 -72.004303 -42.296009 8024170
-133.82944 -72.08213 -43.067993 7958377
-104.21413 -72.362587 -95.804848 8683898
-103.71123 -72.093781 -96.422279 9801348
-102.97745 -72.067757 -97.135475 11314071
-102.2863 -71.99958 -97.829514 9143418
-101.81947 -71.638824 -98.384544 7564643
-162.30482 -70.51722 9.1479712 8681843
-162.33105 -70.510864 8.3639441 10260875
-162.23929 -70.451187 7.3777838 9668995
-161.14127 -70.44043 6.740386 10260875
-134.45894 -70.848907 -40.576157 7959144
-134.35141 -70.985435 -41.368965 8682867
-134.27383 -71.012886 -42.290848 7695461
-103.66795 -71.345932 -96.847221 10261641
-103.22768 -71.144669 -97.370247 9208954
-102.62325 -70.940056 -98.051666 8024426
-101.86221 -70.948814 -98.661995 8945010
-163.14111 -69.782814 10.051833 9340283
-163.03481 -70.164345 9.2695303 8221804
-160.98985 -70.355881 5.5665045 7695205
-160.38023 -70.316017 4.7687063 7563619
-159.7684 -70.276634 3.9772711 8484977
-159.63026 -70.207428 3.0099401 9011321
-158.8629 -70.178986 2.2905645 8156267
-158.40587 -70.130821 1.454154 6511954
-158.25624 -70.062851 0.49775606 8089447
-157.15393 -70.042496 -0.26733488 6971480
-156.99756 -69.97551 -1.21457 8287859
-156.83585 -69.908813 -2.1598368 8287859
-155.73024 -69.886139 -2.8995409 9537664
-155.50293 -69.793953 -3.8344049 11643036
-155.26141 -69.698166 -4.7662706 10195078
-154.39175 -69.628448 -5.6122179 9208697
-153.85735 -69.556221 -6.4001207 7761509
-153.65662 -69.480919 -7.1351519 6972510
-134.95747 -69.657425 -39.664886 7893095
-134.78635 -69.973351 -40.438957 8090730
-134.6646 -70.110596 -41.420837 7498593
-102.8548 -70.079941 -98.27198 7563619
-102.0789 -70.152924 -98.870689 9010805
-101.29901 -69.909607 -99.509087 10852749
-163.34744 -68.85611 10.789123 8156522
-163.52872 -68.961311 10.088569 8419437
-153.50433 -69.424599 -7.6853266 7367525
-153.29846 -69.349785 -8.4171801 6840923
-152.49788 -69.308052 -8.9912233 6643287
-151.93912 -69.231354 -9.8181391 6644314
-151.61542 -69.118912 -10.900495 9341057
-151.34114 -69.025681 -11.799439 10524560
-150.65929 -68.967911 -12.479966 9998215
-149.92075 -68.892548 -13.331792 7959407
-149.57999 -68.782784 -14.39409 7498857
-149.29152 -68.691765 -15.276315 8748662
-148.77437 -68.609947 -16.131947 8486003
-147.86681 -68.564407 -16.758553 11775140
-147.56958 -68.475159 -17.627579 9341571
-135.35312 -68.724754 -38.838478 6249039
-135.2178 -68.966927 -39.505741 8090475
-135.1631 -68.917625 -40.507519 8945784
-134.97267 -69.304253 -41.204361 7235421
-102.26777 -69.293549 -99.132256 10063234
-101.67542 -68.980309 -99.671501 8747629
-100.97855 -68.984314 -100.13908 14075837
-163.73279 -67.82782 10.813575 8682355
-163.74298 -68.291908 10.22013 7038298
-147.38925 -68.421761 -18.147625 7565675
-147.2074 -68.368546 -18.666527 9208443
-146.90083 -68.280312 -19.529049 9208443
-146.30969 -68.18412 -20.53059 7367007
-145.62323 -68.132996 -21.15321 9274492
-145.02655 -68.038582 -22.140759 9866885
-144.70644 -67.95256 -22.986362 8946039
-144.38214 -67.866959 -23.828869 9472383
-143.98785 -67.764816 -24.836124 10130570
-143.28928 -67.691826 -25.715477 8814710
-142.47893 -67.63752 -26.353359 7234909
-142.10428 -67.552147 -27.349468 7497825
-141.7923 -67.483513 -28.177608 8353134
-135.97943 -67.589417 -37.779881 7169885
