# .PCD v0.7 - Point Cloud Data file format
VERSION 0.7
FIELDS x y z rgb
SIZE 4 4 4 4
TYPE F F F U
COUNT 1 1 1 1
WIDTH 1219
HEIGHT 1
VIEWPOINT 0 0 0 1 0 0 0
POINTS 1219
DATA ascii
139.57018 -71.876305 -0.64748633 9800833
78.501892 -71.758125 110.0062 9998471
77.694214 -71.65789 110.44128 8618106
77.149559 -71.434692 110.79725 9736329
139.67213 -70.595863 -2.2609925 10129801
139.75066 -70.845718 -1.5228487 9998215
139.73447 -71.266663 -0.91770422 9735296
77.98098 -70.805077 110.64439 8289140
77.128593 -70.587257 111.14863 8354934
139.98668 -69.747826 -2.2670388 10853007
140.08859 -69.893433 -1.595225 10721679
78.068909 -69.87207 110.97697 7039331
77.374954 -69.640129 111.40946 8618105
76.680794 -69.410149 111.84126 8618105
140.24178 -68.906517 -2.486834 10326664
77.552681 -68.641144 111.72469 8946813
76.808952 -68.607536 112.10172 9341570
140.47513 -67.723137 -3.1945825 12497573
140.61441 -67.928307 -2.4827065 9734528
76.912277 -67.804092 112.37463 9999243
76.231422 -67.543587 112.81219 11380380
140.59259 -66.575043 -3.9719262 7563619
140.82074 -66.831291 -3.1732545 10589839
77.045403 -66.913773 112.6679 9669508
76.411919 -66.657516 113.08064 10328208
75.793068 -66.475586 113.45629 9933708
140.89798 -65.731773 -4.0380006 9340030
141.04413 -66.016975 -3.4424043 8616307
76.541222 -65.728302 113.39146 11511968
75.790779 -65.501114 113.84968 9670536
141.20068 -64.832947 -4.1609712 10260875
76.030342 -64.64138 114.07864 9999501
75.17627 -64.592659 114.51569 11841189
141.32512 -63.766296 -4.8465219 9734784
141.44464 -64.0214 -4.339499 10129797
76.105598 -63.812519 114.37548 9670534
75.337608 -63.73732 114.78117 11117466
141.59772 -62.804966 -5.0955949 9735040
141.72321 -63.307861 -4.3491921 9208435
75.603775 -62.760082 115.04436 11841188
74.804604 -62.629314 115.48772 9012089
141.70189 -61.862202 -5.7149186 8813686
141.96921 -61.819256 -5.1397042 9471867
75.614922 -61.886105 115.39068 11709345
74.966782 -61.616154 115.81628 10591121
74.314217 -61.495609 116.18385 8354159
142.12889 -60.844635 -5.8357759 9471871
75.129646 -60.831024 116.06945 11248795
74.438042 -60.528122 116.61839 10064264
73.702812 -60.314896 117.13844 11182233
142.94788 -59.422173 -7.4880357 9735300
142.49695 -59.890285 -6.7353578 8945528
142.55109 -60.158234 -6.0939546 10722194
74.700356 -59.83419 117.05128 10129545
73.97245 -59.675201 117.5694 10261131
73.364639 -59.417015 118.15653 10458510
72.792351 -59.300301 118.63392 8682867
147.40891 -58.660854 -15.551974 9603460
147.08247 -59.028431 -14.803618 8222320
146.64755 -59.062412 -13.812945 9274493
146.022 -59.061337 -12.930045 9142651
145.40002 -59.060265 -12.055861 8089963
145.12666 -59.058552 -11.098197 10589580
144.50223 -59.057522 -10.238025 10853262
144.22107 -59.055836 -9.2905531 9472124
143.46019 -59.141453 -8.5511427 7564642
143.27747 -59.260002 -8.0222464 9800581
73.664787 -59.134739 118.77115 11379356
73.022636 -59.060097 119.33519 9801092
72.471169 -58.926682 120.05418 8814709
72.210861 -58.880596 120.93995 9669762
71.443092 -58.868866 121.64423 10130057
71.350075 -58.866394 122.84294 10130313
70.458855 -58.86647 123.353 8748917
70.353035 -58.863987 124.56329 9341054
69.449409 -58.864101 125.06615 13353655
69.33065 -58.86161 126.28799 8092011
68.678444 -58.86087 127.03038 8486257
68.282684 -58.859261 128.01698 9340029
67.665237 -58.747791 128.9129 9340029
67.189537 -58.630829 129.71295 9867142
66.557838 -58.626507 130.0238 9735299
147.4155 -57.851974 -16.270952 8418928
147.68658 -57.859085 -15.642364 9011581
67.323204 -57.820206 129.97304 10064777
66.563835 -57.619118 130.42532 9011833
147.8006 -56.830608 -16.314856 9603457
147.89539 -57.17363 -15.78527 8879995
67.461128 -56.983528 130.24144 10262156
66.817108 -56.649918 130.69054 9340797
66.122231 -56.427113 131.11996 8419952
148.11758 -55.877739 -16.454321 9340283
66.813858 -55.758835 131.04988 10130571
66.184784 -55.616997 131.4146 9012089
148.45486 -54.700676 -16.75168 9931905
148.38486 -55.084663 -16.562567 9800578
66.311119 -54.833126 131.66753 10130570
65.606842 -54.674953 132.07564 9538433
148.59308 -54.334129 -16.767809 9931905
66.375481 -53.866211 132.02422 10262156
65.765038 -53.682262 132.39676 9077882
65.059418 -53.590748 132.77873 9340030
65.916664 -52.731281 132.70441 7762026
65.265366 -52.539265 133.10014 8222321
65.442596 -51.670525 133.36241 7564905
65.441292 -51 133.63274 7368039
65.293594 -50.573383 133.87642 8091248
132.72412 -76.696579 12.965859 8682610
132.82812 -76.903755 13.744111 8813936
133.06952 -75.603432 12.122464 9932166
133.02818 -75.974556 12.983167 8550766
133.87662 -74.425156 10.390557 10261132
133.71706 -74.62001 11.209737 9866374
133.57938 -74.932281 12.064755 10129546
87.58567 -74.933876 95.769173 8089963
87.046638 -74.677147 96.279243 8024426
86.478004 -74.432602 96.874046 5919050
85.773933 -74.230469 97.731392 6314064
139.17722 -73.810219 0.76159799 10262414
139.30444 -73.825272 1.5574468 9670535
138.55638 -74.038002 2.4216285 8814969
138.32686 -74.036156 3.414331 13353139
137.69473 -74.035591 4.0593123 11313815
137.44862 -74.033432 5.2084441 7563619
136.61153 -74.033195 5.8321853 9011320
136.35493 -74.031067 6.969583 9801605
135.71744 -74.030571 7.5894446 9209467
135.3353 -74.028877 8.6110659 9538176
134.65428 -74.125175 9.5412798 9537920
134.50612 -74.22818 10.35917 9340286
134.4025 -74.310753 11.082433 8419696
86.223053 -74.089378 98.007324 5919050
85.522537 -73.974991 98.775993 7564645
85.065956 -73.898621 99.55777 11314846
84.586777 -73.897308 100.45892 8618105
84.09893 -73.896011 101.35836 7562586
83.506767 -73.894882 102.23934 8352103
83.101669 -73.89344 103.15699 7562586
82.592163 -73.892159 104.05621 9931911
82.074043 -73.890907 104.95333 13022893
81.677071 -73.889709 105.75352 11970720
81.144501 -73.888466 106.64957 8353134
80.652596 -73.824104 107.66427 6971481
80.274452 -73.62175 108.38343 8616564
79.55381 -73.576408 108.76019 9603715
139.51913 -72.850975 0.69524896 10590864
139.6488 -72.963959 1.4343542 9867913
80.269081 -72.785484 108.729 7893614
79.587006 -72.679405 109.10503 9406335
79.035736 -72.312347 109.52219 9143419
139.77986 -71.721275 0.0063757002 10392711
139.90231 -71.83844 0.72101724 9866881
79.823494 -71.686157 109.38924 8682868
79.01992 -71.460526 109.87276 9669507
140.00526 -70.538017 -0.9205271 10261382
140.03955 -70.889511 -0.20950946 9998211
140.13408 -71.032722 0.4263815 9209467
79.927109 -70.928986 109.64336 9143419
79.295723 -70.634018 110.07067 9340798
78.541054 -70.452263 110.51265 8090987
140.30977 -69.683701 -0.97978842 9603969
140.37003 -69.977875 -0.24887332 10064004
79.301651 -69.9077 110.36015 9471868
78.611122 -69.651939 110.80056 8748660
140.634 -68.783119 -1.0281245 9866884
140.67955 -69.145958 -0.25064334 9538177
79.430138 -69.071304 110.63404 7564643
78.85186 -68.700775 111.06575 9998211
78.110703 -68.488823 111.51328 10788502
140.78757 -67.859634 -1.8476969 7761510
140.93764 -67.902534 -1.1333643 8946040
78.903877 -67.674583 111.45338 11181970
78.210838 -67.614037 111.81644 9670535
77.671265 -67.495705 112.12773 10262415
141.08383 -66.577339 -2.6285195 9208187
141.16589 -66.822098 -1.8829943 8024426
141.15315 -67.23764 -1.2717348 8090987
78.322357 -66.761276 112.10517 7958634
77.618378 -66.721199 112.46542 8945785
141.39641 -65.733948 -2.6352448 7892584
141.45445 -66.001968 -1.9560343 7892327
78.408844 -66.107597 112.32604 9537665
77.802513 -65.707176 112.78355 10524560
77.096603 -65.571335 113.18327 9537665
141.61992 -64.509033 -3.4925103 9734531
141.62373 -64.972015 -2.8675256 8287342
77.933464 -64.783134 113.09148 11906469
77.188004 -64.559692 113.54574 10722195
76.553001 -64.195633 114.00263 10788759
141.86494 -63.727791 -3.6275544 10261383
142.00259 -63.938454 -2.9052644 9800577
77.420502 -63.623074 113.8091 10327693
76.678139 -63.578159 114.18999 10393742
142.00174 -62.594604 -4.3586869 10656398
142.13132 -62.88237 -3.7757287 9471864
77.434059 -62.819988 114.12576 10854036
76.724319 -62.810669 114.47637 10920085
76.166115 -62.390209 114.91842 10788499
142.30531 -61.754692 -4.4260316 11117207
142.40169 -62.135784 -3.8575349 11380380
76.957497 -61.773365 114.77985 10525327
76.204338 -61.636154 115.20322 10262155
75.632202 -61.294647 115.62034 10262155
142.70656 -60.415176 -5.2413697 13550517
142.63411 -60.881546 -4.6088395 10130056
76.434517 -60.771999 115.47739 9340797
75.727165 -60.477177 116.02891 10327692
143.25818 -59.503597 -6.2618737 9406078
143.09918 -59.87196 -5.4280915 12103330
143.12912 -60.169426 -4.7403016 13550517
75.951141 -59.813831 116.46217 10788243
75.325539 -59.569397 116.99361 9143162
74.989571 -59.256733 117.71564 9208955
147.74838 -58.553642 -14.870307 10261132
147.94913 -58.815624 -14.171908 9800582
147.05495 -59.060532 -13.197234 10063496
147.12943 -59.058517 -12.313807 8879222
146.13644 -59.058136 -11.526294 8879222
146.20126 -59.056145 -10.648398 12826029
145.21231 -59.05579 -9.877635 13023917
145.26694 -59.053829 -9.0052938 10195338
144.28195 -59.053501 -8.2509031 9603457
143.98074 -59.156925 -7.2632012 10064008
143.92648 -59.281601 -6.3247018 8090475
74.694305 -59.157516 118.1946 9735043
74.368172 -59.03904 118.75387 10458510
74.008583 -58.910839 119.65208 10458510
73.342407 -58.868786 120.51559 9735299
72.974464 -58.866287 121.8913 10722707
72.237617 -58.866325 122.32645 10130313
72.000168 -58.863827 123.62472 9077625
71.252953 -58.863892 124.05402 9406590
71.151909 -58.861374 125.2774 12367275
70.243141 -58.861481 125.78598 9933191
70.128944 -58.858955 127.02137 9998215
69.361557 -58.85907 127.43954 10129545
69.141426 -58.688152 128.73503 10261131
68.395882 -58.605545 129.13295 9537152
148.05019 -57.689716 -14.961783 9011581
148.21565 -57.953575 -14.342586 9471875
69.208656 -57.918163 129.01125 10129545
68.606682 -57.72752 129.38231 10459022
67.909592 -57.628693 129.76305 10130313
148.345 -56.862846 -15.035609 9274752
68.766579 -56.775806 129.6862 10392972
68.009789 -56.54847 130.14775 10459278
148.44981 -55.705818 -15.846782 8945783
148.5614 -56.072498 -15.256377 9866630
68.239395 -55.576775 130.42555 10919829
67.431404 -55.472534 130.86272 9867657
148.78931 -54.741863 -15.944636 9208956
148.86299 -55.209293 -15.349051 9208955
68.142014 -54.790825 130.78873 9867657
67.6297 -54.578022 131.12483 8881019
66.896049 -54.600002 131.47501 9143675
148.86925 -53.73473 -16.67901 9011576
149.04033 -53.945171 -16.093561 10129545
67.717598 -53.811306 131.38968 8354933
67.012161 -53.639824 131.80367 9143675
66.46386 -53.3176 132.20128 9538433
149.215 -52.8848 -16.658545 8682867
149.3524 -53.119377 -16.128622 10853012
67.804405 -52.95752 131.69019 9867657
67.223091 -52.588501 132.12279 9406848
66.464996 -52.512703 132.52397 8222577
149.58871 -51.854359 -16.738253 9208955
67.342186 -51.856987 132.35876 8814713
66.568199 -51.671566 132.81171 8090992
149.83777 -51.033978 -16.91326 8682867
66.775932 -50.809372 133.05687 8419956
66.009956 -50.703762 133.4738 7038307
66.671585 -50.024872 133.42332 8814713
66.18528 -49.699059 133.79213 8880250
65.532784 -49.567085 134.16425 9932424
66.324883 -48.651688 134.1451 9997961
65.772316 -48.560322 134.45198 9275260
65.916718 -47.644726 134.74957 9209467
65.869606 -46.912071 135.06725 9406846
133.02118 -76.69178 14.287282 8353642
133.03296 -76.863678 15.232003 8090728
133.39241 -75.613503 13.585465 8813936
133.4079 -75.813377 14.379571 9406072
133.3091 -76.098785 15.197846 10261124
134.42075 -74.350578 11.734719 9011577
134.14713 -74.556503 12.685628 9802116
133.81812 -75.019737 13.412137 9275001
89.501213 -75.193832 94.614555 9209467
88.968475 -74.90995 95.115623 10590097
88.263802 -74.666245 95.710243 10129546
87.867851 -74.306847 96.452629 10919062
139.61766 -73.53643 2.2179008 9670021
139.57494 -73.813072 2.9444442 9209211
139.14206 -74.034286 3.7707496 10722450
138.6169 -74.033005 4.6883445 9734529
138.2446 -74.031219 5.7393241 8485489
137.60168 -74.030701 6.3735747 9275004
137.34578 -74.028908 7.3534179 9998728
136.65253 -74.028206 8.1049738 10393230
136.21304 -74.026291 9.2608843 9801093
135.56519 -74.025833 9.8698931 9011321
135.19431 -74.08033 10.822263 8024938
134.92924 -74.196404 11.780087 9011577
87.758331 -74.194908 96.89476 15721438
87.314468 -74.089752 97.477478 6971994
86.822777 -73.931007 98.453072 5919306
86.521172 -73.897209 99.311859 5920074
85.754036 -73.89637 100.17217 10788759
85.56736 -73.894531 101.13403 8091762
84.832825 -73.894188 101.7471 10591637
84.544044 -73.892601 102.65324 12301225
83.835617 -73.891579 103.56046 8024939
83.699715 -73.889893 104.41965 7631467
82.934761 -73.889076 105.27218 8024687
82.659767 -73.887337 106.23533 7498601
82.035149 -73.702477 107.28817 7366754
81.42939 -73.50988 107.83543 6906204
80.91909 -73.211723 108.23978 8090992
139.88589 -72.778557 2.1572356 9670020
140.02753 -72.842056 2.8686805 8682867
82.166191 -72.963661 107.73001 7564651
81.688026 -72.596115 108.11172 7696236
80.891556 -72.658913 108.4757 8354162
140.12769 -71.610344 1.3252386 9538174
140.16757 -71.924362 2.000093 8682871
81.598686 -71.930443 108.42336 8222577
81.008446 -71.717659 108.79743 8354163
80.396034 -71.516579 109.17767 8617333
140.42859 -70.705627 1.1695837 9209211
140.46443 -71.059105 1.8903898 9011323
81.221138 -70.814026 109.05721 8617333
80.412247 -70.525261 109.56878 8880503
140.55875 -69.839661 0.34163037 9735296
140.74188 -69.82328 1.1032537 9669248
81.333702 -69.957359 109.34701 10262156
80.666832 -69.657135 109.79377 10985107
79.817963 -69.586281 110.23716 10458505
140.93631 -68.80204 0.30285016 9538177
141.01364 -69.094475 1.1042913 9406590
80.757271 -68.816566 110.0879 10262156
79.994461 -68.721191 110.4991 10063747
141.1192 -67.858482 -0.42267856 9538177
141.31602 -67.798912 0.32864895 9538177
80.277481 -67.735237 110.75765 10064004
79.484901 -67.583008 111.20627 9735039
141.42227 -66.513092 -1.2751528 9931910
141.44986 -66.906029 -0.52673972 10393486
141.55771 -66.998062 0.085130125 12433069
80.218834 -66.781288 111.17032 9472382
79.664909 -66.558708 111.53057 9932932
78.950012 -66.626038 111.85287 9143162
141.7196 -65.621574 -1.424914 9274236
141.77087 -65.964699 -0.65427649 10853012
79.704903 -65.660576 111.87257 9933190
78.973045 -65.74276 112.19715 10196107
78.408569 -65.388863 112.61549 11511711
141.88878 -64.618195 -2.3050485 7037274
142.01904 -64.811852 -1.4343172 9076857
79.250999 -64.761696 112.4562 10919829
78.451958 -64.602348 112.91085 13551549
142.18181 -63.8549 -2.2680573 8879990
142.31116 -63.959908 -1.5430857 8484464
79.33532 -63.837311 112.78704 9011576
78.628098 -63.610725 113.22391 11643552
77.920677 -63.386002 113.6601 9406590
142.43529 -62.663624 -3.0870881 9340278
142.55771 -62.814571 -2.3182244 10130057
142.56206 -63.230743 -1.6325022 9209467
78.803581 -62.619816 113.53681 8222316
77.985992 -62.649921 113.92442 9603969
142.77972 -61.723808 -3.1077867 9801089
142.84641 -61.964581 -2.4385705 9209467
78.844963 -61.835842 113.83166 6511954
78.180321 -61.830318 114.15897 9406590
77.536491 -61.577702 114.57546 10525327
143.04704 -60.677189 -3.9340272 8682867
143.04817 -60.993099 -3.2456574 9669248
78.279404 -60.909332 114.48278 10854036
77.661812 -60.679356 114.94109 9340797
76.968102 -60.456688 115.42713 8814709
143.80521 -59.538738 -4.9008203 9275003
143.55551 -59.974632 -4.1065927 9077368
143.5018 -60.306961 -3.3715997 8090987
77.833122 -60.080368 115.31664 9209467
77.191681 -59.797749 115.86532 8946039
76.707161 -59.360134 116.65691 10064520
76.0149 -59.189545 117.44558 8814453
148.28961 -58.710716 -13.485705 8090987
148.35466 -58.822632 -12.952579 9472125
148.22 -59.056477 -12.044349 10457996
147.22485 -59.055702 -11.076251 9865859
146.7625 -59.054325 -10.156707 14603722
146.28275 -59.053368 -9.4187498 12433578
145.99239 -59.051682 -8.4624205 9011576
145.3436 -59.050694 -7.6089654 8682867
144.75598 -59.07299 -6.7664819 9077370
144.39981 -59.21463 -5.7540383 8222316
76.458458 -59.014515 117.82253 9143675
75.697769 -58.951443 118.51829 8880246
75.224007 -58.868778 119.35775 10326924
74.762352 -58.867508 120.22826 9801095
74.293724 -58.866253 121.0965 8814971
73.684746 -58.865417 121.85575 9209728
73.338432 -58.863743 122.84034 10525073
72.716866 -58.86293 123.59894 10459278
72.35791 -58.861252 124.5891 8682867
71.858376 -58.860016 125.4672 10261899
71.351768 -58.858791 126.34283 9077882
70.974686 -58.857121 127.34643 9077882
70.441978 -58.645004 128.11504 9208955
69.715981 -58.659573 128.46538 9406078
148.57001 -57.922955 -13.5572 8551282
70.537407 -57.877102 128.37767 9011832
69.78112 -57.661201 128.83437 9143162
148.78735 -56.404663 -14.436347 9735043
148.86714 -56.924759 -13.781257 9143162
70.632248 -57.021595 128.67476 9406078
70.013222 -56.690914 129.1104 10063750
69.311394 -56.56216 129.50545 9340796
149.04291 -55.730247 -14.461909 9800580
149.20189 -55.90937 -13.934512 9208443
70.0271 -55.911343 129.4166 10590603
69.453156 -55.53717 129.84763 10130566
68.804352 -55.285446 130.26611 12300966
149.14111 -54.474686 -15.37881 9208955
149.27629 -54.914715 -14.66701 9537664
69.607864 -54.62228 130.13925 9341307
68.810387 -54.613705 130.53287 9538949
149.46564 -53.684555 -15.352775 9866630
149.6256 -53.894146 -14.793704 9208955
69.541054 -54.071617 130.39307 9341307
69.027321 -53.699856 130.79382 9144191
68.25901 -53.60141 131.20911 9407363
149.56047 -52.568695 -16.151911 10129545
149.71788 -52.895027 -15.492339 9866629
69.213158 -52.846638 131.04607 10328463
68.44178 -52.595837 131.52403 10920598
67.924675 -52.226048 131.92555 11381404
149.8936 -51.687454 -16.189062 10129545
150.03209 -51.962013 -15.620116 10129545
68.587334 -51.717911 131.80592 9537920
67.763664 -51.639427 132.24016 9077627
150.18507 -50.816025 -16.313044 9866629
68.587822 -51.131817 132.04135 9537920
68.00425 -50.761993 132.47542 9274749
67.345711 -50.51479 132.89677 9735812
150.3224 -49.749107 -16.969866 10392461
150.41609 -49.970158 -16.55282 10063496
68.139915 -49.737141 132.82124 8945528
67.376579 -49.660637 133.22522 8485749
66.789055 -49.292904 133.66025 8617080
150.70386 -48.838596 -16.922514 10853012
150.67015 -49.229881 -16.643202 10853012
67.649284 -48.644188 133.50063 8353908
66.872108 -48.438629 133.96323 9143167
151.01538 -47.911808 -17.050844 8089963
67.673241 -47.829887 133.81639 8617080
67.05349 -47.645187 134.19363 9537667
66.403954 -47.644516 134.51149 10261133
67.128242 -46.85228 134.48045 10064010
66.406059 -46.640213 134.9278 9538178
66.701958 -45.901634 135.2851 9735557
66.286407 -45.617805 135.71922 9604742
66.392998 -45.033428 136.14839 11380639
132.95032 -77.316139 16.778902 10985625
132.9646 -77.371704 17.430578 9011838
133.12659 -76.692467 15.826234 8946037
133.10577 -76.849159 16.509451 9932936
133.13922 -76.878578 17.344427 8353909
133.71828 -75.428101 14.756082 10261124
133.55379 -75.73204 15.659345 9735296
133.44493 -75.994423 16.595697 8880503
90.863373 -75.381638 93.769157 8880503
90.049782 -75.271248 94.281425 10261387
134.56635 -74.478325 13.892102 8880758
134.16852 -74.852119 14.85043 8090728
134.03345 -75.081657 15.715318 9143675
90.757065 -75.05204 94.112404 9735299
90.294167 -74.766861 94.604004 9801092
89.634529 -74.562958 95.157753 9932679
89.031944 -74.287407 95.954689 9734788
139.90033 -73.549774 3.4556632 8682867
139.98232 -73.824326 4.3000159 9406590
139.36949 -74.030823 5.2295394 9668992
139.05367 -74.029335 6.1094565 8880246
138.46643 -74.028496 6.8599448 9209468
138.13289 -74.026688 7.8967566 8946039
137.46968 -74.025871 8.6859102 8616819
137.19731 -74.024101 9.6613436 8089963
136.5423 -74.023659 10.273236 8813686
136.08371 -74.021774 11.422006 9537921
135.44907 -74.06163 12.15442 8748916
135.12782 -74.216148 12.943868 9209723
89.876343 -74.17556 95.936913 10261387
89.366272 -74.137444 96.317131 8089963
88.669037 -74.011635 97.094872 9866374
88.187035 -73.89817 97.844917 7366240
87.8283 -73.896629 98.780151 6051660
87.264168 -73.895416 99.682823 7761253
86.791885 -73.894051 100.60204 8485492
86.310822 -73.892708 101.51972 8618105
85.698479 -73.891853 102.28826 9867657
85.451462 -73.890091 103.25253 8617847
84.70018 -73.889214 104.11971 12038826
84.565941 -73.887505 104.98618 11183518
83.748634 -73.886757 105.83749 7433063
83.507149 -73.65287 106.79734 7695979
82.776016 -73.577171 107.18511 7038307
140.20061 -72.774117 3.5043235 8682867
140.30312 -72.97966 4.2748656 9011832
83.519279 -72.805206 107.13258 8617331
82.832062 -72.661888 107.52613 9077882
82.286461 -72.424049 107.88849 8090986
140.45682 -71.641655 2.7914443 7038307
140.54959 -71.792328 3.4321914 9406078
140.58012 -72.156357 4.1469932 9538176
83.027359 -71.62439 107.84829 8090986
82.219872 -71.647102 108.2338 7959403
140.69019 -70.832947 2.499166 7498601
140.81247 -70.954926 3.2209144 9997703
82.466682 -70.758171 108.47095 7959403
81.719063 -70.478378 108.94896 8617333
140.94231 -69.708771 1.7821249 9011323
141.07407 -69.821808 2.5301528 7630186
82.559143 -69.849327 108.79156 7959405
81.869537 -69.567764 109.24194 9012092
81.195366 -69.217056 109.71255 10262156
141.24057 -68.830444 1.6576132 9011834
141.41545 -68.865974 2.4669166 9340542
82.069916 -68.656769 109.5107 9933192
81.331528 -68.592651 109.89738 9406849
141.52287 -67.622765 0.93633783 9669761
141.56992 -67.957047 1.6745123 9735553
82.098335 -67.841003 109.82516 9143678
81.391823 -67.814011 110.18134 7762028
80.843925 -67.373283 110.6265 8024940
141.81926 -66.748039 0.80944574 10590860
141.89447 -67.016426 1.5632452 9735553
81.643227 -66.766296 110.48018 7696492
80.84935 -66.650253 110.91487 8354161
80.332748 -66.248489 111.32906 9933190
141.9626 -65.825386 -0.052645296 11248027
142.09818 -65.901939 0.65334833 10984854
81.596718 -65.986916 110.8166 9012606
81.079033 -65.584633 111.23155 8617846
80.3507 -65.600632 111.58105 10855060
142.297 -64.371902 -0.94389594 11379356
142.33319 -64.808495 -0.088095278 10260874
142.3685 -65.247597 0.76764047 10853012
81.08297 -64.863426 111.51992 9012091
80.38871 -64.731125 111.91246 9472639
79.81881 -64.409721 112.32034 9933190
142.52559 -63.79958 -0.87758887 9931910
142.70345 -63.792297 -0.12418613 9603198
80.611328 -63.883148 112.14478 8287598
79.838112 -63.60323 112.63544 8814709
142.76294 -62.689579 -1.6354815 9932678
142.83406 -62.926975 -0.94924796 9275004
142.97198 -62.985123 -0.26286945 9209467
80.715569 -63.036983 112.43388 7697000
80.077034 -62.665962 112.89532 8683636
79.325409 -62.43924 113.35412 7301471
143.09644 -61.68441 -1.8125178 9341053
143.18036 -61.959816 -1.0102335 9275260
80.172546 -61.654453 113.25503 10459529
79.461098 -61.607426 113.62199 6381140
143.56476 -60.463898 -2.5673966 9537918
143.44788 -60.843475 -1.9042231 9866884
79.592247 -60.821213 113.90488 6117970
78.976036 -60.663101 114.31666 8156779
144.30737 -59.405781 -4.431231 8682867
144.19452 -59.585602 -3.5363984 8222573
143.89166 -59.978081 -2.8040948 8288366
79.118027 -59.921677 114.82023 9932678
78.462044 -59.640461 115.43092 9932678
77.99398 -59.295673 116.16151 9538176
77.477249 -59.22805 116.60227 10261899
148.83459 -58.668236 -12.273696 10590347
148.74065 -58.905586 -11.582667 9997957
148.32545 -59.053249 -10.619452 9602939
147.32179 -59.052505 -9.661025 9208435
147.37505 -59.050514 -8.7760191 9208435
146.37273 -59.049816 -7.8368592 9011576
146.41502 -59.047848 -6.9575791 8222573
145.40689 -59.047581 -6.2119699 9735043
145.2746 -59.080269 -5.1580949 8090731
144.89151 -59.227776 -4.4481416 8946038
78.219147 -59.061581 116.80386 10458766
77.564392 -58.998219 117.34918 10261899
77.147118 -58.908092 117.95081 9143675
76.516037 -58.868839 118.53901 8880503
76.328926 -58.86628 119.83205 8354421
75.459312 -58.866257 120.37818 8814971
75.256203 -58.863697 121.68191 8814971
74.373436 -58.863705 122.22058 8814971
74.452194 -58.861134 123.3568 7564651
73.557137 -58.861176 123.88925 9143677
73.475685 -58.858597 125.12726 10129801
72.567963 -58.858669 125.6526 10129801
72.437843 -58.630245 127.0783 9143418
71.727791 -58.565777 127.49308 9143675
149.13245 -57.820614 -12.359538 9866882
71.814323 -57.737808 127.80889 9143418
71.075584 -57.672249 128.19662 9604226
149.26494 -56.674934 -13.095115 9340539
149.3721 -56.978851 -12.573466 9340539
72.028053 -56.925095 128.03062 8880246
71.266899 -56.665524 128.50722 9537921
70.599953 -56.286865 128.98557 11905692
149.54636 -55.801739 -13.241782 10392461
149.68063 -56.248478 -12.528255 10655633
71.421776 -55.618881 128.8517 9538178
70.614616 -55.507221 129.2914 10590603
149.62103 -54.804546 -13.975265 10655633
149.85513 -54.909233 -13.343108 10655633
70.883934 -54.639961 129.50809 9933187
70.086357 -54.628258 129.9028 9341307
149.97073 -53.883888 -14.009162 11050391
150.10704 -54.326668 -13.293719 9208443
70.9972 -53.797718 129.79137 9801601
70.242439 -53.713726 130.19414 8881013
69.664833 -53.340046 130.62683 8092011
150.11372 -52.707428 -14.7527 10459022
150.28661 -52.852901 -14.222392 9932678
70.411964 -52.720657 130.51067 10261899
69.677521 -52.450207 130.97845 11117720
150.37341 -51.908764 -14.883502 11116696
150.5321 -52.006264 -14.429606 11380380
70.55471 -51.884235 130.77724 10261899
69.924774 -51.591789 131.20279 12104359
69.170349 -51.502827 131.60739 9998727
150.60275 -50.414265 -15.718459 10392461
150.68822 -50.925819 -15.055442 10458766
69.917061 -50.703674 131.56377 9932678
69.179466 -50.724331 131.91603 9537920
150.89557 -49.761799 -15.639777 10458253
151.02173 -49.912014 -15.212668 10984593
69.463951 -49.746384 132.17024 9208698
68.692902 -49.52058 132.63799 9866626
150.94792 -48.49448 -16.674974 10853012
151.08978 -48.926052 -15.954967 10129289
69.467354 -48.756348 132.56668 9998211
68.850166 -48.568695 132.94391 9932674
68.232353 -48.381863 133.32109 10261382
151.2955 -47.641216 -16.65317 9077369
151.43767 -47.905323 -16.085299 9668738
68.986305 -47.744522 133.20879 9866625
68.199829 -47.587643 133.65639 9800836
151.57718 -46.839649 -16.746748 9801092
69.092278 -47.10326 133.41486 9735296
68.433914 -46.771503 133.87782 9472384
67.723114 -46.550148 134.31996 9735046
152.17993 -45.801991 -17.184595 10655889
151.84825 -46.312298 -16.962011 10655889
68.681755 -46.039387 134.20572 9209467
68.006012 -45.777256 134.7496 9077369
67.289116 -45.501102 135.32484 9669762
67.578491 -44.922531 135.66306 10327692
66.903847 -44.630775 136.36336 11643810
132.97842 -77.428581 18.083002 7038307
132.99162 -77.487297 18.736506 10524560
133.00749 -77.56263 19.554529 13550517
133.24049 -76.688667 17.954836 7038307
133.25874 -76.767082 18.838747 10393743
133.14058 -77.199059 19.573771 11906465
133.64326 -75.683784 17.082411 10261899
133.6915 -75.70182 17.881136 8288367
133.5195 -76.021278 18.645655 8684155
92.717628 -75.549774 92.625465 8617080
91.947388 -75.418846 93.153542 9735046
134.96312 -74.350609 14.402211 7038298
134.92081 -74.375931 15.218106 8288365
134.41905 -74.693138 16.16118 8682867
134.16467 -74.999817 17.040007 10590864
92.158852 -74.91803 93.474274 10458511
91.465202 -74.735252 94.052284 9538177
90.980431 -74.35125 94.801933 9341053
90.385735 -74.214378 95.554451 10261387
140.29604 -73.335785 4.8152099 10590092
140.29166 -73.701393 5.6597342 10590092
139.86951 -74.027435 6.4838653 8748660
139.4106 -74.026268 7.3008857 9341054
138.93611 -74.02478 8.2794504 9340799
138.32611 -74.023636 9.1868067 10327180
137.98796 -74.022209 10.052144 9998216
137.51596 -74.021103 10.847394 9537665
137.02441 -74.019691 11.801854 9274230
136.34474 -74.018936 12.567185 9012086
135.82115 -74.072197 13.571607 8486000
135.6731 -74.125687 14.41327 7038298
135.42538 -74.216789 15.275868 8486000
91.236092 -74.103119 95.530739 10261387
90.725761 -74.063904 95.916191 10261387
90.052765 -73.953926 96.726044 8682356
89.645119 -73.896843 97.56057 7432033
88.989914 -73.895676 98.501831 5655878
88.736343 -73.89402 99.419853 5722439
88.081779 -73.893082 100.25602 6577748
87.730202 -73.891777 101.07817 7958632
87.06115 -73.890862 101.90771 7893869
86.697906 -73.889565 102.72997 7433573
86.202507 -73.888214 103.65469 8090987
85.701027 -73.886871 104.5809 7433831
85.375732 -73.719612 105.64914 7434088
84.636398 -73.569489 106.22522 7960175
140.52972 -72.75531 4.8901763 9471613
140.66434 -72.882698 5.6737533 12432037
84.928467 -72.695656 106.48795 9341057
84.100838 -72.739304 106.87485 8353904
140.78633 -71.606125 4.1523147 11247766
140.84763 -71.865875 4.8323798 7629410
140.90842 -72.127258 5.5129828 8813683
84.883972 -72.013756 106.78419 8156786
84.318512 -71.671967 107.19811 7104095
83.609055 -71.544403 107.5962 8090986
141.02243 -70.80687 3.8869643 11050391
141.19385 -70.815872 4.6389899 9932426
84.420311 -70.738281 107.52413 7169886
83.709435 -70.544838 107.94949 8222573
141.27489 -69.666145 3.144876 8024687
141.35144 -69.928696 3.8950324 10195340
83.829704 -69.732254 108.21779 8354675
83.079201 -69.678658 108.60612 7960175
141.62515 -68.703636 3.1090484 9011579
141.69424 -68.971085 3.8349891 8682617
84.059448 -68.992111 108.40339 8683898
83.273323 -68.674583 108.9154 9538692
82.572578 -68.42823 109.35699 10262156
141.85861 -67.573792 2.302526 9735553
141.89009 -67.915779 2.9860969 8617076
83.535347 -67.726593 109.16891 9275777
82.728264 -67.573181 109.62508 9801606
142.09799 -66.399979 1.4508718 9735553
142.12227 -66.7882 2.1776481 9735553
142.2139 -66.996559 2.9058585 8090992
83.522812 -66.876167 109.51734 9012606
82.826103 -66.769463 109.90079 9275521
82.223549 -66.581749 110.27084 9275264
142.30119 -65.784218 1.3380865 9735039
142.47874 -65.780556 2.0961852 9735039
82.969048 -65.811516 110.21642 10459537
82.269432 -65.680382 110.61119 10130573
81.71241 -65.454124 110.97451 7565675
142.63264 -64.860176 1.2830557 9866369
142.7755 -65.012962 2.1424232 9734782
82.455185 -64.656029 110.9322 9736071
81.691818 -64.550072 111.34823 9012606
142.89645 -63.652744 0.48232022 9537402
142.97752 -63.936073 1.2849211 9932162
81.885048 -63.723949 111.5857 9933450
81.112999 -63.545353 112.03513 8089963
143.10655 -62.623848 -0.2636629 9734788
143.21584 -62.790871 0.47419491 9800579
143.31479 -62.924774 1.1142401 10853012
82.013649 -62.893387 111.85653 8353134
81.255066 -62.645199 112.32735 8091243
143.3745 -61.817894 -0.40303668 9735043
143.49411 -61.951946 0.32609311 10195081
81.500099 -61.737247 112.57233 8090730
80.737534 -61.501221 113.04025 10854029
143.81068 -60.523388 -1.3042628 9669505
143.76511 -60.860207 -0.49715671 10524045
143.74844 -61.223217 0.25163785 11181204
81.518837 -60.771271 112.98143 8617843
80.856522 -60.63905 113.40076 9735808
80.221817 -60.334579 113.93722 7368035
144.41864 -59.594372 -2.2820611 10392969
144.30511 -59.884346 -1.4245173 11380119
144.2412 -60.178688 -0.61489356 11181204
80.946594 -59.933552 113.91595 13023917
80.416496 -59.744892 114.3326 10787985
79.862358 -59.453205 114.96932 9867141
79.226074 -59.279053 115.57563 9209467
149.35205 -58.785793 -10.979693 8551282
149.51007 -58.938602 -10.220881 8682609
148.40659 -59.05043 -9.3718443 9208435
148.46834 -59.048027 -8.3020315 10787468
147.44064 -59.047733 -7.5365319 8221803
147.48186 -59.045761 -6.6508889 7564643
146.459 -59.045502 -5.9021821 8617075
146.48996 -59.043552 -5.0224214 8617075
145.52618 -59.062904 -4.1167016 9209211
145.23665 -59.213856 -3.2360559 9274746
145.13826 -59.305191 -2.3620591 9537918
79.535568 -59.100418 116.02958 9406846
79.010704 -58.959167 116.76736 9669762
78.36409 -58.871738 117.73957 9077884
78.056129 -58.866386 118.7212 8683130
77.194481 -58.866325 119.27979 8485751
77.15583 -58.863743 120.49403 8551800
76.281403 -58.863712 121.04606 9604741
76.230461 -58.861118 122.27261 9209728
75.343239 -58.861115 122.81789 9604741
75.279732 -58.858513 124.05695 10392973
74.379646 -58.858547 124.59536 10064009
74.151505 -58.855946 125.9361 11576735
73.658234 -58.580585 126.4894 10129801
73.00985 -58.32074 126.98992 9275004
149.4617 -57.621555 -11.784572 11248019
149.6297 -57.930328 -11.11888 8617075
73.799583 -57.702461 126.85182 8682867
73.071297 -57.622791 127.24007 9275005
72.470207 -57.42474 127.61367 9341054
149.83664 -56.772812 -11.694396 10590350
150.01833 -56.964085 -11.103904 8419696
73.804352 -57.088692 127.09586 8682867
73.216599 -56.811325 127.49481 9866629
72.491943 -56.532265 127.96142 9340800
149.96187 -55.510258 -12.552871 9208443
150.02771 -55.938721 -12.012904 9472129
73.366631 -55.973831 127.75785 10129289
72.725288 -55.628658 128.21027 9011582
72.031532 -55.39397 128.6438 8814203
150.26701 -54.642395 -12.640128 9208443
150.38013 -55.01479 -12.042594 9472127
72.798531 -54.67458 128.55812 8156531
72.00071 -54.658886 128.95447 10458768
150.4857 -53.848164 -12.859092 9274236
72.253548 -53.827164 129.16531 10064011
71.547066 -53.586292 129.60762 10656142
150.64098 -52.762882 -13.489287 8813685
150.83493 -52.976715 -12.848681 8879222
72.321732 -52.828625 129.53355 8287853
71.642036 -52.670364 129.92952 8945783
71.006165 -52.379375 130.35739 8682867
150.95038 -51.86034 -13.600364 9208443
71.828545 -51.657822 130.24554 8814197
71.059891 -51.442692 130.70784 9011832
151.09195 -50.666702 -14.362941 10459022
151.18489 -51.026257 -13.821292 9669250
71.347107 -50.647572 130.88715 8682867
70.612259 -50.601398 131.265 10261899
151.37213 -49.794949 -14.513194 9997700
151.5126 -50.232372 -13.791377 9537664
71.318291 -49.93766 131.18674 8485747
70.677513 -49.648491 131.61633 9670277
70.022293 -49.311337 132.07222 9735296
151.44075 -48.806599 -15.256515 10260871
151.68024 -48.902878 -14.617705 9208442
70.826546 -48.708336 131.92155 9670535
70.051315 -48.496605 132.38568 10655884
151.79024 -47.884815 -15.292872 9076600
151.93279 -48.318798 -14.569293 8089963
70.917809 -47.852814 132.22092 11380380
70.299782 -47.663052 132.59941 10590605
69.552544 -47.595566 132.99188 9735296
152.05138 -46.547623 -16.060015 9932678
152.12773 -46.861385 -15.513038 9669503
70.351974 -46.966049 132.8542 9603968
69.603966 -46.660679 133.35301 9275260
152.44473 -45.662544 -16.843512 10655889
152.46014 -45.906853 -16.335047 9932677
69.805603 -45.933903 133.74214 7038307
69.174004 -45.665668 134.27058 8748918
68.577019 -45.370628 134.80424 9406590
152.91931 -45.052254 -17.020201 10918804
69.3451 -45.039722 134.70503 8485747
68.784004 -44.807022 135.21399 9406847
68.303192 -44.497074 135.88777 10130313
67.913902 -44.262329 136.7556 10459278
67.15818 -44.206696 137.30559 9736329
67.450371 -43.986702 137.90691 9736329
133.01953 -77.624786 20.210157 13550517
133.10063 -77.522644 21.041475 12892848
133.11162 -77.588097 21.699686 9932158
133.40337 -76.457626 19.447794 10262414
133.30026 -76.840546 20.12908 10854293
133.35272 -76.824944 21.014894 10130314
133.95189 -75.37867 18.541819 9210491
133.75662 -75.704903 19.211576 9407362
133.70631 -75.859024 20.184999 8684155
133.56105 -76.218124 20.783899 10262414
94.521278 -75.788727 91.483543 8024944
93.816551 -75.647362 91.952652 7827822
93.179298 -75.374519 92.529068 10064010
134.83772 -74.423714 16.687006 9143675
134.71452 -74.501343 17.526926 11314586
134.43898 -74.765884 18.444883 9276284
134.23026 -75.071381 19.37018 10328460
94.033058 -75.067696 92.335823 8485493
93.386391 -74.836029 92.884911 9932168
92.823784 -74.448967 93.669037 10787476
92.443718 -74.275566 94.263878 10721683
140.64203 -73.7827 7.029161 8879733
140.2074 -74.023651 8.020154 8485749
139.73529 -74.022514 8.8343897 10985622
139.2627 -74.021385 9.64359 13880509
138.78506 -74.020287 10.447366 10459023
138.36945 -74.018585 11.48541 9208435
137.7939 -74.017433 12.370446 9603193
137.30859 -74.01638 13.157628 12169892
136.81848 -74.015327 13.939458 8946551
136.40695 -74.026718 14.956998 7301470
135.77866 -74.112633 15.812238 8814965
135.52051 -74.206078 16.607584 9670275
135.29126 -74.292839 17.56996 11314585
92.439865 -74.128128 94.793053 10919062
91.910988 -74.061584 95.315697 10918805
91.363091 -73.914185 96.360733 9209211
91.110466 -73.895538 97.262375 8879735
90.403717 -73.895065 97.915627 7432033
90.054161 -73.893456 98.868248 6445138
89.49575 -73.892204 99.789749 5919050
88.92997 -73.890968 100.71092 6972250
88.556877 -73.889389 101.66332 8550514
87.947433 -73.888512 102.44931 7893352
87.634163 -73.887108 103.28828 7367264
86.834999 -73.886276 104.1637 8288366
86.684242 -73.715096 105.09555 9012089
86.005669 -73.519554 105.62988 7039331
140.8871 -72.642975 6.2478881 11182228
140.95641 -72.953484 7.0437598 9405560
86.781898 -72.96524 105.47362 8683126
86.082001 -72.675095 105.93249 7828078
85.516655 -72.328323 106.34834 8683129
141.20262 -71.742294 6.161737 9011062
141.30568 -71.919739 6.8895583 8747631
86.292397 -71.773033 106.19277 8419958
85.47274 -71.646339 106.64431 9604228
141.36423 -70.762192 5.2860465 8156272
141.48904 -70.900696 6.0452437 7893099
86.231659 -70.990318 106.53742 10262156
85.680611 -70.746773 106.90482 10130570
84.986412 -70.600258 107.30305 8222579
141.60713 -69.629082 4.5147491 10261391
141.7453 -69.757637 5.3154731 8419702
141.73233 -70.147247 5.8840232 7038307
85.739601 -69.832802 107.24384 9801606
85.1063 -69.547409 107.66825 9867401
84.445541 -69.517708 108.00314 9933193
141.91599 -68.769913 4.4667068 10261391
142.00031 -68.964714 5.1416869 8288116
85.243439 -68.681328 107.94984 9538438
84.43705 -68.663048 108.3513 9933193
142.26227 -67.347824 3.6771865 7037274
142.2316 -67.857101 4.3614898 9406592
142.28809 -68.240753 5.2195144 7038307
85.366096 -68.144264 108.10604 9341059
84.70269 -67.714409 108.6033 9209729
83.912621 -67.396873 109.11723 9012606
142.43343 -66.783943 3.5096869 7827047
142.56699 -66.926834 4.3132339 8090218
84.850166 -66.725136 108.92912 10196620
84.139015 -66.568375 109.33993 8881275
142.65636 -65.706604 2.7417312 9735296
142.77425 -65.874023 3.5169158 9143419
142.77249 -66.307602 4.2042365 9143419
84.222328 -65.788078 109.61279 10196872
83.538239 -65.667168 109.99606 9868164
143.03017 -64.70771 2.7479224 9142907
143.0696 -65.01403 3.4083838 9077373
84.344757 -65.012085 109.86472 10525837
83.698685 -64.714355 110.30045 9605249
83.04483 -64.568756 110.67883 8289140
143.18163 -63.711563 1.8026479 9734782
143.27321 -63.920601 2.5314651 8748406
83.80851 -63.75845 110.63085 9210491
83.034492 -63.574272 111.08351 8025969
82.512093 -63.171814 111.50076 8616563
143.51964 -62.763649 1.7367681 9866371
143.58984 -63.121796 2.6125541 7038307
83.35128 -62.652527 111.29893 8747890
82.540398 -62.573685 111.7273 8616563
143.7191 -61.769352 1.0007414 11378582
143.88647 -61.762966 1.7102064 10260872
83.38401 -61.979027 111.55358 8616563
82.669815 -61.743999 111.99738 8221548
81.993698 -61.334045 112.49288 7037274
144.11603 -60.542358 0.078488737 11904668
144.05765 -60.883514 0.8145498 11510168
144.1264 -60.965935 1.4645132 10457996
82.94088 -60.816063 112.27218 10524816
82.17968 -60.652264 112.74946 8287341
81.557335 -60.287125 113.32348 7697000
145.06015 -59.431576 -0.89702094 9144442
144.5985 -59.907925 0.0091985762 10130054
144.60858 -60.120583 0.77379358 10786704
82.400429 -59.9426 113.19775 9143163
81.687576 -59.665184 113.79523 11050899
81.113068 -59.359779 114.50302 12103329
149.92343 -58.677547 -9.6458197 8156522
149.52518 -59.047523 -8.7191496 9734525
148.49625 -59.046829 -7.7669435 12432037
148.52997 -59.045235 -7.0533471 10984593
147.85602 -59.044273 -6.1928086 7695973
147.53551 -59.042618 -5.2333665 9603713
146.85976 -59.041683 -4.3871522 9538176
146.53197 -59.040058 -3.4385514 9801348
145.98404 -59.09129 -2.608336 9801347
145.5563 -59.219398 -1.738299 8946294
81.285652 -59.15699 114.98372 13023917
80.662491 -59.073109 115.5732 9801604
80.14093 -58.930462 116.3139 9209467
80.050789 -58.866604 117.39368 9669762
79.198685 -58.866497 117.96671 9538180
79.036659 -58.863873 119.27654 9932937
78.170753 -58.8638 119.84184 9932937
78.139191 -58.861179 121.06942 9932937
77.260399 -58.861141 121.62818 10394255
77.068199 -58.858505 122.96104 9406590
76.473793 -58.858498 123.32901 10459278
75.99778 -58.857178 124.22973 11445918
75.546936 -58.759819 125.31959 9866630
74.8946 -58.48901 125.92458 11050647
74.23867 -58.205647 126.43487 8682867
149.93942 -57.870228 -10.462703 7762022
150.2149 -57.852051 -9.8470488 7564643
75.120369 -57.739826 126.19059 9406078
74.355682 -57.563999 126.63529 8682867
150.35089 -56.816658 -10.474563 7959401
150.49721 -57.317024 -9.6846952 7564643
75.107964 -56.940453 126.51785 8682355
74.50605 -56.739178 126.8931 8682099
73.808739 -56.475254 127.34012 10129289
150.42053 -55.778801 -11.256598 8748920
150.65015 -55.91497 -10.606032 7893613
74.631294 -55.760418 127.22546 9405566
73.871773 -55.536495 127.68682 9931910
150.78223 -54.833176 -11.284789 9538434
150.79379 -55.338943 -10.799228 7564651
74.092072 -54.611835 127.951 9800324
73.394676 -54.626144 128.28612 9011324
150.94434 -53.53614 -12.089824 9735812
151.04208 -53.88467 -11.549113 9275263
74.113869 -53.600658 128.347 10853012
73.440857 -53.769421 128.60809 10129804
72.833321 -53.572933 128.98409 7564651
151.15636 -52.845703 -12.229762 10130313
151.43604 -52.853527 -11.58089 10591121
73.618362 -52.77544 128.92107 8682611
72.851173 -52.563103 129.38155 8287853
151.30025 -51.595566 -13.036887 8681843
151.47424 -51.895035 -12.363761 9341054
73.76783 -51.938309 129.18465 8287853
73.141479 -51.604221 129.62523 8551025
72.430664 -51.471878 130.02592 9274492
151.62424 -50.826965 -12.992381 9011576
151.86279 -50.928535 -12.351031 8683124
73.158325 -50.823643 129.93086 8287853
72.481506 -50.601944 130.35094 9142906
71.77182 -50.433338 130.76566 8682867
151.79369 -49.493755 -13.818015 9537150
151.87195 -49.96217 -13.210898 8813685
72.690224 -49.805099 130.56934 8616818
71.916756 -49.596348 131.03145 8288883
152.09837 -48.62606 -13.908286 10721422
152.21655 -48.990715 -13.303863 7826791
72.704659 -48.794796 130.9686 8682867
72.08886 -48.601982 131.34721 8749432
71.375702 -48.50061 131.7366 9144448
152.31546 -47.833504 -14.131423 10129286
72.128693 -47.74519 131.67226 9144448
71.446312 -47.614109 132.05858 10591378
152.49457 -46.763073 -14.773269 9471610
152.67654 -46.963417 -14.124042 9471610
71.708382 -46.806854 132.25928 10525329
70.912163 -46.631012 132.72496 9670534
153.02802 -45.549122 -15.717383 9867139
153.03827 -45.913998 -14.987357 9274485
71.168343 -45.865074 133.13365 8156780
70.457909 -45.620064 133.68152 8420210
69.885857 -45.377277 134.16113 8485747
153.99063 -44.477165 -17.388117 8616048
153.75052 -44.633469 -16.688406 10457994
153.45422 -44.996162 -15.835925 10262156
70.684746 -44.964516 134.11482 8551539
69.975639 -44.723301 134.7325 7893613
69.655647 -44.321514 135.71584 7893613
68.978508 -44.208733 136.41554 8880246
154.69376 -44.263496 -17.466372 8616048
69.279228 -43.988998 137.01427 8089963
68.614815 -43.987747 137.34004 10459022
68.255951 -43.874046 138.28882 10788499
67.688866 -43.836597 138.82344 9210491
133.12204 -77.655373 22.359091 9471607
133.13675 -77.759087 23.350138 10524551
133.07892 -78.012794 24.000193 8681835
133.4437 -76.669983 21.670626 8089963
133.45583 -76.744827 22.414267 8550511
133.37875 -77.067123 23.171511 9471607
96.339317 -76.215469 90.29747 7038307
133.93822 -75.541451 20.677504 9275263
133.83762 -75.774391 21.486494 9142649
133.77263 -75.928673 22.383944 8089963
95.851738 -75.818069 90.765205 7432807
95.086449 -75.581673 91.344719 9274750
94.427742 -75.23027 91.982414 7564651
135.25931 -74.310158 18.061792 12432807
135.21486 -74.333832 18.717848 10262665
134.77972 -74.554474 19.689535 9604992
134.41083 -74.917786 20.585138 9143675
134.32533 -75.080597 21.343863 9274235
95.425301 -74.9244 91.711113 10327178
94.727295 -74.640991 92.364571 8945529
94.08242 -74.353371 93.160515 9931908
93.491661 -74.263802 93.741486 11379356
140.98007 -73.607887 8.3627939 7564390
140.76938 -73.955002 9.1735926 9735557
140.2695 -74.018791 10.223741 13353909
139.58878 -74.018333 10.847169 10853776
139.28995 -74.016418 11.917771 9208435
138.58426 -74.015495 12.779111 10458246
138.28105 -74.013771 13.756421 11445658
137.59654 -74.01339 14.354772 8419952
137.30185 -74.011246 15.525002 7893607
136.55914 -74.010689 16.237589 10394253
136.28435 -74.035561 17.201548 11051927
135.89137 -74.117271 17.947969 11840671
135.71031 -74.180176 18.953573 9210491
94.469131 -74.158775 93.590843 9931907
93.763115 -74.07 94.287971 11116184
93.252846 -73.96344 94.956276 10853013
92.625488 -73.896629 95.829384 9603461
92.448845 -73.894737 96.808357 10195851
91.878616 -73.893753 97.613792 9340286
91.22831 -73.892532 98.57518 8879735
90.98513 -73.890831 99.509438 7432289
90.262085 -73.890381 100.16175 5655878
90.007271 -73.888687 101.09827 6511699
89.323975 -73.887535 102.05055 8814198
88.968132 -73.886192 102.88882 7432801
88.511757 -73.845024 103.92101 6117453
87.879883 -73.57827 104.65061 6314832
87.351051 -73.342072 105.04382 7367264
141.15706 -72.739265 7.5637336 9076593
141.29384 -72.862762 8.3502016 9405302
88.195961 -72.736153 104.87473 6314836
87.289864 -72.63768 105.3572 7498855
141.50523 -71.773087 7.513082 10062976
141.56226 -72.16172 8.3812647 10457478
88.139763 -71.948143 105.21935 7038307
87.520676 -71.727318 105.61085 7169892
86.808372 -71.386826 106.09604 8420214
141.68848 -70.796455 6.736177 8682097
141.86342 -70.829796 7.542295 9405302
87.599937 -70.680779 105.99336 8091249
86.970123 -70.623367 106.32424 10591634
86.357231 -70.450623 106.69335 10262156
142.00778 -69.414261 5.8945022 10261391
142.02812 -69.830185 6.6486945 11116438
142.063 -70.122047 7.2665954 7564651
87.035149 -69.787102 106.62909 10130827
86.323845 -69.657997 107.02866 9341057
142.28311 -68.681953 5.9051795 12168871
142.37572 -68.863785 6.5950065 12037282
87.139397 -69.061584 106.87019 9735812
86.536339 -68.630142 107.33852 9341059
85.826126 -68.465179 107.75205 8354167
142.49585 -67.473404 4.8832908 8090218
142.55246 -67.858482 5.743772 8551286
86.663353 -67.817406 107.60319 9012095
85.878609 -67.620316 108.06625 8419959
142.79529 -66.702705 4.9355903 7958632
142.90294 -66.904686 5.7220778 8748660
86.125427 -66.829689 108.26327 9341059
85.370743 -66.561615 108.74014 10985880
142.97736 -65.761368 4.209516 9670019
143.15102 -65.759338 4.9530082 7893096
143.17807 -66.086838 5.5942512 7564643
86.196442 -65.850342 108.62203 10592151
85.520576 -65.637093 109.0384 9868170
84.890938 -65.303162 109.48056 9210491
143.28955 -64.775093 3.9712729 10261388
143.42014 -64.903954 4.7391791 9340285
85.689095 -64.709686 109.32862 8289398
84.857758 -64.608437 109.77601 9736578
143.52289 -63.659904 3.1872649 7038307
143.65942 -63.770081 3.9507537 8616824
85.659729 -64.161713 109.56318 10592151
85.137794 -63.75214 109.98307 11973027
84.361824 -63.56403 110.43829 9868164
143.82835 -62.790161 3.1065879 7761773
143.99979 -62.818844 3.8894935 8287859
85.186653 -62.850376 110.32157 12235687
84.540573 -62.578415 110.74693 11117208
83.908722 -62.381641 111.13506 8681835
144.09698 -61.585693 2.3311439 9932416
144.14874 -61.91626 3.0835547 9340539
84.686378 -61.646088 111.05024 10590605
83.831505 -61.618164 111.47966 9340281
144.48135 -60.487007 1.4679312 9800319
144.48924 -60.702244 2.1629882 9340021
144.49112 -60.987343 2.9737754 9669243
84.105461 -60.854591 111.67702 8945265
83.462883 -60.48875 112.22401 11446174
145.35674 -59.383453 -0.26955661 10789009
145.31451 -59.470009 0.51585901 9407614
144.98834 -59.860142 1.3858351 10195334
144.97438 -60.066574 2.1697059 9208435
84.236107 -60.14254 112.13342 8681835
83.647179 -59.855175 112.66238 9867141
83.005287 -59.491322 113.3841 9209467
82.441238 -59.245491 114.12211 9867140
81.867584 -59.177071 114.63163 11905951
150.27231 -58.703259 -8.9429274 7564643
150.50464 -58.820808 -8.303031 8353645
149.59076 -59.044708 -7.4615197 9997700
149.63103 -59.042702 -6.5629754 9537150
148.58777 -59.042065 -5.6256967 9142907
148.61705 -59.040085 -4.73313 8682867
147.57169 -59.039875 -3.9926171 9077625
147.5938 -59.037537 -2.9289346 9867397
146.55304 -59.037357 -2.2063088 9736067
146.56146 -59.035439 -1.3260752 8092011
146.0527 -59.163265 -0.48029956 13486007
146.01236 -59.229656 0.43190518 10789009
82.77224 -59.018356 114.72898 9209467
82.188751 -58.997795 115.0841 10787985
81.741173 -58.902229 115.92925 9867398
80.898628 -58.86673 116.81457 9538433
80.897964 -58.864098 118.02943 8354934
80.041298 -58.863979 118.60854 8683642
79.745415 -58.862186 119.61859 9012094
79.158966 -58.861248 120.409 9603973
78.708771 -58.859886 121.31332 9932937
78.251411 -58.858547 122.21565 10986134
77.647255 -58.857632 123.00736 10130313
77.318428 -58.855854 124.02855 9603969
76.865868 -58.613033 124.83067 9669506
76.174782 -58.41346 125.40426 9866630
