# .PCD v0.7 - Point Cloud Data file format
VERSION 0.7
FIELDS x y z rgb
SIZE 4 4 4 4
TYPE F F F U
COUNT 1 1 1 1
WIDTH 1200
HEIGHT 1
VIEWPOINT 0 0 0 1 0 0 0
POINTS 1200
DATA ascii
-85.670555 -31.665962 115.61781 9801095
-86.537048 -31.849394 115.15712 10721426
-78.960472 -30.357311 119.27499 9143161
-79.702095 -30.302921 118.98996 9669505
-80.537376 -30.415255 118.53306 9603202
-81.485359 -30.452003 118.08511 8813945
-82.435043 -30.490204 117.63533 8157042
-83.303474 -30.620338 117.15253 8748659
-84.11515 -30.726204 116.71518 9011573
-84.808456 -30.843056 116.34393 9011573
-85.504723 -30.961609 115.97498 9011573
-74.817551 -29.269636 122.06287 13550517
-75.777664 -29.173388 121.97484 8091243
-76.37442 -29.331326 121.44118 8749173
-77.095642 -29.491016 120.82983 8748661
-77.972977 -29.679638 120.28123 8945782
-78.917778 -29.710655 119.8343 7893356
-79.841843 -29.701834 119.42986 8090737
-80.767288 -29.694443 119.02361 8945787
-81.60231 -29.806398 118.55789 8813945
-57.475857 -28.445654 133.88809 9537667
-58.357891 -28.484715 133.71735 9603458
-59.342922 -28.564606 133.51331 7498337
-64.020531 -28.741909 129.33534 9011579
-64.64222 -28.742924 129.02531 8551029
-65.572136 -28.744442 128.55507 8617081
-66.498444 -28.745964 128.07811 8617081
-67.421234 -28.74749 127.59455 8617079
-68.340591 -28.749016 127.1043 8617075
-69.256523 -28.750544 126.60741 9670019
-70.017082 -28.751816 126.18848 9406847
-70.774841 -28.75309 125.76463 10459534
-71.484703 -28.860483 124.9077 11446174
-72.24929 -28.993282 124.15619 9472639
-73.179436 -29.008898 123.69138 9538688
-74.10891 -29.025417 123.22362 9210491
-75.037926 -29.042936 122.75279 10131079
-75.657036 -29.055017 122.43731 9210491
-56.639973 -27.300133 134.45872 9866373
-57.428936 -27.566742 134.22058 9208701
-58.438679 -27.653904 134.00946 9077114
-59.144993 -27.99284 133.75929 10261132
-55.734039 -26.211765 135.02074 13815233
-56.523617 -26.476391 134.78316 10919573
-57.533432 -26.560766 134.57306 10261131
-58.240444 -26.897867 134.32346 9010808
-54.910069 -25.362076 135.4801 11381404
-55.615608 -25.387634 135.34566 11973285
-56.625565 -25.469269 135.13655 11906724
-57.33329 -25.804693 134.88734 11182745
-54.70602 -24.608072 135.79437 10591632
-55.740578 -24.512325 135.64632 10262667
-56.558659 -24.600494 135.46883 9077882
-53.438206 -23.202795 136.53732 7039331
-54.110027 -23.475691 136.31764 8551797
-55.039143 -23.606823 136.10458 9209980
-55.828171 -23.898375 135.85724 8880503
-52.521786 -22.118208 137.09982 9537923
-53.230812 -22.447523 136.85266 8485749
-54.241821 -22.522429 136.64587 8682100
-55.035969 -22.783121 136.40895 9143931
-52.31245 -21.362249 137.41573 10326924
-53.323841 -21.434809 137.20975 8747893
-54.109394 -21.546101 137.02951 8879479
-51.561466 -20.44384 137.88763 7563619
-52.379543 -20.524206 137.71301 9800837
-53.36755 -20.586344 137.51501 8484721
-50.637703 -19.359015 138.45152 13551549
-51.508747 -19.580709 138.21538 8155756
-52.483509 -19.741983 137.98315 10064009
-53.159832 -20.013199 137.76328 11379356
-49.931923 -18.397152 138.93143 9208698
-50.861729 -18.53614 138.71535 9406078
-51.792751 -18.676254 138.49867 7366496
-49.135044 -17.195658 139.51587 12629930
-49.932972 -17.449028 139.28101 10655886
-50.948299 -17.514959 139.07674 7563619
-51.663845 -17.842581 138.82904 7563619
-48.291573 -16.348446 139.97787 7761765
-49.039318 -16.464081 139.80267 12695982
-50.017086 -16.425428 139.64368 12300965
-50.73373 -16.752378 139.39609 7563619
-47.572262 -15.276723 140.62718 8682867
-48.220234 -15.592721 140.31474 7695717
-49.099483 -15.651717 140.12474 10656146
-49.800602 -15.661568 139.96385 13551549
-45.702423 -14.21376 141.80864 8814454
-46.574871 -14.471402 141.4296 8288110
-47.510372 -14.627279 141.1405 8419439
-48.479031 -14.859144 140.7897 7563619
-29.16305 -13.435356 153.02888 13748931
-30.177317 -13.468312 152.74634 10524558
-31.084406 -13.464617 152.50609 7037274
-31.614267 -13.650411 152.29523 7037274
-38.27776 -13.696025 146.70949 9735297
-38.983398 -13.69703 146.52324 9208957
-40.040157 -13.698543 146.23792 6510930
-40.919506 -13.699809 145.99454 6510930
-44.032986 -13.906153 143.08739 7367781
-45.096588 -13.917353 142.86623 15130838
-45.806385 -13.925199 142.7178 8814454
-27.720324 -12.161561 153.89153 10460052
-28.283751 -12.460623 153.6291 8683899
-29.152979 -12.531984 153.37077 14998740
-30.195951 -12.574733 153.07692 13551030
-30.94449 -12.901407 152.75485 7037274
-26.696501 -11.03063 154.58887 8617843
-27.453112 -11.358682 154.26416 8552312
-28.501024 -11.401296 153.96898 8157812
-29.37221 -11.473436 153.70982 14143428
-29.93466 -11.773997 153.44719 16774119
-26.010164 -10.273502 155.05594 6972506
-26.732527 -10.460412 154.79337 7762278
-27.649332 -10.45633 154.55064 7894122
-28.489279 -10.490975 154.31392 9802122
-25.1593 -9.1321173 155.7112 5656389
-25.794222 -9.5115166 155.3996 6840407
-26.792856 -9.5072269 155.13522 6577748
-27.764376 -9.6306343 154.83005 8881016
-24.172037 -8.1132412 156.35674 4867385
-25.020144 -8.3658018 156.03598 4801336
-26.127859 -8.3615274 155.74252 5261375
-26.972128 -8.6142044 155.42274 5392706
-23.474005 -7.3454928 156.83095 6577746
-24.264002 -7.3682618 156.61194 4998971
-25.148733 -7.4422503 156.34851 4538164
-25.936583 -7.4652834 156.12997 4669494
-22.546709 -6.1554389 157.5248 7564126
-23.319807 -6.4920778 157.19244 7695968
-24.391237 -6.4402528 156.92651 5919561
-25.242281 -6.6957397 156.60387 4866873
-21.714418 -5.4126496 158.02545 7563616
-22.5828 -5.475143 157.77063 5853256
-23.625082 -5.5112638 157.47943 6643026
-19.861082 -4.1185136 159.1785 7038298
-20.821802 -4.3922629 158.66113 10655628
-21.841501 -4.4525518 158.35205 7366239
-22.689978 -4.6299047 158.05943 5392706
-23.361094 -4.8888645 157.78346 5392706
-18.326017 -3.439698 160.19119 9537409
-19.153208 -3.533241 159.75517 8813686
-20.073397 -3.5274498 159.31444 7564386
-20.996878 -3.5229671 158.92607 8616049
-21.858915 -3.560986 158.68214 8089962
-15.298296 -2.1621125 162.16385 9735812
-15.862608 -2.1601231 161.89299 9735812
-16.604643 -2.35689 161.45642 10262156
-17.48522 -2.5025628 160.97366 9274493
-18.376921 -2.605124 160.50302 9076858
-19.340418 -2.4949555 160.08353 9208444
-20.224276 -2.5972898 159.61668 8024681
-21.101698 -2.6696622 159.22055 8484463
-13.255568 -0.95929289 163.63362 10655630
-14.125593 -1.1199943 163.1496 10656403
-14.996027 -1.410524 162.6129 13288379
-15.893843 -1.35866 162.20134 12630192
-16.832682 -1.3570976 161.74982 10985623
-17.767763 -1.3556014 161.30006 9405822
-18.592463 -1.3543637 160.90344 9340030
-19.503405 -1.5918834 160.36905 9471871
-20.345125 -1.7489172 159.90047 9011832
-10.792402 -0.14568587 165.31586 10590353
-11.8151 -0.28253317 164.71252 10722450
-12.515936 -0.35091281 164.31956 9998471
-13.399267 -0.31095058 163.9272 10853266
-14.30876 -0.39253682 163.42267 12696500
-15.301271 -0.31234217 163.01083 15724262
-16.121511 -0.45398241 162.49947 14011845
-17.053522 -0.55493444 161.96744 11709089
-17.802507 -0.55514395 161.6066 11709089
-6.9087653 0.68828911 167.88367 10262156
-7.5030341 0.68637902 167.59679 10985881
-8.3525982 0.54562336 167.07158 10392719
-9.1892681 0.51556492 166.6447 9603461
-10.123411 0.43053585 166.12476 9668996
-11.020384 0.46944666 165.72644 9669763
-11.91371 0.5080834 165.32993 10261899
-12.753096 0.36244738 164.80377 9998727
-13.705587 0.2580086 164.25758 11709348
-14.278936 0.25678229 163.9809 11709348
-0.86417919 1.1380116 171.90668 9341054
-1.6874214 1.1342753 171.50208 9012090
-2.7118659 1.1295124 170.99883 8880503
-3.5270591 1.1258894 170.59839 9144187
-4.3385673 1.1221725 170.19992 8880503
-5.3477607 1.1176678 169.70447 9011320
-6.3518577 1.1132554 169.21165 8945015
-7.1511054 1.1096586 168.81952 9735299
-107.82343 -43.441422 100.99238 9537918
-108.38716 -43.323849 100.78783 8025193
-109.23935 -43.42355 100.36128 8879735
-110.16033 -43.562469 99.847031 9341571
-110.97853 -43.579395 99.426903 8552313
-111.89172 -43.516312 98.893585 10064523
-112.70348 -43.530861 98.457108 10327437
-113.68768 -43.554127 98.069168 10393486
-114.57034 -43.824753 97.397308 10064520
-115.28446 -43.83168 96.579163 10195081
-115.86349 -43.832977 95.883659 9734531
-116.32353 -43.834007 95.324707 9997703
-118.66797 -43.837402 94.647598 11183260
-119.34811 -43.838963 93.788033 9735812
-120.02199 -43.840515 92.923676 9077884
-122.26677 -43.843719 92.32933 7563619
-122.70937 -43.844761 91.73941 8286567
-123.36836 -43.846321 90.850769 9536894
-123.80437 -43.847359 90.255959 9536894
-126.06086 -43.850632 89.597122 10787730
-126.70427 -43.852192 88.684357 12564906
-127.12977 -43.85323 88.073502 8617331
-129.40074 -43.856567 87.360489 11379348
-130.02791 -43.858128 86.42366 9340286
-130.4425 -43.859165 85.796783 9734788
-132.72739 -43.862572 85.028648 8616822
-133.33763 -43.864128 84.067902 8222321
-135.64035 -43.867592 83.255005 9143675
-136.03911 -43.868641 82.600792 8879991
-136.53368 -43.869938 81.780685 9736073
-138.65503 -43.872948 81.24736 8617594
-139.14107 -43.874252 80.411285 8221806
-139.52667 -43.87529 79.740601 8616048
-141.85873 -43.878876 78.823502 8616560
-142.33046 -43.880184 77.968422 9405819
-144.5881 -43.883568 77.180588 9932937
-144.95753 -43.884617 76.483376 8946044
-145.32417 -43.885654 75.784821 8485494
-147.3286 -43.888321 75.481491 8814203
-147.5999 -43.889061 74.948975 8814203
-147.95882 -43.890152 74.237457 10064011
-150.34518 -43.893921 73.182938 11445143
-150.78246 -43.895229 72.276733 11774624
-153.01556 -43.898544 71.54332 8616307
-153.35776 -43.89959 70.805618 10459022
-153.69691 -43.900635 70.066605 14077894
-155.95163 -43.904011 69.28833 10590868
-156.28348 -43.905056 68.53685 9143681
-158.57831 -43.798855 67.729752 9142651
-159.05293 -43.673798 66.938667 10459023
-159.63025 -43.550735 66.143517 14078918
-105.92381 -42.129307 102.36797 7563619
-106.74701 -42.481331 101.85886 8550768
-107.57747 -42.732079 101.38723 9801089
-108.42479 -42.593269 101.06466 8419695
-109.50075 -42.53212 100.59952 9142907
-110.33357 -42.621986 100.14737 8222575
-111.16619 -42.712383 99.689606 8157555
-112.16931 -42.823174 99.137375 9734531
-112.84046 -42.898361 98.767471 10853012
-159.33478 -42.852203 67.146317 10130058
-159.85316 -42.662712 66.403702 13223353
-160.3922 -42.468128 65.629791 11906980
-104.23531 -41.342846 103.43803 9866630
-104.96967 -41.44416 103.06943 9735043
-105.83624 -41.651138 102.59925 8156011
-106.9205 -41.553886 102.15419 9735039
-107.77029 -41.549324 101.77652 9932418
-108.68547 -41.703892 101.30573 9274493
-109.54253 -41.800381 100.87991 8616819
-110.21057 -41.871193 100.51903 8616819
-160.12856 -41.777264 66.573303 10788244
-160.63962 -41.661556 65.7901 9537664
-161.07452 -41.520126 65.154526 7563619
-102.61956 -40.334545 104.56489 8617075
-103.40837 -40.593891 104.10841 9340285
-104.2979 -40.50288 103.74776 9735299
-105.14188 -40.589691 103.33599 9800833
-106.15878 -40.695984 102.83916 10261638
-107.06079 -40.609028 102.4713 9735039
-107.80441 -40.780617 102.07031 8814197
-108.55012 -40.953609 101.66769 9143163
-160.37701 -41.048569 66.675629 6510930
-160.89908 -40.77766 65.985519 8353134
-161.44116 -40.63036 65.172424 7760998
-161.92531 -40.296726 64.591629 7563619
-100.89768 -39.329422 105.7378 7564651
-101.69678 -39.479424 105.32068 9603459
-102.64599 -39.615288 104.84216 10326924
-103.59878 -39.753551 104.36115 9208955
-104.52203 -39.497524 104.05177 10984849
-105.36466 -39.625252 103.62416 10655883
-106.30118 -39.890121 103.09947 10787725
-161.22527 -39.823872 66.118073 7366239
-161.71869 -39.641956 65.412369 8353133
-162.24652 -39.676723 64.492599 11181972
-98.605911 -38.169586 107.22736 10262156
-99.296341 -38.372585 106.83748 8814710
-100.16854 -38.664906 106.3305 9406847
-100.92065 -38.613255 106.0154 9603969
-101.96022 -38.513699 105.5912 8090731
-102.93663 -38.559685 105.1367 9340542
-103.72514 -38.70686 104.72544 9275260
-104.40491 -38.881248 104.35183 11510935
-162.00555 -38.805363 65.527283 9143420
-162.48988 -38.744839 64.749695 11051672
-163.03812 -38.572922 63.943783 8486006
-97.529297 -37.455273 107.99526 9801606
-98.480431 -37.547092 107.53361 10853525
-99.452888 -37.527584 107.10725 9801605
-100.28375 -37.599323 106.70731 10327434
-101.11764 -37.672714 106.30553 10261384
-102.02615 -37.693989 105.89126 7696229
-102.96217 -37.83942 105.41484 9735043
-162.69995 -37.886143 65.010628 11512738
-163.28596 -37.602264 64.2211 9012350
-163.80627 -37.565071 63.365719 8287859
-95.275551 -36.123745 109.53693 8287341
-95.958282 -36.459373 109.09711 10063496
-96.715157 -36.544964 108.7247 9340800
-97.651016 -36.663841 108.25901 9801349
-98.613007 -36.697433 107.81595 9275260
-99.56514 -36.463078 107.48497 10656401
-100.35159 -36.708389 107.03519 11313815
-101.13975 -36.955627 106.58384 12168866
-163.48055 -36.827316 64.448067 9012350
-164.00182 -36.789368 63.591549 10853525
-164.50128 -36.607098 62.87579 8287341
-93.490349 -35.286873 110.67039 10524045
-94.336517 -35.488464 110.21157 10326668
-95.178299 -35.661098 109.76627 9142650
-96.050781 -35.422089 109.47275 8945271
-96.932007 -35.539448 109.03207 9209211
-97.923409 -35.616089 108.55855 9735812
-98.872627 -35.869907 108.03262 10787988
-163.79321 -36.130615 64.418594 14077885
-164.28159 -35.874504 63.774647 10919825
-164.83847 -35.712948 62.94659 8089962
-91.63208 -34.105186 111.97524 11182488
-92.592865 -34.419647 111.41979 8550512
-93.499405 -34.581738 110.94984 9537409
-94.479904 -34.649918 110.48456 8945788
-95.299515 -34.708157 110.09518 7827047
-96.166168 -34.593452 109.75426 7958888
-97.081375 -34.69651 109.30415 9077882
-97.773506 -34.891121 108.91696 10591121
-165.05206 -34.701275 63.311443 8879478
-165.37393 -34.721844 62.750965 9537408
-90.178345 -33.312069 112.94318 7893613
-90.946487 -33.534588 112.51073 9735302
-91.822479 -33.514328 112.12771 9735302
-92.777107 -33.47501 111.71725 8156526
-93.757462 -33.539513 111.25353 9208959
-94.689178 -33.646641 110.79444 7630187
-95.519417 -33.836979 110.34715 8353651
-96.134377 -34.058083 109.98363 8683124
-165.37918 -34.073662 63.207863 10853012
-165.74115 -33.663437 62.88887 10326408
-87.839577 -32.127815 114.46352 7038307
-88.544724 -32.254105 114.09792 7630187
-89.422531 -32.522549 113.59803 9340543
-90.180923 -32.61055 113.22403 10064522
-90.99205 -32.659 112.84235 8024945
-91.937935 -32.672752 112.41445 7630186
-92.989906 -32.606377 111.97137 6117453
-93.929756 -32.843586 111.45634 7827565
-86.711143 -31.370228 115.272 9735046
-87.700241 -31.521336 114.76962 8156530
-88.645226 -31.472008 114.36744 7761771
-89.616417 -31.525476 113.91225 10525072
-90.427895 -31.571239 113.53148 11117209
-91.190376 -31.659374 113.15559 9143678
-92.104774 -31.881104 112.65812 7235935
-92.790154 -32.064037 112.2785 5920074
-83.677567 -30.213379 117.29307 9011573
-84.312592 -30.239952 116.98782 6511954
-85.111412 -30.40447 116.49316 9011573
-85.987122 -30.603266 115.96941 8419699
-86.892944 -30.68853 115.5119 8946044
-87.863274 -30.624403 115.12651 8090994
-88.873558 -30.615831 114.65984 8353648
-89.605698 -30.710157 114.2737 10064520
-90.430069 -30.868151 113.8131 10064520
-77.512848 -29.094133 121.48237 8288622
-78.440376 -29.115063 121.00018 8682613
-79.367378 -29.136961 120.51498 7696236
-80.29422 -29.159798 120.02653 9669508
-81.176224 -29.295465 119.34658 7498858
-82.031982 -29.418129 118.78728 8156785
-82.879646 -29.537304 118.26717 8091761
-83.711426 -29.613432 117.80943 8683639
-84.513084 -29.556812 117.48754 8814451
-85.315575 -29.722446 116.9735 9012087
-86.287682 -29.834988 116.44598 8156781
-87.17202 -30.039118 115.88132 7893615
-87.812805 -30.068819 115.57102 8617080
-59.800587 -28.374649 133.50229 9011320
-60.465687 -28.358145 133.37016 7432544
-61.349384 -28.472771 133.07751 8418928
-62.004745 -28.736843 132.39975 8813686
-62.958897 -28.738377 131.94852 9076858
-63.909809 -28.73991 131.49033 11116179
-64.857384 -28.741451 131.02533 9734788
-65.487442 -28.742477 130.71181 8813686
-72.612427 -28.767612 124.77932 10064777
-73.547516 -28.783201 124.31242 9538688
-74.481834 -28.799728 123.84261 9670785
-75.415695 -28.817158 123.36979 9210491
-76.349129 -28.835552 122.89389 8814709
-77.28199 -28.854851 122.415 9208956
-78.059227 -28.871662 122.01354 8288622
-78.836006 -28.889143 121.60985 9471872
-79.457466 -28.90357 121.28551 7564651
-58.896835 -27.277973 134.06691 9011320
-59.604588 -27.617315 133.81635 9603458
-60.648151 -27.532211 133.66272 7827303
-61.334042 -27.74062 133.46436 8089963
-57.990509 -26.183203 134.6313 9931910
-58.698914 -26.520744 134.38127 8879478
-59.715023 -26.607924 134.16901 9142906
-60.510662 -26.878296 133.92827 9077113
-57.081638 -25.090122 135.1955 11182745
-57.790783 -25.425962 134.94601 9668738
-58.80682 -25.510309 134.73482 8484464
-59.602886 -25.778618 134.49478 8353391
-57.052555 -24.312515 135.48749 9537665
-57.896091 -24.414385 135.3004 9602945
-58.829227 -24.567919 135.07843 8089963
-56.32206 -23.438547 135.93932 8419953
-57.200672 -23.580299 135.73128 8156271
-58.136684 -23.597136 135.5592 9011065
-55.440571 -22.442425 136.46292 9012089
-56.372517 -22.590754 136.24307 9669764
-57.306046 -22.740391 136.02243 7498599
-54.610771 -21.401566 136.99396 8682100
-55.454872 -21.497921 136.80882 9077114
-56.415409 -21.578543 136.60887 8419186
-53.736279 -20.146988 137.61176 8616307
-54.534515 -20.405781 137.3748 8550514
-55.553593 -20.479509 137.16704 9734788
-56.268726 -20.812157 136.91762 8681843
-53.07729 -19.300459 138.04079 9735043
-53.765556 -19.496069 137.84665 8616562
-54.723591 -19.557266 137.6543 8287342
-55.346767 -19.716959 137.48495 9537152
-52.194859 -18.32979 138.55524 6511954
-52.994434 -18.586384 138.31889 7695972
-54.014004 -18.656332 138.1124 8287853
-54.730602 -18.987093 137.86334 8089963
-51.400127 -17.123396 139.14113 5919050
-52.116909 -17.451319 138.89313 8419183
-53.137226 -17.519081 138.68733 9143162
-53.828251 -17.714165 138.49289 9735043
-50.468155 -16.032087 139.70883 10064006
-51.186035 -16.35924 139.46091 7695203
-52.206856 -16.424976 139.25581 7826787
-53.009834 -16.681164 139.01897 10458507
-49.881363 -15.315168 140.18945 13551549
-50.49049 -15.465281 139.97847 12300966
-51.446114 -15.517936 139.77531 9537402
-52.121532 -15.706118 139.53609 6642515
-48.007618 -14.244419 141.34903 7563619
-48.757576 -14.394955 141.09993 7563619
-49.704021 -14.618507 140.75949 10392974
-50.649868 -14.843209 140.41824 11117207
-51.399643 -14.995506 140.16777 8813680
-32.066143 -13.423679 152.25995 7234653
-33.077755 -13.45827 151.97748 7564130
-34.089306 -13.493751 151.69861 8222060
-41.446331 -13.700567 145.84596 8617075
-42.147728 -13.701582 145.64447 8484718
-43.198112 -13.703107 145.3364 5919567
-44.071892 -13.704382 145.07401 5393738
-46.338856 -13.931233 142.60579 5392706
-47.227077 -13.941626 142.41794 8287854
-48.116016 -13.952438 142.22871 6642517
-30.635992 -12.149022 153.11957 15722454
-31.38455 -12.476248 152.79724 8089961
-32.383789 -12.473262 152.5322 6840151
-33.20224 -12.643716 152.25003 6116940
-33.847088 -12.893153 151.98445 7761509
-29.857603 -11.14355 153.70441 14603465
-30.590639 -11.339293 153.43564 12235174
-31.461901 -11.438008 153.16644 8616304
-32.381382 -11.514293 152.89259 9735294
-28.944223 -10.261291 154.27905 10262415
-29.662966 -10.448747 154.01715 9670535
-30.759665 -10.445361 153.72618 8091761
-31.607157 -10.506309 153.47711 5392706
-28.156923 -9.2476692 154.86931 9604480
-28.953753 -9.4517155 154.58044 13682620
-29.913012 -9.4964504 154.30792 8223347
-30.738836 -9.7229204 154.00264 6709852
-27.252542 -8.0699863 155.5524 5392706
-27.963556 -8.4649048 155.21468 6117197
-29.061602 -8.543849 154.89244 11446426
-29.914412 -8.6054049 154.64156 9144192
-26.43751 -7.3353572 156.0453 5392961
-27.295702 -7.3970695 155.79355 5524804
-28.397356 -7.476603 155.46983 5920074
-29.107409 -7.8728709 155.13165 7367262
-25.636236 -6.307744 156.64465 4603701
-26.514635 -6.3792562 156.38374 4669750
-27.350424 -6.5429883 156.09937 6314575
-28.256639 -6.8167872 155.75461 5920074
-24.085512 -5.2768264 157.44482 5919050
-24.633043 -5.4699464 157.22646 5787463
-25.562944 -5.4679151 156.97946 4472371
-26.600668 -5.5046535 156.68878 4933179
-23.029699 -4.1081371 158.16492 5392706
-23.805346 -4.4486933 157.83037 6116428
-24.875696 -4.4956894 157.52748 5919050
-25.765455 -4.5723562 157.26122 4932667
-26.341963 -4.8833218 156.99066 4340785
-22.321615 -3.32477 158.64761 9010550
-23.061277 -3.5201576 158.37721 7366238
-24.112024 -3.4797785 158.11232 7366492
-24.926786 -3.6160626 157.84354 6445392
-21.497862 -2.2747514 159.26131 9931394
-22.25823 -2.481005 158.98128 8681842
-23.158567 -2.5861506 158.70178 7234653
-24.107515 -2.667675 158.41774 8287336
-19.088606 -0.95501095 160.82541 9537409
-20.549078 -1.3517077 159.96234 9406590
-21.356623 -1.5890238 159.55956 9602942
-22.414141 -1.5494915 159.2892 9339772
-23.289198 -1.6156304 159.03052 7826790
-16.522799 -0.15213987 162.55502 9208443
-17.08721 -0.15285131 162.28314 11709089
-18.109255 -0.25424868 161.70778 11380124
-18.939936 -0.355187 161.22453 9471615
-19.754671 -0.49842042 160.76222 10196106
-20.637781 -0.60557806 160.26323 9735555
-21.608015 -0.55632454 159.92255 9998728
-22.45027 -0.85542601 159.53949 9537408
-13.15785 0.66849309 164.86784 10459278
-13.925322 0.66608655 164.49757 11906727
-14.865828 0.45938385 163.87054 12959928
-15.626394 0.45742977 163.50317 12959928
-16.501074 0.49575114 163.11508 10261131
-17.399652 0.41231948 162.6123 11709089
-18.383665 0.49080878 162.20572 11116952
-19.18347 0.24662523 161.614 10524815
-20.11447 0.24470453 161.16483 9011832
-20.671236 0.24355499 160.89612 9406590
-7.9469733 1.1062171 168.42908 8814203
-8.937048 1.1019108 167.94348 8945532
-9.9223766 1.0977124 167.46037 9932169
-10.706961 1.0943398 167.07581 9931651
-11.683096 1.0902566 166.59743 8616819
-12.654867 1.0861803 166.12131 10459278
-13.428801 1.0829251 165.74225 10590609
-114.68042 -43.3587 97.64843 10064520
-115.49136 -43.392052 97.225159 9471615
-116.43498 -43.542686 96.686493 9602945
-117.27968 -43.569958 96.24865 9273980
-118.15941 -43.556293 95.704193 9143165
-119.11932 -43.418388 95.382172 8617331
-120.0809 -43.577137 94.831123 7367263
-120.91031 -43.672562 94.31073 8419952
-121.41389 -43.774258 93.650894 8156784
-121.93268 -43.842941 92.770203 7893614
-124.20236 -43.846191 92.157867 8088931
-124.75426 -43.8475 91.408577 8286567
-125.41084 -43.849064 90.505203 9405565
-127.69556 -43.852383 89.836487 11314074
-128.1261 -43.853428 89.220444 10064519
-128.7668 -43.855 88.292755 9537662
-131.06656 -43.858383 87.569092 9734788
-131.48611 -43.859436 86.936821 8945784
-132.1102 -43.861 85.984985 8617075
-134.3217 -43.864189 85.367126 9142909
-134.8326 -43.865498 84.557068 8419698
-135.33884 -43.86681 83.744202 8617330
-137.5676 -43.870056 83.075897 8879737
-138.06503 -43.871372 82.246628 10789016
-138.36101 -43.872158 81.747559 9736073
-140.70607 -43.875732 80.864151 7696229
-141.28607 -43.877308 79.845871 8090730
-143.45889 -43.880413 79.260887 7563619
-143.83835 -43.88147 78.569092 7761254
-144.30853 -43.882782 77.702118 8024428
-146.59503 -43.886219 76.896423 7498857
-147.05508 -43.887531 76.012894 9998215
-149.36375 -43.891033 75.167068 7564651
-149.72342 -43.892082 74.44696 7827300
-150.08023 -43.893139 73.725418 6511954
-152.31972 -43.896435 73.013184 10326666
-152.75623 -43.897755 72.095238 8089963
-155.02135 -43.901112 71.347015 10591380
-155.44749 -43.902431 70.412758 9341571
-157.48767 -43.700459 69.667679 7367013
-157.99669 -43.659523 68.834366 8222064
-158.48343 -43.477238 68.14032 9142651
-112.10872 -42.445354 99.323792 9208187
-113.0276 -42.441143 98.861458 9800580
-113.96077 -42.65274 98.302902 10064521
-114.79594 -42.673615 97.872559 10129801
-115.78691 -42.595798 97.404221 9471871
-116.62492 -42.58667 96.984779 9339773
-117.48375 -42.688683 96.509018 9866118
-118.40341 -42.610081 96.077011 7630187
-119.15438 -42.796349 95.620979 7301470
-120.08212 -43.00589 95.066055 8090987
-157.78976 -43.014004 69.649063 7037274
-158.23547 -42.701172 69.118332 8682100
-158.76457 -42.647572 68.259933 8418927
-159.25287 -42.465309 67.563141 9208443
-109.64714 -41.443321 100.97552 9011321
-110.55956 -41.43338 100.52336 8090732
-111.48428 -41.636459 99.972626 8419442
-112.32285 -41.726463 99.512054 7563618
-113.29049 -41.566208 99.089432 9668738
-114.11919 -41.55077 98.677284 9011576
-114.96893 -41.645481 98.209167 9340541
-115.8952 -41.750248 97.698158 10195338
-116.7159 -41.719173 97.296555 9537408
-117.53863 -41.940201 96.789932 9603203
-158.6275 -41.792877 69.106529 9142651
-159.01173 -41.603104 68.591553 8089962
-159.53531 -41.634178 67.681694 8484720
-160.02528 -41.451885 66.982132 9208443
-108.09802 -40.317055 102.12552 8945784
-108.99855 -40.635262 101.59547 9406079
-109.79828 -40.669605 101.21777 9077114
-110.81477 -40.562767 100.75343 7828076
-111.63478 -40.541386 100.34816 8156527
-112.47603 -40.629116 99.887154 6642516
-113.39287 -40.726231 99.384079 9208187
-114.2043 -40.689262 98.989548 10853012
-115.01896 -40.902458 98.490196 9143163
-159.32779 -40.985439 68.499695 9142651
-159.76193 -40.841084 67.867523 7958376
-160.35117 -40.621479 67.026505 7168860
-160.87196 -40.228077 66.426552 9208443
-105.71172 -39.192051 103.64332 10458505
-106.41603 -39.384781 103.25137 9471868
-107.20088 -39.663494 102.78883 9801090
-108.29718 -39.56208 102.34006 8748661
-109.13953 -39.546185 101.97031 8748661
-109.9996 -39.636948 101.54105 8485748
-110.91132 -39.728104 101.04886 7762540
-111.71408 -39.685505 100.661 9734788
-112.52133 -39.891212 100.16857 7826791
-160.00752 -40.034092 68.031242 8287856
-160.53302 -39.781399 67.322021 8024169
-161.12152 -39.497536 66.528473 8287341
-104.04535 -38.302647 104.74493 10262667
-104.78261 -38.464146 104.3508 10130053
-105.77228 -38.514961 103.88848 9011574
-106.59528 -38.550774 103.50652 8156268
-107.452 -38.636787 103.08939 9274237
-108.38585 -38.731972 102.63412 8682868
-109.2276 -38.635101 102.29717 8879991
-110.03999 -38.903759 101.82249 8616822
-160.85477 -38.806622 67.477203 6774102
-161.37135 -38.766201 66.630531 7629411
-161.79413 -38.792095 65.895309 6510930
-102.55393 -37.440983 105.75726 8617075
-103.10755 -37.310486 105.56248 9933191
-103.90351 -37.564453 105.10497 10460046
-104.92081 -37.659657 104.61246 9736066
-105.75798 -37.666355 104.23591 9800834
-106.75816 -37.516296 103.8496 9537409
-107.62871 -37.775345 103.35674 9668995
-108.51871 -38.010834 102.86469 9734788
-161.61545 -37.798588 66.912163 7958889
-162.10818 -37.795933 66.078674 7827304
-162.60196 -37.487278 65.463287 9012350
-100.49226 -36.181847 107.18404 10787727
-101.4771 -36.522205 106.60745 10656141
-102.41 -36.70628 106.11687 8551537
-103.30161 -36.604507 105.75961 9210491
-104.19757 -36.503475 105.40012 9868165
-105.16339 -36.636753 104.91528 10262667
-106.0226 -36.852974 104.44468 10261131
-106.48595 -37.079189 104.14687 9537409
-162.40544 -36.690136 66.369286 7432289
-162.93707 -36.721966 65.445084 7498598
-163.43509 -36.538017 64.733002 9012350
-99.010651 -35.344406 108.18222 9932934
-99.79734 -35.586395 107.73363 11380380
-100.68007 -35.478828 107.38274 9932677
-101.68719 -35.562252 106.89952 8880245
-102.52957 -35.633331 106.49474 8946808
-103.37521 -35.705956 106.08794 10065288
-104.39395 -35.79509 105.59717 9868165
-162.72748 -36.066235 66.271667 7893096
-163.18387 -35.749649 65.725395 7761766
-163.71637 -35.64193 64.900002 11578012
-164.29755 -35.301041 64.159607 9341051
-96.629562 -34.093632 109.74825 9341054
-97.351845 -34.23555 109.36872 9012089
-98.249191 -34.525661 108.85139 10064520
-99.028122 -34.62994 108.46165 9340797
-99.862816 -34.695038 108.06271 9406078
-100.91512 -34.598907 107.63148 9340541
-101.82841 -34.612499 107.21813 8354415
-102.58468 -34.795006 106.80709 8947064
-103.22997 -34.969395 106.44888 9736067
-163.58728 -34.828053 65.703659 9341051
-163.98067 -34.63588 65.174843 9341051
-164.5161 -34.668011 64.243988 10525067
-95.486786 -33.30228 110.57666 11050649
-96.432907 -33.545879 110.05624 9341054
-97.493469 -33.545197 109.58295 8222573
-98.416656 -33.555149 109.1667 12235173
-99.24588 -33.520699 108.81027 11380122
-100.08832 -33.680416 108.36988 8221549
-100.99573 -33.975483 107.84609 8616307
-164.37846 -33.797424 65.102875 9341051
-164.70047 -33.816261 64.543419 9341051
-165.2865 -33.707481 63.628063 8024680
-93.445419 -32.104893 111.9695 8420208
-94.059174 -32.320858 111.60867 7235685
-94.838181 -32.548656 111.16921 8156273
-95.662842 -32.603588 110.77888 11971494
-96.655655 -32.671108 110.30842 9735557
-97.621841 -32.693668 109.86787 8354158
-98.530937 -32.624008 109.48995 11379348
-99.321442 -32.860363 109.04192 10129540
-165.0829 -32.866795 64.577332 7432288
-165.49643 -32.782848 63.936615 8616819
-166.00122 -32.59647 63.214714 8813939
-91.651138 -31.289862 113.09839 8420208
-92.36573 -31.420364 112.72681 7433313
-93.227463 -31.636513 112.25512 7499106
-94.25045 -31.548183 111.8338 7367266
-95.041649 -31.44599 111.52161 7893358
-95.927361 -31.55374 111.08273 10590356
-96.850357 -31.716488 110.60517 11050906
-97.832817 -32.038319 110.03709 9274487
-165.87503 -31.79439 64.00502 9471614
-166.29594 -31.746523 63.325768 8156523
-88.454506 -30.099161 115.25957 8089963
-89.097107 -30.130236 114.94691 8879735
-89.902596 -30.279886 114.46186 9011832
-90.628098 -30.371754 114.061 9735555
-91.533852 -30.589268 113.50917 9077629
-92.508408 -30.642874 113.03769 7696486
-93.486374 -30.698301 112.56451 7828071
-94.295128 -30.676033 112.21317 7300959
-95.109428 -30.790068 111.75499 8419444
-95.77198 -30.831532 111.44241 9143425
-166.52945 -30.937273 63.551205 9011320
-85.921669 -29.201708 117.42074 8551538
-86.710075 -29.231119 117.01418 8090987
-87.546028 -29.417439 116.37674 8024942
-88.377884 -29.537518 115.81672 8484978
-89.250824 -29.675255 115.25888 8287598
-90.056862 -29.648132 114.9223 8616819
-90.947044 -29.725504 114.46092 9143421
-91.798294 -29.852152 113.9758 8879995
-92.813568 -29.988852 113.40893 8814711
-61.992794 -28.125431 133.2056 7037274
-62.680435 -28.335945 133.00612 8155756
-63.756863 -28.389833 132.79547 8682612
-64.447105 -28.6026 132.59464 8617075
-65.9589 -28.743246 130.47433 8813686
-66.742561 -28.74453 130.07491 9011579
-67.523872 -28.745817 129.67102 8089963
-68.302788 -28.747105 129.26213 9603713
-69.2342 -28.74865 128.76541 9143163
-70.161873 -28.750196 128.26205 8749172
-71.086044 -28.751745 127.75204 10985361
-72.006477 -28.753296 127.23531 9538686
-72.923264 -28.754847 126.71198 9735558
-73.684372 -28.75614 126.27095 7565161
-74.442596 -28.757435 125.82507 8748921
-75.047424 -28.758469 125.46539 8091248
-79.923416 -28.91474 121.04106 7564651
-80.69973 -28.933754 120.63213 10787729
-81.631241 -28.957499 120.1385 10524816
-82.562553 -28.982208 119.64165 9736070
-83.493637 -29.007858 119.14156 9341569
-84.269478 -29.029951 118.72235 9209727
-85.045296 -29.052778 118.30067 7893867
-85.665649 -29.071482 117.96197 8090987
-61.799057 -27.364363 133.52068 8747890
-62.822765 -27.457029 133.30505 7497825
-63.623074 -27.732542 133.06161 8682612
-60.92281 -26.542845 133.97896 9734784
-61.887333 -26.52689 133.81387 10590091
-62.715942 -26.623928 133.63127 7695205
-60.014011 -25.441698 134.54619 8616563
-60.950558 -25.59906 134.32211 9142649
-61.888973 -25.757954 134.09721 10590091
-59.239735 -24.229366 135.13046 8089963
-60.039391 -24.497097 134.89005 8288116
-61.064236 -24.58283 134.67682 9405821
-61.779781 -24.923819 134.42416 9340027
-58.678215 -23.380285 135.54324 8747636
-59.484264 -23.410074 135.38939 8682615
-60.423641 -23.564318 135.166 10590348
-57.715054 -22.399385 136.07576 7761514
-58.477268 -22.61813 135.85997 9734788
-59.541348 -22.558176 135.69357 10458763
-56.907513 -21.365597 136.6002 9011323
-57.597744 -21.565659 136.40411 9142908
-58.622341 -21.64415 136.19356 9997959
-59.339474 -21.980679 135.94234 9932166
-56.011982 -20.092276 137.22859 10458254
-56.728603 -20.425278 136.97878 8945015
-57.753571 -20.501184 136.76915 9340287
-58.557411 -20.764767 136.52946 9932166
-55.396557 -19.361713 137.60719 9537152
-56.113079 -19.381475 137.47292 9010808
-56.926105 -19.455595 137.3015 8681843
-57.635075 -19.663769 137.09908 8747892
-54.470924 -18.266212 138.17532 8090730
-55.188847 -18.597277 137.92598 8945015
-56.177296 -18.565943 137.76239 9142394
-56.933041 -18.688974 137.58313 8681843
-54.319889 -17.495789 138.48636 9274236
-55.286896 -17.57048 138.28741 9208699
-56.083267 -17.680126 138.10583 11247770
-53.415905 -16.331333 139.07608 8879732
-54.35701 -16.471785 138.85745 6972249
-55.299599 -16.61327 138.63824 7958888
-52.767147 -15.26936 139.7218 7563615
-53.628742 -15.429954 139.45895 7564391
-54.474133 -15.666818 139.15349 6511954
-50.934673 -14.37814 140.72804 8419693
-51.907612 -14.612736 140.37437 8813680
-52.862118 -14.586583 140.22589 8616560
-34.545464 -13.269054 151.67764 9011320
-35.267704 -13.460875 151.47882 8879992
-36.374805 -13.467691 151.27991 9011833
-44.595211 -13.705147 144.91406 7563619
-45.292374 -13.706168 144.6974 7563619
-46.16222 -13.70745 144.42242 7563619
-47.030251 -13.708733 144.14194 5524292
-48.649872 -13.959027 142.11455 7563619
-49.362019 -13.968213 141.96132 8221549
-50.431522 -13.982394 141.72986 8090730
-51.145054 -13.992085 141.57445 6511954
-33.725887 -12.140535 152.29868 6511954
-34.34547 -12.516606 152.00154 7761509
-35.346439 -12.521043 151.81137 9209214
-36.187786 -12.777083 151.56783 9143422
-32.774551 -11.135214 152.9295 11906716
-33.60408 -11.385593 152.61394 7432286
-34.700687 -11.385637 152.34767 9208958
-35.409626 -11.767143 152.07812 10261132
-32.103298 -10.378576 153.3923 8287594
-32.767475 -10.440437 153.19159 10788237
-33.679062 -10.438783 152.94847 7432544
-34.52602 -10.501307 152.70694 7038307
-31.091208 -9.2392597 154.08955 6248271
-31.926493 -9.4914799 153.7718 5590085
-33.023502 -9.48948 153.47929 6840150
-33.855934 -9.742074 153.16214 7038048
-30.413008 -8.4766426 154.5565 6775644
-31.194128 -8.5005131 154.33875 6248271
-32.068535 -8.575388 154.07692 5392706
-32.848248 -8.5996304 153.85936 7695971
-29.3902 -7.3278737 155.26018 6841175
-30.231516 -7.5822811 154.93997 5854027
-31.334864 -7.5803242 154.64571 5853257
-32.17305 -7.8349485 154.32622 5392706
-27.752546 -6.0451159 156.17834 9735812
-28.52704 -6.3197403 155.86852 6446418
-29.575113 -6.4282346 155.54765 5393476
-30.55456 -6.4910831 155.26227 5656649
-31.207075 -6.8116031 154.96776 6182735
-27.060724 -5.2709751 156.65334 5920074
-27.79019 -5.4637647 156.386 7367520
-28.716497 -5.4623799 156.13889 7170141
-29.56518 -5.5000095 155.89792 4933183
-26.257639 -4.2336903 157.25644 5919562
-26.923948 -4.492744 156.98131 5920074
-27.853155 -4.4916778 156.73328 8156780
-28.834581 -4.6204829 156.42264 6446419
-25.317606 -3.3218508 157.8492 5919050
-26.052717 -3.5171149 157.57961 5525060
-27.171453 -3.5163136 157.28079 5788488
-28.036264 -3.5809879 157.02536 7170141
-24.504778 -2.2738149 158.45903 8484716
-25.319952 -2.4868827 158.16132 6642770
-26.299253 -2.5358107 157.88118 6840660
-27.143751 -2.7715623 157.56712 5919817
-23.742563 -1.3519595 159.00806 7629411
-24.368441 -1.5895513 158.75177 8287341
-25.421843 -1.5503577 158.48483 8287336
-26.292742 -1.6165242 158.2272 7892833
-22.129904 -0.15882768 160.04684 9012091
-22.875765 -0.25926104 159.76984 9866374
-23.647966 -0.6079728 159.35237 8418927
-24.683798 -0.60895371 159.07513 8484720
-25.589792 -0.8248288 158.71162 8089961
-19.409307 0.64953995 161.84717 9932678
-20.155146 0.64733452 161.48672 8551025
-21.141413 0.48371601 160.87778 9406590
-22.122347 0.481722 160.55568 8683127
-22.941679 0.33990431 160.22517 8748664
-23.877092 0.23819827 159.89552 8287341
-14.391935 1.078963 165.2706 11314332
-15.350943 1.075058 164.80115 10458767
-16.11484 1.0719693 164.42726 14076870
-17.065817 1.0681274 163.96201 12234666
-18.01285 1.0643921 163.49875 9800836
-18.955564 1.0606971 163.03775 7958632
-19.89456 1.0570415 162.57874 11380380
-121.30657 -43.159794 94.384262 7564642
-121.95015 -43.433666 93.946312 9011065
-122.73836 -43.497272 93.522003 8287342
-123.60431 -43.680893 92.965332 8155498
-124.55394 -43.388351 92.650078 8088931
-125.44911 -43.50742 92.148911 8220517
-126.34212 -43.62632 91.63945 9340284
-127.23575 -43.580917 91.025238 10392717
-127.88893 -43.611973 90.664146 11116439
-128.95728 -43.791794 90.260002 11708316
-129.78848 -43.855225 89.452866 9537150
-130.32436 -43.856544 88.670242 9537150
-130.74948 -43.857594 88.041725 10458249
-133.07539 -43.861023 87.298317 8090987
-133.5979 -43.862343 86.49575 9340287
-134.01282 -43.863396 85.85173 8616822
-136.35403 -43.86689 85.054214 8945527
-136.96445 -43.868477 84.067291 8550514
-139.52414 -43.872566 82.888046 8090736
-140.11877 -43.874153 81.878227 9537666
-142.39746 -43.87751 81.153221 7564386
-142.88283 -43.878834 80.294678 7366496
-143.26776 -43.87989 79.605942 7563619
-145.56483 -43.883312 78.830719 7892840
-146.03621 -43.884636 77.95314 7038307
-148.63318 -43.888916 76.601646 9208960
-149.09137 -43.89024 75.705948 7564651
-151.34042 -43.893524 75.023521 7563619
-151.78876 -43.894852 74.111267 10195335
-154.06386 -43.898193 73.393288 9208443
-154.41489 -43.899258 72.650543 11709089
-154.76297 -43.900322 71.906418 10591380
-156.35971 -43.612263 71.643204 8552313
-156.85196 -43.59549 70.82077 8683899
-157.25671 -43.547009 70.169586 8749179
-119.56007 -42.370911 95.591492 8354159
-120.25769 -42.456223 95.203987 8617331
-121.04532 -42.696819 94.707069 6972508
-122.08414 -42.568741 94.235268 9011065
-122.95715 -42.602535 93.780487 8747893
-123.8455 -42.716251 93.284973 7760998
-124.7159 -42.6745 92.862595 7957603
-125.60205 -42.712677 92.399368 8286567
-126.41899 -42.859325 91.926353 9406590
-126.89887 -43.118225 91.577164 9735812
-157.05336 -42.805752 71.047005 8880249
-157.62331 -42.75156 70.119751 9011320
-117.05792 -41.381611 97.263 9668995
-117.7785 -41.515217 96.84404 9537667
-118.57494 -41.636543 96.3918 8879995
-119.46342 -41.725975 95.90625 7564648
-120.47572 -41.530018 95.475792 8288112
-121.31172 -41.685699 94.989471 7893358
-122.16913 -41.626442 94.580856 8682359
-123.08101 -41.656708 94.107925 9011065
-123.85204 -41.849442 93.639099 8682099
-124.80511 -42.066826 93.068146 8088931
-157.33826 -42.146008 71.038177 7760997
-157.85072 -41.750534 70.45372 8484976
-158.37863 -41.718533 69.581818 8682099
-114.44728 -40.46637 98.958755 10853012
-115.38057 -40.460594 98.489822 9537664
-116.15637 -40.652966 98.018768 9866630
-116.98734 -40.698627 97.580284 9471870
-118.00539 -40.558701 97.123863 9537667
-118.86188 -40.580639 96.682289 9932424
-119.73386 -40.681183 96.2005 7629929
-120.59337 -40.672733 95.76989 8090735
-121.48982 -40.887928 95.228516 8879995
-122.1967 -40.972721 94.83654 8879995
-158.1749 -40.922478 70.499374 9011320
-158.61517 -40.691853 69.918724 8682099
-159.16061 -40.721588 68.972725 9471873
-112.04497 -39.347988 100.63309 9734788
-112.87654 -39.449989 100.17111 6971738
-113.64494 -39.635281 99.706642 8155499
-114.49589 -39.724304 99.240204 9866117
-115.4052 -39.633514 98.818436 9274236
-116.31939 -39.543659 98.393829 9011575
-117.23958 -39.697208 97.865837 8748660
-118.08022 -39.627743 97.46994 9143163
-118.91736 -39.828953 96.964203 10195339
-119.61588 -39.907719 96.578934 9471359
-158.95639 -39.975891 69.854881 8550772
-159.43549 -39.718922 69.227386 9208958
-160.00435 -39.495594 68.423592 8090736
-109.67908 -38.313175 102.22501 9734788
-110.39147 -38.463879 101.8301 8682871
-111.15469 -38.642998 101.37338 8945786
-111.96833 -38.676128 100.94887 9340286
-112.89629 -38.628727 100.49974 6511954
-113.79999 -38.533009 100.08286 8221548
-114.76779 -38.677975 99.534348 9405566
-115.62379 -38.665913 99.10704 9142394
-116.54264 -38.815693 98.581245 10129285
-117.23381 -38.888912 98.202042 9537662
-159.79977 -38.747868 69.307816 9406080
-160.21002 -38.699215 68.647308 7038307
-160.62064 -38.651196 67.985794 6840669
-107.92215 -37.309216 103.41307 9340030
-108.67394 -37.474968 103.01074 9734788
-109.45872 -37.691547 102.57323 9734788
-110.47189 -37.543533 102.16994 9734788
-111.30191 -37.547333 101.75085 9537665
-112.3161 -37.643444 101.19904 10458505
-113.16464 -37.725201 100.73677 9011573
-113.95846 -37.709778 100.34229 9011319
-114.87201 -37.893791 99.805084 9405566
-160.48184 -37.791973 68.838547 7498855
-161.01251 -37.739834 67.97644 6971995
-161.47086 -37.420193 67.429199 7629667
-106.00188 -36.303955 104.67463 8881015
-106.98122 -36.577805 104.12724 8879479
-107.90805 -36.555599 103.7223 8221549
-108.75967 -36.563946 103.33863 9341057
-109.80312 -36.665627 102.8318 8748151
-110.65575 -36.674347 102.43702 9274494
-111.45408 -36.728714 102.01155 9997958
-112.35913 -36.905132 101.48174 11905693
-161.26566 -36.668991 68.316963 7169626
-161.81744 -36.699284 67.359573 8419696
-162.15837 -36.461864 66.952248 8814454
-104.60214 -35.359127 105.67945 10131081
-105.34561 -35.515522 105.2846 10328717
-106.20245 -35.592232 104.87112 8683892
-107.23495 -35.686222 104.37234 8682100
-108.08498 -35.69138 103.99068 7104352
-109.01872 -35.668575 103.58286 10525587
-109.83802 -35.930901 103.11153 7564392
-110.36251 -35.981453 102.85706 7564392
-161.66365 -36.006962 68.117905 7367005
-162.0542 -35.814186 67.594193 8551282
-162.59894 -35.701614 66.751541 8682612
-163.12228 -35.230965 66.202423 8089963
-102.06789 -34.150562 107.29686 8618099
-102.77424 -34.352535 106.90033 7960425
-103.7213 -34.603054 106.37672 9604481
-104.59146 -34.722084 105.94032 9144699
-105.50123 -34.581856 105.59042 8815734
-106.50381 -34.522835 105.16644 9341821
-107.31187 -34.667332 104.74748 9670531
-108.06985 -34.937328 104.30049 7828589
-108.82582 -35.098305 103.89823 9209984
-162.35248 -35.045361 67.641037 8879990
-162.84692 -34.700459 67.050522 9669507
-163.3389 -34.598972 66.289459 8287342
-163.73206 -34.406277 65.76123 9341051
-100.57104 -33.312706 108.30212 9142907
-101.27457 -33.51083 107.9083 8353135
-102.04193 -33.606812 107.52705 8353903
-102.93749 -33.497005 107.17132 8092011
-103.95884 -33.579266 106.68216 8157294
-104.81336 -33.649345 106.27244 7696492
-105.61581 -33.761913 105.86881 7960425
-106.35973 -33.779133 105.52967 9736579
-163.12752 -33.943027 67.119133 8550513
-163.57819 -33.709457 66.522888 8419184
-164.05676 -33.77903 65.661591 9341051
-98.835175 -32.108131 109.56148 9208435
-99.459724 -32.332016 109.19257 9405814
-100.42165 -32.581795 108.66261 9011321
-101.32362 -32.700611 108.2121 10524816
-102.16515 -32.667793 107.8495 8945528
-103.17841 -32.610104 107.42023 9472897
-104.1245 -32.720608 106.95334 7564651
-104.83875 -32.923233 106.55289 7564651
-163.91763 -32.90992 66.521935 9011320
-164.3947 -32.658585 65.893692 9866626
-164.85803 -32.659554 65.107544 7892839
-97.179321 -31.279268 110.63403 10721424
-97.892578 -31.541578 110.21008 9471607
-98.678093 -31.619091 109.82815 10392453
-99.721115 -31.497093 109.41144 10129282
-100.702 -31.521568 108.96358 8682869
-101.54797 -31.582527 108.56133 9537665
-102.3493 -31.822428 108.10707 9274493
-103.15253 -32.064053 107.65125 9603970
-164.72383 -31.730783 66.002441 9997699
-165.16541 -31.639271 65.319504 8616307
-165.63589 -31.636354 64.523972 9010808
-94.769707 -30.095961 112.44655 7037274
-95.339714 -30.29571 112.02435 9537409
-96.309654 -30.480476 111.4552 8156531
-97.240105 -30.580088 110.9705 9405819
-98.06765 -30.631792 110.56584 9274230
-98.897774 -30.684742 110.15928 10326660
-99.80452 -30.684549 109.74413 11445145
-100.71992 -30.801611 109.245 8092019
-101.22797 -30.837177 109.00385 8089963
-165.45412 -30.878998 65.432541 7958377
-166.09074 -30.600851 64.721809 8747892
-166.65457 -30.409695 63.996834 8222316
-167.10718 -30.295155 63.402527 10261132
-88.92382 -29.176746 116.15768 9340286
-89.544411 -29.198143 115.80927 8089963
-90.320351 -29.225567 115.37143 9340286
-91.25148 -29.259338 114.84298 9735046
-92.174995 -29.424967 114.189 7762029
-93.058861 -29.500971 113.7074 8485491
-93.838867 -29.757515 113.14515 7761510
-94.657928 -29.658697 112.86288 8089962
-95.678314 -29.643606 112.42085 10195082
-96.58287 -29.728849 111.94641 7629927
-97.404541 -29.91185 111.42683 9011059
-98.065308 -29.951223 111.09905 9011059
-167.04224 -29.769802 64.298676 8222315
-167.52002 -29.620481 63.71217 8551281
-64.915108 -28.413815 132.58133 8814198
-65.854942 -28.463137 132.39655 8616307
-66.631088 -28.62966 132.19762 9076851
-75.49984 -28.759245 125.19351 9210491
-76.251534 -28.760542 124.73675 9602945
-77.15007 -28.762096 124.18278 9010808
-78.044556 -28.763655 123.62239 7696741
-78.786995 -28.764952 123.15062 9340542
-79.526382 -28.766251 122.67411 8485745
-80.409889 -28.767807 122.0966 9932677
-81.289246 -28.769365 121.5127 9143422
-82.16436 -28.770926 120.92252 9735300
-83.035202 -28.772486 120.32598 9999242
-83.920593 -28.780479 119.75015 9341569
-84.698143 -28.801643 119.32568 9604482
-85.47831 -28.824413 118.90234 7696229
-86.414177 -28.852541 118.39144 9406847
-87.350433 -28.881704 117.87696 8090475
-88.286339 -28.911777 117.35928 8879735
-89.066376 -28.937605 116.92532 11248539
-89.846786 -28.964132 116.48871 9735044
-90.783211 -28.996878 115.96173 11116178
-91.563522 -29.02486 115.52003 9735046
-64.041313 -27.397818 133.1109 8419696
-64.984863 -27.56333 132.88266 8879990
-65.930626 -27.730526 132.65335 8813684
-63.221489 -26.339201 133.64662 8090731
-64.076355 -26.450378 133.45413 8814454
-65.021835 -26.614643 133.22598 8946040
-62.305 -25.420652 134.14787 8879477
-63.073254 -25.590097 133.94917 9406076
-64.143723 -25.597849 133.75662 10721424
-61.531353 -24.201553 134.73459 9340027
-62.248512 -24.54287 134.48164 9077112
-63.280422 -24.6313 134.26614 9274746
-63.975998 -24.840261 134.06583 11379348
-60.838341 -23.224005 135.21808 11379348
-61.604877 -23.446859 134.99997 10129799
-62.46109 -23.576609 134.8004 9866626
-63.172649 -23.793108 134.59444 8682867
-60.005272 -22.361002 135.68401 10261385
-60.764633 -22.433126 135.52289 10392714
-61.758354 -22.470266 135.33307 9801091
-62.478794 -22.811089 135.07964 9735555
-59.086483 -21.258308 136.25369 10853012
-59.805141 -21.595253 136.002 9274749
-60.800434 -21.572567 135.834 9275007
-61.559998 -21.70219 135.65161 9735555
-58.970631 -20.420464 136.58328 9735043
-59.915535 -20.570364 136.3605 9208699
-60.773018 -20.670717 136.17151 9735555
-57.601597 -19.066099 137.32547 9538694
-58.227798 -19.323128 137.11971 9275007
-59.030949 -19.511583 136.90782 9011576
-59.939224 -19.614584 136.70888 8222573
-57.396305 -18.486614 137.57562 8485749
-58.465 -18.475389 137.39038 9538694
-59.237484 -18.634737 137.1947 8354418
-56.592438 -17.531544 138.07042 9800581
-57.448456 -17.625664 137.88399 8683899
-58.305958 -17.720598 137.69699 10985369
-55.709946 -16.262911 138.69479 8879734
-56.51873 -16.522133 138.45584 10195340
-57.552341 -16.592505 138.2467 8946557
-58.276794 -16.926725 137.9951 10985369
-54.27 -15.04962 139.61888 7038307
-55.0229 -15.20418 139.36665 7169630
-55.801716 -15.431659 139.08031 8353646
-56.657703 -15.625995 138.79277 9734531
-57.345341 -15.819914 138.56836 8089963
-52.753654 -14.015115 141.22125 8945527
-53.336826 -14.17818 140.71327 8353651
-54.056744 -14.521313 140.06522 8748665
-55.057682 -14.575586 139.84621 7893357
-55.812962 -14.730891 139.59248 9734531
-37.482792 -13.475191 151.08057 10656401
-38.591736 -13.483392 150.8808 9603969
-39.314087 -13.677132 150.68112 8682867
-48.069683 -13.710275 143.79861 7366240
-49.106709 -13.711821 143.44775 6116429
-50.141041 -13.713369 143.08942 6512210
-51.00124 -13.714663 142.78532 8288365
-51.681057 -13.999628 141.45712 8748916
-52.216991 -14.007272 141.33949 7367263
-36.590164 -12.402724 151.63441 9011836
-37.566528 -12.534638 151.41266 10590608
-38.448654 -12.616182 151.22612 9209211
-35.82119 -11.283073 152.18365 9143422
-36.801311 -11.396583 151.96793 9472131
-37.642063 -11.685559 151.71233 9537923
-35.03046 -10.376753 152.65796 7038563
-35.892197 -10.444188 152.48029 7565161
-36.754025 -10.511959 152.30246 10261133
-34.210968 -9.2593727 153.24796 9538181
-35.04208 -9.4894915 152.98393 7893615
-35.963448 -9.6024837 152.778 7038563
-36.684902 -9.8780632 152.54846 7038307
-33.346558 -8.4715338 153.77412 10985623
-34.195953 -8.5343685 153.5235 12104104
-35.229141 -8.5746374 153.28714 10196367
-32.569286 -7.4506578 154.36429 6906201
-33.438148 -7.5228519 154.1049 12498605
