# .PCD v0.7 - Point Cloud Data file format
VERSION 0.7
FIELDS x y z rgb
SIZE 4 4 4 4
TYPE F F F U
COUNT 1 1 1 1
WIDTH 1203
HEIGHT 1
VIEWPOINT 0 0 0 1 0 0 0
POINTS 1203
DATA ascii
154.47179 -48.632015 -7.9696298 10590094
154.91478 -48.588211 -6.946753 9867140
130.51808 -47.603092 -60.606209 9735043
131.04459 -47.859917 -59.898483 9143419
131.7518 -47.961891 -59.079716 8419952
132.28369 -48.040043 -58.463139 9537663
144.07733 -48.290825 -32.790691 9208443
144.4267 -48.177311 -31.887732 9406076
144.83438 -47.934746 -30.958729 8945524
145.17342 -47.885826 -30.01309 8945526
145.509 -47.763103 -29.161268 7892583
145.82477 -47.739811 -28.255323 8155756
146.18996 -47.794533 -27.235498 7959401
146.59895 -47.918816 -26.266001 10064008
146.99425 -47.890957 -25.459375 9011320
147.44792 -47.841141 -24.548826 9143161
147.92912 -47.791428 -23.580248 9603457
148.32733 -47.768085 -22.763723 8616563
148.71599 -47.904934 -21.831831 8945784
149.14066 -47.929871 -20.918993 11840673
149.65121 -47.712067 -20.030859 8749434
150.06245 -47.802841 -19.090517 11117722
150.42932 -47.884235 -18.219728 10328717
150.77098 -47.90963 -17.388575 10197131
151.25058 -47.868004 -16.293947 8089963
151.65366 -47.703239 -15.495028 9142906
152.00694 -47.842815 -14.529899 9668736
152.35126 -47.92482 -13.63967 9273978
152.76685 -47.82386 -12.751693 9734785
153.21786 -47.783295 -11.723586 7958377
153.59055 -47.768005 -10.857104 8616307
153.94823 -47.866772 -9.9195356 10195337
154.3681 -47.82259 -8.9685965 11576988
154.78938 -47.779991 -8.0127516 9669250
155.14116 -47.823082 -7.1428704 9209467
155.39323 -47.888916 -6.2190576 9998469
155.70503 -47.659096 -5.2010255 9735812
130.04602 -46.723763 -61.622471 8288366
130.6868 -46.841183 -60.874081 11248538
131.38753 -46.861279 -60.101986 11314588
131.88333 -47.125423 -59.391556 8090987
145.40215 -47.312038 -29.98702 9142651
145.56801 -47.331558 -29.475527 9142651
146.08452 -47.018448 -28.304869 7695204
146.52113 -46.893478 -27.296175 5920074
146.89445 -46.961613 -26.454405 8879991
147.26848 -47.031548 -25.609858 9340541
147.718 -47.117722 -24.592936 9472124
148.16113 -47.010212 -23.75321 9340541
148.53743 -47.08548 -22.899431 8550770
148.98982 -47.17807 -21.871145 9011577
149.36755 -47.257107 -21.011023 13551549
149.81531 -47.155735 -20.15653 10789015
150.26405 -47.05545 -19.298853 10065550
150.63406 -47.136177 -18.427153 12959669
151.04741 -47.225471 -17.373682 11907239
151.45985 -47.117371 -16.499784 9538176
151.87346 -47.010624 -15.621921 9406846
152.32225 -47.013027 -14.559012 9801089
152.67558 -46.954723 -13.778403 9537403
153.04945 -47.083851 -12.774325 9274233
153.54422 -46.798946 -11.886539 9142651
153.8868 -46.882725 -10.982989 9537152
154.23587 -46.96999 -10.076701 9734788
154.66794 -46.927013 -9.124526 9866373
155.0304 -46.887108 -8.2951498 10787473
155.43283 -46.868954 -7.3422151 10787728
155.80521 -46.810371 -6.2810121 9735554
156.03456 -46.75729 -5.3851075 10525071
156.21764 -46.810989 -4.4185128 10130570
156.48438 -46.656925 -3.5008266 10064777
128.77336 -45.473026 -64.357277 7959144
129.22758 -45.692738 -63.61985 12761003
129.79442 -45.927456 -62.743999 12234659
130.47339 -46.009068 -61.918736 10920086
130.9267 -46.17804 -61.239372 8092019
156.44006 -46.10062 -5.5045495 10722450
156.74759 -45.972767 -4.5724015 10064777
157.03029 -45.890888 -3.588969 10261899
157.22049 -45.941078 -2.5542171 9867398
157.57571 -45.736561 -1.6785381 9998727
157.79161 -45.734303 -0.71341199 9471359
158.28494 -45.349144 0.14183551 9602945
158.42216 -45.389446 0.90339023 7696485
126.41891 -44.408436 -69.548981 8089963
126.82609 -44.435017 -68.983665 8089963
127.43457 -44.475716 -68.132896 8813680
127.85677 -44.597717 -67.105003 8616558
128.36305 -44.657349 -66.27668 8418925
128.6252 -44.897831 -65.302765 8024425
129.10718 -45.006321 -64.522728 9734529
129.67436 -45.069946 -63.837978 9471355
130.24295 -45.304371 -62.958981 12234402
157.76672 -45.206013 -2.7025592 10327692
158.00783 -45.166306 -1.7568729 9538177
158.25493 -45.087654 -0.92246503 9734531
158.69722 -44.875057 0.067879975 9931910
158.9006 -44.849251 0.98475009 7762022
159.34007 -44.735249 1.9338391 6512211
159.78767 -44.617218 2.8372471 8946553
160.04732 -44.589436 3.8045399 7565675
160.55322 -44.478695 4.475244 10459794
160.95491 -44.428955 5.5725417 9603717
161.04955 -44.465458 6.5447631 8156531
161.97252 -44.31538 8.5372477 9800582
121.90008 -43.629784 -79.569771 8813683
122.36774 -43.855915 -79.041473 9011320
123.05872 -43.959915 -78.364716 7959400
123.57265 -44.113338 -77.533257 7170140
124.03139 -44.112362 -76.790855 9405307
124.53443 -44.108936 -73.446678 9341057
124.96815 -44.107967 -72.698402 9472386
125.53327 -44.124378 -71.825493 7564651
126.1519 -44.161568 -70.98156 9537921
126.63011 -44.248779 -70.058426 8945269
127.3829 -44.239548 -69.283569 7695714
161.77013 -44.232121 6.3835616 8814203
161.86374 -44.269444 7.3615203 7959408
162.42876 -44.145443 8.1076899 9340289
162.77373 -44.111 9.1724939 9340289
162.86118 -44.150814 10.159574 8090470
163.5582 -44.062172 10.930909 6840918
163.80592 -44.004955 12.003434 7104348
165.3092 -44.002411 13.72144 5920074
165.23639 -44.001694 14.514913 7037274
165.16039 -44.00103 15.308148 8090218
166.63722 -43.99828 17.273745 10064268
166.54755 -43.997589 18.073721 9011579
167.99771 -43.994621 20.285803 8089963
167.89362 -43.993942 21.092245 8089963
169.28963 -43.964355 22.932085 8089963
169.3849 -43.744404 23.650961 7235421
169.41484 -43.723267 24.715788 6511954
121.45384 -42.627327 -80.458702 8813683
121.99094 -42.9175 -79.83712 8418925
122.73075 -43.033585 -79.119621 8353902
123.19098 -43.395309 -78.531731 7564898
169.66931 -43.008614 23.691851 7103579
169.80489 -42.739986 24.580294 7301214
169.86064 -42.704704 25.582808 8814453
121.01238 -41.74884 -81.282654 5920074
121.53616 -41.795399 -80.792213 7826789
122.27665 -41.907707 -80.075996 10063749
122.73783 -42.266487 -79.488617 8813683
170.16209 -41.773178 24.722849 7037274
170.18521 -41.808701 25.562929 7300702
170.22644 -41.809486 26.533304 6708566
120.54036 -40.628815 -82.228188 5920074
121.01017 -40.984436 -81.6493 7433313
121.86971 -40.84761 -80.9534 7366751
122.28188 -41.142063 -80.445885 9011320
170.46825 -41.019428 25.480806 6117197
170.60478 -40.749722 26.377398 6117453
170.66119 -40.714355 27.388323 6182734
120.52892 -39.863209 -82.590607 5656902
121.27649 -39.97089 -81.881485 7301471
121.8918 -40.096088 -81.280998 6775126
170.96416 -39.7785 26.524527 8354158
170.98764 -39.814266 27.371439 8353645
171.01086 -39.850887 28.21987 8353134
120.1778 -38.729431 -83.422134 9668734
120.79269 -38.850124 -82.824135 6511954
121.46539 -39.025127 -82.150055 5656646
171.27251 -39.021248 27.291426 10458507
171.41003 -38.750095 28.196421 9602943
171.4669 -38.714386 29.215994 8419182
119.65416 -37.804081 -84.309952 11246995
120.2883 -37.911537 -83.701027 9865856
120.98746 -38.001656 -83.042732 7104091
171.75253 -37.81028 28.217749 8155755
171.79518 -37.809662 29.202085 10327431
171.84225 -37.773659 29.990858 6512978
119.42558 -36.710972 -85.007393 8880246
119.89199 -36.984318 -84.477013 8682352
120.63151 -37.083782 -83.779167 7367006
172.08159 -37.012539 29.124136 9603709
172.22014 -36.739605 30.037848 8025446
172.24341 -36.726917 30.881601 8683376
89.410393 -35.784885 -151.77925 11315100
89.587135 -36.08773 -150.83987 8682867
90.151299 -36.024937 -150.14928 9406334
90.673088 -35.947262 -149.39465 9406334
91.31913 -35.850658 -148.45117 7893607
118.92101 -35.59906 -85.941704 8880246
119.47953 -35.877048 -85.333145 8090987
120.2378 -35.976295 -84.630898 7301213
120.71671 -36.325809 -84.052795 6511954
172.56468 -35.794643 30.062685 9603715
172.5708 -35.785934 31.048555 9932675
172.48515 -35.791737 31.675764 8090736
88.989403 -34.857723 -152.52281 12828595
89.416641 -35.183865 -152.20667 12433837
93.191887 -35.405926 -142.19002 7563874
93.554619 -35.35043 -141.63322 7037274
94.034813 -35.276642 -140.89062 9537408
94.510948 -35.203251 -140.14803 7695461
95.100204 -35.112007 -139.2198 7103324
95.683479 -35.021194 -138.29149 11315104
96.145386 -34.948963 -137.54884 9274750
96.697594 -34.852268 -136.59358 6248271
97.230858 -34.751442 -135.62056 8288108
118.98334 -34.869049 -86.213821 9735810
119.77828 -34.820133 -85.546303 8485745
120.21589 -35.210094 -84.992561 7564643
172.92795 -34.793732 31.022226 9471872
172.86023 -34.741901 31.746042 9142909
89.185463 -33.983597 -152.79013 12960181
118.48843 -33.898468 -87.076706 8682867
119.14985 -34.015236 -86.450874 8025194
119.83138 -33.985023 -85.873405 8222573
173.26463 -33.688255 31.606417 8089963
89.222206 -33.067848 -153.1348 9998983
118.03947 -32.845367 -87.942001 8222060
118.66164 -32.953735 -87.349655 7827047
119.34521 -33.115414 -86.68351 9406591
173.46185 -33.058056 31.85874 8089963
110.98083 -31.884998 -105.48811 7564651
111.25621 -31.820084 -104.74271 9143422
111.59569 -31.739439 -103.81245 9537665
111.93032 -31.659283 -102.88351 10985367
112.25941 -31.579763 -101.95618 8550256
112.58371 -31.50075 -101.03024 10457479
112.77583 -31.453661 -100.47535 9536635
117.71677 -31.562775 -88.845879 7762795
118.25978 -31.859301 -88.222984 8090475
118.9416 -31.999655 -87.555489 9077114
119.40074 -32.281689 -87.015167 11182489
112.96599 -31.406731 -99.921173 8615790
113.27879 -31.328941 -98.998695 8484975
113.58686 -31.251677 -98.077644 9537920
116.36367 -30.460209 -91.595833 8682867
116.91367 -30.460964 -90.901627 11051415
117.37656 -30.674578 -89.854797 7236195
118.01379 -30.789017 -89.069588 8025966
118.64057 -31.024485 -88.300842 8946296
115.82369 -30.199093 -93.20475 9538691
116.23317 -30.189993 -92.622536 8617076
116.77708 -30.1875 -91.919304 8682867
117.32906 -30.188238 -91.222694 13419964
135.50993 -53.570328 -51.923641 11116950
135.86484 -53.526047 -51.11013 8089963
136.14877 -53.429493 -50.381207 8089963
135.12221 -52.693832 -52.873886 10327692
135.7106 -52.889591 -52.074524 11314328
136.10587 -52.899933 -51.107304 8813942
136.40944 -52.927166 -50.180363 9735299
136.70387 -52.850132 -49.398422 9603458
137.06723 -52.702694 -48.492893 8156524
137.29135 -52.700615 -47.833431 8419696
134.74171 -51.717457 -53.814465 9078141
135.35594 -51.889256 -53.058163 8946555
136.02846 -52.002113 -52.195747 10590606
136.40994 -52.006668 -51.220787 9406078
136.69255 -51.999035 -50.395229 10064264
136.97444 -51.99316 -49.56963 9603714
137.312 -51.988255 -48.578861 8682868
137.64865 -51.985737 -47.587879 9669252
137.98593 -51.940868 -46.643032 9669253
138.37128 -51.773186 -45.695339 7827821
138.77754 -51.635147 -44.652447 7169628
133.83784 -50.504059 -55.448463 8089963
134.30702 -50.831646 -54.764248 9011576
134.96429 -50.881741 -54.027531 9604483
135.7007 -50.869385 -53.239368 8617332
136.27843 -51.290325 -52.291061 9669762
136.59654 -51.293636 -51.477005 9209467
136.94064 -51.107185 -50.672329 9209467
137.34081 -50.92136 -49.701344 9669506
137.67924 -50.9165 -48.707882 8945271
138.01682 -50.914005 -47.714256 9669250
138.35359 -50.913818 -46.72031 9406079
138.68958 -50.916 -45.72604 9011576
139.0248 -50.920517 -44.731354 7564651
139.30368 -50.925995 -43.902054 9012603
139.60153 -50.830658 -43.130505 10262666
139.96779 -50.728645 -42.164658 9471614
140.31737 -50.597023 -41.281498 8945271
133.38023 -49.686218 -56.386135 9209467
133.92339 -49.774158 -55.752155 10130568
134.57028 -49.88065 -54.996101 10460046
135.21924 -49.989426 -54.236534 10065032
137.9805 -50.201267 -48.628006 8681843
138.32109 -50.109943 -47.725956 9340286
138.70363 -49.944008 -46.784771 9142906
139.05962 -49.843945 -45.847103 9208956
139.3398 -49.847374 -45.016003 9078652
139.61943 -49.852554 -44.184528 8552054
139.95447 -49.860752 -43.186253 9998983
140.28877 -49.871269 -42.187271 9471613
140.62245 -49.884117 -41.187534 9011320
140.9556 -49.899258 -40.186977 8288877
141.35089 -49.737694 -39.202717 8420464
141.69066 -49.574867 -38.383923 10986391
141.91199 -49.589008 -37.714474 10986391
133.07521 -48.620613 -57.293758 9143163
133.51503 -48.966446 -56.631283 10261643
134.17429 -48.885464 -55.96352 12038564
134.8329 -48.929684 -55.228569 13354421
135.30646 -49.255993 -54.540321 10263180
139.58701 -49.132481 -45.095257 9341823
139.92616 -49.048721 -44.188618 8617847
140.30756 -48.890614 -43.241627 8616820
140.66237 -48.798248 -42.298618 10655886
140.99709 -48.81081 -41.296253 10392970
141.33118 -48.825634 -40.293072 7762790
141.60921 -48.839645 -39.456364 7170909
141.88681 -48.855335 -38.618938 9209979
142.21956 -48.876247 -37.613049 12236202
142.55379 -48.853539 -36.651958 9275261
142.93759 -48.707855 -35.683689 8090219
143.34216 -48.593731 -34.618412 9998472
132.76428 -47.743431 -58.105278 9142651
133.25371 -47.862999 -57.512051 8945272
133.86212 -47.856655 -56.858704 11248539
134.39197 -48.053478 -56.179966 13485753
141.2469 -48.095093 -41.368763 9537406
141.58853 -47.927994 -40.54911 9800572
141.91016 -47.865601 -39.670139 9208435
142.26433 -47.780666 -38.720646 9537918
142.59813 -47.801121 -37.712116 13617080
142.93143 -47.823761 -36.702415 11577759
143.2643 -47.848682 -35.691463 9209468
143.54692 -47.924461 -34.771343 9603970
143.84798 -47.851532 -33.965008 8880504
144.17085 -47.821888 -33.045284 8814968
144.55029 -47.686768 -32.078098 8748660
144.8311 -47.622833 -31.321293 8682608
131.83311 -46.520435 -59.875751 9932166
132.26389 -46.817104 -59.181431 10195338
132.8927 -46.906258 -58.445427 8813941
133.5274 -46.828091 -57.809814 7563619
134.032 -47.047276 -57.114521 8484977
142.62767 -47.070354 -38.451923 10985620
142.91003 -46.996143 -37.702122 10985620
143.24797 -46.926991 -36.782803 9077882
143.52611 -46.947201 -35.938641 9341054
143.8933 -46.797626 -35.114864 8485745
144.22363 -46.824722 -34.098064 8814968
144.55341 -46.853905 -33.079777 9933191
144.88258 -46.885277 -32.059837 6972248
145.16005 -46.966423 -31.131474 9866625
145.4697 -46.840244 -30.364321 10787471
145.82533 -46.800011 -29.344919 8418927
146.21759 -46.658649 -28.330252 7366495
146.75404 -46.373447 -27.5207 6906713
147.10597 -46.43362 -26.673635 7235422
147.52786 -46.507679 -25.653982 8353903
147.9496 -46.583923 -24.630686 9143161
148.30139 -46.649193 -23.775248 9340541
148.79237 -46.556606 -22.937742 8550770
149.18143 -46.672134 -21.971773 8813942
149.57144 -46.674046 -21.148771 8223091
149.94638 -46.750954 -20.247255 9144449
150.52859 -46.52454 -19.331762 9210242
150.88397 -46.599628 -18.456804 12959669
151.2823 -46.683113 -17.399855 11775139
151.69728 -46.574619 -16.524801 10261387
152.11588 -46.567951 -15.553603 10261387
152.4964 -46.489613 -14.821143 9669246
152.91908 -46.453304 -13.87329 9274485
153.30193 -46.540699 -12.794463 9340024
154.14671 -46.342922 -11.186469 9734788
154.46667 -46.420025 -10.276885 8814196
154.72256 -46.482685 -9.5471792 8419693
155.8304 -46.35828 -7.1719079 11051669
131.15253 -45.412308 -61.854492 9868171
131.47809 -45.695408 -61.185123 8552569
132.06358 -45.866203 -60.360764 9275521
132.69032 -45.989517 -59.545208 10129545
133.12608 -46.233059 -58.80114 9932166
144.96367 -46.183441 -33.172001 11051415
145.2332 -46.207153 -32.318546 8682608
145.6246 -46.070297 -31.489828 10129540
145.94656 -46.102203 -30.461832 10918801
146.3468 -46.012787 -29.493254 8747892
146.65808 -46.003307 -28.596132 8813942
147.19608 -45.715977 -27.784117 9011321
147.61487 -45.785389 -26.76359 7893352
147.96233 -45.898071 -25.832083 8814197
148.37202 -45.871346 -25.019072 8353648
148.74648 -45.985725 -24.027357 8550769
149.24596 -45.929085 -23.078978 8616563
149.71751 -45.855545 -22.21937 9274749
150.08841 -45.911732 -21.338861 8092019
150.49318 -45.944515 -20.429071 9144706
150.9798 -45.852139 -19.571577 8683899
151.3382 -45.963306 -18.58407 8684155
151.77681 -45.885273 -17.700377 10262929
152.16251 -45.900269 -16.757856 9801348
152.48276 -45.967548 -15.866828 10524303
153.01198 -45.803288 -14.939288 9735553
153.38017 -45.827976 -14.019137 9406072
153.7617 -45.807911 -13.155856 9603454
154.04727 -45.971924 -12.15562 9734788
154.62309 -45.725189 -11.280852 10195082
154.96164 -45.788654 -10.354259 8222315
155.34544 -45.773613 -9.4757071 8024936
155.60545 -45.945751 -8.5200377 13419444
156.10852 -45.789097 -7.639277 10657680
156.45479 -45.750965 -6.6803689 9736836
156.81136 -45.541466 -5.8174348 9735555
157.02998 -45.532986 -4.8620629 10656657
157.254 -45.486362 -4.0181108 10064777
129.63036 -44.491116 -65.674301 10063237
130.15225 -44.53059 -64.92292 7629412
130.39029 -44.632931 -64.187027 5919050
130.65556 -44.860722 -63.156666 9076598
131.17361 -45.036789 -62.296101 11643552
131.88258 -45.023586 -61.503281 10197136
132.40794 -45.224903 -60.708359 8947327
154.83296 -45.309483 -11.606551 11181719
155.94804 -45.171139 -9.2413054 8419693
156.14256 -45.218197 -8.6878881 10328202
156.4019 -45.281898 -7.9480615 9736836
156.99556 -45.019291 -6.8424363 9736836
157.25993 -44.978676 -5.8128572 9077625
157.47635 -44.968655 -4.8551011 10788243
157.69843 -44.941139 -3.9515827 11050902
158.17674 -44.782928 -3.1145771 11774111
158.53192 -44.68351 -2.1406734 11642525
159.07658 -44.558907 -1.0758426 9932167
159.58463 -44.446106 -0.42489499 10261132
159.69415 -44.477203 0.53400165 8682613
159.78008 -44.502632 1.301965 5920074
160.65575 -44.32452 2.6646473 11051673
160.73779 -44.351547 3.4386227 9144449
123.59163 -43.556458 -78.095032 6512978
124.14606 -43.637444 -77.560242 7367264
124.6814 -43.830376 -76.847397 9800579
124.79599 -44.07468 -75.927589 10129286
125.20251 -44.109821 -74.847542 8683129
125.73285 -44.10865 -73.944557 9341057
126.25666 -44.107479 -73.037712 7827822
126.77386 -44.106308 -72.127167 8946044
127.20002 -44.105331 -71.365585 11379352
127.62126 -44.104359 -70.601318 8287594
128.12086 -44.103188 -69.680962 8287594
128.30449 -44.191196 -68.593292 7958889
128.88905 -44.224033 -67.719658 8550766
129.21344 -44.365776 -66.711296 8221547
160.508 -44.27853 1.3122303 7038307
160.59308 -44.304596 2.0844891 8090736
161.45306 -44.118793 3.2641919 8551281
161.55511 -44.153187 4.237268 9144449
161.65436 -44.188587 5.2119918 9340802
162.55687 -44.011196 6.0280089 8353909
162.5723 -44.026524 7.0064521 8616824
162.62862 -44.049099 7.5964446 8419702
164.02518 -44.007645 8.855134 10261132
163.97588 -44.006943 9.6425104 9274487
163.92339 -44.006245 10.429761 7367005
165.47375 -44.004154 11.735909 5920074
165.42679 -44.003632 12.331704 7696485
165.36092 -44.002934 13.125955 8617330
166.84438 -44.000008 15.272027 8090218
166.74358 -43.999142 16.273184 8879736
168.26411 -43.996517 18.065561 10064268
168.17036 -43.995827 18.873362 9406847
168.07343 -43.99514 19.680696 8814454
169.29408 -43.659409 20.449789 9406591
169.32381 -43.699974 21.487112 10392461
169.3761 -43.670738 22.460379 8550514
123.15218 -42.667698 -78.92231 7564898
123.6228 -42.895077 -78.390793 7893864
124.47129 -42.798878 -77.680138 10656658
124.94353 -43.029125 -77.14579 10788760
169.52443 -43.052898 20.685148 9537408
169.6059 -42.917767 21.44095 9274236
169.7253 -42.712284 22.488161 8089962
169.84947 -42.472908 23.356764 7958632
122.69744 -41.540581 -79.879898 7761509
123.1597 -41.899933 -79.291237 9800578
123.9045 -42.016628 -78.568985 10326923
124.55961 -41.959934 -78.011719 11905692
169.923 -42.059029 21.565195 8879478
170.04311 -41.811932 22.273897 8484720
170.13841 -41.67548 23.341932 7892583
170.14461 -41.747093 24.093699 7760997
122.70197 -40.773819 -80.249107 8221804
123.44843 -40.887096 -79.528893 10590092
124.11686 -41.07032 -78.842346 10655630
170.32256 -41.06316 22.450296 7037274
170.42183 -40.889755 23.298388 9208699
170.54602 -40.662666 24.271566 7827046
170.64935 -40.481316 25.144857 6248783
122.31922 -39.820118 -81.030876 6511954
122.98385 -39.861649 -80.425438 6840663
123.65234 -39.939472 -79.799774 9076856
170.72308 -40.065182 23.340559 10459021
170.88065 -39.72298 24.116777 8748662
170.93997 -39.680241 25.132692 7696229
170.94641 -39.75227 25.890299 7564642
121.83536 -38.694805 -81.975639 5393730
122.38702 -38.981995 -81.356812 8748405
123.11124 -39.044361 -80.689163 6840663
171.12498 -39.064995 24.235998 7039331
171.22511 -38.890888 25.091562 11972003
171.3503 -38.662762 26.073469 9735554
171.45453 -38.480534 26.954576 8616819
121.44639 -37.551197 -82.845108 7630180
121.99031 -37.864922 -82.220833 6511699
122.72254 -37.969944 -81.526512 7498338
123.13168 -38.321152 -81.003868 10261132
171.52823 -38.062405 25.137003 12168868
171.70464 -37.680286 26.008024 9209467
171.73521 -37.722031 27.070253 7958635
171.82951 -37.539818 27.721308 7563619
121.14651 -36.717514 -83.493423 6511954
121.68846 -36.861557 -82.948921 9208953
122.43534 -36.861698 -82.289886 7563619
122.91256 -37.216347 -81.705704 7563619
171.93266 -37.057213 26.043276 9209467
172.03346 -36.88203 26.906393 8616822
172.14046 -36.715611 27.985147 8616565
172.26457 -36.469021 28.786364 9143165
90.547691 -35.803516 -151.21701 12038054
91.254654 -35.796806 -150.75674 10130057
91.958878 -35.754547 -147.50748 8682867
92.465721 -35.678078 -146.75244 8616819
92.9683 -35.601955 -145.9973 9734788
93.466743 -35.526142 -145.24217 9734788
120.65346 -35.601402 -84.438263 7958629
121.13246 -35.951202 -83.858421 6511954
121.86729 -36.005341 -83.185143 11181458
122.4232 -36.092537 -82.654549 7563619
172.33839 -36.049217 26.955053 8353651
172.46088 -35.798374 27.683706 7827307
172.55852 -35.659595 28.779665 7235686
172.642 -35.522903 29.562849 9340545
90.143791 -34.854511 -152.05305 10262411
90.786079 -35.175083 -151.61565 12564655
93.837807 -35.469528 -144.6757 8419440
94.206352 -35.413074 -144.1093 6510930
94.694176 -35.338116 -143.35405 6510930
95.057503 -35.282112 -142.78758 7563874
97.652672 -34.671257 -134.84296 9537918
98.070396 -34.591564 -134.06599 9735812
98.484077 -34.512184 -133.28969 9143419
120.63165 -34.834396 -84.799889 8156009
121.39417 -34.933811 -84.093002 6643540
121.97247 -35.065632 -83.524773 9010803
172.74529 -35.038311 27.872339 7564392
172.84697 -34.861797 28.743376 7564394
172.92542 -34.779415 29.869608 7564651
173.05031 -34.509727 30.492231 8419702
89.501076 -33.710388 -152.77097 9209467
90.253723 -33.943176 -152.37831 9735811
98.791893 -34.452904 -132.70793 9143419
99.097145 -34.39397 -132.12662 8485236
99.50074 -34.315598 -131.35204 7959408
99.999535 -34.218311 -130.38478 8156530
100.49254 -34.121628 -129.41866 9735552
100.88234 -34.044662 -128.64659 10918798
101.36391 -33.949146 -127.68253 8682867
101.83984 -33.854122 -126.71958 9208953
102.21603 -33.778671 -125.95014 9735296
102.68065 -33.684826 -124.98942 9669508
103.13974 -33.59156 -124.02985 9143167
103.50256 -33.517414 -123.26311 8617080
103.77233 -33.462059 -122.6885 10261132
120.27964 -33.774982 -85.578468 7564643
120.88719 -33.815956 -85.033272 8484974
121.57494 -33.983944 -84.361824 8418923
173.12392 -34.08868 28.647696 11774110
173.25218 -33.842258 29.547125 7762030
173.36781 -33.629826 30.635458 7958635
89.763557 -33.01181 -152.94006 9209467
90.266121 -33.166885 -152.67805 9209467
104.03976 -33.406963 -122.11449 9340030
104.39314 -33.333828 -121.34969 9340030
104.74284 -33.261051 -120.58571 8682100
105.17451 -33.170643 -119.63198 8089963
105.60085 -33.080788 -118.67948 8682608
106.02109 -32.991604 -117.72836 9931906
106.43594 -32.902946 -116.77847 10458249
106.76363 -32.832436 -116.01956 11378836
107.16794 -32.744949 -115.07218 9404792
107.56709 -32.657925 -114.12606 9404792
107.96028 -32.571594 -113.1814 6510930
108.34832 -32.485779 -112.23809 10457481
119.71383 -32.779263 -86.514069 10064777
120.25603 -33.008522 -85.941444 8288366
121.07468 -32.963001 -85.251755 7893351
173.64047 -32.796661 29.737516 7564651
173.65703 -32.827133 30.601519 9932164
173.60052 -32.77441 31.597067 9997700
89.814194 -32.023586 -153.30762 9077625
108.73046 -32.400562 -111.29619 6116940
109.10759 -32.315899 -110.35565 11313813
109.47884 -32.231876 -109.41659 10261382
109.84514 -32.148338 -108.47887 9274747
110.2057 -32.065445 -107.54272 9932419
110.56126 -31.983051 -106.60787 10130057
110.77206 -31.933899 -106.04777 9143422
119.47877 -31.5707 -87.290924 13024949
119.92208 -31.909718 -86.737038 12762289
120.60164 -32.040504 -86.079178 9933447
121.14293 -32.269753 -85.502373 7564643
173.94472 -32.051102 30.50942 10985108
173.97179 -31.787859 31.521875 9734529
89.639191 -30.965609 -153.85345 6839895
89.97097 -31.178143 -153.5766 8681843
114.36915 -31.303923 -100.42753 5919050
114.61744 -31.2414 -99.680183 7827046
114.92384 -31.163658 -98.747246 10524816
115.22482 -31.086487 -97.816002 9011323
115.52113 -31.009855 -96.886375 13023917
115.69657 -30.964178 -96.329323 10984852
118.93975 -30.565401 -88.324379 8682612
119.56263 -30.860575 -87.571709 10524560
120.31915 -30.947609 -86.859604 12367017
120.79408 -31.288927 -86.271111 10854297
174.3506 -30.800713 31.447542 8616563
174.3019 -30.735033 32.016129 9406332
89.859489 -30.364721 -154.23209 6839895
117.56597 -29.923647 -91.856934 14077894
117.97548 -29.916246 -91.271393 11051415
118.31064 -30.053448 -90.405212 6183253
118.86267 -30.083748 -89.61734 8289137
119.30745 -30.197426 -88.706345 9604226
119.96389 -30.202763 -87.864365 10524299
174.68907 -30.126373 32.0891 9341051
136.11768 -50.519333 -52.979168 8682867
136.46536 -50.756107 -52.362339 9472383
136.77896 -50.757561 -51.545277 9209467
137.12335 -50.571186 -50.739502 9867140
135.65715 -49.689007 -53.926834 9932934
136.15216 -49.820381 -53.32114 8814453
136.74495 -49.909798 -52.515923 8814453
137.07599 -49.81366 -51.736881 9209467
137.36713 -49.856365 -50.829105 10722192
137.70726 -49.849289 -49.833092 11050902
138.0654 -49.742599 -48.896606 8945271
138.43614 -49.627682 -47.932323 9274492
138.78954 -49.484295 -47.051548 9143163
135.20126 -48.616528 -55.00079 12170405
135.72234 -48.90435 -54.28212 10591377
136.46483 -48.887527 -53.489777 10196107
137.02521 -48.974388 -52.764038 8682867
137.39093 -48.793095 -51.962292 9209467
137.73279 -48.783878 -50.963581 10722192
138.07378 -48.776901 -49.964825 11380122
138.41397 -48.772205 -48.966022 8879478
138.7533 -48.769711 -47.967014 9340029
139.09186 -48.769512 -46.967777 9274493
139.37343 -48.770969 -46.134819 9471616
139.67375 -48.671753 -45.360489 9209470
140.04303 -48.564896 -44.391251 8288627
140.39531 -48.428741 -43.505268 8156527
134.74055 -47.674618 -56.009251 14604230
135.35551 -47.817829 -55.267708 10592144
136.06491 -47.884933 -54.46545 10065032
136.61952 -48.050308 -53.777027 10985621
138.03365 -48.067291 -50.886471 9274747
138.38988 -47.918301 -50.003521 9668990
138.72021 -47.878242 -49.073616 9603453
139.06029 -47.875797 -48.072407 8879989
139.3647 -47.91124 -47.133595 9472127
139.66029 -47.841 -46.340405 9011833
139.96349 -47.880074 -45.400997 12367020
140.30092 -47.885765 -44.398426 9932935
140.6377 -47.893623 -43.395279 9011321
141.03453 -47.76997 -42.363491 11050648
141.4343 -47.558041 -41.423145 9932164
141.7764 -47.390823 -40.602474 13023917
141.99983 -47.401409 -39.930851 9208435
133.88614 -46.450661 -57.73563 7563619
134.35677 -46.605328 -57.080914 8353135
134.88522 -46.95594 -56.258385 10722962
135.60182 -46.958523 -55.469112 10196875
136.20587 -47.035419 -54.774185 9932678
139.01772 -47.340534 -48.804005 9932161
139.24455 -47.339245 -48.135639 8879989
139.58931 -47.159927 -47.320667 8617075
139.91711 -47.085381 -46.446102 8814197
140.27802 -46.987366 -45.502193 14275017
140.61557 -46.992699 -44.497158 9801349
140.95227 -47.000118 -43.491501 10195595
141.30849 -46.907127 -42.543835 12563630
141.63066 -46.840439 -41.664333 9734788
141.90897 -46.851269 -40.82394 12563366
142.33209 -46.741795 -39.793388 9208435
142.68266 -46.672295 -38.879017 9209211
143.08861 -46.527519 -37.913517 11906721
143.47353 -46.414188 -37.022999 8354159
143.74586 -46.431904 -36.175724 8485745
133.20738 -45.669991 -59.345127 10853012
133.7235 -45.694344 -58.760033 9077114
134.23946 -45.80619 -58.07703 8485234
134.75591 -45.919716 -57.391628 8485748
135.3167 -46.162903 -56.512848 7630183
135.72836 -46.36095 -55.845871 9011320
141.32068 -46.323021 -43.603771 11379869
141.59966 -46.330101 -42.762478 13353146
141.99503 -46.210411 -41.88081 11379353
142.32939 -46.18935 -40.943199 12103071
142.82062 -45.987957 -39.973888 9997951
143.23137 -45.896065 -38.980236 9406590
143.58943 -45.814014 -38.117699 13353909
143.90118 -45.764587 -37.315304 8419695
144.22961 -45.785389 -36.295338 8222573
144.55676 -45.808098 -35.273987 8880503
144.83881 -45.872219 -34.286755 8814968
145.26779 -45.657578 -33.53331 13616569
145.54642 -45.716084 -32.569801 11708572
145.99294 -45.583508 -31.567801 9406074
146.31604 -45.615108 -30.537275 10458508
147.20769 -45.358242 -28.517752 10261132
149.548 -45.385098 -23.417952 8550770
149.90366 -45.451302 -22.552435 9143163
151.4483 -45.37289 -19.445642 8684155
151.72054 -45.427166 -18.739996 8684155
151.97771 -45.477947 -18.030943 10262929
153.27306 -45.358006 -15.20243 9867140
131.02332 -44.502586 -64.106956 5919050
131.4229 -44.534489 -63.523586 9076598
132.02057 -44.583393 -62.645908 10130571
132.5358 -44.692329 -61.631554 11709860
132.94865 -44.871128 -60.706722 10393487
133.48439 -45.025059 -59.850178 9998215
134.14778 -45.01823 -59.088406 9143420
134.59323 -45.159958 -58.419926 8486262
144.82169 -45.143261 -36.073353 8089963
145.04135 -45.158756 -35.390163 8748148
145.31548 -45.179169 -34.535313 8287597
145.70921 -45.037571 -33.706699 11445661
146.03603 -45.065258 -32.677158 7893608
146.3618 -45.094929 -31.645945 8288365
146.73729 -45.078449 -30.684477 9801092
147.12239 -44.961239 -29.921152 11050900
147.40265 -44.988045 -28.966753 9669504
147.79497 -44.936539 -27.967863 9340280
148.16695 -44.920891 -27.154772 7630176
148.76662 -44.885918 -26.231031 9669505
149.10028 -44.984165 -25.230391 9142906
149.51912 -44.958645 -24.411451 8353390
149.96071 -44.899841 -23.480619 9734782
150.31212 -44.999836 -22.501471 9405818
150.83105 -44.937992 -21.640631 9077626
151.21382 -44.996624 -20.754225 8946041
151.66962 -44.911457 -19.966074 8748148
152.05907 -44.9198 -18.965319 9143934
152.38676 -45.021282 -17.966421 9933192
152.93974 -44.906487 -17.104944 9340539
153.21503 -45.008812 -16.171827 10392716
153.72287 -44.83326 -15.356616 10327692
154.00368 -44.9277 -14.339171 10130313
154.54214 -44.910042 -13.372329 9800835
154.8558 -44.921658 -12.542903 9734788
155.32944 -44.791298 -11.753863 11708062
155.59084 -44.886906 -10.721435 9142903
156.15866 -44.823631 -9.8168211 6709589
156.5619 -44.757885 -8.9729261 8946550
156.92982 -44.765442 -8.0856237 9736836
157.37575 -44.711086 -7.1216874 10131594
157.85994 -44.585636 -6.2305818 9669762
158.28258 -44.526257 -5.1797776 8946039
158.76234 -44.441772 -4.2393556 11905953
159.21666 -44.352581 -3.4841754 11905696
159.3344 -44.380833 -2.529536 9866374
159.42696 -44.404007 -1.7649715 10261132
125.3016 -43.613335 -76.540253 9736329
125.64165 -43.832493 -76.129265 10788760
126.36759 -43.833508 -75.479042 11971746
126.94335 -43.894283 -74.786026 9867145
127.3912 -44.107368 -73.687653 7367272
127.91312 -44.10619 -72.768814 8946044
128.42833 -44.105007 -71.846306 7630183
128.85271 -44.104023 -71.074806 5920074
129.78412 -44.168892 -67.002838 7695720
130.39334 -44.213402 -66.13501 10260872
131.00058 -44.259209 -65.263489 8418926
131.50504 -44.298283 -64.534714 5919050
132.00761 -44.338249 -63.803169 7563872
132.40862 -44.370689 -63.216206 6116940
159.04744 -44.31448 -4.8184533 9538176
160.05836 -44.156723 -2.5369327 9734788
160.15143 -44.179985 -1.7689235 9011577
160.28821 -44.215858 -0.61511105 10261132
160.76079 -44.132256 0.15709811 8419700
161.19798 -44.039818 0.9346326 7367271
161.32738 -44.078648 2.098367 8024942
162.64067 -44.013321 3.6857808 6512978
162.603 -44.012253 4.8570609 7038307
164.1497 -44.009762 6.4913497 10853012
164.11171 -44.009056 7.2794776 8945272
164.05943 -44.008171 8.2643023 7564651
165.58784 -44.005463 10.146184 7038307
165.51833 -44.004581 11.139928 6643539
167.04454 -44.00193 13.067468 9538432
166.97485 -44.001228 13.869397 7037274
166.90201 -44.00053 14.671105 8090218
168.43913 -43.997917 16.448698 15195344
168.73274 -43.877628 17.503332 12366506
169.24438 -43.537666 18.258532 8156012
169.2639 -43.620441 19.414415 8485489
125.35794 -42.838135 -76.869102 11906983
126.063 -42.964619 -76.17765 12498861
126.66241 -43.029144 -75.610764 12169124
169.50887 -42.835526 18.480455 7037274
169.55647 -42.794319 19.24246 8090475
169.59964 -42.78828 20.198244 7958633
125.01133 -41.762356 -77.704987 11314590
125.60972 -41.82251 -77.141212 10196623
126.28205 -42.013302 -76.447433 9012607
169.87837 -41.904182 19.211325 10590094
169.93645 -41.861439 20.203894 8879733
170.03383 -41.698456 21.09516 8287341
124.4951 -40.743282 -78.664536 10458252
125.02082 -40.990391 -78.074203 9866887
125.83166 -40.969826 -77.360237 9736329
170.30702 -40.844063 20.229536 11643032
170.34348 -40.848694 21.120779 8550507
170.42313 -40.738693 22.047098 7432030
124.02669 -39.610207 -79.621071 9537407
124.57925 -39.903728 -78.995827 10458509
125.33365 -40.020069 -78.26915 9933193
125.80136 -40.383476 -77.674088 8092019
170.56129 -40.163815 20.399317 10458502
170.70163 -39.858047 21.083109 9340021
170.74124 -39.861504 22.037172 8617072
170.84654 -39.677979 22.939466 8748404
123.56118 -38.72086 -80.441048 6511954
124.11765 -38.815411 -79.90657 7630182
124.85665 -38.882122 -79.223854 9933193
125.33443 -39.245468 -78.635155 11380380
171.10893 -38.844421 21.998819 9866624
171.14569 -38.849312 22.896868 7236709
171.22604 -38.73896 23.830854 7302502
123.55222 -37.94902 -80.804138 6840408
124.30333 -37.955086 -80.138634 6774615
124.90342 -37.929607 -79.620979 7762796
171.36461 -38.161064 22.172197 10853004
171.50603 -37.854019 22.862413 8551539
171.54613 -37.857655 23.823973 8683382
171.65228 -37.673286 24.734072 11971489
122.85465 -36.487747 -82.091972 7563619
123.33298 -36.842842 -81.50663 8616818
124.09297 -36.95055 -80.786537 7564131
124.6506 -37.240013 -80.161308 6708822
171.91606 -36.835617 23.788912 13746872
171.97099 -36.802078 24.781206 11840159
172.02571 -36.769405 25.775652 9209467
91.603508 -35.791164 -150.51613 10130057
92.296745 -35.780849 -150.03505 8617846
93.105217 -35.747082 -149.34216 8091760
122.86832 -35.825172 -82.38488 7563619
123.60325 -35.821827 -81.738007 10524300
124.16155 -36.108315 -81.113632 8024682
172.17336 -36.148891 23.966002 15194062
172.31557 -35.840141 24.662813 11905695
172.35606 -35.843632 25.632013 9406590
172.46306 -35.658108 26.550192 9208702
91.481133 -34.8265 -151.54022 11446174
92.032921 -35.182049 -151.08815 9012349
95.298347 -35.244911 -142.40999 8617075
95.776375 -35.17078 -141.65474 7827563
96.368881 -35.07851 -140.71075 6511962
96.838066 -35.005116 -139.95567 8616822
97.303139 -34.931969 -139.2005 8419696
97.851997 -34.831783 -138.21948 9275261
98.388268 -34.729809 -137.23015 12037794
98.812386 -34.648754 -136.43953 10787728
99.23243 -34.568108 -135.64961 12037794
99.544838 -34.507915 -135.05765 8616563
122.38165 -34.93277 -83.22496 9274233
122.98568 -35.004402 -82.659103 8747891
123.73273 -34.924767 -82.036629 8616561
172.72816 -34.816166 25.600248 9340796
172.78365 -34.78215 26.600737 7959149
172.83891 -34.748993 27.603579 8616822
91.442986 -33.97813 -151.88852 11643549
92.196632 -34.213207 -151.49446 10787985
99.854729 -34.447868 -134.46609 11051674
100.26456 -34.368275 -133.67802 9407364
100.67027 -34.289093 -132.89078 8419955
100.972 -34.229958 -132.30074 7563619
121.94765 -33.648632 -84.1884 6511954
122.51178 -33.92968 -83.570679 6577491
123.27444 -34.029503 -82.852943 6314576
123.75621 -34.38224 -82.265633 10261124
172.98697 -34.125599 25.781313 8814715
173.13026 -33.814861 26.484819 7762030
173.17119 -33.818047 27.461996 10130059
173.33278 -33.484375 28.397501 11248536
91.006943 -33.117165 -152.40096 9210491
91.722374 -33.031662 -152.14806 11052182
121.51118 -32.59473 -85.037788 7564643
122.00401 -32.808559 -84.5149 6840150
122.77399 -32.906879 -83.803185 5721671
123.26125 -33.258339 -83.219513 5920074
173.569 -32.712311 27.366007 9407107
173.58369 -32.788918 28.353708 11511708
173.64893 -32.705639 29.165873 7565163
90.688278 -31.62196 -153.11531 9210491
91.046883 -32.109737 -152.78029 9802372
109.78396 -32.388561 -112.90684 7037274
110.16427 -32.302822 -111.95196 5920074
110.53868 -32.217781 -110.99874 8287594
110.90799 -32.133232 -110.04691 9536891
111.27152 -32.04932 -109.09676 9144190
111.63003 -31.965912 -108.14794 7039331
111.9828 -31.883146 -107.20084 7367528
112.33059 -31.800964 -106.25518 9143422
112.67276 -31.719326 -105.31118 10853523
113.01001 -31.638287 -104.36866 10261388
113.34171 -31.557789 -103.42783 9011321
113.6685 -31.477825 -102.48843 11181717
121.22514 -31.674229 -85.705284 8684155
121.67001 -31.846315 -85.235458 8289140
122.39492 -31.929806 -84.56855 6116429
122.88949 -32.144238 -84.043785 5392706
173.80605 -32.089878 27.618502 9538691
173.95049 -31.776989 28.329062 7565675
173.99197 -31.779575 29.314501 7960176
174.15492 -31.44323 30.259169 9998471
90.526588 -30.946552 -153.51273 8814197
91.341347 -31.076805 -153.10246 12499115
113.98981 -31.398472 -101.55076 8878962
114.24361 -31.335344 -100.80173 7694946
117.05299 -30.873329 -96.979439 10984852
117.22524 -30.827595 -96.415993 9011579
117.50835 -30.751749 -95.478302 8222579
120.74577 -30.568733 -86.673714 10854297
121.22121 -30.910358 -86.083687 11643556
121.98322 -31.000977 -85.367485 11577506
122.54066 -31.275875 -84.741707 6840408
174.38277 -30.742228 29.29199 7564904
174.42094 -30.745756 30.21987 8616563
174.52324 -30.515512 30.973757 7563619
90.329445 -29.905104 -154.52852 5919050
90.839119 -30.253162 -153.93098 7103068
119.31231 -29.650383 -90.491837 6973024
119.67119 -29.714272 -89.753975 8552050
120.16575 -29.758547 -88.984352 10853519
120.60779 -29.818117 -88.244209 11313556
120.84136 -30.073694 -87.180054 10327434
121.55104 -30.094679 -86.371773 10130831
122.07132 -30.286346 -85.646912 14077126
174.83827 -30.094217 30.164156 7563619
174.93494 -29.959284 31.179068 7958377
175.24533 -29.537052 31.976187 10525067
137.21478 -48.440567 -52.836559 8682867
137.04015 -47.794308 -53.461826 12432294
137.40439 -47.906567 -52.909149 11905951
137.69507 -47.898922 -52.076618 9471870
138.03964 -47.801048 -51.170219 10195335
138.32661 -47.706081 -50.430447 8682867
136.0741 -46.410683 -55.416462 10854036
136.6118 -46.731911 -54.556499 8946039
137.10568 -46.984764 -53.847855 9801090
137.66222 -46.962528 -53.149761 9866883
138.00323 -47.005592 -52.192417 9077368
138.34734 -46.996868 -51.189465 9340283
138.69037 -46.990273 -50.186428 9932161
139.03418 -46.941471 -49.230667 8879988
139.40099 -46.840775 -48.26403 9274489
139.73509 -46.629093 -47.556225 9735043
140.01799 -46.629723 -46.718746 7564643
135.28055 -45.600075 -57.183422 7039331
135.74084 -45.751022 -56.516689 8485491
136.43703 -45.76112 -55.753128 9406078
137.03067 -45.946873 -54.903202 8551025
137.51344 -46.15205 -54.151348 8682867
137.98676 -46.328884 -53.321285 8682867
138.36089 -46.327557 -52.326435 9932163
138.82285 -46.189926 -51.288113 9932163
139.16876 -46.152222 -50.357784 9735039
139.51357 -46.148357 -49.351658 8814452
139.92334 -45.938488 -48.635815 9669248
140.20033 -45.984177 -47.712616 9735043
140.54141 -45.985329 -46.704334 9208955
140.88118 -45.988396 -45.695484 9801349
141.21962 -45.993404 -44.68594 7564643
141.62863 -45.87072 -43.771809 10261644
141.9445 -45.812744 -42.976501 13353146
142.40315 -45.599365 -42.126415 11445403
142.80475 -45.542599 -41.077885 9997951
143.16994 -45.474125 -40.162621 11708313
143.53445 -45.407169 -39.246063 9801347
143.75597 -45.418652 -38.56686 12169636
132.80867 -44.40369 -62.627338 7564651
133.2076 -44.437325 -62.036854 8748923
133.80452 -44.488724 -61.148174 9998472
134.39932 -44.541454 -60.255783 8419183
134.69389 -44.694515 -59.23056 7695974
135.14531 -44.800823 -58.529179 7762796
135.52293 -44.990234 -57.715115 8091761
136.09988 -45.188366 -56.760067 8748662
136.68419 -45.093613 -56.235107 9011320
141.06232 -45.33749 -46.687954 9932419
141.34656 -45.340328 -45.844501 9077370
141.68657 -45.345337 -44.831749 7564643
142.07542 -45.155121 -44.131622 8551540
142.36766 -45.195335 -43.177151 11775395
142.92818 -44.968109 -42.133289 8880504
143.30913 -44.901867 -41.220741 10260871
143.58598 -44.943508 -40.25927 10589835
143.90131 -44.890717 -39.455917 9471101
144.17439 -44.934917 -38.49229 11181204
144.50006 -44.951797 -37.467995 8287341
145.0639 -44.806843 -36.686428 9077114
145.54224 -44.691738 -35.805477 9142906
145.77744 -44.731907 -34.82724 9471871
146.35112 -44.631374 -33.851917 8287597
146.80687 -44.596497 -32.845703 6511954
147.24731 -44.537037 -32.128456 7301470
147.49808 -44.553551 -31.220572 6906200
148.01591 -44.488571 -30.328939 12235429
148.25233 -44.506218 -29.452196 11445658
148.545 -44.532101 -28.400671 6840918
149.12791 -44.488026 -27.473536 9668988
149.78078 -44.396145 -26.774504 10656398
150.1208 -44.441349 -25.721315 9932678
150.45772 -44.487747 -24.665232 8418925
150.73595 -44.527328 -23.782946 10853012
151.26355 -44.481182 -23.009626 10129542
151.66464 -44.479115 -22.176611 10655629
152.24571 -44.442993 -21.215601 7629410
152.57114 -44.49493 -20.14179 7695205
152.83186 -44.536743 -19.243643 9471871
153.33452 -44.487736 -18.446024 9932678
153.79219 -44.448429 -17.675928 10523272
154.25647 -44.444012 -16.603334 7892583
154.49596 -44.485394 -15.691558 10260616
154.73335 -44.527779 -14.777614 9734788
155.4528 -44.402287 -14.090224 9406079
155.91161 -44.401791 -12.998889 8288371
156.14427 -44.446949 -12.074691 9538435
156.37474 -44.493008 -11.148124 10393484
156.96352 -44.432327 -10.24071 8551280
157.55144 -44.372608 -9.3274145 13354427
157.77698 -44.421402 -8.3902464 9736836
157.94604 -44.458393 -7.6383386 10789267
127.41918 -43.602085 -74.654686 8682874
128.02429 -43.732407 -74.050529 7367272
128.76402 -43.855396 -73.329742 10459280
129.10522 -44.103436 -70.610687 5920074
129.35568 -44.102844 -70.145515 6775126
129.76958 -44.101864 -69.368324 7498598
130.26025 -44.100685 -68.432503 8221803
130.74406 -44.099506 -67.493118 9076856
131.22119 -44.098328 -66.550331 12431781
131.69142 -44.097153 -65.604019 9274488
132.09604 -44.102077 -64.82164 5919305
132.59506 -44.139912 -64.083847 5590341
133.05223 -44.238552 -63.130024 7103842
133.80319 -44.239437 -62.311069 7564651
134.2039 -44.273666 -61.716934 9341059
149.004 -44.304077 -29.226503 7563619
149.20923 -44.324287 -28.523973 6840918
151.41843 -44.318794 -23.886908 10853012
153.52484 -44.325184 -19.327055 8550513
155.24934 -44.280464 -15.575843 8616819
155.39264 -44.305862 -15.025001 9142907
156.90828 -44.240845 -11.940181 9538435
157.04742 -44.268387 -11.381789 11906725
157.23201 -44.305725 -10.636062 9735555
158.55246 -44.214169 -8.2363577 10853012
158.66776 -44.238567 -7.669291 11708577
158.79675 -44.263039 -6.72016 10130313
159.22647 -44.201794 -5.6646218 10064520
159.76866 -44.090408 -4.8361955 9340286
159.89113 -44.117428 -3.8791912 11181975
159.98729 -44.139652 -3.1124752 9734788
161.11993 -44.019711 -2.160918 8090987
161.12456 -44.018627 -1.0004947 9537665
162.69061 -44.015465 1.3426449 8090736
162.66982 -44.014385 2.514291 7301982
164.23367 -44.011726 4.3232551 8287859
164.19884 -44.010834 5.3088813 8287859
164.16707 -44.01012 6.0972838 10853012
165.72037 -44.007412 7.9586844 9734531
165.66356 -44.006523 8.9531908 9142910
167.17139 -44.003277 11.462632 7564131
167.09392 -44.00246 12.465795 9735812
168.65477 -43.999851 14.222939 7499106
168.75922 -43.870098 15.172112 9406590
169.15178 -43.549168 16.193865 14406597
169.21858 -43.469475 17.076666 13814205
127.11275 -42.711704 -75.363914 9867145
127.56471 -42.883556 -74.876221 8814714
128.27119 -42.885929 -74.244217 7236196
128.73903 -43.261784 -73.64257 11906725
169.21275 -43.275398 15.297177 8092019
169.40791 -42.820862 16.000071 12038565
169.50494 -42.67775 17.051699 11380893
169.54198 -42.680073 17.934378 9471872
126.66499 -41.687397 -76.264923 8289141
127.21232 -41.989101 -75.628548 9077883
127.9476 -42.006943 -74.963211 8420462
169.68541 -42.076096 16.164328 8092019
169.78586 -41.897972 16.99851 10065292
169.91115 -41.665829 17.954973 9208443
170.01546 -41.479824 18.813234 13551031
126.20882 -40.544979 -77.23127 9867657
126.75693 -40.843292 -76.595871 9867657
127.51416 -40.966648 -75.859238 12170146
127.98347 -41.337063 -75.259018 9012597
170.0098 -41.283901 17.021597 10460049
170.25999 -40.69582 17.874861 10261130
170.29202 -40.730087 18.913889 14603974
170.34026 -40.687695 19.680029 15130573
125.76293 -39.65107 -78.066818 8092019
126.24128 -39.879059 -77.528061 10196364
127.07145 -39.881683 -76.785408 10393743
127.52652 -40.188656 -76.228806 11512473
170.48454 -40.080292 17.899118 9208443
170.61932 -39.815666 18.803183 11379609
170.69246 -39.73085 19.791227 13353906
170.81596 -39.482628 20.569574 11050895
125.28119 -38.510563 -79.020363 11380380
125.76012 -38.874378 -78.430328 9933193
126.52402 -38.992344 -77.701271 10656914
127.00914 -39.222248 -77.163651 11709087
170.81041 -39.28508 18.765402 9208443
171.04922 -38.738731 19.708895 11511705
171.08263 -38.775143 20.797392 11511446
171.19464 -38.552128 21.522032 9537400
125.36226 -37.787956 -79.281311 9407106
126.03902 -37.848869 -78.656189 10393743
126.72618 -38.034218 -77.964638 9209985
171.29384 -38.083256 19.863073 11643552
171.44328 -37.764431 20.64736 12104358
171.49651 -37.725986 21.561003 8682611
171.6209 -37.476776 22.346235 8288624
125.02065 -36.810268 -80.032623 6643030
125.61479 -36.958454 -79.440254 8025712
126.28389 -37.047813 -78.808777 9538693
171.61493 -37.277939 20.528925 14078918
171.85545 -36.729141 21.481592 8090478
171.8893 -36.765938 22.578306 9077114
172.00223 -36.541862 23.309343 10261128
93.615944 -35.669651 -148.57368 7302245
94.247948 -35.573376 -147.61313 7433315
94.749382 -35.49678 -146.84465 7169629
124.53825 -35.775143 -80.934616 6972250
125.22462 -35.952538 -80.247406 7367008
125.91231 -36.131931 -79.558105 7630443
172.10161 -36.070557 21.639238 7038049
172.21498 -35.845211 22.369486 9274494
172.30869 -35.714626 23.442488 9932421
172.48395 -35.32476 24.221888 10984849
92.742989 -34.793533 -151.03198 9143934
93.198654 -35.212223 -150.55798 7631211
93.798813 -35.490559 -150.0519 6512986
94.998253 -35.458569 -146.46049 7169629
95.369453 -35.401451 -145.88414 6709850
95.860817 -35.325619 -145.11569 7562586
96.468849 -35.2313 -144.15529 9603194
97.070763 -35.137486 -143.19502 10261124
124.1911 -34.778145 -81.699715 7103835
124.73286 -34.820164 -81.20237 7564643
125.50002 -34.926476 -80.476616 7564643
172.48431 -35.131802 22.602407 8616822
172.69724 -34.626289 23.279112 7498850
172.70103 -34.746284 24.380293 9406074
172.8148 -34.520874 25.117922 9998211
92.277397 -33.791382 -151.62772 12432037
92.960854 -33.982605 -151.27905 10130313
93.389259 -34.251202 -151.00209 9143934
101.17187 -34.190762 -131.90768 7563619
101.56823 -34.112514 -131.12221 8879991
102.05868 -34.015213 -130.14137 9537918
102.4464 -33.93784 -129.35759 9537918
102.92533 -33.84182 -128.37904 8946038
103.39851 -33.746281 -127.40177 8682867
103.77254 -33.670422 -126.6209 8682867
104.14259 -33.59486 -125.84085 9472128
104.5997 -33.501106 -124.86706 9209467
123.69695 -33.652042 -82.653915 5920074
124.16308 -33.945511 -82.10762 8156264
125.00014 -33.93045 -81.376038 8024937
125.49057 -34.150433 -80.842171 7564643
172.91444 -34.047375 23.436224 8024935
173.02861 -33.82061 24.173056 10590091
173.063 -33.857452 25.282522 9275005
173.29948 -33.296814 26.042086 8156787
92.295883 -32.857418 -151.98683 10985875
92.980606 -33.048187 -151.63783 9801349
105.0512 -33.407829 -123.89452 9472128
105.40788 -33.333736 -123.11744 9143167
105.84829 -33.241692 -122.14742 9340545
106.28315 -33.150185 -121.1787 8682608
106.71183 -33.059349 -120.21145 10129540
107.13503 -32.969105 -119.24551 11708315
107.46938 -32.897274 -118.4738 9010806
107.88187 -32.808174 -117.51051 8484719
108.28902 -32.71962 -116.54856 6510930
108.61056 -32.649204 -115.78008 7234395
109.00716 -32.561729 -114.82095 9273207
109.39854 -32.474823 -113.86311 9931904
123.19661 -32.52824 -83.605888 6840408
123.684 -32.879902 -83.02037 6380368
124.45123 -32.979763 -82.297813 7630177
125.01471 -33.263599 -81.670036 9406074
173.29964 -33.103245 24.410242 9669246
173.44516 -32.78706 25.120459 8419699
173.51802 -32.714954 26.203836 7762030
173.62592 -32.480614 26.733362 8814715
91.883751 -31.654554 -152.62392 11709855
92.428535 -31.953835 -152.28828 11446428
114.18135 -31.600433 -105.69682 13550517
