# .PCD v0.7 - Point Cloud Data file format
VERSION 0.7
FIELDS x y z rgb
SIZE 4 4 4 4
TYPE F F F U
COUNT 1 1 1 1
WIDTH 1229
HEIGHT 1
VIEWPOINT 0 0 0 1 0 0 0
POINTS 1229
DATA ascii
150.30847 -25.618864 110.82507 9340286
149.65671 -25.564388 111.62848 7761765
149.07872 -25.556675 112.31829 8880503
148.58064 -25.775015 112.78658 8617331
115.83694 -25.655012 136.83667 9735812
115.22937 -25.491365 137.23158 8880246
114.34949 -25.392025 137.74715 8880503
113.32207 -25.490532 138.26134 8814710
112.56056 -25.55167 138.6207 9603716
111.5807 -25.518801 139.11635 8485495
110.65194 -25.273407 139.67224 8156015
109.91955 -25.035391 140.12849 7563619
152.44714 -24.481054 108.92684 9340286
151.87201 -24.652018 109.51304 8813942
151.15001 -24.730642 110.32514 8945528
150.49687 -24.675745 111.13045 9012089
149.94414 -24.743055 111.74813 8419952
114.1163 -24.736332 138.1413 9341054
113.54031 -24.719646 138.45912 7564643
112.81055 -24.480518 138.92784 8879992
111.8282 -24.448929 139.42421 10326925
110.84798 -24.418228 139.9192 9142907
110.0655 -24.394363 140.3141 7168860
109.08936 -24.365347 140.80643 7168861
108.16284 -24.123856 141.35965 11379356
154.15694 -23.152733 107.64399 11708572
153.43823 -23.502533 108.30022 9406846
152.81555 -23.51758 109.03015 9603715
152.07927 -23.626831 109.84201 8353908
151.4086 -23.650419 110.6241 8156785
150.69374 -24.001724 111.27492 7893608
111.90351 -23.695227 139.68988 9406335
111.04449 -23.561123 140.16678 9077370
110.26036 -23.538057 140.5621 8353390
109.28228 -23.509991 141.05501 8221548
108.30613 -23.482775 141.54659 8813686
107.5267 -23.461666 141.93886 9405823
106.79559 -23.227579 142.39285 10591121
154.91681 -22.40917 107.15975 9406847
154.35921 -22.474739 107.78426 11050899
153.70186 -22.417759 108.59576 8814198
152.97552 -22.496613 109.41291 9669252
152.39789 -22.669035 110.0011 8814203
110.40685 -22.894575 140.74846 9669507
109.47567 -22.65275 141.30414 8353391
108.49756 -22.626471 141.79633 7563619
107.71655 -22.60606 142.18904 9405823
106.7422 -22.581333 142.67876 10327437
105.84988 -22.48773 143.15573 8880503
105.03905 -22.325306 143.62018 8683639
156.3069 -21.371754 106.09296 8090987
155.79944 -21.590225 106.5723 8090987
155.21422 -21.579323 107.27236 12039079
154.55522 -21.522049 108.08588 11906211
153.86528 -21.669899 108.82119 8089963
109.22874 -21.998194 141.68858 10590609
108.60812 -21.838135 142.05852 9208444
107.89629 -21.61865 142.49718 9011323
106.97775 -21.510067 142.9931 9077370
106.00272 -21.487185 143.48236 7630180
105.22413 -21.469479 143.87286 7433058
104.31248 -21.395681 144.35141 9012089
103.52183 -21.217758 144.81219 8814709
157.22047 -20.627073 105.42711 6577747
156.65924 -20.69249 106.05593 6380368
156.07256 -20.681503 106.7579 8090987
155.48622 -20.670998 107.45902 9670019
154.92651 -20.737492 108.08548 9537921
106.77557 -20.642096 143.44124 9735812
106.15579 -20.48427 143.80986 8419696
105.45599 -20.397154 144.18941 8617074
104.48205 -20.376768 144.6772 9603969
103.4436 -20.48484 145.14514 10656658
102.74471 -20.471119 145.49477 9867142
101.88285 -20.218395 146.02065 9538179
158.81421 -19.28109 104.29174 7958633
158.18082 -19.575079 104.87804 8418926
157.59172 -19.563742 105.58297 9800577
157.00311 -19.552818 106.2871 8288370
156.41695 -19.634117 106.93667 6577751
155.83737 -19.990799 107.42393 5920074
105.40022 -19.748171 144.4776 11183001
104.57885 -19.558844 144.9581 9735811
103.69188 -19.49843 145.4191 11775139
102.91373 -19.483831 145.80811 10064521
101.94253 -19.466276 146.29338 10130316
100.97281 -19.449375 146.77765 8815226
100.27728 -19.366014 147.15361 10393743
99.661392 -19.212696 147.51846 9933193
159.81419 -18.409731 103.59444 9801863
159.11969 -18.442205 104.39985 9735812
158.52864 -18.430988 105.107 10064777
157.93806 -18.42017 105.81339 11512225
157.42628 -18.641333 106.29623 13551549
103.82881 -18.853146 145.61092 10196106
103.09485 -18.623688 146.06442 9341053
102.12182 -18.606842 146.55032 10130057
101.15019 -18.590635 147.03525 11511967
100.37405 -18.578186 147.42245 10985623
99.405182 -18.563246 147.90549 9932679
98.480728 -18.334431 148.45262 8682867
161.3998 -17.330976 102.31895 10064779
160.73459 -17.549347 102.98537 9604229
159.99275 -17.534832 103.87319 11380894
159.39999 -17.523685 104.58242 12104872
158.83383 -17.590372 105.21643 11051672
102.06173 -17.957674 146.84064 9011832
101.32803 -17.729771 147.29346 11841188
100.59458 -17.502279 147.74599 11314844
99.623405 -17.48818 148.22987 10129801
98.653511 -17.474653 148.71291 8748660
97.878586 -17.464304 149.09865 8683124
97.03936 -17.195021 149.62003 8814710
96.222015 -17.01272 150.09569 9143675
162.24539 -16.535116 101.76235 12960181
161.53978 -16.683798 102.51577 9341056
160.86961 -16.624411 103.34384 8090737
160.27501 -16.613361 104.05515 12432813
159.75908 -16.835867 104.54223 13683904
99.723045 -16.516609 148.57111 9340541
98.870071 -16.397121 149.03911 9406078
98.093323 -16.387402 149.42546 8682867
97.123512 -16.375746 149.90765 8748917
96.154884 -16.364685 150.38911 9670277
95.380844 -16.356239 150.77361 10525588
94.648811 -16.132961 151.22377 12169898
164.69939 -15.08058 100.01546 8682099
163.90366 -15.217477 100.79663 8681843
163.23148 -15.510492 101.28799 12893619
162.44141 -15.771929 101.99325 11315100
161.77536 -15.713171 102.82784 9932933
161.19725 -15.77964 103.46181 9734788
160.63594 -15.923344 104.01389 11906469
98.805763 -15.746532 149.33209 9406078
98.222511 -15.739533 149.6221 9011576
97.229736 -15.557915 150.23016 8486004
96.351593 -15.50596 150.69666 9407106
95.57653 -15.498034 151.08298 12038311
94.608704 -15.488696 151.56514 12433068
93.729691 -15.410101 152.05278 9011832
92.939377 -15.26232 152.54686 9735299
166.98145 -14.198104 98.128761 9011579
166.51338 -14.197031 98.935188 8946039
165.70328 -14.459702 99.645035 9340797
164.8481 -14.624527 100.3772 11182233
164.24948 -14.613201 101.09953 9931910
163.50383 -14.828496 101.72894 15394266
162.75972 -15.043895 102.35624 9209467
95.815125 -14.866446 151.46048 10261899
95.039406 -14.859295 151.84818 10261899
94.154167 -14.640473 152.46756 10590609
93.185036 -14.63255 152.95065 10524559
92.277962 -14.667792 153.36719 9472128
91.381363 -14.577047 153.88373 9472127
90.74205 -14.2082 154.75446 9340285
89.968369 -14.203793 155.14297 8814197
89.189072 -14.004625 155.95645 9340541
88.222504 -14.000325 156.44476 10130313
87.449074 -13.997214 156.83432 10854036
86.482193 -13.993689 157.32011 10130313
173.5576 -13.475816 93.468895 8682358
173.12816 -13.475756 94.31559 7893358
172.80598 -13.47596 94.950737 9537918
169.3439 -13.80634 96.525192 10262155
168.87502 -13.804517 97.337975 10261643
168.40538 -13.802945 98.150291 9603459
81.207535 -13.684156 162.24142 9209467
80.424286 -13.68396 162.62956 10130057
79.442947 -13.683733 163.11008 10655889
78.655884 -13.683564 163.48993 10655889
77.669235 -13.683372 163.95944 10129800
76.679901 -13.6832 164.42337 9471608
59.560383 -13.665191 177.87488 9077368
58.48769 -13.665413 178.22916 9734783
57.412899 -13.665658 178.57733 9734782
57.073627 -13.268385 179.75262 9077116
55.938702 -13.256975 179.9274 8681843
174.18578 -12.51932 92.995834 8814201
173.78679 -12.758369 93.591148 8353651
173.3568 -12.758232 94.439003 9669508
56.701813 -12.81338 180.08548 9208187
56.022259 -12.573007 180.19775 8681843
55.168037 -12.482667 180.25432 8287599
175.0006 -11.320092 92.34919 11576473
174.57639 -11.490947 93.048668 10129287
174.0132 -11.847422 93.873726 8090736
56.045845 -11.733547 180.53117 9208187
55.253975 -11.507186 180.64056 8485490
54.51112 -11.404737 180.69946 7038307
175.81837 -10.117069 91.699463 10129030
175.36809 -10.308985 92.433617 10984337
174.83943 -10.4768 93.341637 11905438
55.209732 -10.496049 181.04396 8879990
54.38406 -10.484889 181.06853 8814197
53.731125 -10.01693 181.27066 10261124
176.08992 -9.2713995 91.839714 11774621
175.58043 -9.5120735 92.652275 9734273
54.431793 -9.4112892 181.49455 9603711
53.575699 -9.3243542 181.55002 8682867
176.78581 -8.3770428 91.229065 10459019
176.25407 -8.4231081 92.193993 11314327
175.85181 -8.6648006 92.794121 10129030
54.36462 -8.6406431 181.80276 9538177
53.682579 -8.4020758 181.91435 10130313
52.826221 -8.3163748 181.96936 9340798
178.3754 -7.2289195 90.045837 7037274
177.77885 -7.514781 90.659721 7300446
177.25478 -7.5434875 91.542137 9274747
53.553078 -7.4743123 182.28665 10262156
52.84417 -7.4680023 182.30643 9603457
52.16235 -7.2304106 182.41766 9735299
52.862068 -6.6170626 182.64456 9735299
52.004436 -6.5329823 182.69896 9472127
52.792149 -5.8405137 182.9552 9208443
52.108402 -5.6028972 183.0665 9340797
51.250404 -5.5199533 183.12039 8682867
51.975616 -4.6680813 183.44167 10525071
51.189903 -4.4301906 183.55548 9932934
50.39616 -3.9591155 183.76227 9603969
51.182465 -3.2583134 184.02187 9998727
50.334908 -3.2087626 184.06227 9932679
50.485512 -2.3940785 184.38275 9735043
49.625328 -2.3139143 184.43564 9603457
50.411652 -1.607856 184.69736 9735043
49.577847 -1.4180065 184.79324 9472127
48.801857 -1.1343321 184.92505 8222060
49.562305 -0.66130817 185.0947 10261132
48.758434 -0.37716538 185.30594 9143163
48.795452 0.28812188 185.81342 10262156
47.979637 0.47792423 185.98607 10196619
47.230152 0.7627272 186.23314 9011576
46.385441 1.2479856 187.64438 10851980
45.431736 1.2457325 187.66283 9997441
39.907997 1.7548132 191.96152 10262155
39.70359 2.4843378 192.14328 7565667
39.177818 2.4792583 191.93036 8617075
39.762672 3.2179058 192.43233 9736067
39.087036 3.5357184 192.27731 10063750
39.074669 4.434144 192.61601 10063750
38.893616 5.4147873 192.92125 9077368
38.365356 5.4047194 192.69548 12629418
38.183891 6.386713 193.00107 10919316
38.171013 7.2932272 193.34808 11051155
37.494186 7.6063519 193.18564 8090987
37.555107 8.3521204 193.50117 9406589
37.37178 9.3426943 193.80933 10787983
37.167725 10.085177 194.01234 11708828
36.680084 10.569035 193.99564 11709345
36.495224 11.565287 194.30576 10722450
36.804924 12.082179 194.66461 13023925
35.827522 12.723389 194.63023 8617075
35.743011 13.407406 195.05594 8945783
35.247604 14.086417 195.45332 8813686
34.096954 14.592157 195.82559 8089963
33.194847 15.106193 196.24043 10260873
140.84483 -28.22233 118.59505 7564651
140.33223 -28.205044 119.03179 6182738
139.47906 -28.177109 119.75836 4866361
138.65627 -28.417234 120.33348 5392706
137.88614 -28.349043 121.00964 7168857
137.20667 -28.328732 121.58736 8090472
136.43813 -28.262308 122.26129 8748405
135.60094 -28.327414 122.93077 8748148
134.83426 -28.262642 123.60239 9208443
134.19476 -28.319696 124.11031 9537664
133.42397 -28.447325 124.69487 10459534
132.58058 -28.427177 125.40965 12696240
131.73801 -28.407917 126.12332 9735555
131.06448 -28.393246 126.69339 9209211
130.0834 -28.516605 127.14556 10130312
129.21738 -28.579617 127.76704 12168866
128.52368 -28.536058 128.49593 9931907
127.8483 -28.523214 129.05733 10261646
126.93019 -28.491667 129.68182 9472644
125.94795 -28.446358 130.23672 10722192
125.16131 -28.410324 130.67606 10524813
124.37645 -28.374968 131.11415 11313818
123.39794 -28.331823 131.65997 11248283
122.50504 -28.220598 132.18739 10064009
121.69724 -28.041397 132.69681 9471871
145.87012 -27.062103 114.93902 9537409
145.35063 -27.042356 115.38253 8089963
144.18611 -27.447599 116.1653 9340030
143.49702 -27.422512 116.75336 9340030
142.57414 -27.613096 117.43543 8616818
141.88765 -27.58922 118.02074 6182734
141.20207 -27.565971 118.60496 6511954
140.51747 -27.543356 119.18812 4866361
139.66299 -27.516027 119.91553 4866361
138.8098 -27.489624 120.64149 5392706
138.12813 -27.46921 121.22103 7563614
137.44736 -27.449472 121.79966 8550767
136.59743 -27.425711 122.5216 8551282
135.74855 -27.402809 123.24224 9274492
135.07024 -27.385256 123.81772 8880251
134.32359 -27.499056 124.38863 7564651
133.42989 -27.786438 125.0008 10788502
132.5854 -27.766817 125.71621 12564654
131.94748 -27.826008 126.22184 9275261
131.17876 -27.956213 126.80338 7761253
130.50514 -27.942343 127.37325 8485232
126.90731 -27.83169 129.9704 10787732
126.08942 -27.648046 130.48701 11445398
125.38573 -27.543549 130.90959 10590347
124.59921 -27.509195 131.34821 9603711
123.61862 -27.467274 131.89467 9801348
122.6405 -27.426348 132.43936 10064521
121.85998 -27.394423 132.87376 9603457
121.08109 -27.363148 133.30698 9208443
120.23347 -27.221149 133.82263 9537408
119.38724 -27.080046 134.33708 10853012
147.35091 -26.358934 113.91743 7169627
146.75911 -26.420576 114.49807 9471867
146.06435 -26.394262 115.09116 9340030
145.2975 -26.50075 115.68192 8221549
144.50056 -26.50561 116.34573 10261130
143.63393 -26.595114 117.02808 8222059
142.88884 -26.505424 117.69326 6511954
142.20058 -26.482391 118.27969 6511954
141.45091 -26.681492 118.8129 6511954
140.59358 -26.654219 119.54273 4932154
139.73755 -26.627806 120.271 4866361
139.0537 -26.607363 120.85246 5392706
138.37073 -26.587597 121.43285 6839893
137.72528 -26.643454 121.94636 9734779
136.77699 -26.765644 122.68192 9932165
136.09677 -26.747648 123.25916 10260873
124.76656 -26.858742 131.52406 8682867
123.75008 -26.641088 132.16179 9538176
122.85956 -26.561247 132.6752 10722195
122.07736 -26.530222 133.11006 9735299
121.29683 -26.49987 133.54379 9208443
120.32349 -26.462875 134.08429 9800580
119.3524 -26.426821 134.62323 10655890
118.57731 -26.398726 135.05307 10129544
117.66267 -26.149517 135.64874 9735043
148.31157 -25.502333 113.25851 7695971
147.63423 -25.539732 114.04083 8945780
147.01994 -25.527718 114.70048 12432037
146.32373 -25.502232 115.29443 9603714
145.45509 -25.471283 116.03498 8419183
144.58812 -25.44116 116.77382 10721676
143.89575 -25.417807 117.36343 7367006
143.20448 -25.395004 117.95193 7367006
142.45142 -25.595068 118.48726 7958888
141.60957 -25.747614 119.11953 6775126
140.77916 -25.990305 119.69978 5326656
139.92183 -25.964537 120.42887 6313551
122.82805 -25.903591 132.96138 11905701
122.24069 -25.880947 133.28761 9735299
121.31785 -25.627516 133.88945 10327183
120.34277 -25.591764 134.43039 11050648
119.56452 -25.563942 134.86186 10655890
118.78786 -25.536674 135.29222 10129546
117.81915 -25.503557 135.82867 9735043
116.85252 -25.471281 136.3636 9011832
116.16215 -25.376616 136.77501 9341054
115.55385 -25.212906 137.17033 8682867
149.83803 -24.441257 112.04322 8814710
149.1938 -24.658321 112.68549 8090986
148.47012 -24.649828 113.54843 7564642
147.89136 -24.643667 114.23825 10064004
147.28142 -24.632912 114.90334 9603970
146.62015 -24.68483 115.43162 8551282
145.64859 -24.801756 116.18852 7301214
144.9538 -24.778131 116.78042 9011320
121.08891 -24.963579 134.28471 10261391
120.5034 -24.942835 134.60931 11379356
119.77718 -24.699141 135.10097 10655890
118.99162 -24.5417 135.58943 9800581
118.02814 -24.640709 136.06898 9340541
117.0595 -24.609451 136.60457 8682867
116.28626 -24.58519 137.03188 9209468
115.32165 -24.555674 137.56464 8682867
114.43987 -24.457235 138.08087 9341054
113.6404 -24.289949 138.58089 8090731
151.39272 -23.107344 110.94751 7893608
150.89093 -23.3265 111.41964 7630436
150.15207 -23.486166 112.20632 9275261
149.41753 -23.59808 113.01461 9538433
148.79683 -23.616869 113.74012 7762021
148.08455 -23.970341 114.38663 9011576
118.11416 -23.881123 136.33334 9603457
117.26698 -23.745728 136.84605 8945783
116.54372 -23.506119 137.33455 9208957
115.57665 -23.477842 137.86807 7827820
114.61157 -23.450356 138.40031 7038042
113.79075 -23.644499 138.76389 7827302
113.01105 -23.621313 139.17422 8747893
112.27311 -23.382017 139.63373 7037274
152.29253 -22.364933 110.29665 8814203
151.73651 -22.432463 110.91811 8419703
151.00887 -22.42255 111.78656 7169884
150.28148 -22.413414 112.65429 8551540
149.77991 -22.633926 113.12551 9735812
115.58751 -22.608215 138.21809 7433064
114.86478 -22.370852 138.70534 7564386
114.04196 -22.566309 139.06949 8419440
113.19199 -22.480455 139.5434 9011065
112.21364 -22.567799 139.99005 7629411
111.29076 -22.486952 140.47699 8682355
110.55355 -22.249945 140.93515 9208956
109.81702 -22.013754 141.3927 9669507
153.67397 -21.325302 109.24129 8089963
153.16884 -21.544977 109.71712 9405823
152.58513 -21.536276 110.41419 9669253
151.92738 -21.481611 111.22482 8682874
151.23964 -21.631618 111.95637 8156782
150.62383 -21.737555 112.62719 8288371
114.05013 -21.696859 139.42082 8616819
113.19204 -21.564541 139.91127 9142907
112.32725 -21.431431 140.39062 8616563
111.5377 -21.409821 140.78804 11906725
110.7496 -21.388731 141.18459 10130316
109.76659 -21.3631 141.67891 9735045
108.8668 -21.268162 142.16003 9800839
108.24562 -21.108768 142.53 7564651
154.58122 -20.5795 108.58354 8089963
154.02199 -20.646749 109.20899 8089963
153.43689 -20.637844 109.90783 9011065
152.77766 -20.58283 110.72047 9208960
152.05489 -20.846527 111.42974 9011839
112.27904 -20.777668 140.6769 8090987
111.65335 -20.61614 141.0499 10591121
110.94611 -20.525415 141.43459 8090736
109.96107 -20.500786 141.9295 8945787
108.97801 -20.476891 142.42314 9406338
108.19317 -20.458305 142.81709 8090737
107.30163 -20.394567 143.28169 9208956
106.4787 -20.203335 143.7637 9735812
156.25793 -19.080944 107.43536 5920074
155.59639 -19.528547 107.96893 6840920
154.94627 -19.518091 108.74573 7366752
154.35942 -19.509176 109.44666 7892840
153.7753 -19.592247 110.0928 8155756
153.0526 -19.947971 110.75033 9933196
110.89627 -19.87183 141.72173 7038307
110.06739 -19.677832 142.20773 8288115
109.17107 -19.613426 142.67497 9406338
108.38461 -19.595615 143.06938 8879995
107.40343 -19.574026 143.56116 7629926
106.4241 -19.553101 144.0518 7761766
105.72266 -19.466469 144.43199 10196363
105.10252 -19.309813 144.80029 11183001
157.23506 -18.292782 106.71847 9012095
156.53835 -18.442247 107.46093 6577751
155.87471 -18.385687 108.27962 5920074
155.28606 -18.376802 108.98264 7564647
154.7769 -18.598948 109.46187 6511954
109.11901 -18.960087 142.96298 9735046
108.49488 -18.801527 143.33406 8946044
107.57992 -18.54673 143.88689 7103583
106.65922 -18.473803 144.36955 6577238
105.8752 -18.458464 144.76175 8090733
104.89694 -18.439894 145.25093 7827816
103.92027 -18.422188 145.73894 11183001
158.7296 -17.280533 105.51382 11709858
158.14117 -17.455156 106.11361 11972775
157.40404 -17.535187 106.94284 9143680
156.73866 -17.478468 107.7637 7827819
156.17485 -17.5467 108.39407 6643546
106.84779 -17.608189 144.62437 7893615
106.10908 -17.376801 145.08107 7038307
105.12842 -17.359312 145.57101 7893614
104.10352 -17.558502 145.99562 8419956
103.32194 -17.545286 146.38577 9472383
102.42793 -17.407021 146.88159 9275004
101.4617 -17.082705 147.48756 11314844
159.65503 -16.524992 104.8399 14999764
158.93933 -16.589983 105.65218 13354683
158.19833 -16.57777 106.53771 14078149
157.60617 -16.568478 107.24522 10261903
156.94542 -16.789568 107.90484 10459281
105.26765 -16.70929 145.76357 8419956
104.33322 -16.476095 146.31734 8880506
103.5497 -16.463644 146.7081 10393485
102.57196 -16.448668 147.19559 9932934
101.59566 -16.434242 147.68208 9735811
100.8158 -16.423191 148.07056 10262155
100.08076 -16.196386 148.52356 8946039
161.12975 -15.470925 103.78356 9734788
160.48692 -15.575233 104.46598 12432813
159.76437 -15.724345 105.20441 13749697
159.10204 -15.667694 106.03544 14209991
158.5246 -15.735246 106.6638 14802128
157.96251 -15.879602 107.20878 9011838
103.6868 -15.812977 146.90199 10393485
102.68328 -15.62637 147.50665 9538176
101.79785 -15.571151 147.97585 9209467
101.01733 -15.560771 148.36642 9209467
100.04295 -15.548315 148.8537 9669506
99.157806 -15.466307 149.34267 9866373
98.361938 -15.314939 149.83459 9537922
97.779419 -15.308484 150.1266 9735302
165.3266 -14.184733 100.6685 9077113
164.74236 -14.175106 101.4029 8682871
163.88451 -14.272453 102.23952 10788757
163.16777 -14.371866 102.8872 10787727
162.25043 -14.760662 103.29356 9209467
161.47723 -14.839011 104.11697 9734788
160.82343 -14.858801 104.86813 11182490
160.08318 -14.999079 105.57944 11775395
101.26445 -14.925938 148.72957 9997959
100.48357 -14.91643 149.12151 9669250
99.502594 -14.735408 149.75797 9537664
98.62397 -14.683312 150.23415 10195339
97.845016 -14.675108 150.62401 9735302
96.872368 -14.665278 151.11043 7697261
96.165413 -14.247316 152.01518 10261899
95.389648 -14.240875 152.40877 9472383
94.603149 -14.036318 153.19611 10064265
93.636063 -14.029664 153.69254 10787732
92.862579 -14.024686 154.08846 8682867
91.895805 -14.018823 154.58202 9537664
172.48352 -13.476313 95.58596 7564643
172.05348 -13.477051 96.433281 8551280
171.73076 -13.477805 97.068848 10261132
167.81725 -13.801396 99.165375 7301989
167.2281 -13.800201 100.17971 10919829
86.827171 -13.685952 159.31284 8617330
85.865433 -13.685596 159.83157 8353903
84.900909 -13.68526 160.34479 8879479
84.126877 -13.685005 160.75105 8089963
83.156693 -13.684701 161.25346 8485749
82.183548 -13.68442 161.75043 9012091
81.59816 -13.684259 162.04579 9209467
63.18816 -13.663813 176.61214 11379356
62.360813 -13.552563 176.98407 10063747
61.472488 -13.400076 177.45853 9603196
60.498787 -13.449143 177.82782 8682867
59.759048 -13.24142 178.47015 9537662
58.936409 -13.24993 178.87169 9800582
58.112606 -13.258643 179.27374 8419702
173.03416 -12.758309 95.075043 11971743
172.71136 -12.758584 95.711128 9537918
172.29138 -12.838953 96.474754 9340286
61.66013 -12.767447 177.72455 9931904
60.778297 -12.592941 178.22888 9208697
59.837814 -12.556098 178.70673 9208956
59.014168 -12.564111 179.10901 9077374
58.189369 -12.572472 179.51173 7959408
57.363388 -12.581085 179.91489 8616307
56.758301 -12.356418 180.26601 9208187
174.02074 -11.238566 94.346046 9406080
173.52344 -11.558786 95.070229 11905951
173.08327 -11.655066 95.86097 10919317
59.916821 -11.869429 178.9438 8945786
59.092461 -11.510071 179.49405 8945788
58.317642 -11.425416 179.90955 7827822
57.489929 -11.433259 180.31387 9340030
56.690945 -11.344815 180.66148 9931910
55.981285 -10.967104 180.83774 9734531
174.73932 -10.114688 93.828773 13023917
174.33841 -10.355485 94.426453 10195594
173.90651 -10.355138 95.278252 10261387
58.213463 -10.506802 180.32996 9405566
57.539165 -10.358974 180.7213 10063753
56.76659 -10.285337 181.05731 9734531
55.916634 -10.198625 181.14502 9669250
175.48051 -9.1487617 93.139694 8681843
175.07899 -9.3899784 93.738762 10523788
174.5663 -9.4375973 94.711487 9603459
56.624016 -9.5921097 181.36905 9734531
55.792385 -9.3967113 181.4671 9735300
55.019966 -9.1103201 181.59991 9340542
175.81117 -8.3409739 93.133171 8682099
175.28023 -8.420682 94.116585 9800581
55.963474 -8.5035048 181.8183 9669763
54.965763 -8.3691692 181.89612 9472384
177.31346 -7.2219386 91.932976 8682867
176.75966 -7.4116611 92.619942 10064006
176.1288 -7.5769844 93.481499 7959149
175.57787 -7.6946054 94.275307 8090736
55.212818 -7.4895525 182.24005 9340542
54.263538 -7.4807954 182.26669 9603970
55.057789 -6.7898698 182.52222 9340542
54.134892 -6.549345 182.64041 9208699
53.212955 -6.3094859 182.75836 9735299
54.243248 -5.6165848 183.00888 8354163
53.39328 -5.564374 183.05042 9274493
53.405304 -4.6283293 183.42253 9012350
52.572861 -4.2805066 183.58124 9472641
52.594727 -3.3805079 183.93877 10064778
51.824081 -3.1819024 184.03661 10459278
52.687191 -2.5561013 184.26453 10459278
51.761036 -2.3180153 184.38188 9669762
50.835777 -2.0805299 184.49896 9208955
51.865009 -1.372463 184.75552 9603715
51.012791 -1.3245496 184.79538 10129801
51.011208 -0.54228288 185.13933 9998218
50.101612 -0.3052499 185.3213 9932681
50.224995 0.29006749 185.78001 9932940
49.347023 0.64727801 186.08853 9276033
47.580822 1.2509639 187.6214 9143676
46.863113 1.2491963 187.63515 8288368
41.229614 1.7646248 192.49567 9736067
40.699547 1.7606368 192.28139 10854036
41.270981 2.2543125 192.69083 9736067
40.49601 2.4920192 192.46558 10525327
40.485222 3.3903413 192.80251 10065032
39.805283 3.7085314 192.64072 10854036
40.401871 4.4554491 193.18161 10984337
39.869606 4.4468732 192.95479 9866627
39.689644 5.4299717 193.26138 9275003
39.50882 6.4160218 193.56888 9735297
38.977432 6.4042449 193.34114 8090987
39.572845 7.162322 193.88593 9735297
38.891563 7.4767723 193.72206 10985106
38.784294 8.3037167 193.99858 9801346
38.104042 8.6166344 193.83459 9867139
38.676643 9.1329985 194.27573 9867139
38.350121 9.4566689 194.2645 9275003
37.983002 10.363464 194.46289 12169380
37.799164 11.362698 194.7742 10064777
37.268364 11.342913 194.54361 10919573
37.208115 12.442054 195.08206 11050647
36.942024 13.11726 195.39597 10129801
36.445763 13.354824 195.34953 9406334
133.60475 -27.128773 125.16393 10262157
132.75902 -27.109539 125.88017 12235946
131.98845 -27.239693 126.46332 8880246
131.35043 -27.299759 126.96864 7761253
130.43484 -27.375732 127.69859 7760997
129.6084 -27.485609 128.33801 7958375
128.93518 -27.473524 128.90671 9340284
128.22787 -27.540247 129.37738 11248282
127.28983 -27.519176 129.89195 10261387
126.42809 -27.370192 130.41789 9735299
137.40794 -26.338579 122.35516 7037786
136.72656 -26.320492 122.93351 10260873
135.94954 -26.448313 123.52314 12037282
135.30675 -26.506065 124.03351 9406851
134.53766 -26.443274 124.70616 9077630
133.70041 -26.512344 125.37384 9998985
132.93294 -26.451117 126.04442 12235946
132.25603 -26.436766 126.61723 9406591
131.41071 -26.419687 127.33221 8616562
130.56604 -26.403511 128.0462 7300446
129.89084 -26.391212 128.61661 6313808
129.21603 -26.379545 129.18637 7563874
128.20848 -26.512802 129.8089 10261387
127.25021 -26.5256 130.32037 10393230
126.45761 -26.491171 130.76195 9932676
125.667 -26.45742 131.20233 10130053
124.87831 -26.42449 131.64143 8090987
124.28786 -26.400099 131.97005 9209467
142.57716 -25.150589 118.59132 8682355
141.71545 -25.123991 119.3243 8879734
140.79326 -25.32008 120.00323 6642516
140.10651 -25.29999 120.58698 8287597
139.35939 -25.501862 121.11681 6511186
138.61873 -25.41766 121.77585 6906455
137.75951 -25.680954 122.37045 7827301
136.90634 -25.658693 123.09441 10260873
136.22464 -25.641556 123.67252 13616312
135.54369 -25.625027 124.24977 11380380
134.69341 -25.605202 124.97012 9867144
133.84407 -25.586226 125.68932 9275263
133.1653 -25.571695 126.26377 10722451
132.48708 -25.557795 126.83749 9669251
131.64005 -25.541212 127.55357 9537408
130.79381 -25.525482 128.26869 9537408
130.06061 -25.733232 128.78413 10854036
129.38487 -25.721807 129.35455 7563874
128.47516 -25.695511 129.99992 8287853
127.5369 -25.434175 130.61298 9735299
126.74217 -25.401047 131.05516 9866883
125.94926 -25.368591 131.49602 9603711
124.90501 -25.546532 131.98643 9472383
123.91995 -25.507547 132.53397 11182490
123.19524 -25.391804 132.97255 11840676
122.45149 -25.305172 133.40942 8617081
146.30014 -24.372456 115.84616 7761509
145.60381 -24.348843 116.43929 7761509
144.80791 -24.472759 117.04605 7695970
144.15059 -24.526495 117.57017 6511954
143.45787 -24.504469 118.15953 8682608
142.59344 -24.477745 118.89459 9405822
141.73048 -24.451841 119.62801 10195594
141.04134 -24.431871 120.21365 9142907
140.35313 -24.412453 120.79823 10261643
139.66583 -24.393579 121.38184 7695460
138.80795 -24.370811 122.10998 7827556
137.89078 -24.570345 122.78307 6972249
137.20663 -24.553293 123.36319 10260873
136.52327 -24.53684 123.94241 12037282
135.68495 -24.644541 124.59285 11314331
134.7589 -24.719086 125.33216 10656401
134.1154 -24.779253 125.84196 9208959
133.33986 -24.911016 126.42855 8813686
132.66066 -24.897388 127.00298 8813686
126.71449 -24.737507 131.34195 9735299
126.09071 -24.565546 131.74878 9209467
125.18527 -24.456903 132.28162 10919829
124.19736 -24.419392 132.82976 11972519
123.40924 -24.390163 133.26694 9933196
122.55087 -24.490461 133.68921 8682874
121.65066 -24.491161 134.1748 8617081
120.66428 -24.292583 134.78847 10129548
119.93695 -24.049412 135.28062 10524304
119.35207 -24.030075 135.60425 9734788
148.77821 -23.075048 114.06602 7564642
148.20395 -23.249958 114.64893 8156523
147.37297 -23.559975 115.33031 8353646
146.56911 -23.566992 116.00065 6971993
145.79759 -23.677448 116.59348 7103835
145.10121 -23.655041 117.186 8024938
144.40601 -23.633184 117.77744 8287850
143.62048 -23.564079 118.46644 8682871
142.7637 -23.628664 119.15216 10393230
141.98087 -23.561005 119.83828 10524560
141.29021 -23.541681 120.42467 11182745
140.6004 -23.522858 121.01003 10788243
139.79617 -23.546404 121.67137 8156268
138.81918 -23.70052 122.41582 9472379
138.1329 -23.683529 122.99773 8485485
124.95758 -23.786877 132.67891 12104103
124.36433 -23.765079 133.00778 12433069
123.63017 -23.518379 133.50481 8748923
122.842 -23.490681 133.94125 7301479
121.8594 -23.45694 134.48537 7038307
120.87925 -23.424053 135.02794 9274752
120.09695 -23.398384 135.46065 9997960
119.31625 -23.373339 135.89233 9997960
118.43077 -23.301926 136.39952 10459023
117.4229 -23.096699 137.02753 10130057
149.67308 -22.330856 113.42205 9341054
149.11821 -22.400408 114.04111 7038298
148.39136 -22.393303 114.90699 7300958
147.58688 -22.375431 115.71114 7761253
146.81187 -22.486811 116.30642 6708821
146.12138 -22.555887 116.851 7827559
145.4232 -22.534428 117.44465 9669764
144.57039 -22.689888 118.08421 8485752
143.7104 -22.754969 118.7723 9143424
142.86168 -22.911005 119.4082 10985367
142.16893 -22.891653 119.99625 10064009
141.65004 -22.877417 120.43671 9208443
122.61276 -22.823013 134.33842 7038307
121.79651 -22.649382 134.84981 7893614
121.0947 -22.553473 135.26785 9209214
120.31075 -22.528727 135.70113 8814713
119.33315 -22.498613 136.24113 8946042
118.35771 -22.469284 136.77968 10130057
117.57909 -22.446468 137.20932 9735299
116.80187 -22.424204 137.63794 9734788
115.95476 -22.291594 138.14943 8813945
151.04698 -21.288572 112.3771 7564651
150.51723 -21.433619 112.92402 8748920
149.96114 -21.503059 113.54459 9143675
149.2328 -21.495592 114.41244 6511954
148.53163 -21.564568 115.20528 6906456
147.78395 -21.699379 115.86479 7761253
147.25728 -21.683033 116.31272 6510930
120.47144 -21.875195 135.88184 8814713
119.45643 -21.669313 136.51398 8419698
118.56797 -21.599749 137.022 7958632
117.78774 -21.577738 137.45215 9011576
117.00893 -21.556299 137.88133 9603458
116.03745 -21.530209 138.41637 8485237
115.06792 -21.504869 138.95007 7432804
114.37506 -21.414692 139.36096 8616819
113.56481 -21.248552 139.85468 9734788
152.04164 -20.390823 111.70095 9933196
151.39101 -20.610411 112.34934 9012091
150.80696 -20.60364 113.04581 8419957
150.14861 -20.551085 113.85598 8946297
149.42816 -20.816776 114.56133 7169885
118.72597 -20.946291 137.20418 6510930
117.9143 -20.777882 137.71115 7958632
117.21651 -20.686312 138.12535 6774618
116.33035 -20.499159 138.68024 8090737
115.27156 -20.636885 139.19539 7498855
114.49591 -20.61795 139.62178 9340799
113.51799 -20.593227 140.14081 8156784
112.60955 -20.496099 140.62732 8880503
111.98309 -20.334505 141.00064 8090987
153.76076 -19.043043 110.41798 8681843
152.93344 -19.603725 111.08468 9933196
152.24112 -19.709068 111.84657 11972519
151.65578 -19.702045 112.54467 9867401
151.07068 -19.695524 113.24223 8090993
150.41994 -19.916637 113.88988 9341055
116.00808 -19.998556 139.05907 8090995
115.47565 -19.76672 139.44128 8156785
114.69001 -19.617037 139.92661 11380380
113.77023 -19.507517 140.45161 7696235
112.77727 -19.482277 140.95195 9077882
111.98414 -19.462515 141.35039 9538433
111.25167 -19.357542 141.75322 9537923
110.59954 -19.429266 142.04555 9143166
154.58464 -18.251966 109.88442 7366751
153.82008 -18.50919 110.64689 8550257
153.16145 -18.57704 111.38989 9933196
152.57443 -18.569962 112.08994 10788247
151.94792 -18.867956 112.6658 8880252
151.41534 -19.014534 113.21535 8288371
113.77436 -18.632088 140.80247 7827819
113.0284 -18.394819 141.26509 8683124
112.23317 -18.37611 141.66415 9604226
111.43951 -18.357872 142.06233 9406081
110.40052 -18.552719 142.49564 9472130
109.47181 -18.445137 142.99615 9735046
108.75433 -18.226648 143.43721 9340545
108.12965 -18.068655 143.80823 7564651
156.0695 -17.238026 108.69209 7038307
155.48395 -17.413935 109.28786 7367271
154.7495 -17.495955 110.11282 7366495
154.08583 -17.441383 110.93047 8089962
153.52382 -17.511116 111.55782 7827049
152.98882 -17.658022 112.10988 9143681
112.18408 -17.71814 141.95265 8090987
111.34982 -17.52462 142.44119 9143165
110.44747 -17.461637 142.9108 9143163
109.6557 -17.44528 143.30722 11511452
108.8653 -17.429344 143.70284 10985364
107.87923 -17.410011 144.19611 11117208
106.94231 -17.174427 144.75211 11511968
157.08339 -16.329502 107.99911 10459281
156.34814 -16.503786 108.77338 8419702
155.61169 -16.586021 109.60055 9143168
154.9464 -16.531252 110.4202 7958376
154.2886 -16.753674 111.07554 7958376
110.59465 -16.807993 143.10085 9735043
109.85045 -16.574104 143.56128 10985108
109.05846 -16.558899 143.95734 12169380
108.07043 -16.540508 144.45125 9932934
107.08425 -16.522684 144.94402 11511968
106.29675 -16.508852 145.33731 8814715
105.36064 -16.275129 145.89214 8090992
158.46318 -15.42854 106.99204 16776175
157.90179 -15.573194 107.53764 9932939
157.25702 -15.594695 108.28483 7827822
156.50568 -15.676008 109.10569 9866634
155.86095 -15.698118 109.84965 9998219
155.29831 -15.843292 110.38853 8814203
109.20364 -15.904655 144.14864 10985364
108.18498 -15.712566 144.74937 9801349
107.28977 -15.653957 145.22185 12433069
106.51369 -15.51265 145.70732 9143680
105.51884 -15.625393 146.11104 8617335
104.53735 -15.610324 146.60342 9143678
103.82003 -15.384356 147.09079 10393485
103.23316 -15.376146 147.38652 9932934
162.69708 -14.143466 103.96339 9209467
162.1125 -14.135056 104.69215 10064007
161.24062 -14.232372 105.50928 9932166
160.51341 -14.404272 105.95557 10722707
159.63335 -14.764594 106.38876 11315100
158.97913 -14.709684 107.22849 13288891
158.2267 -14.858343 107.94436 9011838
157.41502 -14.961104 108.78457 8288116
105.77309 -14.987449 146.46323 9143678
104.88551 -14.761354 147.09189 10526095
104.09958 -14.750418 147.48715 10459275
103.11855 -14.737229 147.98012 9210491
102.18173 -14.600533 148.61121 9800836
101.60928 -14.301045 149.23674 9997959
100.82997 -14.292465 149.63625 8814453
100.03835 -14.182785 150.21207 9208699
99.055695 -14.072178 150.89294 10853012
98.280701 -14.065283 151.29594 10261389
97.312538 -14.057081 151.79817 9735302
171.40788 -13.478705 97.704704 9801606
170.9771 -13.480195 98.552788 10262156
166.69092 -13.794418 100.95134 10657428
166.10231 -13.784781 101.69083 9538949
165.3665 -13.773139 102.6132 12236459
164.77782 -13.764127 103.34988 11381151
94.590271 -13.689611 154.84189 8814453
93.655518 -13.689095 155.40768 9866627
92.905281 -13.688696 155.85622 10590091
91.964371 -13.688214 156.41141 9603200
91.020271 -13.687754 156.96144 9735043
90.262527 -13.687399 157.39719 8682867
89.502701 -13.687055 157.82933 8682867
88.549942 -13.686644 158.36412 9735555
87.59407 -13.686253 158.89365 10788500
68.481544 -13.623538 174.02222 10985620
67.824501 -13.476717 174.40475 8682867
67.088989 -13.406112 174.7952 7827566
66.275116 -13.411923 175.19359 9406340
65.256622 -13.41962 175.69193 9472129
64.236931 -13.427776 176.19066 10787475
63.497463 -13.358246 176.58264 11379356
62.834541 -13.212424 176.96762 11379356
172.14114 -12.520061 97.026169 10261132
171.6839 -12.808377 97.696892 10064265
171.21394 -12.841689 98.596748 10262156
66.973495 -12.725977 175.12535 7038307
66.313629 -12.578855 175.50938 9669511
65.44709 -12.554619 175.94577 9735557
64.477921 -12.470733 176.45656 10787475
63.531452 -12.523625 176.90128 11379356
62.712387 -12.530335 177.30185 9537401
61.969749 -12.460613 177.69547 10392198
61.303677 -12.314358 178.08224 11378324
172.94218 -11.238559 96.472389 10261132
172.46938 -11.628136 97.09269 10524561
172.02914 -11.680365 97.918846 11116955
65.457169 -11.82551 176.23376 9932678
64.653206 -11.716946 176.67323 10655889
63.771725 -11.563413 177.1689 11379356
62.822609 -11.616244 177.61491 9537401
62.001213 -11.62273 178.01672 9340280
61.178757 -11.629489 178.4189 9077368
60.265457 -11.522751 178.91144 9011577
59.402977 -10.956688 179.56354 9340289
173.58244 -10.355057 95.917175 11380124
173.25826 -10.355053 96.556267 15131610
172.83636 -10.435719 97.323357 15328991
63.727047 -10.92314 177.44815 9932166
62.933205 -10.699426 177.92888 9471871
62.137749 -10.475525 178.41052 8485745
61.31356 -10.481585 178.81386 9406078
60.488373 -10.487927 179.21756 9997959
59.60186 -10.41837 179.68193 10063753
58.666447 -10.157372 180.24738 9931910
57.849854 -10.048904 180.69295 9734531
174.39923 -9.1469707 95.273567 9208443
173.99763 -9.3886147 95.87188 11906468
173.56468 -9.3884621 96.725571 14604749
61.42173 -9.5605183 179.13069 9406078
60.621845 -9.3352757 179.61499 9932166
59.793858 -9.341157 180.02034 9208187
58.96468 -9.3471899 180.42612 9537152
57.926544 -9.3551168 180.93398 9471359
56.956841 -9.2843838 181.4111 9339773
174.73886 -8.4197321 95.18502 7564393
174.30551 -8.4192257 96.040031 10261387
173.90346 -8.661747 96.63916 11380124
59.873123 -8.6469784 180.26024 9010808
59.069038 -8.4205847 180.74706 9931910
58.237347 -8.4262648 181.15427 9932167
57.191597 -8.4330082 181.64998 9602945
56.317993 -8.1977949 181.93121 9538177
176.13377 -7.215066 94.02784 8090736
175.63405 -7.3733211 94.668419 8090736
175.1487 -7.4513054 95.406944 7038307
174.64542 -7.690412 95.952217 9208443
58.31477 -7.728981 181.39639 10261132
57.506306 -7.5013089 181.88588 10655890
56.402412 -7.5007071 182.20468 9537920
56.499554 -6.684957 182.52051 9341053
55.575764 -6.4440918 182.64709 9406847
55.572392 -5.6723547 182.95425 9867142
54.719341 -5.6197362 182.99603 8617847
55.757408 -4.9230723 183.24791 10064521
54.790462 -4.5064211 183.43723 9932681
53.929855 -4.2086635 183.57668 9932681
54.728218 -3.5060456 183.83675 10392718
53.948517 -3.2201228 183.96956 10064267
53.11076 -3.028976 184.06607 10853012
53.908108 -2.3223803 184.32771 10130058
53.040707 -2.2418149 184.38094 9932678
53.197338 -1.4209912 184.70367 9537923
52.34222 -1.3728601 184.74371 8617077
53.139519 -0.66078365 185.00757 9735046
52.379654 -0.37522367 185.21802 9011837
51.553978 -0.18542063 185.36603 9735046
51.605793 0.48360115 185.90167 8814459
50.566906 0.76911086 186.15651 9932940
49.260006 1.2551601 187.58931 9210496
48.29953 1.2527325 187.60765 8815739
42.028976 1.7706764 192.82237 8880248
41.828568 2.5050063 193.02242 9998727
41.896095 3.2440073 193.33813 9209467
41.211487 3.5638208 193.17494 9735298
41.203896 4.4683957 193.52347 9603968
41.024551 5.4556494 193.832 9209467
40.489189 5.4453158 193.60315 10261641
40.309441 6.4338455 193.912 11379607
40.30011 7.3464155 194.26294 10787727
39.615685 7.6613588 194.09798 9735297
40.194069 8.1764345 194.54106 7564643
39.509178 8.4907427 194.37569 9011832
39.498756 9.4092989 194.72842 9932679
39.316505 10.409388 195.04074 11906725
38.7817 10.390945 194.80902 10064777
38.598961 11.392707 195.12173 10064777
38.418297 12.151263 195.4496 11906725
37.913887 12.387328 195.37057 11511455
37.480133 13.142091 195.65891 8682867
130.17395 -25.293945 128.8959 9998727
129.32858 -25.280003 129.60941 7563874
128.39142 -25.249056 130.22803 8090474
135.61819 -24.071037 124.91842 10787729
134.93585 -24.056253 125.49597 9932679
134.15828 -24.188065 126.08421 9537666
133.51471 -24.249039 126.59369 8550514
132.60681 -24.453098 127.2569 8879478
131.70029 -24.657709 127.91879 10195082
131.02206 -24.645634 128.49165 9866117
130.3443 -24.634087 129.06384 9603201
129.4977 -24.620445 129.77824 8353646
128.56529 -24.591398 130.40375 8090474
127.76688 -24.558716 130.8477 10261643
127.05569 -24.456413 131.27318 10064520
126.43102 -24.284388 131.68045 9209467
139.45695 -23.268917 122.08558 6511954
138.94119 -23.256035 122.52291 12433061
138.25426 -23.239294 123.10523 8485485
137.50777 -23.445101 123.63268 10655629
136.73196 -23.382616 124.31083 9800322
135.88704 -23.453184 124.98417 9932165
135.11307 -23.392151 125.66012 9143422
134.43036 -23.378248 126.23758 11576987
133.65768 -23.318672 126.91172 8089962
132.74126 -23.568117 127.56076 8155756
131.98793 -23.554586 128.1971 8287341
131.30811 -23.542946 128.77107 9011064
130.5722 -23.46767 129.42191 8550513
129.72354 -23.573326 130.08192 8748405
128.85567 -23.492817 130.69733 9801092
128.05508 -23.461519 131.14186 11117209
127.1991 -23.650301 131.52608 10525071
126.20411 -23.61249 132.07816 9932934
125.29657 -23.505079 132.61157 12564654
124.47585 -23.328176 133.12669 12433069
144.68008 -22.059891 118.28916 8748923
143.8096 -22.035139 119.02832 8090995
142.98804 -22.463718 119.5132 11906725
142.2946 -22.44467 120.10175 9208443
141.50287 -22.573444 120.70277 9866885
140.75729 -22.584051 121.32099 9801093
139.90448 -22.652267 122.00164 8550769
139.12448 -22.588207 122.68383 10985105
138.43649 -22.571917 123.26675 9142649
137.74928 -22.556181 123.84884 11181971
136.89139 -22.537169 124.5752 9339772
136.03452 -22.518984 125.30026 10261128
135.34985 -22.505051 125.87942 8748665
134.66582 -22.491594 126.45773 8353908
133.81169 -22.475536 127.17957 7037274
132.95839 -22.460217 127.90032 7432033
132.31398 -22.523363 128.40953 7103324
131.53746 -22.658882 128.99515 9011064
130.85683 -22.648159 129.56938 9011064
128.88771 -22.604187 131.04414 9537921
128.28618 -22.58164 131.37776 9209211
127.48583 -22.551859 131.82156 11117209
126.48813 -22.515675 132.37442 10590864
125.49315 -22.480339 132.92549 10854292
124.71662 -22.541733 133.31909 9801608
123.85177 -22.644547 133.74335 8748923
122.99075 -22.505394 134.26471 7301479
122.13132 -22.367018 134.78482 8814713
148.42368 -21.261463 115.5032 8288109
147.9155 -21.24795 115.9674 7827302
147.11067 -21.375191 116.58018 6510930
146.44609 -21.431166 117.10926 8880506
145.57126 -21.405699 117.85242 8748921
144.69806 -21.380993 118.59386 9406339
144.00078 -21.361763 119.18567 9669511
143.24118 -21.567352 119.72371 10985111
142.54631 -21.548986 120.31319 10524560
141.73804 -21.471901 121.025 8945784
140.86969 -21.571087 121.70406 7169372
140.12173 -21.488705 122.36797 9143158
139.431 -21.472626 122.95283 11313558
138.68008 -21.68037 123.48266 9932164
137.81935 -21.661453 124.21104 10195335
136.95992 -21.643269 124.93831 9734528
136.3105 -21.70463 125.45247 10063750
135.52777 -21.838421 126.04417 9143422
134.84276 -21.825338 126.62318 9143422
126.51616 -21.629251 132.72255 9209467
125.69 -21.45323 133.24019 8683383
124.90596 -21.486122 133.64949 8485493
124.12952 -21.549246 134.04236 7104100
123.13985 -21.517506 134.58905 7301478
122.15269 -21.486494 135.13409 9538434
121.36491 -21.462307 135.56891 8946298
120.68008 -21.295132 136.00671 8814713
119.99019 -21.421452 136.32735 8814713
149.41266 -20.362053 114.8347 7893608
148.7639 -20.583521 115.47986 8617331
148.11327 -20.569698 116.12152 8485488
147.4093 -20.549034 116.71962 7366751
146.53114 -20.523907 117.46539 7630184
145.65472 -20.499531 118.2094 8617335
144.95483 -20.480572 118.80326 9932681
144.2561 -20.462116 119.39596 8617081
143.55838 -20.444162 119.98756 9997959
142.7699 -20.379169 120.67713 12235690
141.96089 -20.517834 121.28801 9801348
141.06204 -20.609509 121.99617 7301213
140.36902 -20.59351 122.58286 9735038
138.86322 -21.010416 123.645 11576730
138.34583 -20.999233 124.08275 9142649
124.35226 -20.670914 134.2821 7564393
123.32539 -20.462198 134.92146 7038307
122.42599 -20.391083 135.43556 7038307
121.63612 -20.36809 135.87099 7433064
120.77623 -20.475693 136.29057 9341055
119.81157 -20.536694 136.7859 8025199
118.8843 -20.29151 137.38664 6510930
118.18426 -20.19973 137.80203 6510930
117.37245 -20.032505 138.30867 6775642
150.69771 -19.463581 113.81451 9012091
150.16637 -19.610262 114.36234 8683123
149.60849 -19.681068 114.98428 9341054
149.0238 -19.676048 115.6804 9801605
148.3774 -19.663483 116.32755 8551537
147.49588 -19.638784 117.07591 8551537
146.61609 -19.614796 117.82254 7564648
145.91359 -19.596138 118.41843 8683128
145.14784 -19.803869 118.96066 10261389
144.44798 -19.786013 119.554 7958632
143.92375 -19.772873 119.99824 7958632
122.3924 -19.726616 135.72594 8814713
121.76962 -19.56163 136.12944 8814713
120.95627 -19.421478 136.62537 8683637
119.98928 -19.484053 137.12125 8881015
119.09596 -19.416693 137.6306 7565417
118.31162 -19.396782 138.06197 7039331
117.3334 -19.372591 138.59984 7170402
116.35725 -19.349102 139.13637 7696234
115.62906 -19.112814 139.62614 8551540
115.04509 -19.099583 139.94669 10064779
151.94073 -18.219532 113.03796 8222576
151.17085 -18.554693 113.76301 8156779
150.52174 -18.54838 114.53628 7630435
149.93565 -18.543171 115.23428 8156780
149.28435 -18.766294 115.88152 9077882
148.39922 -18.977531 116.6323 8353902
147.69286 -18.958399 117.23162 9209467
120.63372 -18.794008 137.05644 8815222
120.04244 -18.778969 137.38156 8815222
119.30835 -18.539629 137.87541 9012604
118.52227 -18.520615 138.30716 8091760
117.54185 -18.497427 138.84549 7564906
116.5637 -18.474937 139.38264 7169887
115.78281 -18.457478 139.81128 8288366
115.00322 -18.440443 140.23903 9735815
114.14758 -18.31193 140.7435 7564651
153.41722 -17.203545 111.85665 7564651
152.79521 -17.311419 112.53377 8353646
152.10156 -17.46475 113.27047 8156267
151.43887 -17.41227 114.08564 7827814
150.87827 -17.483599 114.71054 7959400
150.34483 -17.631775 115.26006 7367263
118.48406 -17.857546 138.5995 8091760
117.62672 -17.727711 139.11496 7170402
116.77074 -17.598543 139.62959 6643540
115.98819 -17.58186 140.05873 6511954
115.20705 -17.565575 140.48708 7959405
114.22614 -17.544897 141.0132 7104352
113.22987 -17.522272 141.51642 8551539
112.51602 -17.433168 141.9037 8683127
111.88609 -17.273272 142.27814 7038307
154.42404 -16.294405 111.17245 8814197
153.69154 -16.470276 111.94244 10656401
152.95738 -16.55442 112.76592 8748148
152.2933 -16.501677 113.583 6775126
151.63795 -16.725458 114.23472 7367263
116.73042 -16.935753 139.92288 7366240
116.14264 -16.923723 140.24483 6971482
115.41144 -16.688431 140.73567 6051916
114.41847 -16.503321 141.33701 6973274
113.43187 -16.647396 141.76837 8090991
112.63342 -16.630388 142.16832 7762027
111.63754 -16.609707 142.66698 8814200
110.69297 -16.371431 143.22783 9735043
155.80389 -15.39309 110.18392 8814203
155.24174 -15.538496 110.72329 9208957
154.59807 -15.561575 111.46647 9406590
153.84743 -15.644502 112.28178 9472384
153.20378 -15.668188 113.02222 7761509
152.64116 -15.81421 113.55592 6511954
113.63809 -15.770704 142.02557 7762027
112.83975 -15.754784 142.4283 7367271
111.85954 -15.573682 143.03908 8682613
110.937 -15.502501 143.54333 9735043
110.14333 -15.488151 143.94362 9406334
109.42455 -15.258924 144.44012 9801347
108.58382 -15.138067 144.95535 9143419
107.54635 -15.014582 145.56923 11511968
106.95461 -15.005269 145.86775 10591124
160.50391 -14.113281 106.69022 9538689
160.06491 -14.10772 107.23375 9538689
159.47952 -14.100524 107.95744 9538689
158.64369 -14.234613 108.60204 9472388
157.95036 -14.370088 109.06044 9932938
156.96411 -14.728499 109.59299 11379613
156.311 -14.675421 110.42924 9735303
155.56194 -14.825416 111.13955 9406593
154.75311 -14.929864 111.97448 8090986
110.51834 -14.634538 144.43401 8617075
109.72378 -14.621368 144.8354 9209467
108.69445 -14.498772 145.46812 9406846
107.86904 -14.380534 146.00636 9735043
107.08384 -14.369538 146.41365 9735043
106.10355 -14.356208 146.92125 9736067
105.26795 -14.137138 147.62912 10262667
104.49002 -14.128022 148.04103 10000007
103.71241 -14.119258 148.45178 9802115
102.93526 -14.110696 148.86148 10459275
170.54602 -13.48203 99.401245 7960432
170.00664 -13.484648 100.46244 10195336
164.48343 -13.759739 103.7177 11708572
164.04256 -13.753308 104.26923 10459019
163.51694 -13.749954 105.04383 10459019
163.0083 -13.748452 105.82911 9932420
102.21989 -13.730193 150.52548 9208955
101.63373 -13.724453 150.83173 9208955
100.65715 -13.71519 151.34062 8880246
99.68116 -13.706282 151.84798 9735043
98.900688 -13.699489 152.25255 9735302
98.121429 -13.693094 152.65741 9735302
97.189453 -13.691159 153.22826 9209212
96.264374 -13.690589 153.80974 9998471
95.521751 -13.690146 154.27077 9472127
73.342171 -13.597976 171.63953 8090986
72.477768 -13.420732 172.13629 10064520
71.55304 -13.379805 172.60802 10459278
70.742828 -13.383888 173.00528 9538432
69.931969 -13.388273 173.40271 9538432
69.004738 -13.348396 173.87524 10064518
68.135132 -13.172453 174.37402 8682867
171.17058 -12.522659 98.937477 9341313
170.72173 -12.715865 99.667763 10261900
170.2785 -12.84551 100.43784 11050131
71.646919 -12.699668 172.83511 9275260
70.866623 -12.476333 173.30899 10459534
70.054443 -12.480468 173.70724 12630958
69.113556 -12.531013 174.1501 12367271
68.149231 -12.445746 174.65915 8617076
67.284294 -12.420777 175.09502 8617081
