# .PCD v0.7 - Point Cloud Data file format
VERSION 0.7
FIELDS x y z rgb
SIZE 4 4 4 4
TYPE F F F U
COUNT 1 1 1 1
WIDTH 1190
HEIGHT 1
VIEWPOINT 0 0 0 1 0 0 0
POINTS 1190
DATA ascii
-129.20526 -57.661724 74.857544 10392459
-128.91882 -56.663887 75.468948 8946042
-129.53101 -56.895397 74.992599 11379095
-129.03403 -55.71558 75.812477 11249567
-128.73186 -54.794895 76.399811 9999758
-129.28717 -54.704449 76.0989 9539207
-128.44447 -53.193779 77.275238 9011320
-128.90808 -53.712852 76.764336 8092019
-128.67426 -52.55862 77.411766 8551027
-129.16455 -52.806854 77.002823 10392972
-128.806 -51.713177 77.700287 8090734
-128.4778 -50.693485 78.346809 9406075
-129.0844 -50.699844 77.972176 9143161
-128.69688 -49.720402 78.637535 9735040
-128.48676 -48.486023 79.30542 9275003
-128.87245 -48.720673 78.966499 9472125
-128.55635 -47.682476 79.613678 8090730
-128.25868 -46.440556 80.337952 9406590
-128.701 -46.826672 79.898201 7959144
-128.51735 -45.601341 80.641708 9209467
-128.94597 -45.969776 80.120178 7959144
-128.69084 -44.205212 82.340248 7761509
-128.34941 -44.667767 81.579109 7432544
-128.41443 -45.167549 81.080048 9012344
-127.21453 -43.374699 91.377007 11314074
-127.40824 -43.810463 90.528915 11314074
-127.75665 -43.8731 89.547005 11511707
-127.50471 -43.876759 87.324852 8617331
-128.0282 -43.878635 86.555359 8353903
-127.75131 -43.882206 84.365143 9931910
-128.17871 -43.959358 83.543259 10656402
-128.1442 -44.152843 82.86306 10263180
-127.38228 -42.654282 91.588631 11182486
-127.01891 -41.47332 92.256073 9800062
-127.45277 -41.881386 91.870697 11246994
-127.2838 -40.687237 92.446365 9865853
-126.8294 -39.395466 93.206665 9734269
-127.25267 -39.83725 92.812469 10062976
-127.12191 -38.67672 93.35672 9602941
-127.48641 -38.954647 93.059509 9734267
-127.06865 -37.783157 93.752045 9471615
-126.96735 -36.631001 94.278053 9208441
-127.44507 -36.801804 93.968353 9405819
-126.91711 -35.767921 94.659264 9865857
-126.76344 -34.452446 95.27887 10393230
-127.19196 -34.887402 94.884872 10589065
-126.97263 -33.629292 95.513733 9734787
-126.54468 -32.611965 96.14769 8681843
-127.0378 -32.738369 95.84864 8879222
-126.856 -31.667217 96.381538 10722452
-126.49329 -30.414476 97.229347 10985619
-126.84404 -30.824335 96.772667 10459791
-126.56449 -29.301296 98.458778 8617847
-126.73804 -29.788889 97.642395 9538947
-125.56322 -28.589256 107.38068 8550513
-125.93604 -28.846605 103.56625 10721425
-126.43378 -28.848175 102.95866 11708316
-125.99077 -28.886858 100.09846 9734270
-126.64622 -28.927979 99.627525 10260871
-125.1666 -27.353983 108.08691 10261132
-125.73833 -27.652975 107.6781 9011320
-125.4939 -26.530804 108.26173 9603202
-125.06631 -25.131882 109.05069 8681843
-125.58033 -25.62598 108.59058 9603458
-125.33364 -24.502831 109.17572 8813685
-125.94657 -24.78359 108.75388 9142907
-125.51084 -23.658653 109.43425 10260872
-125.14743 -22.61101 110.04671 8879478
-125.49059 -22.86694 109.76989 10260872
-125.51196 -21.719353 110.23109 8089963
-125.62044 -20.709358 110.59219 8682100
-131.90022 -74.472198 54.613766 6182738
-132.36055 -74.875313 54.105949 8024941
-132.50874 -75.127548 53.006664 7695720
-132.76234 -75.058739 51.998245 7499369
-132.69443 -75.005974 50.941666 9012606
-132.73984 -74.958511 50.080444 10591123
-132.66283 -74.908569 49.03194 8551537
-132.89255 -74.84269 48.028023 9801605
-133.1154 -74.777206 47.023571 8683379
-133.33142 -74.712105 46.01862 6643028
-133.54065 -74.647408 45.013306 5919050
-133.33923 -74.609413 44.052448 9143928
-133.53563 -74.545593 43.049316 12432552
-133.63257 -74.491661 42.123123 9603714
-133.5071 -74.445732 41.09584 8090219
-133.68411 -74.383171 40.094803 6643029
-133.85431 -74.320992 39.093586 5919050
-133.96432 -74.279678 38.425976 5919050
-131.93575 -73.556328 56.685318 7695204
-132.32167 -73.822754 55.985554 7498338
-132.34712 -74.00428 55.021667 6248273
-134.03964 -74.246239 37.923889 5919050
-134.062 -74.135704 37.059547 5919050
-134.06577 -73.994453 36.019424 5919050
-134.13864 -73.895401 35.001328 7762029
-134.52884 -73.789436 33.997124 8288371
-134.67664 -73.704506 33.069725 8814456
-134.74823 -73.617241 32.056316 9669251
-134.81319 -73.530487 31.04388 7827559
-134.87146 -73.444206 30.032364 8683131
-134.99542 -73.361382 29.105185 13156794
-135.33319 -73.288536 28.428268 14604238
-131.51866 -72.398575 57.44445 7038307
-132.04196 -72.76812 56.964539 7366753
-135.35805 -73.24794 27.9231 10261132
-135.39554 -73.180557 27.08161 8616307
-135.43466 -73.100128 26.07272 8616307
-135.4671 -73.020142 25.064861 13156536
-135.49292 -72.940567 24.057999 13156536
-135.51207 -72.861465 23.052263 9537409
-135.71443 -72.768394 21.994238 9340543
-135.90837 -72.688759 21.102772 10458507
-135.90739 -72.610771 20.097626 8288111
-136.30481 -72.531914 19.15061 9011577
-136.31458 -72.467484 18.148251 9603458
-136.25439 -72.369896 17.138777 9209467
-136.21103 -72.305138 16.466799 9209467
-131.74176 -71.651222 57.634563 7038307
-132.22244 -71.800209 57.276787 7038305
-136.42168 -72.238541 15.936493 10590608
-136.48848 -72.157013 15.167191 8880248
-136.78146 -72.041252 14.199504 7762027
-136.69473 -71.945618 13.192473 7432800
-136.78076 -71.832428 12.120112 7959408
-136.95772 -71.737656 11.288206 10063753
-137.14284 -71.620628 10.239718 8486261
-137.02983 -71.526909 9.2356997 9604998
-137.28529 -71.412628 8.2565079 12039335
-137.58881 -71.335899 7.6094246 9406846
-131.91858 -70.686745 57.946236 7301478
-132.44511 -71.051369 57.466354 7038307
-137.54025 -71.297928 7.1082382 7958888
-137.45557 -71.234909 6.273963 7432544
-137.53589 -71.147079 5.1983843 8024937
-137.71419 -71.074409 4.358119 10656141
-137.9017 -70.985649 3.3002174 8551281
-137.77742 -70.913147 2.3009584 9011320
-137.95361 -70.825737 1.2398317 10064520
-138.27847 -70.73275 0.31011939 8880250
-138.06999 -70.628838 -0.68839288 10393230
-138.35094 -70.518875 -1.6234515 11840417
-138.43336 -70.399307 -2.6918242 8090737
-131.53651 -69.760185 58.581841 9209217
-132.03044 -69.786179 58.268944 7038307
-138.50945 -70.279686 -3.7620566 9143422
-138.76936 -70.169258 -4.7059059 11444631
-138.70509 -70.051544 -5.7918358 10194563
-138.89777 -69.953598 -6.6381416 9076339
-138.81781 -69.836288 -7.7239513 7300446
-139.17934 -69.723061 -8.6697407 8353134
-139.08392 -69.605957 -9.7572918 9011573
-139.43327 -69.492157 -10.710943 10261383
-139.371 -69.392159 -11.635244 9603712
-131.76685 -68.767647 58.872147 9143421
-139.22455 -69.341537 -12.129885 8091248
-139.48195 -69.276634 -12.660299 7564647
-139.58197 -69.160286 -13.687109 8353906
-139.82751 -69.042946 -14.675837 7039331
-139.81224 -68.941498 -15.582724 8288883
-139.9951 -68.827026 -16.560177 8945785
-139.96255 -68.705421 -17.651257 7563619
-140.26024 -68.587318 -18.633896 11511707
-140.08472 -68.46917 -19.727673 8419693
-140.31613 -68.401405 -20.277184 7959142
-131.65248 -67.443199 59.51712 8616563
-131.97339 -67.830009 59.153206 9472384
-140.604 -68.350327 -20.665071 6511954
-140.3914 -68.239029 -21.706285 6775388
-140.74921 -68.129875 -22.595398 9933191
-140.67447 -68.008125 -23.697485 10524815
-140.80602 -67.892456 -24.697216 12038823
-140.89088 -67.790329 -25.587696 9801349
-140.96877 -67.688118 -26.479685 8682867
-141.21538 -67.567612 -27.49608 7563874
-140.98363 -67.455353 -28.598104 9668994
-141.72964 -67.409599 -29.104853 9011064
-131.60892 -66.674126 59.877663 9143419
-141.52638 -67.364258 -29.596449 7760997
-141.33076 -67.258461 -30.534525 6971481
-141.55896 -67.139748 -31.566263 8551026
-141.77588 -67.037697 -32.452408 6839895
-141.56595 -66.914467 -33.542488 7432031
-142.03435 -66.796425 -34.558006 9142646
-141.89258 -66.690773 -35.490837 7366494
-142.00502 -66.569519 -36.55003 5920074
-142.45985 -66.449562 -37.583199 8946295
-131.32249 -65.618919 60.510784 9143419
-131.90125 -65.725227 60.111176 9209468
-142.2995 -66.343452 -38.52058 8353905
-142.48079 -66.23893 -39.43 9735046
-142.54221 -66.109955 -40.558846 8617080
-142.39188 -66.009804 -41.443924 7564651
-142.82269 -65.886955 -42.503525 9538696
-142.80945 -65.780434 -43.438026 9341057
-142.80768 -65.682533 -44.378029 9012088
-143.22224 -65.581245 -45.643913 8485746
-143.0513 -65.491821 -46.604034 12695724
-143.40579 -65.428246 -47.228966 9341313
-131.5062 -64.691528 60.801247 7497825
-132.09441 -64.900627 60.351181 8616563
-143.10475 -65.36998 -47.703735 11577500
-143.63115 -65.272369 -48.648903 12432037
-143.22214 -65.194725 -49.280861 8486003
-143.63869 -65.076546 -50.393112 10459020
-143.77565 -64.97123 -51.350632 9208182
-143.62857 -64.879608 -52.144562 8090216
-143.92488 -64.739868 -53.431717 6643286
-144.21545 -64.598946 -54.728382 9208187
-144.05367 -64.50631 -55.528957 9735046
-131.16451 -63.659344 61.458138 7892581
-131.78162 -63.756866 61.038918 7761253
-144.16382 -64.398643 -56.503487 7433056
-144.54997 -64.274933 -57.661041 6511954
-144.37376 -64.181595 -58.466095 10196363
-144.4774 -64.075577 -59.454712 9209468
-144.93933 -63.988445 -60.667431 8617331
-144.49899 -63.924679 -61.302887 7301987
-144.95615 -63.83839 -62.528709 9406848
-144.50652 -63.774448 -63.162331 9735812
-145.06889 -63.702938 -64.241478 10722708
-145.51697 -63.61451 -65.490219 9208443
-145.05067 -63.550156 -66.122536 9208443
-145.72606 -63.492645 -67.066727 8091248
-131.3999 -62.635662 61.758801 8222063
-131.77744 -63.029888 61.35714 8617078
-145.37016 -63.444221 -67.540451 8617335
-145.40883 -63.374641 -68.412399 9143422
-145.44188 -63.304859 -69.284485 10261132
-145.99139 -63.229084 -70.410423 9208958
-145.4991 -63.164249 -71.038956 7433064
-145.91791 -63.071091 -72.333862 7630440
-146.3347 -62.97686 -73.640907 9077882
-145.82527 -62.911751 -74.266998 9077882
-146.36162 -62.832634 -75.429565 8419440
-146.37059 -62.759972 -76.329147 7958633
-146.37366 -62.687107 -77.228668 9340798
-146.9057 -62.60593 -78.415527 7761509
-146.34143 -62.527828 -79.022491 8682867
-130.98521 -61.448681 62.527451 8617078
-131.59267 -61.714737 62.041039 7433064
-146.69978 -62.415588 -80.359726 8682867
-147.20869 -62.325115 -81.562195 8682867
-146.9016 -62.27882 -81.855202 8682867
-131.32086 -60.618664 62.782665 7695979
-131.68687 -61.036572 62.277931 7038307
-130.93311 -59.279114 64.641174 7893358
-131.26062 -59.613083 63.774529 7761772
-131.67824 -59.984642 63.114811 8222065
-130.18286 -58.65263 73.777275 9208701
-130.33226 -58.904861 72.966782 7695979
-130.76935 -58.906685 72.180618 8024687
-130.25398 -58.908463 70.876297 9602942
-130.76268 -58.910633 69.933159 11182745
-130.71004 -58.912403 68.896698 9340286
-130.65002 -58.914158 67.862167 7827302
-131.13689 -58.916309 66.916245 10327692
-131.01056 -58.974586 65.926727 7433056
-131.37712 -59.092991 65.056862 6840925
-129.86574 -57.647324 74.458946 9274235
-130.39806 -57.774395 74.077156 8418671
-130.15579 -56.627419 74.726624 8879478
-130.51141 -57.090191 74.306564 8089963
-129.80536 -55.516644 75.426529 9603714
-130.19629 -55.852493 75.040237 8747635
-130.00893 -54.645405 75.682281 8551798
-130.53131 -55.134922 75.148293 8089963
-129.59911 -53.53178 76.419823 8946297
-130.0407 -53.794212 76.034584 9143162
-129.80312 -52.607536 76.698448 10721422
-130.28192 -52.943466 76.25827 11576217
-129.42947 -51.434883 77.439651 8090734
-129.94293 -51.756935 76.984253 12102305
-129.75125 -50.668667 77.577042 9143161
-130.28783 -51.002842 77.102188 10852752
-129.42827 -49.504299 78.283569 7038307
-129.89128 -49.677734 77.923988 8945782
-129.5255 -48.749458 78.553635 9340798
-130.08791 -48.648159 78.253098 10261899
-129.69482 -47.669575 78.92099 9077625
-129.44827 -46.685566 79.500397 7235421
-130.0784 -46.718658 79.098755 7959144
-129.17757 -45.391369 80.406548 7433056
-129.72205 -45.758888 79.791924 8814709
-129.37112 -44.270756 81.681839 10263180
-129.48085 -44.702141 80.882217 7630435
-129.92348 -45.015358 80.292007 7959144
-128.4068 -43.577652 90.695206 11182231
-128.40042 -43.875374 88.62149 9537662
-129.03743 -43.877651 87.691345 11379348
-128.65028 -43.88089 85.62793 8353135
-129.26567 -43.883144 84.696098 8748148
-129.29666 -44.001663 82.72718 9012344
-128.24069 -42.377308 91.271606 10261132
-128.49261 -42.764446 90.986107 10524303
-128.16908 -41.648941 91.60672 11050388
-128.80025 -41.862942 91.201935 10261132
-128.02464 -40.194115 92.278679 9471351
-128.41255 -40.747055 91.856331 9866369
-128.11832 -39.579395 92.485344 9734267
-128.70561 -39.887627 92.064087 9208435
-127.73981 -38.203381 93.242554 9734267
-128.28868 -38.709209 92.759048 9537405
-127.96204 -37.545067 93.402855 10129287
-128.42116 -37.892387 93.029671 9471871
-128.12445 -36.683334 93.677032 10129028
-127.72157 -35.595352 94.327606 9602941
-128.29715 -35.78891 93.959549 9602941
-127.9707 -34.660698 94.58844 9274490
-128.38515 -35.145576 94.180878 8682867
-127.77638 -33.51564 95.158066 8681843
-128.09792 -33.705082 94.918953 9209211
-127.78096 -32.677845 95.501472 9603201
-128.40164 -32.795597 95.142097 10854036
-127.90999 -31.627882 95.86998 9801607
-127.70168 -30.646963 96.456985 9012606
-128.28706 -30.823551 96.012978 9933193
-127.25642 -29.263878 98.138565 9144190
-127.64445 -29.574295 97.461807 9538947
-127.83998 -30.032223 96.882835 9472899
-126.63608 -28.659008 106.72396 10590607
-127.15127 -28.843801 105.85591 10261132
-126.80492 -28.849354 102.50114 11247252
-127.41984 -28.851315 101.73564 7893351
-127.30205 -28.969635 99.154823 7039331
-127.79447 -29.001156 98.798645 7039331
-126.60054 -27.522106 107.30088 10787726
-126.94315 -27.88356 106.98093 11313812
-126.54604 -26.642832 107.68958 9537401
-126.33929 -25.536953 108.24773 9801093
-126.9146 -25.757093 107.86955 9932417
-126.47713 -24.574139 108.57469 10261643
-126.26163 -23.317486 109.19913 8813685
-126.64304 -23.773067 108.82112 8287342
-126.31669 -22.53582 109.49303 9998215
-126.93441 -22.815424 109.06927 8089963
-126.07524 -21.140142 110.1876 7563618
-126.42604 -21.701559 109.78141 9602944
-126.25642 -20.538872 110.34443 8089706
-126.77296 -20.769735 109.99129 8484464
-126.30629 -19.725868 110.6543 9931910
-126.22337 -18.700634 111.11787 8616821
-126.60934 -18.718809 110.91756 8945015
-126.52644 -17.691341 111.3821 7565675
-133.24809 -74.652351 53.823059 8156270
-133.52158 -74.932915 53.187801 8353648
-133.59245 -75.005112 51.952179 9012606
-133.79913 -74.948868 51.106895 9012606
-133.83278 -74.89489 50.106754 7038815
-133.86063 -74.841316 49.108086 7959400
-133.99878 -74.782547 48.13591 8485744
-133.93422 -74.724731 46.949909 6775127
-134.11333 -74.670227 46.107498 5919050
-134.28745 -74.616127 45.264812 6972506
-134.49022 -74.55146 44.253242 9209469
-134.68616 -74.487213 43.241371 8485237
-134.70361 -74.426117 42.086777 9208958
-134.68315 -74.376152 41.102596 6708567
-134.85843 -74.313248 40.09288 6510931
-134.62486 -74.277687 39.142467 6248271
-133.21339 -73.554626 55.908058 6840151
-132.96877 -73.910774 54.867088 8089963
-133.38968 -74.093941 54.196541 8813686
-135.22775 -74.237251 39.0532 6577236
-135.20979 -74.165886 38.149021 6906456
-135.14343 -74.041924 37.182625 6643284
-135.19173 -73.925682 36.146645 6906714
-135.27995 -73.835518 35.124451 7827818
-135.47589 -73.756516 34.305374 8025196
-135.80525 -73.657951 33.34668 8617331
-135.87605 -73.569992 32.324493 9341054
-135.94017 -73.482582 31.303192 9012091
-135.99977 -73.396774 30.283455 7564651
-136.05823 -73.314484 29.265816 9867404
-132.79329 -72.389168 56.672413 6840151
-133.14888 -72.844971 56.256897 7103323
-136.11008 -73.232758 28.249208 10129804
-136.15526 -73.151459 27.233534 10261132
-136.19374 -73.070572 26.218779 9142651
-136.22554 -72.990189 25.205147 8813686
-136.55769 -72.892647 24.1789 10261388
-136.65079 -72.815178 23.245907 8156013
-136.7379 -72.737991 22.312313 9537921
-137.04793 -72.641159 21.279625 11379606
-137.04997 -72.564804 20.266523 8485488
-137.08951 -72.512146 19.260853 8419696
-137.06554 -72.429962 18.248226 9603458
-137.01482 -72.348206 17.402046 9209467
-133.03003 -71.641693 56.852829 6971738
-133.50769 -71.996643 56.407059 6510930
-137.49335 -72.2845 17.070414 9209467
-137.39349 -72.217583 16.340963 9209467
-137.61493 -72.098213 15.292336 8814458
-137.53299 -72.00148 14.277541 7564651
-137.74117 -71.882675 13.226231 7300961
-137.80974 -71.791527 12.36202 7169372
-138.00291 -71.673347 11.307648 8353902
-137.89445 -71.578613 10.295835 7696486
-138.15918 -71.463676 9.3118534 9538690
-138.44319 -71.362831 8.3262177 11183769
-132.67197 -70.508385 57.56361 7038307
-133.07889 -70.755203 57.207932 7367013
-138.34749 -71.286369 7.3172216 7958888
-138.43538 -71.197708 6.2348871 8682867
-138.62094 -71.124474 5.3901548 9209210
-138.81505 -71.033806 4.3263617 9011831
-138.6951 -70.960251 3.3193204 8090475
-138.88013 -70.872116 2.2523 8419184
-139.04616 -70.801086 1.400481 9669506
-139.08241 -70.710182 0.31205726 10656916
-139.18651 -70.592316 -0.7610991 9538181
-139.46828 -70.481522 -1.7033312 8222579
-139.24149 -70.376945 -2.7073729 7038307
-132.80928 -69.599472 57.874405 7038563
-133.29857 -69.882294 57.452816 7039331
-139.9794 -70.31945 -3.0591185 9143166
-139.63783 -70.264191 -3.6410887 9669253
-139.5797 -70.145584 -4.7332172 11510680
-139.78146 -70.046982 -5.5831966 11050386
-139.9332 -69.931084 -6.6024799 8221288
-139.83182 -69.804207 -7.780138 8353134
-140.26419 -69.715942 -8.4822598 9011064
-140.17007 -69.597801 -9.579113 9011573
-140.34344 -69.498634 -10.440556 11511449
-140.28258 -69.397911 -11.370838 12169124
-132.455 -68.413368 58.60585 9734788
-132.93509 -68.756828 58.163425 8157041
-140.13568 -69.346886 -11.868948 10261643
-140.57622 -69.265907 -12.50358 8616307
-140.44849 -69.147377 -13.601105 8090476
-140.85233 -69.040115 -14.462738 9407105
-140.62813 -68.910042 -15.673418 8486262
-141.23022 -68.809441 -16.429693 7235422
-140.89323 -68.706657 -17.423616 8813942
-141.19624 -68.587807 -18.411926 8353646
-141.19829 -68.451675 -19.624414 7235420
-132.73421 -67.56543 58.803467 8025712
-133.16194 -67.877899 58.40657 8157041
-141.48759 -68.332314 -20.620499 6644055
-141.43831 -68.23011 -21.542484 7039331
-141.69946 -68.127312 -22.397615 10591634
-141.73499 -68.007698 -23.454872 13354170
-141.7619 -67.88826 -24.512651 11314843
-142.0103 -67.784531 -25.378778 9340798
-141.86304 -67.665848 -26.470436 8287853
-142.36644 -67.547661 -27.452564 7234909
-141.98587 -67.464531 -28.445009 7760997
-142.67734 -67.40522 -29.119965 10261132
-132.80229 -66.698769 59.138187 8814199
-142.3943 -67.339645 -29.777628 7760997
-142.35837 -67.252159 -30.546721 6839895
-142.58202 -67.149979 -31.433619 8682868
-142.69872 -67.022957 -32.543137 8748405
-142.51517 -66.904968 -33.585838 9010804
-143.07101 -66.804367 -34.444969 9143417
-142.93022 -66.697937 -35.384315 6971993
-143.04704 -66.575882 -36.450592 5920074
-143.42499 -66.437027 -37.652706 9538432
-132.50824 -65.653297 59.771706 9341054
-133.04076 -65.828003 59.370636 9735812
-143.08371 -66.364777 -38.301003 9735046
-143.53638 -66.243019 -39.349686 9340545
-143.36549 -66.136063 -40.295078 9603716
-143.45232 -66.012299 -41.377335 10196366
-143.89128 -65.888618 -42.444008 8156786
-143.71089 -65.785477 -43.396519 8090987
-143.9187 -65.699387 -44.342896 9998726
-144.14436 -65.621704 -45.301136 10393485
-143.9865 -65.537399 -46.269363 9341313
-144.54359 -65.448059 -47.217594 7565675
-132.76729 -64.729553 60.014645 8879735
-144.24065 -65.389412 -47.696091 8420726
-144.49657 -65.30442 -48.489639 8157297
-144.26131 -65.19339 -49.44355 8617590
-144.79008 -65.094055 -50.405148 10787471
-144.73808 -64.985115 -51.366898 8090216
-144.6786 -64.876183 -52.327957 9142390
-145.09044 -64.754951 -53.466846 7037274
-144.9359 -64.662125 -54.270779 7958375
-145.0562 -64.554428 -55.246758 13747898
-145.56854 -64.450562 -56.246021 8617336
-132.4333 -63.718555 60.657585 8089963
-133.01862 -63.822025 60.255222 8484721
-145.34305 -64.411392 -56.561714 7564651
-145.28677 -64.337379 -57.212547 8551282
-145.39362 -64.228188 -58.199959 7301471
-145.81277 -64.116531 -59.3885 8617331
-145.37729 -64.052422 -60.029278 9341054
-145.84863 -63.966579 -61.253864 8024426
-145.80472 -63.883034 -62.271385 9735299
-145.75267 -63.79929 -63.288467 8945784
-146.21152 -63.711235 -64.536392 8815222
-145.86493 -63.662872 -65.014198 9208443
-146.31587 -63.573616 -66.273148 8617076
-146.7653 -63.483227 -67.544365 9143422
-132.66985 -62.719044 60.947121 8156014
-133.15488 -63.194324 60.444553 8089963
-146.28586 -63.418198 -68.179428 9472130
-146.72565 -63.326611 -69.462189 8617335
-146.35921 -63.277824 -69.93718 9208958
-146.79085 -63.185059 -71.231323 7038307
-147.22104 -63.091263 -72.538094 8090986
-146.84196 -63.042118 -73.011742 8880503
-147.2639 -62.947155 -74.329987 7433313
-146.74937 -62.881649 -74.959618 8420208
-147.2921 -62.801819 -76.13282 9933191
-147.70406 -62.704575 -77.475578 7958633
-147.30554 -62.655155 -77.946495 6511954
-147.84412 -62.573235 -79.144455 6906456
-147.3038 -62.507263 -79.770615 7761509
-132.23946 -61.668575 61.666084 7827564
-132.77185 -61.824623 61.27319 10590092
-147.8159 -62.415451 -80.970276 9866373
-148.18394 -62.303253 -82.334976 9735299
-132.53325 -60.626736 62.043636 7235429
-132.90274 -61.146637 61.487679 7038307
-132.43887 -59.258541 63.80481 6511954
-132.4192 -59.712944 62.946911 7038304
-132.95757 -60.033478 62.289974 6511954
-130.75819 -58.320351 73.617981 9011323
-131.41264 -58.677917 73.036987 9011323
-131.02933 -58.907776 71.70771 9011323
-131.37297 -58.909233 71.075432 9603457
-131.88307 -58.911419 70.12413 12761777
-131.34763 -58.913162 68.828194 8813941
-131.75951 -58.914967 68.035873 10920086
-132.24768 -58.917133 67.081871 10130314
-131.69646 -58.918819 65.808273 7893608
-132.09814 -59.012238 64.919403 8617075
-132.3701 -59.118496 64.361794 6775130
-131.19594 -57.62175 73.654724 9997703
-131.62103 -57.906124 73.269943 9011323
-130.78293 -56.358994 74.459412 9734529
-131.21812 -56.77298 74.011826 12168610
-131.04512 -55.495041 74.67601 10853781
-131.40384 -55.957771 74.254028 12235431
-131.06393 -54.649826 75.03363 9932679
-130.89998 -53.563366 75.608658 9340798
-131.34843 -53.881538 75.194786 9866630
-130.48247 -52.396214 76.374313 11576217
-131.0014 -52.768192 75.893768 9537663
-130.64423 -51.56979 76.636101 12102305
-131.18776 -51.821777 76.192894 10392457
-130.97105 -50.649937 76.837471 9209211
-130.65364 -49.51511 77.527695 8682867
-130.96971 -49.859055 77.183731 8484976
-130.84428 -48.626881 77.798363 9867141
-131.35347 -49.050457 77.301674 8287597
-130.36627 -47.631489 78.525055 12696240
-130.90961 -47.737545 78.14505 12564654
-130.71532 -46.624741 78.748039 10722450
-131.01317 -47.057819 78.376747 13551549
-130.47604 -45.452461 79.552826 8682867
-130.6891 -45.852165 79.123062 9077625
-130.27112 -44.472305 80.650375 7695460
-130.6797 -44.810402 80.015213 8024426
-129.02145 -43.466019 90.432556 12432037
-129.5486 -43.650208 89.951942 10918798
-129.9567 -43.876266 89.004128 9537150
-129.66777 -43.879929 86.756577 9537409
-130.18796 -43.881824 85.974289 9406079
-129.87434 -43.885403 83.759766 9274747
-130.47629 -43.887661 82.819099 9866883
-130.25473 -44.093567 81.801186 9471869
-130.80193 -44.146915 81.269051 7563619
-129.34224 -42.67347 90.597061 11379609
-128.9292 -41.487011 91.292358 10261132
-129.56393 -41.702095 90.885788 10261131
-129.23946 -40.583851 91.509552 9998214
-129.49318 -40.970802 91.222916 9997957
-129.37413 -39.627659 91.836578 9537661
-129.05342 -38.490902 92.466141 9735043
-129.33919 -38.787319 92.200752 9866630
-129.21213 -37.593082 92.757027 9472127
-129.7215 -38.046902 92.314758 10261132
-128.93253 -36.382656 93.396408 9208955
-129.17679 -36.803024 93.100685 9340285
-129.06506 -35.563095 93.668167 9340284
-129.62059 -36.067272 93.181961 9735043
-128.63954 -34.388706 94.365646 8682867
-129.13574 -34.637772 94.014473 8682867
-128.93121 -33.522011 94.577209 10130313
-129.32799 -34.068623 94.152985 8682867
-128.52853 -32.415958 95.235085 10854036
-129.02644 -32.661835 94.884354 10130313
-128.76279 -31.522755 95.486313 9604485
-129.19798 -31.958128 95.088791 9406590
-128.95583 -30.695751 95.788055 9012606
-128.23657 -29.328417 97.425201 9144190
-128.71585 -29.685701 96.754906 9341571
-129.1181 -30.142849 96.149162 9012606
-127.81799 -28.420052 106.32294 10129541
-127.90999 -28.717775 105.70715 10984337
-128.03914 -28.846584 104.7802 10984337
-128.15181 -28.853674 100.81232 9143931
-128.75674 -28.855639 100.039 11578016
-128.28734 -29.033081 98.441406 9144190
-128.78111 -29.065306 98.083023 8617333
-127.65868 -27.73315 106.68504 10590089
-127.3092 -26.695543 107.28641 10261123
-127.88361 -26.735626 106.9827 11576984
-127.67861 -25.655973 107.52916 9603193
-127.15385 -24.657373 108.20212 9142907
-127.7298 -24.694233 107.89902 9735039
-127.49438 -23.546194 108.48881 9142907
-127.72141 -24.083527 108.15433 9142907
-127.05617 -22.415466 109.17284 8089963
-127.57278 -22.649004 108.81851 8616307
-127.33526 -21.499338 109.41003 8945528
-127.75665 -22.047815 108.97381 8089963
-126.89468 -20.367975 110.09587 8484464
-127.51675 -20.64571 109.67075 10458766
-127.18774 -19.401525 110.34745 9931910
-127.57316 -19.857615 109.96707 9931910
-127.3549 -18.590353 110.59798 9931910
-126.91364 -17.70858 111.18154 8748664
-127.4958 -17.734697 110.87995 10589841
-127.10816 -16.689938 111.50384 7827561
-127.48523 -17.117527 111.13937 9735046
-127.36764 -15.673891 111.84543 7893096
-127.51997 -15.073507 112.25018 7893096
-134.26242 -74.626534 53.019791 8747893
-134.66751 -74.72731 52.244629 9668738
-134.59637 -74.9077 51.225483 8879222
-134.8373 -74.840286 50.204502 8616560
-135.07118 -74.773247 49.182961 13221553
-135.10851 -74.714363 48.093437 7761763
-135.10231 -74.667023 47.175919 5985099
-135.09129 -74.620163 46.261597 6709078
-135.10925 -74.562782 45.179405 8420720
-135.31017 -74.497948 44.1618 8485237
-135.50418 -74.433533 43.143925 9932423
-135.69133 -74.369438 42.125778 10984849
-135.87166 -74.305786 41.107468 5919050
-135.9882 -74.263588 40.428459 7366240
-134.10184 -73.72776 55.145004 8419184
-134.26172 -73.923317 54.080147 9866630
-134.53462 -74.084679 53.288147 9142651
-136.04515 -74.242432 40.08886 7366240
-136.1568 -74.200546 39.409756 8222061
-136.2327 -74.091324 38.366753 9341054
-136.25482 -73.957275 37.311958 7169884
-136.34554 -73.864616 36.279396 6775126
-136.43399 -73.774918 35.248947 8551537
-136.51564 -73.685745 34.219299 8354159
-136.5905 -73.597023 33.190567 9341054
-136.65851 -73.50882 32.16275 9341054
-136.72501 -73.423866 31.137119 8090991
-136.77788 -73.354713 30.283619 8353651
-136.81665 -73.299698 29.601349 8813945
-133.88223 -72.631279 55.902672 7234909
-134.33112 -72.878342 55.521309 7629667
-136.84373 -73.258484 29.089836 9734788
-136.87701 -73.203804 28.408285 10853012
-137.23349 -73.10479 27.380062 10853012
-137.34549 -73.02578 26.440411 8814198
-137.37625 -72.944771 25.417953 8485489
-137.59117 -72.863106 24.515591 8748661
-137.80257 -72.768379 23.441761 8748403
-137.81281 -72.688446 22.41971 9274235
-137.8163 -72.608978 21.398918 9011579
-137.83211 -72.539909 20.382143 9011577
-137.86946 -72.486031 19.370434 9603458
-138.20467 -72.373001 18.399853 9077626
-137.78177 -72.326302 17.668097 9209467
-134.20549 -71.71537 56.103008 8222316
-138.52219 -72.254829 17.423939 9999239
-138.45143 -72.156403 16.399313 9999239
-138.37428 -72.058563 15.376718 12629425
-138.59074 -71.93866 14.319616 10130063
-138.78088 -71.842056 13.477879 7235170
-138.86635 -71.727303 12.389586 7761509
-138.76244 -71.631454 11.36988 8551281
-139.03662 -71.51593 10.381165 7696228
-139.33327 -71.416039 9.3910704 11249051
-139.25848 -71.351692 8.5436621 12433069
-133.83943 -70.558243 56.828979 7959401
-134.21034 -70.8573 56.472656 7695972
-139.21135 -71.313179 8.0358353 13024949
-139.1456 -71.261925 7.3594971 10525331
-139.53139 -71.175484 6.4360456 10064778
-139.7339 -71.083855 5.3663778 9472380
-139.61664 -71.008316 4.3514423 9208953
-139.81042 -70.919365 3.2784774 10985622
-139.98372 -70.847748 2.4220369 9669506
-140.03876 -70.761803 1.3266094 9274748
-139.89153 -70.686295 0.3140142 11183260
-140.37723 -70.605873 -0.36129594 8814715
-140.36147 -70.494713 -1.3758471 8222579
-140.1342 -70.389351 -2.3868144 9143166
-133.96092 -69.725128 57.116539 8617331
-140.88034 -70.331596 -2.7390177 10261132
-140.72198 -70.261421 -3.4143221 8814201
-140.4796 -70.156548 -4.4247322 11905951
-140.86974 -70.042465 -5.3718395 10261899
-140.7973 -69.92321 -6.4731407 8814714
-140.94641 -69.806313 -7.5018482 9077115
-141.08701 -69.689514 -8.5318718 10195592
-141.22218 -69.572411 -9.5654564 7104090
-141.34877 -69.455376 -10.600348 9866625
-141.15407 -69.386765 -11.270136 11380380
-133.74818 -68.590622 57.739113 8814457
-134.25717 -68.823158 57.327305 8354162
-141.29897 -69.331528 -11.738361 10261643
-141.68378 -69.255219 -12.343424 8813685
-141.55669 -69.135345 -13.450407 8617333
-141.88673 -69.016724 -14.43047 8617847
-141.74181 -68.896141 -15.538355 8880761
-142.05928 -68.777023 -16.525917 8617331
-141.92751 -68.665359 -17.551218 7827559
-142.32039 -68.571457 -18.296333 6644055
-142.14632 -68.451378 -19.406916 9406587
-133.84929 -67.691772 58.067642 8288370
-134.46132 -67.986519 57.565933 7894126
-142.44092 -68.331169 -20.408838 6644055
-142.4912 -68.21093 -21.468634 7039331
-142.53282 -68.090775 -22.529018 11512478
-142.79466 -67.986824 -23.39415 11183001
-142.72731 -67.884064 -24.325275 8682867
-142.99466 -67.762413 -25.347103 9011832
-142.76669 -67.643318 -26.460899 7695973
-143.38033 -67.557587 -27.289593 8485745
-143.19092 -67.462906 -28.417381 8418928
-143.63519 -67.400772 -29.134977 9011064
-133.52852 -66.703438 58.692673 9274494
-134.09955 -66.799347 58.302307 7959148
-143.42188 -67.351425 -29.631628 9011064
-143.38756 -67.26329 -30.405972 8287597
-143.61613 -67.160484 -31.298573 9340798
-143.58992 -67.037056 -32.382145 8221805
-143.55443 -66.913727 -33.465569 8683125
-144.11885 -66.812508 -34.32975 9143417
-143.70979 -66.721153 -35.148407 8813939
-144.10034 -66.58239 -36.349144 6643028
-144.21716 -66.458885 -37.427734 7104348
-133.69072 -65.684326 59.036125 9471359
-134.23216 -65.893524 58.614658 7958120
-144.0565 -66.351631 -38.375008 8617080
-144.60364 -66.247276 -39.267517 9735046
-144.43365 -66.139557 -40.219658 8551287
-144.52461 -66.014915 -41.309322 8683128
-144.97183 -65.890427 -42.382942 7827822
-144.5197 -65.803291 -43.197372 6709590
-145.0425 -65.716591 -44.306335 11051414
-145.08481 -65.635498 -45.276779 12498346
-145.11958 -65.554337 -46.24757 9341313
-145.31061 -65.461533 -47.209835 7565675
-133.36708 -64.44854 59.770409 9340286
-133.91945 -64.733223 59.309418 9208443
-145.18608 -65.369858 -48.008209 7828589
-145.52068 -65.231544 -49.287582 7565417
-145.95532 -65.111809 -50.416508 9144190
-145.53188 -65.033012 -51.056232 8486258
-145.84901 -64.892441 -52.353752 6643543
-145.9854 -64.784897 -53.330971 6840151
-145.83047 -64.691673 -54.138283 9931907
-146.24153 -64.568474 -55.294605 10853008
-145.79338 -64.489838 -55.929695 9735558
-133.7063 -63.626373 59.920197 9471872
-133.84399 -64.177811 59.59671 8089963
-146.53656 -64.4245 -56.619503 8617336
-146.19499 -64.365379 -57.095467 9143679
-146.59367 -64.239914 -58.270432 10457995
-146.54436 -64.146217 -59.275711 7366752
-146.51169 -64.063217 -60.290554 8025194
-147.10425 -63.993 -61.364208 8616563
-146.65604 -63.928284 -62.008186 9735299
-147.12947 -63.840748 -63.25489 9735299
-146.98149 -63.767986 -64.10231 8552306
-147.1358 -63.687134 -65.155388 8289390
-147.59819 -63.597401 -66.425468 8157552
-147.12303 -63.532097 -67.065826 8354420
-147.81732 -63.473637 -68.027756 10064262
-133.70499 -62.742535 60.30479 9340286
-147.57568 -63.440956 -68.347778 10261132
-147.21225 -63.39188 -68.826447 8617335
-147.65715 -63.299557 -70.120163 8485237
-148.10027 -63.206196 -71.426033 9208958
-147.59866 -63.140404 -72.062607 6972766
-148.15961 -63.062256 -73.221603 9209467
-148.18472 -62.989777 -74.124733 6972762
-148.07413 -62.900574 -75.186203 9603201
-148.62947 -62.820217 -76.370369 9734531
-148.23364 -62.770603 -76.845161 9340798
-148.65089 -62.672585 -78.199753 6511954
-149.20216 -62.590034 -79.408989 9011320
-148.65738 -62.523563 -80.040253 9800837
-133.52931 -61.646187 60.888138 9603457
-134.00026 -62.023384 60.436687 8089963
-149.20293 -62.439789 -81.26281 9537667
-148.78752 -62.389847 -81.734833 9537667
-149.32036 -62.301456 -82.96553 7630187
-133.18005 -60.636185 61.614861 6775130
-133.75436 -60.715153 61.229851 10787728
-133.37634 -59.321236 63.007317 7169884
-133.52383 -59.797176 62.162865 6511954
-132.14284 -58.410202 72.729927 8024687
-132.43427 -58.683331 72.180153 8616565
-132.67693 -58.910751 70.956627 8813941
-133.0174 -58.912224 70.316734 8813941
-132.38626 -58.913605 69.169235 7629411
-132.88255 -58.915787 68.210747 9340798
-133.29099 -58.917606 67.409325 11709858
-132.72888 -58.9193 66.124451 8090474
-133.20319 -58.921471 65.163483 7169884
-133.32135 -59.037357 64.11087 7959401
-133.60199 -59.183414 63.376434 9735812
-132.27905 -57.695736 72.958466 8024687
-132.03871 -56.477463 73.637878 13022893
-132.44429 -56.822495 73.238617 7367015
-132.08621 -55.717274 73.940796 10129288
-132.7115 -55.953793 73.454231 9011323
-131.7939 -54.592999 74.610992 7563619
-132.34431 -54.755116 74.202805 7760998
-132.08249 -53.627388 74.855812 9537921
-132.40022 -53.922886 74.532059 7563619
-131.77849 -52.240097 75.648048 10984852
-132.10403 -52.802616 75.202812 8748149
-131.89523 -51.636032 75.84034 9208697
-132.48343 -51.780609 75.416656 10460302
-131.55209 -50.444736 76.570961 10854036
-132.09464 -50.783009 76.09063 7629667
-131.86629 -49.590191 76.75135 7827046
-132.2565 -49.981853 76.341309 8287597
-131.87991 -48.700947 77.130013 8353646
-131.72514 -47.636269 77.687813 8682867
-132.15514 -47.82254 77.342606 10854036
-131.2769 -46.325619 78.532791 10261899
-131.7908 -46.744843 78.034798 8354675
-131.57208 -45.454231 78.891586 10262416
-131.99515 -45.858936 78.315056 9867915
-131.34888 -44.200905 80.734581 7563619
-131.52612 -44.5331 79.901863 11051160
-131.95801 -44.81554 79.224655 14406603
-130.50362 -43.436134 89.700897 9339771
-130.57387 -43.801456 88.966026 9997699
-130.70226 -43.878948 87.905258 9932165
-131.22937 -43.880863 87.11676 9143163
-130.49791 -43.882965 85.503441 9143163
-130.90804 -43.884483 84.873619 8814453
-131.4169 -43.886387 84.083931 8682867
-131.14751 -43.915218 81.921478 7892840
-131.38617 -44.071236 81.193916 7563619
-130.45572 -42.677902 90.03672 9997955
-130.29128 -41.470139 90.617249 9735038
-130.65842 -41.815514 90.290909 9800577
-130.36707 -40.690342 90.900955 9471867
-130.15903 -39.413994 91.531693 9011574
-130.51875 -39.80138 91.191765 9077367
-130.27359 -38.70507 91.766777 9208953
-129.9158 -37.479259 92.451668 10261132
-130.41219 -37.735275 92.097443 9866885
-130.11349 -36.674789 92.684494 10130313
-130.48517 -36.954651 92.382988 10262667
-129.87865 -35.308609 93.365707 9143931
-130.23189 -35.741943 93.010048 9275517
-130.07501 -34.541691 93.583748 8617331
-130.44878 -34.779549 93.298515 9143931
-130.05684 -33.638832 93.965355 9406590
-129.84201 -32.546734 94.523399 9011832
-130.28104 -32.689636 94.244629 9011832
-129.94781 -31.656214 94.837814 8880503
-129.79085 -30.296194 95.681702 9078654
-130.0683 -30.79756 95.164146 8486256
-129.74582 -29.460655 96.614922 9736585
-130.03888 -29.65662 96.105064 8684155
-128.82169 -28.387556 105.83448 8945782
-128.79306 -28.848974 103.85233 10392203
-129.41635 -28.850965 103.07513 9405822
-129.11751 -28.856823 99.573257 10788244
-129.59557 -28.858364 98.949997 12433581
-129.65025 -29.025866 97.843819 9736585
-129.93465 -29.141745 97.242096 11907239
-128.46611 -27.386272 106.42397 9143159
-128.94991 -27.726404 106.04221 8090987
-128.64909 -26.52807 106.68537 10656141
-129.1675 -27.030087 106.21973 8090987
-128.7417 -25.61566 107.01424 10656657
-128.57596 -24.62645 107.50388 8946296
-129.07971 -24.781691 107.18819 9341054
-128.50595 -23.724716 107.90964 9603969
-128.34514 -22.694321 108.41374 9406079
-128.92618 -22.728762 108.10909 9669763
-128.52448 -21.631201 108.76149 8747893
-128.24925 -20.438776 109.39 11380380
-128.6201 -20.731722 109.08408 11380380
-128.36633 -19.573118 109.68797 10392974
-128.9568 -20.065538 109.19022 11380380
-127.89434 -18.36941 110.4194 8090736
-128.41678 -18.599659 110.06361 8485237
-128.27023 -17.504959 110.58763 9274495
-128.79794 -18.000141 110.12013 8090736
-127.73099 -16.304304 111.35145 7893096
-128.35986 -16.578165 110.92445 10392718
-128.144 -15.704412 111.43861 8813943
-128.63632 -15.928534 111.05386 9735046
-128.13034 -14.491983 112.51244 8287597
-128.35643 -15.003401 111.89334 7893096
-135.21501 -74.412766 51.832867 7958120
-135.50578 -74.663879 51.197369 8879222
-135.84351 -74.708557 50.280884 9011573
-135.87439 -74.731049 49.289833 10261383
-136.06328 -74.675293 48.433037 7301469
-136.28377 -74.608719 47.404526 7301214
-136.30577 -74.550491 46.310539 8156267
-136.28644 -74.503784 45.389786 9538432
-136.2623 -74.457535 44.472298 10787987
-136.26495 -74.400871 43.385971 9208958
-136.45248 -74.336487 42.361862 10261129
-136.60361 -74.283119 41.508293 7366240
-134.89378 -73.472847 54.900978 12103848
-135.2355 -73.743019 54.282505 14406603
-135.61055 -73.803551 53.411777 11577248
-135.53557 -73.97776 52.329544 7234397
-135.83472 -74.068741 51.414047 7234397
-136.13869 -74.198204 50.687271 6511954
-136.69194 -74.251205 40.996147 6642517
-136.80672 -74.208923 40.313156 6839896
-136.9523 -74.134239 39.282501 8222060
-136.9743 -73.997261 38.219406 8617331
-137.03604 -73.909599 37.348232 6511954
-137.11444 -73.83416 36.483868 7104091
-137.20248 -73.744003 35.447372 8288365
-137.28363 -73.654381 34.411705 8748916
-137.35797 -73.565216 33.376987 9012088
-137.4312 -73.479584 32.344536 6840919
-137.81728 -73.378906 31.315636 8090480
-137.87099 -73.306595 30.421291 8945787
-135.11652 -72.707397 55.071106 11116696
-135.61214 -72.848518 54.289639 11576990
-135.86642 -73.232742 53.586998 10787732
-138.36295 -73.25592 30.110241 9734788
-138.00793 -73.215034 29.337284 9340030
-138.05609 -73.132362 28.30608 10063752
-138.48712 -73.035149 27.352825 9603457
-138.52136 -72.953171 26.320717 8748660
-138.54477 -72.885216 25.46143 8617331
-138.56323 -72.817566 24.602921 8617331
-138.57936 -72.736755 23.573828 8156525
-138.5887 -72.656441 22.545879 8879733
-138.5921 -72.576904 21.519341 8879733
-138.95721 -72.508812 20.479862 8418669
-139.03035 -72.434532 19.533564 8616048
-139.36728 -72.331978 18.725418 8090475
-134.79366 -71.575256 55.804733 9735812
-135.32532 -71.822388 55.317089 9603199
-135.73723 -72.019791 54.670151 9866371
-139.33571 -72.282104 18.208687 8682867
-139.29095 -72.215813 17.520632 10130313
-139.21877 -72.116852 16.490183 14143943
-139.52635 -71.998413 15.504721 13419708
-139.64064 -71.898407 14.581023 12958646
-139.73315 -71.782486 13.485735 6511186
-139.63402 -71.685524 12.458058 7761509
-139.91814 -71.569611 11.464592 7827558
-140.22672 -71.470284 10.470068 8288365
-140.14149 -71.392235 9.4456005 8288365
-140.08128 -71.34037 8.763587 7564651
-135.01965 -70.695786 56.048546 6906712
-135.54565 -70.878052 55.636868 8156266
-140.03378 -71.30162 8.2526531 8419959
-140.35732 -71.224823 7.4237223 8748923
-140.65686 -71.135078 6.4204159 12498089
-140.54349 -71.058121 5.3975496 8617072
-140.42595 -70.982834 4.3767166 8617072
-140.95691 -70.913956 3.7135398 10919572
-141.03223 -70.83326 2.6956279 10064777
-140.89717 -70.75946 1.6743915 8288365
-141.073 -70.670143 0.58851981 9866630
-141.40822 -70.577415 -0.3637526 7761256
-141.18806 -70.472725 -1.3838408 9143166
-141.41307 -70.3731 -2.2379744 9669253
-134.65936 -69.270508 56.887405 7564642
-135.06905 -69.805008 56.405167 6775126
-141.71115 -70.308655 -2.7550089 10261132
-141.55096 -70.238022 -3.4342997 8353907
-141.6228 -70.115837 -4.5290508 10656656
-141.88593 -70.002846 -5.495573 9012605
-141.62573 -69.897865 -6.5110836 8485237
-142.07468 -69.808685 -7.2178879 9208958
-142.00998 -69.69751 -8.2441063 13090481
-142.14857 -69.579666 -9.2840137 10459791
-142.27861 -69.461868 -10.325188 12236458
-142.08327 -69.392723 -10.999708 10261643
-134.96678 -68.543877 57.015217 7827814
-135.3036 -68.91774 56.647202 7564642
-142.50975 -69.327515 -11.493456 9405820
-142.51878 -69.22583 -12.415972 9142907
-142.52109 -69.122643 -13.339615 8946555
-142.77623 -69.002937 -14.346832 7302245
-142.71068 -68.881767 -15.441347 6841692
-143.0094 -68.779053 -16.287073 7893607
-143.08881 -68.658173 -17.345123 7827814
-143.15962 -68.537453 -18.403965 10591634
-143.12442 -68.433891 -19.335228 9736326
-135.0036 -67.687279 57.364677 9735814
-143.40372 -68.330185 -20.194019 6841693
-143.45702 -68.209038 -21.260563 7630696
-143.50154 -68.088097 -22.327686 8815482
-143.7682 -67.983498 -23.197783 11183001
-143.63635 -67.862999 -24.301821 8682867
-144.15395 -67.739311 -25.283285 9933191
-143.75671 -67.641914 -26.286032 9341054
-144.40605 -67.568138 -27.124107 9341054
-144.02364 -67.484322 -28.131432 8813685
-144.66891 -67.410339 -28.981541 9142907
-134.74554 -66.60601 57.991772 7365983
-135.32536 -66.813057 57.547806 9274494
-144.46049 -67.36335 -29.483147 8089963
-144.15569 -67.28936 -30.145222 8682612
-144.66145 -67.171097 -31.161156 9011577
-144.63786 -67.046852 -32.252117 9932677
-144.60501 -66.922668 -33.342968 10853004
-145.0963 -66.802406 -34.377621 7039331
-144.68393 -66.710411 -35.20155 6643287
-145.24962 -66.607468 -36.080956 7168861
-145.19279 -66.482056 -37.183422 8221807
-134.91664 -65.727325 58.268837 7300190
-145.12674 -66.35675 -38.285507 8090737
-145.59459 -66.233383 -39.348053 9143167
-145.24028 -66.160278 -40.004196 8485751
-145.69951 -66.035927 -41.075859 9012093
-145.77121 -65.908508 -42.236248 8354419
-145.56084 -65.806267 -43.317039 8288622
-146.17941 -65.73407 -44.268417 9209980
-145.74081 -65.658997 -45.09565 12696241
-146.26401 -65.570679 -46.223888 8354677
-146.27667 -65.478592 -47.199207 8157555
-134.58176 -64.700989 58.918999 9076601
-135.17613 -64.81147 58.508018 7432032
-146.24486 -65.369812 -48.162331 9538690
-146.69112 -65.25042 -49.290108 8091760
-146.2715 -65.171135 -49.934723 9670277
-146.70815 -65.050522 -51.071774 7038307
-146.85493 -64.942993 -52.050247 8288627
-146.70717 -64.84951 -52.860958 11249050
-147.13191 -64.726616 -54.016651 8484720
-147.06473 -64.615082 -54.999817 8484462
-146.98993 -64.503494 -55.98214 8617336
-134.82664 -63.692017 59.207542 10787219
-135.3174 -64.177773 58.696899 6510930
-147.51547 -64.398041 -56.997002 7564651
-147.43864 -64.288063 -57.990753 9208443
-147.38719 -64.192459 -58.996735 7234396
-147.88243 -64.106636 -60.230133 9734015
-147.43858 -64.041634 -60.879131 8616305
-147.92459 -63.954559 -62.124352 7892584
-147.47122 -63.889442 -62.771534 8616563
-148.06358 -63.817455 -63.867104 9998984
-148.54082 -63.728222 -65.136024 9538689
-148.07071 -63.662739 -65.782227 9538689
-148.53838 -63.572197 -67.062988 8354675
-148.0584 -63.506416 -67.70697 10064262
-134.39389 -62.625114 59.93504 9932165
-134.93423 -62.788136 59.534309 11116952
-148.51611 -63.41457 -68.999634 8288369
-148.9727 -63.321602 -70.305145 9734788
-148.59962 -63.272072 -70.786545 13550517
-149.04819 -63.177933 -72.103691 6972507
-148.5414 -63.111752 -72.743759 9209467
-149.10899 -63.032913 -73.913513 6578004
-149.54799 -62.936478 -75.255531 8616307
-149.02396 -62.870022 -75.893707 8616307
-149.58611 -62.788944 -77.088905 8089963
-149.18619 -62.738979 -77.566353 8616307
-149.74445 -62.65683 -78.774231 9340028
-150.03003 -62.540054 -80.313141 10261132
-149.75482 -62.506638 -80.630447 10853012
-134.72292 -61.670547 60.148636 10918801
-135.07019 -62.10347 59.74855 13550517
-149.47911 -62.473217 -80.947006 10853012
-150.16945 -62.405403 -82.022987 8287859
-149.74979 -62.35511 -82.497681 9537667
-150.44012 -62.286266 -83.586876 11906207
-134.41881 -60.465839 61.011879 9537663
-134.78905 -60.90366 60.464279 9866371
-134.07494 -59.25938 62.811516 6511954
-134.42412 -59.438629 62.108879 7301470
-134.72713 -59.864952 61.374168 8288110
-133.3036 -58.654881 71.911537 8420212
-133.83661 -58.827854 71.265999 8486520
-133.27048 -58.913322 69.835541 7892839
-133.68835 -58.915154 69.031616 7037274
-134.18364 -58.917355 68.063698 10130314
-133.53378 -58.918697 66.927322 9340798
-133.85431 -58.920151 66.283005 7893607
-134.32973 -58.922337 65.313995 8617331
-134.29321 -58.950031 64.299919 9143675
-134.53712 -59.070568 63.225014 7564642
-133.42876 -57.735584 72.236336 9143679
-133.15617 -56.676537 72.865967 9011323
-133.60127 -56.926147 72.484116 10984340
-132.9884 -55.218307 73.605652 9011323
-133.33383 -55.731747 73.169693 9011323
-133.02887 -54.634094 73.83606 8485237
-133.61998 -54.815105 73.394623 9011323
-133.20699 -53.682426 74.142471 9406848
-133.73987 -54.179173 73.598938 10855060
-132.76208 -52.713905 74.838219 10065288
-133.38402 -52.730919 74.449554 9868165
-133.11136 -51.698284 75.067642 13618110
-132.80315 -50.597961 75.737091 9275516
-133.319 -50.819714 75.324097 12039078
-132.95497 -49.662632 76.051361 7958632
-133.43423 -50.186264 75.529221 10460302
-132.55983 -48.668076 76.726418 10854036
-133.20079 -48.710476 76.314026 8748150
-132.81392 -47.648849 77.013123 10195854
-133.09935 -48.172523 76.610176 9735305
-132.62334 -46.536678 77.613594 8092019
-132.9735 -46.722015 77.317818 10130319
-132.72151 -45.728794 77.975891 8749692
-133.23055 -45.853725 77.537109 14076870
-132.3056 -44.297176 79.793915 11446432
-132.68398 -44.620399 79.009331 8881278
-132.89644 -45.069592 78.415825 8092019
-131.67877 -43.641518 89.022469 9208695
-131.54344 -43.882015 86.642075 8617075
-131.95905 -43.883545 86.007248 8748662
-132.37204 -43.885082 85.370697 8616822
-131.72005 -43.88752 83.608566 8682867
-132.12094 -43.889046 82.972961 9340798
-132.61842 -43.890945 82.175934 9932679
-132.24704 -44.02301 80.847908 8089963
-132.93439 -44.091835 80.172791 8617335
-131.39346 -42.509895 89.636368 9668991
-131.7614 -42.858974 89.308075 9405817
-131.5168 -41.719215 89.900757 9866371
-131.14297 -40.329842 90.661186 9735038
-131.57352 -40.782337 90.258873 9734783
-131.44849 -39.603168 90.807907 9274489
-131.8201 -39.888702 90.503998 9537403
-131.03178 -38.205193 91.593323 9340283
-131.42676 -38.762695 91.165527 9340283
-131.22882 -37.635441 91.729691 9274235
-131.79446 -37.703465 91.418365 9208443
-130.74594 -36.194885 92.565712 9143931
-131.30542 -36.704422 92.075417 9406334
-131.08961 -35.574852 92.649452 10591889
-131.54987 -35.758785 92.343124 10986646
-131.20552 -34.713985 92.946541 8485745
-130.8389 -33.636204 93.574738 9143931
-131.40718 -33.69627 93.265427 8485746
-131.10138 -32.723972 93.819679 8946553
-130.79668 -31.456944 94.494911 8420976
-131.17459 -31.731518 94.192429 8552562
-130.87675 -30.626522 94.893784 7763046
-131.37766 -30.919886 94.432579 8881527
-130.76004 -29.197435 96.637024 10262929
-130.87331 -29.622805 95.798935 8223601
-131.20815 -29.948492 95.270355 8420976
-129.50171 -28.479864 105.45659 9537662
-130.08073 -28.524313 105.14877 10655629
-129.78802 -28.852161 102.60696 9405822
-130.28065 -28.85376 101.98044 9340029
-130.77077 -28.855356 101.35194 9208443
-130.65909 -28.886953 97.783554 11907239
-129.78371 -27.584473 105.68371 9537664
-130.07607 -27.912237 105.40285 10261132
-129.41708 -26.232679 106.42281 8682867
-129.85692 -26.722876 106.0014 9208955
-129.63603 -25.533432 106.60094 9143418
-129.92963 -25.859974 106.31983 8682867
-129.26639 -24.181105 107.34175 8419952
-129.78902 -24.682196 106.87447 8880503
-129.34496 -23.504396 107.58074 9604226
-129.95129 -23.678766 107.20592 7827815
-129.63725 -22.624804 107.79642 9801349
-129.29987 -21.521143 108.41938 8090479
-129.6275 -21.744846 108.16361 8550771
-129.4846 -20.66889 108.67807 7564650
-129.87796 -20.937208 108.37104 7038307
-129.20592 -19.255623 109.39915 11380380
-129.58394 -19.686546 109.03294 8682872
-129.32777 -18.602318 109.60739 10130315
-129.72247 -18.869213 109.30032 9932937
-129.04686 -17.186117 110.33096 6511962
-129.42628 -17.616219 109.96426 7696235
-129.12402 -16.500437 110.57471 9735046
-129.627 -16.590931 110.28617 9011579
-129.07039 -15.131614 111.42674 8089963
-129.33568 -15.664895 110.88239 9208700
-128.8537 -14.316014 112.32551 9537150
-129.35698 -14.574576 111.78138 8089963
-128.96739 -13.958923 113.52186 12432037
-129.33987 -13.970292 113.29794 12432037
-136.45377 -74.465385 50.057953 6511954
-136.795 -74.522102 49.436714 8156521
-137.00891 -74.577393 48.490765 8682609
-137.12831 -74.554497 47.328018 9406078
