# .PCD v0.7 - Point Cloud Data file format
VERSION 0.7
FIELDS x y z rgb
SIZE 4 4 4 4
TYPE F F F U
COUNT 1 1 1 1
WIDTH 1227
HEIGHT 1
VIEWPOINT 0 0 0 1 0 0 0
POINTS 1227
DATA ascii
80.492981 -46.298115 128.29201 10787991
161.27148 -45.617188 24.307016 6183245
161.03036 -45.98526 25.050772 7104097
160.86053 -46.256889 25.751635 7038307
81.468559 -45.901276 128.12813 9208443
80.728592 -45.583942 128.7554 12827832
79.863434 -45.476185 129.26988 16249839
79.119789 -45.1619 129.89598 13222845
162.65248 -44.452019 22.637472 9866367
161.99875 -44.743881 23.539812 5920074
161.72324 -45.024006 24.294889 7827814
80.233246 -44.850983 129.60794 16249839
79.491791 -44.669456 130.15508 12235949
78.698746 -44.513786 130.83284 8354928
78.289337 -44.265171 131.72914 8420720
77.474304 -44.25399 132.16307 9932937
169.03931 -43.678864 14.066716 9275517
168.91455 -43.662617 14.87444 15195599
168.35095 -43.985474 15.845243 13156021
166.49341 -43.98452 17.284742 9011579
166.4068 -43.982578 18.085028 8945530
166.31705 -43.980633 18.885084 10853012
164.46521 -43.979797 20.276144 10984855
163.89423 -44.077442 21.206167 9077113
163.41878 -44.202152 22.144041 10393485
77.812965 -44.034065 132.74324 9209467
77.002991 -43.971752 133.37962 9472382
76.300041 -43.895157 134.05748 10129801
75.573868 -43.815697 134.81398 10458513
75.085892 -43.81572 135.0854 10458513
74.480568 -43.811413 137.0955 9143680
73.984093 -43.811462 137.36281 9670023
73.154785 -43.811558 137.80421 9932936
72.173058 -43.807316 140.00621 11379356
71.497055 -43.807438 140.35083 9471872
70.649902 -43.807594 140.77757 9340798
69.785782 -43.803368 142.90465 9932679
68.935669 -43.601452 143.64296 10261388
68.325043 -43.338108 144.29799 10064265
67.633972 -43.341694 144.63605 8682867
169.3483 -42.807003 13.936971 8354675
169.43788 -42.676685 14.71362 12828079
69.105743 -42.756165 144.14836 10985367
68.443657 -42.565727 144.55009 9669250
67.48024 -42.532391 145.03679 8880246
169.69353 -41.747761 13.227513 8091245
169.688 -41.878357 13.994061 8091761
68.532776 -41.985985 144.73933 9538176
67.898361 -41.602825 145.20497 7959408
66.964645 -41.553741 145.68346 9012349
170.03467 -40.789864 13.115155 8813682
169.99707 -41.016914 13.935483 8354159
67.803909 -40.701138 145.6138 7959408
67.065903 -40.680264 145.98476 8090994
66.320435 -40.550797 146.403 9012350
170.37912 -39.750286 12.521565 10261132
170.3886 -39.837982 13.277974 8681835
67.360062 -39.800667 146.19376 7762029
66.449638 -39.678547 146.69011 7301734
65.673309 -39.427315 147.17249 9012350
170.85364 -38.290646 11.521268 9931905
170.74254 -38.720322 12.33994 9471355
170.631 -39.151131 13.157926 8681835
66.661255 -38.642895 147.00235 9604228
65.885925 -38.471878 147.45198 9669508
65.143364 -38.269119 147.89833 9406334
171.09636 -37.635704 11.619077 9931905
171.11597 -37.693909 12.364911 8879470
65.989136 -37.587456 147.75674 8682356
65.012589 -37.558441 148.24812 9011576
171.41245 -36.629562 10.727773 10853004
171.37657 -36.852924 11.553807 10063746
66.150612 -36.963871 147.92802 9142907
65.453659 -36.629986 148.40462 8813941
64.500374 -36.543049 148.90788 8287598
63.800518 -36.2108 149.38527 10855060
171.73291 -35.7561 10.797994 9472127
171.71831 -35.928959 11.678708 9932162
65.401749 -35.672882 148.81479 9142907
64.65361 -35.654911 149.18953 8089963
63.896858 -35.527393 149.61253 9472383
172.07837 -34.693954 10.073506 9932935
172.07538 -34.818985 10.848996 8682868
64.802299 -34.736065 149.48561 7564651
64.020981 -34.647522 149.90514 8616823
63.238682 -34.559731 150.32484 8945271
172.44318 -33.677471 10.006169 9209469
172.38673 -33.950253 10.78362 7564643
64.267769 -33.732182 150.15129 8485495
63.426113 -33.530453 150.64597 9734531
62.692337 -33.393387 151.06172 9734531
172.78915 -32.613319 9.277318 8156785
172.76015 -32.797749 9.9707613 8814713
64.24176 -33.079735 150.42583 10458513
63.657639 -32.694748 150.86751 10129289
62.724979 -32.510849 151.39978 9997703
62.039787 -32.324184 151.81155 9800581
173.05835 -31.851696 9.151227 7893614
173.02361 -32.072868 9.9845324 9735812
62.986897 -31.574272 151.64693 8945531
62.01944 -31.489244 152.15663 9669251
61.306927 -31.155481 152.64078 10853012
173.47659 -30.669172 8.4042101 8090480
173.40004 -30.955791 9.2372942 9406335
62.789711 -30.740618 152.07838 7564651
62.394512 -30.510214 152.36955 9274751
61.463234 -30.522884 152.81886 9801092
174.12334 -29.597006 7.7345629 9405823
173.98187 -29.908298 8.3577394 9405823
62.231812 -29.983847 152.81331 9735299
61.640869 -29.743633 153.29881 9341053
60.923153 -29.523264 153.83061 10524559
60.119339 -29.393204 154.33098 10130313
174.77795 -29.261444 7.5533266 8813944
60.548664 -28.97431 155.06874 10130313
59.816669 -28.98258 155.40074 9603969
59.083893 -28.991182 155.73186 10130313
58.589748 -28.782795 157.28438 9538176
57.830585 -28.783207 157.56378 10919829
55.605869 -28.777506 161.04463 9538433
54.828735 -28.777983 161.30962 9867398
53.092964 -28.771957 164.63324 10064521
52.247566 -28.612183 165.00215 10327693
51.523438 -28.345129 165.20232 10459278
52.464149 -27.76157 165.41292 11380380
51.754944 -27.466244 165.54683 10064520
51.737759 -26.590281 165.89595 9998727
51.125671 -26.255339 166.04347 10459278
51.826069 -25.865128 166.18272 10459278
51.200516 -25.633738 166.2892 10327435
51.272114 -24.676895 166.66849 9472383
51.208199 -23.754833 167.03712 9209211
136.77277 -73.414207 57.213764 9341053
136.47713 -73.50399 57.992153 9801860
135.96703 -73.635345 58.98534 9998983
135.49866 -73.707466 59.849773 9997959
134.94434 -73.845772 60.560551 9866373
134.40904 -73.918266 61.358746 9866373
133.49803 -73.917885 62.030979 9603458
132.68715 -73.916847 62.899639 8879479
132.30539 -73.915359 63.695568 8682867
131.91864 -73.913879 64.489037 9603199
131.09549 -73.912903 65.340164 10655373
130.17032 -73.912636 65.976151 8681843
129.68939 -73.910927 66.912636 7827565
129.28366 -73.909515 67.690414 7893358
128.87283 -73.908112 68.465614 11774365
128.02782 -73.907265 69.284149 10327434
127.08921 -73.907104 69.885803 9208954
126.58019 -73.905495 70.79995 10787728
126.15108 -73.904167 71.558983 8682867
125.71713 -73.902847 72.315247 8682867
125.19052 -73.901299 73.219429 8485232
124.42374 -73.900208 74.081161 8550257
123.70191 -73.899734 74.682213 9405565
122.82156 -73.899063 75.446007 8682867
122.27248 -73.897598 76.329201 9208954
121.8102 -73.896385 77.06221 8682867
121.34312 -73.895187 77.792244 9998725
120.77717 -73.893776 78.664711 13485752
120.2049 -73.89238 79.533051 9867398
119.62637 -73.890999 80.397194 8814971
119.04159 -73.889648 81.257179 9209728
118.45063 -73.888306 82.112915 9933190
117.49704 -73.888184 82.712425 7300704
117.00672 -73.886734 83.551895 7169635
116.37995 -73.886208 84.122482 8287858
115.85054 -73.885109 84.847252 9865859
114.91246 -73.884743 85.526344 12891564
114.29081 -73.88353 86.352158 8485487
113.6632 -73.882339 87.173431 8485487
113.14052 -73.87545 88.186745 13090997
112.6868 -73.773369 89.100494 10788240
112.05801 -73.636513 89.861404 9670016
111.31651 -73.577431 90.594025 6511954
110.61794 -73.6502 91.210899 8485745
110.03925 -73.569885 91.77597 9406335
109.54297 -73.422615 92.259056 10063753
137.32846 -72.492821 56.606121 10788244
137.0515 -72.740913 57.148956 10130313
136.73508 -72.732292 58.100761 10591632
136.39146 -72.80349 59.042095 10195850
112.2453 -72.935677 90.233658 9341051
111.64228 -72.675095 90.858955 8353903
110.9278 -72.714783 91.436287 10063753
110.27736 -72.724754 91.974152 10195339
109.49168 -72.646233 92.666367 9471617
108.82147 -72.351105 93.363922 8090995
138.05109 -71.46254 55.625156 8814712
137.64554 -71.71804 56.542324 9603969
137.29286 -71.747375 57.558529 9801349
136.93179 -72.029114 58.312984 10985878
111.53989 -72.083214 91.222176 9209467
111.13713 -71.912071 91.638527 11379356
110.54826 -71.643044 92.256042 10195339
109.81371 -71.632561 92.873695 8484979
108.96659 -71.634804 93.579147 8682617
108.1955 -71.647209 94.216515 8814459
107.57655 -71.320038 94.886375 7564651
138.61473 -70.64827 54.872066 9735302
138.32034 -70.730385 55.65538 9537923
137.96825 -70.756195 56.67358 8814454
137.67188 -70.842361 57.456844 8682867
109.92093 -70.91803 93.119698 7563619
109.22607 -70.699883 93.801628 8880508
108.43757 -70.629539 94.492371 9867143
107.64972 -70.562477 95.181 7959408
106.90273 -70.597038 95.787903 10722453
139.32553 -69.446571 54.121006 9012091
138.95567 -69.749992 54.877197 9077629
138.61238 -69.818932 55.820164 9012093
138.28293 -70.045441 56.542957 8617592
109.16995 -69.929001 94.210335 10854036
108.63161 -69.72924 94.753174 10854036
107.90464 -69.630157 95.406113 10327694
107.06473 -69.753227 96.048866 10525331
106.3 -69.634911 96.697662 9670023
105.74677 -69.215111 97.186478 8089963
139.89189 -68.721199 53.258785 10196367
139.55219 -68.775482 54.208164 9472384
139.20064 -68.795433 55.230621 7697261
138.90123 -69.002121 55.886723 8617592
108.01693 -68.97287 95.620979 10327695
107.32215 -68.680489 96.337791 10130315
106.58237 -68.616432 96.954178 8748917
105.6658 -68.587112 97.487381 8222061
140.58063 -67.660881 52.412853 8156784
140.22644 -67.800797 53.307735 12104102
139.87395 -67.864571 54.283443 12761772
139.51556 -68.08786 55.09586 8288624
106.6459 -67.810364 97.258194 8814710
105.85166 -67.693733 97.752892 8222061
105.13106 -67.508698 98.217712 8484977
141.61946 -66.242264 50.931541 9670531
141.23575 -66.522629 51.754887 9143931
140.88766 -66.641922 52.654781 9932934
140.55215 -66.780884 53.494648 11972514
140.25122 -67.04567 54.089474 13353909
106.08347 -66.865715 97.966827 8485489
105.40906 -66.642464 98.422363 9406335
104.63482 -66.518883 98.890907 9670020
103.99701 -66.275253 99.334953 7893349
142.1703 -65.47287 50.165478 10459279
141.87279 -65.667923 50.829315 9801605
141.52327 -65.676193 51.859074 9275261
141.18303 -65.724785 52.815319 9537408
105.53866 -65.80999 98.693275 10130314
104.8158 -65.630104 99.157166 9275007
103.97537 -65.575233 99.633308 7301474
142.85173 -64.32457 49.440624 9735556
142.50519 -64.660835 50.089935 10261900
142.16705 -64.761101 50.981682 9735556
141.84334 -64.847443 51.846138 9406334
141.48398 -65.110039 52.617073 10129801
104.99614 -64.742119 99.423462 8288371
104.063 -64.717377 99.937317 6314835
103.29881 -64.534988 100.42455 6248782
143.40308 -63.560608 48.667046 10854036
143.10542 -63.751957 49.335014 8419696
142.75616 -63.75515 50.369728 9472384
142.46211 -63.823132 51.166653 9604225
104.90897 -64.121857 99.724503 8288371
104.33734 -63.712269 100.2008 6578009
103.48586 -63.598717 100.70699 7367263
102.70605 -63.575462 101.13748 9143416
144.20149 -62.418812 47.586765 10854036
143.78224 -62.750511 48.457355 7958632
143.43138 -62.798485 49.446007 7629667
143.07698 -62.928238 50.352711 10525071
104.27736 -62.899822 100.56586 9011838
103.64086 -62.708641 100.98779 11709343
102.72843 -62.699314 101.48419 10261127
102.07256 -62.366333 101.9746 7038298
144.75848 -61.532871 46.934338 12366760
144.40501 -61.656116 47.845436 10656143
144.08661 -61.606857 48.847916 9340541
143.72458 -61.940739 49.54586 10195850
103.69884 -62.069496 101.21818 12630958
102.97012 -61.64817 101.78416 9603197
102.10883 -61.602303 102.2679 8879474
101.47429 -61.418518 102.6857 12432037
145.6967 -60.562916 45.565353 10130313
145.43184 -60.673664 46.123123 8682867
145.12518 -60.72628 46.92371 10590606
144.77644 -60.722111 47.967224 9801347
144.43347 -60.89267 48.625809 9537920
102.90536 -60.841766 102.14929 9866369
102.2865 -60.733101 102.578 7432542
101.45052 -60.641453 103.0948 8353901
100.64516 -60.2589 103.8262 8222573
147.42622 -59.264584 43.780773 7893866
146.98489 -59.379658 44.729038 8485745
146.29198 -59.842667 45.413105 11512735
145.93547 -59.928455 46.362671 8946296
145.45026 -60.133217 47.318108 10985364
102.32987 -60.098476 103.05524 8288622
101.88422 -59.940365 103.43265 8486257
101.20849 -59.747143 103.97844 8486001
100.41798 -59.584457 104.59514 9275517
99.737198 -59.349693 105.29752 9341054
98.96106 -59.205441 106.10287 10261903
98.396301 -59.173965 106.52071 7038307
155.99399 -58.510864 32.754742 13683130
155.64969 -58.677692 33.660633 10327690
155.00516 -58.957092 34.497761 8092019
154.83665 -58.955414 35.242588 8092019
153.45639 -58.95578 35.897995 7301474
153.23624 -58.953712 36.819443 9142902
153.05653 -58.952072 37.555607 10459017
151.68251 -58.952499 38.184738 9011318
151.44864 -58.950489 39.09536 9866881
151.25803 -58.948887 39.822983 8682867
149.84116 -58.948978 40.606033 14933971
149.54256 -58.946621 41.685375 9341315
148.69748 -58.997295 42.349129 7038307
148.18344 -59.047417 43.231827 7697005
148.02713 -59.067287 43.959908 7038562
99.928848 -59.056828 106.11366 11906725
99.362206 -59.024754 106.53442 10262415
98.51104 -58.977795 107.16248 9407363
97.657272 -58.931595 107.7851 9407107
97.698654 -58.849884 108.88206 8354677
96.908501 -58.849251 109.58316 11183517
96.113335 -58.848633 110.27855 14078918
95.313187 -58.848045 110.96811 13354940
94.508049 -58.847477 111.65193 7893871
94.506775 -58.843914 113.02577 10130829
93.8237 -58.843475 113.59099 11314590
92.999619 -58.842957 114.26401 8090994
92.17083 -58.842464 114.93099 8355189
91.61573 -58.842152 115.37248 8815739
91.433464 -58.838539 116.86951 8749432
90.585831 -58.838112 117.52514 8288109
90.056656 -58.633904 118.3645 8748403
89.346657 -58.5336 118.84967 10195848
88.67392 -58.39048 119.34453 10261897
156.41356 -57.635487 31.926012 9932934
156.27393 -57.723545 32.812149 11972514
156.10384 -57.940872 33.561405 13683130
89.529259 -57.67281 119.21284 9538432
88.563873 -57.709476 119.67233 10393483
88.030106 -57.345203 120.08099 9209467
156.93282 -56.437347 31.244509 5721930
156.74738 -56.67001 32.074413 9340542
156.51891 -57.034588 32.8624 13024945
89.44194 -56.876545 119.57584 9209467
88.836098 -56.647724 119.96543 10985363
87.91787 -56.540836 120.45946 9998471
87.301857 -56.174042 120.90947 9340027
157.2267 -55.672806 31.118349 5590602
157.06967 -55.773891 32.109226 6511961
88.997482 -55.907181 120.18387 7038307
88.390358 -55.680279 120.57324 8814201
87.420502 -55.619736 121.07407 9011063
86.813904 -55.396034 121.46196 9340027
157.71021 -54.581314 30.411627 7630180
157.53062 -54.779984 31.295218 6445910
157.33365 -55.136974 31.84691 5393738
88.320969 -54.988373 120.88548 8090736
87.618134 -54.695629 121.34839 8155755
86.781158 -54.521698 121.82949 9340027
158.12065 -53.713333 29.63563 9077626
158.02217 -53.727509 30.404646 9208956
157.92337 -53.742638 31.174025 10326925
87.644623 -53.649086 121.75606 10458250
86.881683 -53.530594 122.17848 10524299
86.152405 -53.490215 122.55296 9208698
158.633 -52.517765 28.940546 9735043
158.49504 -52.679459 29.654795 9603970
158.31783 -52.875771 30.525862 9077114
87.057434 -52.699493 122.42624 10130313
86.154762 -52.697227 122.87056 8419697
85.574379 -52.464813 123.24912 7367270
158.91388 -51.719734 28.793074 9735043
158.82222 -51.745247 29.763739 7957865
86.516678 -51.696518 123.09505 12169895
85.644821 -51.598507 123.56274 11577758
84.937134 -51.315289 124.02423 11906722
159.39191 -50.295998 28.085924 6511954
159.2569 -50.732952 28.853659 6445906
159.05748 -51.151245 29.608858 5392706
86.449669 -50.893112 123.45087 14604230
85.836197 -50.675949 123.83957 11446172
84.859192 -50.628994 124.33839 10525072
84.246048 -50.414703 124.72575 9734788
159.61797 -49.660606 28.005865 5985099
159.60243 -49.815784 28.848337 7366238
85.758865 -49.988583 124.15376 9538177
85.07959 -49.754814 124.58147 9866884
84.366714 -49.552006 125.01318 9932935
83.818733 -49.280312 125.39159 10591121
160.03394 -48.412357 27.336664 7563875
159.94427 -48.765144 28.031965 7037274
159.8432 -49.154022 28.758451 8813680
85.333595 -48.85062 124.81992 9538175
84.621071 -48.570778 125.28249 9275261
83.691071 -48.484997 125.7739 9341054
160.29312 -47.684669 27.247412 6905945
160.32042 -47.730305 28.046293 5919050
84.577713 -47.700329 125.65346 9341054
83.826286 -47.607452 126.06003 8288366
83.075233 -47.515942 126.46587 9735812
160.74585 -46.51897 26.527414 8485494
160.625 -46.818039 27.302362 8156526
83.993156 -46.79184 126.31175 10130570
83.145187 -46.655518 126.79445 9670021
82.449203 -46.358833 127.28761 9603201
161.31569 -45.656261 25.69113 9406594
161.25723 -45.791718 26.531195 9011837
83.418427 -45.849979 127.21313 8683898
82.689194 -45.642281 127.74394 9274236
81.851517 -45.477219 128.29256 9208443
81.246559 -45.217503 128.8056 10787991
162.59462 -44.494106 24.226091 6709594
162.25217 -44.648876 24.973246 9275265
161.77327 -45.056915 25.697042 10854037
82.191177 -44.791962 128.69633 10261643
81.44809 -44.714016 129.12631 10064009
80.741364 -44.509098 129.84735 14407121
80.241531 -44.295116 130.67671 10393233
79.428947 -44.282166 131.11763 8092019
169.17599 -43.519302 15.512685 15721942
169.19287 -43.584301 16.253256 10853525
168.25131 -43.983002 16.856756 9867144
168.16702 -43.981033 17.665579 9275005
166.24675 -43.979134 19.484594 9931910
166.14984 -43.977257 20.283728 8089963
164.26035 -43.976002 21.85668 8287597
164.16969 -43.978855 22.648779 8287597
163.3784 -44.23288 23.340212 8813936
163.34933 -44.254051 24.138327 7564651
80.266251 -44.069759 131.42821 7037274
79.613007 -44.05965 131.7814 8552313
78.717834 -43.989742 132.45317 8420727
78.322563 -43.816746 133.24678 8814968
77.516174 -43.815651 133.7112 10261641
76.61969 -43.811268 135.9164 10458513
75.799026 -43.811314 136.37364 11905701
74.975723 -43.811367 136.82635 10524562
74.190468 -43.80703 138.9518 9275261
73.351837 -43.807137 139.39464 8616563
72.678886 -43.80724 139.74522 10063753
71.845444 -43.802933 141.88466 7563619
70.962822 -43.589401 142.69183 8156012
70.334045 -43.294075 143.3287 9867142
69.60144 -43.269386 143.69852 11445918
169.48502 -42.658588 15.45728 12301993
169.42586 -42.926174 16.151075 10460049
71.179825 -42.75349 143.13048 8419440
70.519211 -42.560375 143.53258 10985366
69.556839 -42.523243 144.02028 11380381
169.73558 -41.858974 14.737882 8092019
169.75316 -41.922302 15.480268 9933963
70.400467 -41.852028 143.87566 10853780
69.805809 -41.59528 144.27092 10459278
68.956009 -41.4874 144.73177 9801348
170.13638 -40.727268 14.564534 8288624
170.03304 -41.124844 15.311818 8881277
69.888992 -40.692463 144.59293 9538176
69.088348 -40.630424 145.01118 9209468
68.28714 -40.569424 145.42931 9209728
170.46313 -39.715897 13.833615 8681835
170.4722 -39.804874 14.591466 11116176
69.276031 -39.790672 145.2565 9472383
68.505135 -39.616333 145.70525 8025201
67.767181 -39.41053 146.15053 7564651
170.92975 -38.330124 13.179418 8681835
170.82828 -38.712807 13.861531 9997695
170.6963 -39.189262 14.609448 13616310
68.641235 -38.630039 146.03485 8288112
67.787598 -38.505474 146.50426 8419698
67.204666 -38.121197 146.94504 9472127
171.14456 -37.708675 12.987821 8484200
171.1825 -37.72916 13.819242 8878958
68.091515 -37.57151 146.7303 9735297
67.116577 -37.539154 147.22224 8419184
66.44429 -37.350105 147.62849 9142907
171.49005 -36.665733 12.389981 9208435
171.44394 -36.886009 13.00916 7957856
171.39763 -37.106758 13.627927 8089186
68.041519 -36.819927 147.05687 9274747
67.353615 -36.620537 147.47496 8945527
66.57547 -36.459759 147.92189 8813942
65.913147 -36.187508 148.35677 9142907
171.81198 -35.755699 12.245305 9537145
171.78683 -35.937382 12.991574 8418407
67.406601 -35.590454 147.86244 8089963
66.702682 -35.595985 148.20634 8418928
65.890427 -35.538071 148.62883 11380380
172.20096 -34.586395 11.605039 8287859
172.13022 -34.874763 12.224828 9932424
66.803253 -34.912304 148.43129 8353646
66.103638 -34.576511 148.90991 9406334
65.304428 -34.554939 149.31146 7564651
172.50888 -33.694878 11.326406 7630185
172.48865 -33.873745 12.144002 9537667
66.206566 -33.686096 149.21664 9208955
65.286652 -33.694923 149.66533 8090994
64.718109 -33.466137 150.03667 7564651
172.8564 -32.637604 10.6713 9012093
172.85892 -32.764721 11.56239 9011581
65.665131 -32.721611 149.86983 8879994
64.703392 -32.633492 150.37801 9011582
63.99696 -32.298275 150.85976 10129289
173.13846 -31.832722 10.492192 9472642
173.14136 -31.959358 11.38448 8222580
65.474426 -31.889622 150.29744 7564651
64.997101 -31.501438 150.68788 8879995
64.107147 -31.511288 151.12144 9603460
63.449249 -31.125874 151.59959 8617080
173.54169 -30.727594 9.9071779 9406849
173.5071 -30.90197 10.728192 11248797
64.930733 -30.715418 151.03596 9932169
64.313187 -30.565578 151.40636 7893359
63.467701 -30.496836 151.85057 7762029
174.14742 -29.756102 9.0651903 10523530
174.10648 -29.87347 9.9592562 8419186
64.383057 -29.958817 151.77629 7564651
63.63633 -29.818085 152.25697 8617080
62.965603 -29.549591 152.80659 8748666
62.282784 -29.363089 153.29381 9209467
175.86481 -28.99494 7.8131838 9209727
174.84418 -29.27565 8.1883287 10063238
174.86423 -29.283827 9.0323534 10720653
62.374664 -28.955641 154.2339 10261387
61.827538 -28.960958 154.48497 10261387
61.097031 -28.968388 154.81891 10458766
60.67017 -28.781725 156.49727 10854036
59.914719 -28.782104 156.78644 10327180
59.158176 -28.782494 157.0726 9538176
57.542965 -28.776367 160.36571 8617592
56.575382 -28.77693 160.70793 7565675
54.480145 -28.771051 164.18138 10064521
53.687668 -28.659515 164.66612 10327693
53.036709 -28.407867 165.14235 10064521
53.739799 -28.022011 165.27971 10064521
53.233723 -27.585098 165.46535 10130314
52.541058 -27.14142 165.65797 10459278
53.189472 -26.611843 165.85385 9406590
52.481953 -26.445385 165.93648 11051415
52.545921 -25.593826 166.27403 10064776
52.523235 -24.637383 166.65553 9933446
51.882065 -24.510096 166.72096 9341053
52.013275 -23.614227 167.07487 9670018
51.258305 -23.337526 167.20232 9735555
51.907661 -22.799034 167.40215 9867141
51.480667 -22.399862 167.57094 9603969
51.622143 -21.527227 167.91541 10393483
51.560307 -20.821987 168.19789 12762285
135.58171 -73.327599 60.325153 9931910
135.14642 -73.447365 60.989864 9800836
134.64465 -73.444298 61.857723 9406078
134.12837 -73.510643 62.638828 9998216
133.60698 -73.742126 63.337254 9011833
133.11234 -73.722382 64.282715 9275260
132.59419 -73.693352 65.216042 9603969
132.0683 -73.663666 66.144638 9997701
131.30475 -73.808678 66.619751 9537663
130.69164 -73.886917 67.331909 8945785
129.99675 -73.90696 68.264839 9406080
129.4994 -73.905273 69.200012 9406080
128.99521 -73.90361 70.131577 8682869
128.06522 -73.904243 70.424728 9011577
127.35626 -73.903206 71.235794 9208960
126.83746 -73.901604 72.15184 8682867
126.31203 -73.900017 73.064072 10590608
125.78004 -73.89846 73.972549 11051159
125.33189 -73.897171 74.72673 7563619
124.64334 -73.896362 75.43708 10063750
123.91175 -73.895905 76.035904 12103331
123.01939 -73.895264 76.797325 12432294
122.46055 -73.893799 77.6819 10261641
121.89526 -73.892365 78.562401 10393227
121.41959 -73.891182 79.293144 11380380
120.93919 -73.890007 80.020782 10591121
120.3571 -73.888634 80.890228 8090992
119.76873 -73.887268 81.755478 7564651
119.17418 -73.885925 82.616447 11577758
118.57342 -73.884598 83.473099 11051158
117.96645 -73.883293 84.325363 7564650
117.35339 -73.882004 85.173309 7893614
116.56725 -73.881706 85.748604 8681843
116.05527 -73.713531 86.379837 8484720
115.31791 -73.643097 87.130737 7563875
114.57945 -73.57502 87.878334 7037274
113.8373 -73.659447 88.532982 9998215
113.18819 -73.433853 89.213371 12762028
136.32631 -72.586662 59.4813 9931910
135.94867 -72.765244 60.096516 9931910
135.42413 -72.717537 61.035927 9537664
134.89909 -72.673096 61.973675 8880246
134.37363 -72.63192 62.909863 9998984
133.89177 -72.850365 63.584011 9538433
133.44008 -72.812584 64.390419 9801860
132.85727 -73.021729 65.245392 9736067
132.43097 -73.095268 65.927902 10129030
116.18089 -73.02636 86.908424 6510930
115.61298 -72.854347 87.462837 8353134
114.91334 -72.667725 88.134064 7300702
114.06575 -72.759003 88.798149 9011320
113.27474 -72.665001 89.502068 11511706
112.59052 -72.521599 90.140114 14209473
136.94194 -71.655205 58.706203 10261644
136.60884 -71.763214 59.554745 10524047
136.20084 -71.851845 60.318783 9997703
135.74319 -71.754295 61.17852 10129802
135.22282 -71.760147 62.071991 9209467
134.63896 -71.961357 62.934551 10064777
134.21228 -72.028679 63.622219 9867398
114.94697 -72.085686 88.379272 6510930
114.32587 -71.732201 89.063255 11511711
113.6081 -71.648109 89.701454 9340798
112.69402 -71.710983 90.434341 9735810
111.95637 -71.692741 91.058197 9209467
111.36659 -71.421089 91.677666 10458511
110.96313 -71.251114 92.093979 10063753
137.59026 -70.60038 57.973675 9472383
137.32372 -70.624741 58.738384 9998984
136.96135 -70.704018 59.706963 11182490
136.43604 -70.864471 60.623466 9734787
135.99818 -70.984245 61.292568 9868169
113.63203 -70.95755 90.005653 9604225
113.02435 -70.696274 90.635185 9209467
112.29126 -70.672401 91.257896 10327690
111.70269 -70.555832 91.803535 9077625
110.85811 -70.663139 92.457596 8550514
110.11997 -70.399437 93.197166 7169635
138.29384 -69.670319 56.935375 9472128
137.96674 -69.774597 57.789726 9603969
137.6443 -69.663315 58.874252 9735812
137.34238 -69.878212 59.528355 10985879
112.57706 -69.875412 91.393639 13156786
111.90766 -69.696365 92.036072 10722193
111.12155 -69.728027 92.676926 8090991
110.32888 -69.65213 93.37368 8420468
109.58296 -69.535797 94.050507 7959407
109.00955 -69.532623 94.530205 10854036
139.27669 -68.227486 55.647961 7565675
138.9136 -68.579781 56.328274 10524303
138.58879 -68.603622 57.266788 9801090
138.25853 -68.801353 58.024647 9538175
137.89601 -69.081459 58.785061 9735812
111.86222 -69.03241 92.38575 10261902
111.32116 -68.826149 92.933846 8946811
110.65008 -68.642395 93.579819 9933960
109.79587 -68.646988 94.290184 9999241
108.95134 -68.76461 94.939407 8617336
108.2731 -68.479881 95.638809 9077885
107.73274 -68.284851 96.181046 10854036
139.88733 -67.440468 54.724049 8682867
139.57701 -67.608604 55.456005 8419953
139.23398 -67.668205 56.408283 9143675
138.88991 -67.730377 57.360615 9340539
110.60416 -68.018959 93.910873 10263180
110.00828 -67.759254 94.529785 9670532
109.25903 -67.64769 95.207115 8485749
108.46437 -67.582932 95.900322 8683127
107.67943 -67.630272 96.532814 10196107
107.00917 -67.472168 97.166107 9143675
140.56827 -66.277733 54.016644 10985620
140.22934 -66.670601 54.579189 10985620
139.90979 -66.688278 55.509129 8880246
139.53561 -66.818916 56.473484 8156524
139.19022 -67.110062 57.170628 8090987
109.4231 -66.805458 95.465652 9275262
108.71841 -66.653946 96.124596 8617335
107.85139 -66.729691 96.812172 10459278
107.08947 -66.76429 97.414993 10130313
106.54864 -66.360397 97.922638 8617331
141.12016 -65.500519 53.256256 9405822
140.82076 -65.701569 53.91869 10787986
140.46773 -65.718681 54.948719 10525070
140.17093 -65.797729 55.741566 9406334
108.73779 -66.086586 96.374817 7893614
108.16676 -65.891998 96.942429 9143677
107.6215 -65.578423 97.544456 8946042
106.80714 -65.584656 98.100784 8945786
106.02037 -65.548912 98.540131 9603715
141.85602 -64.468788 52.237316 9603457
141.49768 -64.685066 53.057693 9800836
141.14359 -64.746216 54.040966 10129801
140.78629 -64.888435 54.942013 8880246
107.57585 -64.867462 97.916237 8813945
106.90052 -64.721428 98.403862 8813945
106.05162 -64.662773 98.886169 7827821
105.39317 -64.315796 99.383675 8288371
142.34952 -63.699333 51.641895 9209467
142.09084 -63.731308 52.37458 9670018
141.78305 -63.816708 53.192738 10261387
141.47693 -63.828613 54.089275 9472383
106.88065 -64.018059 98.702591 8813945
106.32855 -63.667477 99.144234 7038307
105.37113 -63.615879 99.68222 7827821
104.79908 -63.348049 100.10072 7038307
143.09009 -62.548389 50.743847 13484981
142.73024 -62.807568 51.520023 10261897
142.37807 -62.816364 52.556969 10788241
142.01732 -63.079445 53.331474 10854036
106.19765 -62.969513 99.500732 7038307
105.62328 -62.701244 99.920601 8222579
104.7393 -62.535534 100.46571 8485495
143.76012 -61.427155 50.021896 12102819
143.41266 -61.658794 50.792473 11182229
143.08838 -61.711742 51.696426 9209467
142.75851 -61.924313 52.436211 11314328
105.64974 -61.820072 100.26717 9011838
105.00332 -61.5909 100.71001 9801353
104.02541 -61.62664 101.22328 13025716
103.42917 -61.282185 101.68616 11709343
144.42488 -60.686081 49.087086 10590608
144.07462 -60.72142 50.052814 11313046
143.72365 -60.759117 51.01791 10129542
143.37857 -60.901535 51.751347 9209467
104.98169 -60.914158 101.00145 11972519
104.29193 -60.656925 101.55242 13157303
103.4324 -60.514763 102.1185 10261640
102.93555 -60.162663 102.67265 7762277
146.91542 -59.316002 45.94606 10394001
146.44868 -59.370319 46.962345 9538178
145.88423 -59.572727 47.667084 9669505
145.29755 -59.835571 48.478752 8682867
144.89897 -59.972908 49.336739 9143419
144.42453 -60.213921 50.174053 9603455
104.3301 -59.977409 102.08052 10263180
103.883 -59.816193 102.46143 9012600
103.12173 -59.750565 102.92912 7564898
102.51312 -59.438988 103.67645 9210236
101.79733 -59.249733 104.41257 9012601
155.79333 -58.553471 34.280426 8682867
155.69225 -58.576748 35.044212 8814453
155.21326 -58.78426 35.87854 8221290
154.48793 -58.95208 36.729366 10326664
154.30864 -58.95042 37.471611 12300196
152.91916 -58.950848 38.107216 8287340
152.6857 -58.948814 39.025242 9142907
152.44708 -58.946796 39.941986 9208702
151.11247 -58.947689 40.368042 8682867
150.86542 -58.945702 41.275146 9538432
150.6133 -58.943729 42.180931 7565158
149.18463 -58.943897 42.941864 8092019
148.92212 -58.941967 43.837357 7565162
148.28162 -59.011395 44.618675 7696232
147.7076 -59.10899 45.415741 8748918
147.45395 -59.116402 46.309818 8617335
101.16714 -59.046619 105.48019 8749429
100.51221 -58.966965 106.11862 9012089
99.915222 -58.854984 106.87094 8551281
99.263649 -58.851227 107.46288 7894124
98.483727 -58.850548 108.17529 12433069
98.399689 -58.846802 109.6665 10591380
97.73703 -58.846268 110.25542 7564651
97.070534 -58.845745 110.8401 10459795
96.266296 -58.845142 111.53659 11907748
95.457062 -58.844563 112.22732 9078397
95.120262 -58.842522 113.20733 9538947
94.775955 -58.840496 114.18628 10327952
93.947594 -58.839977 114.8661 9670024
93.11438 -58.839474 115.53996 9867658
92.276268 -58.838997 116.20778 9605253
92.18441 -58.58865 117.54039 8946039
91.375305 -58.525444 117.96326 9143417
90.635078 -58.406231 118.37483 9537918
156.12741 -57.717506 34.037762 10656655
155.97198 -57.788601 35.10582 8024936
92.148972 -58.018089 117.78719 10459278
91.533478 -57.640106 118.24142 9998469
90.612793 -57.524456 118.74017 10590605
89.965881 -57.477711 119.07676 7564643
156.64775 -56.514996 33.360779 13353652
156.43967 -56.777164 34.288391 9669759
156.20715 -57.191586 34.960464 6511954
91.427048 -56.829605 118.61953 9537918
90.876122 -56.638626 118.96687 8353901
90.049225 -56.676788 119.35775 8025193
89.563995 -56.320789 119.73925 9209467
157.0939 -55.548519 32.586292 14076861
156.92375 -55.764751 33.339455 12629673
156.78308 -55.854244 34.230225 6314319
90.943428 -56.040287 119.17435 7564643
90.375992 -55.624062 119.62039 8814198
89.452957 -55.514725 120.11782 7301222
88.834541 -55.145828 120.56995 8090736
157.61385 -54.349613 31.902269 5393738
157.39771 -54.710743 32.598675 6117203
157.21872 -54.912945 33.466534 9997955
157.03313 -55.194042 34.151871 5919050
90.350235 -54.744301 119.98672 7563619
89.604866 -54.632431 120.39784 7367271
88.703346 -54.537361 120.87896 7827821
157.84886 -53.754776 31.75131 9340286
157.72412 -53.776489 32.7141 6051410
157.55385 -53.991936 33.470222 5919050
89.671715 -53.823006 120.69034 8222322
88.830551 -53.645248 121.17503 8090736
88.118713 -53.508522 121.57964 8287599
158.38387 -52.493126 31.130793 9340286
158.19092 -52.77158 31.884584 9800580
157.99773 -53.051128 32.637512 5393730
89.185135 -52.616859 121.41421 9537922
88.364723 -52.576447 121.8335 9801094
87.604088 -52.449585 122.25816 13024949
158.67407 -51.766006 30.92256 6051148
158.54987 -51.785114 31.888933 7827559
88.481636 -51.688591 122.1329 10787987
87.598259 -51.701355 122.56175 11380124
86.985283 -51.481205 122.95135 11380124
159.16414 -50.654388 30.222311 5589829
158.99077 -50.839138 31.096148 5853257
158.78525 -51.18988 31.736708 7367008
88.408859 -50.997887 122.44617 11380124
87.833626 -50.592201 122.8918 11906468
86.903763 -50.496498 123.38713 12432812
86.277428 -50.138165 123.83887 11906722
159.61374 -49.701252 29.379023 6313296
159.47519 -49.781506 30.279844 5721415
159.30591 -49.992199 31.042616 6839128
87.82666 -49.843807 123.19585 13024949
87.210884 -49.625053 123.5864 11906980
86.335114 -49.544067 124.04921 10261898
85.777199 -49.368069 124.39413 10261641
160.0592 -48.564102 28.796263 8089958
159.9492 -48.733067 29.522074 8287338
159.72116 -49.091286 30.325392 5721415
87.298447 -48.944424 123.81677 10789267
86.585022 -48.660473 124.28141 11380121
85.736702 -48.496368 124.76418 9735554
160.34076 -47.765366 28.646563 6971736
160.27306 -47.834869 29.55028 7037529
86.68055 -47.66951 124.6326 10853777
85.83033 -47.50626 125.11597 9406846
85.039619 -47.595848 125.46851 9209468
160.89612 -46.364048 27.945436 9734788
160.69205 -46.823559 28.641401 6708308
160.51318 -47.201363 29.473791 5919050
86.002686 -46.67527 125.36787 9209467
85.109306 -46.731178 125.78892 9209467
84.594254 -46.343784 126.22521 9933193
161.57187 -45.43071 27.261908 12894137
161.36493 -45.741409 27.826365 12630710
161.18021 -46.037239 28.59384 9734788
85.505035 -45.952869 126.10272 9275004
84.652023 -45.708561 126.72478 9801607
83.883568 -45.52586 127.25407 8355190
83.211395 -45.276989 127.79115 9208443
163.32614 -44.270332 24.737375 8683130
163.04184 -44.372616 25.563753 9867401
162.36935 -44.62822 26.392519 11775137
161.8708 -45.022839 27.031607 11973035
84.286819 -44.88673 127.58836 8092019
83.42746 -44.71336 128.2213 9143934
82.754745 -44.517471 128.89537 10525071
82.02536 -44.326214 129.69768 10854036
81.539215 -44.317249 129.96608 10787991
169.30339 -43.355392 16.756681 7037274
169.26364 -43.588055 17.575811 8024682
168.66255 -43.900658 18.333639 9275005
168.01006 -43.977596 19.079916 8089963
167.91541 -43.975639 19.887579 8089963
166.02318 -43.974827 21.281927 8221548
165.89087 -43.972466 22.279318 8287597
164.11638 -44.006817 23.849287 7367013
164.08679 -44.02821 24.651552 7564651
82.221542 -44.103107 130.35759 9932681
81.570297 -44.091457 130.71596 10262412
80.932594 -43.966751 131.45076 9406847
80.290359 -43.842987 132.18463 9209471
79.469635 -43.830589 132.6265 10985369
78.740067 -43.811237 134.70381 9275518
77.763687 -43.811237 135.2675 9209467
77.110703 -43.811249 135.63962 9209467
76.192703 -43.806843 137.86852 11577503
75.19355 -43.806923 138.41374 9735812
74.229797 -43.802544 140.65746 8419696
73.550522 -43.802643 141.01198 8813686
72.972725 -43.49823 141.80428 7892584
72.185158 -43.373135 142.38748 7563619
71.635918 -43.140198 142.75089 7563619
169.56412 -42.639454 16.781195 8089962
169.52472 -42.871788 17.601591 7234653
73.252731 -42.758842 142.10991 7563619
72.593353 -42.563095 142.51253 8353390
71.631714 -42.522175 143.00143 8484976
169.93883 -41.487022 15.991002 9801350
169.8999 -41.717907 16.812773 9208443
169.78593 -42.154903 17.627256 11379609
72.47538 -41.692551 142.92035 10063752
71.747253 -41.642769 143.29808 9537664
70.981468 -41.464996 143.74571 9669250
170.23737 -40.667252 16.017668 9143421
170.27348 -40.692593 16.847692 11379609
71.972488 -40.691631 143.56973 9142906
71.172684 -40.626541 143.98875 8879990
70.372421 -40.56255 144.40767 9867141
170.49982 -39.822346 15.213681 10655625
170.53638 -39.846451 16.044226 9472127
71.309174 -39.768608 144.26649 9603457
70.456741 -39.658493 144.72957 9867141
69.858582 -39.401283 145.12679 10459278
170.9165 -38.678059 15.248738 11314072
170.80467 -39.089077 15.929929 10459535
70.705597 -38.549698 145.0529 12366245
69.766876 -38.496296 145.53557 9932164
69.098396 -38.304562 145.9411 8682867
171.2108 -37.745071 14.443402 8681835
171.22949 -37.806 15.19193 9472383
70.586853 -37.717365 145.44554 11511193
70.09256 -37.524128 145.7661 7563619
69.217766 -37.527088 146.19485 8287853
68.547241 -37.33572 146.60123 8682867
171.69754 -36.282852 13.650174 7562586
171.58563 -36.715431 14.473142 8747632
171.47328 -37.149117 15.295453 9735812
70.038254 -36.746075 146.10503 7563619
69.367096 -36.553726 146.51215 11050900
68.536972 -36.479691 146.94994 12629673
68.022339 -36.17112 147.32686 8682867
171.94136 -35.59203 13.529546 8089186
171.95157 -35.678944 14.293782 9077111
69.486694 -35.773987 146.76628 12235172
68.813499 -35.582016 147.17424 10458765
67.934357 -35.58696 147.60446 7827816
172.25966 -34.612755 12.858212 9537667
172.22336 -34.838055 13.689374 8221549
172.18671 -35.064152 14.520665 9011579
68.85569 -34.840332 147.45111 8287600
68.022011 -34.610649 147.95316 5459274
67.242516 -34.322914 148.45181 7103324
172.60768 -33.646072 12.812863 9537667
172.54645 -33.940109 13.643704 9208701
68.22728 -33.631882 148.245 7169634
67.343834 -33.637787 148.67693 6971738
66.665436 -33.447281 149.08685 9208955
172.9735 -32.52573 12.071095 10853012
172.93787 -32.749798 12.905377 8945531
68.138504 -33.04504 148.52417 8287600
67.581726 -32.712727 148.93117 7300702
66.743111 -32.614037 149.3831 8353646
66.128044 -32.276085 149.821 9208955
173.27977 -31.697163 12.17484 9933195
173.20839 -31.986029 12.784513 8287859
67.605019 -31.87183 149.2572 7564643
66.936249 -31.596165 149.69662 7762022
66.148499 -31.434227 150.14882 7827562
65.558914 -31.299288 150.49281 8485238
173.64124 -30.645794 11.275083 11512225
173.58722 -30.864361 11.991033 8354166
67.067917 -30.696224 149.99297 8419952
66.388504 -30.506645 150.41512 7827817
65.396179 -30.476294 150.91527 9932169
174.87543 -29.289719 9.6656542 9142905
174.74374 -29.38497 10.501706 8747891
174.1604 -29.892628 11.223714 10327695
65.76918 -29.698458 151.31248 9208703
64.952347 -29.582104 151.80977 7893359
64.211647 -29.31044 152.395 9735046
175.81567 -28.992771 8.8703203 9208186
175.80704 -28.996685 9.7179995 7563619
64.558853 -28.936893 153.22345 14077894
63.831657 -28.942774 153.56114 8946044
62.921341 -28.950579 153.98219 8880505
62.176468 -28.780998 155.90721 9209467
61.235683 -28.781446 156.27776 10064009
58.894073 -28.775614 159.87648 9801348
58.122662 -28.776041 160.15758 8617592
56.652313 -28.769705 163.44795 10262155
55.863491 -28.770184 163.71773 9867397
55.073605 -28.770676 163.98433 9209467
54.679203 -28.374001 165.11784 10524816
54.539341 -27.639135 165.41368 10064521
53.845245 -27.193802 165.60696 10064521
54.552773 -26.805332 165.74544 9604226
53.937813 -26.467466 165.8941 9209211
53.924431 -25.585979 166.24564 9143418
53.209206 -25.290094 166.37981 8682867
54.163174 -24.696957 166.59453 8682867
53.406487 -24.417698 166.72301 9670274
53.325592 -23.659105 167.02715 10262667
52.568451 -23.381088 167.15517 10130825
53.497128 -22.991751 167.28914 9406846
52.733021 -22.492607 167.50548 9209982
52.708004 -21.532314 167.88873 8486775
51.948315 -21.255779 168.01616 9209467
52.878925 -20.860929 168.15237 8092019
52.117916 -20.584579 168.2798 9078396
52.062267 -19.707245 168.63074 9472639
51.763081 -19.133245 168.8662 9209467
52.255264 -18.721012 169.01933 9209467
51.839424 -18.497326 169.11795 8617847
51.915905 -17.86021 169.37006 8092019
131.51602 -73.440491 67.258087 9538176
131.10242 -73.617691 67.844086 11380380
130.66257 -73.600517 68.615334 9998215
130.13402 -73.582794 69.539955 7038307
129.60461 -73.568314 70.463654 8945527
128.99014 -73.606339 71.339813 10787476
128.40883 -73.666351 72.097733 8617081
127.8637 -73.754234 72.805801 9603717
127.30046 -73.792389 73.637909 9866628
126.69779 -73.75251 74.514145 8813682
126.09172 -73.714149 75.387062 7168860
125.44266 -73.654129 76.232529 8353134
124.73728 -73.656334 76.875336 11576731
124.14325 -73.659134 77.501259 9340284
123.51018 -73.616882 78.349854 9406590
122.87498 -73.576836 79.195755 10196106
122.22868 -73.646103 79.973076 10525071
121.59045 -73.655731 80.79023 9998727
121.03782 -73.694717 81.433868 8485745
120.42608 -73.612389 82.205437 7564651
119.75809 -73.568253 83.022278 8288373
119.08994 -73.527435 83.837547 9472643
118.42149 -73.489883 84.651291 7630442
117.71418 -73.431618 85.435295 8946298
116.99574 -73.529861 85.992393 8089963
133.38387 -72.366745 64.80825 10130825
132.94717 -72.497368 65.467613 9406846
132.3736 -72.651772 66.3461 9866885
131.85202 -72.674911 67.229156 8946039
131.3609 -72.604782 68.126984 9867141
130.90257 -72.691628 68.85524 9340798
130.44075 -72.620941 69.702812 7104094
129.9005 -72.717049 70.56572 7169884
129.33167 -72.88459 71.426567 9866373
128.90239 -72.974144 72.102615 7564651
126.18042 -73.138756 75.645683 7037274
125.62198 -73.079781 76.340981 8353134
125.06367 -73.022987 77.034851 10063750
124.50559 -72.96862 77.727211 8616563
123.83592 -72.90638 78.556145 9867141
123.16643 -72.847427 79.383102 10130313
122.406 -72.940742 80.232819 11117208
121.78517 -72.784981 81.056183 9538177
121.26961 -72.698196 81.716171 7367271
120.71162 -72.659386 82.399597 7498858
120.04189 -72.615746 83.218292 8288373
119.37199 -72.575317 84.0354 8683129
118.64581 -72.728333 84.811096 9275262
117.94058 -72.672806 85.599152 10130315
117.2225 -72.772797 86.158569 7037790
116.60575 -72.6408 86.735046 6510930
115.95132 -72.407875 87.390251 7760997
135.16794 -71.311401 62.489552 9538432
134.73056 -71.436081 63.154476 9998984
134.15625 -71.582405 64.040009 9933191
133.7226 -71.603088 64.773285 10591632
133.21983 -71.768677 65.521492 9537920
132.69122 -71.739647 66.454407 10656145
132.16196 -71.713737 67.386101 9669762
131.63202 -71.691032 68.316727 9669762
131.1149 -71.769043 69.152733 8222317
130.6859 -71.85215 69.832985 7761509
118.78591 -72.059776 85.018799 9275007
118.16676 -71.91481 85.762825 10590610
117.56219 -71.638596 86.407524 7893614
116.91518 -71.602081 86.964439 7563618
115.98009 -71.712418 87.692741 8418928
115.25941 -71.622467 88.336121 9866630
114.63728 -71.268532 89.021194 13353402
136.95738 -70.277794 60.146076 9208443
136.52933 -70.33815 60.841152 8354163
136.03769 -70.592239 61.506557 9868169
135.53406 -70.748573 62.26297 8881018
135.00574 -70.708244 63.203434 9538433
134.47693 -70.671104 64.142441 9801605
133.89561 -70.71788 65.111649 10590864
133.44379 -70.803139 65.829887 9208443
133.00865 -70.828545 66.562294 10261387
132.42291 -71.043663 67.41806 11117208
131.99397 -71.122078 68.101547 10459278
117.01379 -70.782303 87.266968 9603458
116.32034 -70.694374 87.886719 8748406
115.52148 -70.596054 88.599319 13222073
114.66911 -70.688972 89.266724 13945283
113.96656 -70.510803 89.936371 10590865
137.26871 -69.658325 59.967312 9735812
136.79675 -69.669312 60.86105 8223090
136.19774 -69.766502 61.824581 8684154
135.76268 -69.781082 62.56459 11052184
135.32124 -69.748116 63.349987 10196361
134.79747 -69.76078 64.244476 9604737
134.21085 -69.968079 65.107361 9736067
133.78159 -70.040489 65.795815 9208443
116.40935 -69.924881 88.173622 8092019
115.73296 -69.687325 88.849472 9736329
114.9428 -69.749931 89.479248 11511711
114.14457 -69.659111 90.187744 9932935
113.34743 -69.571602 90.893715 9472639
112.68393 -69.501083 91.480247 13156786
138.20862 -68.432785 58.590397 9735812
137.90793 -68.584167 59.312832 11446430
137.56905 -68.783455 60.067944 9933446
137.11563 -68.709145 61.001736 9275518
136.59116 -68.714333 61.902874 8947325
136.01331 -68.855888 62.797894 12236199
135.57338 -68.980537 63.467159 14604230
115.12207 -68.897957 89.729599 10130570
114.41569 -68.722008 90.401497 9735812
113.61636 -68.63549 91.10891 9603971
112.89762 -68.752808 91.65332 9801608
112.27986 -68.641937 92.220642 10919830
111.58245 -68.333618 92.947105 9407362
138.82455 -67.511375 57.802944 10590347
138.52275 -67.722641 58.460896 9801347
138.1651 -67.75444 59.487991 12433580
137.85747 -67.779053 60.340611 10196874
137.37056 -67.941658 61.114147 10460046
114.44463 -68.145592 90.647827 8089963
113.81608 -67.803261 91.33297 9603458
113.2178 -67.6315 91.912659 9670023
112.55138 -67.564941 92.499786 9604230
111.70005 -67.674339 93.158501 10262668
110.96616 -67.567841 93.820656 9802374
110.42325 -67.36631 94.368095 10263180
139.62476 -66.331688 56.76033 7564130
139.20099 -66.68924 57.615135 9472125
138.84283 -66.764366 58.594746 9670017
138.48184 -66.919914 59.491638 11776419
113.29729 -66.871223 92.203133 8090995
112.75199 -66.66436 92.755203 8288373
111.96259 -66.742439 93.377052 9209727
111.16298 -66.669212 94.078377 9538946
110.36426 -66.599152 94.777527 7629924
109.77779 -66.422798 95.349495 8814713
140.05606 -65.679794 56.216496 7958632
139.79456 -65.721878 56.946171 9603713
139.49794 -65.64727 57.912415 9538173
139.17377 -65.843132 58.654285 8881271
112.13177 -65.898239 93.632225 8616306
111.44536 -65.659241 94.316978 8485232
110.62221 -65.669685 94.998695 6510930
109.75052 -65.740021 95.692741 7564391
109.03912 -65.622787 96.341164 7762028
108.4077 -65.304543 97.017288 8814713
140.79694 -64.512444 55.336246 8222316
140.43491 -64.782913 56.106152 8945527
140.07872 -64.805626 57.139248 9932678
139.77652 -65.013542 57.801975 10327691
111.31155 -65.157806 94.66404 6510930
110.81228 -64.843994 95.227829 6510930
110.07777 -64.675636 95.919502 6840668
109.2971 -64.662086 96.577011 7301479
108.68068 -64.514732 97.160378 7104100
108.01443 -64.583824 97.683655 8156529
107.40358 -64.475899 98.232841 8813945
141.47716 -63.414806 54.557255 9210491
141.1761 -63.617203 55.222988 9078905
140.82031 -63.636662 56.258617 9340541
140.45731 -63.908455 57.029949 8945527
110.1482 -63.923271 96.213959 7498853
109.66348 -63.696831 96.724594 7433064
108.99435 -63.647373 97.305923 8354163
108.12116 -63.727077 97.996826 7433064
107.34777 -63.654976 98.597023 9274238
106.77269 -63.239944 99.079552 7038307
142.02855 -62.70232 53.725166 11314585
141.72409 -62.732723 54.59576 11183511
141.41571 -62.629532 55.62936 11972770
141.13664 -62.869488 56.187229 9210491
109.10348 -62.994846 97.521217 8551542
108.39559 -62.710041 98.245407 7038307
107.60113 -62.591793 98.889061 8748408
106.68546 -62.618649 99.38102 8222322
142.77008 -61.54652 52.829861 12432551
142.41206 -61.683876 53.738472 9866885
142.05556 -61.745106 54.729 12498601
141.69087 -62.090439 55.422195 16247774
107.75318 -61.754917 99.148323 8814713
106.86745 -61.73093 99.646324 9077884
106.06374 -61.496323 100.17625 9011838
143.71088 -60.553841 51.480621 8682867
143.44757 -60.561836 52.27784 9669504
143.15848 -60.568554 53.121674 9537664
142.72156 -60.834141 53.854179 9471871
142.43304 -60.930344 54.529427 9932678
107.06052 -60.850323 99.92263 9275262
106.2914 -60.543419 100.5526 8288372
105.39951 -60.521637 101.03824 9011838
146.10703 -59.306526 48.407551 8682867
145.93057 -59.305473 48.933952 11380376
145.41379 -59.398872 49.812923 10130570
144.89232 -59.570229 50.615192 9077368
144.27084 -59.881535 51.420216 8880246
143.92358 -59.970329 52.241074 10063747
106.3453 -59.865364 101.09008 9011838
105.72299 -59.907471 101.38944 9472387
105.10664 -59.682945 101.91653 11445918
104.40517 -59.458858 102.54855 8486256
103.59433 -59.280632 103.33127 6906712
155.5289 -58.556606 36.451107 7432031
155.38586 -58.653572 37.338848 12760747
154.71516 -58.91423 37.965324 14076605
154.03235 -58.947948 38.583225 9537920
153.74831 -58.945492 39.692886 7564392
152.30124 -58.945587 40.49144 8682867
152.10335 -58.943985 41.222961 8682867
151.85153 -58.941994 42.136215 8486261
151.07866 -58.941677 42.703568 8486261
150.25073 -58.940994 43.446346 7038562
149.93172 -58.93866 44.528584 7565162
149.71492 -58.937115 45.248772 8288621
148.38141 -58.938137 45.623745 8748919
148.04669 -58.935871 46.692368 8748921
147.40419 -59.040943 47.348251 8748664
146.81592 -59.108532 48.251606 8682867
146.52135 -59.106468 49.132801 9341057
104.58052 -59.13562 103.31741 6511954
104.01653 -59.098835 103.75375 8552050
103.20684 -58.99633 104.56956 8881014
102.56775 -58.935574 105.20509 8420208
102.16433 -58.87714 105.90829 10129287
101.53139 -58.84959 106.78505 8551025
100.75634 -58.848858 107.51385 7893352
99.975975 -58.848152 108.23709 8156782
99.190437 -58.847462 108.9546 10591380
99.109787 -58.843678 110.46085 9538435
98.575699 -58.843243 110.93542 7828589
97.770699 -58.842617 111.64276 7631210
96.960648 -58.842007 112.34429 7038819
96.281891 -58.841518 112.92462 7630699
95.736221 -58.841137 113.38574 8881019
95.601921 -58.837406 114.90289 8288627
94.907501 -58.83696 115.47466 9143681
94.109795 -58.634933 116.39639 8748407
93.363182 -58.591412 116.91797 11643297
92.670486 -58.627514 117.28599 12433069
155.84193 -57.742451 36.316208 8616816
155.73827 -57.737942 37.18428 12300196
