# .PCD v0.7 - Point Cloud Data file format
VERSION 0.7
FIELDS x y z rgb
SIZE 4 4 4 4
TYPE F F F U
COUNT 1 1 1 1
WIDTH 1171
HEIGHT 1
VIEWPOINT 0 0 0 1 0 0 0
POINTS 1171
DATA ascii
-61.196957 -62.900612 -121.66806 7039331
-62.280861 -62.254868 -121.6278 6511186
-61.454857 -61.980804 -121.95373 6905688
-60.36813 -62.090553 -122.20128 9209212
-61.503265 -61.13562 -122.2665 7563874
-60.578625 -61.175434 -122.49778 9011832
-59.588638 -60.979362 -122.83739 7433056
-60.699158 -60.402653 -122.85977 9735299
-59.902298 -60.211178 -123.22499 9867141
-58.97559 -59.979362 -123.65717 7301214
-58.076958 -59.718178 -124.1056 7038298
-59.205669 -59.555965 -124.17358 7235421
-58.433952 -59.527401 -124.47189 7695971
-57.51796 -59.419586 -125.07064 9537918
-56.806953 -59.295372 -125.66992 9143678
-55.88657 -59.277016 -126.04298 10919319
-55.342751 -59.278088 -127.06175 9735044
-54.447731 -59.278 -127.71161 8551281
-53.529797 -59.277485 -128.10544 7762277
-53.059444 -59.278427 -128.99524 10327434
-52.310158 -59.071453 -129.81207 10722192
-51.427647 -58.986126 -130.19493 7696228
-50.570045 -58.847191 -130.58185 6314575
-49.815269 -58.588821 -130.95671 7367005
-51.562054 -58.124569 -130.52846 8419694
-50.67878 -58.074734 -130.85667 6840918
-49.727253 -58.061417 -131.19444 7761764
-49.116112 -57.878757 -131.47972 8617075
-51.385799 -57.559559 -130.81178 8813936
-50.752453 -57.242329 -131.15752 7827301
-49.84449 -57.185993 -131.49696 8682611
-48.936234 -57.13203 -131.83556 10195081
-48.300293 -56.819698 -132.18034 8617075
-50.575191 -56.494209 -131.513 8617078
-49.971664 -56.235916 -131.8253 9011321
-49.097103 -56.091156 -132.18773 10325894
-48.117733 -56.074131 -132.53667 8879221
-47.479172 -55.763729 -132.88165 9734788
-49.283798 -55.227222 -132.46146 9142135
-48.367455 -55.069344 -132.84364 7958377
-47.364815 -54.985619 -133.2269 8419188
-46.652431 -54.710854 -133.58372 7038307
-48.54129 -54.137077 -133.1487 8155499
-47.701553 -54.015247 -133.48997 8156529
-46.739624 -54.011623 -133.82759 7038307
-46.019867 -53.777332 -134.17101 7760994
-47.712914 -53.082298 -133.85205 8221807
-46.870392 -52.962692 -134.19344 7366499
-45.905582 -52.961533 -134.53105 7892839
-45.182987 -52.729187 -134.8748 8090220
-46.910435 -52.123344 -134.50845 7760998
-46.012363 -52.087494 -134.83669 7893356
-45.045067 -52.088692 -135.17427 7893356
-44.420582 -51.915859 -135.46025 8681835
-46.21637 -51.495598 -135.00584 7564392
-45.269268 -51.199657 -135.5132 8090479
-44.47908 -50.962208 -135.87276 9076856
-44.471226 -50.36705 -136.33069 9076853
-43.718315 -50.046486 -136.6089 9208184
-43.035877 -49.816643 -136.73207 9010803
-42.867634 -49.4044 -137.33507 9274237
-42.206001 -49.20182 -137.52951 10459022
-41.517597 -49.155197 -138.81816 8025454
-40.787586 -49.077652 -138.80176 9537403
-39.8288 -49.130478 -140.47899 8090987
-39.092098 -49.051003 -140.44539 9932418
-38.340412 -48.974571 -141.66148 9405819
-37.599865 -48.894562 -141.61687 7432804
-36.830154 -48.816212 -142.83131 7367007
-36.271889 -48.755863 -142.78987 7367007
-35.298267 -48.655499 -143.98784 8222574
-34.550304 -48.574612 -143.92136 8090736
-33.744534 -48.492336 -145.13145 8748665
-32.993271 -48.411026 -145.05357 9143166
-32.358173 -48.347256 -146.28317 10984855
-31.331501 -48.241112 -147.47598 7039331
-30.761906 -48.179394 -147.40288 8092019
-29.907005 -48.091866 -148.61668 8947327
-29.144279 -48.009285 -148.50813 8092019
-28.461548 -47.938629 -149.74301 6972252
-27.696564 -47.857475 -149.62968 8288621
-26.803905 -47.762764 -150.83009 9537406
-25.508404 -47.621208 -151.95601 7695979
-24.579288 -47.511913 -153.12747 10853012
-24.001865 -47.458714 -153.04723 9472387
-23.055641 -47.347794 -154.21811 8288372
-22.475876 -47.294495 -154.13043 8420470
-21.512436 -47.181976 -155.30067 9934216
-20.144447 -47.032265 -156.40938 9406074
-19.346344 -46.93465 -157.62296 13023917
-18.562355 -46.862988 -157.47876 9735039
-17.747375 -46.763756 -158.69415 8484975
-16.960403 -46.691975 -158.53979 11906716
-16.523766 -46.627029 -159.83885 10261123
-15.930543 -46.573048 -159.71657 9208435
-15.283212 -46.488773 -160.98492 9208435
-14.687348 -46.434628 -160.85571 7564651
-13.82599 -46.330666 -162.08731 9735046
-13.227777 -46.276558 -161.95068 10261133
-104.37023 -74.572174 -86.347076 8353647
-101.19235 -74.603104 -88.983131 8682867
-100.74178 -74.58535 -89.450348 8288111
-100.29009 -74.568123 -89.916298 8090989
-124.33986 -73.710571 -69.659706 9208186
-123.86977 -73.916977 -70.363556 9076600
-123.39233 -74.020813 -71.177551 8813429
-122.62408 -74.271248 -71.971802 9602942
-121.54044 -74.270111 -72.131798 9340030
-121.02193 -74.270943 -73.011597 8090479
-120.17165 -74.271126 -73.770111 9602945
-119.24289 -74.270859 -74.315956 10260873
-118.7087 -74.271652 -75.179138 9143678
-117.81598 -74.270889 -75.416252 8683642
-117.09692 -74.271217 -76.15567 9012093
-116.32941 -74.271553 -76.959763 8946043
-115.52139 -74.271355 -77.43235 9143675
-114.74518 -74.271698 -78.22229 10064520
-114.18286 -74.272362 -79.052879 9209468
-113.29532 -74.271584 -79.253265 9735812
-112.46108 -74.271927 -80.090988 9275005
-111.61298 -74.306053 -80.833305 8550514
-111.03442 -74.318413 -81.397469 9011321
-110.1055 -74.380257 -81.968948 8485238
-109.44315 -74.407631 -82.608826 7498601
-108.79137 -74.36895 -83.357262 7761514
-107.93236 -74.410141 -83.944916 9800577
-107.06647 -74.448524 -84.522469 9537919
-106.40488 -74.41156 -85.254837 7762796
-105.74033 -74.376076 -85.983643 8287855
-105.02982 -74.384186 -86.567955 7892837
-104.01033 -74.466675 -87.10672 7695712
-103.33984 -74.435493 -87.822418 8748144
-102.6665 -74.405708 -88.534676 7827046
-101.99717 -74.394905 -89.163139 7827302
-101.12074 -74.429031 -89.782059 8682867
-100.24424 -74.464363 -90.395432 8485747
-99.569656 -74.457581 -91.011467 10590092
-98.845428 -74.421684 -91.793915 8813429
-98.064217 -74.397415 -92.491714 8747634
-97.276093 -74.376411 -93.084747 7892581
-96.298454 -74.370872 -93.717216 8747632
-95.3853 -74.402046 -94.181023 10391686
-94.652985 -74.359291 -94.816864 9536635
-93.938141 -74.333458 -95.468628 8221804
-93.225708 -74.312973 -96.121956 8287596
-92.509682 -74.293221 -96.770844 8813681
-91.793083 -74.276627 -97.418518 9340795
-91.090416 -74.274948 -98.08036 9406588
-90.385376 -74.275162 -98.739662 10392710
-89.645103 -74.27549 -99.497086 7827556
-88.580254 -74.274727 -99.860085 7630691
-87.742508 -74.274887 -100.60772 11643805
-87.019257 -74.27507 -101.24278 7695716
-86.291458 -74.2752 -101.87259 7037274
-85.559189 -74.275322 -102.49712 7037274
-84.822411 -74.275391 -103.11635 6511954
-84.081184 -74.275475 -103.73022 8287850
-83.33551 -74.275581 -104.33881 7564129
-82.58551 -74.275604 -104.94193 8418671
-81.704849 -74.275688 -105.63853 7366753
-81.164017 -74.276665 -106.62505 5525064
-80.29052 -74.276558 -107.22394 8024424
-79.51973 -74.276558 -107.80502 9800320
-78.744797 -74.276535 -108.38049 9734527
-78.195091 -74.277306 -109.26643 8945782
-77.409637 -74.27726 -109.83234 9142645
-76.620079 -74.277222 -110.39255 9142647
-75.82653 -74.277092 -110.94698 9142651
-75.0392 -74.244347 -111.65437 9011065
-74.348366 -74.060387 -112.33411 9208444
-73.396881 -73.951973 -112.91022 8813686
-72.502701 -73.988007 -113.33244 7695716
-71.836777 -73.882736 -113.69022 8616819
-125.01385 -72.809135 -68.984894 10590609
-124.65804 -73.016785 -69.574097 11379609
-124.16228 -73.080101 -70.591415 8879222
-74.335541 -73.353943 -112.78057 9734788
-73.623428 -73.174332 -113.17335 8484464
-72.617638 -73.135704 -113.6412 7761509
-71.686867 -73.146698 -114.05526 8222573
-70.932266 -72.821701 -114.5259 7827302
-125.66943 -71.668945 -68.557152 8089963
-125.28708 -72.013504 -69.085114 9800837
-124.82668 -72.127548 -69.982407 11182231
-124.39246 -72.488304 -70.608063 8681843
-73.598427 -72.566986 -113.43009 8418414
-72.832664 -72.281296 -113.88995 7892839
-71.967613 -72.045555 -114.37423 7038043
-71.01767 -72.015022 -114.81364 6248015
-70.19664 -71.857468 -115.24648 7760997
-125.9799 -71.064888 -68.410919 8813942
-125.57991 -70.989304 -69.343399 9274493
-125.18732 -71.213631 -69.998047 8879994
-71.988174 -71.270653 -114.67829 6182222
-71.229057 -70.948097 -115.15001 6971738
-70.308685 -71.067657 -115.51549 8616306
-69.435303 -71.148178 -115.87559 7958376
-68.721748 -70.791977 -116.34041 8616307
-126.7326 -70.02298 -67.689178 8418928
-126.29803 -70.168686 -68.503441 8813942
-125.96454 -70.188721 -69.208405 9142908
-71.073784 -70.218178 -115.51489 8089962
-70.482254 -70.180428 -115.79613 8682099
-69.595573 -70.126106 -116.21677 9471616
-68.709625 -70.074898 -116.63578 8946299
-67.92337 -69.817451 -117.09338 11381404
-127.44707 -68.865402 -67.151169 9471871
-127.02892 -69.032089 -67.911545 8419185
-126.61032 -69.200882 -68.67115 8354161
-70.324669 -69.45311 -116.16101 7037274
-69.738907 -69.162392 -116.54196 9011064
-68.91214 -69.013191 -116.97398 7959663
-68.024193 -68.965698 -117.39244 7827821
-67.353851 -68.927147 -117.69705 10460049
-128.06551 -68.008583 -66.558792 8682867
-127.7002 -68.085197 -67.283302 9406335
-127.27309 -68.142334 -68.158646 8025198
-68.871483 -68.177856 -117.32998 7498857
-68.190437 -68.082809 -117.67465 7498857
-67.219742 -68.149704 -118.03341 11907750
-66.401176 -67.888039 -118.35811 11710626
-128.87157 -66.879593 -65.797531 10064009
-128.44585 -67.13903 -66.493378 9208955
-128.00481 -67.202888 -67.393005 9208699
-127.58418 -67.542213 -68.00824 7762283
-68.114014 -67.426102 -117.97445 7959663
-67.404633 -67.185509 -118.35299 10196875
-66.49752 -67.041496 -118.65861 11907749
-65.745094 -66.887306 -118.91873 12433579
-157.22034 -66.020798 -42.235317 11707807
-156.8615 -65.956268 -42.952148 10129803
-156.50038 -65.891815 -43.666885 7039331
-155.14879 -65.856461 -43.902447 9011579
-154.69484 -65.776917 -44.784256 7038307
-154.32895 -65.713402 -45.487263 7038307
-152.90001 -65.66188 -45.876083 9472388
-152.49809 -65.584663 -46.559769 11906725
-129.66939 -65.633026 -65.156357 11906725
-129.22993 -65.93116 -65.84832 9735555
-128.74495 -66.070099 -66.777649 8945528
-128.39058 -66.409142 -67.249687 8418928
-67.271202 -66.413765 -118.69413 10262667
-66.648872 -66.032776 -119.00697 11315100
-65.70491 -66.064148 -119.24667 13156786
-64.971077 -65.927406 -119.49509 10458763
-152.28987 -65.543388 -46.898582 11906725
-151.60107 -65.481499 -47.357189 8485751
-150.5386 -65.420082 -47.76244 7039331
-150.01526 -65.318558 -48.595192 9998987
-149.38277 -65.197205 -49.589077 7630443
-148.07292 -65.158844 -49.756966 8288627
-147.65086 -65.079002 -50.410069 8881019
-147.12009 -64.979622 -51.222569 10657170
-146.58611 -64.880653 -52.031116 7037274
-145.30019 -64.845421 -52.174358 7037274
-144.65849 -64.728256 -53.130062 8484464
-144.01195 -64.611717 -54.079731 8090736
-142.85632 -64.598351 -54.046303 8090736
-130.40947 -64.673294 -64.61039 9341053
-129.85117 -65.07798 -65.246796 10590865
-129.4064 -65.091026 -66.198814 9472128
-129.04909 -65.28624 -66.802582 9537409
-66.509384 -65.260788 -119.34167 12433069
-65.83667 -65.145012 -119.56569 13617337
-64.909058 -65.093185 -119.83308 10458763
-64.206818 -64.786057 -120.13873 7563619
-142.64125 -64.559906 -54.358955 8090736
-142.20937 -64.483315 -54.982189 8221806
-141.66687 -64.387886 -55.757782 10195082
-141.12108 -64.292976 -56.528931 9142394
-139.77264 -64.244659 -56.780003 7038307
-139.22627 -64.151009 -57.539444 8946043
-138.67653 -64.057785 -58.294514 7958632
-138.01295 -63.946499 -59.195335 7301214
-132.13779 -63.659706 -63.228828 10722452
-131.49757 -63.846546 -63.928761 10196874
-130.98335 -63.963959 -64.678963 9736067
-130.32179 -64.279335 -65.431168 9998728
-129.70647 -64.555634 -66.154037 8418928
-65.807076 -64.358025 -119.87688 14077885
-65.102203 -64.049957 -120.1836 10458763
-64.142059 -63.95475 -120.47634 8748148
-63.503189 -63.892853 -120.67056 7563619
-134.57372 -63.190468 -61.747223 9472644
-133.86076 -63.101929 -62.153866 10064781
-133.19214 -63.239235 -62.717499 10985369
-132.58099 -63.333344 -63.437878 9998731
-132.05737 -63.373138 -64.168961 9736067
-65.03804 -63.218021 -120.52128 8089963
-64.359711 -63.017384 -120.77953 8879734
-63.408897 -63.128479 -120.99027 8485489
-64.252884 -62.271568 -121.09538 8419695
-63.49543 -62.130527 -121.35181 7367519
-62.661682 -61.937759 -121.64844 7301470
-63.553955 -61.198132 -121.69548 8617842
-62.718281 -61.006763 -121.99234 9867653
-61.96331 -60.873436 -122.25138 10064264
-62.833572 -60.27795 -122.39112 10920597
-61.934406 -60.082748 -122.78706 10064264
-61.151283 -59.962509 -123.10686 10064264
-60.326908 -59.666943 -123.65011 7959144
-59.668171 -59.573555 -123.99329 7959144
-60.526985 -59.430656 -124.24004 10065036
-59.598221 -59.394875 -124.60371 9209985
-58.858383 -59.328415 -125.2068 6907228
-58.391159 -59.280071 -125.92886 6511954
-57.334938 -59.279568 -126.42076 6511698
-56.27462 -59.278996 -126.90417 9472128
-56.055233 -59.280693 -128.04942 10064265
-55.124969 -59.107422 -128.7119 9603457
-54.32655 -58.99704 -129.12144 9537665
-53.456398 -58.895664 -129.52827 10064262
-52.70248 -58.756351 -129.88199 8682867
-54.302299 -58.325336 -129.49199 8354158
-53.623047 -57.956692 -129.87402 9011832
-52.606979 -57.934059 -130.23801 9209210
-51.972145 -57.921326 -130.46492 8682867
-53.660419 -57.254051 -130.13666 7762277
-52.954666 -57.087902 -130.4485 7170140
-51.868923 -57.139038 -130.80789 7367266
-51.164173 -56.853882 -131.16603 7038307
-52.927883 -56.418068 -130.72066 6906712
-52.21685 -56.170177 -131.06644 9407102
-51.260262 -56.153801 -131.40715 8090735
-50.547916 -55.909447 -131.75198 7564393
-52.117939 -55.349449 -131.42305 9801347
-51.404373 -55.103863 -131.76877 8617078
-50.445271 -55.09024 -132.10931 8748150
-49.730331 -54.848122 -132.45418 9602685
-51.302776 -54.284122 -132.12589 8617078
-50.586685 -54.040756 -132.47166 7761514
-49.624985 -54.029789 -132.81206 8089706
-48.907341 -53.789753 -133.15706 7958120
-50.520302 -53.339123 -132.77013 7893100
-49.865295 -53.020103 -133.12274 8879479
-48.868114 -52.937653 -133.50461 8418928
-48.078983 -52.734207 -133.86066 7892584
-49.853249 -52.278103 -133.40964 8813686
-49.21188 -51.969215 -133.76543 9208444
-48.171936 -52.117092 -134.06604 8879991
-47.483719 -51.914055 -134.38661 8616563
-48.348824 -51.348003 -134.40642 7958633
-47.441479 -51.134071 -134.86639 8813942
-46.590889 -50.884293 -135.32359 7432806
-45.82917 -50.707233 -135.7016 8222321
-46.71014 -50.311539 -135.79256 6840926
-45.945824 -50.164742 -136.21532 9340287
-45.120911 -49.945549 -136.73512 9340027
-44.438557 -49.708015 -137.14558 9076851
-44.390175 -49.43829 -137.55101 9603194
-43.660007 -49.358437 -137.545 9734788
-42.976715 -49.305672 -138.82745 9933193
-42.247372 -49.231396 -138.82756 7039331
-41.306591 -49.289986 -140.53522 8090987
-40.567173 -49.21022 -140.50859 8551281
-39.826077 -49.13493 -141.73997 9537918
-39.082615 -49.054699 -141.70216 9932162
-38.136322 -48.957306 -142.92021 7958890
-37.389389 -48.876598 -142.87065 7958890
-36.798584 -48.817581 -144.11119 8881270
-36.047523 -48.736481 -144.05153 9210491
-35.251827 -48.655304 -145.27754 8814712
-34.497177 -48.573742 -145.20647 9143166
-33.682976 -48.490372 -146.42999 7367271
-32.847652 -48.394936 -147.62775 7038307
-32.091484 -48.321815 -147.56502 7039331
-31.425922 -48.239586 -148.76817 7367268
-30.667816 -48.168999 -148.70436 8749432
-29.794136 -48.064774 -149.88339 6775383
-29.223095 -48.0117 -149.82799 5920074
-28.332619 -47.905952 -151.00679 8617334
-27.498119 -47.81691 -151.55725 8617334
-26.659264 -47.727619 -152.09964 9011579
-25.93021 -47.636612 -153.30756 9011579
-25.35054 -47.583088 -153.23163 9011579
-24.964619 -47.547501 -153.17998 10853012
-24.412254 -47.472725 -154.4157 8683642
-23.63623 -47.401196 -154.30415 9932681
-23.069481 -47.325012 -155.54623 7696749
-22.19516 -47.232464 -156.0818 8420470
-21.316788 -47.139652 -156.60893 7169890
-20.722916 -47.060604 -157.86774 6511954
-20.132248 -47.006516 -157.76396 6511954
-19.128944 -46.889851 -158.95741 7563619
-18.536072 -46.83564 -158.84586 7563619
-17.514931 -46.717285 -160.03874 9801346
-16.478546 -46.597359 -161.23807 8485488
-15.880357 -46.542965 -161.11226 7038298
-14.625718 -46.403145 -162.26649 7959152
-13.756074 -46.298115 -163.51595 8814203
-13.152558 -46.243496 -163.3759 11379356
-123.36508 -73.668015 -71.805038 10457990
-122.96683 -73.912971 -72.45401 8879214
-122.3109 -74.018738 -73.245514 9405560
-121.69553 -74.183792 -73.890694 7958894
-121.05289 -74.273705 -74.623413 7564393
-119.87663 -74.272667 -74.904747 9406336
-119.24801 -74.273575 -75.916824 8223092
-118.43576 -74.273392 -76.408905 7696749
-117.62167 -74.27317 -76.893799 8222577
-117.06895 -74.27388 -77.745178 9406080
-116.25348 -74.273659 -78.219521 8880503
-115.34225 -74.273491 -78.825958 8880503
-114.6808 -74.274284 -79.799736 8354159
-113.86131 -74.274033 -80.254364 9735555
-113.04037 -74.273727 -80.701813 9341054
-112.46024 -74.274368 -81.52002 9340545
-111.65841 -74.274635 -82.280128 8090737
-110.83364 -74.274277 -82.709549 8682616
-110.02393 -74.274521 -83.455261 8485238
-109.42396 -74.275108 -84.251572 8748151
-108.49454 -74.274818 -84.794235 9866627
-107.56303 -74.274529 -85.327728 11248278
-106.94963 -74.275032 -86.1063 9208700
-106.33066 -74.275558 -86.880394 8813942
-105.49688 -74.275383 -87.394135 8353386
-104.5573 -74.274803 -87.771416 7827298
-103.82082 -74.275352 -88.654015 8813936
-103.18353 -74.27578 -89.405495 7695716
-102.39445 -74.279602 -90.025421 7893613
-101.61102 -74.27652 -90.522461 8617333
-100.64052 -74.275375 -91.097572 9669250
-99.985703 -74.275772 -91.826027 12234402
-99.325546 -74.276146 -92.549675 9076600
-98.660233 -74.27655 -93.268539 9931907
-97.789497 -74.276505 -93.90493 8813680
-97.027168 -74.27639 -94.416512 9274232
-96.337013 -74.276527 -95.016525 8879221
-95.381729 -74.276138 -95.536667 8287342
-94.694939 -74.276459 -96.22702 7497824
-94.003174 -74.276695 -96.912392 7892581
-93.306496 -74.276993 -97.592743 9076851
-92.60495 -74.277237 -98.268082 9340795
-91.898506 -74.277458 -98.938271 9011315
-91.0681 -74.277695 -99.71357 9735038
-90.231415 -74.277939 -100.48215 9077882
-89.245911 -74.27726 -100.84195 7432543
-88.520988 -74.27742 -101.48782 8353128
-87.791412 -74.277573 -102.12851 7497823
-87.057205 -74.27771 -102.76387 7037274
-86.318459 -74.277809 -103.39391 7037274
-85.57518 -74.277931 -104.01862 6577491
-84.827431 -74.278 -104.63792 9143158
-84.07518 -74.278084 -105.25182 6709333
-83.318504 -74.27816 -105.86026 7892582
-82.55751 -74.278191 -106.46324 8616303
-82.033493 -74.279045 -107.37213 6840663
-81.132416 -74.279091 -108.06405 7498337
-80.225792 -74.27906 -108.74865 7563874
-79.444031 -74.279037 -109.32922 7300702
-78.658012 -74.279022 -109.90411 8879989
-77.996429 -74.05204 -110.72297 8879474
-77.192482 -73.958862 -111.20529 9011059
-76.287254 -74.073555 -111.6113 9405823
-75.468864 -73.962692 -112.0249 9142651
-123.97572 -72.886513 -71.163597 7761512
-123.61827 -73.099342 -71.752327 9274228
-123.19592 -73.059982 -72.701492 8879214
-122.68857 -73.335533 -73.401955 8681835
-77.313408 -73.16407 -111.51848 8945012
-76.479256 -73.177597 -111.88808 9339770
-75.591591 -73.097771 -112.31943 9339512
-74.751343 -72.97963 -112.74495 9865087
-74.065742 -72.725647 -113.15591 9010037
-124.35955 -72.081116 -71.034607 7169892
-123.916 -72.163704 -71.923454 8682351
-123.6171 -72.190208 -72.547768 9602937
-76.577171 -72.365372 -112.17239 9405046
-75.771713 -72.066452 -112.6554 9470839
-74.956741 -71.997063 -113.04991 9996672
-74.004105 -72.055336 -113.45464 9601660
-73.326569 -71.941673 -113.80521 7563619
-125.15822 -70.851257 -70.377197 7695979
-124.70307 -70.970833 -71.258835 7038307
-124.2314 -71.264053 -72.024857 7893097
-75.671989 -71.285461 -113.01606 9536632
-74.991409 -71.168411 -113.36936 9338744
-74.187988 -71.164207 -113.73225 9010037
-73.299103 -71.09565 -114.15961 7366240
-72.473984 -70.93174 -114.59689 6774615
-71.890862 -70.632919 -114.97986 6971994
-125.79433 -69.926178 -69.806114 9997703
-125.35158 -70.074173 -70.636108 8682615
-124.94919 -70.13916 -71.451057 7038307
-74.304741 -70.305313 -114.02703 8418414
-73.516556 -70.028893 -114.49313 7760482
-72.625954 -69.964325 -114.91967 7168859
-71.70105 -70.080261 -115.28866 7563616
-71.143799 -69.863556 -115.62686 8089962
-126.44459 -68.991585 -69.212631 8420211
-126.06332 -69.088608 -69.953941 9406080
-125.6257 -69.240036 -70.769958 9997703
-73.512527 -69.307732 -114.78654 8286311
-72.804573 -69.077423 -115.19795 7957860
-71.87738 -69.193817 -115.56776 8681069
-70.927544 -69.132317 -116.01968 8353135
-70.165848 -68.727486 -116.52585 8418928
-127.16689 -67.928719 -68.575104 7762283
-126.83556 -67.993057 -69.236618 7301478
-126.42537 -68.018341 -70.103149 7828076
-126.00342 -68.364677 -70.715103 9011323
-72.613678 -68.525253 -115.507 7037274
-72.02594 -68.229988 -115.89065 8220775
-71.195358 -68.0746 -116.32687 8418927
-70.236725 -68.052505 -116.76688 7760997
-69.362381 -67.833199 -117.24866 7959150
-127.97308 -66.793083 -67.819084 9340030
-127.55196 -67.133217 -68.434807 7761514
-127.16397 -67.095657 -69.307953 7301734
-126.80986 -67.220634 -69.96608 9210491
-71.276901 -67.275085 -116.61349 7563874
-70.50843 -66.961586 -117.08578 7958887
-69.551651 -67.041466 -117.48366 7827561
-68.554871 -67.058784 -117.9248 7433060
-67.82756 -66.819405 -118.34857 7564643
-158.14073 -65.976509 -42.885761 13943996
-157.68599 -65.895401 -43.786125 9340801
-156.86484 -65.853294 -44.173901 9143677
-155.95284 -65.795593 -44.734158 11511967
-155.39922 -65.699654 -45.796165 9998988
-154.05034 -65.665047 -46.012218 7038307
-153.64162 -65.585838 -46.699646 8024944
-128.63123 -65.668175 -67.374496 7563619
-128.24696 -66.004623 -67.913597 8879479
-127.78387 -66.109352 -68.825394 8353649
-127.34764 -66.460777 -69.463707 8486259
-70.34639 -66.239326 -117.45069 8617072
-69.72023 -66.160477 -117.76407 8682611
-68.78743 -66.191849 -118.17075 8156524
-67.817871 -66.033371 -118.65744 8880759
-67.084572 -65.67939 -119.0269 11315100
-153.11507 -65.482162 -47.551338 9735557
-152.17645 -65.409737 -48.070396 9143675
-151.2393 -65.338196 -48.582047 8025198
-150.70891 -65.236237 -49.417622 10591124
-150.1748 -65.134697 -50.248547 7630443
-148.8519 -65.096581 -50.412689 7630699
-148.31738 -64.996361 -51.231773 13091000
-147.67162 -64.876694 -52.209206 10853524
-146.75134 -64.809326 -52.685902 8484462
-145.94073 -64.762451 -52.995541 9931907
-145.39915 -64.664429 -53.794456 13747898
-144.96379 -64.586235 -54.430866 7959144
-128.94279 -65.07106 -67.220413 8353135
-128.53981 -64.987831 -68.166077 9011065
-128.14503 -65.204109 -68.832581 9932167
-69.584778 -65.48645 -118.09747 10261132
-68.991432 -65.202721 -118.47892 9077114
-68.155807 -65.061035 -118.91189 9472384
-67.154053 -64.974686 -119.27998 10788755
-144.63568 -64.527885 -54.906128 7959144
-143.46968 -64.515045 -54.866638 9406590
-142.92401 -64.418808 -55.649033 9866885
-142.26509 -64.303894 -56.582497 10853012
-141.7126 -64.208572 -57.355911 8287341
-140.69136 -64.172562 -57.541195 6906460
-139.79839 -64.066757 -58.362926 7893095
-139.24211 -63.973236 -59.120102 7037274
-138.68263 -63.880135 -59.872787 7300958
-137.34502 -63.835793 -60.090099 10261132
-136.71928 -63.713581 -60.802555 8353647
-130.93007 -63.596058 -65.388412 10261132
-130.48776 -63.720886 -66.034447 8616307
-129.90857 -63.975277 -66.728638 9011065
-129.31474 -64.27169 -67.382584 8879479
-128.9176 -64.341499 -68.050346 8155756
-68.228355 -64.267494 -119.20013 9275260
-67.360809 -64.047981 -119.58195 9867910
-66.330307 -64.042847 -119.85878 12762030
-135.96103 -63.497574 -61.255531 8880507
-135.39642 -63.337872 -61.593807 9538694
-133.46144 -62.888264 -63.262768 9998731
-132.84798 -62.965099 -64.035019 7828333
-132.24651 -63.019787 -64.849617 8814454
-131.61653 -63.145939 -65.500755 8616563
-130.90077 -63.304111 -66.161667 9537409
-130.45128 -63.279064 -66.924423 10261132
-67.309586 -63.213272 -119.91729 9077625
-66.512207 -63.165985 -120.14816 10129798
-65.560471 -62.901623 -120.50389 8616306
-66.650261 -62.199867 -120.48364 11313815
-65.739601 -62.026661 -120.79326 9668736
-64.907867 -61.910698 -121.05981 8353134
-65.876152 -61.064121 -121.13145 11708315
-64.863007 -61.20145 -121.34505 9537406
-64.105499 -60.920059 -121.65556 9736323
-65.096802 -60.409912 -121.68321 11839901
-64.271072 -60.158077 -122.10481 11117976
-63.391449 -60.001541 -122.4644 11052183
-62.627609 -59.723904 -122.89028 10985878
-63.618202 -59.559574 -122.9973 12301994
-62.677181 -59.474113 -123.52874 8749173
-61.888687 -59.396549 -123.99383 7893608
-61.103867 -59.326225 -124.46901 11972002
-60.192104 -59.280891 -125.06467 11774882
-59.678345 -59.282078 -126.11014 7565675
-58.798248 -59.282108 -126.79351 7564898
-57.886997 -59.281647 -127.2187 7564898
-57.294296 -59.097866 -127.93835 7827303
-56.509426 -58.944305 -128.4778 6971737
-55.66526 -58.804146 -128.82779 8419439
-57.319771 -58.41684 -128.40154 8287597
-56.691078 -58.087044 -128.75066 7432289
-55.783562 -58.014618 -129.09627 6774870
-54.876244 -57.944622 -129.44081 6841175
-54.245811 -57.619915 -129.78851 9011576
-56.525787 -57.332306 -129.10452 8616307
-55.894775 -57.004978 -129.45351 6971481
-54.985062 -56.935482 -129.79872 7235165
-54.07267 -57.052963 -130.07147 8880502
-55.726894 -56.251774 -129.80772 6510930
-55.11414 -56.05925 -130.09741 7169372
-54.130806 -56.21051 -130.38171 8485744
-53.296562 -56.07457 -130.72661 7499105
-54.995434 -55.411324 -130.39311 7366751
-54.236565 -55.202515 -130.74025 9144186
-53.323116 -55.138565 -131.08456 8683635
-52.4865 -55.005222 -131.42931 8749172
-53.588215 -54.240757 -131.34291 8223085
-52.670513 -54.072609 -131.7299 7696486
-51.752232 -53.907032 -132.1167 9143422
-52.851318 -53.136978 -132.02303 8222575
-52.01104 -53.006538 -132.37001 9406594
-51.09375 -52.950466 -132.71616 8814458
-50.451172 -52.635387 -133.06287 8813686
-52.06102 -52.16436 -132.67801 8485494
-51.19833 -51.952587 -133.09882 9932937
-50.275806 -51.896427 -133.43831 8945272
-49.640068 -51.592911 -133.81042 8813686
-51.194897 -51.313148 -133.55936 9932937
-50.478294 -51.172916 -133.89323 8945272
-49.651196 -50.973408 -134.32457 8945272
-48.721546 -50.745327 -134.78073 7892840
-47.930367 -50.629128 -135.11877 10854036
-49.051247 -50.387619 -135.17719 8089960
-48.118027 -50.227638 -135.6375 9603970
-47.360035 -49.978184 -136.20958 8550770
-46.311646 -49.785778 -136.74779 9998216
-46.620918 -49.541084 -137.11139 10985367
-45.772999 -49.512142 -137.31412 9998216
-45.098804 -49.493694 -137.48569 9208435
-44.252026 -49.431957 -138.80763 9800830
-42.78965 -49.449986 -140.57751 9933193
-42.047607 -49.369884 -140.55785 7499625
-41.130543 -49.275719 -141.79709 8814452
-40.384579 -49.19524 -141.76569 9537918
-39.634605 -49.119045 -143.00874 9471868
-38.884785 -49.038158 -142.96625 7958890
-38.113297 -48.956009 -144.19638 10129283
-37.550953 -48.898926 -144.16811 9405819
-36.755741 -48.806087 -145.37175 8815225
-36.006794 -48.735725 -145.3419 8288621
-35.1903 -48.636799 -146.53102 7564133
-34.437809 -48.566254 -146.49083 9143166
-34.36076 -48.536465 -147.72633 9735044
-33.603607 -48.465633 -147.67838 7366499
-32.756084 -48.363647 -148.8721 7038307
-32.185474 -48.310425 -148.82878 8814713
-31.321278 -48.206894 -150.02252 9538432
-30.556957 -48.135738 -149.95461 9538432
-29.866837 -48.048347 -151.16563 9538432
-29.098778 -47.97699 -151.08809 11904668
-28.199554 -47.870228 -152.27994 8617334
-27.286369 -47.761917 -153.478 13023917
-26.704575 -47.708134 -153.40608 13023917
-25.969044 -47.616276 -154.63011 7038307
-25.579147 -47.58028 -154.57777 7038307
-25.189747 -47.544384 -154.52463 10853012
-24.242027 -47.432838 -155.72218 8683642
-22.886421 -47.283699 -156.86407 9341822
-21.907631 -47.169083 -158.07001 7564643
-21.314781 -47.114742 -157.96968 7038298
-20.516685 -47.016632 -159.21097 7563619
-19.921349 -46.96217 -159.10342 7563619
-18.907715 -46.844276 -160.3109 8814454
-18.309914 -46.789749 -160.19569 8814454
-17.278275 -46.670109 -161.40277 8551282
-16.633873 -46.585464 -162.70203 9932934
-15.829118 -46.512356 -162.52997 8485488
-15.1689 -46.426098 -163.83638 8814203
-14.562615 -46.371124 -163.70009 9406339
-13.48153 -46.246559 -164.9198 8090992
-121.80583 -73.760468 -74.377312 11444375
-121.23727 -73.825165 -75.137634 8616565
-120.60457 -73.95591 -75.823318 10195336
-120.04461 -73.98465 -76.619293 8353908
-119.24279 -74.220467 -77.327217 7827821
-118.15025 -74.275116 -77.63913 8485749
-117.59212 -74.275856 -78.494385 9406080
-116.85145 -74.276154 -79.227707 8617332
-115.94503 -74.27533 -79.43589 9340797
-115.37388 -74.276031 -80.275085 8485488
-114.57628 -74.276337 -81.059105 9274747
-113.74782 -74.276016 -81.508026 8682867
-112.94184 -74.276291 -82.277473 9340545
-112.35031 -74.276924 -83.094925 8617080
-111.51812 -74.276581 -83.525711 10392719
-110.68456 -74.276222 -83.949265 8485238
-109.9797 -74.276909 -84.883331 8419442
-109.26731 -74.277534 -85.811653 10261643
-108.42561 -74.276939 -86.087196 9603457
-107.58982 -74.276756 -86.614403 9274493
-106.96709 -74.277252 -87.393112 8353391
-106.33884 -74.277786 -88.167313 9340283
-105.39046 -74.277412 -88.676048 8090214
-104.44032 -74.277054 -89.175591 7038297
-103.79921 -74.277481 -89.931488 9669251
-103.15269 -74.277954 -90.68277 7695979
-102.50072 -74.278381 -91.429314 7564905
-101.54129 -74.277946 -91.901543 8617334
-100.78595 -74.277863 -92.439285 8617077
-99.916428 -74.277878 -93.092598 10326665
-99.247192 -74.278244 -93.81575 9931907
-98.572746 -74.278564 -94.534058 9734788
-97.893105 -74.2789 -95.247475 9208702
-97.007584 -74.278839 -95.874435 8813687
-96.232971 -74.278694 -96.377441 8616307
-95.5299 -74.278801 -96.970757 7892583
-94.560829 -74.278389 -97.479332 8813680
-93.860039 -74.278648 -98.163712 8813680
-93.154282 -74.278923 -98.842949 9208952
-92.324638 -74.279152 -99.628853 9208181
-91.488678 -74.279442 -100.40802 9866884
-90.766861 -74.27964 -101.07011 8748660
-90.040237 -74.279816 -101.72701 9077366
-89.308922 -74.279976 -102.37859 8221543
-88.572853 -74.280128 -103.02493 8221543
-87.832184 -74.280266 -103.66589 7958632
-87.086884 -74.28035 -104.3015 10854036
-86.336998 -74.280487 -104.93177 9011318
-85.582611 -74.280571 -105.55656 9866368
-84.823761 -74.280647 -106.17589 8681835
-84.060394 -74.280708 -106.78969 7630176
-83.292686 -74.280746 -107.39803 7958884
-82.520569 -74.280777 -108.00073 7629666
-81.746269 -74.232506 -108.73569 8418927
-80.99707 -74.052338 -109.41542 7827046
-80.091934 -73.996033 -109.93248 7103067
-79.03109 -73.976303 -110.41782 8485232
-78.476768 -73.735855 -110.76424 9142645
-123.19886 -72.592514 -73.102715 8681835
-122.7285 -72.892288 -73.625816 11049871
-122.06071 -73.107292 -74.430893 11707546
-121.47141 -73.075745 -75.281311 10852752
-120.88159 -73.047409 -76.130386 9734529
-120.43011 -73.2173 -76.659271 10787729
-81.020164 -73.267136 -109.81025 7761253
-80.214821 -73.221451 -110.19077 8090474
-79.297501 -73.048286 -110.67322 8879989
-78.337082 -72.988503 -111.12922 9076598
-77.594208 -72.916252 -111.49242 9536635
-123.45171 -72.024055 -73.050949 10457990
-122.95067 -72.097252 -73.815231 9932162
-122.35455 -72.171501 -74.608261 8485232
-121.75845 -72.248489 -75.399536 10326408
-121.25307 -72.494965 -75.955933 8681843
-79.475571 -72.140266 -110.96029 8616561
-78.59259 -72.01992 -111.40594 9405049
-77.600662 -72.186119 -111.78474 9536635
-76.814095 -71.894745 -112.25617 9207155
-76.190674 -71.693558 -112.61775 9207155
-124.16426 -70.834122 -72.545311 8484973
-123.68306 -71.126747 -73.306992 7958632
-123.11156 -71.120583 -74.205788 8551282
-122.49073 -71.418205 -74.892471 7169373
-78.533836 -71.252266 -111.74272 9536635
-77.832687 -71.113525 -112.11407 10128515
-76.937912 -71.032288 -112.54922 9866110
-76.129532 -70.961594 -112.94122 9734267
-75.449554 -70.904015 -113.27029 9536632
-124.78932 -70.03083 -71.891891 7761512
-124.42349 -70.044449 -72.67247 9734783
-124.03396 -70.093826 -73.459045 8616822
-123.53465 -70.337158 -74.104744 7169373
-77.837563 -70.385727 -112.40611 10260100
-77.119698 -70.003853 -112.88329 10260868
-76.174065 -70.136292 -113.25492 10260612
-75.301064 -70.167526 -113.63475 9471099
-74.537666 -69.835762 -114.11215 8550255
-125.59521 -68.878586 -71.151062 9011323
-125.16634 -69.153564 -71.840317 9011578
-124.75874 -69.186974 -72.694168 9669250
-76.373863 -69.215454 -113.53736 9668221
-75.523781 -69.100952 -113.96584 9339772
-74.628143 -69.030914 -114.39686 8747634
-73.796844 -68.865791 -114.83737 8549998
-126.39139 -67.61116 -70.531853 8486259
-125.94914 -67.924629 -71.216476 7893869
-125.4591 -68.082458 -72.140373 8749945
-125.02782 -68.439453 -72.763214 8946555
-75.615669 -68.296196 -114.24992 9273979
-74.847672 -67.966919 -114.72833 8945014
-73.914299 -68.077896 -115.1031 7957860
-73.029068 -68.150162 -115.47192 7431775
-72.308167 -67.787643 -115.94258 8089190
-126.92917 -66.849503 -70.031319 9210491
-126.57001 -67.054314 -70.630661 7828329
-126.11975 -67.085518 -71.578796 7368295
-125.7596 -67.293655 -72.177452 8092016
-74.693916 -67.236244 -115.09284 8616048
-74.094688 -67.193039 -115.37977 7892324
-73.196625 -67.130638 -115.80878 6905688
-72.299622 -67.071259 -116.23608 7892067
-71.504883 -66.806747 -116.70033 7432544
-159.34508 -65.980812 -42.999489 11182486
-158.97855 -65.915375 -43.725338 9735297
-158.60921 -65.850128 -44.448723 8288366
-157.13422 -65.798424 -44.861382 9012089
-156.66951 -65.717888 -45.753204 7367267
-156.29063 -65.651817 -46.462936 8814715
-154.90486 -65.60807 -46.668789 9670023
-127.31371 -66.053505 -69.892609 9078393
-126.86762 -66.126663 -70.795105 10393481
-126.43771 -66.39769 -71.489975 10459789
-73.938728 -66.464767 -115.74432 7234909
-73.346809 -66.168945 -116.13007 6774358
-72.510254 -66.012329 -116.56952 6905688
-71.611458 -65.956726 -116.99608 7367262
-70.746002 -66.048378 -117.34816 8288107
-154.37451 -65.503487 -47.527523 7301731
-153.84074 -65.399368 -48.382118 7367263
-152.75438 -65.337418 -48.788727 9472639
-151.94438 -65.255371 -49.410156 8551540
-151.40648 -65.153091 -50.247936 9406851
-150.86531 -65.051125 -51.081608 7762277
-149.52946 -65.013412 -51.240135 12038311
-148.98798 -64.912819 -52.061886 14209224
-148.44284 -64.812729 -52.87896 9998215
-147.51286 -64.745316 -53.355282 9340285
-146.58452 -64.678596 -53.824532 10853008
-146.14616 -64.599831 -54.466064 9735558
-128.11501 -64.841583 -69.213806 9801605
-127.65717 -64.95179 -70.109421 9143929
-127.1832 -65.234894 -70.889313 10262152
-72.473549 -65.177185 -116.92368 8156523
-71.784508 -65.075996 -117.27436 10787469
-70.850182 -65.199944 -117.64437 10787469
-69.997147 -65.108704 -118.06478 10326922
-69.269478 -64.76033 -118.53275 8419696
-145.81581 -64.541031 -54.945179 8090993
-145.3736 -64.462791 -55.581692 7235421
-144.08629 -64.430901 -55.694832 8419695
-143.53383 -64.33429 -56.479534 9406590
-142.97795 -64.238197 -57.259701 8485232
-142.30692 -64.123421 -58.190434 7104091
-141.0453 -64.09478 -58.278152 7037786
-140.48572 -64.000481 -59.041962 8617075
-139.81885 -63.891674 -59.956722 7563874
-139.28569 -63.813332 -60.725594 8814198
-138.02061 -63.775074 -60.776402 9011064
-137.37842 -63.681763 -61.684803 6971481
-136.91743 -63.605808 -62.273872 9538694
-129.54152 -63.667255 -67.944794 9800581
-128.99239 -63.817421 -68.751007 9736324
-128.44637 -63.983494 -69.523834 9736836
-127.92964 -64.138977 -70.310722 8815478
-71.710724 -64.418976 -117.57322 11313812
-71.008766 -64.186646 -117.98276 9866625
-70.153351 -64.09623 -118.40391 7893607
-69.252533 -64.050529 -118.82738 8682868
-68.451736 -63.799969 -119.28875 8945783
-136.677 -63.563683 -62.563194 9538694
-136.19453 -63.47974 -63.139355 11183774
-135.58907 -63.374981 -63.855743 14605262
-134.60234 -63.094643 -64.389008 10130059
-133.6208 -62.817394 -64.916656 8419952
-133.03038 -62.650707 -65.228256 7564643
-131.88055 -62.798779 -66.054184 8418928
-131.26164 -62.908108 -66.737747 10261132
-130.64627 -62.936142 -67.618637 9340286
-129.92696 -63.123119 -68.244156 9669506
-129.36613 -63.264503 -68.947601 9868166
-70.890022 -63.425552 -118.34387 6511954
-70.232185 -63.154789 -118.74906 8288109
-69.451591 -62.997959 -119.16347 8682867
-68.548805 -62.955757 -119.5864 8682867
-67.812378 -63.029514 -119.854 8682867
-132.58557 -62.552429 -65.60733 7958377
-132.14284 -62.5298 -66.382294 8089963
-131.69868 -62.508373 -67.156006 10261132
-69.405052 -62.170471 -119.51895 8682867
-68.712257 -62.079933 -119.867 8682867
-67.751976 -62.194405 -120.19139 10064261
-67.039642 -61.885017 -120.50113 12827052
-68.630684 -61.429241 -120.16682 9406590
-67.901657 -61.189331 -120.53618 12695466
-66.976784 -61.052864 -120.83855 13813946
-66.264687 -60.748585 -121.14941 11905694
-67.79248 -60.45266 -120.93162 9734270
-67.133652 -60.270767 -121.25279 11049359
-66.305557 -60.013992 -121.67912 10130821
-65.427063 -59.857075 -122.05262 13551541
-64.543976 -59.601089 -122.61538 10591377
-65.733376 -59.476334 -122.7151 8815475
-64.959312 -59.440533 -123.0379 10130825
-63.874687 -59.391804 -123.48543 14012612
-63.40303 -59.313789 -124.16965 11183514
-62.711075 -59.283871 -124.87502 7630435
-61.813583 -59.283482 -125.32858 7301470
-60.912525 -59.283081 -125.77575 10065036
-60.341965 -59.132282 -126.90691 7565675
-59.46299 -59.0289 -127.4124 7894379
-58.509228 -58.99062 -127.7607 7038298
-57.901108 -58.790794 -128.05167 7564898
-60.184555 -58.528065 -127.35673 7565675
-59.556686 -58.192162 -127.70794 8156783
-58.647488 -58.11208 -128.0571 7301218
-57.738731 -58.034458 -128.40517 9471872
-57.109478 -57.703865 -128.75481 10853012
-58.716331 -57.266605 -128.36479 8485235
-57.924675 -56.990868 -128.74965 9406080
-56.944504 -56.949135 -129.10857 8353135
-56.312923 -56.621037 -129.45799 7563619
-58.088772 -56.20842 -128.9993 10524046
-57.308975 -55.98267 -129.36041 8616307
-56.319778 -55.967216 -129.71217 8287598
-57.288452 -55.123135 -129.70085 10063753
-56.417076 -55.215099 -129.97179 8156268
-55.57814 -55.091496 -130.31476 7629923
-54.814175 -54.820789 -130.68817 6905944
-56.553661 -54.276814 -130.28082 8419696
-55.715511 -54.137169 -130.63049 7827558
-54.753845 -54.114479 -130.97977 7827558
-54.038559 -53.863941 -131.32787 7696485
-55.741924 -53.195946 -130.97662 8485745
-54.9016 -53.05891 -131.32611 9012345
-53.937763 -53.03904 -131.67511 8091243
-53.220108 -52.790737 -132.02312 9538432
-54.941227 -52.274448 -131.63718 9143675
-54.092545 -52.106644 -132.04555 8748916
-53.217506 -51.962883 -132.43619 7301729
-52.307266 -51.729458 -132.8792 7038307
-53.481087 -51.368732 -132.80896 9538432
-52.693764 -51.13546 -133.28265 8222578
-51.843826 -50.993256 -133.68602 9275007
-50.962547 -50.783504 -134.14719 8616822
-51.729656 -50.485916 -134.45462 7894376
-51.059654 -50.460224 -134.63715 8748399
-50.296265 -50.302662 -135.05705 9208435
-49.411663 -50.057087 -135.65341 9077109
-48.664349 -49.857174 -136.12981 9735043
-47.466537 -49.737514 -137.42381 9603458
-45.630825 -49.666607 -139.08043 10458761
-44.27301 -49.604931 -140.59003 9208435
-45.17971 -49.538704 -138.83357 10458761
-43.905056 -49.569965 -140.59892 9208435
-43.347237 -49.510082 -140.58955 9209727
-42.616592 -49.425781 -141.81653 9012090
-41.876389 -49.354675 -141.82004 7039331
-41.122402 -49.26226 -143.02771 11709084
-40.379063 -49.191936 -143.02382 12432037
-39.606758 -49.096889 -144.22746 9471871
-38.672638 -49.008755 -144.20988 13023917
-38.069317 -48.929703 -145.41628 10392973
-36.510361 -48.760643 -146.59367 8289141
-35.689331 -48.660965 -147.80164 7563619
-35.119381 -48.607525 -147.77069 7563619
-34.739891 -48.571999 -147.74892 7563619
-34.090744 -48.48838 -148.96593 11906469
-33.32753 -48.417049 -148.91353 7038307
-32.662552 -48.331909 -150.13333 9077884
-31.895523 -48.260376 -150.0714 9735812
-31.021606 -48.155697 -151.27614 8288622
-29.552795 -47.995689 -152.42682 9208699
-28.84267 -47.906048 -153.6606 8090987
-28.063751 -47.833916 -153.57065 8091247
-27.337215 -47.742649 -154.80684 7565675
-26.55481 -47.670319 -154.70699 7038307
-25.615059 -47.559315 -155.91847 8355189
-25.025822 -47.505013 -155.83568 10262926
-24.068531 -47.392338 -157.04706 9144704
-22.69989 -47.241764 -158.20061 8420464
-21.312569 -47.089428 -159.35129 7563619
-20.306648 -46.971985 -160.57346 16777199
-19.706398 -46.917171 -160.46207 12697009
-18.682343 -46.797977 -161.68407 11709858
-18.079704 -46.742989 -161.56479 8814454
-17.441132 -46.658825 -162.87045 9932934
-15.979447 -46.499584 -164.01492 7630181
-14.905763 -46.375465 -165.25008 7564651
-14.29461 -46.320137 -165.10963 8156531
-13.40677 -46.212681 -166.39381 9143678
-119.92088 -73.576073 -77.150139 7564651
-119.31381 -73.932968 -77.78006 9143422
-118.75235 -74.097282 -78.437477 9274494
-118.17313 -74.088509 -79.28688 9406079
-117.58288 -74.076614 -80.128654 9340797
-116.68759 -74.268707 -80.431625 10129801
-115.88077 -74.277946 -81.035454 10064008
-115.29813 -74.278625 -81.874176 10721422
-114.47208 -74.278564 -82.456909 9406076
-113.52557 -74.278053 -82.904922 8617078
-112.82973 -74.278854 -83.863266 8617080
-112.05827 -74.279007 -84.554489 8945531
-111.31769 -74.278564 -84.843201 9208700
-110.54059 -74.278694 -85.521416 7761509
-109.9257 -74.279289 -86.321465 10985622
-109.08969 -74.279434 -87.054115 8616307
-108.24292 -74.27903 -87.452965 8945528
-107.39947 -74.279114 -88.170753 8813942
-106.76556 -74.27964 -88.948067 8550770
-106.12604 -74.280128 -89.720726 9010806
-105.27327 -74.279701 -90.095413 10195077
-104.31242 -74.279274 -90.588493 9208957
-103.55222 -74.279778 -91.468994 9011579
-102.89457 -74.280174 -92.21843 8748663
-102.23154 -74.280655 -92.963127 7565161
-101.36588 -74.280334 -93.434067 9866372
-100.70856 -74.280251 -93.910675 9274238
-99.839554 -74.279953 -94.367935 9734789
-99.04731 -74.280357 -95.210266 8156273
-98.248405 -74.280724 -96.046257 8485237
-97.5578 -74.281067 -96.757248 9471616
-96.862099 -74.281349 -97.463272 9471616
-96.018738 -74.281235 -98.02063 8616307
-95.198845 -74.280891 -98.463699 8353132
-94.463676 -74.281303 -99.259575 8484719
-93.470978 -74.280685 -99.649773 8155751
-92.754562 -74.280937 -100.32617 9405048
-92.033257 -74.281151 -100.99743 9931906
-91.307106 -74.281349 -101.66344 8880246
-90.576202 -74.281532 -102.32422 9341054
-89.840538 -74.281693 -102.97968 8682093
-89.100151 -74.281845 -103.62978 7958373
-88.355057 -74.281906 -104.2746 8682353
-87.6054 -74.282097 -104.91399 9405566
-86.851128 -74.282211 -105.54794 11116440
-86.092255 -74.282265 -106.17641 12629933
-85.328888 -74.282364 -106.79939 11971746
-84.688141 -74.11319 -107.65151 8024677
-83.938705 -74.004135 -108.15273 7038040
-82.991722 -74.046638 -108.60863 9011059
-82.161301 -73.912521 -109.03621 7892839
-81.536263 -73.693298 -109.4059 8681843
-120.26343 -72.983307 -77.041992 7564651
-119.64267 -73.187531 -77.787781 8222579
-119.05138 -73.168762 -78.632904 8814455
-118.46988 -73.2005 -79.432327 9143162
-117.85202 -73.516647 -80.103264 9208955
-83.983673 -73.237587 -108.48976 8616556
-83.201233 -73.144798 -108.87905 7761250
-82.300201 -73.040878 -109.3262 6248783
-81.486496 -72.949745 -109.72887 7366495
-80.802399 -72.875076 -110.0666 8288109
-121.78194 -71.761421 -75.674362 10852751
-121.16226 -72.0644 -76.356133 9405308
-120.58046 -72.087387 -77.161438 7893101
-119.98801 -72.065704 -78.01004 7958635
-119.36589 -72.272423 -78.756203 8682868
-83.195496 -72.280952 -109.23091 6248783
-82.524536 -72.064293 -109.62012 7235166
-81.544815 -72.114166 -110.04048 7563619
-80.664795 -72.125198 -110.43169 7564130
-79.901443 -71.771004 -110.91811 6905944
-123.02152 -70.687553 -74.606216 9735812
-122.51437 -70.931404 -75.166855 8814453
-121.91626 -71.009819 -75.960106 10918544
-121.32291 -70.983185 -76.813026 8024168
-120.75668 -71.086456 -77.545715 7761510
-120.21799 -71.318687 -78.158035 8814453
-82.329399 -71.568787 -109.90823 7366496
-81.742607 -71.242645 -110.30392 7103580
-80.906464 -71.049652 -110.75788 7169116
-80.033257 -71.006294 -111.16803 6905944
-79.134903 -71.018082 -111.56716 8747634
-123.9881 -69.727386 -73.835022 7959151
-123.45441 -69.952621 -74.460854 8288111
-122.8016 -70.106621 -75.283386 9077626
-122.20717 -70.077187 -76.139557 8024682
-121.63302 -70.146095 -76.90509 7761766
-81.012077 -70.236504 -111.03917 6510930
-80.144348 -70.13623 -111.46986 6510930
-79.195625 -70.18483 -111.87675 7892326
-78.256454 -69.939247 -112.3983 9800065
-77.54216 -69.632584 -112.84348 9734788
-124.68356 -68.831055 -73.167511 10064006
-124.26971 -69.011856 -73.847229 7696236
-123.64265 -69.141151 -74.708473 8090990
-123.09369 -69.174858 -75.460724 9209215
-122.46036 -69.427345 -76.193596 7630442
-80.148735 -69.389465 -111.76975 5919050
-79.451012 -69.12558 -112.19017 6576980
-78.595978 -69.001053 -112.62495 8616307
-77.569649 -69.030724 -113.07441 9800066
-76.795303 -68.843544 -113.49818 8813171
-125.33991 -67.689171 -72.741608 9144702
-124.91579 -68.041824 -73.352814 8354163
-124.43236 -68.109001 -74.23204 8156785
-123.86945 -68.206551 -74.979553 9603715
-79.353279 -68.343826 -112.55019 6510930
-78.721107 -68.141472 -112.91621 8353135
-77.747475 -68.200951 -113.32993 9602944
-76.761948 -68.085114 -113.81992 8287085
-75.850533 -67.828003 -114.33362 9339515
-125.65726 -66.999855 -72.655357 7565673
-125.27403 -66.971138 -73.51059 9012602
-124.83296 -67.245003 -74.197838 9406590
-77.97023 -67.351921 -113.57307 9931652
-77.171883 -67.068649 -114.04651 9931136
-76.15287 -67.019997 -114.52437 9536636
-75.204903 -66.974747 -114.96886 8878963
-160.56454 -65.985138 -43.114246 8682867
-160.28758 -65.935661 -43.662815 8485488
-159.82237 -65.853539 -44.574104 8288109
-158.33035 -65.801346 -44.989738 7564643
-157.95583 -65.73642 -45.708721 9012089
-157.47575 -65.652046 -46.601864 7564643
-156.6176 -65.599709 -46.968918 9538437
-155.86415 -65.567337 -47.156796 11381404
-126.40578 -66.037407 -71.873337 11512732
-125.99754 -66.143463 -72.665215 7697002
-125.6503 -66.095833 -73.458961 7038809
-77.171364 -66.347557 -114.33834 9601661
-76.454483 -66.111145 -114.75623 9010038
-75.363419 -66.208313 -115.2075 9733246
-74.427101 -66.061119 -115.68795 8812915
-73.631325 -65.727913 -116.18045 7234909
-155.54279 -65.504219 -47.675259 9209727
-155.1122 -65.420242 -48.364216 8486006
-154.67937 -65.336548 -49.050224 6511954
-153.19536 -65.274925 -49.401711 8288365
-152.65355 -65.171776 -50.246403 8090986
-152.10847 -65.068947 -51.086952 7104347
-151.77969 -65.00753 -51.589165 6511954
-150.32042 -64.949677 -51.910698 9867910
-149.66214 -64.828438 -52.899914 10853524
-149.11002 -64.727905 -53.719658 9735043
-148.04189 -64.671425 -54.080521 9471870
-147.23216 -64.593979 -54.661842 9735558
-127.11488 -64.80407 -71.413071 10262152
-126.63937 -65.090691 -72.193024 10591118
-126.23428 -65.157112 -73.012604 8090984
-76.263763 -65.557434 -115.06602 9010038
-75.669342 -65.25705 -115.45465 9141880
-74.760788 -65.125534 -115.91621 8747379
-73.739151 -64.987923 -116.43114 6708566
-72.844147 -64.843735 -116.89188 7432544
-146.67632 -64.495262 -55.46513 9340801
-146.11748 -64.396919 -56.264339 6511954
-144.8177 -64.365372 -56.37331 9406590
-144.14662 -64.249016 -57.317699 8617331
-143.584 -64.152565 -58.100189 10064777
-143.03638 -64.06469 -58.885422 10656914
-141.74435 -64.028206 -58.961468 9143675
-141.20546 -63.945637 -59.739178 8617075
-140.56647 -63.852337 -60.672356 7168861
-140.03009 -63.774929 -61.445728 8418928
-138.75172 -63.736477 -61.491562 7432032
-138.106 -63.644505 -62.40535 7432032
-137.65088 -63.573299 -63.001701 7958120
-128.49399 -63.591915 -70.0821 9736836
-127.97327 -63.814758 -70.73494 8354671
-127.47858 -63.937408 -71.534683 7827814
-126.93532 -64.164291 -72.35997 8288624
-74.915222 -64.295715 -116.1826 7104353
-74.138092 -63.975536 -116.66133 6708823
-73.108536 -64.028564 -117.10262 7695716
-72.080658 -64.084892 -117.54195 10524297
-71.42408 -63.809971 -117.9483 8681843
-137.28571 -63.509815 -63.436749 9538694
-136.7973 -63.425323 -64.014351 10985625
-136.30693 -63.341064 -64.588882 10853012
-132.86386 -62.585938 -67.539932 9537664
-130.36113 -62.726994 -68.668633 9867398
-129.63268 -62.829624 -69.488007 10262668
-129.01511 -63.000858 -70.16201 10855059
-128.43665 -63.144779 -70.934441 10789266
-127.97035 -63.279793 -71.605316 6775642
-73.977974 -63.251907 -117.02624 6510930
-73.344078 -63.167652 -117.34514 7366239
-72.350479 -63.184872 -117.78462 7168860
