# .PCD v0.7 - Point Cloud Data file format
VERSION 0.7
FIELDS x y z rgb
SIZE 4 4 4 4
TYPE F F F U
COUNT 1 1 1 1
WIDTH 1178
HEIGHT 1
VIEWPOINT 0 0 0 1 0 0 0
POINTS 1178
DATA ascii
-92.575722 -55.253391 -125.74824 8024682
-91.627304 -55.136902 -126.04122 7827303
-90.679337 -55.020672 -126.32766 5920074
-86.155388 -54.525848 -126.34794 8092019
-85.593742 -54.457695 -126.5024 6709078
-84.658173 -54.344368 -126.75507 7563619
-83.536285 -54.208775 -127.0507 11116693
-82.602066 -54.096207 -127.29074 11905692
-81.668648 -53.983952 -127.52464 8024937
-80.73587 -53.871994 -127.75301 10787472
-79.803848 -53.760433 -127.97522 9208443
-79.058784 -53.671345 -128.14934 8090987
-78.500381 -53.604759 -128.27704 9867398
-77.756294 -53.516129 -128.44438 11709345
-76.826958 -53.405651 -128.64821 10788243
-75.712982 -53.273521 -128.8855 9735553
-74.785645 -53.16378 -129.07724 9867141
-73.85936 -53.054462 -129.26299 9012089
-72.934067 -52.94545 -129.44347 9012091
-72.011749 -52.838264 -129.62146 7499625
-70.914795 -52.716267 -129.84328 7828076
-70.184776 -52.635635 -129.9882 9537150
-69.637634 -52.575325 -130.09424 8089963
-68.908638 -52.495071 -130.23268 10260872
-67.998215 -52.395103 -130.40065 8880246
-66.906891 -52.275475 -130.59523 8419951
-66.173706 -52.191124 -130.70876 10855060
-63.246765 -51.830692 -132.32016 8288365
-62.305248 -51.707195 -132.38622 8288877
-45.33675 -51.939949 -135.22784 7564392
-44.670925 -51.918064 -135.39146 8681835
-61.140671 -51.398045 -131.97043 6906968
-57.193886 -50.875206 -133.38806 9537408
-56.171356 -50.675289 -133.20927 8024428
-55.252884 -50.764397 -133.26076 9801353
-54.464256 -50.798237 -133.38972 11643298
-53.340927 -50.817371 -133.60669 8486257
-52.339378 -50.776596 -133.88702 8683382
-51.33847 -50.737583 -134.16438 8682358
-50.288345 -50.849419 -134.3093 8813686
-49.300964 -50.825542 -134.61189 8155756
-48.360847 -50.862759 -134.87462 9340542
-47.574295 -50.994678 -135.01242 8222063
-46.599232 -51.008839 -135.31474 7827564
-45.633808 -51.098351 -135.56508 8222321
-44.637924 -51.154503 -135.71992 9273977
-43.612263 -50.899784 -135.77667 8945009
-42.670567 -50.665878 -135.85942 8681843
-54.328648 -50.594898 -133.73984 10261903
-53.496403 -50.564556 -133.98889 8946554
-52.616787 -50.421818 -134.39618 8420464
-51.488796 -50.485828 -134.55006 8748399
-50.485283 -50.448582 -134.82501 9208435
-49.482246 -50.413017 -135.09697 8089960
-48.479591 -50.37912 -135.36612 10064521
-47.477341 -50.346985 -135.63228 7564391
-46.643524 -50.322639 -135.85515 8616822
-45.986103 -50.314182 -136.05968 9734788
-44.519306 -50.455868 -136.19249 9340027
-43.687317 -50.308212 -136.22409 9010803
-42.652706 -50.04467 -136.36264 9142650
-41.629257 -49.894703 -136.38545 10459022
-40.667736 -49.817398 -136.30496 10261132
-41.433311 -49.358421 -137.05328 10459022
-40.653717 -49.406715 -136.84471 9932164
-39.579971 -49.197224 -136.98076 9471868
-38.625984 -48.937355 -137.21461 9538176
-37.639393 -48.812241 -137.23622 9735812
-36.86491 -48.718227 -137.24684 9340798
-36.014812 -48.548794 -137.35999 9997699
-35.0266 -48.377914 -138.28984 9274490
-33.935066 -48.239689 -138.15025 9931910
-33.026672 -48.122219 -138.02103 8550257
-29.014372 -47.934708 -139.56586 8221544
-27.943607 -47.818806 -139.44099 7826531
-27.053947 -47.722504 -139.33154 9010544
-26.046303 -47.617176 -140.39503 9405046
-25.689356 -47.578503 -140.34569 9405046
-24.976595 -47.501335 -140.24437 9142386
-23.910538 -47.385826 -140.08696 9602937
-22.342934 -47.219742 -141.03773 8814198
-21.277256 -47.104229 -140.85739 9537409
-20.392147 -47.008274 -140.70204 9208955
-19.332275 -46.897125 -141.71054 9735043
-18.268959 -46.781807 -141.50513 9602940
-17.562275 -46.705116 -141.3647 9537409
-16.479685 -46.591427 -142.35158 9537406
-15.948532 -46.533772 -142.23785 9734788
-15.242271 -46.457157 -142.08336 8747893
-14.250135 -46.351353 -142.47009 8024683
-13.255707 -46.24527 -142.84705 7235685
-12.199018 -46.130516 -142.59203 8222576
-11.250393 -46.03133 -143.58406 9208443
-10.545286 -45.954681 -143.40237 9208443
-9.6664391 -45.859173 -143.17183 9472639
-8.34548 -45.719429 -144.0511 9736836
-7.467535 -45.62397 -143.8044 9736324
-6.4477997 -45.515015 -144.13521 9735042
-5.4264622 -45.405827 -144.45628 9538433
-4.551939 -45.310661 -144.19044 9209467
-3.5433671 -45.204865 -145.13652 12959413
-2.6688459 -45.109688 -144.85622 9143677
-1.2930486 -44.96389 -145.67744 8090992
-0.59456229 -44.887798 -145.44077 8090220
0.10203004 -44.811848 -145.2018 8089963
1.1473048 -44.702057 -146.12189 13023917
2.1915209 -44.588245 -145.74626 9735301
3.4285395 -44.457428 -146.59123 7037274
4.296875 -44.362782 -146.26276 7958376
5.3769836 -44.248604 -147.16109 7760997
6.2419357 -44.136715 -146.76077 7498337
7.5103226 -43.991913 -147.54601 6511954
8.202549 -43.915226 -147.25658 6511954
10.005798 -43.716385 -147.82193 9406078
11.087139 -43.597 -148.02271 9736329
12.168812 -43.477657 -148.21364 12893361
12.856392 -43.401405 -147.89992 12630442
14.001705 -43.275459 -148.73839 10655632
14.688488 -43.199322 -148.41418 9208435
15.849415 -43.071671 -149.24545 10261643
16.706245 -42.976681 -148.82635 10788243
18.054592 -42.828239 -149.56189 11445400
18.738049 -42.75248 -149.21529 12432037
19.931091 -42.621159 -150.0276 9276288
20.613476 -42.545547 -149.67039 13024949
21.824856 -42.417782 -150.49364 10985879
22.511341 -42.352638 -150.16269 8089963
23.929714 -42.240173 -151.0134 8089963
24.615067 -42.174965 -150.67006 9537408
26.053101 -42.060604 -151.51028 9537408
26.737164 -41.995396 -151.15462 8880247
28.023815 -41.895504 -152.07584 8617331
28.707226 -41.830181 -151.70857 10064777
30.683769 -41.646099 -152.18338 9932937
31.989132 -41.516453 -152.99663 9736836
32.657085 -41.434189 -152.5443 11183260
34.312298 -41.261402 -153.11729 10460051
36.315502 -41.045563 -153.44397 8552313
37.67123 -40.909988 -154.23637 8092019
38.332901 -40.827812 -153.75038 9341315
39.705788 -40.690205 -154.53398 8682867
40.20023 -40.628567 -154.16104 8287859
41.425251 -40.509499 -155.06519 13551549
41.754471 -40.468369 -154.81119 11512223
42.246658 -40.406872 -154.42957 9538433
43.65358 -40.265202 -155.19777 9538433
44.144203 -40.20364 -154.80777 9210491
45.404968 -40.080509 -155.70204 9210491
45.894402 -40.018944 -155.30389 9210491
47.498714 -39.852726 -155.92609 12235946
47.9855 -39.791355 -155.51913 12235946
49.317558 -39.692024 -156.51668 11642268
49.805962 -39.632694 -156.10938 11181975
51.3755 -39.552929 -157.13432 10261132
51.700203 -39.513065 -156.85583 12235684
52.023888 -39.473305 -156.5769 12235684
53.94154 -39.351257 -157.31018 9867139
56.205429 -39.18655 -157.74416 9867908
58.332146 -39.039303 -158.30783 11904668
58.810265 -38.978664 -157.85663 11904668
60.641624 -38.869072 -158.70384 9800581
62.815506 -38.716434 -159.23637 9340286
64.817314 -38.557911 -159.81755 10129546
66.02729 -38.259777 -160.04866 9471871
66.744736 -37.767517 -160.15897 8485488
67.681511 -37.620304 -159.88846 8945523
66.882965 -37.081345 -160.49541 8682867
67.682846 -36.874672 -160.25214 7695715
67.870239 -36.08736 -160.48595 8024168
67.885818 -35.423313 -160.7408 9010550
68.330978 -35.008278 -160.72348 10918031
-126.88554 -58.158726 -118.6164 7827298
-125.96923 -58.065022 -119.1888 8418928
-125.05139 -57.971611 -119.75536 9142907
-122.69495 -57.816319 -119.50957 7564643
-121.93306 -57.727589 -119.91718 8814711
-120.98004 -57.617035 -120.42166 6644314
-120.21706 -57.528912 -120.82048 6644314
-117.90825 -57.37347 -120.52678 6510930
-117.15181 -57.286823 -120.91267 7169629
-116.20575 -57.178829 -121.39017 8419696
-115.27405 -57.078674 -121.87686 9011576
-112.86424 -56.921246 -121.66676 9735299
-112.14172 -56.851055 -122.06078 8616563
-111.23734 -56.763538 -122.54836 9143163
-110.51287 -56.693699 -122.93404 11379607
-108.15993 -56.54221 -122.68387 11248279
-107.25989 -56.456177 -123.1484 10459020
-106.35876 -56.370331 -123.60742 10722192
-105.45638 -56.284691 -124.06012 9012088
-103.16188 -56.13937 -123.76762 7760997
-102.44463 -56.071884 -124.11629 9011064
-101.54713 -55.987675 -124.54733 7760997
-100.64453 -55.901512 -124.96728 7168603
-99.737793 -55.81369 -125.3776 6510930
-97.673904 -55.685677 -124.94075 8088931
-97.313965 -55.651009 -125.09918 8088931
-96.593628 -55.581905 -125.41318 10984078
-95.692657 -55.495743 -125.80104 8089705
-94.790924 -55.40984 -126.18286 8221806
-93.708038 -55.306999 -126.63365 7564651
-89.731766 -54.904854 -126.60838 7564386
-88.784668 -54.789291 -126.88264 7564386
-87.838058 -54.674076 -127.15125 5920074
-87.270325 -54.605118 -127.30948 6644055
-86.702934 -54.536209 -127.46529 7368037
-85.757629 -54.421757 -127.72028 6971994
-84.812958 -54.307629 -127.9697 8813942
-83.868965 -54.193829 -128.21266 8484719
-82.925697 -54.080322 -128.4501 9011574
-81.983208 -53.967197 -128.68138 8551025
-80.853256 -53.831924 -128.95131 10590093
-79.912468 -53.719494 -129.17006 11313815
-79.348442 -53.652248 -129.29849 8090987
-78.784691 -53.585106 -129.42464 9867398
-78.033661 -53.495853 -129.58977 8946296
-77.095596 -53.384514 -129.79073 8485488
-75.971222 -53.251427 -130.02461 10261897
-75.035294 -53.140862 -130.21344 10985623
-74.100494 -53.03075 -130.39618 11446174
-73.166672 -52.920948 -130.57368 10459278
-72.238388 -52.814686 -130.75308 9407106
-71.132469 -52.692543 -130.97331 8354162
-70.211861 -52.591137 -131.15094 8089963
-69.292099 -52.490002 -131.32266 10458250
-68.18972 -52.369061 -131.5217 9603711
-67.272018 -52.268639 -131.68163 9406332
-66.355438 -52.168579 -131.83578 12104870
-65.256851 -52.048878 -132.01375 12104870
-64.159805 -51.92971 -132.18408 9143418
-61.741455 -51.621937 -133.6644 8090987
-61.37426 -51.582394 -133.71213 8090987
-60.640587 -51.503544 -133.80487 7367008
-59.541496 -51.385685 -133.93796 7564131
-58.593414 -51.258354 -133.966 9735812
-57.86953 -51.045692 -133.62189 10853012
-54.709148 -50.689617 -135.11859 7564651
-54.261086 -50.574436 -134.94467 7564651
-53.590096 -50.401611 -134.68135 7434081
-52.302849 -50.250896 -134.73103 7894376
-51.636189 -50.229626 -134.92836 8748399
-50.615181 -50.157352 -135.40869 9668986
-49.699066 -50.032593 -135.6776 9208696
-48.692749 -49.999577 -135.94946 9340541
-47.68626 -49.967728 -136.21701 8287597
-46.679867 -49.937351 -136.48112 9471873
-45.648113 -49.965954 -136.66728 9142646
-44.868294 -50.001064 -136.6947 9010803
-43.958561 -49.787804 -136.83046 9273977
-43.811176 -49.437954 -137.34137 9734788
-42.941864 -49.387974 -137.26808 10130057
-41.941551 -49.254932 -137.29953 10985622
-40.836964 -49.034039 -137.44766 9603197
-40.117359 -48.959461 -137.4379 9537403
-38.673553 -48.815617 -138.62784 8814713
-37.943497 -48.730888 -138.57552 8814713
-37.031227 -48.623093 -138.50027 7038307
-36.484112 -48.557411 -138.4492 7039331
-35.937237 -48.490715 -138.3931 8748918
-32.247578 -48.284466 -139.89714 9208958
-31.166388 -48.167542 -139.79399 8091762
-30.088625 -48.050983 -139.68356 9143163
-28.917431 -47.928009 -140.76146 9734779
-28.197317 -47.850079 -140.67435 8287596
-27.120037 -47.733414 -140.53815 8748917
-26.403809 -47.655846 -140.44363 9143675
-25.203915 -47.529755 -141.48483 9274493
-24.127811 -47.413189 -141.32297 10129540
-23.233887 -47.316284 -141.18292 9931906
-22.18779 -47.206718 -142.22551 8090987
-21.471313 -47.129074 -142.1011 9143163
-20.399719 -47.012901 -141.90924 9866630
-19.151085 -46.88129 -142.89572 8682867
-18.436174 -46.803753 -142.75449 9866113
-17.367256 -46.687786 -142.53738 9602940
-16.095421 -46.553635 -143.49556 8813939
-15.382622 -46.476238 -143.33763 8813939
-14.494118 -46.379723 -143.13654 9011065
-13.378597 -46.26247 -144.11124 10853012
-12.667234 -46.185257 -143.93811 7762027
-11.780785 -46.088913 -143.71811 9208443
-10.46644 -45.950035 -144.62553 10458510
-9.5804977 -45.853703 -144.3891 11117978
-8.8738346 -45.776932 -144.19722 9736836
-7.7161636 -45.654953 -145.12785 8880503
-6.6562767 -45.539623 -144.8217 8089963
-5.47966 -45.415596 -145.73834 9734273
-4.7737389 -45.338795 -145.52162 10853524
-4.0696487 -45.262192 -145.30278 16775151
-2.6977136 -45.116829 -146.14244 10064265
-1.8187482 -45.021133 -145.85306 7564649
-0.78075194 -44.912182 -146.79581 8879992
0.097778559 -44.816395 -146.49181 10787215
1.5046313 -44.667198 -147.30008 8616563
2.2061503 -44.590744 -147.04434 9142907
2.9057009 -44.514492 -146.78644 7037274
3.9804461 -44.401451 -147.70262 5920082
4.8544731 -44.306087 -147.36635 5920082
6.1188507 -44.155666 -148.14906 8222580
6.9892654 -44.04961 -147.76128 8617331
8.0967636 -43.927872 -148.64116 9340798
8.9668961 -43.831455 -148.27083 7301214
10.090931 -43.70789 -149.14197 10261132
10.78603 -43.630833 -148.83459 9736329
12.273575 -43.466946 -149.54022 8092019
12.966732 -43.390137 -149.22105 9538688
14.123348 -43.262962 -150.07393 9538686
14.815731 -43.186207 -149.74403 9735810
16.679691 -42.980602 -150.24916 8089963
17.36879 -42.904209 -149.90674 8090987
18.730465 -42.754261 -150.64799 9143417
20.280056 -42.583515 -151.2961 8092019
20.967346 -42.507317 -150.93248 8815739
22.723812 -42.354744 -151.6082 8550513
23.413986 -42.289219 -151.26933 8089963
24.676285 -42.191792 -152.21394 8024427
25.538071 -42.109715 -151.77528 8879478
26.648174 -42.026894 -152.80318 9735555
27.337116 -41.961132 -152.44048 9735555
29.498924 -41.777756 -152.90659 9143675
31.317234 -41.599159 -153.44688 9735811
33.309875 -41.385155 -153.81091 9013115
34.64743 -41.252064 -154.62701 8484976
35.317032 -41.169243 -154.15489 9276035
36.67173 -41.034058 -154.96239 10985369
37.172337 -40.971973 -154.59972 8815228
39.042881 -40.772694 -155.02985 8485747
40.431988 -40.633503 -155.8251 13550517
40.929485 -40.5714 -155.44543 7827819
42.501282 -40.409447 -156.10497 13551549
42.996395 -40.347477 -155.71663 8551538
44.255363 -40.224876 -156.62852 13551031
44.749355 -40.162807 -156.23192 12433064
46.355167 -39.996822 -156.87286 10131086
46.846558 -39.934887 -156.46759 10854551
48.170052 -39.83107 -157.46333 10131086
48.663235 -39.771385 -157.05827 11183516
50.722912 -39.632858 -157.68996 11182743
52.643776 -39.511818 -158.45128 8682867
53.132328 -39.451454 -158.02412 8682867
55.076687 -39.327755 -158.7688 10459787
55.562103 -39.267181 -158.33023 11709084
57.208012 -39.181313 -159.35779 9735555
57.691273 -39.120327 -158.90834 10788244
59.844524 -38.970917 -159.47281 10327179
62.02272 -38.818806 -160.0238 7959401
63.742008 -38.604595 -160.46252 10261132
64.774292 -38.048038 -160.81989 10260875
65.604828 -37.776726 -160.66191 10326668
65.672012 -36.916813 -161.05156 10655889
66.540329 -36.770905 -160.75659 10392204
65.867386 -36.046474 -161.31476 10129545
66.639977 -36.04565 -161.00157 10786703
67.441376 -35.838154 -160.75803 9010550
66.616409 -35.091038 -161.38675 11312532
67.515701 -34.955788 -161.07507 10589067
66.896896 -34.1763 -161.6329 10457481
67.618027 -34.009689 -161.40584 9865601
68.357681 -33.899059 -161.14922 10852496
67.817291 -33.134731 -161.66922 9010550
68.429451 -32.926506 -161.50279 10261132
68.631073 -31.952286 -161.80428 9537409
68.858994 -31.255302 -161.98601 8089963
-128.51375 -58.223335 -119.25978 9208435
-127.95911 -58.166531 -119.60805 9208435
-127.21864 -58.090935 -120.06918 8156009
-126.4771 -58.01543 -120.52627 8089963
-124.10616 -57.866604 -120.29082 9406591
-123.14413 -57.754608 -120.80515 9011833
-122.56668 -57.687607 -121.11074 10459279
-122.18147 -57.643066 -121.31302 10262156
-121.60342 -57.576408 -121.61444 6644314
-119.26277 -57.419113 -121.3132 7234396
-118.3078 -57.309711 -121.80016 8681584
-117.36101 -57.205017 -122.28955 9340286
-116.62372 -57.131496 -122.69856 9340286
-114.36397 -56.989887 -122.3816 7762277
-113.45241 -56.901363 -122.87985 8879734
-112.53959 -56.812962 -123.37241 8089963
-111.80826 -56.742477 -123.76196 9735299
-109.96896 -56.641418 -123.22081 11379607
-109.42458 -56.589184 -123.50526 9735297
-108.51623 -56.502274 -123.97446 8617074
-107.6067 -56.415638 -124.43809 8090987
-106.87827 -56.34642 -124.8045 15195086
-104.55293 -56.199249 -124.50728 8090987
-103.64829 -56.114048 -124.94818 9800581
-102.74262 -56.029026 -125.38363 9011064
-101.8349 -55.943748 -125.81152 6510930
-101.10387 -55.873425 -126.14491 8484461
-99.19339 -55.761093 -125.62102 8088931
-98.64859 -55.708641 -125.86208 11379348
-97.740105 -55.621445 -126.25931 8417896
-96.830948 -55.534431 -126.65097 8616048
-95.921036 -55.447708 -127.03654 8221547
-95.010468 -55.361233 -127.41673 7564135
-92.800758 -55.219147 -126.99748 9472899
-91.849487 -55.105701 -127.29569 7301726
-90.891853 -54.988655 -127.57899 6511954
-89.934738 -54.871929 -127.85571 7563619
-88.97818 -54.755501 -128.12679 10261385
-88.40448 -54.685837 -128.28651 7563619
-87.831108 -54.616276 -128.44373 6840663
-87.06691 -54.52367 -128.65019 7235165
-86.112206 -54.408298 -128.90251 7432288
-85.158188 -54.293201 -129.14932 8353902
-84.204994 -54.178532 -129.38976 7432287
-83.062088 -54.041298 -129.67058 8353642
-82.110596 -53.927372 -129.89838 9800833
-81.159996 -53.813816 -130.11975 9077882
-80.210251 -53.700584 -130.33571 8814454
-79.261444 -53.587704 -130.54536 7828582
-78.313522 -53.475208 -130.74962 8288876
-77.366661 -53.363037 -130.94775 10720651
-76.231773 -53.228931 -131.1781 8616560
-75.287186 -53.117611 -131.36397 9538177
-74.343727 -53.006615 -131.54372 9998728
-73.401291 -52.896015 -131.71819 9933193
-72.467957 -52.791435 -131.90074 7499625
-71.53788 -52.688911 -132.08224 9011834
-70.98027 -52.627495 -132.18845 10984593
-70.422958 -52.566273 -132.29239 8813428
-69.494965 -52.464363 -132.46123 8748148
-68.382614 -52.342575 -132.65671 11050643
-67.456802 -52.24147 -132.81366 10129798
-66.532059 -52.140697 -132.96478 9208435
-65.423798 -52.020176 -133.13922 9998465
-64.501434 -51.920101 -133.27869 8682867
-63.580276 -51.820389 -133.41241 7959144
-62.476448 -51.701149 -133.56598 9340797
-60.39727 -51.431206 -134.97179 10261899
-59.658501 -51.352104 -135.05679 11380380
-58.736256 -51.253521 -135.15871 9801348
-57.815369 -51.155403 -135.25513 8287853
-56.712135 -51.038094 -135.36395 8879737
-55.79435 -50.940704 -135.44919 7564651
-55.213753 -50.854763 -135.42455 7564651
-51.685928 -50.341957 -136.49767 13156527
-51.008999 -50.161465 -136.19728 13156527
-47.898804 -49.75547 -137.32996 9603458
-46.886215 -49.557167 -137.07275 10985367
-45.874683 -49.527542 -137.33202 9406076
-44.828011 -49.46104 -137.48134 9603194
-42.871841 -49.272457 -138.76544 7762796
-42.142132 -49.196735 -138.76103 7762796
-41.229561 -49.099705 -138.74341 9340027
-40.134182 -48.980198 -138.70578 9866371
-39.221294 -48.878025 -138.66081 9143162
-36.057976 -48.696457 -140.19978 9670020
-35.32906 -48.617661 -140.14928 8814969
-34.78331 -48.558701 -140.10924 8813686
-34.238396 -48.499733 -140.06715 8418928
-33.332104 -48.401779 -139.99287 9208444
-32.17804 -48.280865 -141.11214 9537665
-31.450855 -48.202175 -141.03961 9867144
-30.362778 -48.084465 -140.92516 7630953
-29.458672 -47.986607 -140.82434 8813680
-28.273567 -47.862152 -141.90506 7892581
-27.367617 -47.764076 -141.78726 8748917
-26.283859 -47.646748 -141.63959 8419952
-24.529221 -47.460548 -142.60747 9537665
-23.626591 -47.362675 -142.4642 9406076
-22.726524 -47.26511 -142.31645 8616815
-21.487776 -47.134739 -143.33293 9800832
-20.586826 -47.037025 -143.16838 9011576
-19.688589 -46.939644 -142.99939 9208955
-18.425985 -46.806553 -143.98772 10129286
-17.52726 -46.709003 -143.80193 9142387
-16.631422 -46.611752 -143.61183 9076853
-15.525127 -46.495594 -144.61255 8813939
-14.807714 -46.417751 -144.44815 8616563
-13.913589 -46.320606 -144.23891 10853012
-12.606392 -46.182571 -145.17456 8287859
-11.712555 -46.085419 -144.94879 9274750
-10.999649 -46.007927 -144.76524 9208443
-10.028572 -45.906403 -145.77078 15658211
-8.9583664 -45.790047 -145.4778 10460816
-7.6114407 -45.647598 -146.3716 11378583
-7.0767326 -45.589375 -146.21552 11378583
-6.5430527 -45.531345 -146.05807 11378583
-6.0108376 -45.473419 -145.89888 12167842
-4.9994164 -45.367458 -146.87592 12959412
-3.9343107 -45.251484 -146.54065 16117989
-2.7267969 -45.124107 -147.4501 10129798
-2.0172422 -45.046799 -147.21426 11050642
-1.3097093 -44.96973 -146.97627 8090992
-0.083263159 -44.84029 -147.86557 7564647
0.8002398 -44.743984 -147.55284 10787215
2.0444529 -44.612564 -148.42924 11906725
2.5744746 -44.55479 -148.23303 10261644
3.1028178 -44.497116 -148.03534 8616563
4.717186 -44.325291 -148.75891 5920082
5.4204903 -44.247597 -148.47974 9538694
6.8716316 -44.065254 -149.15872 10524559
7.5727005 -43.985874 -148.86157 13023917
8.6919937 -43.862865 -149.74922 8485489
9.5675545 -43.765858 -149.37074 10261132
10.703484 -43.64093 -150.24977 12169898
11.402969 -43.563442 -149.93578 10525588
11.92585 -43.505463 -149.6989 9736329
12.904686 -43.397999 -150.64568 8092011
13.602066 -43.320702 -150.31972 9538686
14.771061 -43.192142 -151.18048 6972762
15.641121 -43.095699 -150.75909 7827045
16.826908 -42.965279 -151.61069 8813939
17.521515 -42.88829 -151.26237 11248021
18.723316 -42.756077 -152.10675 9537918
19.416805 -42.679218 -151.74757 9538945
20.638279 -42.552464 -152.61075 10263180
21.335972 -42.486401 -152.27895 9538690
22.031445 -42.420437 -151.94504 10984593
23.288883 -42.323746 -152.90813 8089963
23.984154 -42.257637 -152.56245 7958634
25.435352 -42.142605 -153.43159 7235170
26.129379 -42.076412 -153.0733 9405307
27.600937 -41.959435 -153.93207 9537659
28.293507 -41.8932 -153.56113 9735555
29.612171 -41.790791 -154.50468 8617331
30.301575 -41.721176 -154.10963 8617331
31.792011 -41.572262 -154.8445 9736836
32.468784 -41.488941 -154.38623 9736836
33.973686 -41.3353 -155.09734 7564386
36.000717 -41.117229 -155.44441 8353905
38.042522 -40.89711 -155.77115 12432045
39.765049 -40.716614 -156.32977 12432294
41.504711 -40.534069 -156.87927 9735046
42.00388 -40.471657 -156.49246 9735046
43.26099 -40.349533 -157.41949 8090736
43.759064 -40.287102 -157.02438 10787987
45.696312 -40.079666 -157.41228 10657167
47.177139 -39.950745 -158.27019 11578017
47.674549 -39.89085 -157.86728 9407620
49.73719 -39.753056 -158.5204 10263180
51.824314 -39.612701 -159.16095 13024949
52.316788 -39.552094 -158.73552 8682867
53.935661 -39.4697 -159.78862 9209467
54.426105 -39.408821 -159.3521 9802371
56.559673 -39.262833 -159.95555 9801859
58.718296 -39.114223 -160.54591 9735555
59.202782 -39.052719 -160.08661 11906725
60.901695 -38.962891 -161.12268 8090987
61.383678 -38.901073 -160.65224 8222573
62.474907 -38.656235 -161.1938 10786960
62.627819 -38.305088 -161.59229 10654857
63.46743 -37.953678 -161.46425 10063492
64.287209 -37.701794 -161.28096 9997959
63.606071 -37.088615 -161.82231 10654857
64.404793 -36.878662 -161.58081 9472128
65.011322 -36.669811 -161.41681 8682867
64.515114 -36.049809 -161.8622 8353647
65.28788 -36.0476 -161.5495 8222316
64.791313 -35.426769 -161.99529 7037274
65.420502 -35.061832 -161.88359 8156011
66.175125 -34.731525 -161.70734 11247251
65.622871 -34.039459 -162.2038 8814196
66.343498 -33.968826 -161.9391 10063492
66.954132 -33.760033 -161.77348 9010550
66.394066 -32.986759 -162.30505 10590348
67.354683 -32.866673 -161.96249 9274491
67.212097 -31.882614 -162.40755 9866369
68.131012 -31.812695 -162.06213 9405819
67.493408 -31.25507 -162.54027 10128771
68.207062 -31.010691 -162.39272 9800320
68.94371 -30.848082 -162.1877 8682867
68.47393 -30.454103 -162.70433 10851980
69.083977 -30.060759 -162.79308 10129029
-129.23584 -58.193573 -120.49809 8287592
-128.30083 -58.098183 -121.07859 7827298
-125.92035 -57.959007 -120.86666 9142907
-125.34665 -57.895187 -121.18886 10261643
-124.37463 -57.782207 -121.70639 9011833
-123.5966 -57.692127 -122.11626 10459279
-123.20739 -57.647186 -122.3195 10459279
-121.02515 -57.509758 -121.91389 6644314
-120.44664 -57.44339 -122.21087 8748148
-119.48569 -57.334789 -122.70448 10128516
-118.55166 -57.2397 -123.22058 9208440
-116.25639 -57.095688 -122.90319 10261132
-115.52097 -57.024002 -123.30909 9406335
-114.60052 -56.934631 -123.81161 7104859
-113.67865 -56.845482 -124.30751 7629667
-111.25931 -56.689644 -124.05162 13023917
-110.70976 -56.636955 -124.33894 12168866
-109.79292 -56.549225 -124.8129 8617074
-108.87489 -56.461697 -125.28123 8090987
-108.32347 -56.409294 -125.55925 8090987
-106.33137 -56.294613 -125.077 16775143
-105.78415 -56.24295 -125.34705 10985620
-104.87118 -56.156937 -125.79243 8814198
-103.95718 -56.071125 -126.23214 9603202
-103.04214 -55.985588 -126.66559 6510930
-100.55453 -55.820328 -126.39128 6510930
-99.821564 -55.749691 -126.71653 7826274
-99.08815 -55.679195 -127.03806 8615275
-98.537849 -55.626431 -127.27687 9141875
-97.987114 -55.573814 -127.51332 9141875
-97.068909 -55.486275 -127.90274 8616048
-96.333923 -55.416443 -128.21043 8616048
-94.099304 -55.274982 -127.79081 7959408
-93.005226 -55.17189 -128.23225 10525841
-92.072159 -55.074005 -128.56549 11512735
-91.104889 -54.956051 -128.84473 8485745
-90.13813 -54.838375 -129.11821 8879734
-89.171997 -54.721066 -129.38512 13880252
-88.206528 -54.60413 -129.6463 6511954
-87.241806 -54.487553 -129.90099 7432544
-86.277718 -54.371288 -130.14996 7037274
-85.314491 -54.255356 -130.3924 7366495
-84.351959 -54.139824 -130.62932 9011315
-83.390366 -54.024685 -130.85985 5393730
-82.429619 -53.909824 -131.08481 7103322
-81.469803 -53.795364 -131.30333 7629667
-80.510895 -53.68124 -131.51643 9604481
-79.553017 -53.567524 -131.72319 10327946
-78.596077 -53.454136 -131.92455 8288876
-77.640289 -53.341145 -132.11967 11378324
-76.494736 -53.206089 -132.34636 8550510
-75.541245 -53.093887 -132.52919 6643541
-74.589035 -52.982113 -132.70584 6841176
-73.639526 -52.871815 -132.88007 7103323
-72.699493 -52.767879 -133.0631 8551025
-71.760849 -52.664543 -133.2417 9077625
-71.198105 -52.602707 -133.34615 8485232
-70.635841 -52.540932 -133.44827 8090474
-69.699379 -52.438354 -133.61414 8419183
-68.763962 -52.336155 -133.77477 9406332
-67.829681 -52.234219 -133.92949 8814195
-66.709991 -52.112358 -134.10802 9208435
-65.778046 -52.011158 -134.25092 9208435
-64.847443 -51.910355 -134.388 8880246
-63.732208 -51.78981 -134.54553 7959144
-62.804184 -51.689751 -134.67107 8090987
-62.247894 -51.629837 -134.74371 10590606
-61.692184 -51.570065 -134.81432 15721430
-60.95192 -51.490623 -134.90552 11708830
-59.031906 -51.238659 -136.26849 8222060
-57.917301 -51.120007 -136.38086 7432800
-56.990005 -51.02153 -136.46887 9011060
-56.064281 -50.923412 -136.55124 8681835
-54.955353 -50.806213 -136.6434 9142388
-54.032875 -50.708885 -136.71466 8945783
-53.296131 -50.631336 -136.76788 8814966
-52.744099 -50.573277 -136.80569 9735812
-52.37648 -50.534698 -136.82977 9735812
-50.952324 -50.340096 -138.0303 9208435
-50.214005 -50.263062 -138.06633 9208696
-49.025879 -50.06424 -137.88371 9735043
-46.068886 -49.68383 -138.99162 10458761
-45.244278 -49.512043 -138.73473 9998209
-44.147774 -49.401077 -138.75278 10327176
-43.418915 -49.328316 -138.76372 9933193
-39.539684 -49.072632 -140.39326 9932418
-38.436806 -48.953484 -140.34044 7564650
-37.337105 -48.834702 -140.27992 9735300
-36.605564 -48.755619 -140.23557 12432037
-35.286366 -48.616928 -141.38203 7039331
-34.369446 -48.517834 -141.30869 8813686
-33.454704 -48.418915 -141.2305 9537409
-32.724617 -48.339951 -141.16402 9537409
-31.373318 -48.197651 -142.26723 8089963
-30.641407 -48.11845 -142.18707 8287597
-29.546425 -47.999939 -142.06107 8748145
-28.818335 -47.921162 -141.97337 8813680
-27.436581 -47.775463 -143.03218 9143675
-26.525158 -47.67672 -142.90471 8814710
-25.797699 -47.597889 -142.79964 8090987
-25.43475 -47.558601 -142.74574 8090987
-25.072247 -47.519321 -142.69107 9537665
-23.844116 -47.390198 -143.73781 9735041
-22.754211 -47.272041 -143.55489 11313812
-22.02977 -47.193485 -143.42946 9208435
-20.777004 -47.061584 -144.44812 9998728
-19.689411 -46.943634 -144.23958 9603714
-18.966585 -46.865211 -144.09692 10853012
-17.87101 -46.750263 -145.12581 8879732
-16.966335 -46.652069 -144.93193 8287592
-16.24464 -46.573734 -144.77388 7564643
-15.884554 -46.534615 -144.69359 7564643
-14.946018 -46.436691 -145.74016 8616563
-13.863501 -46.319176 -145.48286 8682616
-13.144308 -46.241016 -145.30791 9537667
-12.003067 -46.121033 -146.29161 9538950
-11.103592 -46.023289 -146.0575 9538950
-9.7633095 -45.881584 -146.98 14077885
-9.0440178 -45.803391 -146.77977 10196616
-8.147625 -45.705921 -146.52597 9736836
-6.9659367 -45.581429 -147.4744 8089963
-6.249052 -45.503414 -147.259 10786703
-5.5339413 -45.425598 -147.04124 11709089
-4.1535034 -45.279469 -147.9131 11709089
-3.2606828 -45.182251 -147.62498 12169639
-2.0403535 -45.053463 -148.5392 10129798
-1.3267248 -44.97575 -148.29636 9077626
-0.26267219 -44.861919 -148.59396 9209727
0.80247521 -44.74791 -148.8815 10393999
1.5131915 -44.670444 -148.62413 11906725
2.5927088 -44.557045 -149.57237 7038298
2.9484828 -44.518253 -149.43837 8616563
3.657696 -44.440865 -149.16829 8024942
4.7552223 -44.325428 -150.10631 13157306
5.4641571 -44.244442 -149.8131 9472644
6.5492096 -44.106171 -149.99062 8419702
7.6359253 -43.979866 -150.19881 8880249
9.4727707 -43.777328 -150.79369 10788243
10.17717 -43.699253 -150.48383 12959666
11.149071 -43.592529 -151.45081 9736326
11.677647 -43.533943 -151.2108 11380639
12.204475 -43.475605 -150.96941 9736329
13.369537 -43.347481 -151.84758 10261895
14.071659 -43.269619 -151.51506 9538686
15.603924 -43.100819 -152.21484 11709084
16.303791 -43.023289 -151.87032 8813939
17.50219 -42.891445 -152.72995 8682867
18.201042 -42.813953 -152.37457 10261641
19.415844 -42.68037 -153.22696 11051928
20.113869 -42.603966 -152.86406 9539459
21.539806 -42.489811 -153.76219 9537150
22.241314 -42.423233 -153.42235 8550513
24.214142 -42.258862 -154.05266 10325894
24.913204 -42.192326 -153.69879 9405307
26.381805 -42.075779 -154.57495 9669503
27.079453 -42.00922 -154.20845 9537659
28.219395 -41.924141 -155.26289 9867139
28.916931 -41.857418 -154.8848 9077624
30.94101 -41.676991 -155.41496 11183256
32.957085 -41.460785 -155.79988 14408395
34.988121 -41.242573 -156.16472 7168860
36.865002 -41.04335 -156.6317 11050903
38.758423 -40.841957 -157.08434 10590606
40.835499 -40.61763 -157.39372 10590351
42.593143 -40.433102 -157.94514 7564392
44.70145 -40.204643 -158.2191 7763051
46.510067 -40.030895 -158.80569 11643553
48.742775 -39.873859 -159.34677 10197132
50.667007 -39.75457 -160.15015 10263180
51.164391 -39.693707 -159.72685 11644064
53.442646 -39.53088 -160.22409 9209467
55.580002 -39.385616 -160.84955 9144446
57.579273 -39.258335 -161.61455 9735555
58.068935 -39.196533 -161.15704 8682867
59.46735 -39.03828 -161.99721 9340539
60.252514 -38.932579 -161.74228 8682867
61.192413 -38.702991 -161.89505 10590347
61.316738 -38.224251 -162.22905 9668990
62.159168 -37.80162 -162.11067 10851980
62.973743 -37.505177 -161.91502 9931646
62.354462 -36.929665 -162.39276 10326148
63.192146 -36.814682 -162.09807 9931646
62.3624 -36.26712 -162.65025 9931646
63.162346 -36.055519 -162.40892 9537401
63.935463 -36.05191 -162.09662 9735812
63.275799 -35.183811 -162.7059 8485231
64.127365 -34.962055 -162.4476 8419696
64.902161 -34.595833 -162.27727 7893096
64.281334 -34.015846 -162.75743 7695717
65.124077 -33.902027 -162.46024 8156267
64.291481 -33.349773 -163.01552 7893096
65.124306 -32.930023 -162.84264 9603455
65.930328 -32.719475 -162.59842 9932419
65.384079 -31.955511 -163.12068 10853521
66.126602 -31.842297 -162.86392 9932419
66.16861 -31.053452 -163.19588 9537919
67.093521 -30.984118 -162.86053 9537661
67.132965 -30.356165 -163.33028 8814453
68.042679 -29.949295 -163.31953 9471612
68.919662 -29.670446 -163.22195 10128771
69.279106 -29.37561 -164.07544 9143419
69.672646 -29.375523 -163.91383 9143419
-130.53342 -58.221062 -121.40261 7300958
-129.77794 -58.144005 -121.87093 9470843
-127.55168 -58.022118 -121.53819 7696228
-126.60354 -57.922676 -122.09721 10985620
-125.62498 -57.810246 -122.62218 10459278
-125.03532 -57.741932 -122.93208 8485494
-122.62325 -57.579872 -122.62231 9340799
-121.64944 -57.468109 -123.12196 7695205
-120.69972 -57.368408 -123.64079 8089963
-120.13928 -57.313351 -123.95907 9735299
-117.6249 -57.149132 -123.73898 7695716
-116.69675 -57.058647 -124.25154 8353645
-115.76706 -56.968487 -124.75748 8485744
-115.02242 -56.896507 -125.15817 10591115
-112.75547 -56.756474 -124.79765 8880246
-112.20091 -56.703281 -125.08879 9735297
-111.64594 -56.65004 -125.37753 9736064
-110.90527 -56.579224 -125.75925 9736064
-110.16376 -56.508606 -126.13708 9736064
-107.7717 -56.357037 -125.83499 7301470
-107.03535 -56.287399 -126.19928 6511954
-106.11382 -56.200565 -126.64915 7432542
-105.19138 -56.11396 -127.09341 11641496
-104.6374 -56.06213 -127.35707 12431013
-102.12271 -55.898388 -127.08936 8484461
-101.19825 -55.809223 -127.5016 7367264
-100.08789 -55.702541 -127.98877 7959144
-99.161835 -55.613895 -128.38826 8288109
-98.420509 -55.543175 -128.70355 8288109
-95.966217 -55.381561 -128.36287 7563619
-95.230598 -55.311951 -128.66446 8354163
-94.310501 -55.225163 -129.03676 10723219
-93.389923 -55.138653 -129.40297 11381405
-92.468864 -55.052425 -129.76375 11512735
-91.513733 -54.946495 -130.07104 11906723
-90.537094 -54.8279 -130.34196 8879734
-89.561195 -54.709679 -130.60632 12959151
-88.585892 -54.591755 -130.86484 7235165
-87.611496 -54.474255 -131.1169 6709333
-75.605255 -53.047222 -133.74466 5920074
-74.836555 -52.957195 -133.8828 5920074
-73.881332 -52.848248 -134.05936 8353647
-72.933098 -52.743843 -134.24031 9406590
-72.175186 -52.6605 -134.38147 8485232
-71.607178 -52.598209 -134.48453 8814453
-70.850418 -52.515308 -134.61896 9209467
-69.905533 -52.411972 -134.78175 7827303
-68.961609 -52.308907 -134.93933 9274237
-68.018898 -52.206303 -135.09082 9339772
-66.889175 -52.083553 -135.26562 8615534
-65.949043 -51.981659 -135.40538 8615534
-65.010117 -51.880157 -135.5392 7959144
-63.885071 -51.758755 -135.69286 7433056
-62.94891 -51.657997 -135.81506 9340796
-62.014145 -51.557564 -135.93147 14866122
-60.894154 -51.437546 -136.06424 8748917
-59.962296 -51.337917 -136.1692 8090987
-58.206688 -51.103947 -137.50317 8945527
-57.27129 -51.004757 -137.58829 7564127
-56.150833 -50.886173 -137.68375 9734523
-55.218761 -50.787823 -137.75769 9734523
-54.288418 -50.6898 -137.82608 9142392
-53.174072 -50.572697 -137.90144 8747891
-52.247112 -50.47554 -137.95874 10788497
-51.506859 -50.398026 -138.00075 9999494
-50.437454 -50.24054 -139.18112 8682099
-49.508217 -50.143913 -139.21893 8484720
-48.395412 -50.028458 -139.25789 8287085
-47.28524 -49.913563 -139.28966 11445918
-46.522335 -49.811722 -139.23567 12433069
-44.353188 -49.592224 -140.53165 9208435
-43.609211 -49.511974 -140.51987 9407106
-42.495411 -49.391758 -140.49591 7499625
-41.38451 -49.271801 -140.46394 8090987
-40.461002 -49.172119 -140.43143 8090987
-38.792286 -48.995796 -141.61151 8879733
-37.681622 -48.875854 -141.5473 6971996
-36.574265 -48.756145 -141.47542 8814969
-35.837738 -48.676506 -141.42348 7039331
-34.502029 -48.536098 -142.56978 9537409
-33.763302 -48.456177 -142.504 9537409
-32.842178 -48.356548 -142.41685 9735044
-31.923351 -48.257156 -142.32487 10985367
-30.55559 -48.113136 -143.42744 6511954
-29.819052 -48.033405 -143.33948 6511954
-28.717251 -47.914143 -143.20184 9406334
-27.984667 -47.834785 -143.10632 9734788
-26.954123 -47.72715 -144.21753 9734788
-26.03615 -47.627682 -144.08228 9603202
-24.938103 -47.508747 -143.91357 9735044
-23.697786 -47.378284 -144.9709 9208435
-22.964968 -47.298843 -144.8446 11708313
-21.868847 -47.179993 -144.64987 12037794
-20.237909 -47.007118 -145.60738 8024682
-19.142977 -46.888298 -145.38907 8551028
-18.415325 -46.809341 -145.23987 10261132
-17.12484 -46.673283 -146.2348 9998214
-16.396351 -46.594166 -146.07315 12432037
-15.851475 -46.535023 -145.94968 10063235
-14.357637 -46.376823 -146.87895 11576990
-13.268139 -46.25848 -146.61163 7038307
-12.239691 -46.148758 -146.99657 9275266
-11.209089 -46.038799 -147.37137 8881277
-10.304411 -45.94046 -147.12804 8091503
-9.1309929 -45.816971 -148.10349 12235684
-8.4072018 -45.738197 -147.89638 11380119
-7.5053482 -45.640064 -147.63397 9734782
-6.3107929 -45.514301 -148.58783 9340023
-5.2295036 -45.396599 -148.25351 9208443
-4.1962147 -45.288303 -149.25134 9208443
-3.4753854 -45.209763 -149.01633 9340284
-2.5773828 -45.111973 -148.71939 8682867
-1.5235536 -45.001411 -149.70088 10722193
-0.62593818 -44.903587 -149.38898 10393743
0.80495095 -44.751911 -150.23279 9933193
1.5217249 -44.673756 -149.97029 7959656
2.2364695 -44.595837 -149.70569 7038298
3.3283961 -44.481068 -150.66051 7697002
4.2214088 -44.383682 -150.31534 12038825
5.5095711 -44.245476 -151.18375 15197142
6.2205315 -44.151878 -150.84126 8748665
7.5224113 -43.993401 -151.63445 7827819
8.4113884 -43.894913 -151.25438 8617331
9.5545044 -43.769207 -152.16353 11380124
10.264732 -43.690548 -151.84802 9736326
12.133865 -43.484409 -152.42393 14670027
12.841129 -43.40604 -152.09554 15723486
14.195705 -43.256939 -152.89723 12432553
14.901222 -43.178707 -152.55708 14604230
16.095974 -43.047287 -153.43445 10261383
16.800571 -42.969193 -153.08324 8748403
18.18779 -42.81649 -153.86301 9735297
18.890804 -42.738506 -153.50044 10065033
20.128323 -42.623566 -154.43405 10065033
20.658772 -42.573311 -154.1833 10065033
21.187897 -42.523151 -153.93114 10065033
22.984524 -42.375813 -154.66612 10064262
24.978127 -42.209656 -155.30092 7958634
25.681335 -42.142643 -154.93916 7958634
27.167355 -42.024738 -155.82538 9867139
27.694107 -41.974396 -155.54475 9669503
29.200485 -41.854599 -156.42299 11905951
29.901688 -41.787388 -156.03629 8682867
31.932674 -41.587116 -156.4989 12104614
33.625725 -41.411015 -157.11963 13485754
34.308983 -41.326626 -156.64308 8484976
35.67709 -41.190609 -157.48787 7300961
37.743679 -40.968147 -157.83568 10655888
39.486755 -40.785824 -158.41869 9472640
40.16325 -40.701458 -157.90706 10261641
41.585003 -40.559235 -158.73128 6643546
43.69828 -40.330524 -159.02315 7565418
45.502769 -40.151447 -159.6055 10788502
47.571724 -40.015408 -160.3058 10459279
48.075233 -39.954601 -159.89557 10459279
50.167091 -39.815598 -160.5724 10263180
52.45018 -39.653442 -161.09236 9209467
52.947659 -39.59206 -160.65872 10459278
54.591503 -39.508976 -161.74013 8092019
54.922131 -39.467777 -161.44382 11380380
57.087036 -39.32045 -162.07112 9735039
58.372883 -39.08691 -162.61197 10853262
59.011864 -38.90052 -162.56058 8682608
59.864956 -38.725544 -162.48396 8090987
59.390591 -38.352169 -163.00188 7367005
60.097519 -37.99295 -162.8644 6840920
60.948002 -37.683823 -162.66678 9471868
60.351707 -36.903 -163.21602 6643539
61.124229 -36.896732 -162.90497 8682094
61.923012 -36.684044 -162.66454 9208435
61.091156 -36.137794 -163.21704 7300956
61.930367 -36.021278 -162.92235 8945264
61.307293 -35.445095 -163.40198 6511954
62.0798 -35.076542 -163.23347 7563871
62.816525 -34.743362 -163.06557 8682095
62.267746 -33.984432 -163.58693 6511954
63.044422 -33.979969 -163.27348 8747892
63.848206 -33.768013 -163.03069 7037274
63.096325 -33.077423 -163.60762 8945528
63.972973 -32.815144 -163.35507 8616563
63.287125 -32.1031 -163.91359 8089963
64.010536 -31.9326 -163.68706 10656658
64.752968 -31.818214 -163.43079 10261899
64.072403 -31.127905 -164.00406 9143163
64.996994 -31.05661 -163.66989 10064520
65.053711 -30.328133 -164.19901 9143675
66.012756 -30.176052 -163.94258 9275261
66.924492 -29.769609 -163.94179 8682867
67.898361 -29.376764 -164.63963 8682867
68.687325 -29.37594 -164.31783 10851980
70.304405 -29.188047 -165.40366 8090987
-131.66154 -58.229568 -122.43962 9669251
-129.21065 -58.08638 -122.21965 11378324
-128.64275 -58.028854 -122.56572 9470843
-127.88205 -57.951077 -123.02132 8090987
-127.09416 -57.861706 -123.44772 16775143
-124.64214 -57.69659 -123.13721 8485494
-124.24883 -57.651245 -123.34136 8485494
-123.6586 -57.583424 -123.64545 8813944
-122.88533 -57.499668 -124.06157 9668995
-122.13144 -57.425461 -124.49364 9142651
-119.5781 -57.258438 -124.27477 9735299
-118.82909 -57.185215 -124.69231 7037274
-118.07922 -57.112186 -125.10587 9471355
-117.14052 -57.021091 -125.61691 7366495
-114.64975 -56.860489 -125.35693 10591115
-114.09038 -56.806648 -125.65305 8880246
-113.15704 -56.717072 -126.1416 9143417
-112.22246 -56.627682 -126.62441 12959663
-111.66118 -56.574127 -126.91107 16249822
-109.60717 -56.455746 -126.41792 7761509
-109.05018 -56.402935 -126.69643 6511954
-108.12086 -56.315105 -127.15564 7301214
-107.19054 -56.227451 -127.6092 7958629
-106.44557 -56.157547 -127.96754 10851980
-104.08299 -56.010342 -127.61833 9931652
-103.34293 -55.941273 -127.96301 8352878
-102.4109 -55.851849 -128.38075 7104092
-101.47705 -55.762058 -128.79158 6972506
-100.72942 -55.690445 -129.11571 6972250
-100.16843 -55.636772 -129.35641 7366751
-99.794327 -55.601089 -129.51564 7366751
-97.864212 -55.490253 -128.93768 9010547
-97.307693 -55.43737 -129.16937 7761250
-96.379761 -55.34956 -129.55093 7235935
-95.451294 -55.261963 -129.92697 9999499
-94.522202 -55.174652 -130.29677 9276034
-93.592697 -55.087616 -130.66116 10459793
-92.84874 -55.018154 -130.94826 10459793
-86.637741 -54.357033 -131.36311 8090474
-85.664932 -54.2402 -131.60289 8090474
-84.69294 -54.123783 -131.83698 9011315
-83.721916 -54.007652 -132.06467 5985610
-82.751694 -53.891899 -132.2867 6643285
-81.782593 -53.776608 -132.50238 9406847
-81.007919 -53.684547 -132.6711 9735812
-80.620934 -53.63863 -132.75395 7039322
-79.847374 -53.546989 -132.91634 8683634
-78.688248 -53.409966 -133.15334 8880500
-77.723541 -53.296173 -133.34456 10457479
-76.760071 -53.182777 -133.52971 8156265
-75.989967 -53.092354 -133.67395 5920074
-69.922684 -52.364307 -135.99574 8813942
-69.160797 -52.281334 -136.11865 9734788
-68.209618 -52.17794 -136.26701 9208443
-67.259537 -52.074913 -136.41017 8878963
-66.310791 -51.972179 -136.54739 8155498
-65.173935 -51.849438 -136.70494 7564650
-64.227921 -51.747528 -136.83031 7038307
-63.472111 -51.666267 -136.92656 10261131
-62.905838 -51.60548 -136.99657 10853012
-62.151657 -51.524632 -137.08643 8880246
-61.210045 -51.423874 -137.19437 8090987
-60.26992 -51.323498 -137.29659 9143675
-59.143688 -51.203499 -137.41241 10985110
-56.614025 -50.888134 -138.80087 9734523
-55.485603 -50.769161 -138.88683 9536889
-54.547012 -50.67041 -138.9529 8089963
-53.984596 -50.611332 -138.98999 9142392
-53.42292 -50.552448 -139.02509 9142392
-52.488152 -50.454582 -139.07932 9210491
-51.368576 -50.337616 -139.13782 9210491
-49.539192 -50.100971 -140.35229 8089963
-48.604095 -50.004059 -140.3815 8681843
-47.671432 -49.908085 -140.40672 11313559
-46.562443 -49.801647 -140.45367 13551034
-45.641655 -49.715012 -140.49217 13024949
-44.905071 -49.644772 -140.51598 9800830
-42.883934 -49.430096 -141.75575 7960175
-41.769329 -49.317329 -141.74448 8222574
-40.650372 -49.19651 -141.70114 9537918
-39.72015 -49.096058 -141.65923 10195334
-37.845222 -48.897472 -142.82387 7958890
-36.913593 -48.79678 -142.76006 7367007
-35.798622 -48.676277 -142.67664 7695972
-35.05703 -48.596085 -142.61707 10261132
-33.704697 -48.453854 -143.76314 9143166
-32.961094 -48.373367 -143.68953 9142907
-32.033951 -48.273132 -143.59273 9537665
-31.109192 -48.172993 -143.49095 8089963
-29.910418 -48.047295 -144.6162 7564642
-28.983686 -47.94693 -144.49701 8682867
-27.875048 -47.8269 -144.34753 8485749
-26.093189 -47.637833 -145.35829 8616822
-25.169706 -47.537815 -145.21306 9340287
-24.248928 -47.438042 -145.06316 10261132
-22.994352 -47.306061 -146.12315 10261385
-22.072639 -47.206085 -145.95589 10590347
-21.153635 -47.106449 -145.78421 10327693
-19.322058 -46.911766 -146.7027 7564389
-18.221207 -46.792294 -146.47217 9472130
-16.734306 -46.634949 -147.43567 10524555
-16.1838 -46.575199 -147.31009 8682867
-15.451828 -46.495667 -147.13974 11182228
-14.126385 -46.355839 -148.12041 10985364
-13.393894 -46.276257 -147.93729 8551027
-12.481079 -46.17704 -147.70479 9538950
-11.316246 -46.054508 -148.70732 9538950
-10.585737 -45.975121 -148.5087 7894381
-9.6755199 -45.876152 -148.25674 8682867
-8.3065796 -45.731422 -149.18483 10064260
-7.3973007 -45.632496 -148.91599 11182744
-5.6454887 -45.446037 -149.71239 10392969
-4.7385406 -45.347324 -149.42554 6511954
-3.5120447 -45.218018 -150.37259 8090987
-2.7870233 -45.139084 -150.13052 8288109
-2.063976 -45.060287 -149.88612 8682867
-0.63684058 -44.909081 -150.74928 8946556
0.26549935 -44.810749 -150.4277 9933193
1.5308459 -44.677135 -151.33954 9933702
2.2516367 -44.598499 -151.06967 7959656
4.0750542 -44.404057 -151.7596 10985881
4.9730263 -44.306049 -151.40509 13880000
6.2726593 -44.149914 -152.22165 11841443
6.9874458 -44.05584 -151.8714 7564651
8.3044052 -43.907749 -152.70969 7565159
9.0197258 -43.828495 -152.39838 10525071
10.354191 -43.68158 -153.2357 9736326
11.068027 -43.602543 -152.91255 10788756
12.240864 -43.473522 -153.82146 15723486
12.95401 -43.394535 -153.48717 12630448
13.664806 -43.31575 -153.15102 10261132
14.855839 -43.184746 -154.04378 9143422
15.565742 -43.106117 -153.69649 11709084
16.773441 -42.973248 -154.58224 9735297
17.482269 -42.894634 -154.22386 11905951
18.88485 -42.742161 -155.01703 9077882
19.59618 -42.673927 -154.68338 11051928
21.036098 -42.560753 -155.6156 13024949
21.746933 -42.493282 -155.27242 10459278
23.740555 -42.327454 -155.92801 10985620
24.448872 -42.260044 -155.57066 9736070
25.931812 -42.142719 -156.47484 9735299
26.638844 -42.075241 -156.10466 9537659
27.788937 -41.989689 -157.189 9867139
28.495918 -41.922043 -156.80693 11182485
30.549355 -41.749332 -157.39709 8682867
31.245708 -41.671757 -156.96292 8682867
32.422188 -41.559578 -157.95 9801347
32.939518 -41.495735 -157.59485 15722454
34.650005 -41.31778 -158.2179 11117466
36.549728 -41.116421 -158.70821 9208958
37.063026 -41.052696 -158.33488 9208958
38.465603 -40.912971 -159.1837 8814456
40.398502 -40.707401 -159.64467 9143675
40.908588 -40.643719 -159.25389 7038298
42.517387 -40.478516 -159.95767 8879990
43.025063 -40.414921 -159.55771 9735046
44.316929 -40.292717 -160.53317 8618105
44.826824 -40.232071 -160.13644 11906725
46.388653 -40.157661 -161.25911 9735812
46.89703 -40.096653 -160.85118 10788244
49.329029 -39.917595 -161.27397 10064520
51.280926 -39.797203 -162.10056 9210491
51.783443 -39.735474 -161.66914 9209979
53.92675 -39.591602 -162.33173 11512223
56.08532 -39.437191 -162.94965 11380380
56.923378 -39.224251 -163.05949 10129540
57.790905 -38.902111 -163.20326 12563366
58.532291 -38.748455 -163.06345 10853262
58.132389 -38.234661 -163.59261 11576728
58.878109 -37.898621 -163.41864 9603195
59.502495 -37.531273 -163.31334 8813936
58.998852 -36.915958 -163.75989 9142901
59.77203 -36.908276 -163.44919 7695969
59.268055 -36.292061 -163.89612 7367005
59.874115 -36.079132 -163.73405 6643539
60.67429 -35.864811 -163.49362 6511954
60.030735 -35.123554 -164.04649 6380368
60.861069 -35.033455 -163.74496 8418924
61.412075 -34.613968 -163.68645 6511954
60.786083 -34.03669 -164.16765 8221545
61.685001 -33.988316 -163.82188 9273719
61.206551 -33.159069 -164.34235 9010547
61.89262 -33.005302 -164.12447 10260358
62.566151 -32.663574 -163.98566 8748149
62.005085 -31.971426 -164.48566 10129800
62.851532 -31.85483 -164.188 8484721
62.723064 -31.107584 -164.56404 9406078
63.577526 -30.994537 -164.28239 8418928
63.188976 -30.467607 -164.84242 9142907
63.830669 -30.267275 -164.7466 8617075
64.583153 -29.938581 -164.73842 8748917
65.582031 -29.675739 -164.57875 9143675
66.121201 -29.380199 -165.35945 11380380
66.713669 -29.378822 -165.12027 9472126
67.306076 -29.377642 -164.88037 8682867
68.71785 -29.191235 -166.06775 7565675
69.51181 -29.189646 -165.73729 7697003
-130.89798 -58.151897 -122.91058 9537151
-129.94215 -58.055046 -123.49329 8352877
-128.98282 -57.957596 -124.06801 11971488
-126.49846 -57.792793 -123.76048 13880253
-125.90244 -57.724072 -124.07072 8485494
-125.11287 -57.63509 -124.48618 8485494
-124.15875 -57.539726 -125.03275 8090221
-121.56534 -57.369801 -124.81506 7563619
-120.99872 -57.314281 -125.13405 7563619
-120.05302 -57.221943 -125.66045 8945527
-119.10606 -57.129799 -126.18105 8616304
-116.20056 -56.930218 -126.12213 11248787
-115.25918 -56.839603 -126.62064 10722445
-114.31656 -56.749168 -127.11333 11379607
-113.75047 -56.694962 -127.40599 9735297
-111.09935 -56.520718 -127.19536 12960175
-110.3497 -56.449638 -127.57107 8748658
-109.41156 -56.360966 -128.03494 7301214
-108.47239 -56.272491 -128.49304 9011320
-107.9084 -56.21946 -128.76506 10851980
-105.88634 -56.10516 -128.23386 9405304
