# .PCD v0.7 - Point Cloud Data file format
VERSION 0.7
FIELDS x y z rgb
SIZE 4 4 4 4
TYPE F F F U
COUNT 1 1 1 1
WIDTH 1198
HEIGHT 1
VIEWPOINT 0 0 0 1 0 0 0
POINTS 1198
DATA ascii
-167.8799 -18.764458 85.620399 9538948
-168.34732 -18.68067 84.890533 8287598
-168.80843 -18.688477 84.105972 7563876
-169.30933 -18.828058 83.159935 8024683
-169.69661 -19.161974 82.266899 8089963
-166.82976 -17.289083 88.449677 10262414
-167.18648 -17.476324 87.713051 9802376
-167.61613 -17.813278 86.746193 9407105
-168.18941 -17.673014 85.877968 7235424
-168.71916 -17.543928 85.075523 7959405
-168.9912 -17.777302 84.449127 7564648
-166.94765 -16.523623 88.682121 9735813
-167.5132 -16.611006 87.779724 8024938
-168.09163 -16.61853 86.797417 10261132
-168.48015 -16.853251 85.973488 7037274
-166.53679 -15.582499 89.492584 9274490
-167.33633 -15.647473 88.817635 8682867
-167.73537 -15.925989 87.894669 8090474
-168.19887 -15.931737 87.107925 10261132
-166.34731 -14.661735 90.423668 10129285
-166.95187 -14.841526 89.886757 9537662
-162.21927 -13.250935 102.72368 9340286
-162.89661 -13.557897 102.16676 8419697
-165.81883 -14.063189 92.301819 7563618
-166.41525 -14.086698 91.848557 8682867
-162.46446 -12.554751 102.87686 9603458
-163.24553 -12.817692 102.27471 8091248
-161.92908 -11.596177 103.63168 8945786
-162.57568 -11.616909 103.21973 9143422
-162.18556 -10.614863 103.90318 9932679
-162.60518 -10.910544 103.51173 9143422
-161.60231 -9.6239376 104.70199 8813942
-162.26688 -9.799098 104.21103 10064265
-161.26343 -8.5141249 105.40089 8813939
-161.82889 -8.7638092 104.93885 9077370
-162.39529 -9.0143976 104.47591 10064265
-161.39037 -7.7289529 105.66683 8222058
-162.05586 -7.9013128 105.17652 8222060
-161.05022 -6.6171689 106.36724 8813939
-161.61636 -6.8648038 105.9054 7301214
-162.18361 -7.1133413 105.44276 8090730
-160.67198 -5.187572 107.22859 7958888
-161.15758 -5.6697559 106.71461 8288109
-161.7245 -5.9168253 106.25266 6511954
-160.79675 -4.3967957 107.49654 9405822
-161.46292 -4.5642538 107.00745 9603457
-160.45358 -3.2815058 108.1986 10853012
-161.0208 -3.5256906 107.73769 10129289
-161.58891 -3.7706783 107.27589 9405822
-160.47943 -2.5658288 108.49541 6840919
-161.12794 -2.5711553 108.08829 7235421
-160.15369 -1.6076154 109.11781 9735558
-160.8022 -1.6114161 108.71133 8682867
-159.81183 -0.40901268 110.01238 7038307
-160.31969 -0.65031159 109.51127 11183258
-160.82814 -0.89236206 109.00967 11906725
-159.61559 0.55317241 111.01154 8814971
-160.09691 0.31197637 110.49117 8420726
-160.57823 0.070029289 109.97016 7565675
-155.99059 1.5729436 122.74279 8814715
-156.65416 1.5738983 122.35169 8814715
-158.91252 1.0416808 113.09545 12169380
-159.56442 1.0420835 112.69382 7894382
-155.60269 2.5563824 123.34759 8089963
-156.06961 2.2626884 122.98553 7695721
-155.60408 3.2964289 123.65199 7827049
-156.23627 3.0529852 123.23734 7038307
-155.28981 4.5299721 124.3168 10590356
-155.64526 4.1618257 123.98831 8156273
-155.29105 5.2735457 124.62275 11511457
-155.9239 5.031877 124.2085 10590356
-154.89684 6.262166 125.2263 9143681
-155.50354 6.1870065 124.8937 9077632
-154.97714 7.2591448 125.59737 8354166
-155.61075 7.0190749 125.18337 7564651
-154.58234 8.2511168 126.20258 10788247
-154.97801 8.0078726 125.90572 9143681
-154.34552 8.9969683 126.62783 11380121
-188.26314 -34.751408 25.794752 7039322
-188.63719 -34.801796 25.036818 8815477
-188.9879 -34.848522 24.273645 10657681
-189.23573 -34.874569 23.379885 9013119
-189.47784 -34.80386 22.530138 9802121
-189.75879 -34.690365 21.591005 8355191
-190.0481 -34.602161 20.581446 9472639
-190.39241 -34.520828 19.344297 9209467
-190.55753 -34.539402 18.666086 11379865
-187.54449 -33.70768 27.998297 8682867
-187.8839 -33.988194 27.125238 12300967
-188.45915 -33.82465 26.150042 11248536
-188.94728 -33.792953 25.238188 9275517
-189.41574 -33.709965 24.326624 9933191
-189.65317 -33.733284 23.429483 9736580
-189.87364 -33.754311 22.5291 10789268
-190.09404 -33.776093 21.6276 9276287
-190.31444 -33.798649 20.724939 9011835
-190.58994 -33.827927 19.594961 8814712
-190.86551 -33.85833 18.463179 8092019
-191.08592 -33.883492 17.55625 8486519
-191.30641 -33.909458 16.648024 8683125
-191.61171 -33.706429 15.745043 9340539
-191.83249 -33.733791 14.833708 8419695
-186.93176 -32.686657 29.978691 8681835
-187.27104 -32.963593 29.109377 9471351
-187.77051 -32.882343 28.215345 9603710
-188.21126 -32.841766 27.401793 11905952
-188.65312 -32.801697 26.585348 10853521
-189.20367 -32.775936 25.548857 9143675
-189.67294 -33.025517 24.358503 9933191
-189.90413 -33.047287 23.45928 12960437
-190.20889 -32.838879 22.567316 11907749
-190.42987 -32.860168 21.664236 8749685
-190.65085 -32.882175 20.760031 10261903
-190.87184 -32.904919 19.854673 8419959
-191.10904 -32.977936 18.810373 8354166
-191.4081 -32.915333 17.723665 8616824
-191.64548 -32.990299 16.676035 10130057
-191.86655 -33.016418 15.764845 10064519
-192.0878 -33.043274 14.852301 8156779
-192.3945 -32.840237 13.944098 7037530
-192.61606 -32.868382 13.0282 8484975
-192.8609 -32.803436 12.158644 9340028
-193.16144 -32.746708 11.057413 7630179
-193.50909 -32.502396 10.048887 8682612
-193.78711 -32.541256 8.8943653 9866374
-186.10703 -31.650276 32.377823 8090987
-186.40338 -31.840096 31.659634 8090987
-186.76408 -31.959503 30.873598 9341054
-187.26241 -31.875254 29.983963 9602937
-187.70218 -31.831928 29.174398 8945007
-188.14326 -31.789034 28.362062 8682094
-188.58093 -31.778011 27.531103 9406333
-188.88109 -31.972857 26.801695 8682867
-190.95877 -32.199223 20.559923 10985625
-191.12486 -32.216045 19.879812 8814460
-191.34631 -32.239113 18.972055 7827823
-191.66882 -32.082386 17.932573 8419702
-192.0233 -31.913704 16.784662 9340543
-192.2921 -31.864212 15.797888 8880246
-192.51414 -31.890192 14.883333 7235421
-192.82178 -31.685972 13.973158 8024422
-193.04419 -31.71323 13.055281 8353130
-193.26668 -31.741245 12.135824 8484461
-193.48938 -31.770035 11.214815 7431775
-193.71207 -31.799526 10.292223 7826533
-193.95116 -31.880854 9.2283955 9668993
-194.25349 -31.825335 8.118063 9537407
-194.49298 -31.908625 7.0496655 9602685
-194.7269 -31.861052 6.1975994 10523016
-195.02744 -31.742054 5.1888638 8550256
-195.19547 -31.767513 4.4881573 8089963
-185.08859 -30.61249 35.422153 8089963
-185.39392 -30.643122 34.786964 8682867
-185.74832 -30.833206 33.851864 9011831
-186.12311 -30.99637 32.933575 9011832
-186.75198 -30.785469 32.025486 9866628
-187.20647 -30.834745 31.099279 9932934
-187.54199 -31.025961 30.150749 9208179
-188.05356 -30.925726 29.2274 9471351
-193.07866 -30.992023 13.990625 7761250
-193.30162 -31.018812 13.071535 7761250
-193.52455 -31.046303 12.150919 8155753
-193.74774 -31.074543 11.228697 8616048
-194.12013 -30.880919 10.312426 8616048
-194.33875 -30.909613 9.3859997 9077368
-194.5574 -30.938961 8.4578457 9077368
-194.78285 -31.018869 7.387495 8879989
-195.09743 -30.965496 6.2707577 8090987
-195.323 -31.047295 5.1956615 8222317
-195.69673 -30.856342 4.2625294 9208955
-195.91396 -30.88909 3.3236754 9340542
-196.17104 -30.829525 2.4304144 9932419
-196.47221 -30.72773 1.4407293 11642266
-196.68561 -30.761723 0.49532902 10326664
-197.07552 -30.574848 -0.45277584 8681843
-197.28799 -30.609873 -1.4031466 8681843
-197.36488 -30.623785 -2.1164415 9537409
-183.51874 -29.557793 40.184769 10064267
-183.82321 -29.584764 39.556236 9603459
-184.22958 -29.62126 38.716621 6708566
-184.64568 -29.841143 37.552898 8879734
-185.08052 -29.927673 36.575485 8747892
-185.48819 -29.966881 35.728935 9471359
-185.89638 -30.006792 34.880215 7827814
-186.30515 -30.047455 34.029198 8485231
-186.54558 -30.301786 33.146122 10458250
-195.47142 -30.332952 6.6115513 8617331
-195.6855 -30.362957 5.6757374 9735812
-195.84608 -30.385958 4.9727573 8419440
-196.5179 -29.990316 3.5692809 9340798
-196.67882 -30.014126 2.8617308 10261129
-196.94699 -30.05472 1.6802236 9932163
-197.21519 -30.096331 0.49570668 10786956
-197.53006 -29.978989 -0.37535274 8879471
-197.63808 -30.16423 -1.4063014 8287592
-174.91388 -28.458853 66.803864 8814200
-175.1796 -28.700911 66.181831 8945786
-175.72572 -28.685213 65.278366 8222065
-176.24188 -28.805048 64.313919 9734273
-176.44748 -28.972878 63.284405 7564135
-176.75027 -28.974655 62.434093 8813942
-177.04903 -28.976431 61.582306 8156012
-177.41634 -28.978647 60.515556 8419695
-177.77782 -28.980856 59.446686 10261132
-178.06207 -28.98262 58.590008 9734529
-178.34233 -28.984381 57.731911 10261132
-178.61836 -28.986141 56.872551 9208182
-178.95735 -28.988335 55.796368 10788245
-179.29041 -28.990522 54.718292 14605528
-179.55188 -28.99227 53.854389 16776695
-179.80928 -28.994015 52.989258 16776175
-180.12495 -28.996191 51.905968 13880771
-180.43448 -28.998358 50.820965 9077114
-180.67726 -29.00009 49.951641 10064265
-180.91577 -29.001818 49.081074 9340798
-181.19041 -29.009977 48.220058 7959144
-181.64453 -29.038738 47.171982 7893351
-182.09747 -29.068174 46.121666 9340027
-182.45888 -29.092312 45.279446 9340027
-182.81847 -29.116753 44.435307 7300958
-183.17595 -29.141495 43.58923 7367263
-183.5322 -29.166639 42.741383 8288365
-183.97633 -29.198849 41.679028 9209472
-184.33073 -29.225092 40.827312 7565675
-174.30806 -27.516703 68.501221 12432039
-174.63803 -27.684662 67.823502 9998215
-175.03227 -27.780289 67.089149 9077371
-175.49097 -27.803774 66.297607 9077371
-176.07391 -27.835455 65.309517 9405566
-176.52832 -28.096773 64.513557 8616566
-173.92957 -26.587784 69.804916 9142648
-174.31075 -26.83296 68.985649 10787215
-174.88411 -26.859812 67.998039 9603199
-175.34348 -26.881996 67.206581 9077371
-175.80336 -26.904835 66.413765 10392713
-176.18529 -27.153372 65.590904 11115664
-173.32042 -25.650723 71.504051 7564651
-173.65121 -25.816189 70.826828 10064268
-174.0461 -25.908936 70.093636 9603458
-174.70712 -25.766558 69.079414 10326921
-175.21869 -25.823948 68.174629 10458250
-175.59097 -26.055052 67.3806 8353907
-172.74757 -24.262232 73.464828 16774119
-173.10725 -24.639896 72.587296 14076864
-173.51282 -24.746592 71.826042 7564651
-173.97241 -24.764774 71.03701 7959408
-174.43246 -24.783493 70.246872 8353649
-174.80281 -24.951605 69.501221 10195335
-172.35149 -23.488976 74.687141 7565675
-172.86218 -23.582384 73.757912 11774623
-173.43718 -23.602751 72.772522 11379865
-173.89761 -23.619659 71.982956 9998474
-174.29427 -23.71096 71.247925 9801097
-174.62686 -23.876535 70.567757 5920074
-171.74898 -22.406523 76.479134 8092019
-172.13286 -22.646126 75.6595 12432552
-172.59293 -22.660707 74.872253 9736070
-173.16861 -22.679619 73.886726 9077369
-173.74481 -22.699341 72.899712 7366495
-174.01367 -22.937756 72.275131 9866630
-171.24719 -21.480259 77.989426 8684155
-171.51663 -21.715698 77.366005 10657430
-171.97707 -21.728775 76.579262 9012605
-172.43777 -21.742357 75.791611 12958638
-172.9834 -21.713316 74.891121 9077368
-173.3989 -22.00124 73.983566 8879734
-170.74367 -20.554888 79.502052 11709857
-171.24405 -20.795578 78.48484 8946297
-171.82033 -20.810669 77.50106 9011574
-172.28166 -20.823299 76.713005 9603710
-172.74339 -20.836435 75.924026 11642522
-173.01321 -21.073427 75.298813 11182228
-170.23833 -19.630014 81.017235 12432037
-170.57246 -19.789648 80.338776 10261130
-170.97023 -19.874962 79.606087 11576987
-171.54726 -19.888876 78.621826 9603455
-172.12471 -19.903488 77.636429 9340538
-172.51059 -20.142857 76.813499 9143160
-169.65031 -18.246466 83.00042 8089963
-170.01534 -18.61939 82.117134 8550257
-170.42421 -18.719101 81.355461 8879222
-170.88644 -18.7288 80.568062 9143422
-171.41664 -18.797817 79.62339 10327436
-171.90292 -19.057577 78.61631 9932418
-172.23776 -19.218723 77.935638 10458505
-169.33461 -17.439421 84.111122 8354163
-169.79117 -17.607679 83.219872 7827305
-170.33849 -17.571789 82.321426 9273979
-170.80162 -17.580622 81.533142 10457996
-171.20102 -17.665144 80.798164 9143422
-168.62921 -16.396671 86.048576 7037274
-169.01784 -16.631794 85.224113 8354163
-169.59705 -16.640823 84.239685 9209214
-170.1765 -16.650429 83.254356 8616820
-170.57652 -16.734095 82.519211 9668481
-170.91264 -16.893543 81.837418 12826029
-168.10475 -15.479387 87.829575 8353646
-168.52263 -15.635008 86.932266 8418928
-168.9055 -15.715374 86.188072 9668995
-169.46437 -15.678051 85.293648 10261644
-169.88589 -15.842738 84.381424 9603971
-170.4028 -15.964243 83.363533 8616820
-167.6769 -14.569282 89.669899 9932932
-167.97958 -14.848727 88.950188 12169892
-168.55022 -14.810586 88.060814 9603712
-168.9268 -14.890212 87.310875 7695204
-169.33092 -15.045596 86.403648 10261132
-163.51352 -13.298557 101.89646 8089963
-164.08124 -13.555476 101.42989 8287342
-164.65002 -13.81335 100.96218 9011320
-166.81384 -14.102507 91.545341 9537662
-167.61311 -14.134466 90.93631 10720908
-163.6442 -12.517363 102.15833 9077372
-164.3129 -12.698371 101.66224 9011320
-163.22424 -11.637795 102.80658 8617335
-163.87508 -11.658962 102.39178 8354163
-163.33699 -10.696204 103.15009 7828076
-163.98886 -10.715748 102.73546 7039331
-162.89853 -9.658556 103.8793 9208700
-163.66737 -9.7583675 103.35651 8222578
-162.55916 -8.544838 104.58021 8813942
-163.12796 -8.7956047 104.11561 8814200
-163.69777 -9.047327 103.65006 7564651
-162.68814 -7.7570343 104.84593 8879995
-163.35765 -7.9302044 104.35255 7564651
-162.34659 -6.6412807 105.5475 8090730
-163.00885 -6.7487473 105.08714 7564651
-163.4866 -7.1395707 104.61791 7564651
-162.38643 -5.6216717 105.96858 6709333
-163.02632 -5.9388981 105.43038 7564651
-162.095 -4.4135404 106.67881 8616818
-162.76527 -4.5817084 106.18692 6511954
-162.20786 -3.4905872 107.01205 9603457
-162.89342 -3.7855022 106.4551 9735043
-161.73352 -2.4962673 107.74303 8222060
-162.39061 -2.7016156 107.243 8156267
-161.88754 -1.6177782 108.03105 7498849
-161.47444 -0.53408241 108.88021 9012089
-161.91457 -0.89682502 108.32951 6972762
-161.26613 0.43142921 109.87083 8618105
-161.66473 0.068167359 109.29066 8683381
-157.08661 1.5743996 122.08179 10261385
-157.73688 1.5751475 121.67595 9143417
-160.00029 1.0422828 112.42535 7894382
-160.65599 1.0426769 112.02158 9407364
-157.32079 2.3155749 122.26162 8879734
-156.80098 3.4270589 123.07043 7432291
-157.33795 3.0578856 122.5774 7563619
-156.24011 4.538579 123.84789 7038307
-156.97224 4.2466002 123.32505 7958636
-156.48051 5.2862535 124.03651 8814203
-155.92735 6.5246763 124.82227 10590356
-156.24406 6.0303769 124.46101 8814203
-189.75224 -32.557575 24.599955 11314588
-190.07156 -32.589367 23.4792 11907749
-188.84038 -31.491854 27.259001 10853521
-189.14108 -31.686768 26.528437 10129799
-189.5074 -31.810942 25.727629 7959401
-189.96513 -31.914595 24.719496 10130314
-190.30669 -31.852943 23.646528 9999752
-190.54474 -31.921749 22.605536 10262924
-190.76625 -31.942513 21.70093 9999240
-190.99741 -31.885561 20.873564 11446175
-191.29381 -31.756287 19.896593 8090995
-191.51553 -31.779005 18.988077 7564651
-192.18472 -31.371588 16.953394 9406590
-187.67418 -30.420189 30.789417 10062979
-187.98291 -30.453444 30.143293 10062979
-188.39502 -30.498432 29.279799 8155499
-188.64241 -30.759029 28.389124 8616303
-189.06427 -30.807291 27.522451 10392457
-189.48705 -30.856356 26.653063 9471869
-189.91078 -30.906147 25.780828 7564643
-190.32497 -30.955112 24.904497 7959401
-190.59419 -31.027452 23.867308 9275517
-190.90475 -30.9604 22.786482 8486516
-191.28212 -30.80785 21.757711 9472896
-191.50003 -30.827961 20.849051 10985366
-191.71783 -30.848709 19.939196 8354163
-191.93547 -30.870113 19.028173 9340289
-192.15297 -30.892233 18.115915 8682873
-192.40753 -30.823704 17.252188 8617079
-192.70399 -30.759716 16.156942 9077625
-193.02963 -30.700964 15.061575 7564385
-193.41248 -30.554367 14.014154 7761250
-193.62688 -30.579395 13.092844 9010547
-193.84113 -30.605078 12.170069 9405306
-194.05522 -30.631411 11.245871 7826533
-185.56465 -29.320875 37.832157 7563618
-185.82771 -29.342167 37.187359 10853012
-186.26604 -29.378424 36.110363 9405822
-186.70354 -29.415562 35.03067 8485232
-187.05264 -29.445778 34.164669 9932166
-187.14249 -29.676235 33.251232 9208697
-187.52153 -29.712757 32.387966 10524044
-187.90056 -29.74991 31.522509 9603455
-188.31714 -29.838734 30.521461 10325894
-188.88226 -29.805721 29.49408 9536893
-189.15166 -30.115191 28.464647 8616048
-189.5665 -30.161146 27.594419 7826533
-189.87805 -30.196114 26.94013 10260358
-192.78236 -30.013065 18.173887 9143166
-192.99844 -30.034939 17.257124 8617333
-193.21442 -30.057417 16.339106 10854036
-193.43013 -30.080545 15.419855 7959144
-193.77736 -29.959993 14.430449 7630178
-194.03006 -29.956806 13.447714 9207926
-194.35718 -29.899033 12.342371 8287083
-194.57065 -29.972706 11.274702 7826533
-194.78596 -29.9993 10.346479 10983823
-195.00099 -30.026489 9.416605 9997699
-195.21591 -30.054361 8.4851551 9077368
-195.60631 -29.960768 7.5112934 8748917
-196.12839 -29.690016 6.6328487 9143675
-196.32126 -29.716196 5.6932316 9406591
-196.5134 -29.742882 4.7520542 9077626
-196.76711 -29.696783 3.8891356 9011833
-197.11221 -29.581978 2.867449 11181460
-197.27782 -29.606537 1.920004 8682867
-197.4614 -29.634373 0.97101033 9274232
-197.62311 -29.659344 0.25823796 7367005
-177.0876 -28.601831 63.513233 7564135
-177.66653 -28.64776 62.757179 9471871
-178.24704 -28.694448 61.998589 10064265
-184.50763 -29.238417 40.400879 11379356
-184.77254 -29.258606 39.760143 10853012
-185.12512 -29.285957 38.904423 6708566
-185.38893 -29.306747 38.261387 7563618
-176.82935 -27.811941 64.301392 7893358
-177.3327 -27.927355 63.59977 8682358
-177.93307 -27.834803 62.897861 9537921
-178.26656 -28.232021 62.245121 11380380
-176.57314 -26.717247 65.299011 8748407
-177.16159 -26.758112 64.500481 7564136
-177.68024 -26.888853 63.770668 8617078
-175.54385 -25.289495 68.008217 12432039
-175.87604 -25.457537 67.326904 7367272
-176.19472 -25.778273 66.559296 9011578
-176.77591 -25.750614 65.62606 9406077
-177.49435 -25.702047 64.700203 7563619
-174.93292 -24.346823 69.714424 9142648
-175.26546 -24.513533 69.033646 14341836
-175.6626 -24.607079 68.296089 16777207
-176.12459 -24.627674 67.501328 7959663
-176.58716 -24.648817 66.705223 7630699
-177.11757 -24.721092 65.787292 8551283
-174.55113 -23.415688 71.025566 5920074
-174.9969 -23.616386 70.129211 6578263
-175.51268 -23.683142 69.210579 12105648
-175.9752 -23.702536 68.415749 15198175
-176.43829 -23.722433 67.619659 9867911
-176.82304 -23.969629 66.792984 9538947
-174.27048 -22.64168 72.053421 9866630
-174.66821 -22.732563 71.316864 8879991
-175.24622 -22.754446 70.325211 6446677
-175.82503 -22.777044 69.331856 7565675
-176.22374 -22.869884 68.592117 8552570
-176.55797 -23.037266 67.908066 10855060
-173.66811 -21.551939 73.850533 9143163
-174.05324 -21.793776 73.027206 7366495
-174.51572 -21.809589 72.235039 8682099
-174.97862 -21.825884 71.441719 7893352
-175.49594 -21.890747 70.521828 6249040
-175.94365 -22.091675 69.622101 10592409
-173.38264 -20.809515 74.863976 9997956
-173.89932 -20.871277 73.947441 8287597
-174.36234 -20.886044 73.154968 8748148
-174.82588 -20.901312 72.361488 9537665
-175.22516 -20.991549 71.622726 7235422
-175.55994 -21.156729 70.939133 5920074
-172.66348 -19.688442 76.880585 11511192
-173.12653 -19.700764 76.090004 9603711
-173.7058 -19.717052 75.100365 9603454
-174.2856 -19.734007 74.109291 10327436
-174.67227 -19.97608 73.283134 10261388
-174.94281 -20.214931 72.655312 10064265
-171.84804 -18.29146 79.257561 7564651
-172.18335 -18.452238 78.576271 9471868
-172.5601 -18.675592 77.78022 10458505
-172.96996 -18.777702 77.015106 10590347
-173.59593 -18.517956 76.144142 9209211
-174.0143 -18.805656 75.23185 10459278
-171.45677 -17.363991 80.581917 7564651
-171.84465 -17.60199 79.756706 7433064
-172.42477 -17.6147 78.768135 8551280
-172.88919 -17.625366 77.976349 8090987
-173.35402 -17.636387 77.18367 10590347
-173.74193 -17.876589 76.356621 9735555
-170.83194 -16.431976 82.304008 8089963
-171.1684 -16.591558 81.621834 13813437
-171.68494 -16.678194 80.687645 8682869
-172.26587 -16.689949 79.69838 7761253
-172.73093 -16.699745 78.906097 7564130
-173.1319 -16.785458 78.167702 8090987
-170.30809 -15.509701 84.079834 9931910
-170.65561 -15.515118 83.48629 9866374
-170.99315 -15.747394 82.633896 8089963
-171.45731 -15.755462 81.842201 10787731
-172.03783 -15.766018 80.851494 8682867
-172.49527 -16.002554 79.803093 7761253
-172.84465 -16.009626 79.208221 7037274
-169.28096 -14.594164 87.149239 7037274
-169.74667 -14.600157 86.357544 8092016
-170.07866 -14.875337 85.39595 10524304
-170.64388 -14.838348 84.499878 9208187
-171.10936 -14.845368 83.706902 11182233
-171.42322 -15.076612 82.840347 8089963
-171.88849 -15.084357 82.046631 8945528
-165.27351 -13.553741 100.68788 8814197
-165.95996 -13.86461 100.12368 7367007
-168.55096 -14.169548 90.136749 9932932
-169.03564 -14.175756 89.351936 11380380
-169.49968 -14.180604 88.555656 6973277
-169.96317 -14.185701 87.758598 9144702
-164.9494 -12.563243 101.32508 9932678
-165.62238 -12.745327 100.82589 9274748
-164.96478 -11.694736 101.69722 10261386
-164.59811 -10.654927 102.38264 7367528
-165.1255 -10.829236 101.97747 9406592
-164.75848 -9.7883749 102.66357 8288373
-164.25877 -8.7046757 103.45103 7564651
-164.78992 -9.0752678 102.95737 7564651
-163.75781 -7.6217413 104.23787 7564651
-164.44501 -7.922864 103.67715 8814458
-164.13582 -6.5385256 104.47559 10064266
-164.57913 -7.1618605 103.92623 13024433
-163.50896 -5.3896031 105.36936 7169890
-164.18291 -5.5598483 104.8742 8090994
-163.16541 -4.2678752 106.07435 6511954
-163.8537 -4.5644774 105.51502 9801606
-163.29434 -3.4701698 106.34275 6511954
-163.96924 -3.6376815 105.8482 9932934
-162.94987 -2.3461032 107.04937 7235421
-163.63921 -2.6403258 106.49043 7038298
-162.97841 -1.6242276 107.34731 6709334
-163.63576 -1.6281737 106.93523 6511954
-162.61349 -0.57795835 108.13671 6578004
-163.2482 -0.74119276 107.61709 6314832
-162.40146 0.39002919 109.12489 7301727
-163.01752 0.2276978 108.5924 5920074
-158.38878 1.575992 121.26915 8091242
-159.04257 1.5768317 120.86114 8091242
-161.31351 1.0430671 111.61663 9012606
-161.97339 1.043502 111.2104 8289140
-158.40735 2.3185582 121.58422 8617329
-158.98242 2.0720766 121.11652 8091242
-157.85095 3.3081305 122.36706 7563619
-191.41856 -30.353592 22.473043 10262415
-189.4971 -29.685101 28.515974 8616048
-190.22609 -29.540609 27.923841 7431775
-190.24821 -29.924248 26.680822 9274233
-190.57268 -30.039381 25.869257 7827815
-190.96443 -30.083302 24.986761 7564643
-191.35715 -29.980352 24.054537 9275777
-191.65085 -29.913082 23.201452 9144192
-192.05263 -29.715973 22.31204 8683126
-192.24239 -29.777439 21.256083 9537918
-192.5741 -29.714167 20.167112 7498851
-192.76195 -29.777088 19.108351 8090736
-193.14354 -29.578579 18.207155 8616823
-193.33755 -29.59668 17.286795 8617333
-193.55403 -29.61891 16.367155 9209467
-193.77042 -29.641741 15.44628 9209467
-193.93259 -29.659328 14.75469 8682867
-195.5219 -29.378084 11.565325 7564643
-195.6548 -29.393101 10.864222 9341054
-195.83089 -29.413504 9.9284458 8354159
-196.04916 -29.439682 8.7569027 9800577
-196.22261 -29.461102 7.8184986 8617331
-179.05817 -28.528067 61.074615 8616818
-179.78909 -28.588257 60.118626 9669251
-180.29892 -28.708744 59.40596 9142649
-185.63644 -29.017458 43.231575 8551540
-185.84264 -29.019184 42.3372 8157555
-186.04449 -29.020906 41.441936 10721683
-186.29053 -29.023052 40.321354 10458254
-186.53033 -29.02519 39.199474 9208187
-186.71704 -29.026897 38.300846 9208187
-186.90469 -29.029408 37.40247 10853012
-187.21956 -29.052238 36.528744 8682355
-187.65979 -29.088907 35.443451 7959144
-188.09879 -29.126217 34.355392 9932166
-188.44908 -29.156693 33.482616 8682867
-188.79868 -29.187622 32.607834 8682867
-189.14764 -29.219154 31.731001 8682867
-189.49658 -29.251287 30.852427 11378324
-189.84496 -29.283924 29.971565 8813171
-190.1926 -29.317114 29.088522 9536636
-194.93797 -29.316238 14.594694 8682867
-195.11905 -29.334692 13.663961 8682867
-195.29889 -29.353693 12.731874 8090987
-195.43292 -29.368206 12.032141 7564643
-197.48344 -29.1469 6.9160709 10984849
-197.61301 -29.163628 6.2062664 8090987
-197.74188 -29.180653 5.4957027 8089963
-178.30498 -27.306864 62.738728 10064265
-178.63936 -27.704163 62.084877 9208955
-179.39035 -27.623732 61.186069 7367269
-180.03973 -27.908945 60.201077 10064779
-178.05164 -26.359907 63.612713 9209467
-178.40662 -26.618046 63.014454 10261899
-178.99078 -26.661741 62.253105 9538432
-179.49982 -26.77799 61.543755 7564651
-177.79747 -25.414251 64.487061 7563619
-178.15265 -25.671013 63.889286 8353647
-178.73677 -25.712654 63.129181 9538432
-179.24588 -25.827063 62.420898 10130569
-177.54256 -24.469694 65.361702 7563619
-177.89789 -24.725176 64.764412 7563619
-178.48199 -24.764795 64.005539 8287598
-178.99113 -24.877434 63.298248 11577759
-176.98068 -23.516136 66.85157 9538947
-177.51154 -23.773167 65.834373 8221805
-178.22643 -23.818108 64.882187 8155755
-178.7356 -23.928968 64.175812 7563619
-176.48302 -22.573519 68.36644 7565675
-176.81763 -22.741005 67.681702 9143934
-177.21733 -22.834822 66.939598 7630699
-177.83546 -22.864971 65.952644 8946299
-178.47934 -22.98164 65.053696 9341571
-175.86797 -21.628428 70.081398 7565675
-176.2028 -21.794607 69.397194 10592409
-176.60265 -21.886925 68.65593 8090991
-177.06784 -21.905529 67.857239 9078143
-177.6194 -21.88195 66.942825 8419958
-177.93692 -22.174229 66.232758 9341316
-175.48378 -20.69348 71.399315 7893352
-176.00014 -20.788246 70.459755 7893611
-176.53041 -20.730391 69.605774 8879735
-176.99634 -20.747662 68.806656 8616563
-177.40787 -20.855873 68.034424 12499374
-177.77122 -21.240574 67.145538 8157043
-174.90517 -19.292149 73.379395 8681843
-175.26906 -19.672215 72.492981 10590350
-175.79631 -19.781511 71.524475 9603970
-176.38678 -19.708881 70.579475 9077884
-176.85872 -19.663536 69.81514 10261644
-177.19534 -19.829794 69.127808 8616563
-174.2852 -18.352093 75.099167 9735555
-174.67299 -18.593418 74.271606 9735043
-175.13853 -18.606817 73.475883 9537664
-175.60464 -18.62067 72.679077 8814712
-176.18791 -18.638594 71.68145 8223089
-176.57634 -18.882479 70.851036 8814969
-174.03233 -17.537842 76.108894 9735555
-174.51767 -17.665752 75.197891 8880503
-174.98384 -17.678204 74.401878 9405822
-175.45042 -17.691057 73.604828 10459022
-175.85246 -17.779665 72.862633 9406336
-176.18964 -17.944019 72.175713 8814969
-173.38977 -16.483381 77.948738 9340539
-173.66217 -16.720512 77.318947 9669247
-174.24493 -16.734303 76.325073 8419952
-174.82831 -16.748638 75.329819 9143675
-175.29553 -16.760567 74.532486 9405822
-175.56804 -16.999601 73.90136 10129801
-172.74194 -15.551686 79.916275 7366495
-173.16328 -15.712012 79.017632 9603454
-173.54886 -15.79604 78.269997 10590347
-174.10822 -15.762304 77.364769 8946038
-174.53714 -15.932208 76.451393 8288109
-175.06186 -16.059305 75.429024 10064263
-171.72672 -14.628916 82.986084 8945528
-172.2915 -14.751513 81.856834 8353391
-172.73964 -14.872636 80.925835 8617074
-173.20581 -14.881162 80.129509 7037274
-173.582 -14.964004 79.375557 9669760
-173.98444 -15.123507 78.465088 10590347
-174.33379 -15.130636 77.866249 10854036
-166.36501 -13.564095 100.00337 7893351
-167.07199 -13.783854 99.291733 8353903
-167.69556 -13.904645 98.165939 7894126
-170.31046 -14.189675 87.160362 8092016
-170.65735 -14.193851 86.561729 8092016
-171.11963 -14.199601 85.762711 7760741
-171.58141 -14.205603 84.962959 7760741
-172.04269 -14.211904 84.162361 9010808
-172.50368 -14.218457 83.360817 8089963
-166.02684 -12.443242 100.70667 13879741
-166.60202 -12.701507 100.2348 8090987
-167.1783 -12.960772 99.761925 8090987
-166.06035 -11.731033 100.99877 15063757
-166.72073 -11.753147 100.57774 10985364
-165.73811 -10.768723 101.62241 12695724
-166.39836 -10.789011 101.20222 12103588
-165.8553 -9.8188858 101.96679 10919571
-166.51631 -9.83745 101.54661 9209467
-165.41284 -8.773056 102.70117 8288373
-166.09024 -8.9495144 102.20115 8880250
-165.07045 -7.6502943 103.40598 12235175
-165.74091 -7.7604814 102.93924 9472643
-166.22351 -8.1550188 102.46542 7564651
-165.26216 -6.6008873 103.74525 10656400
-165.84552 -6.707911 103.33422 10130825
-164.82352 -5.4102888 104.53973 8090994
-165.50185 -5.5813446 104.04151 9209472
-164.47951 -4.2847223 105.24671 9143681
-165.05643 -4.5326819 104.77818 8354166
-165.63429 -4.7815452 104.30859 7564651
-164.61063 -3.4843202 105.51493 9077628
-165.28978 -3.6524756 105.01743 7564651
-164.26572 -2.3563502 106.22355 7235421
-164.84337 -2.6022849 105.75538 7564390
-165.42216 -2.8490739 105.28616 7564651
-164.29552 -1.6320757 106.52168 7761765
-164.95728 -1.6360823 106.10683 8814710
-163.92981 -0.58233607 107.31281 7301470
-164.56856 -0.74611324 106.79058 8617331
-163.71869 0.38885212 108.30206 6840151
-164.33823 0.22597869 107.76696 7169372
-163.07797 1.0442158 110.5304 9537921
-190.97206 -29.39361 27.093977 10063235
-191.40367 -29.437296 25.98118 9406331
-191.71503 -29.467712 25.084017 9406331
-191.86488 -29.478224 24.39934 7039331
-180.60677 -28.422934 59.185677 8089963
-180.96442 -28.687109 58.580441 8682099
-181.55466 -28.737759 57.807339 8089963
-181.99248 -28.880161 56.863312 10263184
-182.30069 -28.99291 55.637577 9736841
-182.5666 -28.994688 54.759125 9275778
-182.82823 -28.996462 53.87944 8092019
-183.08572 -28.998232 52.998501 9340799
-183.339 -28.999998 52.116344 8287853
-183.64928 -29.002201 51.011848 9997959
-183.95335 -29.004398 49.905651 9208435
-184.19171 -29.006151 49.019356 9208435
-184.42572 -29.0079 48.131908 9734783
-184.65553 -29.009647 47.243355 10261132
-184.93642 -29.011826 46.131031 12433071
-185.21123 -29.013996 45.017181 8092011
-185.42595 -29.01573 44.124859 6511954
-193.15524 -29.163948 23.382631 9472900
-193.34825 -29.178001 22.461889 8288624
-193.53995 -29.192503 21.540304 13287604
-193.73048 -29.207451 20.617586 10787984
-193.91966 -29.222904 19.693968 7564393
-194.10768 -29.238804 18.769278 9143166
-194.29431 -29.255205 17.843622 9143420
-194.52588 -29.276344 16.684782 10854035
-194.75565 -29.298185 15.524378 8946039
-196.85339 -29.082701 12.119421 7564643
-196.90935 -29.084318 11.171427 8156780
-196.97346 -29.086334 9.9861088 9341054
-197.09056 -29.098429 9.0408382 9341054
-197.26585 -29.119694 8.0973911 8090987
-197.39665 -29.135918 7.3889751 9537918
-180.207 -27.455372 60.25613 10722451
-180.71179 -27.72982 59.459583 8550771
-181.30194 -27.778193 58.68792 9143163
-181.81618 -27.899212 57.969383 8813942
-179.94682 -26.656704 61.051941 8354165
-180.45842 -26.774035 60.338829 10393487
-181.04846 -26.820229 59.568573 9406592
-181.55563 -27.095186 58.768673 9537921
-179.55225 -25.538542 62.204025 9209467
-180.05711 -25.808826 61.409832 9143677
-180.79417 -25.863789 60.44928 10064779
-181.15341 -26.125362 59.843578 10064779
-179.29718 -24.58798 63.082382 12104103
-179.65503 -24.846048 62.480484 9538432
-180.39168 -24.89817 61.522118 9537920
-180.89861 -25.168894 60.725067 10064779
-179.04146 -23.638617 63.96085 7565675
-179.39938 -23.895308 63.3596 10854295
-179.98834 -23.934889 62.594574 8092019
-180.50172 -24.047892 61.881748 12629159
-178.78496 -22.690247 64.839691 9341571
-179.22221 -22.810707 64.218315 8618105
-179.81522 -22.754858 63.504158 8881020
-180.24532 -23.094555 62.763386 9735814
-178.44322 -21.644743 65.88269 10327952
-178.96863 -21.768845 65.148224 10854295
-179.48409 -21.799732 64.480865 9801865
-180.00082 -21.831194 63.811749 8092019
-177.73802 -20.313055 67.86554 9341316
-178.12566 -20.659056 66.963387 7367271
-178.79312 -20.592464 66.058586 7696749
-179.30588 -20.699118 65.350357 9341571
-177.11966 -19.363943 69.589088 10261644
-177.4566 -19.530134 68.901192 9142907
-177.85912 -19.62196 68.155769 8222321
-178.44559 -19.643831 67.151566 7169635
-179.04703 -19.750143 66.23243 8090734
-176.83708 -18.582018 70.625793 8814969
-177.23969 -18.672495 69.881226 11906725
-177.70811 -18.688259 69.07914 9340030
-178.17703 -18.704475 68.275742 8616560
-178.70309 -18.769911 67.345001 8353131
-176.11281 -17.478264 72.638832 10129801
-176.56458 -17.676985 71.733696 8946300
-177.08742 -17.739264 70.806374 8222836
-177.5563 -17.753977 70.004189 10063753
-178.02577 -17.769096 69.200706 9405823
-178.41599 -18.014912 68.365929 7563619
-175.82817 -16.697268 73.678337 9801347
-176.31731 -16.741468 72.8209 10261640
-176.8483 -16.849325 71.847176 9143680
-177.40378 -16.818991 70.930977 8090995
-177.80804 -16.908689 70.184174 9208444
-178.14696 -17.074522 69.49337 8813686
-174.94862 -15.597865 76.129524 9011579
-175.2975 -15.605894 75.529655 10458507
-175.64642 -15.843831 74.679817 9274747
-176.11354 -15.855416 73.879181 9603711
-176.69804 -15.87043 72.876823 9669505
-177.207 -15.960976 71.92498 9538181
-177.52397 -16.12389 71.225609 8090995
-173.65411 -14.236018 81.353073 7893608
-174.11261 -14.243473 80.547783 7564643
-174.36086 -14.39007 79.561699 9603969
-174.66002 -14.466935 78.768517 10854036
-174.79976 -14.867208 77.468956 9735300
-175.3056 -14.923514 76.534683 9011579
-175.77284 -14.933825 75.733116 10458507
-176.14842 -15.018463 74.975166 8682869
-176.54868 -15.180206 74.06041 10590347
-167.67081 -13.456015 99.237404 8946296
-168.33554 -13.481817 98.812035 9736836
-168.16644 -13.906572 97.357422 9736836
-168.6335 -13.908499 96.5466 7432804
-169.09665 -13.910423 95.733604 7037274
-169.55582 -13.912397 94.918419 9405307
-170.011 -13.914268 94.100929 8484720
-172.84909 -14.223536 82.759232 8089963
-173.19418 -14.228765 82.156898 8418927
-167.34874 -12.490326 99.86248 8090987
-167.92763 -12.749849 99.387779 9867398
-168.50757 -13.010476 98.911949 7894126
-167.38356 -11.775469 100.15494 8946296
-168.04866 -11.797995 99.730736 13551549
-167.14583 -10.573182 100.83141 9209467
-167.57552 -10.87329 100.43182 8617331
-167.17955 -9.8561697 101.12467 9340797
-167.84476 -9.8750954 100.70117 9735299
-166.71774 -8.6461639 101.94215 8617074
-167.25511 -9.0194464 101.44347 9603713
-166.91156 -7.630671 102.26525 7629667
-167.55246 -8.1863117 101.62225 8090218
-166.59322 -6.4822268 102.96626 9406846
-167.259 -6.4948735 102.5451 8682867
-165.90817 -5.2671251 103.92522 9406846
-166.60449 -5.5673685 103.35932 10130825
-166.26689 -4.5010056 104.0364 9472640
-166.96454 -4.8006325 103.46992 10855060
-165.69652 -3.3350554 104.90231 9143681
-166.39378 -3.6327388 104.33694 8814714
-166.05534 -2.5643127 105.01546 8485747
-166.75398 -2.861459 104.44946 7762027
-165.39981 -1.6387564 105.82944 7038307
-166.06555 -1.6427723 105.41212 7367271
-165.05623 -0.42424089 106.73038 6511954
-165.68039 -0.71786487 106.11909 7827817
-164.86548 0.55034447 107.73405 7564642
-165.45441 0.25706744 107.0991 7959400
-164.18834 1.0449671 109.84708 7564130
-164.85756 1.0454308 109.43526 7037530
-182.52884 -28.587273 56.668537 10263184
-183.12408 -28.639515 55.888203 9736841
-183.72125 -28.692665 55.104984 11643296
-190.99043 -29.040697 33.223446 7564642
-191.10922 -29.041979 32.533489 7564642
-191.30156 -29.044107 31.382662 7826787
-191.48746 -29.046225 30.230749 6642515
-191.63094 -29.047915 29.308428 7103834
-191.77005 -29.049597 28.385416 8353130
-191.96536 -29.060495 27.470312 9274232
-192.31329 -29.0949 26.575949 9537918
-192.64534 -29.127596 25.677233 9274746
-192.86333 -29.143772 24.761862 7039331
-193.00977 -29.153734 24.072432 10262415
-196.56311 -29.075758 16.144861 16775663
-196.63884 -29.077398 15.198256 16777207
-196.70998 -29.079035 14.251303 9998985
-196.77644 -29.080669 13.303991 9011832
-196.82353 -29.081886 12.59326 9341054
-182.12711 -27.611744 57.746109 10262156
-182.63652 -27.889952 56.941566 10394770
-183.38184 -27.953672 55.965466 9210498
-183.74414 -28.221642 55.35218 10459537
-181.72495 -26.639168 58.822605 9537921
-182.23393 -26.914886 58.019993 10064521
-182.91069 -26.828341 57.218422 10789526
-183.34821 -27.084791 56.517002 10789527
-181.46347 -25.83626 59.622501 10196363
-181.97943 -25.954014 58.903564 9406336
-182.59608 -25.860498 58.181705 9538179
-182.93675 -26.264565 57.51582 10855060
-181.20824 -24.878851 60.505001 9537920
-181.80898 -24.765736 59.814705 8551028
-182.34062 -24.89896 59.066978 9735302
-180.96573 -23.610977 61.553459 8616306
-181.55278 -23.807579 60.698818 8879477
-182.15504 -23.692785 60.007473 9077114
-180.56712 -22.490854 62.711819 8618105
-181.23163 -22.611761 61.804028 10261641
-181.89793 -22.733809 60.893284 10129541
-179.87186 -21.355408 64.252876 9341571
-180.30946 -21.537647 63.59494 8092019
-180.93129 -21.606674 62.771252 8420726
-181.52681 -21.808104 61.903172 9932676
-179.61342 -20.404631 65.135498 9341571
-179.97398 -20.659056 64.532272 11775139
-180.56696 -20.693199 63.765499 9275263
-181.19395 -20.847471 62.885368 9340283
-179.35429 -19.454756 66.018532 9735812
-179.71506 -19.707979 65.415787 11906466
-180.30792 -19.740219 64.650177 13485240
-180.82483 -19.847019 63.93655 11708060
-179.09454 -18.505478 66.901894 8616301
-179.45546 -18.757675 66.299606 9472123
-180.04829 -18.788013 65.535225 10788243
-180.56516 -18.893167 64.822548 14077120
-178.57556 -17.554317 68.426132 7563619
-179.092 -17.805424 67.391083 8484716
-179.78798 -17.836529 66.420601 9472123
-180.30482 -17.940084 65.7089 9735812
-178.07086 -16.605967 69.957153 8813686
-178.41005 -16.771803 69.26577 8813686
-178.81535 -16.862278 68.516586 7695204
-179.41656 -16.882511 67.511337 8353130
-180.04398 -16.987667 66.595642 9208435
-177.51173 -15.661075 71.716454 10261902
-177.82776 -15.823859 71.015823 8748923
-178.22099 -15.912087 70.262482 9076858
-178.69064 -15.925685 69.455421 8813686
-179.27844 -15.943226 68.44474 8090218
-179.78577 -16.193098 67.401993 8089963
-175.36917 -14.26502 78.327217 9932678
-175.71144 -14.271302 77.720085 8287857
-176.16747 -14.279864 76.909782 9011579
-176.62312 -14.288726 76.098251 10458507
-176.89098 -14.439381 75.122643 9274747
-177.20061 -14.518929 74.332581 10919055
-177.29343 -14.969635 73.120659 10459020
-177.87924 -14.984302 72.11274 11380380
-178.34795 -14.996449 71.304863 9538177
-178.6543 -15.234244 70.431984 8748148
-179.00603 -15.243889 69.824837 10458505
-168.78001 -13.499156 98.527481 8815481
-169.44894 -13.525417 98.099159 7894126
-170.35002 -13.915708 93.486519 9340030
-170.68654 -13.917147 92.870659 9340030
-171.13199 -13.919065 92.047729 8024938
-171.57343 -13.920979 91.222748 8288881
-172.01091 -13.922894 90.395691 9012350
-172.44431 -13.924807 89.566521 9209467
-172.87379 -13.926718 88.735275 12104103
-169.08286 -12.672761 98.702019 8222832
-169.62277 -13.052681 98.198708 7038307
-168.49336 -11.813232 99.446983 13551549
-169.1626 -11.836168 99.019997 8156780
-168.6151 -10.858053 99.790337 8156268
-169.28459 -10.87914 99.363228 7761766
-168.28957 -9.8877811 100.41793 8419696
-168.95897 -9.9070158 99.991692 7169373
-167.91205 -8.43542 101.28878 11380380
-168.49539 -8.690484 100.81308 10261899
-168.99362 -9.1856565 100.28561 7169373
-168.03133 -7.4748836 101.6344 7695204
-168.70135 -7.4895678 101.20974 6510930
-167.70422 -6.5033584 102.26345 7300446
-168.37424 -6.5162654 101.83961 7169117
-167.23952 -5.2881155 103.08511 8682867
-167.8232 -5.5391431 102.61093 7564649
-168.40796 -5.7911744 102.13569 7038307
-167.37508 -4.4838538 103.35214 8354165
-168.06271 -4.6549644 102.84809 7367272
-167.02942 -3.349144 104.06418 7564651
-167.61392 -3.5979974 103.59048 7827823
-168.19955 -3.8478038 103.11572 8814715
-167.16487 -2.5413795 104.33292 8419957
-167.73268 -2.627202 103.94099 9406851
-166.73334 -1.6468426 104.99346 8090991
-167.40373 -1.6509691 104.57325 8683127
-166.38916 -0.42822349 105.89613 7038307
-166.91245 -0.67355925 105.38465 7367271
-167.43655 -0.91974705 104.87255 7038307
-166.19971 0.54976237 106.90116 8617331
-166.69299 0.304658 106.36987 6906716
-167.18626 0.058752567 105.83782 7564651
-165.52934 1.0459889 109.02203 6774102
-166.20308 1.0465425 108.60753 6511954
-184.42828 -28.598089 54.269875 12038053
-185.00865 -28.571457 53.55447 8157038
-185.53252 -28.698746 52.820087 10392717
-189.41992 -29.025599 41.238083 9210491
-189.61647 -29.027342 40.325573 9210491
-189.80858 -29.029079 39.412136 7565675
-189.99635 -29.030811 38.4977 8814712
-190.22467 -29.032976 37.353519 8419697
-190.44644 -29.035128 36.207962 8353134
-190.61874 -29.036848 35.29052 9011064
-190.78668 -29.038561 34.372292 8617331
-190.90987 -29.039845 33.683147 7564642
-196.16626 -29.068306 20.399633 8617078
-196.26241 -29.069969 19.454912 7827564
-196.35411 -29.07163 18.509687 8353392
-196.46196 -29.0737 17.327566 8747893
-184.13129 -27.687145 55.177731 11840675
-184.67239 -27.73398 54.468868 12695725
-185.27827 -27.723896 53.711567 9932936
-183.81984 -26.650925 56.177235 10262926
-184.49971 -26.628016 55.3344 9340798
-185.02344 -26.750946 54.602898 9998728
-182.98026 -25.324211 58.012104 9932681
-183.34352 -25.588276 57.399887 10855060
-184.09383 -25.64706 56.420437 9342081
-184.76016 -25.937454 55.411167 8353647
-182.72417 -24.361629 58.898731 9932681
-183.08757 -24.624176 58.287296 9669766
-183.68727 -24.668797 57.505699 10855060
-184.20996 -24.787275 56.778179 10460303
-182.46742 -23.400349 59.785469 9932681
-182.83087 -23.661465 59.174671 10129803
-183.43048 -23.703964 58.394623 9669766
-183.95309 -23.820393 57.668365 10460303
-182.21005 -22.440372 60.672207 9340027
-182.57352 -22.700134 60.062122 9143420
-183.173 -22.740429 59.283577 8354675
-183.69554 -22.855005 58.558578 9209214
-181.95189 -21.481586 61.559116 9011574
-182.31551 -21.740026 60.949738 10787211
-182.91492 -21.778244 60.17263 9274746
-183.43735 -21.890882 59.448864 8682867
-181.54396 -20.515196 62.639256 8156522
-182.05688 -20.781017 61.837463 8551280
-182.65616 -20.817207 61.06176 9471867
-183.17856 -20.92803 60.339207 8879989
-181.13541 -19.550703 63.718998 11708060
-181.64828 -19.814693 62.918438 10918801
-182.3968 -19.857246 61.951111 8748659
-182.76184 -20.114689 61.340458 8090987
-180.87546 -18.595922 64.60585 11906466
-181.23897 -18.850233 63.999111 7038298
-181.98701 -18.890171 63.033981 10918801
-182.50198 -19.154497 62.230698 14075837
-180.61494 -17.641834 65.493156 9735812
-180.97855 -17.894995 64.886971 10261899
-181.57657 -17.924974 64.116524 8748917
-182.09795 -18.030239 63.398373 8616817
-180.35382 -16.688351 66.380791 9735299
-180.71759 -16.940483 65.775124 9340798
-181.39615 -16.830612 64.985207 9471872
-181.83682 -17.07218 64.288826 9274749
-179.82779 -15.267267 68.405342 8090475
-180.16037 -15.508506 67.541107 8879735
-180.62152 -15.761269 66.724411 8945784
-181.0674 -16.013929 65.900574 8353646
-181.51347 -16.033575 65.321815 7761509
-177.87471 -14.314443 73.860825 9341054
-178.21567 -14.321832 73.249001 8880757
-178.66998 -14.331901 72.43219 10459017
-179.12421 -14.342272 71.613991 10459017
-179.27898 -14.568201 70.67701 8682867
-179.64087 -14.714073 69.772812 10787469
-179.89771 -14.923681 68.80307 8353903
-180.66737 -14.832502 67.729889 10854036
-170.1201 -13.551886 97.669472 7038307
-170.79395 -13.578711 97.237862 10261899
-173.19344 -13.928149 88.110481 10656657
-173.51048 -13.92958 87.484535 9472383
-173.92996 -13.931486 86.648071 7827302
-174.34529 -13.93339 85.809738 7366751
-174.75668 -13.935294 84.969269 8813683
-175.16403 -13.937194 84.126961 8813683
-175.66719 -13.939566 83.071144 8616561
-176.06573 -13.941462 82.224541 9012089
-170.2619 -12.756543 97.930702 8617331
-170.95322 -12.943039 97.418068 8748917
-169.83371 -11.859309 98.591469 8880503
-170.50748 -11.882683 98.160988 8617331
-169.95682 -10.900533 98.934273 8354159
-170.63124 -10.92203 98.503868 9735812
-169.71719 -9.687521 99.614403 7564131
-170.31189 -9.8012409 99.193443 8419696
-169.33896 -8.2291698 100.48836 7169373
-169.71889 -8.6410751 100.07093 7169372
-169.37416 -7.5044322 100.78327 6248785
-170.04904 -7.5194516 100.35542 6906968
-169.13268 -6.2887044 101.46572 9209729
-169.4527 -6.6584082 101.10427 7893869
-169.05009 -5.5110984 101.85732 11381151
-169.75629 -5.8146057 101.28378 7038307
-168.70065 -4.3401127 102.58758 7301479
-169.24582 -4.712338 102.0845 8617593
-168.84227 -3.5633249 102.83889 8420215
-169.5493 -3.8641338 102.26594 9209729
-168.3596 -2.5514133 103.58277 8354165
-168.90201 -2.7187524 103.17099 9275007
-168.52626 -1.6578755 103.86952 9866884
-168.10709 -0.55552191 104.7289 7827821
-168.5601 -0.92454594 104.16912 11576729
-167.90381 0.42621827 105.7256 9011837
-168.31018 0.056905434 105.13572 8551287
-166.65364 1.0469086 108.33041 6510930
-167.3317 1.0474524 107.91348 6840151
-185.8511 -28.410271 52.588017 9537664
-186.14796 -28.671852 51.947117 8945526
-186.57773 -28.701439 51.100082 9603458
-187.1158 -28.739433 50.038677 10063752
-187.64314 -28.776609 48.971703 9801093
-187.98891 -28.795313 48.096325 9340542
-188.03566 -29.014174 47.145229 14605011
-188.2607 -29.015944 46.239338 9538943
-188.48132 -29.017706 45.332317 8092011
-188.69754 -29.019468 44.424229 8420467
-188.96146 -29.021664 43.287693 8814715
-189.21904 -29.023851 42.149654 10262667
-195.55623 -29.059055 25.586737 11248795
-195.70667 -29.061172 24.409258 8880503
-195.85054 -29.063276 23.230986 9932937
-195.96031 -29.064957 22.287722 7761772
-196.06561 -29.066633 21.343992 7038307
-185.59657 -27.434486 53.480598 8089963
-185.96335 -27.705069 52.860126 9734529
-186.48152 -27.74618 52.03841 9274235
-186.91235 -27.774921 51.189903 8879994
-187.45184 -27.811787 50.126766 8419701
-187.90781 -28.082067 49.039398 7959401
-185.34129 -26.460598 54.372936 7366752
-185.7081 -26.729485 53.753418 7695461
-186.31548 -26.781363 52.958431 8484720
-186.81583 -26.81846 52.129917 10129286
-187.16383 -27.078733 51.257469 9143166
-184.93419 -25.476391 55.462467 8353647
-185.45216 -25.755667 54.646568 7366752
-186.05925 -25.805174 53.853245 7695461
-186.58005 -26.087234 53.032299 8089963
-184.66994 -24.664097 56.271282 8618360
-185.19553 -24.783577 55.53952 8353647
-185.8024 -24.830729 54.747936 9340798
-186.17081 -25.09837 54.127228 7366752
-184.26917 -23.527102 57.442341 10855060
-184.78705 -23.802011 56.629269 9867910
-185.54486 -23.857912 55.64246 8155755
-185.91324 -24.123972 55.022606 8089963
-184.01129 -22.560713 58.33353 8682867
-184.37785 -22.823015 57.718307 9538686
-185.13498 -22.875973 56.734089 10722190
-185.65509 -23.151178 55.917908 9142392
-183.75285 -21.595621 59.224857 8682867
-184.1194 -21.856499 58.610344 10458762
-184.72458 -21.896563 57.825027 10261895
-185.25191 -22.011301 57.093884 10985361
-183.49368 -20.631733 60.116154 8682867
-183.86032 -20.891258 59.502399 9011831
-184.46529 -20.929144 58.718594 10853263
-184.99243 -21.041971 57.988792 11905950
-183.0764 -19.817656 61.118698 9603453
-183.60063 -19.927166 60.394585 8419951
-184.20537 -19.962923 59.612244 8682867
-184.57346 -20.222853 58.996521 11576729
-182.81619 -18.856396 62.009808 11313301
-183.34033 -18.964121 61.286858 9209210
-183.96629 -18.85651 60.56189 8880502
-184.31294 -19.256456 59.890953 8682867
-182.63741 -17.742323 62.888081 9274747
-183.16513 -17.769291 62.207928 8945782
-183.70518 -17.892334 61.455902 9538432
-182.16318 -16.457014 64.238586 9340284
-182.73642 -16.740431 63.350815 9866370
-183.51477 -16.679249 62.406742 8880502
-181.50766 -15.332163 66.059532 6511954
-182.0349 -15.509681 65.178688 9011320
-182.52158 -15.608407 64.445595 10129287
-183.09514 -15.8678 63.411781 10720908
-180.59851 -14.377813 68.945808 9669505
-181.21318 -14.396023 67.933731 9735299
-181.51253 -14.6359 67.051407 7563619
-181.96141 -14.730211 66.306435 6511954
-182.44554 -14.904189 65.407043 9011320
-171.92255 -13.623964 96.5149 9867141
-176.26334 -13.942409 81.800522 8288366
-176.55756 -13.943828 81.163437 9078139
-176.94653 -13.945719 80.312447 10261132
-177.33141 -13.947607 79.459641 10261132
-177.71214 -13.949493 78.604897 9866629
-178.08882 -13.951377 77.748474 11511449
-178.55367 -13.953729 76.675232 10130055
-179.01241 -13.956076 75.599358 10261899
-179.37451 -13.957951 74.736702 9341054
-179.73257 -13.959824 73.872139 7038810
-180.08635 -13.961693 73.005974 8485997
-180.43605 -13.963561 72.138046 11445399
-171.37141 -12.637317 97.29174 9143675
-172.07997 -12.953881 96.710861 9341054
-171.61874 -11.760244 97.520866 8617331
-171.99977 -12.177139 97.100761 9143675
-171.10098 -10.574368 98.362755 9275261
-171.73599 -10.715335 97.904686 8814710
-170.79199 -9.2342453 99.141731 8814710
-171.38309 -9.4928703 98.659622 9538433
-170.8288 -8.5079355 99.436394 8749172
-171.50826 -8.5250931 99.004768 8814710
-170.50049 -7.5295014 100.06924 8420206
-171.17975 -7.5447574 99.638542 8420206
-170.03339 -6.3056974 100.8961 8420206
