# .PCD v0.7 - Point Cloud Data file format
VERSION 0.7
FIELDS x y z rgb
SIZE 4 4 4 4
TYPE F F F U
COUNT 1 1 1 1
WIDTH 1196
HEIGHT 1
VIEWPOINT 0 0 0 1 0 0 0
POINTS 1196
DATA ascii
92.796539 -35.024872 -150.80464 8354676
93.705421 -35.09977 -150.36072 7499625
94.720337 -34.836845 -150.12262 7631210
95.609146 -34.903755 -149.69916 9209468
96.486069 -34.967445 -149.25563 7762537
97.444023 -34.911884 -148.85599 7235937
98.266312 -34.902596 -148.4523 7959147
99.194176 -34.806141 -148.18004 7432033
100.16475 -34.833946 -147.7093 7892584
101.19125 -34.654232 -147.31883 7037274
101.92891 -34.664242 -146.88141 8484718
102.97632 -34.492588 -146.51308 10984593
103.77676 -34.466587 -145.79063 6840151
67.367325 -33.788265 -161.62091 10457481
67.949944 -33.788906 -161.38567 10326410
68.921036 -33.790764 -160.99318 8813686
69.892151 -33.79364 -160.60027 9932678
70.669228 -33.796806 -160.28557 9735042
71.722366 -33.906559 -159.81758 9537406
72.581139 -34.016266 -159.42801 9208956
73.55278 -34.023582 -159.0332 9603972
74.524719 -34.031998 -158.63785 10984590
75.302574 -34.039558 -158.32104 10984590
76.275406 -34.050068 -157.92447 11050899
77.248756 -34.061653 -157.52727 9735555
78.027885 -34.071815 -157.20898 10459278
79.002426 -34.08551 -156.81047 12104099
79.977646 -34.100323 -156.41125 10459023
81.028847 -33.960354 -156.04219 8157555
81.966034 -33.924267 -155.67831 10064009
82.748589 -33.938721 -155.35693 8682610
83.72773 -33.957874 -154.95445 10590091
84.707848 -33.978092 -154.55109 9208953
85.492737 -33.995155 -154.22775 8025196
86.474998 -34.017548 -153.82269 8485232
87.458405 -34.041069 -153.41678 7169628
88.284424 -33.850731 -153.15833 8419695
89.270798 -33.876209 -152.75041 10722706
90.258476 -33.90284 -152.34151 10393997
91.049713 -33.925026 -152.0136 9998983
92.040237 -33.953846 -151.60266 11774878
93.032295 -33.983795 -151.19072 11182486
93.827209 -34.008644 -150.86029 9143934
94.822495 -34.040787 -150.44617 7302244
95.819435 -34.074093 -150.03093 9735812
96.618408 -34.101585 -149.69777 9209469
97.618919 -34.137142 -149.28018 7169630
98.620926 -34.173687 -148.86086 8353135
99.416206 -34.201038 -148.51221 8813686
100.31473 -34.273129 -148.08464 6972252
101.28242 -34.062332 -147.83171 6644058
102.28057 -34.098969 -147.3893 9010805
103.0815 -33.958202 -146.91232 10524558
103.8555 -33.866325 -146.27234 8748663
104.66309 -33.843719 -145.55768 6840408
105.38681 -33.623867 -145.09482 8419696
54.270596 -32.631119 -167.35883 9406333
55.250099 -32.617336 -166.96915 11247763
56.033005 -32.607101 -166.65735 10393229
57.01091 -32.595337 -166.26746 10196106
58.036762 -32.723183 -165.80345 9932422
58.744389 -32.785633 -165.49342 7366238
59.720047 -32.776875 -165.10324 7234653
60.695259 -32.769165 -164.71286 8221289
61.66993 -32.762577 -164.32227 10063493
62.667072 -32.882015 -163.87309 8879735
63.396267 -32.962013 -163.54745 8616307
64.369576 -32.958534 -163.15625 9537919
65.342667 -32.956039 -162.76468 9472125
66.120987 -32.954895 -162.45113 10919313
67.093803 -32.95446 -162.05885 9208698
68.066582 -32.955078 -161.66621 10261132
69.039375 -32.956852 -161.27309 9208444
70.012199 -32.959663 -160.87952 9405823
70.790634 -32.962723 -160.56432 10721936
71.763794 -32.967587 -160.16983 11905952
72.737206 -32.973492 -159.77483 9537406
73.710953 -32.980553 -159.37923 10326920
74.685051 -32.988667 -158.98306 10129537
75.464706 -32.995945 -158.66571 12103071
76.43969 -33.006111 -158.2684 10458763
77.415192 -33.017326 -157.87044 9077625
78.196091 -33.027134 -157.55159 9998727
79.172836 -33.040424 -157.15236 10261899
80.150284 -33.054749 -156.75243 11182490
80.907707 -32.982651 -156.47519 9012350
81.947189 -32.873943 -156.09853 9932937
82.927544 -32.8913 -155.69629 9735556
83.908928 -32.909836 -155.29312 9471868
84.891281 -32.92944 -154.88905 8485487
85.67804 -32.945957 -154.5652 8222317
86.66256 -32.967659 -154.15953 11576736
87.610291 -33.200768 -153.68562 8485232
88.399452 -33.219952 -153.35971 9603970
89.387222 -33.244976 -152.95145 9669762
90.376297 -33.271107 -152.54214 9209467
91.168678 -33.292889 -152.21397 9209979
92.160637 -33.321152 -151.80267 11906721
93.154114 -33.350529 -151.39035 11577243
93.751038 -33.368736 -151.14244 9143934
104.11528 -33.123634 -146.45401 9736073
104.87186 -32.99876 -145.84976 6511443
105.68636 -32.979904 -145.14317 7761766
106.38326 -32.752117 -144.64114 9735812
42.538174 -31.617914 -172.48984 8682867
43.136585 -31.602032 -172.2547 11379607
44.132629 -31.576429 -171.86292 10129281
45.127205 -31.551914 -171.47139 9931902
46.0807 -31.949503 -170.93053 9209467
46.873287 -31.931437 -170.61787 9538433
47.862869 -31.909678 -170.2272 10525328
48.653561 -31.893129 -169.91475 10130829
49.728676 -31.97641 -169.44832 7762022
50.605114 -32.064499 -169.06017 6510930
51.515232 -32.00629 -168.71585 7893607
52.450459 -32.074135 -168.312 8879988
53.358799 -32.017738 -167.96767 9077370
54.340328 -32.003159 -167.57745 8090987
55.32103 -31.989555 -167.18716 9669505
56.104931 -31.97949 -166.87489 9669506
57.084156 -31.967905 -166.48447 10393229
58.062668 -31.957314 -166.09384 9275004
58.845016 -31.94965 -165.78125 8089704
59.822384 -31.941084 -165.39032 7958118
60.799232 -31.933523 -164.99924 9931136
61.775608 -31.927067 -164.60789 9735043
62.751598 -31.921604 -164.21632 8089963
63.53215 -31.918087 -163.90288 10788243
64.507538 -31.914637 -163.51073 10524814
65.482704 -31.912142 -163.1183 9932419
66.262749 -31.911003 -162.80409 9932419
67.237694 -31.91054 -162.41095 9668991
68.212593 -31.911079 -162.01746 9471615
69.187508 -31.912769 -161.62352 8879479
70.162521 -31.915428 -161.22913 10261387
70.942612 -31.918362 -160.91327 13486011
71.917946 -31.923046 -160.51802 13747899
72.893509 -31.928682 -160.12221 10195593
73.784966 -31.976767 -159.74374 9932933
74.734924 -31.900473 -159.39046 9142900
75.594574 -32.15971 -158.94185 11379348
76.571304 -32.169556 -158.54395 9340286
77.548622 -32.18047 -158.1454 9538176
78.330925 -32.189972 -157.82614 11380380
79.309395 -32.202915 -157.42628 12104103
80.288612 -32.216869 -157.02579 11709345
80.876534 -32.225742 -156.78517 10064267
105.09268 -32.213531 -146.0356 6708822
105.75186 -31.914579 -145.60104 9011318
106.56723 -31.8971 -144.89308 8616306
107.42796 -31.666872 -144.24821 9932678
107.96294 -31.443768 -143.88614 8484976
33.367783 -30.638069 -176.61211 10654857
34.210499 -30.634935 -176.44002 9406076
35.071945 -30.846504 -175.91725 8946039
36.013447 -30.77725 -175.59393 11050647
36.794044 -30.952393 -175.13387 10524815
37.806267 -30.922382 -174.74963 10195596
38.866898 -31.028124 -174.26224 8683642
39.596844 -31.075308 -173.93892 9012606
40.527351 -31.008734 -173.60622 13419707
41.478954 -31.063818 -173.18297 12564398
42.406422 -30.999016 -172.85039 9209211
43.333328 -30.935646 -172.52008 10852750
44.278332 -30.992472 -172.09268 9734779
45.202488 -30.930864 -171.76241 11378836
46.067837 -31.059942 -171.35526 9998210
47.008343 -31.1474 -170.91463 10525328
47.959553 -31.077333 -170.57686 10525328
48.908752 -31.007597 -170.23462 11314588
49.847828 -31.099751 -169.80582 7761509
50.732296 -31.025606 -169.49188 6906200
51.720211 -31.009069 -169.104 7695460
52.707081 -30.993517 -168.71591 8550769
53.495815 -30.981791 -168.40526 8288110
54.480743 -30.968111 -168.01671 8024938
55.408749 -31.035818 -167.59239 8945784
56.208958 -31.145756 -167.18887 9011320
57.190514 -31.134724 -166.79921 9735299
58.17136 -31.124628 -166.40924 5920074
59.080227 -31.075441 -166.07025 9076598
60.006382 -31.149378 -165.65517 9339256
60.914219 -31.101881 -165.31548 10590351
61.892754 -31.095661 -164.92418 9800577
62.870811 -31.090454 -164.53238 8879479
63.61377 -31.290615 -164.11642 9143163
64.590439 -31.287235 -163.72375 10261899
65.566933 -31.28474 -163.33076 9932419
66.347984 -31.2836 -163.01619 9932419
67.324181 -31.283119 -162.62256 9865856
68.300339 -31.283623 -162.22856 8747891
69.276527 -31.285219 -161.83412 9735044
70.057602 -31.287163 -161.51828 10261643
106.0984 -31.0543 -145.71284 9537406
106.7868 -30.937082 -145.19357 8024169
107.55261 -30.777224 -144.63405 8287598
108.28687 -30.804346 -143.96008 7497825
109.00323 -30.583761 -143.47845 8090728
31.726997 -29.783018 -177.21895 9931646
32.43914 -29.938095 -177.12094 10654857
33.371181 -29.991917 -177.10213 10129026
34.374561 -30.06978 -176.84018 9537661
35.320755 -30.000219 -176.5152 9143419
36.058567 -30.044512 -176.1805 9472384
37.016773 -30.30892 -175.57507 10261131
37.977997 -30.36072 -175.14384 9538180
38.916229 -30.294388 -174.8194 8749435
39.853168 -30.229107 -174.49474 8092015
40.808193 -30.283417 -174.06395 11051671
41.742016 -30.219786 -173.73909 10261899
42.510418 -30.399366 -173.28035 8682867
43.513931 -30.375298 -172.89468 9865859
44.515892 -30.352097 -172.50888 12102303
45.316334 -30.334339 -172.20012 10655369
46.315315 -30.313025 -171.814 10919313
47.312923 -30.292677 -171.42766 9735812
48.109982 -30.277021 -171.11841 10525328
107.88892 -30.2048 -144.86966 11511193
108.65524 -30.055998 -144.33087 8616815
109.36071 -30.016235 -143.73558 9406073
110.14049 -29.862156 -143.19012 8814195
110.83641 -29.750259 -142.67702 7893352
15.775326 -28.924833 -184.37894 10262156
16.811436 -29.011902 -184.35905 8156526
17.694786 -29.244553 -184.28407 7563619
23.313438 -29.288935 -181.04785 9143936
24.180004 -29.287777 -180.93573 8090991
25.046043 -29.286617 -180.8195 8089963
25.911327 -29.285454 -180.6991 8815227
29.710857 -29.438684 -178.23288 9734788
30.582729 -29.455952 -178.20212 9471616
31.674 -29.478077 -178.16183 9931646
110.58746 -29.411024 -143.77087 11379348
111.24049 -29.400951 -143.19681 8025450
112.05522 -29.389032 -142.47823 9340801
112.70563 -29.379995 -141.9024 9340801
115.24831 -29.134171 -141.59004 7563874
116.07323 -29.002359 -141.10323 8090218
116.7209 -28.931881 -140.62799 7695204
117.48561 -28.88266 -139.97424 6050636
118.25977 -28.706854 -139.3997 8681843
14.910431 -28.032631 -184.69533 9144190
15.947601 -28.118645 -184.67583 9407104
16.985313 -28.205492 -184.65602 7563619
117.03265 -28.150412 -140.88985 6445394
117.62678 -28.067184 -140.3481 6313807
118.41321 -28.05372 -139.58179 6445393
119.09329 -27.82564 -139.02946 10986652
14.189846 -27.215071 -184.98611 11709345
14.993507 -27.179737 -185.00832 8091246
15.970459 -27.345858 -184.95876 8881018
117.86609 -27.266327 -140.52107 6445393
118.61734 -27.01804 -139.90909 6313807
119.40408 -26.889198 -139.20131 8419438
120.10281 -26.651188 -138.63568 8092019
13.18417 -25.8039 -185.49135 9604484
13.995403 -26.106955 -185.38943 12301482
14.982727 -26.180492 -185.37378 8551538
118.87517 -26.088278 -140.12959 5919050
119.55768 -25.859791 -139.57498 8616559
120.34587 -25.848696 -138.80576 9012351
120.9409 -25.768194 -138.26183 10130319
12.311329 -24.90917 -185.80913 9012346
13.12923 -24.990185 -185.7887 9406847
14.156929 -25.044146 -185.78056 9143675
119.71305 -25.202456 -139.75737 6971994
120.39648 -24.9744 -139.20171 8682869
121.18536 -24.964289 -138.43124 11709349
121.78104 -24.884329 -137.88643 8551545
11.588284 -23.866495 -186.18291 9011832
12.254879 -24.094019 -186.1071 8157038
13.150406 -24.101391 -186.11452 7565675
13.816891 -24.32979 -186.03838 9867398
120.79846 -24.166576 -139.21825 6972253
121.44787 -23.866241 -138.73291 7367272
122.13229 -23.921099 -138.03206 7104099
122.71123 -23.852526 -137.49785 6116940
10.710251 -22.969608 -186.5015 8090987
11.378025 -23.196978 -186.42569 8288366
12.274563 -23.203499 -186.43347 8880760
12.947342 -23.208784 -186.43915 9736070
121.81657 -22.984076 -138.82004 6116940
122.34431 -22.75843 -138.41632 5985355
123.02906 -23.02615 -137.60661 6050892
123.79431 -22.63443 -137.05399 7300702
10.335518 -22.018652 -186.84552 9669506
11.400753 -22.08116 -186.83466 10459278
12.217762 -22.384892 -186.73259 12629930
122.6618 -22.094936 -138.44241 5721927
123.19029 -21.869289 -138.0378 6116940
123.98207 -21.862165 -137.263 6971737
124.61519 -21.856926 -136.64331 7563619
9.4900932 -20.906536 -187.24332 9537921
10.523594 -20.956932 -187.2365 8616307
11.194 -21.185003 -187.16058 8089963
123.50916 -21.204493 -138.0632 6116940
124.12294 -21.022451 -137.55257 6248526
124.90543 -20.927803 -136.83147 6511954
125.51939 -20.74658 -136.32021 8287594
8.5154686 -19.937447 -187.58693 8681841
9.5035324 -20.099163 -187.53918 9537921
10.463768 -20.134041 -187.53723 9142907
124.35875 -20.312841 -137.68234 6511954
125.07106 -19.990891 -137.14606 7893094
125.84343 -19.79549 -136.48618 9537147
126.55092 -19.558952 -135.91113 10457736
7.6253552 -19.146797 -187.86301 9405566
8.5270081 -19.150627 -187.87517 9602940
9.5779877 -19.230261 -187.85828 10524042
126.06282 -18.792059 -136.7818 8287594
126.80528 -18.743153 -136.07671 10128771
127.40669 -18.665892 -135.52487 9602684
6.7365689 -18.016865 -188.26184 8681843
7.6369519 -18.245749 -188.1933 9405308
8.6895218 -18.325123 -188.17972 10128769
126.91911 -17.896557 -136.39624 6511954
127.66264 -17.848112 -135.68988 9602684
128.26497 -17.771055 -135.13696 7103834
5.695622 -16.812347 -188.73462 9274488
6.6908383 -17.056149 -188.61298 8617073
7.7249494 -17.267115 -188.5533 9405819
8.5500031 -17.571838 -188.4541 10128769
127.35075 -17.180237 -136.33687 6511954
127.88464 -16.954126 -135.92715 9734270
128.52251 -16.951317 -135.30145 8946038
129.12581 -16.874517 -134.74747 10656399
4.0504193 -15.779829 -189.45319 8287338
4.8024945 -15.921024 -189.26834 8156267
5.7668805 -15.94375 -189.15459 9077366
6.7567372 -16.206911 -188.9252 8288365
128.21127 -16.281466 -135.94884 11905692
128.76723 -16.057606 -135.56027 9867139
129.40623 -16.05522 -134.93341 9209467
130.01787 -15.979406 -134.38568 9209467
2.015034 -14.910563 -190.33221 12958892
2.9997828 -15.050587 -190.12212 11905692
3.9691279 -15.072806 -190.00391 9537660
4.9634404 -15.331372 -189.70175 8353645
5.8699193 -15.325061 -189.612 8814195
129.71684 -15.397928 -135.25751 10261898
130.47311 -15.177267 -134.74892 9209467
131.24443 -15.047127 -134.18886 9208699
132.06013 -14.74396 -133.8002 9143166
133.05156 -14.530938 -133.20024 7367271
-8.700695 -14.343266 -195.15625 8617331
-7.7660022 -14.342206 -195.19797 9143675
-7.0647922 -14.34141 -195.22653 7564642
-0.7276876 -14.540335 -191.64111 8879732
0.41955212 -14.531665 -191.5457 11445658
1.3363917 -14.524989 -191.46858 15721430
135.0256 -14.151632 -132.92769 9736836
135.83202 -14.151299 -132.12999 8814966
136.47668 -14.151293 -131.4912 9736836
148.24901 -14.078402 -127.23466 8682867
148.70384 -14.077242 -126.69996 10853780
149.30713 -14.075695 -125.98496 11380639
151.12282 -13.685431 -125.97223 9405560
151.62866 -13.6891 -125.47318 9537406
152.30356 -13.694326 -124.80712 9734788
152.8101 -13.698495 -124.30711 7169117
151.86302 -13.056616 -125.56565 9471612
152.5049 -12.981882 -124.97282 9734788
153.18144 -12.987054 -124.30516 8747893
153.75694 -12.753154 -123.85885 8419184
152.7066 -12.268037 -125.13887 9734788
153.36378 -11.985865 -124.63706 9471872
154.13055 -12.039159 -123.85622 10788500
154.70827 -11.804303 -123.40839 11381404
153.6555 -11.317944 -124.69144 8682867
154.33545 -10.922594 -124.22493 10919830
155.09926 -10.778974 -123.54757 10131339
155.80183 -10.37171 -123.06506 8092016
154.33626 -10.122019 -124.63293 9932934
155.15529 -9.6452951 -124.07133 8486001
156.00926 -9.6502218 -123.22941 7037531
156.76283 -9.4135427 -122.60972 6510930
155.53273 -8.9236975 -124.06878 8092011
156.11531 -8.6848583 -123.61816 12103075
156.88945 -8.7373295 -122.83051 9734528
157.55663 -8.4504175 -122.32124 9734528
156.49507 -7.9605293 -123.61481 16247774
157.07979 -7.7204609 -123.16265 9734528
157.76723 -7.7235842 -122.48537 12037794
158.42171 -7.6456995 -121.88187 7037274
157.46181 -6.9931545 -123.15849 15722454
158.04875 -6.7518568 -122.70481 14406852
158.73851 -6.7545247 -122.02554 10590605
159.39528 -6.6758766 -121.42011 8484462
158.43315 -6.0215712 -122.69996 15722454
159.02242 -5.7789688 -122.24464 11708828
159.71448 -5.7811069 -121.56326 8221805
160.19757 -6.0286322 -121.02378 7037274
159.40907 -5.04568 -122.23897 12432037
96.945587 -33.473011 -149.81276 8683381
97.747421 -33.501068 -149.47827 6510930
98.751312 -33.537045 -149.05911 8089963
99.556038 -33.566795 -148.72281 8813686
100.36208 -33.597252 -148.38576 6512986
101.37175 -33.636478 -147.96301 8288882
102.38354 -33.676872 -147.53897 9010805
102.94205 -33.685581 -147.21297 10984593
87.686295 -32.780037 -153.82024 8485232
88.476212 -32.798969 -153.49417 9011576
89.464897 -32.823704 -153.08562 9077369
90.45491 -32.849522 -152.6761 9209467
91.248108 -32.87101 -152.34767 9210491
92.352722 -32.732079 -151.95662 9671042
93.276108 -32.716423 -151.59029 9933191
94.088516 -32.86845 -151.20282 7828846
94.969559 -33.034397 -150.78221 6446934
95.955544 -32.951962 -150.41689 6841434
96.807159 -32.955734 -150.07184 8156525
97.675171 -32.857105 -149.76041 7563618
98.680305 -32.892277 -149.34113 7168861
99.68737 -32.928528 -148.92061 9142907
100.49464 -32.958424 -148.58321 7170659
101.50581 -32.996948 -148.16017 11445916
102.51912 -33.036533 -147.73582 9866885
103.23933 -33.039913 -147.26419 9736073
103.93782 -32.809132 -146.76213 11907495
75.659584 -31.740942 -159.08011 8813937
76.637245 -31.750706 -158.6819 9603458
77.615417 -31.76145 -158.28314 10327437
78.398376 -31.770851 -157.96353 11380380
79.377792 -31.783558 -157.56345 12169640
80.35791 -31.797298 -157.16264 10459278
81.184631 -31.950062 -156.76912 8814971
82.088837 -32.034843 -156.37109 9867143
83.070984 -32.051723 -155.96823 9143678
83.968132 -32.110344 -155.58328 9472382
84.927513 -32.044472 -155.22215 8879990
85.826546 -32.104939 -154.83568 8617075
86.791748 -31.966984 -154.5005 8156524
87.764702 -31.875271 -154.1441 7432545
88.629974 -31.955814 -153.76337 7103323
89.56118 -32.031475 -153.35797 8879990
90.538544 -31.942499 -152.99866 9078137
91.407104 -32.025959 -152.61551 9210491
92.179062 -31.961859 -152.3293 12696493
93.239525 -31.863972 -151.93993 11117721
94.237701 -31.892958 -151.52586 7565675
95.037582 -31.916948 -151.19377 6644313
96.039124 -31.948019 -150.77754 5459268
97.04248 -31.980129 -150.36011 9142651
97.846626 -32.006687 -150.02531 7826790
98.853714 -32.040924 -149.60556 6971481
99.862762 -32.076298 -149.18466 9011833
100.71594 -31.89188 -148.91295 9209726
101.52667 -31.921558 -148.57422 13682362
102.54221 -31.959745 -148.14949 12037797
103.463 -31.969349 -147.58562 7564651
104.17505 -32.012291 -146.93919 8485752
104.92451 -31.677759 -146.44257 7433064
55.745453 -30.552923 -167.80507 8419440
56.336464 -30.546152 -167.57184 8090474
57.320808 -30.535501 -167.18283 7629924
58.107838 -30.527639 -166.87134 5920074
63.692204 -30.883411 -164.32085 8616819
64.670395 -30.880114 -163.92834 9472640
65.64817 -30.877783 -163.53513 9472383
66.625648 -30.876381 -163.14122 9142904
67.602928 -30.87595 -162.74664 10851980
68.384583 -30.876307 -162.43044 8682867
69.361595 -30.877722 -162.0345 9735044
70.375015 -31.016119 -161.54529 10261643
71.077026 -31.086584 -161.22147 12697008
72.053764 -31.090923 -160.82449 10919059
73.030724 -31.096199 -160.4269 8748917
73.868843 -30.901487 -160.23137 9735555
74.846832 -30.908512 -159.83163 9669504
75.825142 -30.916424 -159.4312 9143163
76.803833 -30.925468 -159.02988 8616819
77.782951 -30.935404 -158.62776 8616819
78.566605 -30.94408 -158.30537 10261899
79.546722 -30.955877 -157.90161 9998983
80.52742 -30.968637 -157.49695 10854036
81.312469 -30.979595 -157.17255 8288623
82.294449 -30.994236 -156.76607 8156785
83.277168 -31.009829 -156.35872 7564649
84.063965 -31.023045 -156.03201 9274750
85.048798 -31.040689 -155.62354 9734788
86.035271 -31.059561 -155.21536 9800581
86.873825 -30.868263 -154.97533 9932167
87.862358 -30.888706 -154.56389 7301474
88.851997 -30.910137 -154.15147 6510930
89.644623 -30.928015 -153.82071 7169116
90.636673 -30.951372 -153.40613 8155755
91.629951 -30.975698 -152.99049 11709855
92.425728 -30.995941 -152.65703 16116446
93.421776 -31.022236 -152.23914 12300966
94.419312 -31.049507 -151.81998 8552312
95.218491 -31.072123 -151.48369 5920332
96.165253 -31.310417 -150.97716 5392962
97.170082 -31.341959 -150.55936 8550256
97.975403 -31.367966 -150.22432 8089963
98.782028 -31.394718 -149.88838 6182222
99.792267 -31.429199 -149.46727 9273721
103.6422 -31.111383 -147.84322 7301479
104.3723 -30.888956 -147.37967 7564651
105.19006 -30.869419 -146.66669 7104100
105.97614 -30.782984 -146.03441 12169122
106.56714 -30.632841 -145.62395 9537406
36.373394 -29.769434 -176.28764 10261387
37.195385 -29.751505 -176.01285 8681843
38.221523 -29.729673 -175.66779 8814200
39.041752 -29.712679 -175.39001 9012350
40.064602 -29.692146 -175.04161 8552049
41.085667 -29.672346 -174.6916 8092011
41.90144 -29.656952 -174.41028 9735555
42.784832 -29.783224 -173.86641 9932422
43.727406 -29.834202 -173.39713 9735299
44.670006 -29.780262 -173.11198 11510680
45.614384 -29.72863 -172.83437 9274743
46.545895 -29.778782 -172.34596 9801089
47.487595 -29.728563 -172.06668 11774622
48.191944 -29.879314 -171.41302 12959413
49.146824 -30.059679 -170.87848 11577759
50.141483 -30.042086 -170.49095 8945527
50.936275 -30.028757 -170.18079 8486256
51.928631 -30.012955 -169.79266 8682355
52.919952 -29.998079 -169.40434 8879734
53.840176 -29.945602 -169.07558 9274492
54.771481 -30.012434 -168.64426 7301215
55.690033 -29.961533 -168.31483 6511955
56.677517 -29.950344 -167.9249 6643541
57.664188 -29.940041 -167.53456 5920074
58.46299 -30.050951 -167.12163 6380625
59.38937 -30.122416 -166.69254 8879734
60.374329 -30.115267 -166.30415 9141877
61.161762 -30.110172 -165.99272 8549739
62.14529 -30.10462 -165.60246 9471355
63.128273 -30.099884 -165.21123 8551025
63.914154 -30.096752 -164.89745 8748917
64.831596 -30.14254 -164.48517 9143675
65.815598 -30.286499 -163.95508 9012089
66.795555 -30.285151 -163.56007 8879989
67.775352 -30.284658 -163.16447 10128771
68.559036 -30.284986 -162.84749 10260357
69.538559 -30.286329 -162.45053 10327179
70.517998 -30.288542 -162.05287 10261643
71.301567 -30.291019 -161.73416 10261643
72.281082 -30.295002 -161.33502 9735299
73.260651 -30.299841 -160.93512 8748660
74.107269 -30.106825 -160.75162 9011832
75.08802 -30.113415 -160.34973 10392456
76.069069 -30.120916 -159.94708 10457994
77.050453 -30.129419 -159.54338 9011577
105.44281 -30.258097 -147.01993 9208958
106.23409 -30.07938 -146.4892 7235171
107.00312 -30.022394 -145.85426 7563619
107.88441 -29.814671 -145.37134 9471872
108.59103 -29.616972 -145.0876 11051157
18.00161 -28.955015 -184.39352 7695976
19.039791 -29.044029 -184.37291 7104097
20.078693 -29.133875 -184.35204 10655114
26.560184 -29.284575 -180.60608 12433069
27.208378 -29.283695 -180.51054 10591380
28.288162 -29.282228 -180.34618 9406592
29.366959 -29.28075 -180.17567 9011065
30.013885 -29.279863 -180.07027 8287342
32.766796 -29.500999 -178.11922 10654857
33.858711 -29.522926 -178.064 8682867
34.698711 -29.511417 -177.83875 9735296
35.735348 -29.487823 -177.49516 11510940
36.770092 -29.464865 -177.14999 10261132
109.11325 -29.43527 -145.05968 6775130
109.76923 -29.424179 -144.48738 10524297
110.26039 -29.416145 -144.0576 11379348
112.0032 -29.141022 -144.17795 6971735
112.51978 -29.13994 -143.77386 7038307
113.37661 -29.138142 -143.09714 7038307
114.4343 -28.957441 -142.66922 8486003
115.09334 -28.888142 -142.20767 6248271
115.90044 -28.751223 -141.69661 6708566
17.292198 -27.915089 -184.76576 7563619
18.177849 -28.148203 -184.69067 7695461
19.217678 -28.236935 -184.67017 6314578
114.89594 -28.338804 -142.89444 9933705
115.48134 -27.978559 -142.50253 7563874
116.15456 -27.939869 -141.86035 7563874
116.78288 -27.648346 -141.39125 6708566
16.426846 -27.019587 -185.08336 10855060
17.09013 -27.249111 -185.00708 7563619
18.21114 -27.168989 -185.04929 8616819
116.38893 -26.858109 -142.1814 9735299
117.16656 -26.86421 -141.41374 7300447
117.89698 -26.685434 -140.78679 6708310
15.565552 -25.901869 -185.48241 10788500
16.230175 -26.131079 -185.40614 12170408
17.291534 -26.199236 -185.3934 9012090
117.22395 -25.970425 -141.81299 8024170
117.97883 -25.8846 -141.11456 7760997
118.73325 -25.799513 -140.41621 6445393
14.701298 -24.78286 -185.88246 8090987
15.367107 -25.011755 -185.80612 9276034
16.396664 -25.067329 -185.79735 10262929
118.23646 -25.050081 -141.28664 8287342
118.97456 -24.994698 -140.58926 8353131
119.57147 -24.912886 -140.04411 6577236
13.828175 -23.884764 -186.20152 9736070
14.495029 -24.113413 -186.12527 8485745
15.39225 -24.122133 -186.1322 9078656
16.213131 -24.204836 -186.11119 9736585
119.1453 -24.043165 -140.90648 8880247
119.86608 -23.886543 -140.27766 7498594
120.48839 -23.790466 -139.71477 5919050
121.07838 -23.432028 -139.31746 5919050
13.620544 -23.214317 -186.44467 8618104
14.518673 -23.222166 -186.452 8815480
15.340458 -23.304173 -186.43124 9999498
120.16154 -22.857769 -140.5116 7695972
120.76036 -22.776731 -139.96414 6708822
121.49986 -22.723845 -139.2641 6182479
12.677132 -21.941126 -186.90039 13353395
13.648163 -22.097586 -186.85397 7565675
14.465355 -22.402685 -186.75151 9210237
121.00533 -21.966398 -140.13632 7169373
121.68944 -21.929033 -139.48288 6314575
122.42442 -21.766706 -138.84303 5656390
11.739532 -20.919495 -187.26398 10064007
12.77449 -20.971266 -187.25667 10327436
13.598866 -21.051975 -187.23642 9736070
121.85132 -21.073927 -139.75963 6511954
122.61025 -20.99226 -139.05508 5656390
123.36899 -20.911257 -138.35049 5985098
10.769814 -19.83617 -187.64986 8089963
11.667252 -20.066059 -187.5757 7038307
12.718117 -20.147593 -187.55774 10590351
122.6994 -20.180182 -139.3813 5920074
123.51282 -19.87697 -138.73613 6840664
124.29752 -19.781557 -138.01321 6775126
124.89268 -19.422125 -137.61125 6511954
9.8838959 -18.931496 -187.97113 13022893
10.782761 -19.161182 -187.89713 9076857
11.8349 -19.242012 -187.87946 8814201
123.72736 -18.987497 -138.97841 10854036
124.41835 -18.759373 -138.41527 6972505
125.21447 -18.753326 -137.63562 6906712
125.74645 -18.527269 -137.22774 8287594
8.9952545 -18.025425 -188.29295 10128769
9.8060226 -18.209415 -188.23471 10128769
10.889549 -18.304808 -188.21205 9866628
11.699978 -18.48966 -188.1535 12432037
124.82932 -17.939917 -138.4288 7959144
125.43213 -17.861246 -137.87621 7564130
126.06975 -17.856989 -137.25143 8090216
126.6027 -17.630808 -136.84267 6511954
8.1102715 -16.664841 -188.78047 9538177
8.9362221 -16.969677 -188.67899 8879214
9.9128876 -17.253864 -188.58591 9668989
10.812691 -17.581285 -188.47615 10854036
125.65034 -16.966894 -138.11742 7432288
126.28906 -16.962786 -137.4915 8419182
126.92746 -16.959051 -136.86571 6906455
127.46153 -16.732641 -136.45601 8090216
6.9943471 -15.767122 -189.26166 9143418
8.033596 -15.946472 -189.14359 9209212
9.0270081 -16.104031 -189.03888 8551280
125.97426 -16.293566 -138.14203 7037274
126.5572 -16.142332 -137.67429 9735299
127.16869 -16.06502 -137.12703 7300957
127.91957 -16.016981 -136.42265 9668990
5.1981435 -14.886779 -190.01831 9210491
6.1787534 -15.028908 -189.82214 8814195
7.1464467 -15.148713 -189.73668 9209211
8.1427231 -15.328875 -189.61609 9538177
127.63361 -15.406621 -137.29883 7037274
128.2439 -15.258282 -136.85637 10787213
128.94319 -15.226193 -136.20235 11774363
129.87019 -14.791973 -135.8726 10721935
130.80092 -14.535674 -135.41089 8748148
131.44475 -14.533978 -134.78006 8089963
-6.5971637 -14.340877 -195.24396 7367005
-5.6620517 -14.339805 -195.27516 9274486
-4.7267108 -14.33873 -195.3027 10261124
1.7946818 -14.521802 -191.42973 11905692
2.4814799 -14.517069 -191.37103 8287338
3.3967173 -14.511045 -191.29221 8287338
4.3115964 -14.505219 -191.21249 9210491
132.92542 -14.154475 -134.99667 10261132
133.57207 -14.153304 -134.36081 9998215
134.37996 -14.152188 -133.565 9537918
146.71913 -14.082271 -129.00397 9341310
147.33339 -14.080722 -128.29811 10853268
147.94472 -14.079175 -127.5899 8682867
149.27092 -13.673248 -127.79881 8682867
149.94392 -13.677429 -127.13518 12169898
150.61742 -13.681858 -126.47092 9736329
149.57048 -13.200432 -127.7457 8682867
150.1418 -12.966116 -127.30367 9669762
150.90419 -13.018415 -126.52761 9998214
151.558 -12.737181 -126.02851 9734527
150.50891 -12.254409 -127.30613 10129286
151.08209 -12.019116 -126.86275 10129286
151.75841 -12.023139 -126.19592 9537147
152.4014 -11.94752 -125.6026 9471612
151.45122 -11.304881 -126.86452 10129286
152.02646 -11.068707 -126.41978 9931906
152.70477 -11.072527 -125.75118 9076858
153.34969 -10.996412 -125.15609 9932934
152.39777 -10.351944 -126.42087 6511962
153.04268 -9.8746939 -126.03065 8550771
153.72334 -9.878108 -125.35989 10525071
154.43898 -9.5610962 -124.81834 10722451
153.85944 -8.795167 -125.77909 9668993
154.65837 -8.6296682 -125.07835 10656657
155.39688 -8.6008053 -124.36716 10262668
154.8167 -7.8324122 -125.32983 10788756
155.61833 -7.6659245 -124.62695 11972774
156.35918 -7.6364717 -123.91375 14011843
155.67546 -6.8248119 -125.00022 10986135
156.4173 -6.7948236 -124.28641 11643808
157.22285 -6.6271777 -123.58021 13748410
156.64124 -5.8538423 -124.54682 6511954
157.29617 -5.7741647 -123.94379 8551536
157.98601 -5.7760081 -123.26479 13156786
158.5748 -5.5332322 -122.80997 15722454
157.61154 -4.8785963 -124.09109 7564642
158.26872 -4.7981563 -123.48621 8683123
158.88969 -5.0444899 -122.75005 11841184
95.638916 -30.469709 -151.7507 5392706
96.259354 -30.729952 -151.28609 5787207
97.253197 -30.677502 -150.92746 7431775
98.158371 -30.744905 -150.50621 8353135
98.961151 -30.769426 -150.16158 5919050
99.966911 -30.801233 -149.73016 10983825
100.97706 -30.834866 -149.30128 8288368
101.78703 -30.862656 -148.9576 10722195
102.70491 -30.936565 -148.5388 9998474
103.62288 -30.702116 -148.19327 7169893
48.590961 -29.547798 -172.04723 14407112
65.410583 -29.702118 -164.65695 9143675
66.000999 -29.700993 -164.41983 8880503
66.983452 -29.69952 -164.02347 8682867
67.965385 -29.698744 -163.62514 9734527
68.750191 -29.698641 -163.30492 10195079
69.730942 -29.699131 -162.90269 10787987
70.710602 -29.700281 -162.49864 10261643
71.494316 -29.701727 -162.17368 10261643
72.472771 -29.704159 -161.76567 9406078
73.450668 -29.707256 -161.35576 9011832
74.233757 -29.710499 -161.02725 9011832
75.215729 -29.71685 -160.62387 10129025
76.198494 -29.724285 -160.22058 9997443
76.984901 -29.730829 -159.89726 8879991
77.993889 -29.899544 -159.35088 8222061
78.885063 -29.948572 -158.95041 9538433
79.868561 -29.959684 -158.54373 10327692
80.8526 -29.971746 -158.13614 10722450
81.640274 -29.982084 -157.80933 7960425
82.625488 -29.995874 -157.39977 8749175
83.611374 -30.01062 -156.98917 7038301
84.400658 -30.023102 -156.65987 7432544
85.388084 -30.039631 -156.24722 9998216
86.37635 -30.057053 -155.83345 10129546
87.167648 -30.07168 -155.50163 10590097
88.157745 -30.090933 -155.08559 8683642
89.148819 -30.11109 -154.66846 8353646
89.942513 -30.127937 -154.3338 5919050
90.93576 -30.149963 -153.91429 6510931
91.930191 -30.172855 -153.49353 8222572
92.726654 -30.191921 -153.15598 12038310
93.692688 -30.150789 -152.81924 11051415
94.686913 -29.991636 -152.55772 9867399
95.601677 -29.982826 -152.17615 6708823
96.488579 -29.883738 -151.8886 8352618
97.492805 -29.911758 -151.45967 7694689
98.498596 -29.940708 -151.02936 8747891
99.304459 -29.964651 -150.68401 7168859
100.11152 -29.989216 -150.33762 7760996
101.12206 -30.020868 -149.90315 7761253
102.13438 -30.053511 -149.46722 7630443
102.94568 -30.080368 -149.11722 7630443
103.80628 -30.136562 -148.60789 7038307
104.63361 -30.036705 -147.9753 8682615
105.53229 -29.794657 -147.59183 10919315
106.30094 -29.604385 -147.22278 9208958
107.30252 -29.468077 -146.62993 8090220
107.96218 -29.455795 -146.05954 8814715
20.387913 -28.844471 -184.46138 11378324
21.27137 -29.076826 -184.3645 10326150
22.301506 -29.154024 -184.25008 9407363
23.244694 -29.292488 -184.0321 12695212
30.444611 -29.27927 -179.99864 9734788
31.306072 -29.278082 -179.8519 11248276
32.381813 -29.276585 -179.66325 9604224
33.241653 -29.275385 -179.50748 8946039
34.100647 -29.274181 -179.34763 8682867
37.596531 -29.447063 -176.87259 8681843
38.627605 -29.42547 -176.5244 10261132
39.65715 -29.404514 -176.17456 8092011
40.479153 -29.388363 -175.89349 8092011
41.300159 -29.372612 -175.6114 8814964
42.325047 -29.353619 -175.257 10393228
43.348221 -29.33526 -174.90114 9011320
44.165257 -29.321108 -174.61519 9011320
45.185413 -29.3041 -174.25612 11577760
46.203815 -29.28776 -173.89545 9340795
47.017353 -29.275158 -173.60561 7038298
48.032955 -29.260151 -173.24173 14013122
48.845768 -29.249285 -172.95377 15198166
49.598675 -29.533962 -171.68257 14605262
50.404018 -29.523371 -171.38947 13683904
51.409073 -29.510836 -171.02151 9208956
52.413105 -29.498882 -170.65173 9011320
53.214993 -29.489939 -170.35474 9143163
54.216423 -29.479301 -169.98167 9472384
55.216721 -29.469347 -169.6069 8419440
56.01627 -29.461948 -169.30556 5920074
57.014305 -29.453295 -168.92734 6643546
58.011208 -29.445305 -168.54729 6446422
58.808273 -29.439455 -168.24176 7761766
59.802689 -29.432749 -167.85844 8616561
60.796879 -29.426758 -167.47302 9997699
61.789745 -29.421431 -167.08565 8088931
62.781597 -29.416752 -166.6965 8089958
63.574268 -29.413551 -166.38377 8090986
64.564621 -29.410204 -165.99094 9538176
65.554146 -29.407488 -165.59619 10788242
66.344742 -29.405834 -165.27913 9472126
67.332497 -29.404434 -164.88084 8682867
108.70453 -29.148958 -146.69557 12433069
109.40005 -29.146421 -146.16779 7893615
110.09802 -29.144981 -145.64148 7564389
110.96611 -29.143185 -144.97925 9537658
112.16791 -28.935528 -144.86481 8419177
113.05702 -28.816202 -144.45901 9274490
113.69011 -28.800688 -143.84441 11708831
114.1646 -28.78944 -143.38382 9340801
19.526554 -27.94676 -184.77988 6511954
20.325653 -28.135965 -184.71992 6577490
21.397301 -28.241785 -184.69347 9208955
22.19693 -28.432426 -184.63298 8092019
113.16772 -28.089277 -144.72064 10130053
113.88747 -27.926996 -144.09578 10920085
114.58873 -27.911007 -143.41454 13816007
115.25339 -27.461693 -142.99008 11644580
18.678562 -26.605524 -185.2608 9734788
19.335037 -27.057983 -185.10281 8090475
20.397797 -27.129103 -185.08905 7432542
21.335999 -27.531818 -184.95247 9339768
114.17113 -26.904577 -144.3381 7630692
114.76938 -26.818678 -143.79373 12499890
115.56165 -26.801985 -143.02324 10657428
116.24519 -26.570414 -142.46939 10854036
17.812019 -25.706326 -185.5797 8617075
18.477428 -25.936872 -185.50302 9406079
19.599865 -25.951942 -185.51042 8090475
115.00493 -26.013597 -143.97253 8749430
115.7622 -25.92532 -143.27304 9538690
116.55478 -25.909935 -142.50171 9142651
117.0806 -25.681896 -142.10098 7563619
16.943268 -24.806524 -185.89903 8684155
17.609612 -25.036768 -185.82233 8749434
18.644566 -25.004967 -185.84587 8616819
19.399372 -25.281946 -185.7532 9734788
115.84055 -25.122084 -143.60548 6840919
116.59827 -25.034771 -142.90501 8222060
117.39136 -25.020515 -142.1326 8616307
117.91777 -24.792776 -141.73114 7563619
16.816715 -24.062689 -186.17007 9210242
17.638771 -24.146166 -186.14877 9802378
18.461205 -24.230192 -186.12726 9144449
116.77536 -24.264774 -143.12344 8617075
117.53958 -23.867428 -142.57463 8879735
118.28104 -23.910137 -141.82391 8616306
118.93134 -23.607588 -141.33882 8616306
15.944336 -23.161163 -186.49043 9210242
16.767189 -23.243946 -186.46939 11446945
17.590439 -23.327229 -186.44817 10196879
117.93742 -22.890358 -142.68153 8222061
118.5377 -22.807611 -142.13358 10129286
119.25835 -22.840994 -141.40813 9405564
119.86055 -22.568573 -140.95493 7498082
14.870773 -21.839235 -186.96243 13091249
15.801483 -22.180067 -186.84813 9867908
16.753891 -22.214828 -186.84619 11380636
17.464394 -22.580364 -186.72029 10788759
118.77953 -21.996296 -142.30943 10787215
119.38036 -21.914104 -141.76057 13023917
120.1755 -21.903385 -140.98436 7498082
120.86349 -21.67417 -140.4248 8682867
13.906967 -20.755108 -187.34865 10065286
14.803699 -20.986593 -187.27399 11315096
15.855061 -21.070259 -187.25519 9210234
119.62361 -21.101229 -141.93584 10787215
120.22501 -21.019594 -141.3862 9471354
121.02084 -21.009783 -140.6088 8024937
121.7097 -20.780828 -140.04819 6840919
13.026096 -19.849823 -187.67024 12432037
13.924049 -20.081011 -187.59572 10130056
15.053993 -20.089474 -187.60539 10065286
120.46974 -20.205023 -141.56081 11379092
121.23068 -19.955761 -140.9397 9537661
122.0273 -19.828171 -140.22153 7761765
122.73529 -19.588717 -139.64743 7695716
12.142677 -18.943348 -187.99228 10590351
12.952633 -19.128622 -187.93361 10787473
14.036148 -19.225946 -187.91014 9734788
14.846104 -19.412182 -187.85109 9734788
121.49454 -19.009483 -141.16245 11379092
122.18608 -18.779758 -140.59966 7958632
122.98392 -18.771883 -139.81923 8747635
123.58646 -18.692266 -139.26738 10260873
12.007996 -18.190191 -188.26662 8879736
13.063118 -18.271587 -188.24875 9998216
13.96376 -18.503202 -188.17409 9734788
122.34552 -18.110235 -140.78403 7563619
123.03801 -17.880692 -140.2202 9142393
123.83667 -17.873577 -139.43857 9997701
124.43993 -17.794315 -138.88577 8880246
10.376339 -16.673185 -188.80377 10854036
11.095104 -17.038986 -188.67798 9340541
12.1819 -17.134916 -188.65511 9011321
13.078979 -17.593025 -188.4975 10787473
123.3586 -17.208261 -140.24762 8352878
123.96692 -16.934778 -139.78888 7826791
124.6917 -16.973749 -139.05644 8748404
125.17109 -16.970181 -138.58684 8813941
9.4921913 -15.774696 -189.2892 8090987
10.165836 -15.997764 -189.1311 8748148
11.209087 -16.046131 -189.10777 8419184
12.201511 -16.227339 -188.98775 8089963
124.31584 -16.157639 -139.8683 7893352
125.01926 -15.947268 -139.35588 9406334
125.66821 -15.855365 -138.80441 9406078
126.39684 -15.630642 -138.27327 8353390
7.7002645 -14.884485 -189.94838 9538177
8.4551697 -15.034305 -189.84509 9998728
9.4263611 -15.066664 -189.83034 9867654
10.190945 -15.335117 -189.63263 8815481
126.25202 -14.978068 -139.11475 7037274
126.73457 -14.975198 -138.64308 7892839
127.46938 -15.046222 -137.89226 8550766
128.45235 -14.649654 -137.51791 8221546
129.35028 -14.54039 -136.82823 9405819
-14.686863 -14.21691 -199.84637 10063488
-13.580265 -13.912996 -199.84305 10260611
-12.511387 -14.068484 -199.6747 10524042
-4.2594256 -14.33819 -195.31458 10457993
-3.5575368 -14.337377 -195.33011 10457993
-2.6220357 -14.336287 -195.34703 9997699
4.9972653 -14.501085 -191.15224 9210491
5.682488 -14.497053 -191.09155 9999751
6.5970883 -14.494924 -191.05063 9472893
7.284306 -14.496368 -191.05817 8682867
131.30569 -14.158541 -136.58401 9010807
132.11592 -14.156309 -135.79086 9010808
132.60164 -14.155129 -135.31462 10853012
145.32384 -14.085757 -130.5806 10130313
145.94621 -14.084208 -129.88158 9341310
146.74883 -13.872443 -129.6535 7960429
147.75848 -13.66504 -129.28964 12367017
148.59845 -13.669415 -128.46178 14077637
-13.259258 -13.232867 -200.0596 9997696
147.81947 -13.03314 -129.55219 10196363
148.62611 -12.957874 -128.79773 13156535
149.43367 -12.882839 -128.04224 8682867
148.75352 -12.086796 -129.1171 10985881
149.48164 -12.058436 -128.41585 12630190
150.27049 -11.895553 -127.72355 8815220
149.6913 -11.137177 -128.67999 9998980
150.42152 -11.108574 -127.97691 9538686
151.21281 -10.94495 -127.28272 9208694
150.63322 -10.184185 -128.24086 9012599
151.34389 -9.867135 -127.70419 8551792
152.09578 -9.8703756 -126.96357 8747891
152.66756 -9.3923855 -126.64561 8287600
151.84897 -8.6669731 -127.82057 8617330
152.35957 -8.6687584 -127.31777 9602944
153.04094 -8.6712465 -126.64684 8287600
153.62047 -8.4323397 -126.19929 11904668
152.66423 -7.7849164 -127.46967 8090734
153.31259 -7.7062883 -126.8726 9142651
153.99594 -7.7084708 -126.19979 8222833
154.57744 -7.4683852 -125.75082 10262668
153.61943 -6.8191009 -127.02397 7039331
154.26981 -6.7398591 -126.42518 7039331
154.95522 -6.7417121 -125.75062 9407361
155.53888 -6.500423 -125.30009 12433325
154.47575 -6.0114374 -126.59469 7039331
155.14207 -5.7205501 -126.08826 10722964
155.91882 -5.7708974 -125.29917 8749429
156.50475 -5.5283527 -124.84724 6511954
155.26704 -5.0379252 -126.31408 13157045
155.94218 -4.8433895 -125.74978 8156781
156.79747 -4.7467961 -124.95851 6972249
157.47508 -4.5519753 -124.39194 6511954
156.23421 -4.0605545 -125.8625 7761509
156.82213 -3.8156819 -125.40968 7103835
157.44313 -4.0615902 -124.67383 7103835
84.231171 -29.487738 -157.69888 7761509
84.818611 -29.494335 -157.43646 7103835
85.601395 -29.503601 -157.08543 9603458
86.580299 -29.515764 -156.64426 9078143
87.558922 -29.528557 -156.20102 9012350
88.342102 -29.539314 -155.84451 9012350
89.320557 -29.553467 -155.39679 7761255
90.299011 -29.5683 -154.94685 6839895
91.081924 -29.580706 -154.58508 5919050
92.060547 -29.596849 -154.13051 7892583
93.039108 -29.613626 -153.67371 8092019
93.626762 -29.624008 -153.39833 8092019
100.82345 -29.460415 -151.01492 5919050
101.41518 -29.474077 -150.72704 5920074
102.40207 -29.497284 -150.24498 6249042
103.38916 -29.521217 -149.76054 7038307
104.14993 -29.532513 -149.32828 6511187
104.98335 -29.514835 -148.62082 9800836
22.626595 -28.882633 -184.47318 8092019
23.52393 -28.899139 -184.47754 11380380
24.466187 -29.142813 -184.12794 9603972
25.445862 -29.289545 -183.74463 9209467
26.325336 -29.288363 -183.62221 9209467
27.204262 -29.287174 -183.49557 9209467
34.744431 -29.273279 -179.22519 9735296
35.387711 -29.272369 -179.10011 9208953
36.244671 -29.271158 -178.92989 9011832
37.314812 -29.269638 -178.71109 9405822
38.383606 -29.26811 -178.4864 9734531
39.024258 -29.267189 -178.34846 10064265
49.25951 -29.248659 -172.83684 14605262
49.87962 -29.247719 -172.65945 14605262
50.911739 -29.246147 -172.3588 11315100
51.942112 -29.24457 -172.05235 9472383
52.764973 -29.243305 -171.80247 9538176
53.791882 -29.241722 -171.48447 8616819
54.816933 -29.240128 -171.16071 8287598
55.635525 -29.238853 -170.89709 9011577
56.656879 -29.237255 -170.56184 9340544
57.472702 -29.235968 -170.28975 8090992
68.320068 -29.403618 -164.48036 10851980
69.10907 -29.403557 -164.15877 9143419
70.095039 -29.404089 -163.75459 10590353
71.080101 -29.405233 -163.34868 8353647
71.867363 -29.406721 -163.02248 9406078
72.851486 -29.409161 -162.61263 9866373
73.835335 -29.412285 -162.2007 10129545
74.621307 -29.415268 -161.86978 9077365
75.603867 -29.419655 -161.45381 9668730
76.585823 -29.424673 -161.03581 10260355
77.370811 -29.429153 -160.69978 9273976
78.351883 -29.435463 -160.27765 8616563
79.332428 -29.442446 -159.85358 8616563
80.116539 -29.448519 -159.51268 9143419
81.096718 -29.456758 -159.08435 9012601
82.076538 -29.465647 -158.65392 8420720
82.860008 -29.473269 -158.30794 9341310
83.643532 -29.481386 -157.96043 8222060
92.548401 -29.297689 -154.94772 9208443
93.336037 -29.311064 -154.58069 9406335
94.320534 -29.328325 -154.11998 9867657
95.108215 -29.342663 -153.74942 8683386
96.092804 -29.361288 -153.28412 9669254
97.077888 -29.380543 -152.81628 10325894
97.865875 -29.396473 -152.44019 11576989
98.65432 -29.412903 -152.06238 15327705
99.639977 -29.434153 -151.5878 10195337
100.42909 -29.451504 -151.20633 5919050
106.37407 -29.191992 -148.69324 12432295
107.03993 -29.17869 -148.12109 11379609
107.70443 -29.165834 -147.54828 9736836
108.202 -29.156546 -147.11821 8814715
110.69945 -28.770864 -146.79988 10392973
111.4706 -28.85787 -145.99736 5919050
111.94708 -28.844971 -145.53558 5919050
22.508533 -28.142487 -184.74261 8092019
23.55365 -28.234926 -184.72083 8749691
24.442787 -28.473181 -184.64391 8682867
111.13844 -28.214724 -146.65173 9998215
111.66443 -27.982693 -146.25294 6445394
112.30058 -27.966002 -145.63599 6576978
112.94838 -27.659607 -145.15538 6971735
20.922276 -26.637686 -185.27489 7564386
21.627041 -27.003883 -185.14899 9604485
22.702717 -27.110277 -185.12242 8947069
23.593204 -27.347755 -185.04579 8092019
112.01796 -27.101936 -146.35429 6971735
112.54462 -26.870401 -145.95462 8419437
113.26675 -26.896496 -145.23132 7630953
113.86647 -26.620771 -144.78233 7565675
20.723602 -25.967905 -185.51755 7564646
21.760784 -25.938904 -185.54005 10130319
22.515484 -26.21785 -185.44678 12038052
112.85074 -26.207829 -145.99141 9538950
113.37793 -25.976717 -145.59091 9538950
114.1738 -25.958681 -144.81766 7170658
114.85956 -25.725342 -144.26248 6511954
19.935238 -24.992105 -185.86543 6511954
20.758286 -25.077665 -185.8436 7564651
21.581741 -25.163807 -185.82155 9011839
113.68517 -25.313318 -145.62703 9538950
114.29849 -25.124523 -145.12021 7960176
115.08273 -25.020458 -144.4023 8683639
115.69551 -24.833025 -143.89536 7564642
19.066822 -24.088743 -186.18596 8946556
19.890591 -24.173567 -186.16434 8616823
20.792965 -24.185455 -186.17036 7564651
114.52135 -24.418303 -145.26122 9538950
115.28639 -24.018473 -144.71284 9274749
116.05577 -23.948694 -143.99197 7169884
116.70683 -23.644075 -143.5072 9735812
18.126209 -23.035095 -186.56123 9144449
18.948372 -23.193413 -186.5125 9670536
19.883575 -23.144947 -186.5408 8947067
20.593071 -23.512102 -186.4144 7564651
116.20206 -22.89072 -144.3875 7498593
116.94581 -22.833475 -143.68547 9143675
117.54697 -22.750015 -143.13696 8222571
17.26738 -21.681976 -187.04712 9276293
18.059559 -22.138468 -186.88885 8223348
18.947384 -22.148085 -186.8954 11972775
116.61925 -22.178049 -144.34053 6511954
117.14909 -21.94828 -143.93683 10261894
117.78738 -21.937923 -143.31464 8880499
118.38902 -21.855053 -142.76534 8090218
16.165066 -20.773455 -187.36745 7565667
17.06271 -21.006336 -187.29227 9539465
18.194107 -21.01725 -187.30106 9276293
117.46169 -21.280521 -143.9698 11380372
117.99215 -21.050999 -143.56537 9735550
118.79037 -21.039137 -142.78664 8879733
119.48023 -20.808302 -142.22615 11379095
16.096031 -20.052902 -187.63058 7763049
17.180214 -20.152372 -187.6064 10986911
17.990093 -20.340099 -187.54678 10986911
118.30596 -20.38209 -143.59775 8090984
118.90021 -20.018681 -143.19888 8156778
119.68799 -19.919294 -142.47502 10589578
120.50287 -19.613264 -141.8298 12234657
15.156223 -19.113682 -187.96393 10195849
16.211868 -19.197056 -187.94531 8420725
17.112164 -19.43022 -187.87013 8092019
119.92222 -18.916748 -142.75554 9471351
120.66273 -18.751989 -142.11148 12958125
121.35197 -18.714457 -141.45299 13155503
14.273674 -18.203835 -188.28722 11510938
15.33675 -18.060047 -188.35188 10524558
16.238586 -18.293077 -188.27673 9406334
120.85181 -17.947809 -142.33536 8681835
121.59885 -17.894924 -141.62782 9472131
122.2032 -17.814377 -141.07475 7563877
13.364193 -17.050587 -188.69931 9932165
14.397221 -17.09071 -188.69635 12300452
15.361984 -17.153738 -188.68417 10130057
121.70387 -17.045219 -141.95761 8288116
122.45161 -16.993025 -141.24902 7958636
123.05666 -16.912825 -140.69504 8089706
11.765877 -15.783221 -189.30569 8089963
12.517822 -15.934014 -189.20422 7037533
13.487789 -15.968188 -189.18997 5590603
14.248543 -16.238085 -189.00691 9734786
122.13033 -16.324594 -141.90549 8814203
122.68169 -16.097439 -141.51584 9735047
123.42145 -15.872197 -141.00005 8090219
124.06591 -15.778862 -140.44247 10655115
124.90367 -15.423255 -139.96715 10260614
10.7342 -15.041426 -189.86288 7630441
11.567501 -15.118447 -189.81235 10130057
12.588963 -15.233547 -189.73454 8682101
124.48061 -14.990229 -140.8447 9142904
125.29239 -14.843237 -140.29004 10983823
125.9416 -14.768482 -139.77768 9537149
126.92472 -14.551387 -139.1848 6840661
127.57243 -14.548057 -138.55708 6840661
-12.036922 -13.701171 -199.76041 9734784
-11.306927 -13.93337 -199.59912 11049873
-10.342625 -13.922067 -199.50305 9734527
-9.3797798 -13.911063 -199.40695 10457481
-8.6541023 -14.143267 -199.24619 9010550
-1.9203756 -14.335469 -195.35703 10457993
-1.2185857 -14.334645 -195.36411 12038055
-0.28300068 -14.333546 -195.36987 12038055
7.9717259 -14.497861 -191.06409 9538177
8.8883514 -14.499727 -191.06595 9143933
9.8054008 -14.501791 -191.06525 8354675
129.03188 -14.166945 -138.80054 6380112
129.84502 -14.163578 -138.00954 9997186
130.49455 -14.161122 -137.37634 9734270
143.75397 -14.089632 -132.31459 8879995
144.61449 -13.94343 -131.72659 9208957
145.33662 -13.799542 -131.32651 10064006
146.24806 -13.658342 -130.77776 10262156
146.75133 -13.660419 -130.28207 9341310
-12.29665 -12.979869 -200.05249 10523786
-11.329105 -12.968961 -199.95586 9471612
-10.441807 -13.039638 -199.83766 9340023
-9.6346855 -13.191754 -199.69778 9208435
145.70509 -13.182988 -131.55411 9406335
146.35271 -12.900799 -131.06152 10656400
147.1127 -12.951075 -130.28888 7565675
147.68175 -12.716215 -129.8494 7565675
-11.345783 -12.243843 -200.22408 9208697
146.63361 -12.237288 -131.12405 11972000
147.28322 -11.954136 -130.63 8749433
148.04501 -12.004518 -129.85551 7565675
