# .PCD v0.7 - Point Cloud Data file format
VERSION 0.7
FIELDS x y z rgb
SIZE 4 4 4 4
TYPE F F F U
COUNT 1 1 1 1
WIDTH 1211
HEIGHT 1
VIEWPOINT 0 0 0 1 0 0 0
POINTS 1211
DATA ascii
136.87947 -67.805077 -11.381641 9209467
137.11879 -67.947464 -10.69656 9603714
106.06193 -68.018211 97.546616 8090987
105.56728 -67.665802 97.954727 8222061
137.21991 -66.822121 -11.493317 8814453
137.45509 -67.112656 -10.682053 9537665
105.77475 -66.727997 98.227798 8682868
105.1786 -66.54438 98.620972 9143163
137.22377 -65.904663 -12.32497 7695205
137.58446 -65.829193 -11.558109 8287855
105.90036 -65.694206 98.583786 9734788
105.27797 -65.747482 98.894028 9603971
137.4157 -64.490593 -13.175819 7959408
137.53082 -64.965256 -12.474136 8156531
105.47907 -64.727669 99.204109 8025200
104.90691 -64.599663 99.561737 8288371
137.61865 -63.766415 -13.362564 7630444
137.88828 -63.938278 -12.586559 7893359
105.73347 -63.954052 99.38501 7038307
105.02898 -63.71423 99.858932 7762029
137.6675 -62.727577 -14.147781 8419956
137.88647 -62.952091 -13.484486 8090994
105.22833 -62.840031 100.11034 8288372
104.67735 -62.48222 100.55066 7038307
137.74745 -61.44252 -15.049568 7038307
137.92268 -61.844021 -14.355961 8617078
138.18515 -62.059418 -13.620049 8617331
105.34715 -61.813641 100.467 9011838
104.78609 -61.659073 100.82953 9538181
138.13779 -60.631962 -15.23613 8945788
138.28918 -60.950684 -14.436592 8353906
104.90142 -60.820686 101.1508 9801609
104.33762 -60.667576 101.56361 13024949
138.56062 -59.458096 -17.161171 8485489
138.56757 -59.698769 -16.149822 9538178
138.58739 -60.053329 -15.309273 8090736
104.64201 -59.909313 102.02038 11643553
104.2414 -59.468307 102.7449 8749172
103.6284 -59.356617 103.21179 6511954
141.7076 -58.716297 -27.830055 9340027
141.83449 -58.897663 -26.854763 8879477
141.3007 -59.089214 -25.81987 7630178
141.45061 -59.087399 -24.971272 9932163
140.60672 -59.086758 -23.956554 7565675
140.77238 -59.084602 -22.943161 5853514
139.92625 -59.084007 -21.947567 5392706
140.05255 -59.082237 -21.107182 5590342
139.85902 -59.080753 -20.164841 6644058
139.32069 -59.079926 -19.293369 7037274
139.15471 -59.155334 -18.251133 7300702
139.12007 -59.289612 -17.228893 7827562
103.96487 -59.127571 103.85048 8223085
103.61976 -58.937241 104.71147 7762277
103.66222 -58.897968 106.02942 7039331
103.01913 -58.89777 106.64913 11904927
102.91023 -58.89587 107.74637 14075838
102.45905 -58.894817 108.66468 9866371
102.30367 -58.893383 109.55578 10196106
102.14168 -58.891949 110.44753 11183001
101.67492 -58.890915 111.37227 10393485
101.61678 -58.673737 112.66891 8222575
101.11451 -58.52911 113.11218 7564392
141.85623 -57.662323 -28.568417 10787984
142.02917 -57.916267 -27.787727 9537406
142.15176 -58.278221 -27.032726 8089963
101.21194 -57.729832 113.40584 9735296
100.75214 -57.347427 113.80753 11906463
141.90535 -56.723469 -29.466644 7564643
142.12169 -56.801117 -28.755852 10327948
142.36061 -56.864498 -27.99575 9735812
101.3742 -56.709282 113.73685 14604230
100.7737 -56.580673 114.10976 9208696
142.14449 -55.92593 -29.659531 8748403
142.40318 -55.929039 -28.909019 10393741
100.85835 -55.723675 114.41503 10853776
142.40147 -54.529297 -30.464481 13550517
142.49686 -54.951939 -29.720928 11116948
142.70428 -55.134041 -28.920147 10525327
101.12886 -54.786186 114.6546 7827813
100.51795 -54.583691 115.05438 6840662
142.50935 -53.417755 -31.384357 10853265
142.60274 -53.803555 -30.687347 9866627
142.84241 -53.908592 -29.878807 12563369
101.25378 -53.932549 114.93719 6511954
100.63859 -53.689293 115.35412 8024936
100.01391 -53.442265 115.75916 11182484
142.68553 -52.814697 -31.543575 12300197
142.92323 -52.904854 -30.757286 11576731
143.08089 -53.111736 -30.07299 10853265
100.78231 -52.870548 115.6142 9603710
100.23317 -52.541389 116.01459 12037793
142.81445 -51.584961 -32.533554 8090987
142.9619 -51.940006 -31.714489 12826284
143.12128 -52.241367 -30.92041 14470595
100.44453 -51.672386 116.261 12301225
99.796097 -51.508133 116.64157 11906725
143.09952 -50.823265 -32.554203 9866372
143.35481 -50.950176 -31.676323 12695979
100.46875 -50.721584 116.63109 10590352
99.860573 -50.671448 116.94633 10130058
143.20831 -49.690891 -33.494427 9602944
143.45242 -49.788963 -32.680843 10261385
143.54906 -50.171314 -31.978271 12432807
100.08033 -49.617645 117.26286 8945528
143.4749 -48.835907 -33.671738 9208443
143.7128 -48.946728 -32.862038 9537407
100.30678 -48.678341 117.53023 8089963
99.628586 -48.625656 117.88046 9472128
143.58691 -47.822472 -34.470798 8880504
143.7989 -48.046982 -33.609955 8946041
100.27277 -48.101376 117.7785 8681843
99.751617 -47.679169 118.20085 9537920
143.72041 -46.764145 -35.386993 8617588
143.92928 -46.869678 -34.614799 8814968
144.07027 -47.061569 -33.917812 8814968
99.930687 -46.703201 118.53117 9735299
99.460701 -46.517799 118.84235 8681843
144.19722 -45.64584 -36.441929 8551538
144.27301 -45.930538 -35.553524 8748918
144.34317 -46.201061 -34.714588 8814968
99.524681 -45.870667 119.30998 9603714
99.063316 -45.519863 119.83007 10130313
145.29231 -44.40789 -39.211597 10589324
144.97339 -44.569126 -38.567287 8945270
144.66911 -44.830235 -37.436394 9274748
144.64743 -45.083775 -36.444767 8550513
99.27507 -44.953732 120.20671 9276032
99.02932 -44.514935 120.97667 9539202
98.805244 -44.258209 121.90043 9539201
148.05391 -43.670795 -50.627991 10458252
148.23477 -43.859509 -49.896252 10458252
148.48006 -43.860493 -49.18679 11905692
147.49521 -44.121643 -48.079231 10721937
147.77872 -44.119553 -47.192917 10919573
146.67436 -44.118736 -45.876472 8682867
146.89062 -44.117085 -45.171371 8682867
147.10397 -44.115437 -44.465408 9735812
146.00037 -44.114685 -43.181808 10064777
146.25404 -44.112652 -42.30447 10196107
145.38647 -44.181168 -41.113277 7037274
145.50026 -44.241386 -40.204556 9207929
145.13202 -44.403099 -39.72942 10589324
148.33525 -42.790771 -50.791672 10326666
148.52174 -43.024441 -49.994003 9734787
148.38947 -41.973499 -51.541851 10261132
148.6364 -41.972759 -50.829533 9800837
148.81825 -42.16164 -50.094944 9866371
148.69618 -40.974888 -51.763931 9406594
148.89673 -41.15398 -50.986179 9209214
149.07011 -39.940895 -51.831161 9669765
149.36679 -38.757236 -52.287632 10262924
149.29924 -39.136066 -52.062485 10262924
113.86148 -78.62925 74.748772 9341571
113.52473 -78.504128 75.213264 9341571
112.81911 -78.538857 76.021294 9341571
113.52052 -77.915771 75.545624 9407107
112.98849 -77.833618 76.215103 10195852
112.52229 -77.532494 76.92923 12300715
132.10637 -76.41655 9.9081306 10525071
132.2771 -76.558121 10.880623 10853524
113.26718 -76.811172 76.457283 9997959
112.74488 -76.645226 77.161957 11445403
112.27288 -76.610672 77.734512 9931905
132.19403 -75.531555 8.158989 8682867
132.26585 -75.73674 9.0893154 9143417
132.40579 -75.849373 10.044733 9998469
132.38411 -76.177322 10.729067 10854036
112.99325 -75.777206 77.413025 9734787
112.44299 -75.717087 78.153961 9405564
111.89991 -75.593033 78.880005 8089963
133.08356 -74.395729 6.3989339 9932420
132.90242 -74.547394 7.0832429 10524816
132.66197 -74.887489 7.9853311 8814198
132.63951 -75.159698 8.8274632 8682867
112.60293 -75.070061 78.66967 9537150
112.23336 -74.929283 79.268845 8616050
111.76684 -74.69664 80.053436 9537150
111.56911 -74.321548 80.943649 10590091
110.96535 -74.237839 81.776184 9537659
136.65054 -73.789124 -6.423305 8552312
136.86165 -73.867599 -5.4831843 8946554
136.27744 -74.056923 -4.6094775 9341565
135.98474 -74.055313 -3.5228918 10657166
135.80701 -74.053429 -2.3775289 9539199
135.21809 -74.053078 -1.7200849 10261123
135.22351 -74.050934 -0.58401459 9210491
134.90508 -74.049416 0.48510391 10262666
134.42522 -74.048805 1.1913531 10394251
134.40959 -74.047005 2.1593478 11709858
134.12227 -74.045326 3.281111 7169628
133.61942 -74.068069 4.0696435 7827558
133.46695 -74.188171 5.1189828 9340540
133.3893 -74.264969 5.8797154 9735297
111.9388 -74.117233 81.461922 9537664
111.49416 -74.084549 81.961708 9274485
111.07529 -73.983177 82.896957 9669503
110.71928 -73.929008 83.88446 9537659
110.53898 -73.927551 84.801926 8814710
110.24741 -73.926018 85.852188 9012606
109.9501 -73.924484 86.905624 7894639
109.74915 -73.92305 87.827286 7762541
109.27279 -73.922035 88.749329 9011835
109.33225 -73.920197 89.678207 8485745
108.56871 -73.919632 90.592758 7433058
108.78173 -73.917282 91.667274 9274749
108.2869 -73.78756 92.748062 9340288
107.89577 -73.5578 93.524094 8551288
107.50571 -73.302177 93.965874 8814203
136.75464 -72.669815 -7.2135119 13485750
136.99203 -72.971367 -6.3869472 12301735
108.20713 -72.70768 93.665123 8288117
107.46048 -72.684158 94.292725 9011581
136.84604 -71.592506 -7.9887652 9406078
137.06151 -71.806923 -7.2929606 11775392
137.26921 -72.06002 -6.5796046 11380891
108.12872 -72.014931 94.054337 8419703
107.717 -71.748772 94.519005 8814203
107.10839 -71.480019 95.147446 7564651
137.05563 -70.790848 -8.2375259 10392458
137.32594 -70.967094 -7.4495196 10458767
107.92023 -70.809967 94.790878 9472643
107.35706 -70.567574 95.369492 8025200
137.17378 -69.657722 -9.0019112 11379095
137.41154 -69.808533 -8.3127022 11905695
137.58492 -70.037415 -7.7011523 10853012
107.52179 -69.797455 95.594147 9933193
106.95768 -69.587616 96.158264 10064525
137.38057 -68.860901 -9.252758 8550257
137.67052 -68.969681 -8.4811287 10787472
107.71735 -68.829895 95.885818 9472386
107.14651 -68.690323 96.422615 10525073
106.59509 -68.395988 97.015839 9340797
137.49376 -67.737213 -10.020073 9537665
137.76709 -67.882561 -9.2533722 8879735
107.33474 -67.793999 96.686981 10393742
106.66174 -67.667183 97.296738 9472383
137.80438 -66.790146 -10.16785 9537665
138.01263 -66.989304 -9.5027657 9537665
107.54862 -67.203613 96.786827 10854036
106.96214 -66.857262 97.430542 10393485
106.44025 -66.475876 97.975967 8617331
137.86008 -65.689117 -11.047668 9669507
138.07542 -65.975891 -10.285793 9274493
107.17155 -65.915489 97.701569 8946296
106.60011 -65.652161 98.222931 8682870
138.15366 -64.787811 -11.193119 9998473
138.38773 -65.037956 -10.421425 8617331
106.69246 -64.788918 98.527214 8813945
106.10311 -64.673424 98.893463 8353651
138.17636 -63.82613 -12.021614 8748409
138.40826 -63.96109 -11.360466 9472128
106.83106 -64.109528 98.73587 8813945
106.32582 -63.580238 99.22197 7893358
138.31409 -62.549438 -12.8722 7893610
138.4749 -62.908009 -12.17099 8025201
138.69254 -63.142536 -11.451687 8090987
106.45544 -62.760525 99.488235 7959151
105.89556 -62.582344 99.859825 8090993
138.56161 -61.775661 -13.007603 7893607
138.81306 -61.872459 -12.336174 8814710
106.60581 -61.982445 99.726486 9012091
106.02633 -61.714512 100.14523 9209471
105.49731 -61.265503 100.61115 9011838
138.62602 -60.852978 -13.882801 7827814
138.89284 -60.904476 -13.188694 7301470
139.05731 -61.083748 -12.493141 7564642
106.22229 -60.838089 100.42879 9143422
105.76917 -60.457893 100.95345 8551287
139.5125 -59.379177 -15.748756 9735812
139.26704 -59.590939 -15.020847 7762028
139.1124 -60.069763 -14.184158 6709334
139.16635 -60.355198 -13.514557 6511954
105.7543 -59.888725 101.44485 8814202
105.42727 -59.484699 102.09608 9011322
105.03998 -59.240482 102.87253 8089963
142.20384 -58.867584 -26.335083 9932163
142.49088 -58.84473 -25.680988 10392714
142.1852 -59.085762 -24.688763 11050387
141.65141 -59.084858 -23.781685 9143163
141.81577 -59.082691 -22.760757 5392706
140.93059 -59.082458 -21.928604 5392706
141.08156 -59.080326 -20.912861 5722442
140.71146 -59.079163 -19.998207 7828588
140.35735 -59.077667 -18.918968 8682868
140.18921 -59.083839 -17.813904 9077882
139.77116 -59.139679 -16.96722 9012091
139.66493 -59.26424 -16.274544 9341055
105.46755 -59.057045 103.29468 8089963
104.89735 -58.982265 103.98147 8287853
104.68272 -58.898312 105.02943 9276029
104.04615 -58.898098 105.6558 8091760
104.28375 -58.895348 106.92873 7039331
103.63555 -58.895145 107.55235 13549494
103.73331 -58.892342 108.96581 8616048
103.07285 -58.89217 109.58611 11183003
103.1582 -58.889355 111.0154 10919830
102.72815 -58.697762 111.95303 11183001
102.30843 -58.450844 112.52591 6511954
142.49721 -57.882782 -26.567177 7958888
142.68758 -58.197529 -25.893799 9932163
102.42009 -57.716831 112.76669 7696229
142.6226 -56.701584 -27.419621 10262155
142.83253 -56.964291 -26.630657 7367271
102.68027 -56.825348 112.99269 9143160
102.02139 -56.634167 113.42238 12498343
142.66579 -55.885342 -28.19907 9735812
142.92841 -55.843121 -27.487633 10854291
143.12074 -55.958046 -26.863392 8157043
102.75608 -55.983471 113.29665 9537918
102.21471 -55.660725 113.71758 10524812
101.5399 -55.492809 114.14616 11906463
142.9286 -54.922489 -28.506802 12235942
143.17722 -55.012455 -27.689224 10393741
102.2756 -54.882141 114.00362 9011831
101.75146 -54.631973 114.3856 9143673
143.09647 -53.715729 -29.35886 10591123
143.29523 -53.969143 -28.504139 10065036
101.94998 -53.653156 114.68022 9011831
101.39159 -53.367889 115.09477 6511954
143.27361 -52.57217 -30.114033 8682867
143.43121 -52.78019 -29.42849 10065036
143.60384 -53.054367 -28.626343 9144192
102.06929 -52.654087 115.02535 8156778
101.41089 -52.601967 115.39787 7630434
143.41643 -51.901611 -30.44445 9735298
143.71802 -51.913734 -29.560188 7039331
101.62196 -51.735981 115.63956 9603712
101.06847 -51.232227 116.13385 11906468
143.58087 -50.734921 -31.261993 12432807
143.79253 -50.912453 -30.454121 11248535
143.89059 -51.333725 -29.704342 8091504
101.79929 -50.777386 115.93731 9734787
101.20576 -50.667919 116.29274 10261387
143.80476 -49.452435 -32.036053 10261385
143.8788 -49.833611 -31.400063 10458764
144.12134 -49.954227 -30.566036 13485750
101.84182 -50.14114 116.17491 10261387
101.2656 -49.713295 116.64652 10261387
100.67951 -49.282532 117.10676 8681843
143.94043 -48.907356 -32.248199 10787728
144.24919 -48.85965 -31.409416 8682099
101.60319 -48.685238 116.89552 8484722
101.04772 -48.621933 117.19337 8550514
144.10547 -47.621368 -33.196102 8814968
144.23914 -47.968987 -32.425114 9142903
144.36543 -48.20525 -31.79863 9471868
101.01315 -47.727707 117.56926 7959150
100.45374 -47.349403 117.99261 10262156
144.32155 -46.541409 -33.977314 8814968
144.37856 -46.907776 -33.259651 10525070
144.61641 -47.002598 -32.43819 6906712
101.1433 -46.890888 117.84213 8748665
100.68563 -46.500797 118.26676 9932936
144.77351 -45.548649 -35.00177 8814968
144.78281 -45.84906 -34.269043 11380123
144.86047 -46.10437 -33.444107 12892846
100.95751 -45.766331 118.70499 8485236
100.48803 -45.453304 119.19705 9736070
145.61058 -44.418407 -38.174904 8550513
145.63782 -44.512241 -37.175865 9340542
145.40132 -44.706055 -36.077496 9406078
145.08018 -45.055912 -35.260288 8287597
145.3013 -45.129566 -34.453312 11445661
100.37336 -44.987968 119.64632 9012606
100.1464 -44.592571 120.25815 8289140
100.0506 -44.249233 121.33199 9538948
148.66386 -43.861946 -48.65451 11181972
148.93234 -43.90284 -47.833969 10064264
147.94624 -44.118298 -46.660252 10459022
148.16631 -44.116627 -45.948925 9866629
148.38342 -44.114967 -45.236809 11511452
147.26146 -44.114197 -43.935238 10459279
147.51976 -44.112152 -43.050159 10196107
146.6004 -44.109818 -41.073502 8089963
146.88968 -44.107395 -40.016361 8879479
145.98274 -44.198406 -39.208462 11905183
146.25003 -44.207508 -38.340912 9932678
99.691231 -43.994438 122.39473 9472643
99.039726 -43.968597 122.79858 7564651
148.85027 -42.665833 -49.443237 9800576
149.01268 -42.957085 -48.65107 9932163
149.16527 -43.299667 -47.83057 9537664
149.04396 -41.935524 -49.693958 9800577
149.31418 -41.975048 -48.869884 9208435
149.21098 -40.838749 -50.428394 9866371
149.38472 -41.112701 -49.622803 9997958
149.35588 -39.514137 -51.479565 14605262
149.51184 -39.85466 -50.651272 10524813
149.6763 -40.1455 -49.853951 9734784
149.58859 -38.907589 -51.480289 12828851
149.86143 -38.945118 -50.650776 12433325
149.6265 -37.998154 -52.37962 13157816
149.87593 -37.996895 -51.660824 9736836
150.05991 -38.186222 -50.919575 12433325
150.07924 -36.85754 -52.337654 11709856
150.20161 -37.046814 -51.774437 8092011
150.36243 -35.969517 -52.505112 9998212
150.53802 -35.334454 -52.702427 9537918
115.34888 -78.679688 72.97699 9867398
114.81954 -78.503159 73.695786 11446173
114.17921 -78.430527 74.486984 11643810
115.06388 -77.855751 73.769623 9867398
114.419 -77.703491 74.610374 9604484
113.88208 -77.618736 75.287003 9341571
132.36217 -76.630363 11.368259 9537664
132.5742 -76.61055 12.258717 8287853
132.70917 -76.775902 13.114283 9077369
115.14783 -77.229584 74.0196 9867398
114.74662 -76.896637 74.675186 9077882
114.08942 -76.719376 75.544342 9471872
113.58774 -76.459793 76.276917 9734787
132.71916 -75.479546 10.275185 10458505
132.72583 -75.787613 11.239239 10392717
132.76909 -76.028847 12.100414 9735043
114.8561 -76.064964 75.00972 10261641
114.51998 -75.785309 75.635544 9866628
113.88593 -75.671745 76.490334 8353135
113.42069 -75.345131 77.386841 8353135
133.33067 -74.445793 8.2315674 9209210
133.31129 -74.613373 9.1949482 8814453
133.17708 -74.865677 10.150579 9208955
133.15384 -75.152344 11.050257 10261132
114.2587 -75.012505 76.79715 8089963
113.86224 -74.761574 77.587051 8484721
113.34482 -74.649734 78.38089 9011065
112.91869 -74.456696 79.216904 9537150
112.49962 -74.347237 80.019203 9537150
137.28841 -73.69519 -5.0368228 9801604
137.45102 -73.910141 -4.1062732 9012600
136.79082 -74.053833 -3.3767087 9210491
136.81007 -74.051636 -2.2273519 9670785
136.3373 -74.050674 -1.3373449 8947319
136.01897 -74.049438 -0.42132539 10986132
136.01492 -74.047607 0.55812865 10394251
135.60629 -74.046387 1.5317061 12564910
135.1907 -74.045189 2.4993937 10920086
135.16565 -74.043396 3.4728301 8551026
134.73981 -74.042236 4.4316754 9538176
134.30711 -74.041092 5.3845696 10261384
134.06146 -74.10334 6.4058747 12037279
134.04207 -74.161385 7.308764 10130056
133.83224 -74.292664 8.264225 10721676
113.42492 -74.197845 79.656677 9997701
112.91999 -74.137199 80.526062 9866115
112.55344 -74.034157 81.291328 10392717
112.09636 -73.931755 82.408386 8748144
112.19266 -73.927864 83.317383 9998726
111.58468 -73.927254 84.122688 9735296
111.67609 -73.925385 85.041206 9011573
111.11699 -73.924232 86.105087 9012348
110.96741 -73.922371 87.210197 9472900
110.62282 -73.921234 88.095123 7565675
110.27352 -73.92009 88.981499 9472638
110.21014 -73.91835 89.960007 7893608
109.55432 -73.917847 90.750816 7893608
109.66031 -73.76429 91.961609 9537921
109.05251 -73.544647 92.575058 9668996
137.28201 -72.628769 -6.0287929 10065291
137.58252 -72.807671 -5.1683574 9867141
137.73582 -73.26841 -4.3907313 8682867
109.83163 -73.011269 92.181465 10063753
109.22497 -72.732697 92.812912 9669253
108.74378 -72.391533 93.370071 8551288
137.57785 -71.82563 -6.0789676 10065291
137.88504 -71.919403 -5.2811351 10262156
109.48599 -71.795624 93.036217 9011065
108.75851 -71.688766 93.687073 8551288
137.70753 -70.716225 -6.7949214 9801349
137.94473 -70.874153 -6.1004138 9604483
138.07771 -71.302704 -5.3996387 9734784
109.49368 -70.989494 93.40744 7563619
109.01724 -70.753845 93.911263 8419701
108.40392 -70.622475 94.479271 10590865
137.79126 -69.502464 -7.7130771 9735299
137.89619 -69.911224 -7.0952792 9998215
138.22064 -69.965561 -6.2935367 10458510
109.17022 -69.874283 94.196953 7564651
108.6684 -69.61808 94.731293 9867143
108.00311 -69.519272 95.32692 10854036
138.0453 -68.698601 -7.860889 9735299
138.27536 -68.930054 -7.1154857 9866629
108.7816 -68.822258 95.010544 8946300
108.23582 -68.668015 95.533524 8946044
138.11403 -67.574303 -8.7315979 8814198
138.28824 -67.850319 -8.0750313 11906463
138.54832 -68.026382 -7.3110385 10656654
108.94185 -68.073654 95.228867 7564651
108.5118 -67.658119 95.778625 8551542
107.89362 -67.533279 96.347557 8814713
138.31952 -66.779716 -8.9835052 9077370
138.59573 -66.947937 -8.1892014 11972770
108.63233 -66.718262 96.119247 8814713
107.96579 -66.666855 96.693764 8946298
107.48287 -66.441635 97.198059 10854036
138.42924 -65.659851 -9.7553024 8814198
138.70773 -65.848183 -8.9373703 8288624
108.28405 -65.828445 96.823624 8090992
107.61135 -65.533104 97.517441 9208957
138.67303 -64.841515 -9.9402771 8617331
138.92139 -65.036201 -9.1863899 8551539
108.41849 -64.997711 97.101707 7038307
108.00399 -64.637283 97.612808 7564393
107.32482 -64.668533 98.159012 8485237
138.79115 -63.617443 -10.788109 9012089
139.01825 -63.940937 -9.9655457 9012089
107.98136 -63.834164 98.007629 7630443
107.41936 -63.746971 98.504333 8484980
139.09232 -62.784077 -10.853905 8748917
139.32155 -62.965611 -10.156441 8617331
107.74044 -62.771378 98.700768 7630186
107.12474 -62.472591 99.249054 9274750
139.10359 -61.759075 -11.766994 8879990
139.3318 -62.019577 -10.999516 8222060
107.87237 -61.945389 98.982285 9012091
107.25549 -61.6633 99.5084 9012091
139.3833 -60.548218 -12.634823 6840919
139.50401 -60.842968 -11.857487 7432800
139.62926 -61.077747 -11.192673 7761509
107.47115 -60.902649 99.733086 8617335
106.84876 -60.587223 100.27832 9012091
139.8118 -59.451061 -14.593494 7563874
139.80457 -59.64325 -13.720863 6116941
139.8199 -59.907791 -12.899563 6380368
139.85861 -60.19014 -12.226032 7761509
107.05883 -59.902935 100.73669 7564651
106.66163 -59.554298 101.32015 9143421
106.16841 -59.31749 101.99352 8089963
142.89098 -58.570995 -25.163071 13352629
143.12016 -58.765095 -24.37714 14734279
142.73553 -59.082573 -23.432438 9340795
142.89772 -59.080395 -22.40374 7038298
141.99786 -59.080177 -21.568134 7433317
142.17044 -59.077679 -20.374077 9209982
141.27136 -59.077488 -19.557003 9209982
141.40517 -59.075375 -18.538891 12959408
141.19054 -59.073921 -17.593681 9011832
140.62836 -59.073135 -16.726357 9472641
140.58661 -59.108261 -15.696075 8090993
140.33318 -59.270115 -14.816467 7103582
140.53288 -59.316933 -13.985077 5919050
106.60115 -59.134209 102.41234 9340285
106.22479 -58.951443 103.2899 9142907
105.69419 -58.898689 104.02031 8813686
105.8243 -58.895874 105.41643 9538176
105.05673 -58.895599 106.17538 8815225
105.30337 -58.892815 107.46126 8749689
104.52104 -58.892563 108.21637 8222832
104.75813 -58.889767 109.51921 9012606
104.22713 -58.889622 110.02034 11380638
104.07068 -58.745056 111.19357 10065036
103.52448 -58.527885 111.84575 8157038
143.18913 -57.726734 -25.249924 13550777
143.40318 -57.972775 -24.603233 14208193
104.24722 -58.055622 111.65344 9012606
103.688 -57.614494 112.13228 8748661
103.03362 -57.552841 112.50659 7564643
143.14742 -56.741226 -26.156403 7038307
143.40405 -56.950706 -25.452087 12762803
103.9262 -56.669514 112.39188 14077894
103.30908 -56.676884 112.71806 9208953
143.46414 -55.799446 -26.286297 9078144
143.70677 -56.086342 -25.546429 11710117
103.50681 -55.664864 113.02664 10327433
102.89698 -55.417564 113.45309 8551280
143.49516 -54.810776 -27.053745 11710117
143.81056 -54.876923 -26.338768 13289147
103.57863 -54.706078 113.38066 9537917
102.92043 -54.648685 113.75522 7564642
143.61592 -53.560097 -28.031193 8618105
143.75948 -53.92598 -27.271053 8946042
143.93152 -54.191345 -26.659538 10655886
103.13623 -53.78096 113.99515 7827815
102.58917 -53.273018 114.49483 9143675
143.88246 -52.678791 -28.23774 7236710
144.07233 -52.978973 -27.403194 8156527
103.33012 -52.660557 114.35018 7038298
102.72882 -52.707314 114.65179 7564642
143.98444 -51.72197 -29.003166 7039331
144.22148 -51.837372 -28.190823 7170660
144.36525 -52.153793 -27.459858 8287856
102.79632 -51.751087 115.00705 8551538
102.22758 -51.321949 115.48607 8681843
144.21675 -50.951538 -29.185871 6643804
144.43762 -51.027176 -28.464188 7301733
103.13486 -50.719883 115.24841 10195850
102.50689 -50.575184 115.64259 10656401
144.33046 -49.809872 -30.122086 14604230
144.57358 -49.914436 -29.304287 8288114
144.6682 -50.302982 -28.600651 6511962
102.576 -49.702198 115.96294 9866629
101.97935 -49.57568 116.33292 8681843
144.58305 -48.415195 -30.937634 8089963
144.68321 -48.835079 -30.183296 10130314
144.89604 -49.013733 -29.370667 7827820
102.70165 -48.924801 116.21401 8945271
102.23495 -48.525223 116.62642 8682100
144.71931 -47.86911 -31.149052 8682608
145.00136 -47.900024 -30.300323 8879478
102.33653 -47.709938 116.90583 8945529
101.81762 -47.454575 117.28714 8090736
144.83803 -46.859108 -31.995319 11379350
145.07237 -46.974106 -31.15303 11708315
145.13808 -47.353271 -30.511375 9142651
102.45487 -46.922855 117.16479 10261132
101.87164 -46.601402 117.6368 8485237
145.30795 -45.727909 -33.033363 9077366
145.37891 -46.018398 -32.145222 9406074
145.44466 -46.294399 -31.30632 13023917
102.13784 -45.869911 118.04292 8090736
101.73472 -45.455959 118.59155 8090736
146.08147 -44.43642 -36.616764 10854036
146.28809 -44.445377 -35.923092 10656145
146.01096 -44.610958 -35.113869 8879734
145.75955 -44.896988 -34.007713 10656402
145.72141 -45.209171 -33.053616 8156780
101.99455 -44.802624 119.0356 9536894
101.3449 -44.675896 119.51519 8813943
101.18366 -44.29694 120.61986 8486519
149.2184 -43.679653 -47.255371 10459022
149.41437 -43.900269 -46.444878 10195850
149.63707 -44.068188 -45.61533 9537923
148.59656 -44.113304 -44.523457 9537923
148.85861 -44.111233 -43.630627 10524559
147.72285 -44.110512 -42.341255 8089963
147.92206 -44.108879 -41.631054 10261387
148.11847 -44.10725 -40.920128 11379868
147.03125 -44.10619 -39.487019 10459284
147.2168 -44.104584 -38.780216 10459284
146.77455 -44.177948 -37.788242 9735558
146.72514 -44.226089 -36.776394 8813941
100.99327 -44.047718 121.58183 8486519
100.66187 -43.920631 122.58249 13090741
100.07708 -43.870548 123.48145 10590609
149.44974 -42.877159 -47.477757 9866885
149.68585 -43.004639 -46.654411 10459022
149.49869 -41.97681 -48.335155 9077625
149.80881 -41.838528 -47.593086 9538176
149.92461 -42.172951 -46.887817 10459278
149.70854 -40.651318 -49.199703 9866371
149.82477 -41.031803 -48.441833 8945782
150.13655 -40.845654 -47.748138 9538176
150.00662 -39.785957 -49.298786 10129801
150.19368 -40.022717 -48.496078 8946039
150.04765 -38.945473 -50.112659 11314588
150.29578 -38.946667 -49.394943 10261644
150.47823 -39.138237 -48.655666 9209467
150.25551 -37.616554 -50.98674 10261644
150.37477 -37.9492 -50.273308 11314588
150.57034 -38.149685 -49.486229 11117209
150.44603 -36.801861 -51.340282 8485488
150.73422 -36.903912 -50.394978 9932679
150.59563 -35.714718 -52.114288 10261383
150.79828 -35.931694 -51.288445 9340796
150.82622 -34.90443 -52.347279 10984849
151.06917 -35.027412 -51.50906 10721934
151.12587 -33.615616 -52.910583 9537918
151.21666 -33.901371 -52.331661 10984849
151.38773 -32.849892 -53.00325 10129539
151.51392 -32.849075 -52.639587 8681835
151.64995 -32.083027 -53.096081 10129539
117.19611 -78.983948 70.642021 8420470
116.8371 -78.748749 71.193787 9603716
116.21146 -78.677124 71.967133 9406594
115.74398 -78.562073 72.579285 9867400
116.90968 -78.052849 71.495956 9340801
116.49853 -77.751213 72.14579 9209469
115.87118 -77.683746 72.918823 8748917
115.45889 -77.387169 73.567245 9867398
132.82993 -76.724464 13.556301 8616559
132.99277 -76.774727 14.36787 8419435
133.02773 -76.92157 15.255857 7564127
132.94797 -77.235199 15.940714 9406590
116.62303 -77.000191 72.417694 9735812
116.22399 -76.740112 73.030251 8617331
115.52682 -76.696762 73.871742 9275261
115.1637 -76.471909 74.422531 9867398
133.15157 -75.568222 12.468969 9669250
133.15538 -75.880592 13.37405 8550766
133.27176 -75.995834 14.227665 9077108
116.35492 -76.114731 73.224731 8617331
115.8841 -75.80114 74.022881 8683123
115.27 -75.706207 74.836731 9998469
114.88736 -75.382118 75.624359 9472126
133.88632 -74.376633 9.7213516 8682867
133.80956 -74.479454 10.604446 9997960
133.66602 -74.712448 11.522356 9866630
133.68886 -74.877762 12.414904 9997960
133.65889 -75.138321 13.208994 9143415
115.72636 -75.05545 75.026108 9603712
115.23049 -74.793083 75.918106 10393227
114.80811 -74.589066 76.768005 8287598
114.61554 -74.326569 77.642639 8879479
114.42987 -74.230377 78.32399 9537409
137.90298 -73.564178 -3.7323987 9998724
137.96277 -73.805077 -3.0705526 11576985
137.62206 -74.050133 -2.0724943 10789010
137.42778 -74.048401 -0.99833649 8092011
137.02351 -74.047462 -0.17453736 8355183
136.81447 -74.045769 0.89278442 9275517
136.59891 -74.04409 1.9561427 8748405
136.18068 -74.043198 2.7662394 9932935
135.95056 -74.041557 3.8225443 7168861
135.91589 -74.039772 4.8014321 7695717
135.35194 -74.039124 5.5931172 9406589
135.03133 -74.037506 6.7158875 10919314
134.81252 -74.0569 7.7591386 10261900
134.63116 -74.095558 8.6408081 10853525
134.50917 -74.169975 9.5248566 9669504
134.41714 -74.271042 10.57349 9603458
114.44535 -74.123238 78.822205 9537409
113.99512 -74.081924 79.548508 9537409
113.90066 -73.961205 80.611122 10261129
113.39108 -73.9291 81.693695 9932422
113.23313 -73.927597 82.621567 8551025
113.06783 -73.926102 83.550323 9800836
112.45814 -73.925499 84.361923 10327435
112.72253 -73.923111 85.415833 9932418
111.99476 -73.922432 86.359192 9011832
111.97515 -73.920456 87.426987 11182486
111.50475 -73.919395 88.364281 10196105
111.30437 -73.917938 89.303513 9341051
111.18282 -73.823532 90.403397 6775383
110.70586 -73.597847 91.11274 7367264
110.12899 -73.557137 91.680283 8814710
138.13716 -72.819862 -3.8716238 10129285
138.35263 -73.139519 -3.0792654 11904668
110.88532 -72.798203 91.411095 9735300
110.27296 -72.633415 91.99395 10392718
138.21733 -71.669914 -4.7394519 10918544
138.38991 -72.014572 -4.0237536 11510167
111.08012 -72.109604 91.572784 11379356
110.55201 -71.704681 92.198532 10655633
110.02316 -71.360336 92.796532 10063753
138.23607 -70.531586 -5.7391124 8617587
138.51025 -70.796638 -4.8608432 10063750
138.69743 -71.165695 -4.0889049 9734784
110.72716 -70.788322 92.483086 9603202
110.06675 -70.742271 93.050003 7892584
109.64974 -70.428551 93.541313 7038307
138.53137 -69.730515 -5.7887645 9866886
138.77571 -70.016907 -4.9600787 10130058
110.81404 -70.155876 92.707481 7563619
110.34187 -69.774727 93.27597 8683383
109.68285 -69.610916 93.896904 7893870
138.60136 -68.739975 -6.5341716 9735299
138.89076 -68.845245 -5.7671618 11182489
139.03398 -69.207199 -5.1035991 10459023
110.46391 -68.97171 93.551292 10263180
109.93456 -68.704865 94.113449 10263180
109.3196 -68.67765 94.634048 9735558
138.73694 -67.416321 -7.4328837 13551541
138.87502 -67.835564 -6.728744 8091759
139.11642 -67.989586 -6.0283961 8814710
110.11958 -67.921036 94.327774 10263180
109.464 -67.660904 94.990967 9143933
138.92517 -66.807175 -7.5549083 10460048
139.22362 -66.843559 -6.8300776 8092019
109.83851 -66.674171 95.14386 7827303
109.22325 -66.651672 95.662445 9143677
139.05507 -65.494179 -8.4570007 8092019
139.16357 -65.945633 -7.7919269 9868169
139.49556 -65.941925 -7.0261226 10460048
109.87328 -65.679123 95.581154 6510930
109.26624 -65.772614 96.038666 7893614
108.8025 -65.594215 96.505203 8354163
139.30598 -64.695892 -8.6071434 9735813
139.54178 -64.919502 -7.8558307 10065291
109.56289 -64.814476 96.242485 6972255
108.89891 -64.571442 96.904617 7301478
139.36597 -63.58503 -9.4861069 10854036
139.58038 -63.844555 -8.7514458 9012089
139.72424 -64.124405 -8.1615601 10854036
109.30779 -63.740833 96.955994 7433064
108.56503 -63.648926 97.612381 8617334
139.6089 -62.768185 -9.6715469 8288366
139.84193 -63.021069 -8.8998756 8090987
109.33267 -62.892822 97.332603 8090992
108.75155 -62.757156 97.876038 8354164
108.26266 -62.535175 98.383774 7038307
139.7995 -61.533825 -10.360966 7761509
139.95415 -61.868542 -9.695961 7761509
108.97321 -61.767998 98.156219 9143422
108.35331 -61.517517 98.7855 9800582
140.01836 -60.857498 -10.64806 8222060
140.29936 -60.977871 -9.7771149 10063753
108.65243 -60.673958 99.014359 10853012
108.02291 -60.572277 99.602943 9275007
140.60599 -59.5191 -12.435722 6248271
140.32867 -59.956474 -11.587421 7169628
140.42957 -60.180721 -10.916733 7761509
108.38101 -59.937553 99.935501 8550771
107.84503 -59.590118 100.6499 8946299
107.73225 -59.213829 101.52278 10261641
143.56566 -58.601814 -23.743927 9340795
143.73828 -58.870152 -23.164246 9340795
143.45734 -59.079056 -22.137859 8156778
143.07683 -59.077869 -21.202026 12104360
143.22246 -59.07571 -20.170868 9209982
142.31007 -59.075539 -19.349503 10065290
142.44241 -59.073414 -18.323944 7893096
142.04962 -59.072289 -17.409908 7037274
141.65076 -59.071175 -16.499935 8025200
141.76251 -59.069088 -15.479176 9735558
140.9826 -59.117771 -14.541183 6708566
140.9334 -59.25864 -13.511539 5919050
107.69558 -59.067368 102.06267 10590605
107.17882 -58.959469 102.72292 9998470
107.34286 -58.896473 103.88214 10129800
106.58635 -58.89616 104.65201 8550514
106.85174 -58.893353 105.93443 9209211
106.33792 -58.893166 106.44574 7367522
106.07907 -58.891617 107.47733 7039331
105.81233 -58.890079 108.50853 8420213
105.15461 -58.889877 109.14139 7038307
105.43418 -58.716557 110.58798 9407107
104.78226 -58.593616 111.14799 9341570
143.74997 -57.802776 -24.028576 10985362
144.01257 -58.001312 -23.321079 9340795
105 -57.741604 111.38046 8946813
104.39137 -57.488159 111.80881 9867401
143.7993 -56.693344 -24.850269 14078918
144.09392 -56.810749 -24.144032 10459278
144.25087 -57.19183 -23.502712 9538176
105.0771 -56.77895 111.73323 11577504
104.54659 -56.611824 112.08456 10458767
144.02722 -55.865528 -25.068466 11512480
144.2877 -56.022388 -24.400066 10196106
104.59328 -55.807339 112.38883 10064008
104.25993 -55.346626 112.75517 9208443
144.16481 -54.56427 -25.867462 9341316
144.36856 -54.946323 -25.128666 9867401
104.83967 -54.722488 112.70131 9208443
104.28553 -54.575741 113.05693 10590609
144.40979 -53.820995 -25.980202 11642523
144.72638 -53.87471 -25.281754 10326922
104.2906 -53.693001 113.41547 8551281
103.74398 -53.369965 113.8392 6511954
144.39281 -52.835003 -26.836025 11839901
144.69154 -52.944614 -26.127865 12431781
104.65473 -52.772575 113.59782 7564643
103.98595 -52.570843 114.03706 6906712
144.74763 -51.766434 -26.99268 8748150
144.88568 -52.25798 -26.298454 13023917
104.16879 -51.669933 114.30823 9406847
103.50515 -51.615486 114.68449 8617331
144.73521 -50.784973 -27.891785 10525072
145.02556 -50.869118 -27.165649 9801348
104.23089 -50.967781 114.56235 9274746
103.76627 -50.563396 114.97565 9537664
144.86208 -49.762413 -28.639477 9209214
145.03041 -49.97509 -27.949436 10590865
145.3105 -50.024635 -27.280178 10985623
103.79176 -49.77668 115.28397 9208699
103.35445 -49.486271 115.63603 8681843
145.1235 -48.799831 -28.950863 7630441
145.3643 -48.939034 -28.118328 9406848
103.99454 -48.957596 115.51097 9537664
103.39727 -48.623852 115.96609 9274492
145.27267 -47.743458 -29.690319 7695204
145.49115 -47.844757 -28.947193 7826790
103.57671 -47.664387 116.26305 9931650
145.41838 -46.63966 -30.570904 8089962
145.50041 -46.973137 -29.904457 8747892
145.80182 -46.929058 -29.070705 7695204
103.72397 -46.629265 116.6189 8813939
103.12035 -46.725574 116.90815 9537149
145.88039 -45.639767 -31.583206 10853262
145.9001 -45.951355 -30.793816 9537408
145.94362 -46.256752 -29.950134 8353134
103.33614 -45.973618 117.31787 8813939
102.85654 -45.578312 117.91498 8879992
146.64635 -44.462185 -34.707497 7103323
146.73793 -44.527321 -33.800911 6511954
146.34819 -44.784309 -32.789001 7169884
146.27338 -45.083965 -31.851963 8946296
146.34691 -45.334869 -30.949238 9866628
103.10493 -44.869202 118.39444 9932164
102.62436 -44.693371 118.80281 11378324
102.31583 -44.346512 119.90165 9536894
149.86198 -43.845745 -45.212894 7959151
150.12903 -43.891705 -44.390671 10524816
149.01329 -44.109989 -43.09409 11511452
149.21611 -44.108337 -42.377674 9210498
149.41612 -44.106689 -41.660473 10460305
148.26314 -44.106026 -40.386272 9734787
148.50003 -44.104 -39.495285 15261913
148.68607 -44.102375 -38.781635 13353917
147.5338 -44.101776 -37.541355 7564651
147.75352 -44.099781 -36.654972 8617330
147.03761 -44.240051 -35.731476 7498081
147.29527 -44.252449 -34.859272 5919050
102.61922 -44.117432 120.55534 8681843
102.08842 -44.034489 121.10989 9537408
101.85752 -43.870605 122.02789 10459537
101.26656 -43.870575 122.51547 10591380
101.65285 -43.866817 124.20587 7565675
101.05097 -43.866814 124.69205 7169631
149.90994 -42.838169 -46.192139 9801350
150.15225 -42.939259 -45.380241 8354165
150.33086 -43.134884 -44.647568 7564651
150.12085 -41.606022 -46.949951 10459278
150.30081 -41.799934 -46.215107 10854036
150.49924 -42.058804 -45.354946 8618105
150.32121 -40.848515 -47.211693 9538176
150.59105 -40.891689 -46.38467 10985364
150.50977 -39.64603 -48.001057 9275260
150.67273 -39.940422 -47.204006 9670018
150.82574 -40.286339 -46.378513 13023917
150.70531 -38.912334 -48.25042 10656398
150.97682 -38.954086 -47.420048 9735554
150.87451 -37.809216 -48.985535 10261642
151.04875 -38.086372 -48.174976 11182485
151.08423 -36.47654 -49.858307 12433325
151.18164 -36.858551 -49.153252 10393485
151.34297 -37.114498 -48.403545 10590605
151.21848 -35.904984 -50.104652 9866882
151.53062 -35.906677 -49.201107 9866367
151.34836 -34.798256 -50.956646 9406589
151.54567 -34.999233 -50.163769 9603711
151.66525 -35.334335 -49.446831 9209467
151.5036 -33.613796 -51.821465 9537918
151.68942 -33.804729 -51.072796 9866882
151.87489 -33.996376 -50.32468 9735296
151.75401 -32.809845 -51.989475 8945265
151.98517 -32.943562 -51.173477 10261132
151.84319 -31.79451 -52.85762 8681835
152.09474 -31.889311 -52.025932 9932162
152.2155 -32.272709 -51.251892 9734529
152.15852 -30.891481 -52.948009 8681835
152.35983 -30.992941 -52.253929 9339766
152.74846 -29.83465 -53.482769 10787985
152.55409 -30.286039 -53.003979 9143934
118.65587 -79.170685 68.826866 10129798
118.3152 -78.78688 69.439697 9011576
117.68797 -78.658974 70.246208 9077627
117.42836 -78.241852 70.782677 9340801
132.97989 -77.371017 17.567879 10985625
132.99741 -77.457047 18.54681 8353909
133.00858 -77.516289 19.200531 13550517
118.38125 -77.974335 69.814377 8682867
118.02097 -77.736847 70.368881 9603458
117.36819 -77.740723 71.132034 8946300
117.03201 -77.427818 71.700241 8617331
133.20569 -76.485191 15.646935 9274486
133.09218 -76.920715 16.542347 9867399
133.17876 -76.826927 17.594034 8353909
133.18216 -76.94297 18.50716 7959407
118.09425 -77.040985 70.670097 10129545
117.68185 -76.736771 71.322968 8880247
117.09268 -76.622223 72.077408 9406847
116.74665 -76.250687 72.689781 9735812
133.63141 -75.536797 14.628548 9603451
133.50926 -75.823906 15.617756 9669246
133.50977 -75.902863 16.618481 9012089
133.42931 -76.13324 17.561691 7827817
117.82812 -75.870438 71.671127 8419696
117.41821 -75.642441 72.376511 8485745
116.88255 -75.603615 73.035652 9538433
116.43269 -75.506729 73.666397 8617331
134.44862 -74.340088 11.714291 8419696
134.37704 -74.437706 12.716757 9670018
134.11201 -74.77346 13.738253 9341052
134.0937 -74.962471 14.773134 8090470
133.97726 -75.176598 15.738394 9472382
117.14739 -74.966187 73.464462 9735812
116.6308 -74.86676 74.186951 9077883
116.40899 -74.493813 75.100479 11050900
115.96236 -74.336143 76.037666 11116692
115.5241 -74.270805 76.848267 8682867
138.3784 -73.800537 -2.4139402 10855060
138.60854 -73.752922 -1.7099721 9407358
138.64487 -73.859016 -0.86437196 8420976
138.03795 -74.045158 0.24237853 9078652
137.62048 -74.043922 1.231312 8092019
137.60452 -74.042084 2.2223151 7037274
137.25941 -74.040878 3.1388457 8024426
136.74706 -74.040009 4.0121293 7958376
136.70453 -74.037926 5.1608624 8287085
136.45992 -74.036453 6.1354337 9603455
136.02579 -74.035919 6.7690835 9735555
135.76956 -74.034477 7.7363172 9472639
135.69528 -74.032448 8.8766479 9209467
135.32629 -74.045547 9.9290733 9274493
134.9295 -74.126396 10.778645 8222317
134.82959 -74.224472 11.749243 9077370
134.97604 -74.236473 12.579172 8486000
116.55026 -74.130096 76.325714 8682867
116.05503 -74.109886 77.002655 7564648
115.59287 -74.018494 78.019989 9143166
115.33589 -73.931343 78.949707 9274237
114.93145 -73.930168 79.898506 8879735
114.95931 -73.928146 80.951385 9144187
114.26952 -73.927376 81.914017 9537664
114.38541 -73.925468 82.836807 8551025
113.95116 -73.924339 83.784279 9932422
113.51093 -73.923218 84.73111 12234146
113.6106 -73.921318 85.663651 12431524
112.88075 -73.920624 86.614487 9011574
113.03548 -73.918121 87.823502 10656401
112.395 -73.917549 88.634758 12038308
112.40133 -73.704536 89.597656 11051411
111.82461 -73.50824 90.302872 9998980
138.64601 -72.799774 -2.7107618 9931908
138.91711 -72.915649 -1.8671453 9274236
112.57482 -72.919495 89.959137 15064525
112.04968 -72.650002 90.51899 11511962
111.44825 -72.729317 90.978493 7564642
138.71025 -71.740128 -3.5327985 10457993
139.04478 -71.853836 -2.6493185 8879221
112.17445 -71.775459 90.825546 9867140
111.49709 -71.71891 91.411392 9209467
139.02959 -70.801811 -3.6527135 9208954
139.19267 -71.115654 -2.9873769 9142650
111.88132 -70.726326 91.558998 9998725
111.26041 -70.508171 92.17392 9208699
139.13686 -69.674263 -4.4372478 10064265
139.35689 -69.933777 -3.6897542 9406079
112.03542 -69.701187 91.91185 15196110
111.37732 -69.731178 92.441299 8617076
110.8912 -69.395454 92.999969 8091248
139.19073 -68.438507 -5.4448848 9011321
139.38341 -68.858902 -4.6132007 9406079
139.65955 -69.067177 -3.7824438 9011321
111.67582 -68.75898 92.650131 11051416
111.01389 -68.592529 93.274734 9144446
110.53901 -68.213348 93.844498 10263180
139.51187 -67.673355 -5.4017673 9537920
139.68668 -67.958092 -4.7359729 9011577
111.71072 -67.940269 93.004784 10261902
111.22887 -67.703415 93.513618 10262924
110.62319 -67.584129 94.069641 9868423
139.57774 -66.525139 -6.3013415 8617847
139.69325 -66.941795 -5.6518359 9669761
139.99109 -67.115013 -4.8030467 9209467
111.41166 -67.051125 93.668198 9670789
110.79369 -66.674385 94.354942 9341311
110.25492 -66.281136 94.984024 6510930
139.82481 -65.749916 -6.4391894 11446169
140.06006 -65.980804 -5.682632 9735810
111.14163 -65.723244 94.513138 8617075
110.40926 -65.723732 95.117661 6642516
139.82436 -64.877159 -7.2399478 11709341
140.16618 -64.8228 -6.4976497 12103586
111.20397 -64.840317 94.875107 8617075
110.66623 -64.795105 95.340347 6510930
110.08721 -64.652916 95.885162 6510930
139.99725 -63.416218 -8.1779022 8090987
140.10866 -63.86533 -7.5083499 9603969
140.38777 -63.973854 -6.7621646 9997959
110.78819 -63.856091 95.679298 6642772
110.22998 -63.584373 96.267632 7169629
109.72857 -63.205288 96.859337 7038307
140.23897 -62.696815 -8.2770119 8551281
140.48666 -62.840477 -7.5716319 8419695
110.53831 -62.762989 96.397583 7169629
109.83652 -62.608913 97.049385 7762025
140.30391 -61.511707 -9.2125931 7563618
140.46216 -61.881748 -8.5068283 7761766
140.66791 -62.046951 -7.8787036 8090987
110.62357 -61.949978 96.707825 7169629
110.13311 -61.724667 97.21843 8616819
109.50407 -61.603992 97.79454 9735557
140.52953 -60.406307 -10.245361 9011320
140.6852 -60.68124 -9.3831367 8747893
140.76489 -61.074692 -8.5635643 7037274
110.20245 -60.856255 97.596146 10458254
109.68525 -60.592049 98.243324 10063496
109.17368 -60.333397 98.896759 10853012
141.14172 -59.468567 -11.31176 6050891
141.02957 -59.800087 -10.349155 7169628
141.12076 -60.086304 -9.4929848 8221549
110.04499 -59.938908 98.567947 9734531
109.54086 -59.708118 99.251724 9734531
109.14722 -59.397602 100.06344 8616307
108.57594 -59.273628 100.84734 9077624
144.35182 -58.712948 -21.918491 11051158
144.14247 -59.075897 -21.003246 11314587
144.26331 -59.074089 -20.137608 10261899
143.36063 -59.073566 -19.138695 9143932
143.49141 -59.071423 -18.105537 7893095
142.91661 -59.070629 -17.222904 8617075
142.68474 -59.069187 -16.270004 8155753
142.79475 -59.067093 -15.241802 9405304
141.86681 -59.067013 -14.457638 7563874
141.84999 -59.091835 -13.219044 6313808
141.6304 -59.195511 -12.376595 5392706
141.67609 -59.286987 -11.524231 6248015
109.14737 -59.091782 101.13675 8354158
108.70979 -58.973492 101.95612 9998469
108.3429 -58.896915 102.84709 11643035
108.111 -58.895336 103.8756 10590606
107.87128 -58.893757 104.90388 10525071
107.45407 -58.892605 105.85199 9735555
107.37556 -58.890614 106.97404 6972762
106.72702 -58.890381 107.61636 6446934
106.98722 -58.88752 108.92947 7038307
106.44171 -58.806118 109.79497 7696236
106.11337 -58.398357 110.51787 9472645
144.34297 -57.871941 -22.746391 12892844
144.70734 -57.896919 -21.97324 9867141
106.18459 -57.73077 110.75307 10657173
105.75512 -57.427986 111.10597 10591124
144.45316 -56.649788 -23.536163 9077625
144.67946 -56.901184 -22.859577 10130570
144.90556 -57.154068 -22.182167 10525586
106.3386 -56.805691 111.04938 10064781
105.72819 -56.592739 111.46217 9208958
144.70441 -55.804958 -23.720528 9538176
144.991 -55.924847 -23.028843 8617331
105.95049 -55.726654 111.69794 10130316
105.24984 -55.438206 112.18961 9208443
144.75092 -54.56245 -24.65876 10459278
144.94357 -54.953613 -23.935181 9340797
106.16427 -54.845543 111.94447 11643298
105.49627 -54.637619 112.38585 10787732
145.05457 -53.799885 -24.666275 8287085
145.31946 -54.004932 -23.948608 9537407
105.68396 -53.734398 112.6553 10854037
105.02032 -53.674564 113.03373 10261900
145.05722 -52.875393 -25.430241 10063494
145.38359 -52.861389 -24.767979 8089962
105.71049 -52.961849 112.95721 8880503
105.23635 -52.597507 113.35921 7959401
145.27788 -51.902172 -25.784622 9931908
145.57841 -52.012779 -25.072006 9010807
105.35667 -51.673145 113.67326 9209468
104.88093 -51.536095 113.98311 7564643
145.33984 -50.705166 -26.653027 9867141
145.6601 -50.90406 -25.826241 9998471
105.54801 -50.690136 113.97343 11051415
104.8466 -50.7057 114.34119 9274488
145.69176 -49.808296 -26.672901 10525072
145.97774 -49.960243 -25.955948 10985623
105.11279 -49.709702 114.60678 10853519
104.52845 -49.320095 115.07787 8945268
145.67545 -48.861389 -27.494705 10985623
145.96735 -48.992706 -26.782536 10854037
105.25967 -48.669743 114.9541 8681835
104.66621 -48.585106 115.30521 9405818
145.81578 -47.432404 -28.466721 5920074
146.00041 -47.806015 -27.702118 8353903
146.22081 -48.140846 -26.968327 9998728
104.82561 -47.671261 115.59423 10195335
104.20187 -47.431923 116.0248 10063235
146.14922 -46.653389 -28.532272 7103836
146.33177 -46.863106 -27.838818 6183246
105.0614 -46.723942 115.85619 10392461
104.39049 -46.675373 116.2361 9208440
146.54726 -45.705578 -29.497887 9076858
146.50636 -46.053963 -28.810505 9011321
104.62041 -46.002682 116.60755 9011318
104.06469 -45.602707 117.24928 9142647
147.10007 -44.486259 -33.140972 6511954
147.29904 -44.497849 -32.443523 6840919
147.22147 -44.617176 -31.502056 8682355
146.84355 -44.954994 -30.593719 11050900
146.77785 -45.260548 -29.876198 7958376
104.32388 -44.943409 117.68004 9800576
103.8092 -44.762604 118.20467 8879988
103.55463 -44.337807 119.30275 10195078
150.31161 -43.897724 -43.856857 13550517
150.55484 -43.90662 -43.144608 9802633
150.73189 -44.105125 -42.41317 9539462
149.5634 -44.105457 -41.121895 8684155
149.80463 -44.103405 -40.223171 9604229
148.82309 -44.101162 -38.245602 13353917
149.047 -44.099144 -37.35141 10261899
148.01045 -44.097393 -35.58939 7564642
148.05673 -44.136276 -34.47541 8748659
147.70081 -44.273735 -33.460983 7827814
147.95149 -44.288033 -32.585602 6511954
103.38445 -44.08931 120.27637 9339515
103.08795 -43.893951 121.10999 9536894
102.69992 -43.866859 123.34776 7565675
102.10229 -43.866837 123.83917 7565675
101.8905 -43.862999 126.04732 7301474
150.52794 -42.56834 -44.706902 8092019
150.6418 -42.906113 -44.003418 12695467
150.83167 -43.113567 -43.224972 10394514
150.75319 -41.68396 -45.037571 9407106
151.00401 -41.866646 -44.110611 10788243
150.87883 -40.669174 -45.800419 10525071
151.07567 -40.892525 -44.984329 9209984
151.29958 -41.063034 -44.148643 8092019
151.11218 -39.863125 -46.020878 11445914
151.3495 -39.99308 -45.191425 9867656
151.22542 -38.894733 -46.768105 9538175
151.44913 -39.026749 -45.975643 10789011
151.37477 -37.624081 -47.746449 10261641
151.4912 -38.008003 -46.984291 9538175
151.73685 -38.108341 -46.163704 9933958
151.67546 -36.754639 -47.842358 9932933
151.8632 -36.994328 -47.034389 9867140
151.71774 -35.908287 -48.658756 9536888
151.96701 -35.911182 -47.935429 11049359
152.15013 -36.105373 -47.19109 10457478
151.86253 -34.761765 -49.511852 9735296
152.04765 -34.906784 -48.816105 10654857
152.19771 -35.243717 -48.009068 10457478
152.16182 -33.71032 -49.812904 10129796
152.37749 -33.93552 -48.940155 10260355
152.2498 -32.784134 -50.585747 9208182
152.52133 -32.84919 -49.72916 10458254
152.54482 -31.803715 -50.820526 9537149
152.72256 -32.081818 -49.998589 9734529
152.61385 -30.928299 -51.591816 9076595
152.89142 -30.966923 -50.746971 9076595
153.05457 -29.79698 -52.684517 10656142
153.06358 -30.133865 -51.880703 9471865
153.12314 -30.374655 -51.150909 8681835
153.59192 -29.363747 -53.570171 9143934
