# .PCD v0.7 - Point Cloud Data file format
VERSION 0.7
FIELDS x y z rgb
SIZE 4 4 4 4
TYPE F F F U
COUNT 1 1 1 1
WIDTH 1220
HEIGHT 1
VIEWPOINT 0 0 0 1 0 0 0
POINTS 1220
DATA ascii
143.61194 -67.94104 39.913494 10391946
143.53752 -67.876915 40.690708 13022893
136.89209 -67.931152 62.009445 10262668
136.57443 -67.67028 62.738251 7762797
136.06036 -67.671761 63.614815 9669250
135.45345 -67.777344 64.575539 9275005
135.03311 -67.565605 65.444511 11775395
145.16249 -66.330902 32.23708 5920074
145.00031 -66.511459 33.006737 5920074
144.7807 -66.778107 33.983536 8353385
144.63043 -66.823448 35.050797 9801607
144.50426 -66.863472 35.941162 11578280
144.44411 -66.716133 36.849579 9077373
144.28725 -66.803772 37.846024 9602944
144.09389 -67.005867 38.796928 9734273
136.60785 -67.123108 63.072338 8813942
136.31317 -66.822083 63.790398 9669507
135.8358 -66.678398 64.708122 9472128
135.29636 -66.645309 65.65274 10130569
134.84648 -66.619972 66.438896 9868164
134.55763 -66.475357 67.035477 10065286
145.67505 -65.515327 30.518282 7893096
145.54926 -65.660255 31.101175 8092011
145.41269 -65.751381 31.925951 8748659
145.26479 -65.790138 32.993389 7366750
145.15958 -65.691803 34.118343 8550768
145.03217 -65.687408 35.147961 12302260
144.83904 -65.916191 36.024288 16777215
144.64487 -66.147423 36.900715 10591127
135.99596 -65.907753 64.985413 10064265
135.63136 -65.729912 65.735039 9604230
135.22333 -65.629364 66.503738 9933702
134.63676 -65.784058 67.395325 10986131
134.20349 -65.683525 68.207642 8815476
133.86372 -65.411598 68.982994 9932934
146.28166 -64.286484 28.44887 7037274
146.1601 -64.594612 29.277275 7037274
145.99164 -64.749748 30.218279 7893096
145.87871 -64.725861 31.188896 7762025
145.72469 -64.855682 32.040203 8353131
145.59953 -64.845238 33.069225 11181459
145.47029 -64.880783 33.997467 9931907
135.79449 -65.116508 65.895042 9538438
135.44682 -64.942078 66.613976 10130827
135.01476 -64.687729 67.534317 13157042
134.47159 -64.663406 68.479935 10327692
133.92783 -64.641998 69.424446 10919573
133.58585 -64.373108 70.201286 10130313
133.32359 -64.236626 70.747025 10656657
146.49586 -63.6604 28.198008 7893354
146.46312 -63.773098 29.215788 8024682
146.32657 -63.806759 30.28735 8485489
146.20903 -63.758823 31.36426 7235685
146.04355 -63.930096 32.186653 7038307
145.892 -64.083221 32.951096 12431013
135.1713 -63.920464 67.816238 12169893
134.77914 -63.71006 68.636963 10458767
134.32489 -63.692154 69.425911 9866630
133.87025 -63.676388 70.214081 9538176
133.32411 -63.660034 71.159012 10393485
133.02025 -63.460117 71.821327 10656657
146.82729 -62.608463 27.213123 10065294
146.82367 -62.754208 28.187702 11182231
146.80081 -62.832371 29.282913 7959149
146.59431 -63.052792 30.342575 7432546
146.43002 -63.262577 31.043434 7038307
134.78172 -63.13089 69.047264 8089963
134.56995 -62.930119 69.552895 9866630
134.17538 -62.724094 70.374565 9933190
133.6279 -62.707909 71.321625 10327692
133.07979 -62.694584 72.267792 10393485
132.68274 -62.495243 73.088936 10327436
132.46808 -62.300449 73.59507 9406590
147.18242 -61.420204 25.694963 10459534
147.07906 -61.809345 26.452347 12038569
147.14819 -61.740265 27.333364 9933452
147.16637 -61.817348 28.253281 8682615
147.11212 -62.068016 28.977175 9011579
134.23663 -61.95681 70.81929 9933702
133.93158 -61.756245 71.484154 9998983
133.40666 -61.781902 72.362656 9735811
132.99081 -61.697124 73.133957 10064264
132.46478 -61.727367 74.011154 9472383
132.06516 -61.532127 74.833794 10130313
147.64211 -60.461014 24.679274 6510930
147.55951 -60.640236 25.441187 7234909
147.5367 -60.75766 26.488924 10459534
147.4173 -61.041203 27.493242 8025199
133.93042 -61.180698 71.898262 11380380
133.66495 -61.046814 72.447708 10853780
133.27164 -60.900116 73.26519 10327180
132.80113 -60.792885 74.199837 9735299
132.2491 -60.787609 75.14901 9077625
131.86627 -60.603447 75.984581 9670019
131.57231 -60.420113 76.66114 10591121
148.61215 -59.386513 21.914112 8090987
148.57246 -59.413124 22.638645 8090987
148.17065 -59.761524 23.410273 8156523
148.05249 -59.903755 24.337221 7037274
148.08333 -59.931477 25.394751 9933190
133.02829 -60.106995 74.748619 9209467
132.75154 -60.104645 75.224747 9406590
132.39993 -59.934429 76.081657 10722707
131.90826 -59.745163 77.071053 10788500
131.3399 -59.605877 77.954895 11116434
130.96968 -59.354488 78.866096 11379356
130.64897 -59.338905 79.316734 9537147
153.89774 -58.639362 4.5023141 10394000
154.06087 -58.799118 5.4711404 9538949
152.97693 -59.010601 6.6072145 13551549
152.95018 -59.009586 7.1581903 10525331
152.90118 -59.0079 8.0763874 8353908
152.83533 -59.005886 9.1777859 8419440
152.76155 -59.003887 10.278631 5920074
151.56311 -59.003742 11.291988 8090986
151.50436 -59.002438 12.019772 7695973
151.42648 -59.000809 12.929171 8682099
151.3428 -58.999191 13.838036 10129541
151.23541 -58.997257 14.928003 8550767
151.15973 -58.995979 15.654287 6972503
149.91945 -58.995655 16.797226 7301477
149.81253 -58.994091 17.696955 7564648
149.69777 -59.000221 18.7785 7564651
149.40157 -59.105549 19.762808 10196366
149.23439 -59.170937 20.616915 9143417
148.94542 -59.274117 21.415789 8617074
131.60948 -59.164265 79.038452 9537147
130.96474 -59.133255 79.942986 9800320
130.69096 -59.010128 80.859535 9471612
130.43971 -58.900257 81.79493 8616562
129.84216 -58.899364 82.732201 8617072
129.44031 -58.898773 83.35482 8617072
129.79094 -58.895245 84.91774 7894119
129.2749 -58.894527 85.695305 11379356
128.75381 -58.893829 86.469467 10392973
128.334 -58.893276 87.086784 10262156
128.65463 -58.889751 88.673225 8814711
128.00745 -58.888954 89.597412 9735558
127.46332 -58.888302 90.364128 10064522
127.13457 -58.887909 90.822578 10459022
127.42441 -58.884388 92.432121 9143163
126.75016 -58.883648 93.347374 9472900
126.18343 -58.883041 94.106491 9341571
126.56432 -58.696209 95.426826 10196622
125.89948 -58.56427 96.03846 8617848
125.37091 -58.313 96.5933 9735299
154.00359 -57.775063 3.5662675 8420983
154.22383 -57.720493 4.4371095 9275777
154.30177 -58.047977 5.305819 8749691
126.154 -57.698475 96.233521 9406078
125.46361 -57.652813 96.825768 10458766
154.27689 -56.430374 2.5822968 8420470
154.31157 -56.825222 3.3717866 8881277
154.54166 -56.754536 4.2596307 9670535
126.06504 -56.972652 96.647034 10261899
125.63237 -56.732395 97.117371 8616819
125.20708 -56.293625 97.674583 7564643
154.51627 -55.741768 2.5117898 9078399
154.66888 -55.838284 3.3324952 8946814
154.71719 -56.16914 4.0779138 8092019
125.96665 -55.760052 97.29641 9143163
125.23034 -55.695297 97.935692 7761512
154.68831 -54.712025 1.5963159 7564651
154.85043 -54.861885 2.5445161 9341059
154.9926 -54.970146 3.3388314 7564651
125.9903 -55.160919 97.557541 10261646
125.51382 -54.719288 98.158394 8354420
124.82854 -54.581696 98.789551 7959405
154.88754 -53.638809 0.72891849 7564651
155.03093 -53.742935 1.5217004 8617337
155.1741 -53.848404 2.3157754 9143423
125.59277 -53.925819 98.464691 8025712
125.05834 -53.681973 99.020943 8156784
124.52367 -53.439503 99.576698 7959405
155.11986 -52.811474 0.40318149 9999244
155.31917 -52.861965 1.3527856 10525587
125.35165 -52.840294 99.172615 8485748
124.65084 -52.60215 99.863747 8353907
124.11993 -52.212914 100.48503 7038307
155.36368 -51.740921 -0.26594692 7762797
155.56438 -51.789078 0.68409961 10788759
125.41698 -51.913548 99.552727 9932937
124.87978 -51.672779 100.10973 9669765
124.2067 -51.555962 100.72103 7959407
155.50452 -50.764019 -1.2326713 10458509
155.65089 -50.862305 -0.43850476 8157555
155.79713 -50.961952 0.35673374 9144449
125.10374 -50.892105 100.29018 10656658
124.56545 -50.653214 100.84727 10196109
123.9466 -50.343685 101.50402 11380380
155.67772 -49.660858 -2.2639251 13023917
155.8252 -49.756615 -1.4698539 9734529
155.99298 -49.895164 -0.51841885 9142651
124.69514 -49.666939 101.20197 9867656
124.02192 -49.580238 101.79932 10854037
155.94279 -48.483204 -3.0184913 10129030
155.99864 -48.796917 -2.2691054 11313302
156.15814 -48.878609 -1.4453864 9471358
124.71305 -49.070934 101.46634 9736070
124.36317 -48.698662 101.93005 9736071
123.71847 -48.473549 102.56869 10459538
156.21986 -47.643192 -3.174684 10064263
156.35255 -47.814739 -2.321981 10656142
156.39586 -48.192661 -1.5235076 11576473
124.50452 -47.663799 102.2979 9736070
123.90725 -47.62505 102.80994 10525331
123.31062 -47.587189 103.32113 12038058
156.36029 -46.658367 -4.281179 10261899
156.46301 -46.841728 -3.4594741 10064520
156.65781 -46.873264 -2.5312476 10985364
124.05662 -46.879532 103.03562 9933192
123.54293 -46.561222 103.6616 9735814
123.1704 -46.213276 104.21875 8288883
156.88129 -45.431519 -6.0562873 10459278
156.87251 -45.698315 -5.175344 10525328
156.9335 -45.898869 -4.2178664 10261899
156.88791 -46.245178 -3.2264457 9735812
123.84206 -45.76244 104.1086 9078397
123.18763 -45.666237 104.74477 7236453
122.70033 -45.458103 105.35308 8288883
157.71901 -44.448624 -8.7450047 9736836
157.86115 -44.476257 -7.9920897 10393996
157.6411 -44.6106 -7.032846 9538176
157.28677 -44.918468 -6.0715384 10130313
157.40886 -45.012974 -5.1925597 10722450
123.64893 -45.141525 104.88267 7631211
123.01258 -44.925415 105.62267 7696748
122.84074 -44.508778 106.50928 9407106
122.51484 -44.299259 107.5277 11051159
122.22124 -44.164787 108.31809 11314332
160.87286 -43.560795 -18.380499 8484719
161.12473 -43.67733 -17.690218 7892583
160.21838 -44.04417 -16.620237 7564643
160.29361 -44.042576 -15.850218 8024419
160.38315 -44.040596 -14.887411 7761248
158.99542 -44.038757 -12.839785 11314588
159.06647 -44.036816 -11.884752 11117209
159.14433 -44.0345 -10.738157 11314075
158.16902 -44.173382 -9.9124203 16249831
158.35632 -44.211658 -9.1600857 12037542
158.51936 -44.244061 -8.405447 12629935
121.79218 -44.151802 108.72567 11314332
121.921 -43.967041 109.37194 10854038
121.3391 -43.887703 110.17611 7433064
121.25481 -43.85511 112.52894 7301478
120.4355 -43.854675 113.39928 8814198
119.97491 -43.849819 116.29041 8616819
119.27003 -43.849506 117.00845 7564643
119.42107 -43.498257 118.58215 7039331
118.77312 -43.406437 118.96489 8617335
161.04045 -42.83036 -18.66168 9010806
161.34256 -42.885601 -17.911196 7563619
118.90405 -42.632854 119.21172 8946300
118.22546 -42.375652 119.67854 7564651
161.16174 -41.649864 -19.462496 11116434
161.36438 -41.969604 -18.700052 10195077
119.11881 -41.823536 119.42848 11116696
118.54364 -41.574783 119.83669 7892843
161.23776 -40.588013 -20.259661 8288622
161.46848 -40.833328 -19.500196 10721165
161.69917 -41.080009 -18.739836 10260614
118.63076 -40.638176 120.17358 9537152
118.02484 -40.301022 120.63438 10853012
161.49765 -39.722355 -20.450811 8683636
161.76964 -39.908321 -19.650293 9274233
118.91988 -39.744301 120.38535 9010808
118.2683 -39.658134 120.76771 9537152
161.66182 -38.5938 -21.104677 10853012
161.84039 -38.857258 -20.44956 9406590
118.3907 -38.727432 121.0834 8682356
117.7667 -38.428368 121.53822 7893611
161.86494 -37.742203 -21.414625 9669253
162.10844 -37.940834 -20.668489 10195339
118.66302 -37.867504 121.29026 7893611
117.97832 -37.616779 121.75756 7893611
161.93065 -36.576946 -22.330267 10853012
162.1649 -36.816067 -21.568419 7827565
118.12234 -36.652138 122.07565 7893611
117.50458 -36.555096 122.44445 7893611
162.05951 -35.363609 -23.143686 8682867
162.25934 -35.749901 -22.326727 9472386
162.45691 -36.034515 -21.608152 7038307
118.08491 -35.763927 122.45901 7893611
117.7046 -35.493237 122.77247 8156783
162.25055 -34.705597 -23.304178 12565423
162.54103 -34.853458 -22.495733 10854293
117.89425 -34.759903 122.97152 8156787
117.23843 -34.680931 123.35319 10262154
162.47786 -33.36853 -24.002783 9735555
162.60663 -33.748924 -23.356005 13354939
162.72821 -34.220734 -22.641882 15131862
117.9251 -33.961246 123.28193 10195855
117.34173 -33.549351 123.76127 10656656
162.61871 -32.771389 -24.223864 9341565
162.92917 -32.809078 -23.470095 10525839
117.57766 -32.630207 124.01172 10787988
116.91444 -32.526348 124.40754 9406846
162.90517 -31.781332 -24.467562 9736578
163.14349 -32.014248 -23.702002 9473663
117.60171 -31.801996 124.33782 11183001
117.09616 -31.568825 124.70257 11577759
162.96555 -30.833464 -25.212336 11051667
163.3035 -30.871035 -24.394678 10459787
117.12566 -30.741898 125.03629 10196107
116.71377 -30.448574 125.40181 8682867
163.41586 -29.423685 -26.959917 8813171
163.42451 -29.701406 -26.155291 9800832
163.41074 -30.111353 -25.348307 11248790
117.45596 -29.951744 125.39138 8682867
116.87477 -29.767797 125.86002 8880246
116.48644 -29.298025 126.66251 9341053
115.85781 -29.134533 127.32738 10656657
164.78381 -28.74642 -31.672274 9604994
165.12288 -28.822746 -30.997049 9210236
163.87192 -29.119408 -28.247763 9405307
164.22023 -29.149466 -27.293077 10589324
116.4782 -28.848183 128.01366 9209467
115.80087 -28.83412 128.5076 11117208
115.04577 -28.825668 132.74132 11183258
114.40264 -28.825579 133.29198 10525328
113.87414 -28.730757 136.63594 12761517
113.24493 -28.451782 137.08534 8879222
164.98466 -27.936611 -31.917284 8025706
165.36716 -27.870474 -31.270452 7104347
113.35756 -27.638783 137.35768 8814198
112.64075 -27.40111 137.83691 8419952
165.2128 -26.505665 -32.581448 7565675
165.26651 -26.977629 -32.127262 7433061
113.55686 -26.783934 137.60091 9341054
112.94847 -26.54978 138.02087 8156780
165.33885 -25.894346 -32.813343 9605255
165.63582 -25.920849 -32.252052 10459540
112.96037 -25.687971 138.36685 7696229
112.55688 -25.244566 138.75824 7959401
165.36829 -24.444176 -33.8549 9342339
165.6151 -24.879898 -33.07608 11052699
165.86162 -25.317043 -32.296677 13354685
113.28574 -24.617311 138.6311 9341054
112.59802 -24.554369 139.01529 8353903
165.65714 -23.803757 -33.831615 9670788
165.99112 -23.871492 -33.152435 9276287
112.77711 -23.780695 139.23767 9011321
112.3651 -23.50873 139.55257 7037274
165.868 -22.438814 -35.622379 10261123
166.00679 -22.73675 -34.818348 9802116
166.05444 -23.15999 -33.995991 9736323
112.91077 -22.874529 139.54202 9734788
112.29562 -22.577509 139.96011 8616307
166.36642 -21.682076 -36.775097 9734779
166.54041 -21.932636 -35.849514 11313813
112.61544 -21.562286 140.21222 9142907
112.02018 -21.546066 140.50798 8616563
166.57387 -21.299459 -37.450596 9208435
166.81897 -21.312183 -36.874535 9734779
112.61643 -20.691265 140.56139 8090987
112.02023 -20.675795 140.85719 9012089
112.16933 -19.651468 141.19595 8617331
111.60521 -19.284679 141.61725 9341054
112.26858 -18.717295 141.52269 9341054
111.84996 -18.445124 141.83536 10064777
111.91875 -17.614269 142.13544 9670020
111.32024 -17.601578 142.4313 7564647
112.06786 -16.959055 142.32596 8814711
111.44802 -16.682875 142.73798 8090735
111.63157 -15.895584 142.97473 8353907
111.58263 -15.202561 143.48352 7762027
111.7869 -14.776046 143.74783 7762027
142.59908 -69.252083 44.156338 9537665
142.4109 -69.488472 44.849949 9340284
142.15976 -69.498909 45.711777 9076855
141.8719 -69.494148 46.561722 9471355
141.5618 -69.452911 47.517803 10590091
141.24364 -69.299652 48.623074 8092019
140.9532 -69.30201 49.472683 8092019
140.66188 -69.306694 50.322098 8092019
140.31126 -69.315079 51.341213 8551800
143.21754 -68.334267 41.905697 12433069
143.01921 -68.54908 42.857838 9406590
142.82588 -68.736412 43.85038 9340797
142.67798 -68.723541 44.934036 9471868
142.42392 -68.732635 45.796654 9076855
142.13545 -68.727898 46.648205 8353133
141.78841 -68.724968 47.669731 9800832
141.44029 -68.72509 48.69083 9341314
141.14941 -68.727432 49.541603 8092019
140.85774 -68.732071 50.39217 8486520
140.50668 -68.740356 51.412758 8156781
140.1545 -68.751694 52.433334 7038307
139.80113 -68.766098 53.453922 9077887
139.50568 -68.78035 54.304497 9867141
139.20908 -68.796768 55.155064 8091503
138.98053 -68.435661 56.228081 8814714
138.62189 -68.461014 57.250324 10590348
138.32199 -68.484428 58.102486 9340539
138.08318 -68.411522 58.883499 10262156
137.72258 -68.351715 60.006439 11643808
137.47954 -68.375275 60.689178 10460046
143.75066 -67.465263 40.191509 9734273
143.59164 -67.637497 40.954872 12299426
143.44536 -67.751877 41.785137 9866883
143.30586 -67.741798 42.922386 8814453
143.18988 -67.700859 43.962128 8617074
143.01154 -67.76825 45.039074 8551537
142.75377 -67.775703 45.902706 9340026
142.46463 -67.771019 46.756264 7629668
142.11676 -67.768066 47.780113 9143418
141.76785 -67.768181 48.803623 11314330
141.47632 -67.770477 49.656357 12564396
141.18398 -67.775055 50.508942 10459791
140.83215 -67.783218 51.531937 9538688
140.47917 -67.794395 52.554893 8025196
140.12355 -67.855751 53.529007 11051673
139.87244 -67.766518 54.364349 13682873
139.53127 -67.838631 55.282902 9077625
139.23769 -67.669151 56.332256 7828332
138.87842 -67.694221 57.356461 9537917
138.57806 -67.717422 58.210224 9340539
138.27667 -67.742821 59.0644 10064777
137.91386 -67.776077 60.089928 11381148
137.54495 -67.704224 61.057022 9933446
137.10835 -67.554886 61.909019 10460046
144.30579 -66.598061 38.296261 11378583
144.20685 -66.579056 39.137436 9142393
144.04494 -66.695068 40.08709 9734273
143.91313 -66.746643 40.98423 9997698
143.78036 -66.800499 41.882702 8418927
143.6433 -66.817421 42.922577 8551282
143.50491 -66.837196 43.964382 9209210
143.3492 -66.987083 44.766705 8090987
142.37924 -67.003128 47.868385 8682867
142.02966 -67.003212 48.893772 10590608
141.73763 -67.005493 49.748119 12169639
141.44476 -67.009987 50.602287 11381404
141.12077 -66.865753 51.714626 9999496
140.80341 -66.837822 52.676292 9407103
140.50742 -66.849075 53.530647 12695980
140.21053 -66.862518 54.385067 12169636
139.88651 -66.738686 55.472492 9209211
139.55882 -66.711777 56.462326 8484976
139.21489 -66.788757 57.383533 8617074
138.95908 -66.708046 58.223061 9800833
138.59595 -66.784554 59.200974 10262411
138.23242 -66.817368 60.228962 11841955
137.81027 -66.825569 61.231659 9275260
137.41859 -66.736923 61.964069 8880502
136.95161 -66.707497 62.782356 9208955
136.59038 -66.338051 63.663048 10064265
145.01427 -65.356384 36.252953 15724269
144.82199 -65.620323 37.02005 11907502
144.62485 -65.821236 38.008839 9406849
144.51537 -65.765808 39.043545 9142907
144.37979 -65.745705 40.180187 10260870
144.24799 -65.796654 41.079506 9208184
144.11244 -65.88353 41.904099 8089963
143.94141 -66.0839 42.681728 9010806
139.09322 -65.998306 58.623901 8090987
138.85117 -66.018425 59.310184 9407871
138.48712 -66.050964 60.340096 13157816
138.16681 -65.936546 61.257957 9538688
137.7937 -65.693077 62.069569 9011320
137.29886 -65.65493 62.941742 10261132
136.68895 -65.758049 63.909294 10064265
136.22482 -65.629662 64.793434 9406335
145.55913 -64.515503 34.350441 8617336
145.36667 -64.741516 35.228844 11314591
145.2149 -64.788597 36.303055 16513528
145.12248 -64.718109 37.245445 9604487
145.02591 -64.684227 38.114109 8419956
144.86052 -64.784164 39.143272 8748920
144.6445 -65.020668 40.178787 10787470
144.47522 -65.216591 40.956409 9010806
137.90517 -64.867523 62.469292 9011064
137.5052 -64.772377 63.220108 8747893
137.00287 -64.802299 64.056389 8550513
136.46802 -64.816185 64.959587 7695978
136.11116 -64.61615 65.712227 9867402
135.6958 -64.431122 66.554344 11512225
146.33209 -63.285355 31.758638 7038307
146.20558 -63.431049 32.345142 7038307
146.03206 -63.606255 33.219879 9142907
145.85156 -63.752815 34.234299 8748921
145.70091 -63.796341 35.3097 7893614
145.54904 -63.842785 36.386429 9735817
145.4534 -63.806297 37.25568 7695719
145.29314 -63.926716 38.184204 8419957
137.23994 -63.939663 64.26812 7629928
136.92661 -63.627075 65.026993 7959408
136.48079 -63.649128 65.773003 9538438
135.86778 -63.761074 66.740295 12499119
135.3999 -63.640915 67.625725 11577761
146.79509 -62.48756 30.384005 7037792
146.58179 -62.708344 31.443956 8090994
146.45895 -62.737473 32.339516 8090994
146.33522 -62.76873 33.235889 8091247
146.18568 -62.808765 34.312553 8420211
146.07077 -62.768661 35.345989 5393738
145.81624 -63.086521 36.453129 6116687
136.65024 -62.833076 66.067688 10722710
136.1779 -62.807713 66.892998 10459536
135.63248 -62.781128 67.84407 9603970
135.17757 -62.761036 68.635704 8945528
134.85973 -62.45908 69.394951 8484977
147.37927 -61.286518 28.661608 7038307
147.21742 -61.658703 29.411648 9011579
147.06262 -61.734238 30.439169 7037533
146.91606 -61.766232 31.515425 10656404
146.76843 -61.800983 32.592754 9801609
146.62274 -61.906212 33.44923 8552562
146.44954 -62.088905 34.300007 8092011
136.34575 -61.912193 67.247353 8420208
135.99203 -61.76643 67.956139 8025194
135.63033 -61.573605 68.712227 8288110
135.08981 -61.600647 69.616447 8156268
134.52914 -61.735287 70.478081 9341565
147.6953 -60.586143 27.710726 6643542
147.6497 -60.741436 28.591852 7038307
147.66733 -60.657059 29.50176 9142907
147.43407 -60.808132 30.515997 7300445
147.24594 -60.922787 31.493425 7826789
147.06038 -61.041187 32.471916 11380383
135.79234 -60.856857 68.948654 8420208
135.44183 -60.669357 69.79847 8485487
134.81728 -60.835045 70.712273 9078137
134.35986 -60.822155 71.505898 10065288
134.03835 -60.59597 72.289551 10985366
133.63287 -60.452709 73.195511 10984854
148.78459 -59.360638 23.954308 7301470
148.73421 -59.386814 24.680401 7498593
148.51012 -59.533905 25.634256 10064520
148.29102 -59.773876 26.625513 6510930
148.23557 -59.88036 27.674608 6511954
148.09233 -60.122448 28.554682 6643543
135.229 -60.148109 70.929466 10855060
134.87439 -60.05373 71.677254 10459790
134.44902 -59.886379 72.655884 10195595
133.9882 -59.781239 73.601311 9998471
133.52765 -59.774792 74.397224 9669762
133.31416 -59.510082 75.386848 9669764
132.981 -59.351223 76.332397 11380382
132.88051 -59.226517 77.214439 9998984
132.4644 -59.207729 77.827614 9735812
154.23482 -58.609825 5.9226975 9538438
154.33052 -58.729385 6.6699128 12170154
154.33783 -58.817944 7.4753022 9538438
154.013 -59.005398 8.5099354 9209215
153.94398 -59.003372 9.619297 7695717
153.89384 -59.002026 10.35862 5920074
152.67981 -59.001896 11.379032 5920074
152.60577 -59.000248 12.295404 8092011
152.52588 -58.998611 13.21142 8486000
152.42294 -58.996658 14.309969 8484720
152.33136 -58.995045 15.224831 6972503
151.10033 -58.995026 16.198685 5920074
150.99701 -58.993439 17.105536 6643546
150.88861 -58.991867 18.011776 7301479
150.77429 -58.990299 18.917322 7564651
150.63026 -58.988434 20.00305 11775654
150.47836 -58.98658 21.087746 8749174
149.74756 -59.063374 21.717489 8814710
149.47302 -59.126015 22.778599 9998984
149.40247 -59.164062 23.871571 7038298
149.32701 -59.203346 24.965101 6511954
132.53215 -59.076488 78.384155 9603198
132.14613 -58.967529 79.363243 9207925
131.60672 -58.94157 80.120277 9997699
132.00662 -58.898544 81.460892 8681835
131.61041 -58.897926 82.09359 9273721
131.01073 -58.897015 83.039375 7564385
130.40422 -58.896122 83.980797 11313812
130.76341 -58.892551 85.559303 8090987
130.45186 -58.89212 86.029564 9932678
129.92876 -58.891407 86.810814 10130057
129.29501 -58.890568 87.744286 9406846
129.62407 -58.887001 89.346718 8617336
129.29875 -58.886597 89.812904 9735558
128.7529 -58.885933 90.587112 9735558
128.09198 -58.885151 91.512039 9275006
128.39008 -58.88158 93.1381 7565675
127.98108 -58.789539 93.785255 10065036
127.51895 -58.651005 94.488602 9867657
126.99271 -58.603935 95.112656 10985880
154.51817 -57.699493 5.6849923 8157555
154.67667 -57.861942 6.6377664 9998987
127.80235 -57.760231 94.663841 10327694
127.06616 -57.670349 95.486794 10393230
126.59602 -57.223423 96.0905 9735299
154.65338 -56.800816 4.8208489 10262414
154.8434 -56.786598 5.6255898 7894640
154.95192 -57.002144 6.4467149 9341569
127.82866 -56.918262 95.101578 9406078
127.40027 -56.73484 95.642815 9603457
126.72165 -56.592022 96.282356 9472127
154.96355 -55.39407 3.8975625 7828335
154.9892 -55.786922 4.6443887 9670535
155.12225 -55.969868 5.519568 9670534
127.53304 -56.105392 95.839272 9406078
127.05737 -55.658489 96.441971 8024426
126.42118 -55.500008 97.042305 9406335
155.16789 -54.777252 3.7903619 7564651
155.37564 -54.830036 4.7798791 9209473
127.12888 -54.727322 96.818993 8814198
126.45721 -54.600662 97.433754 10064267
155.33994 -53.715149 2.8224244 8354165
155.4935 -53.859383 3.7229829 8222580
155.57394 -54.107738 4.4734559 11512225
127.22186 -54.066132 97.051796 10261646
126.75457 -53.757679 97.582726 8946814
126.21873 -53.511448 98.141182 9867145
155.53853 -52.58147 1.8528962 9144449
155.6727 -52.75201 2.7105393 8814969
155.81122 -52.895119 3.5424981 8025201
126.97213 -52.840611 97.832375 8092019
126.36811 -52.675499 98.409172 11050648
125.76103 -52.473587 99.005852 10064522
155.80981 -51.391499 1.1061845 10788759
155.82195 -51.822941 1.8559442 8092015
155.97768 -51.963207 2.757853 8092011
126.51376 -51.801006 98.698372 10130314
125.99686 -51.559662 99.238899 9933191
155.97452 -50.764721 0.80703586 9473157
156.17641 -50.874348 1.8595185 8815736
156.2596 -51.116825 2.6120095 8092011
126.19458 -50.695675 99.480095 9077881
125.55828 -50.669872 100.01836 9406591
156.21165 -49.54026 -0.14391857 9340030
156.29855 -49.849762 0.73301929 8222320
156.43744 -50.000969 1.5798059 8354672
126.33529 -49.787113 99.789345 8090986
125.80504 -49.66185 100.28648 8419697
125.14188 -49.698833 100.81763 9209215
156.34067 -48.806297 -0.77088314 8616307
156.49649 -48.853352 -0.019132197 10063496
156.65465 -48.972698 0.85950702 8221549
125.9166 -48.857269 100.57111 8354163
125.39822 -48.670685 101.0872 7959919
124.93551 -48.289852 101.64817 7565675
156.59901 -47.413277 -1.9024444 13550517
156.64233 -47.791855 -1.1024795 10195082
156.82234 -47.949619 -0.066968501 9011065
125.6302 -47.779728 101.31268 7762541
124.95296 -47.693665 101.91304 10525328
156.90822 -46.663593 -1.9064155 11576988
157.01244 -46.811714 -1.1528602 10063496
157.05411 -47.123108 -0.39804226 9734531
125.70658 -47.013798 101.60828 8814970
125.1148 -46.761467 102.23403 9867399
124.60383 -46.389126 102.88428 9407106
157.31654 -45.533543 -3.8023314 9735812
157.27901 -45.816868 -2.9911323 10064520
157.3385 -46.018818 -2.0376487 10327180
125.44701 -45.976215 102.57026 9735814
125.00708 -45.687943 103.21925 9735814
124.49646 -45.431728 103.89484 8092019
124.09353 -45.165161 104.49174 8288883
158.07468 -44.514641 -6.4804969 10459278
158.15294 -44.529678 -5.9128852 9077625
158.03816 -44.654633 -4.8828177 11248025
157.68428 -45.009773 -4.0001693 11379610
157.73036 -45.226086 -3.0534339 10525070
124.74993 -44.833126 104.27808 8092019
124.20563 -44.673203 104.99714 9275520
123.93726 -44.409466 105.90321 9406852
123.79076 -44.215191 106.81617 7564650
123.22095 -44.196358 107.36378 9210491
161.35097 -43.720436 -17.126539 8879475
161.65318 -43.778931 -16.372877 7760995
160.43411 -44.03941 -14.30937 5920074
160.49821 -44.037834 -13.538446 8747893
160.58806 -44.035477 -12.381491 8747893
159.20314 -44.032574 -9.7822742 15328473
159.25575 -44.030663 -8.8260517 11445149
158.96098 -44.145844 -7.8534751 10722450
158.73584 -44.281956 -6.8877654 9867141
158.84183 -44.301708 -6.1278281 8682867
123.63975 -43.95657 107.9943 9407106
122.9222 -43.934116 108.67884 10919830
122.74073 -43.855965 110.91817 10722450
122.06791 -43.855572 111.65267 8485749
121.64913 -43.850643 114.5501 9669766
120.81515 -43.85022 115.42324 9142907
120.64021 -43.577309 117.79092 9735556
119.97114 -43.541851 118.27126 8486262
161.69359 -42.742416 -17.229055 8353131
161.87245 -42.984974 -16.592482 8813680
120.24677 -42.762394 118.42147 7039331
119.69152 -42.486526 118.85209 7039331
161.75679 -41.643871 -18.089548 8221803
161.92656 -41.951859 -17.4139 8024168
120.3415 -41.812359 118.78172 8157040
119.66076 -41.598434 119.23193 9932423
162.02446 -40.790443 -18.251566 7564385
162.30437 -40.874191 -17.526342 8879736
119.87341 -40.68058 119.49424 9273980
119.49557 -40.404987 119.80831 8616307
162.13533 -39.633484 -19.054995 10260614
162.24214 -39.997063 -18.474318 8616560
120.1462 -39.727299 119.73901 9997703
119.52678 -39.579945 120.12933 9142651
162.40686 -38.829334 -19.162889 9997442
162.5864 -39.155109 -18.448503 8616560
119.57555 -38.686668 120.46893 8155756
119.11031 -38.310528 120.87066 7893096
162.38138 -37.796833 -20.168112 8616048
162.64395 -37.92025 -19.44673 8747634
119.82667 -37.737083 120.72369 7892581
119.17077 -37.652508 121.10775 7893096
162.5455 -36.665535 -20.824694 9537667
162.72589 -36.928238 -20.166048 9865600
119.29417 -36.71833 121.42429 6708823
118.66611 -36.420013 121.88097 7893611
162.7493 -35.8111 -21.135607 7037791
163.02559 -35.992321 -20.329432 9536634
119.56846 -35.85458 121.63172 7892581
118.87931 -35.60495 122.10095 7893611
162.81424 -34.643288 -22.055452 10261899
163.0507 -34.881393 -21.289377 7893351
163.28714 -35.120632 -20.522375 6511954
119.0245 -34.636337 122.41998 8419959
118.4027 -34.540813 122.79029 7564651
163.14478 -33.812492 -22.050993 11051671
163.41975 -34.00341 -21.238722 9275260
119.35976 -33.766239 122.5974 9143425
118.64539 -33.606903 123.04324 8682874
163.16228 -32.837788 -22.903547 11579040
163.47353 -32.876896 -22.146246 11775906
118.79554 -32.737419 123.31905 8814460
118.13544 -32.660011 123.70235 11576994
163.36269 -31.424379 -23.734392 9736836
163.52713 -31.803196 -23.005701 10262666
163.69058 -32.148853 -22.310022 12629416
118.85367 -32.075504 123.55894 9143425
118.36658 -31.581951 124.02044 9931910
117.75931 -31.187387 124.50542 11183001
163.55986 -30.763126 -23.897493 9933958
163.8166 -30.86054 -23.19808 9736836
118.48265 -30.601011 124.36832 8879478
117.82291 -30.500509 124.77422 9800580
163.99875 -29.634583 -24.955259 9800572
164.01443 -30.008659 -24.165037 9735809
164.09869 -30.285206 -23.439302 9736836
118.20444 -29.827492 125.09986 8879734
117.89729 -29.294395 125.8653 8748660
117.26925 -29.180265 126.4103 9209467
165.44951 -28.606844 -30.564867 10263180
165.75963 -28.846922 -29.798452 11578271
165.90254 -29.059362 -29.001974 10985878
164.42868 -29.167801 -26.719114 10261123
164.70314 -29.192379 -25.95175 10261123
117.72071 -28.887909 127.2082 9801347
117.01061 -28.865042 127.66912 9209467
116.64134 -28.825933 131.35068 10853012
116.1644 -28.825846 131.76976 10985367
115.52612 -28.825741 132.32605 11183258
115.07545 -28.557444 136.06654 10985364
114.39448 -28.4907 136.45674 12761517
165.79387 -27.689877 -30.629358 7038298
165.98016 -28.105782 -29.976202 8157036
114.57593 -27.721825 136.67436 9867397
114.17503 -27.450108 136.9991 9209467
165.73128 -26.761703 -31.44359 7564651
166.07332 -26.836044 -30.76449 6775130
114.76125 -26.60623 137.0316 9472640
114.11556 -26.524179 137.40932 9275261
166.03848 -25.832253 -31.585264 11578276
166.27269 -26.048464 -30.995337 9472646
114.43513 -25.515762 137.65123 8748660
113.74499 -25.423157 138.05692 9012089
166.08774 -24.71209 -32.34137 13354685
166.31107 -24.93961 -31.762552 13354685
114.44354 -24.65023 138.00061 8682867
113.86428 -24.633621 138.3161 9341054
166.29015 -23.895832 -32.589027 12893877
166.63104 -23.99358 -31.893919 13420221
114.11504 -23.556963 138.62256 7564386
113.53498 -23.541382 138.93808 6511954
166.6748 -22.654802 -33.622444 9341821
166.69678 -23.063059 -32.877056 10460049
114.12227 -22.688597 138.97369 7564386
113.55673 -22.48778 139.35722 8748405
167.32574 -21.612173 -35.23317 10854292
167.03989 -22.023666 -34.615223 10459534
167.17543 -22.125463 -33.806652 9933702
113.7915 -21.592445 139.59808 8879735
113.20982 -21.578466 139.91385 8616819
167.11057 -21.330959 -36.307724 10261123
167.40244 -21.350031 -35.739563 11380380
113.7476 -20.9377 139.8891 8616819
113.33896 -20.666117 140.21292 8814715
113.53172 -19.684771 140.51263 8090994
112.86642 -19.606201 140.87544 7696235
113.11733 -18.518003 141.19037 7696235
113.1182 -17.640327 141.54221 7498853
112.518 -17.627159 141.8391 9275260
113.46961 -16.988375 141.63316 6644053
112.80833 -16.710415 142.06602 8025198
112.83193 -15.918342 142.37866 7762027
112.33116 -15.323053 143.01819 8288369
112.64004 -14.682652 143.41385 9472639
112.19253 -14.351419 143.91296 9143678
143.56471 -66.569267 44.266136 9077624
143.39098 -66.627792 45.266869 9209210
143.14917 -66.628502 46.02985 12695466
142.83826 -66.733246 46.82449 9537919
142.51041 -66.62088 47.912468 9143418
142.16399 -66.525558 49.035736 10130057
141.93346 -66.432144 49.816898 9603970
141.6402 -66.436569 50.672234 10394253
141.34918 -66.348236 51.624969 9670531
140.99757 -66.264214 52.748962 9209212
140.70122 -66.275314 53.60458 10459022
140.40401 -66.288689 54.460178 10985620
140.1656 -66.300667 55.144741 10985620
144.26915 -65.38018 42.119045 8550256
144.03149 -65.681503 43.132786 9997700
143.85953 -65.795723 44.167675 8682868
143.72623 -65.748611 45.20993 8617330
143.47839 -65.67337 46.135689 11445916
143.12396 -65.811806 47.020241 9998984
142.77257 -65.856812 48.000633 10327436
142.45303 -65.809059 48.991718 11051159
142.19443 -65.668076 49.908543 9340798
141.90063 -65.67247 50.765472 10393742
141.54678 -65.680214 51.793606 9143931
141.1917 -65.690857 52.821682 9603457
140.89494 -65.701904 53.67841 9932422
140.59732 -65.715187 54.535259 10787986
140.23911 -65.733696 55.563671 9932677
139.87968 -65.755173 56.592331 8682355
139.57924 -65.775269 57.449814 10392971
139.3204 -65.670021 58.325577 9143416
139.04245 -65.444183 59.392033 8749941
138.67805 -65.476448 60.423431 11710626
138.39592 -65.430786 61.227013 8485744
138.1389 -65.278595 61.776356 9011064
144.95239 -64.378807 39.589081 9143678
144.80133 -64.517433 40.391136 10327177
144.60399 -64.773514 41.218361 8616049
144.51663 -64.709946 42.097046 9010806
144.35599 -64.775551 43.182648 12168609
144.26086 -64.653954 44.290848 9866630
144.04999 -64.82312 45.311607 8617075
143.74159 -64.909767 46.220299 9341054
143.51604 -64.714394 47.101318 8485745
143.16554 -64.711494 48.132778 10525328
142.8141 -64.71151 49.163925 11380380
142.52037 -64.713623 50.022964 10656658
142.22557 -64.717834 50.881783 10261900
141.87083 -64.725395 51.91227 9143418
141.515 -64.735893 52.942726 9998215
141.21762 -64.746773 53.801487 9471871
140.91939 -64.759865 54.660324 9998727
140.56047 -64.778137 55.691128 8485232
140.20029 -64.799339 56.722214 8945527
139.89925 -64.819199 57.581741 10393229
139.62834 -64.792221 58.405296 8748917
139.29744 -64.678902 59.501118 8092011
138.94411 -64.746841 60.459999 10065801
138.65401 -64.687309 61.288124 8815738
138.19757 -64.655022 62.121933 9011064
137.85104 -64.471382 62.844696 9011064
145.42665 -63.548119 38.219296 8419957
145.20465 -63.791618 39.283016 9340799
145.11487 -63.659195 40.384552 11379607
144.9834 -63.708897 41.288769 8617074
144.85083 -63.760761 42.194321 10787214
144.68025 -63.87022 43.23217 10721680
144.58243 -63.870182 44.009136 9011579
142.36703 -63.956589 51.318882 10459279
142.12993 -63.961922 52.007149 9209467
141.83305 -63.970322 52.867424 10129801
141.53523 -63.980816 53.727776 10327436
141.20444 -63.844406 54.849197 9078393
140.88156 -63.823158 55.818481 9209723
140.58098 -63.840347 56.679733 9537920
140.27948 -63.859642 57.541222 9076857
139.98033 -63.694309 58.602184 7958376
139.61597 -63.722858 59.637383 8157035
139.31134 -63.748821 60.500488 10000009
138.98701 -63.768433 61.355713 9539207
138.46539 -63.734463 62.322578 9406849
137.92247 -63.693893 63.278446 7037274
137.53265 -63.471313 64.103188 7564393
137.32359 -63.262478 64.609749 7564651
146.21005 -62.29248 35.618942 5393738
146.01651 -62.519588 36.503067 6313808
145.82219 -62.74881 37.387321 6708309
145.69371 -62.79121 38.289333 9406335
145.53838 -62.844669 39.373203 9340541
145.44846 -62.711605 40.477303 12695209
145.317 -62.760662 41.383682 10129798
145.14447 -62.991112 42.090473 10722704
139.08105 -62.998329 61.797512 10262929
138.78174 -62.779018 62.465263 10789016
138.23743 -62.738953 63.423241 7762027
137.78381 -62.707779 64.220512 8157043
137.33002 -62.678791 65.016655 10262670
136.93837 -62.460945 65.841942 10788758
146.75314 -61.461388 33.701736 8092011
146.60728 -61.585701 34.504204 8092011
146.43559 -61.718811 35.487381 7170143
146.28349 -61.763947 36.569717 7695460
146.15588 -61.803631 37.472759 7563874
146.09402 -61.65638 38.39439 8551281
145.8719 -61.89819 39.463337 9208955
145.6748 -62.133705 40.35149 11379607
138.78981 -62.19231 62.870789 8684155
138.45799 -62.070831 63.524658 7959407
138.13672 -61.756462 64.298622 9867912
137.64278 -61.725235 65.165031 10789012
137.0965 -61.693363 66.121254 10130828
136.65189 -61.54039 66.990471 8617587
136.30872 -61.265533 67.773643 5920074
147.78607 -60.304775 30.589426 7563617
147.51895 -60.465881 31.719175 9274232
147.29431 -60.602703 32.762684 14537924
147.11166 -60.728046 33.598061 12696492
146.97974 -60.757885 34.498791 8092011
146.82008 -60.796032 35.580624 6841688
146.60652 -60.933769 36.596817 8617074
146.42267 -61.047802 37.541035 7958632
146.41231 -60.883362 38.101673 7958632
138.25766 -60.985107 64.644325 8814971
137.89432 -60.871525 65.386116 9604740
137.46301 -60.681416 66.357033 8814710
137.02916 -60.610355 67.195435 6972506
136.60617 -60.598484 67.921898 6117453
136.08659 -60.60569 68.790161 6577746
149.17717 -59.278954 26.972197 6511954
148.95772 -59.371174 27.950117 10853519
148.63023 -59.587971 28.953154 7301214
148.52522 -59.611176 29.893755 7234652
148.15878 -59.808456 30.6672 7563617
148.00113 -59.835289 31.749327 9142647
147.84148 -59.864563 32.832153 12432807
147.55576 -60.061989 33.886993 9736578
147.44704 -60.084404 34.609238 8092011
136.96666 -60.001694 68.184746 7170141
136.54974 -59.847839 69.128845 9866110
135.99771 -59.871796 70.034836 10524297
135.75523 -59.641731 70.909889 10525582
135.47324 -59.472336 71.840858 9801090
135.11526 -59.352737 72.748199 9866115
134.91925 -59.242561 73.693962 9405819
134.37047 -59.237312 74.658379 10590353
134.00266 -59.234562 75.300171 10459025
154.74768 -58.547161 8.0549793 9538438
154.89557 -58.692802 8.9345646 10063496
155.04277 -58.764427 9.6911793 8616307
153.86728 -59.001358 10.728205 5920074
153.81116 -59.000023 11.467127 7696741
153.72083 -58.998035 12.574995 8092011
153.62248 -58.996059 13.682175 8092011
153.53459 -58.994423 14.60429 7367005
152.27373 -58.994076 15.773489 6972503
152.21387 -58.993111 16.321936 6972503
152.10977 -58.991516 17.235516 6709589
151.97778 -58.989616 18.330908 7433059
151.83792 -58.987728 19.425407 9209730
151.71555 -58.98616 20.336653 11183514
151.61348 -58.984913 21.065086 8881014
150.29146 -58.984436 22.351812 16776175
150.17972 -58.983219 23.073404 13881027
150.03845 -58.98304 23.975134 7235420
149.93588 -59.011696 25.068897 6511954
149.6183 -59.126396 26.051565 7301214
149.51047 -59.169197 26.662815 6511442
135.28333 -59.042416 74.318428 9734529
134.91541 -59.039104 74.963676 10721940
134.45346 -59.035786 75.768913 9735559
133.98866 -59.033405 76.572586 8025969
133.59785 -58.99712 77.634682 10130570
133.75047 -58.901432 78.589432 10128769
133.17604 -58.900444 79.550743 8878446
132.59468 -58.89949 80.507843 9866112
132.20354 -58.898853 81.14373 8681835
132.6965 -58.895405 82.554634 10851980
132.19429 -58.894642 83.349518 9142391
131.58548 -58.893734 84.299477 9669502
131.07314 -58.892986 85.087807 9143416
131.53952 -58.889526 86.525223 10591121
131.11884 -58.888958 87.155602 11511455
130.4826 -58.8881 88.097664 11379356
129.94737 -58.887409 88.879333 10458255
129.94891 -58.883404 90.967194 9735558
129.47417 -58.649582 92.035904 11050901
128.80035 -58.678421 92.869774 8748918
128.35732 -58.523869 93.587486 10459537
154.96147 -57.823933 7.8167901 8880509
155.18256 -57.852352 8.8257046 8813429
129.45671 -58.169315 92.494179 13550517
129.25563 -57.763222 92.956169 10064261
128.58679 -57.737759 93.755508 9538692
128.20827 -57.327282 94.428329 11906725
155.16919 -56.653465 6.829329 10065034
155.32005 -56.869049 7.8343072 9603971
155.46896 -56.936848 8.5913982 8813944
129.36789 -56.773205 93.375511 10524555
128.93373 -56.671997 93.941399 12695467
128.19348 -56.692017 94.799263 10721939
155.41341 -55.577709 6.153193 8091761
155.51599 -55.768787 6.9068475 8815226
155.60555 -55.955853 7.5979867 9801350
129.00177 -56.031258 94.218117 11510943
128.6489 -55.70507 94.813896 9603457
127.96151 -55.681229 95.620766 9668994
155.58253 -54.548138 5.2228189 10459281
155.66216 -54.800091 5.9752564 8749434
155.81464 -54.951923 6.8817391 7762797
128.76685 -54.832668 95.161018 8682867
128.2002 -54.746929 95.859978 9603457
127.56261 -54.632732 96.504616 9341055
155.82198 -53.724983 4.9304109 11248797
155.99075 -53.879528 5.9121194 8682874
128.4017 -54.060154 96.011299 8814714
127.90897 -53.675423 96.666588 8749691
127.31462 -53.405106 97.284744 8749948
156.01349 -52.645504 4.015986 9998989
156.14964 -52.805534 4.8651032 10525074
156.23219 -53.128559 5.7452073 8485751
128.14978 -52.782032 96.885872 9802121
127.39806 -52.636299 97.575851 8684155
156.1981 -51.668583 3.2373528 8092011
156.35352 -51.796799 4.1184106 8223343
156.50694 -51.853565 4.8755021 8551800
128.15382 -51.937988 97.277916 12433069
127.63718 -51.743473 97.796272 11511968
127.06327 -51.485271 98.391823 9472128
156.46646 -50.33073 2.238688 10591630
156.5062 -50.71949 3.0393434 9341820
156.63689 -50.963036 3.9996171 8092013
127.90141 -50.711868 98.061012 8617331
127.30328 -50.663212 98.5784 6840919
126.7058 -50.615582 99.094872 8617331
156.64076 -49.748028 2.0525041 10591374
156.83456 -49.813061 2.9980302 12696748
156.91829 -50.056541 3.7545648 8092011
127.48712 -49.733154 98.862053 6511954
126.7925 -49.564819 99.515305 7367263
156.87425 -48.617542 1.2376008 9077113
157.04291 -48.759895 2.1988587 9932166
157.00934 -49.229317 2.8121171 12695980
127.20313 -48.692661 99.58429 6775128
126.52483 -48.602093 100.18759 8485235
157.0697 -47.548836 0.35731357 9734531
157.1555 -47.786263 1.1134171 8419440
157.31448 -47.906456 1.9970384 7564386
127.28281 -47.924511 99.878197 7038307
126.65736 -47.612366 100.54157 8617079
126.11325 -47.374176 101.10315 7564393
157.38918 -46.379463 -0.58818966 8550257
157.31845 -46.779102 0.087442815 8813429
157.49777 -46.884808 1.0678926 7367007
157.5253 -47.264137 1.8730683 6511954
126.91444 -46.731758 100.74657 8353651
126.30242 -46.552635 101.3554 8485493
125.82537 -46.366581 101.87201 9143166
157.71214 -45.634365 -1.7262588 9471359
157.84857 -45.722893 -0.82668072 9076601
157.87766 -45.958099 0.10596317 8089963
126.65786 -45.902195 101.64248 9998216
126.0415 -45.643311 102.40829 10130058
125.72541 -45.256317 103.0527 9735814
158.94611 -44.321991 -5.3670516 12629418
159.0486 -44.342911 -4.6053367 13550518
158.61156 -44.531574 -3.8313308 11181975
158.3261 -44.760242 -2.6835608 10392716
158.19772 -45.050449 -1.7581534 9602945
126.38566 -44.925587 102.83462 9734788
125.92198 -44.721115 103.4692 10261644
125.32016 -44.539875 104.39897 10722193
125.21229 -44.264587 105.44007 11906468
124.64447 -44.244354 105.99182 11906725
162.05733 -43.855106 -15.234133 7037274
162.15363 -43.960918 -14.163557 8616564
162.10674 -44.034912 -13.277239 10064009
160.65668 -44.033524 -11.416864 10261900
160.71919 -44.031578 -10.45186 12564654
160.78668 -44.029255 -9.2933941 10853012
159.40152 -44.047611 -7.2986617 9538176
159.509 -44.06712 -6.5354438 10459278
159.39218 -44.165363 -5.6362815 9274749
125.07095 -44.004211 106.61761 11906725
124.49908 -43.98476 107.16958 7827822
124.06973 -43.970467 107.58239 7038307
124.20496 -43.856892 109.28758 10261642
123.54214 -43.856464 110.03126 11051415
123.14237 -43.856209 110.47546 10459278
123.02497 -43.851383 113.08161 8617337
122.33941 -43.851006 113.81808 8354166
122.30416 -43.838711 116.29166 12433069
121.73286 -43.613396 116.86999 8090735
121.10827 -43.592442 117.39654 11050642
162.24864 -42.708157 -15.974657 8813680
162.45404 -43.027409 -15.206301 8287341
122.03228 -42.870716 116.97049 8090735
121.37304 -42.575134 117.65438 8617078
120.85274 -42.148472 118.28485 8617078
162.31305 -41.605423 -16.836077 8813680
162.54407 -41.85714 -16.070185 9076851
162.77507 -42.110188 -15.303076 7892581
121.5647 -41.595394 117.95512 8288114
120.85416 -41.532738 118.57229 7959148
162.63242 -40.689205 -16.935816 8813944
162.76396 -41.061028 -16.290331 9734788
121.79728 -40.944668 118.0678 8617078
121.22198 -40.721901 118.64813 7695205
120.54874 -40.688805 119.1311 8089963
162.64532 -39.719234 -17.794916 7367011
162.93306 -39.879974 -16.981085 7761770
121.276 -39.900883 118.98836 8616563
120.79191 -39.53064 119.46867 9010808
162.92503 -38.743553 -18.041056 8484976
163.19646 -38.944996 -17.227659 7038049
121.00347 -38.687454 119.69827 9076601
120.35195 -38.60191 120.09003 9734531
163.02429 -37.703747 -18.764071 8221547
163.27278 -37.854191 -18.05052 9471099
121.04678 -37.88866 120.01174 10458249
120.53288 -37.517494 120.43738 8682096
163.15518 -36.342266 -19.708349 10851980
163.31714 -36.781147 -18.931177 9602428
163.55252 -37.025303 -18.161993 9405819
120.56496 -36.665195 120.76905 7497823
120.04458 -36.437912 121.13927 5919050
163.34917 -35.680946 -19.865202 9865599
163.64052 -35.834335 -19.049303 10851980
120.7399 -35.720306 121.06258 7892581
120.07962 -35.637363 121.44825 7103066
163.4343 -34.728046 -20.541265 6511954
163.70699 -34.818081 -19.826246 9207926
163.9079 -35.209679 -19.001276 10851980
120.23341 -34.767956 121.72208 10129545
119.71414 -34.340885 122.1735 10392719
163.69585 -33.854706 -20.734762 7038041
163.98543 -33.83889 -20.077631 7432542
120.48049 -33.831451 121.97374 9932169
119.87217 -33.546295 122.4145 8551031
164.01598 -32.791584 -20.966448 9537405
164.17957 -33.175137 -20.235544 9405304
120.02497 -32.674706 122.6898 7893359
119.30732 -32.515984 123.13705 7564651
164.06253 -31.860998 -21.711054 11643036
164.3837 -31.753422 -21.064856 10788243
120.27122 -31.735403 122.94299 8485238
119.58165 -31.646044 123.34691 10326924
164.0515 -30.887819 -22.62837 9736836
164.41328 -30.843184 -21.873194 10196618
119.70358 -30.703867 123.66753 9734528
119.04052 -30.628374 124.05389 8089962
164.52892 -29.662434 -23.635225 9078394
164.63409 -29.992157 -22.75905 9473408
119.38686 -29.776562 124.51731 7037274
118.96948 -29.334085 125.18508 9274236
166.26515 -28.84989 -28.571501 8420208
166.16853 -29.055901 -27.406199 9473151
165.08907 -29.225811 -24.79426 9077108
165.34111 -29.247948 -24.020296 10262156
118.96366 -28.92911 126.39734 10524560
118.2532 -28.905323 126.86147 9209467
117.7482 -28.826157 130.36572 10853012
117.11666 -28.826025 130.9296 10195339
116.32979 -28.672199 135.3311 9932416
115.65218 -28.57798 135.75076 9538173
166.42404 -27.813131 -29.38835 7696485
166.74344 -27.905752 -28.736712 8420208
115.96171 -27.769354 135.91635 9472123
115.27833 -27.702522 136.30791 9209467
166.40257 -26.617258 -30.329664 6511954
166.72528 -26.857595 -29.560499 7038298
115.97927 -26.934563 136.24826 9011573
115.43696 -26.566391 136.68777 9209211
166.74998 -25.762033 -30.341906 7827561
167.02959 -26.049793 -29.615503 7103835
115.59399 -25.551407 137.019 9406847
115.01418 -25.5334 137.33542 8814453
166.68608 -24.763771 -31.211954 9012095
167.03096 -24.836012 -30.528849 8419443
115.74697 -24.905851 137.20137 9341054
115.14987 -24.627621 137.63342 8946039
174.9873 -23.449068 -57.866123 9932931
174.84174 -23.411003 -57.353527 7366751
167.10631 -23.754522 -31.2083 7960176
167.21463 -24.182367 -30.687784 8287857
115.34577 -23.653221 137.92728 8682614
114.69574 -23.572878 138.30656 7038307
174.69591 -23.373142 -56.842255 8288109
174.54951 -23.335283 -56.332424 8288109
174.32921 -23.278906 -55.570335 10064009
174.03406 -23.204208 -54.558674 8287853
173.73721 -23.129972 -53.55238 6775130
173.43875 -23.056351 -52.551392 7038307
173.13867 -22.983192 -51.555775 6445910
172.83699 -22.910646 -50.565239 7498593
172.5338 -22.838564 -49.580032 7301213
172.22894 -22.767042 -48.599991 7301213
171.92264 -22.69603 -47.625057 8617075
171.61479 -22.625532 -46.655231 6511962
171.30537 -22.55555 -45.690521 6774618
170.99457 -22.486027 -44.730778 7892584
170.68228 -22.417063 -43.776077 8813686
167.24757 -22.803644 -32.220654 9933451
167.29459 -23.14765 -31.535379 8618105
114.94874 -22.492712 138.61331 7564650
170.3685 -22.348562 -42.826275 10063753
167.94035 -21.546747 -34.296013 10459534
167.69987 -21.962069 -33.283447 9209985
167.69301 -22.153772 -32.445786 9209985
114.95698 -21.621256 138.96518 8353651
114.37383 -21.606728 139.28194 7038042
168.34883 -21.009565 -34.884819 9932163
168.54482 -21.022535 -34.503048 9932163
115.30394 -20.974981 139.04445 8813945
114.57572 -20.738914 139.52908 8288370
114.70266 -19.710808 139.88171 8617335
114.09895 -19.41609 140.32396 11380380
114.30051 -18.54369 140.57312 9669766
114.41406 -17.711329 140.85291 7630441
113.71925 -17.653742 141.24486 7104352
114.65419 -17.011583 141.01105 6644053
114.03092 -16.50388 141.54659 6775895
