# .PCD v0.7 - Point Cloud Data file format
VERSION 0.7
FIELDS x y z rgb
SIZE 4 4 4 4
TYPE F F F U
COUNT 1 1 1 1
WIDTH 1229
HEIGHT 1
VIEWPOINT 0 0 0 1 0 0 0
POINTS 1229
DATA ascii
144.01588 -13.569218 130.74243 9340030
143.08789 -13.676056 131.47946 10261123
133.1584 -13.772337 134.08095 10853012
132.46407 -13.766577 134.67252 9800580
131.68997 -13.753092 135.18097 9669507
131.09302 -13.741425 135.54399 10590609
30.786619 -13.758963 168.14299 8551537
22.064564 -13.47743 171.35208 8617331
21.411572 -13.242924 171.16109 9406847
20.760193 -13.009562 170.97037 9735812
146.47704 -12.471106 129.58517 9012350
145.82368 -12.544241 130.15906 9012350
145.17097 -12.617531 130.73215 9011065
21.376549 -12.476189 171.4476 8617331
20.647484 -12.310543 171.1965 9209212
147.34981 -11.366793 129.30603 9142907
146.76738 -11.600119 129.73611 8552056
145.96021 -11.640671 130.46924 9077886
21.263992 -11.774597 171.67487 8090987
20.481171 -11.49682 171.44456 8814453
148.29942 -10.418449 128.87968 8089963
147.71503 -10.652697 129.31119 8616307
146.90556 -10.693583 130.04619 8814971
20.312183 -10.545424 171.74565 9997959
19.425941 -10.17975 171.50504 10326924
149.3868 -8.9865303 128.56587 12037537
148.59512 -9.3235207 129.13525 8419185
147.76178 -9.6141949 129.77032 9867400
147.04028 -9.9284363 130.29095 9012350
19.608181 -9.4149837 171.88501 9866373
18.737934 -9.1821117 171.59908 8682867
150.00258 -8.0269241 128.46741 11905695
149.50264 -8.3126221 128.79007 11445402
148.71158 -8.258359 129.54973 8814715
19.349247 -8.6364689 172.07904 9406334
18.622307 -8.4787292 171.82576 8682867
150.97209 -7.0662551 128.04173 9208184
150.37834 -7.3041339 128.47488 9866113
149.67682 -7.2991347 129.12732 9208184
149.08485 -7.5369415 129.55882 8814715
19.233902 -7.9304476 172.30728 9537920
18.497826 -7.4920807 172.16069 9669250
17.950905 -7.0590758 172.0941 9537920
151.35007 -6.3406897 128.04855 8946808
150.64641 -6.3360629 128.70279 9208184
150.11917 -6.3326302 129.19298 11905695
18.417347 -6.4326792 172.54364 9998215
17.758072 -6.4213362 172.26193 10853012
152.29012 -5.2915773 127.69364 8092011
151.52814 -5.3195963 128.38583 8223341
150.84802 -5.607975 128.87415 9208184
17.573654 -5.5707555 172.51741 10589840
16.70557 -5.3464704 172.22908 9010808
153.12993 -4.4003077 127.35407 9341310
152.50648 -4.3481255 127.95741 9538689
151.81015 -4.474937 128.54018 8552306
17.388241 -4.7180915 172.77324 9602945
16.671261 -4.355155 172.60527 8879222
154.0686 -3.1791654 127.19508 9078650
153.33307 -3.4699688 127.64686 9736324
152.55815 -3.4990246 128.33376 9012599
16.560436 -3.4307857 172.92178 9537152
15.90379 -3.4255431 172.63885 9341054
16.373299 -2.5741875 173.17844 9734531
15.716473 -2.570622 172.89474 10327437
15.708122 -1.5851457 173.27985 10260875
14.993351 -1.3905419 173.04637 10392717
15.566547 -0.63875526 173.59169 8681843
14.705841 -0.42387572 173.38084 9735299
13.847168 -0.21005833 173.17084 10262667
13.799885 0.39404726 173.64148 10262667
13.032078 0.6505115 173.51332 10855060
12.681789 1.0893171 174.49673 8682867
12.028149 1.0856706 174.20775 11183001
3.3723071 1.7153392 177.25476 7893866
2.598572 1.7545183 176.95831 9209467
3.1757472 2.5670865 177.48383 7630435
2.3874285 2.6341734 177.1916 8485744
3.0357478 3.3034959 177.69385 8288365
2.3905833 3.5184903 177.51263 6906712
1.7461475 3.5117579 177.25143 8748916
2.3216403 4.3312135 177.77881 7696228
1.5334591 4.3954639 177.48564 7169117
2.1803591 5.0711899 177.98965 7366496
1.3743404 5.4498787 177.80304 7169116
0.67665517 5.9403505 177.70026 7695461
1.3218769 6.6218534 178.20569 6510930
0.54799306 6.6529903 177.9082 6182734
0.3759006 7.4571638 178.14885 7433057
-0.39708677 7.7118039 177.94389 6840664
0.24637637 8.1746998 178.3768 9341054
-0.48420301 8.430027 178.18874 9143419
-0.52366602 9.4490013 178.56923 10393742
-1.3674084 9.6071148 178.29892 10457994
-0.83368647 10.413721 178.82224 9932163
-1.4790531 10.624718 178.65053 10195335
-2.1233709 10.835215 178.47897 12431013
-1.5545574 11.457903 178.9446 9471869
-2.2707937 11.590288 178.71442 8682867
-1.7016903 12.21578 179.18137 8682867
-2.4758222 12.376614 178.93939 8485488
-2.9924734 12.635971 178.83699 8288109
-2.424648 13.265131 179.30481 8419695
-3.3570249 13.54299 179.05019 8419695
-3.3512189 14.467747 179.44687 7498593
-4.0854182 14.907282 179.35451 6380116
-4.3097987 15.49367 179.6575 5854030
-4.9620471 15.835173 179.71097 5393738
-6.2861857 16.345057 180.34453 5919566
-7.40591 16.868143 181.07611 7563874
-8.2653809 16.839457 180.74916 8024938
-8.0638161 17.551552 181.09962 6708824
-8.8529549 17.602736 180.82957 6183252
-9.1654549 18.36187 181.22748 5393738
-9.8247261 18.707766 181.25497 5393738
-10.278648 19.192463 181.517 6248530
-11.626266 19.704952 181.97011 9998472
-12.989532 20.233784 182.53163 9933702
86.105484 -28.300522 150.5484 7564651
85.356331 -28.292845 150.92053 9735553
84.362694 -28.484751 151.28168 9340542
83.438721 -28.480623 151.76547 8353134
82.512085 -28.476608 152.24382 7629669
81.578407 -28.47101 152.70847 8485747
80.711487 -28.507931 153.12019 8025198
79.674576 -28.669588 153.56543 7565161
66.812241 -28.68877 156.82019 9932934
66.245041 -28.688721 157.05963 9997959
65.297493 -28.68865 157.45432 9537408
64.347816 -28.688599 157.84363 9537665
63.395706 -28.688566 158.22684 9998216
62.441437 -28.688555 158.60464 8879479
61.484737 -28.68856 158.97638 10327180
60.525921 -28.688581 159.34276 9998471
59.757244 -28.688618 159.63153 9998727
58.794426 -28.688677 159.98711 9538176
57.829613 -28.688749 160.33719 8617592
56.86261 -28.688847 160.68118 7894383
55.893745 -28.688961 161.01962 8814710
54.922634 -28.689096 161.3519 9735812
53.949699 -28.689247 161.67868 9011832
53.169926 -28.689383 161.93575 9472383
52.193321 -28.689569 162.25165 10064777
51.215034 -28.689772 162.56206 9734529
50.234745 -28.689999 162.86615 9339769
49.252724 -28.690239 163.16475 8550765
48.268871 -28.690502 163.45703 8090987
47.28339 -28.690783 163.74373 8419696
46.493687 -28.691019 163.96875 8682867
45.505039 -28.691334 164.24442 8813942
44.514866 -28.691664 164.5145 12959409
43.502254 -28.556643 165.02385 12170149
42.579144 -28.508427 165.2301 9604225
41.818226 -28.416176 165.29404 7828333
89.525208 -27.089376 149.34984 9011576
88.960632 -27.081903 149.63095 9603970
88.170151 -27.280977 149.94041 10591124
87.192993 -27.478258 150.34262 9801608
86.254463 -27.46801 150.80904 8946297
85.316452 -27.458759 151.27475 9340797
84.378807 -27.450384 151.73997 9340285
83.628922 -27.444408 152.11163 9932164
82.723953 -27.688013 152.45947 9142905
81.684288 -27.848076 152.90685 9209467
43.302227 -27.939034 165.56116 9209467
42.690491 -27.713869 165.6653 9077625
41.6768 -27.401081 165.64583 7696746
91.567528 -26.280243 148.66847 9012091
91.001053 -26.27182 148.95084 8288371
90.01857 -26.46769 149.35616 10262156
89.076263 -26.455271 149.82535 9801348
88.134644 -26.443769 150.29379 11643552
87.193512 -26.433126 150.76161 10590867
86.441093 -26.425303 151.13542 9275515
85.568771 -26.458811 151.55162 9143674
84.712524 -26.618544 151.90932 9735553
41.404308 -26.473833 165.90263 8814709
40.657177 -26.437225 165.5928 8815225
94.461151 -25.063686 147.73116 10853012
93.801193 -25.193213 148.00424 8616307
92.831436 -25.338203 148.42374 8484977
91.915749 -25.444525 148.83214 8880503
91.027008 -25.379221 149.29614 8946039
90.094635 -25.479214 149.7153 9406590
89.269356 -25.408699 150.15012 9604226
88.357689 -25.517988 150.55533 8946300
87.394791 -25.667301 150.96977 9011837
86.741669 -25.800299 151.23817 8815478
41.320778 -25.783892 166.13809 9209467
40.637417 -25.516844 165.94673 10525583
39.956375 -25.251293 165.75572 11380380
96.339691 -24.250854 147.13191 9538694
95.535812 -24.448225 147.4487 8815228
94.774628 -24.435238 147.82886 10524304
93.824013 -24.419821 148.3033 8747893
92.87439 -24.405153 148.77695 8945784
92.115379 -24.394096 149.15527 9538433
91.167374 -24.381075 149.62744 8814453
90.180984 -24.578999 150.03386 8682867
89.613251 -24.572027 150.31642 9209211
40.617207 -24.594231 166.30128 10920085
39.862812 -24.344595 166.0722 10788499
99.273399 -23.031513 146.17599 9340795
98.463242 -23.228777 146.49593 7170141
97.633469 -23.340822 146.85974 6643797
96.698753 -23.409039 147.29276 10459282
95.702278 -23.604111 147.70535 8092019
94.939606 -23.591524 148.08606 9472387
93.987259 -23.576588 148.56117 8287085
93.035873 -23.562414 149.03549 8222061
92.045456 -23.75997 149.44411 9735812
39.668919 -23.489464 166.32481 9933702
38.999447 -23.127602 166.17679 9209979
101.37282 -22.219542 145.46803 10261386
100.45103 -22.37203 145.86061 9998210
99.510239 -22.439211 146.29701 8879985
98.635277 -22.380259 146.7516 8420208
97.676117 -22.363186 147.23094 7169631
96.718094 -22.34687 147.70937 7893871
95.91082 -22.546221 148.02702 8222836
94.914108 -22.743023 148.43907 9143165
93.919296 -22.940159 148.84995 7563619
39.742275 -22.778122 166.63684 10656913
38.925755 -22.467028 166.40495 9999239
104.15974 -20.99041 144.58943 8814709
103.29245 -21.402027 144.85115 9077881
102.27925 -21.595562 145.27229 9604226
101.50614 -21.580074 145.65915 10722450
100.54118 -21.561466 146.14178 9407106
99.577614 -21.54355 146.62341 8486262
98.807755 -21.529764 147.00798 10655627
97.915039 -21.557127 147.43661 8748406
96.84462 -21.71015 147.90247 7038307
38.791851 -21.531265 166.71539 10854037
38.018997 -21.209801 166.50659 9209467
106.68402 -20.182146 143.67116 9735812
106.00163 -20.311193 143.95528 8419696
105.27087 -20.367521 144.29247 8683123
104.29726 -20.347242 144.78001 10393485
103.27989 -20.541861 145.20276 10459022
102.50391 -20.526632 145.59096 10196107
101.53542 -20.50823 146.07518 9341056
100.58942 -20.576756 146.51349 7565674
99.801857 -20.762892 146.82649 8486262
98.937469 -20.89077 147.20081 10655627
38.566074 -20.428644 167.05164 9209467
37.866913 -20.378824 166.76785 9604226
37.190388 -20.126127 166.57376 9538435
108.83546 -19.363031 142.94072 9735046
107.92746 -19.451345 143.35237 8353909
107.02119 -19.540108 143.76299 7169373
106.23826 -19.523489 144.15515 9077626
105.26129 -19.503475 144.64423 9867398
104.28602 -19.484081 145.13217 11775138
103.50706 -19.469164 145.52171 11775139
102.6096 -19.560209 145.92702 10524816
101.71367 -19.651703 146.3315 10064521
37.862522 -19.625393 167.06264 9077883
37.101299 -19.436729 166.80661 9012093
111.69695 -18.119587 142.03119 8617076
110.80522 -18.245256 142.41983 9472130
109.99486 -18.430899 142.74423 9537923
109.02838 -18.497082 143.1935 9340545
108.04385 -18.476255 143.68665 8090737
107.25771 -18.460127 144.0802 7169374
106.33755 -18.387558 144.56242 6643032
105.35938 -18.683071 144.92537 7762022
104.4238 -18.838457 145.32368 8814709
103.83862 -18.827477 145.61621 11183001
37.773651 -18.933224 167.29665 11380380
36.946301 -18.416248 167.1412 9406594
113.4893 -17.283047 141.48462 8485747
112.64162 -17.483557 141.82149 9406847
111.84599 -17.466003 142.22031 8090733
111.05177 -17.448858 142.61819 10853012
110.06111 -17.42807 143.11435 10524814
109.07243 -17.407866 143.60922 13353397
108.28307 -17.39222 144.00423 9801347
107.44747 -17.59396 144.33467 9670023
106.85753 -17.582624 144.6297 8814715
36.748219 -17.425564 167.44542 9143675
36.053112 -17.383867 167.16019 9670019
116.35899 -16.019007 140.49963 5919050
115.67134 -16.153038 140.81554 5919562
114.65164 -16.372398 141.27048 6775895
113.64117 -16.626467 141.67351 7762027
112.84236 -16.609343 142.07372 8090991
112.0451 -16.592615 142.47298 8353907
111.05066 -16.5723 142.97083 9735043
110.10814 -16.626574 143.4131 10195849
109.2175 -16.755209 143.79993 14537413
36.57375 -16.796141 167.61757 11380380
35.8978 -16.551027 167.42076 9406334
35.224102 -16.307255 167.22438 10591630
119.02701 -15.193491 139.5674 9538950
118.4369 -15.182415 139.89526 9538950
117.51696 -15.309595 140.28577 7826791
116.66599 -15.322844 140.73201 5919050
115.68355 -15.391428 141.19937 5919818
114.80336 -15.332619 141.71834 6249295
113.94 -15.621159 141.97531 7630950
113.04872 -15.733473 142.33301 7367271
112.12337 -15.824944 142.74855 8222321
111.19868 -15.916573 143.16132 9735043
35.891045 -15.794268 167.72144 9274237
35.027729 -15.343899 167.63034 8418928
125.12965 -14.024609 137.75099 6511954
124.15182 -14.007591 138.3383 9735555
123.37057 -13.99428 138.80634 8682867
122.3155 -14.180588 138.96036 9866885
121.49936 -14.233732 139.26707 9011579
120.34314 -14.565971 139.40269 8288627
119.55225 -14.551277 139.84203 7565675
118.66605 -14.491707 140.3716 7367782
117.72386 -14.627193 140.76221 7168861
116.68778 -14.71773 141.24217 5919050
116.09946 -14.707657 141.56813 8092011
34.76041 -14.661751 168.03896 8813686
34.125744 -14.33053 168.0296 12037795
143.91499 -13.239487 131.60236 9274232
143.22786 -13.233671 132.24582 10261123
142.39764 -13.563257 132.43478 10787467
141.65309 -13.673273 133.01999 8089963
130.69554 -13.733778 135.78546 10590609
129.90132 -13.718725 136.26695 12300967
128.90999 -13.700241 136.86682 12433580
128.11815 -13.68576 137.34489 15724510
127.5293 -13.675636 137.70714 12631727
33.017162 -13.84165 168.82558 10590350
32.122009 -13.808287 168.55225 9998727
23.412178 -13.321699 171.998 9735559
22.611393 -13.248253 171.67949 8946298
144.85268 -12.297932 131.18379 9800581
144.19237 -12.577444 131.66418 10063753
143.45024 -12.603062 132.34381 9931902
22.565044 -12.449907 171.97353 9341054
21.686066 -12.208397 171.68726 8090987
145.62141 -11.351713 130.92503 10261132
145.0408 -11.585266 131.35332 9076858
144.3511 -11.579796 131.99918 9274493
143.7718 -11.813503 132.42622 9208435
22.598335 -11.820724 172.23553 9143675
21.809711 -11.541401 172.00339 8288366
146.56638 -10.403761 130.50285 9012350
145.98387 -10.638212 130.9325 9604229
145.2923 -10.632841 131.57996 9011321
144.71123 -10.867346 132.0083 9143419
21.642197 -10.58601 172.30664 8419696
20.893906 -10.292706 172.09747 9011576
147.64342 -8.9727478 130.19121 11380380
146.99467 -9.448204 130.56606 9406847
146.14606 -9.633955 131.26749 9341054
145.48134 -9.9167213 131.75035 8879991
21.380348 -9.4626884 172.63504 9406078
20.713493 -9.4446297 172.35289 10261131
148.01279 -8.2532387 130.19971 8156787
147.1136 -8.3500729 130.98759 8682356
146.42798 -8.964016 131.32895 9406847
20.754593 -8.6001606 172.70319 10195595
19.944603 -8.5101681 172.38715 10326924
148.83401 -7.1724744 129.97054 8485751
148.01781 -7.3363576 130.64613 7564651
147.33614 -7.5252638 131.18488 8089963
20.562881 -7.9599671 172.87248 9012606
19.753323 -7.4651837 172.71625 8946040
149.59235 -6.3293738 129.68265 12761261
148.89053 -6.3250742 130.33505 8814715
148.36452 -6.3219953 130.82397 8814715
19.593094 -6.5240607 173.01793 8748149
19.009026 -6.3721256 172.82433 9274492
150.52686 -5.2813797 129.33237 9208184
149.85921 -5.3588724 129.91287 10919828
149.19241 -5.4363322 130.49257 8617080
18.89621 -5.5902128 173.0838 10195339
151.3618 -4.3911548 128.9968 8092011
150.83232 -4.3885198 129.48862 8354674
150.16339 -4.4666524 130.07001 8288626
18.673035 -4.6052895 173.37547 9932167
17.951656 -4.4047446 173.14139 8945015
152.40929 -3.1711907 128.62648 9538686
151.80989 -3.4139686 129.06238 8815220
151.1024 -3.4109876 129.71936 9341820
150.5049 -3.6535676 130.15372 7564651
18.536224 -3.6615906 173.68835 9208187
17.88121 -3.4414282 173.49084 8813429
17.21941 -3.4360228 173.20569 9208187
152.69118 -2.6823692 128.86401 9078649
151.76778 -2.6785755 129.65659 12432037
17.695225 -2.581398 173.74939 9208187
17.033115 -2.5777459 173.46339 9339773
16.849976 -1.624812 173.75983 10063496
16.210003 -1.0699317 173.70087 9405566
16.887791 -0.63825911 174.16534 10129289
16.112492 -0.37919992 174.02426 9405566
15.84911 0.22709054 174.39447 9405566
14.984383 0.44165361 174.19113 9406334
14.341053 0.65608358 174.08336 9736067
13.996952 1.0966285 175.07816 9209467
13.338303 1.0929701 174.7869 9472639
5.1869855 1.5499327 177.92349 8486262
4.6690335 1.8121171 177.81036 7960176
3.891289 1.9834628 177.56007 7039331
4.4726796 2.57795 178.00847 7039331
3.7521288 2.7195072 177.77032 7828329
4.3337636 3.3166308 178.21976 7039331
3.685219 3.5322428 178.03731 8090987
3.0378726 3.7471571 177.85513 8288365
3.6180041 4.3474479 178.30515 9341054
2.8974955 4.4868026 178.06625 9735812
3.4777606 5.0897293 178.51723 11906725
2.6682475 5.5810137 178.3699 9932935
2.6182787 6.644845 178.73451 10459022
1.9691967 6.6332974 178.46974 6510930
1.7555431 7.5287948 178.71918 7826790
0.89212072 7.7370038 178.46066 8484976
1.5410579 8.4279137 178.9843 9932678
0.74882162 8.4862118 178.6954 10130570
0.76975667 9.479414 179.08963 10722707
0.029232353 9.7535114 178.90503 10591121
0.46060976 10.675142 179.43279 10591121
-0.18774381 10.658154 179.17126 11248795
-0.83512461 10.868921 178.99857 11181460
-0.18935362 11.572111 179.52585 9735298
-0.98122752 11.626131 179.23543 10326664
-0.40767255 12.483759 179.79425 7563619
-1.1856266 12.506351 179.49715 9142905
-1.1312367 13.305756 179.82924 9011064
-1.8515583 13.436632 179.59686 8551281
-1.2786595 14.072319 180.08478 7563619
-2.145519 14.508812 179.93893 7630180
-3.0116155 14.944269 179.79294 7366751
-3.1076276 15.615316 180.2765 6445650
-3.8892553 15.879074 180.20731 6249301
-5.2216907 16.417757 181.14488 5919050
-5.8798404 16.650276 181.19557 6972762
-6.759212 16.890055 181.32214 6510930
-6.1178584 17.383583 181.74933 5919050
-6.8995318 17.546499 181.53894 6116429
-7.4225154 17.811083 181.4491 6510930
-7.0072513 18.322874 182.02234 5919050
-7.875072 18.412647 181.76273 7432802
-8.5356522 18.758966 181.79001 7235938
-9.0003891 19.269968 182.28783 8814711
-9.6409264 19.230907 181.90128 5393738
-10.565891 19.776566 182.67044 7695717
80.304474 -28.256847 153.42136 7762027
79.743484 -28.254633 153.69832 7565161
78.961365 -28.459591 154.00076 8617335
78.026749 -28.457384 154.46146 7170142
77.092117 -28.4561 154.92184 8090728
76.157333 -28.455853 155.38191 11576986
75.222366 -28.456512 155.84164 10130313
74.368393 -28.416546 156.27797 10196106
73.507004 -28.667728 156.60078 10261897
47.497353 -28.501097 165.23798 10261132
46.803181 -28.337805 165.31938 9603457
45.819447 -28.232895 165.38452 9471871
44.759895 -28.19453 165.4249 9998471
44.104141 -28.375793 165.36833 9932934
82.651718 -27.125053 152.72098 10195848
81.790291 -27.224068 153.10541 9209467
80.818146 -27.427299 153.50214 8420211
79.88147 -27.423407 153.96457 7893869
79.00016 -27.368656 154.42026 8617335
78.078766 -27.478071 154.82959 8879988
77.258835 -27.417576 155.25731 8287851
76.28904 -27.625338 155.65102 10459020
75.31987 -27.833782 156.04398 9406590
45.818798 -27.4529 165.69485 9208955
44.846584 -27.377691 165.74786 9341053
43.824802 -27.496311 165.72491 9932934
42.752296 -27.102262 165.90709 9275004
85.161789 -26.204302 151.85422 9736836
84.51078 -26.338303 152.12114 9537919
83.621841 -26.401234 152.53362 10919059
82.682693 -26.394955 152.99858 9406079
81.93161 -26.390654 153.37021 9011834
80.992859 -26.386074 153.83426 8222577
80.054245 -26.38238 154.29794 7433831
79.183884 -26.421465 154.7106 8485749
78.330811 -26.58637 155.06413 8682608
44.855366 -26.624828 166.04715 10393485
43.872566 -26.523752 166.11072 10722450
42.814228 -26.489552 166.14949 9604482
42.036388 -26.390757 166.16382 9538688
88.402031 -24.978642 150.74986 7564651
87.193802 -25.385656 151.18181 7564651
86.421028 -25.482868 151.52339 7828072
85.566154 -25.621796 151.88875 8420720
84.707504 -25.572775 152.33134 8419952
83.766441 -25.56587 152.79753 9998216
82.825638 -25.559814 153.26324 9866888
81.885086 -25.554667 153.72845 10590351
80.995819 -25.620234 154.14006 8748407
80.345871 -25.757101 154.40517 8682867
43.66724 -25.763494 166.41805 10656657
42.866932 -25.54652 166.52339 9802373
41.960625 -25.425711 166.50919 9209467
90.259247 -24.158691 150.164 8682867
89.205734 -24.314638 150.62038 8946041
88.26712 -24.472504 151.01941 8354165
87.533737 -24.548998 151.34995 8222579
86.589417 -24.539993 151.81874 7893866
85.645546 -24.531786 152.28694 8223084
84.820358 -24.465345 152.72006 7958888
83.911339 -24.728825 153.062 9274493
83.019783 -24.793072 153.47522 10722196
82.367935 -24.929243 153.74159 8814201
42.087749 -24.476868 166.93729 9736323
41.27319 -24.466827 166.63614 9868166
92.125397 -23.338345 149.57385 9275261
91.135826 -23.536661 149.98175 8682867
90.376724 -23.527277 150.35948 8946039
89.428528 -23.5163 150.83092 9472384
88.481003 -23.506105 151.30176 9735558
87.617401 -23.455456 151.74747 10393486
86.69371 -23.531315 152.17201 9933959
85.793816 -23.692268 152.55069 9736836
85.226707 -23.687849 152.83179 7894120
41.091068 -23.505226 166.93581 10722706
40.169334 -23.22332 166.64677 11380380
95.038071 -22.107748 148.63283 9932934
94.041878 -22.305546 149.04422 10261385
93.23822 -22.506319 149.35951 8551025
92.285614 -22.493582 149.83389 8814710
91.333786 -22.481619 150.3075 9867141
90.440163 -22.418219 150.77315 9012093
89.502914 -22.521255 151.19351 8748664
88.634506 -22.663416 151.56419 8682867
87.647911 -22.865244 151.96924 9341054
40.834244 -22.556963 167.19778 10525328
40.137295 -22.398495 166.95772 10459790
97.505089 -21.29427 147.74397 8485235
96.929153 -21.285042 148.03139 8288627
96.013275 -21.441385 148.41975 7762284
95.077408 -21.512655 148.85222 10064007
94.205688 -21.457724 149.3037 11182486
93.250099 -21.444944 149.77948 8946040
92.295403 -21.432892 150.25458 8354159
91.532288 -21.423788 150.63412 10262156
90.730316 -21.627037 150.94765 9472387
40.066433 -21.486473 167.28613 9473153
39.420216 -21.314337 167.07352 10985623
100.46305 -20.059608 146.7834 9933193
99.789658 -20.191067 147.06215 8946556
98.801048 -20.337833 147.49004 9669249
97.868202 -20.445116 147.90623 9406077
97.098587 -20.433147 148.28998 9143934
96.137695 -20.41894 148.76884 8551798
95.177925 -20.405394 149.24693 10853265
94.369843 -20.60795 149.56372 10195336
93.480927 -20.639118 149.98906 8814454
92.606888 -20.798788 150.35551 8617331
39.975445 -20.529907 167.62334 10458510
39.269196 -20.479052 167.3369 9537664
102.3856 -19.232922 146.16882 11905701
101.51456 -19.361084 146.54616 9275521
100.78897 -19.420376 146.87967 9933193
99.821136 -19.404325 147.36264 9932679
98.854614 -19.388929 147.84474 8485235
98.082367 -19.377142 148.22971 9208699
97.118271 -19.363031 148.71005 8683384
96.113235 -19.563286 149.12447 10196875
95.536346 -19.55541 149.41164 15196110
94.685013 -19.971844 149.66364 11182486
38.998066 -19.48679 167.61005 9274748
38.200321 -19.373817 167.3083 9406078
105.39063 -17.989817 145.18846 7038307
104.61169 -18.264526 145.46161 8222575
103.51721 -18.49733 145.90703 9604225
102.62842 -18.632923 146.29024 10327437
101.74284 -18.574583 146.74968 10590609
100.96596 -18.561768 147.1373 11906724
99.996292 -18.546394 147.62096 10787987
99.027916 -18.531624 148.10367 9142907
98.211174 -18.734797 148.42416 9011576
97.631683 -18.726471 148.71289 8617331
38.771099 -18.377966 167.9482 10129545
38.102268 -18.459242 167.62593 10393229
107.34567 -17.156311 144.56052 12433069
106.3152 -17.35491 144.98816 7893615
105.5302 -17.340689 145.3804 7564649
104.60046 -17.396679 145.81567 8222578
103.66215 -17.579462 146.20425 8880248
102.74634 -17.509987 146.68312 9275004
101.96661 -17.49748 147.07207 10656657
101.01796 -17.742321 147.44084 11709602
99.933823 -17.898689 147.91176 11051160
38.148365 -17.510151 168.01971 9670019
37.446346 -17.467649 167.73181 10261899
109.90877 -16.330576 143.6301 13353397
109.31438 -16.31929 143.92732 14537413
108.36609 -16.476616 144.33107 9406590
107.3998 -16.546377 144.77882 12433069
106.50324 -16.486771 145.24423 8814715
105.71666 -16.473228 145.63692 8090992
104.73518 -16.456875 146.1268 8617335
103.80534 -16.514359 146.56152 10525071
102.92728 -16.645519 146.94116 9932934
37.994236 -16.670973 168.28333 10261899
37.21191 -16.418652 168.04318 9735812
113.91044 -15.100241 142.35948 7762027
113.11166 -15.08511 142.76456 8683125
112.01282 -15.279331 143.13927 8156783
111.13456 -15.393625 143.5058 9735043
110.35123 -15.466311 143.84883 9011576
109.42853 -15.395868 144.34769 9801347
108.43546 -15.494654 144.77553 9209211
107.49665 -15.631746 145.12798 11972518
106.70854 -15.618671 145.52385 9209473
105.66016 -15.817995 145.92787 8090992
104.87386 -15.805422 146.32007 8090992
36.90379 -15.779327 168.16124 10788243
36.364292 -15.302763 168.21867 10063753
117.49155 -14.297331 141.1739 6642517
116.90145 -14.287407 141.50089 7366240
115.9796 -14.416655 141.88565 7565667
115.12605 -14.4314 142.32703 6906968
114.12363 -14.499744 142.76695 7762282
113.22334 -14.440195 143.25981 9406848
112.45589 -14.498499 143.58687 7762026
111.52302 -14.62611 143.93614 9735043
110.72681 -14.61245 144.33868 9143163
36.092579 -14.591276 168.67088 9537409
35.345882 -14.421335 168.48416 8550514
142.36957 -13.226892 133.04947 9208435
141.5955 -13.334562 133.60896 9076856
140.76454 -13.557856 134.11197 12563624
140.03918 -13.670254 134.71323 8814963
127.19688 -13.675135 138.0134 6511954
126.52966 -13.674143 138.62311 10525327
125.86002 -13.673162 139.23016 12630442
121.42106 -13.962288 139.97008 9011579
120.64268 -13.950037 140.43311 9275263
119.8651 -13.938036 140.89468 7038814
119.08815 -13.926294 141.35483 6511954
118.31192 -13.914852 141.8136 7039331
34.369358 -13.892614 169.23676 9405822
33.466625 -13.858463 168.96249 10590350
24.760094 -13.375652 172.56152 10459281
24.084866 -13.348577 172.27927 11511968
143.30345 -12.285431 132.63446 9208435
142.55408 -12.517132 133.2211 9208436
141.73201 -12.590366 133.95226 9340542
23.908367 -12.499666 172.53677 10788246
143.43303 -11.525364 132.88167 8682867
142.62849 -11.567305 133.61156 9735043
142.0507 -11.801338 134.03703 9341054
23.692867 -11.520845 172.82845 10459791
22.956642 -11.411402 172.55209 9670019
144.37202 -10.578325 132.46455 9011833
143.56544 -10.620518 133.19626 8682867
142.98605 -10.855274 133.62299 10129545
22.850071 -10.478111 172.87312 9604484
22.229572 -10.332571 172.66121 8617331
145.16158 -9.5950203 132.2043 8945784
144.50615 -9.6705055 132.77899 8484977
143.8513 -9.7460785 133.35306 8880246
22.722641 -9.4993839 173.20294 9407363
22.050201 -9.4809399 172.91852 8814969
146.19881 -8.3852549 131.82288 9341054
145.51382 -8.4771042 132.41711 9406847
144.87532 -8.5933418 132.95624 8353135
22.056019 -8.5044384 173.30576 8420214
21.422859 -8.6164894 172.98677 9012606
147.19038 -7.2022905 131.47876 8089963
146.43637 -7.2300005 132.16371 9274492
145.76706 -7.5157533 132.64644 9735300
21.924858 -7.5641313 173.61974 7565675
21.08807 -7.493 173.28462 8815227
148.01404 -6.3199587 131.14961 7564651
147.3967 -6.2680964 131.74715 9405566
146.7086 -6.3934917 132.32303 10063753
20.99052 -6.5207286 173.62578 9012606
20.188828 -6.4637136 173.30031 8089963
149.04655 -5.111289 130.7876 8617080
148.27788 -5.3505197 131.38217 9143167
147.43723 -5.4273152 132.12326 9734531
20.665604 -5.8309364 173.75691 9012606
20.142288 -5.5659246 173.63425 8353135
149.84148 -4.1396885 130.52917 7827821
149.16251 -4.429451 131.01561 8617080
148.40317 -4.4584956 131.7049 10853012
20.007484 -4.62112 173.94839 8484721
19.280762 -4.4195967 173.71249 9866374
150.63965 -3.164088 130.26955 8618101
150.04253 -3.4066937 130.70349 7696236
149.33681 -3.4039154 131.35872 8354164
148.74147 -3.6462741 131.79105 8617080
19.872402 -3.6734736 174.26357 8813686
19.212734 -3.4523704 174.06445 9734788
18.554699 -3.2321653 173.86568 9208187
151.17168 -2.4307427 130.41147 9078139
150.44896 -2.5097976 130.95047 7564651
149.74203 -2.6705866 131.39508 8618101
19.173473 -2.6617086 174.35931 9537663
18.360313 -2.5850444 174.03661 9602945
18.12587 -1.5586914 174.33968 9406334
17.31337 -1.0709476 174.17943 10261132
17.997139 -0.6378594 174.64705 9209467
17.355732 -0.31261733 174.61304 8814453
17.114964 0.37653649 175.06003 9340798
16.386475 0.51942277 174.85867 10787732
15.660141 0.66167974 174.65784 8681843
15.322453 1.1040652 175.66443 9932678
14.658585 1.1002941 175.37079 9538176
6.4964643 1.7798159 178.53232 10262156
5.8418279 1.7755132 178.26796 10985623
5.8513532 2.6638744 178.59299 10985881
5.0529904 2.7309129 178.29675 7697004
5.6422238 3.5533185 178.83063 11972519
4.8577161 3.5893307 178.52873 7828589
4.8647695 4.3931937 178.82224 9078142
4.1264882 4.6516376 178.61923 11248795
4.7852559 5.3331218 179.13013 10591121
3.970093 5.6012135 178.89983 10591121
3.8352778 6.6217093 179.21474 10854037
3.0521662 6.6526799 178.91153 11511967
3.9271662 7.345562 179.51334 10854036
3.0569003 7.5544629 179.24324 10458766
2.8436396 8.4561462 179.50746 8155755
2.1913188 8.441927 179.24539 6510930
2.6289065 9.1331139 179.68614 7563619
2.1078913 9.3941631 179.5827 8682099
1.3263859 9.5573845 179.33878 10591121
1.9366344 10.394007 179.90393 10063491
1.1542476 10.556427 179.65944 11116692
1.7649807 11.397795 180.22653 11379348
1.1120266 11.609076 180.05191 9537918
0.46027407 11.590504 179.78841 9537918
0.89501607 12.523354 180.3219 9998211
0.24284777 12.503479 180.05772 9077112
0.11187777 13.376444 180.34552 10129546
-0.62696803 13.629787 180.15346 9142651
0.023575157 14.116276 180.61615 8616307
-0.84657633 14.475428 180.43445 8418928
-0.63104975 15.028275 180.76575 8616307
-1.8096882 15.668123 180.86966 6511443
-2.5942876 15.932816 180.80736 6840408
-4.5854335 16.713808 181.89127 6445908
-5.461307 16.934652 181.81628 5919050
-4.815414 17.430038 182.24588 8092019
-5.602592 17.690069 182.09882 6840409
-5.7062259 18.375454 182.56313 9209467
-6.5819316 18.589121 182.40076 7498594
-7.4563746 18.802591 182.23868 6971994
-7.4988093 19.368105 183.24663 9209467
-8.1433601 19.324179 182.82013 9406847
-9.4986649 19.849558 183.37735 8879991
73.383362 -28.253351 156.82822 10788241
72.602974 -28.463644 157.12761 13221810
71.666763 -28.468054 157.58652 11643293
70.729378 -28.473145 158.04379 10459278
69.784897 -28.476603 158.48584 9604227
68.838043 -28.480148 158.92319 9406592
68.079391 -28.483374 159.27097 10064265
67.191353 -28.583359 159.58012 10129545
66.102913 -28.68067 159.94893 10261131
65.13797 -28.680624 160.34271 9537665
64.171043 -28.680593 160.73099 9537665
63.395557 -28.680584 161.03731 9142907
62.61871 -28.680588 161.3398 10261132
50.651405 -28.488697 165.16806 9866372
49.872387 -28.388317 165.22644 8748404
49.015423 -28.354298 165.26031 8682612
48.037083 -28.275118 165.31505 9866373
47.117279 -28.075712 165.41621 10129545
76.387939 -27.001419 155.85316 10130056
75.41758 -27.210068 156.24672 8682867
74.447792 -27.419603 156.63966 9669761
73.510239 -27.422138 157.09993 12432551
72.759972 -27.424824 157.46803 11906207
71.821693 -27.429092 157.92795 10722450
70.883011 -27.434229 158.38777 9538176
69.913483 -27.648542 158.77863 8354419
68.944267 -27.86368 159.16908 8880507
68.380531 -27.868374 159.44455 10261132
49.945454 -27.77187 165.46997 9208435
49.111027 -27.532967 165.58482 9734785
48.040485 -27.492638 165.62625 8879991
46.972805 -27.453259 165.66731 9735043
46.356171 -27.225243 165.77264 9406078
78.774178 -26.170218 155.01317 9143422
78.125572 -26.30806 155.27692 11576728
77.319885 -26.335032 155.66249 11708314
76.405266 -26.418221 156.07909 9669505
75.548004 -26.377104 156.51741 6511954
74.608742 -26.378677 156.97896 8880245
73.669182 -26.38109 157.44028 10788241
72.79821 -26.425875 157.85081 9406846
71.757874 -26.597191 158.29379 10919829
48.968079 -26.907761 165.83696 9734782
47.99889 -26.596769 165.98369 10458510
47.087036 -26.426643 166.07303 10327181
46.068012 -26.509161 166.06441 10326924
45.167862 -26.361 166.14467 10656657
80.791519 -25.340654 154.35283 9537662
80.141434 -25.47769 154.61795 9537662
79.252335 -25.544863 155.02882 9274490
78.312119 -25.543018 155.49249 9735043
77.371765 -25.542082 155.95572 10261132
76.431259 -25.541952 156.41861 9735812
75.678726 -25.542486 156.78864 6116429
74.806664 -25.58563 157.20038 6577491
73.952957 -25.754658 157.55249 9209467
46.96439 -25.596064 166.40634 10261644
46.061394 -25.514151 166.46042 10459023
45.042439 -25.532545 166.47734 10854036
44.134472 -25.366337 166.56499 10130313
43.171227 -25.062012 166.70894 9736323
83.831406 -24.098665 153.35411 9537665
82.989716 -24.233593 153.71455 9537923
82.023888 -24.455776 154.10095 9669508
81.119682 -24.504194 154.52679 8814201
80.294891 -24.441414 154.95813 9800577
79.367828 -24.551182 155.37057 10523786
78.481277 -24.49716 155.82886 9208955
77.573738 -24.615982 156.22806 9537921
76.61528 -24.77537 156.63605 9735812
75.965324 -24.915277 156.89975 9735812
45.770664 -24.729528 166.77951 9143675
45.151676 -24.503216 166.88426 10788243
44.298191 -24.477129 166.91487 10261899
43.233997 -24.445351 166.95279 8814714
42.404842 -24.215054 167.06404 9736323
85.868141 -23.271759 152.68279 9736836
84.8172 -23.432419 153.13596 8616563
83.940224 -23.468727 153.55331 9537665
83.184258 -23.464277 153.92731 8287858
82.239563 -23.459526 154.39445 7038307
81.295029 -23.455498 154.86115 8814201
80.350616 -23.452387 155.32744 9077368
79.371971 -23.659975 155.72604 9077368
78.805695 -23.658962 156.00534 9735043
45.003475 -23.877665 167.13667 10261899
44.305683 -23.718874 167.21635 9143676
43.338646 -23.414944 167.36026 9472644
42.252857 -23.590944 167.31177 10788245
88.749817 -22.030224 151.76146 9143675
87.761909 -22.232487 152.16695 9538433
86.775352 -22.4352 152.57156 9932169
85.946304 -22.368404 153.00676 9274496
85.012672 -22.474867 153.42386 9603974
84.121964 -22.416477 153.88597 9341059
83.213341 -22.464182 154.31424 8617077
82.192612 -22.617476 154.75534 8682867
81.400459 -22.824959 155.06218 8682867
42.995541 -22.576883 167.7018 10261902
42.355991 -22.559711 167.72385 10261902
41.494354 -22.423738 167.53671 9670278
90.503616 -21.306255 151.18799 8748923
89.62677 -21.403214 151.58099 9011838
88.865341 -21.395836 151.95901 9341054
87.914169 -21.387247 152.43102 9604226
86.963493 -21.379414 152.90242 9208703
86.013412 -21.372364 153.37329 10655634
85.114731 -21.436848 153.79005 10985881
84.267654 -21.572807 154.15266 9341059
42.224468 -21.726727 168.05833 10130571
41.311222 -21.457047 167.83797 9407363
93.070175 -20.378338 150.29599 8617331
92.405731 -20.512501 150.5695 8222573
91.584839 -20.531565 150.96619 9603971
90.652397 -20.606701 151.39536 8814459
89.782516 -20.555464 151.84442 9209216
88.829086 -20.54664 152.3176 9670019
87.876289 -20.538521 152.79022 9341054
87.165344 -20.603685 153.11424 8485238
86.315483 -20.738949 153.47861 9932169
41.126617 -20.488752 168.13918 9210241
40.448391 -20.564085 167.81516 10130571
96.197273 -19.135973 149.2547 10196875
95.335571 -19.267324 149.62625 14472388
94.346024 -19.48654 150.0255 10064521
93.424179 -19.528805 150.46243 8946811
92.657372 -19.520071 150.84369 9604227
91.699661 -19.50975 151.3196 9209470
90.742722 -19.50008 151.79485 9538179
90.000351 -19.578337 152.1291 9801607
89.059669 -19.80435 152.5018 9998728
88.181419 -19.903484 152.89461 9735812
40.319298 -19.517782 168.17119 10327181
39.630352 -19.263542 167.97232 9011576
98.297226 -18.30588 148.55412 9011576
97.219574 -18.462891 149.02168 8617331
96.323486 -18.493923 149.45044 9735812
95.445251 -18.439911 149.90457 12695984
94.504578 -18.514364 150.33788 9407364
93.628082 -18.461439 150.79063 9210242
92.667358 -18.451107 151.26785 9473413
91.667511 -18.655016 151.6783 8881019
40.189121 -18.469246 168.5276 10129545
39.478523 -18.423437 168.2373 9735043
100.96271 -17.15756 147.70287 11314844
100.06549 -17.252613 148.10648 10195850
99.245193 -17.456867 148.42834 9866373
98.275955 -17.4436 148.91092 8748660
97.307892 -17.430912 149.39265 8880503
96.534348 -17.421263 149.7774 9012089
95.606407 -17.463966 150.21713 8552055
94.562378 -17.613436 150.67116 9276035
93.750717 -17.81941 150.9881 9802122
39.416779 -17.629135 168.52327 9471870
38.874226 -17.346567 168.39919 9406078
103.60513 -16.221329 146.77779 10854036
103.01801 -16.212351 147.07048 9932934
101.99586 -16.414286 147.49268 9538432
101.02052 -16.400162 147.97859 10262155
100.24137 -16.389349 148.36655 9209467
99.26873 -16.376371 148.85068 9143162
98.297348 -16.363937 149.33395 9011576
97.571671 -16.427122 149.66589 8419952
96.703506 -16.560926 150.03963 8880503
39.40971 -16.752947 168.86523 9209467
38.625843 -16.439602 168.64856 8616820
107.75345 -14.992222 145.47482 11511968
106.76731 -14.97674 145.97217 9406851
105.79006 -15.387808 146.10721 9012093
104.69978 -15.515095 146.57349 9472642
103.95911 -15.575954 146.90332 10261900
103.07205 -15.520086 147.37402 9735555
102.10674 -15.592453 147.80504 9077625
101.22226 -15.537598 148.27388 9209467
100.4424 -15.527407 148.66393 9209467
99.399544 -15.727987 149.04668 9603457
98.621231 -15.718317 149.43372 9406078
38.276318 -15.510021 168.90616 9011323
37.518246 -15.335047 168.69974 9077627
112.32681 -14.208626 143.89752 9736836
111.5289 -14.195196 144.30222 9736836
110.40644 -14.321005 144.76125 10130569
109.64872 -14.381008 145.09148 9538432
108.76836 -14.325533 145.59579 9669762
107.77551 -14.395912 146.01901 10261131
106.91811 -14.411518 146.42506 10129545
105.8791 -14.749878 146.60182 9538690
105.0919 -14.738476 146.99806 10130826
104.16042 -14.831888 147.37576 10328459
103.0348 -14.922962 147.8508 9210491
102.44745 -14.915127 148.14587 9210491
37.490749 -14.658695 169.22108 7301221
36.737713 -14.4874 169.0327 8616307
140.65451 -13.214737 134.65463 9341054
139.99826 -13.364214 135.10698 8287853
139.33978 -13.438076 135.6646 10064009
138.73354 -13.667894 136.05371 16248807
125.52404 -13.672676 139.53232 10064774
124.84949 -13.671717 140.13397 7695980
124.00276 -13.67053 140.88199 10985625
117.73022 -13.906475 142.15681 8486262
117.14883 -13.898195 142.49928 9209727
116.37431 -13.887461 142.95468 11445917
115.39977 -13.873606 143.51309 8484976
114.41127 -13.858376 144.05067 7564649
113.81802 -13.849424 144.37148 9143678
36.187012 -13.961901 169.7868 7563619
35.503391 -13.935698 169.58034 9273979
25.892393 -13.421501 173.03473 8288366
25.212 -13.393915 172.75038 9077884
141.58446 -12.27317 134.24342 10591121
141.00833 -12.506531 134.66762 10591121
140.20682 -12.549028 135.3945 8287854
25.263138 -12.550484 173.10451 10262155
141.90318 -11.483273 134.3286 10591121
141.08011 -11.557508 135.06018 9077882
140.33174 -11.790779 135.64505 8089963
25.048779 -11.567381 173.39833 10854293
24.312477 -11.351334 173.16397 11578016
142.83858 -10.536242 133.91483 10326924
142.01344 -10.610723 134.64824 9735556
141.26312 -10.844807 135.23463 8090987
24.922359 -10.627747 173.71327 9209467
24.254395 -10.393999 173.51546 9012091
23.576412 -10.373312 173.22946 10065291
143.53085 -9.4249916 133.80725 9406078
142.86888 -9.7082329 134.28752 10261131
142.12395 -9.7359047 134.96881 10130570
24.076298 -9.5368557 173.77559 7564651
23.398174 -9.5180473 173.48869 9736327
144.53603 -8.2310219 133.448 8353135
143.83656 -8.5358868 133.9527 8748148
143.1431 -8.5835114 134.57635 10195339
23.171768 -8.4996738 173.79196 8814971
22.352081 -8.0003204 173.63307 9012606
145.44601 -7.1922135 133.10255 9340030
144.78763 -7.2691569 133.67917 9405823
144.12987 -7.3461347 134.25523 8550514
23.277657 -7.5931954 174.19553 11381404
22.47842 -7.3192391 173.9566 10197134
146.26396 -6.310432 132.77582 9734531
145.73967 -6.307755 133.26292 9405823
145.04111 -6.3043365 133.91219 9734788
22.338531 -6.5450792 174.20129 11051672
21.541073 -6.2736826 173.9622 9012606
147.29085 -5.1027045 132.41859 8616307
146.69954 -5.3428407 132.84827 8879479
145.99895 -5.3396449 133.49899 9405823
145.40919 -5.5797091 133.92734 9734788
22.024094 -5.6372857 174.42288 10064519
21.400204 -5.498683 174.20674 9078140
148.25681 -4.1328173 132.0007 10853012
147.66353 -4.3740273 132.43172 9997703
146.8427 -4.4193058 133.17003 7760998
21.28978 -4.5502357 174.53293 9340797
20.620819 -4.4347754 174.2881 8221805
148.48878 -3.2783997 132.20618 8090737
147.66769 -3.4466205 132.88417 9142651
146.98192 -3.6395874 133.42456 8089963
21.219719 -3.6857302 174.84352 10262156
20.422554 -3.4193192 174.60263 8682867
150.20634 -2.1820214 131.48256 10524816
149.43803 -2.3427958 131.97963 10327178
148.68657 -2.4708505 132.51001 9669247
147.94949 -2.6643946 133.008 9932419
20.36652 -2.7048035 174.86015 8682867
19.708172 -2.3763521 174.70396 8946039
150.23349 -1.6898155 131.82568 13550517
149.69112 -1.6883432 132.30948 12432037
20.40205 -1.9452922 175.17511 8682867
19.465015 -1.5619824 174.91968 9340796
18.647373 -1.0722234 174.75795 9209467
19.275471 -0.49195474 175.31078 10261382
18.54084 -0.34736729 175.10049 9538174
18.454491 0.38111144 175.64253 10261382
17.720963 0.52458715 175.43945 9209211
16.435314 1.110299 176.1568 9208955
15.766605 1.1065162 175.86092 9735299
7.9580464 1.7151723 179.09575 6511954
7.1534505 1.7841492 178.79768 7433056
7.8222661 2.4576976 179.30975 6511954
7.0332532 2.6296985 179.05516 9472640
6.5098805 2.8924913 178.94012 13024949
7.1030354 3.4946122 179.39589 8354414
6.2988286 3.5604787 179.09683 11972519
6.0899396 4.4538198 179.33603 10985623
5.9525304 5.2758565 179.57814 7959144
5.2246671 5.5646243 179.3903 8551539
5.2331548 6.4664388 179.71977 8748660
4.3608441 6.9019814 179.52707 10854036
5.0219846 7.3673477 179.96072 9406590
4.367146 7.6941371 179.81625 10854036
4.2854581 8.4422398 180.069 10195849
3.497822 8.4704685 179.77023 9734527
4.0874944 9.3198376 180.33223 10064005
3.2849467 9.3767223 180.03876 8616305
3.9466937 10.079496 180.57211 11905692
3.2472117 10.428446 180.43268 8418670
2.5262263 10.615725 180.22194 9208184
3.0774004 11.435261 180.75717 7563619
2.4211695 11.646858 180.58139 9603454
1.7660831 11.857906 180.40578 8682867
2.3513644 12.491179 180.88208 8946038
1.5494198 12.543482 180.58707 9735296
2.2078784 13.259041 181.12411 7037274
1.3327297 13.462551 180.85904 10524298
1.334103 14.395546 181.25571 8616048
0.54693258 14.414738 180.95496 9274237
0.45964846 15.193132 181.35405 8353135
-0.52489817 15.646389 181.37985 8353135
-1.2909733 15.987881 181.41226 8288110
-0.41731611 16.025305 181.81831 10063753
-2.6233251 16.561701 182.7142 9735812
-3.4984815 16.647329 182.4057 7762025
-3.9389303 16.98814 182.39645 8092019
-3.2855604 17.248533 182.73743 8092019
-4.2970614 17.740347 182.62338 7762797
-4.3980136 18.429453 183.10786 7367525
-5.2798686 18.652542 183.0347 7103581
-6.1569209 18.862644 182.84082 8090730
-6.8510699 19.412598 183.67619 8617330
-8.423851 19.923981 184.09166 9143419
-8.8547401 19.89399 183.80504 9143419
67.006096 -28.296869 159.94856 9735299
66.253792 -28.304909 160.31543 9735299
65.312607 -28.315968 160.77412 9734787
64.370583 -28.327896 161.2328 9537665
63.61623 -28.338139 161.59987 9866630
62.513062 -28.434086 161.93515 10261132
61.5891 -28.523573 162.15219 9011576
60.673233 -28.560024 162.44543 10064521
59.497128 -28.680721 162.51251 9604226
58.713127 -28.680784 162.79636 9997960
57.731335 -28.680883 163.14555 10393230
56.747601 -28.680998 163.48926 9735811
55.761631 -28.681135 163.82658 9538432
54.773777 -28.68129 164.15842 9604226
53.987457 -28.572002 164.66046 10656402
53.060654 -28.498814 164.959 10261900
52.019382 -28.474072 165.12596 10459278
51.24173 -28.375086 165.19923 9998470
70.00412 -27.024109 158.98506 8222833
69.033669 -27.239288 159.37607 8880507
68.14566 -27.316074 159.78214 10524303
67.255936 -27.515057 160.13988 10195594
66.368469 -27.472206 160.5938 10327180
65.425682 -27.48292 161.05334 10129289
64.482071 -27.494507 161.51303 8879222
63.654247 -27.574928 161.88794 9866113
62.740189 -27.830856 162.23486 10458253
61.970104 -27.946617 162.56715 10129286
53.087547 -27.795219 165.38608 10722450
52.151409 -27.445215 165.54758 10590864
51.118992 -27.455818 165.56786 9538176
49.994183 -27.360304 165.63252 9471608
72.38446 -26.177488 158.15421 10459278
71.819916 -26.180132 158.43094 9998727
71.03627 -26.392748 158.73106 9538176
70.094971 -26.398634 159.19182 9406592
69.153099 -26.405422 159.65254 9340801
68.210541 -26.413177 160.1132 10655633
67.267265 -26.421747 160.57385 10853012
66.512108 -26.429312 160.94237 10853012
65.647697 -26.542997 161.32198 10853012
52.036816 -26.609722 165.88263 9538176
51.035484 -26.50186 165.94933 9866884
50.091911 -26.535418 165.9584 9471608
49.283432 -26.422659 166.02246 9997956
48.474758 -26.200241 166.13016 10787475
74.393562 -25.335905 157.50403 6973018
73.744537 -25.476879 157.76672 8420463
72.855072 -25.549568 158.17516 9341309
71.913101 -25.553665 158.63693 9932934
71.159164 -25.557602 159.00632 9932934
70.216255 -25.563313 159.46794 9669765
69.272789 -25.569901 159.92955 9340801
68.398285 -25.618584 160.34023 9538178
67.354584 -25.794956 160.78291 9735299
50.838329 -25.732479 166.26021 10261129
50.13414 -25.568258 166.34221 9208435
49.351032 -25.471136 166.39946 10129542
48.274853 -25.433664 166.43991 10721682
47.280628 -25.330799 166.50446 10064521
77.417236 -24.07724 156.52129 9208955
76.577751 -24.216921 156.87862 9735812
75.672531 -24.377291 157.25995 7630180
74.782486 -24.558167 157.62532 5722183
73.956299 -24.500372 158.05507 7302239
73.012688 -24.503496 158.51807 9143930
72.068741 -24.507439 158.981 9406846
71.23996 -24.581436 159.35902 10261899
70.322586 -24.83103 159.71002 9801348
69.362694 -24.942207 160.13768 9209467
49.423344 -24.850107 166.64474 9997955
48.379112 -24.517696 166.80188 10853525
47.293457 -24.571112 166.80635 10393230
46.311287 -24.498184 166.85873 9801349
79.440582 -23.240017 155.86078 9077368
78.59922 -23.378647 156.21951 9011576
77.706451 -23.447855 156.63133 9011576
76.761993 -23.447731 157.09644 9735812
75.817314 -23.448507 157.56137 9209468
74.872406 -23.450012 158.02602 7630436
74.116302 -23.45182 158.39766 7499618
73.249496 -23.559519 158.78101 9012600
72.382622 -23.66782 159.16403 10656657
48.031818 -23.763374 167.11017 10524560
47.356346 -23.617199 167.18437 10853525
46.333611 -23.502594 167.2543 9538433
45.312847 -23.388987 167.3237 8485745
44.505497 -23.171917 167.42926 8748919
82.867775 -21.987928 154.67548 9932934
82.299286 -21.985409 154.95636 11183001
81.506081 -22.193243 155.2636 9275004
80.524429 -22.400797 155.66374 9143418
79.578018 -22.398493 156.13068 9143418
78.631622 -22.397036 156.59732 9143418
77.685158 -22.396332 157.06364 9538176
76.927917 -22.396311 157.43658 9340542
75.948402 -22.60762 157.83415 9538177
74.969482 -22.819546 158.23122 9473151
46.423763 -22.673082 167.58215 9472640
45.504627 -22.396645 167.71394 9143675
44.513332 -22.410564 167.73196 9143677
43.533241 -22.342337 167.78241 11117209
84.910507 -21.153463 154.00433 10591124
84.34063 -21.150194 154.28627 9933195
83.355057 -21.356531 154.6888 9932936
82.406158 -21.352242 155.15778 10525071
81.457497 -21.348757 155.62636 9735555
80.508942 -21.345964 156.09454 9341054
79.750168 -21.344269 156.46884 9011832
78.870773 -21.38518 156.88548 9801604
77.819534 -21.553274 157.33569 10262155
45.437355 -21.811321 167.94843 9603711
44.599739 -21.580158 168.06032 9604486
43.527824 -21.552069 168.09691 11183001
42.536484 -21.457394 168.15811 10196109
86.96167 -20.319103 153.3287 8485238
86.086151 -20.419113 153.71985 8814202
85.211182 -20.519629 154.11047 9341059
84.343468 -20.472305 154.55681 9077888
83.416168 -20.552469 154.98126 10262157
82.54892 -20.506344 155.42683 9603969
81.598618 -20.502966 155.89619 9603969
80.700134 -20.570951 156.31133 9011832
79.853683 -20.710299 156.67218 9143675
44.449711 -20.950327 168.31447 9012606
43.559982 -20.629677 168.46312 10064779
42.561317 -20.486052 168.54398 10130314
41.791142 -20.349447 168.48238 9933193
89.673294 -19.063753 152.49666 10261644
88.869644 -19.270182 152.80975 9998215
88.044281 -19.391357 153.16766 9538176
87.169861 -19.416908 153.58815 8551544
86.229858 -19.52457 154.00795 8090737
85.396057 -19.458736 154.44505 7959407
84.442917 -19.453613 154.91653 7498858
83.45385 -19.661566 155.32014 8880249
82.743607 -19.729414 155.64264 9406590
82.085236 -19.868582 155.91106 9932934
42.643841 -19.65279 168.87352 10130313
41.533108 -19.392847 168.74718 9736070
91.747437 -18.227798 151.81047 9801863
90.940224 -18.434128 152.1252 9406847
89.981903 -18.425632 152.60065 9143419
89.0242 -18.417757 153.07556 9998215
88.258545 -18.411928 153.45506 9472383
87.302025 -18.40527 153.92888 10261903
86.345993 -18.39921 154.40225 9406852
85.544334 -18.607943 154.71332 9735812
84.971359 -18.604973 154.99672 7038307
41.621819 -18.562443 169.11272 10459278
40.903843 -18.515648 168.81953 10459020
95.26561 -16.975786 150.58095 8092019
94.879463 -16.971569 150.7728 8092019
93.832642 -17.390697 151.11993 11906726
92.829185 -17.595192 151.53194 9473413
91.867508 -17.585854 152.00916 9473155
91.098816 -17.578899 152.39046 9012089
