# .PCD v0.7 - Point Cloud Data file format
VERSION 0.7
FIELDS x y z rgb
SIZE 4 4 4 4
TYPE F F F U
COUNT 1 1 1 1
WIDTH 1185
HEIGHT 1
VIEWPOINT 0 0 0 1 0 0 0
POINTS 1185
DATA ascii
23.325642 -42.506481 -166.58914 9933192
26.419945 -42.238213 -166.84442 10788244
27.360714 -42.148415 -166.33597 10458767
28.110197 -42.076801 -165.92667 9734788
30.653269 -41.860191 -166.41066 10130313
31.396732 -41.788891 -165.9841 10130313
32.134853 -41.714214 -165.54134 8815227
-59.798519 -41.157116 -176.28799 8813683
-58.942924 -41.148926 -176.54414 8155755
-58.150108 -41.216106 -176.75259 8813683
34.467316 -41.461929 -165.87088 11051414
35.365623 -41.350857 -165.22453 9735554
37.530888 -41.118759 -165.64308 9933193
38.242043 -41.030426 -165.11139 8946556
38.949944 -40.94241 -164.57854 7039331
41.353825 -40.738735 -165.02623 9932676
42.059032 -40.655968 -164.49696 9142905
-60.791206 -40.055664 -176.42038 10458247
-60.029617 -40.314754 -176.54539 9208440
-59.049343 -40.260967 -176.85609 8155755
45.211826 -40.397121 -164.48143 10459279
45.906113 -40.314335 -163.93202 10788500
48.549675 -40.113487 -164.26259 9406590
49.23452 -40.030556 -163.69437 9406590
52.232368 -39.784428 -163.67938 9933958
52.906685 -39.701443 -163.09232 9210491
-61.922943 -38.9095 -176.52901 9932161
-60.985092 -39.230267 -176.68228 9406074
-60.07375 -39.246437 -176.9455 8090987
-59.343765 -39.5961 -177.02618 9932161
55.183075 -39.491131 -163.43051 9867913
56.076645 -39.430729 -162.85558 9998726
57.28096 -39.142143 -163.17798 11576728
58.180798 -38.901691 -162.99663 10590090
58.997841 -38.860374 -162.65607 8354158
60.07531 -38.736752 -162.38931 8090987
60.835964 -38.725285 -162.0585 11905692
-62.789772 -37.847683 -176.68326 8090987
-62.023323 -38.106899 -176.80971 9143160
-61.100906 -38.126606 -177.07486 10195332
59.304848 -38.233128 -163.1035 6380368
60.280113 -38.000439 -162.79956 8288108
61.19989 -37.94014 -162.4435 10326406
62.128883 -37.819458 -162.1326 10523271
63.191406 -37.522205 -161.83809 10260355
-63.767067 -36.964687 -176.73581 8813945
-62.998482 -37.223808 -176.86281 8222317
-62.011284 -37.167652 -177.17645 8551280
-61.336365 -37.384171 -177.29234 9932161
61.220383 -36.954372 -162.85748 9800317
62.11409 -36.9072 -162.51501 10260355
63.079517 -36.902225 -162.12698 10260355
63.989517 -36.829559 -161.78789 9341054
64.651245 -36.689548 -161.57564 8682867
-64.531487 -36.077595 -176.85284 9735299
-63.97728 -36.339687 -176.91531 9735299
-62.987991 -36.282784 -177.22987 8813939
-62.311188 -36.499218 -177.34627 8813939
62.276077 -36.146992 -162.74838 9668730
63.187546 -36.073318 -162.40915 9406331
64.154358 -36.069504 -162.0201 8551282
65.049217 -36.025661 -161.67583 8485232
-65.699913 -34.894539 -176.96478 10853269
-64.864754 -35.183231 -177.10011 9735299
-63.997147 -35.172287 -177.36093 10261387
-63.289696 -35.613167 -177.39963 10063235
63.268692 -35.450882 -162.62109 9209209
64.208664 -35.032001 -162.40599 8156268
65.14167 -35.088749 -162.00677 8024682
66.051361 -34.909267 -161.70985 10852494
66.977287 -34.750465 -161.39824 10457481
-66.781441 -33.858051 -177.04578 12433069
-66.00547 -34.11787 -177.17479 11116441
-65.010895 -34.0597 -177.49136 9472383
-64.329674 -34.276611 -177.60896 9735299
64.595879 -34.19952 -162.57675 7893096
65.261406 -34.059139 -162.36311 8419439
66.17662 -33.988289 -162.0213 9866113
67.147118 -33.987789 -161.62939 9734015
68.035194 -33.884235 -161.31137 10326410
-67.556511 -32.965668 -177.16176 8682867
-66.871735 -33.181931 -177.28055 11314588
-65.999634 -33.170143 -177.54303 10130825
-65.316483 -33.38707 -177.6611 10130825
66.275742 -33.259285 -162.26776 10524555
67.207581 -32.9459 -162.01454 9076855
68.069031 -32.946224 -161.66641 10260875
69.000465 -32.895477 -161.31012 9076858
70.074272 -32.532902 -161.01883 9866374
-68.553276 -32.074841 -177.21153 14077894
-67.866447 -32.29129 -177.33083 11314588
-66.992256 -32.279087 -177.59409 11314588
-66.336952 -32.270332 -177.79129 10855060
67.601036 -32.110958 -162.18379 9405819
68.214844 -31.902264 -162.01787 9997959
69.189568 -31.903666 -161.62354 8879479
70.164383 -31.906006 -161.22881 10261387
70.889503 -31.838757 -160.96233 12433580
-69.789597 -30.902559 -177.43988 8288366
-68.921692 -31.183496 -177.52409 10327693
-68.068748 -31.25889 -177.72418 10459278
-67.179558 -31.452589 -177.86964 10459278
69.176674 -31.14006 -161.9538 9011065
70.102104 -31.074091 -161.61772 10129801
71.078606 -31.077047 -161.22107 11906980
71.985703 -31.039804 -160.87498 10525070
73.786804 -30.490623 -160.55663 9011832
-71.697365 -29.926374 -177.675 9735297
-70.971779 -30.13093 -177.71964 9275003
-70.093498 -30.119005 -177.99469 8090987
-69.148819 -30.320274 -178.09998 7827815
70.655426 -30.477295 -161.83511 10261643
71.242546 -30.479063 -161.59604 10261643
72.08638 -30.284321 -161.41457 9998471
73.064629 -30.140656 -161.14095 9143162
74.066681 -29.858349 -160.96577 9011832
74.911964 -29.836683 -160.6387 9603454
75.805687 -29.710443 -160.38062 10260355
-83.888237 -29.427372 -179.28014 11445143
-83.028862 -29.426765 -179.68419 8485229
-77.780663 -29.418173 -178.37469 9405816
-76.925789 -29.417534 -178.74942 10458763
-76.283463 -29.417051 -179.02795 14075837
-74.0588 -29.622589 -177.95515 7828331
-72.959816 -29.608839 -178.32173 8090987
76.390213 -29.413134 -161.11972 10654857
76.978539 -29.416286 -160.86816 9931646
77.959908 -29.422035 -160.44667 8550770
78.940689 -29.428411 -160.02321 8616563
80.480118 -29.187334 -160.71552 8092019
81.056313 -29.186203 -160.42561 9144191
82.014282 -29.184313 -159.93788 9604482
82.778763 -29.182796 -159.54407 8420720
88.298965 -29.164917 -159.75424 8092019
88.931534 -28.953463 -159.54425 8813942
89.909645 -28.959627 -159.05438 9011321
90.954086 -28.757786 -158.6797 8616819
89.244904 -28.303049 -159.65938 9011321
89.9907 -28.136227 -159.37872 9274493
90.96032 -28.059584 -158.95728 8946553
91.814423 -28.040558 -158.56671 8223597
92.584389 -27.466978 -158.43808 8618355
90.19445 -27.439577 -159.56357 8287854
91.046638 -27.136173 -159.28804 8814712
91.991692 -26.959152 -158.91852 9144443
92.903976 -26.813652 -158.55147 9407871
93.54351 -26.60239 -158.33815 8090733
92.044975 -26.03586 -159.26453 9604483
92.952576 -25.89253 -158.89893 10919827
93.865044 -25.947563 -158.45131 8616820
94.50663 -25.735893 -158.23712 10261385
93.097282 -25.102549 -159.14877 10787215
94.027443 -25.069407 -158.72835 6446168
94.830025 -25.079412 -158.35008 10261385
95.580086 -25.015741 -158.02585 9603459
94.243614 -24.263565 -158.95126 7367012
95.035385 -23.978441 -158.69659 7696236
95.914879 -24.052639 -158.25671 9537667
96.817673 -23.735838 -157.96298 9011581
95.401619 -23.098051 -158.87956 8419702
96.048256 -22.884094 -158.66393 8419702
96.855934 -22.894115 -158.28326 7367013
97.794342 -22.861961 -157.8586 7103323
96.375366 -22.22234 -158.77733 8419702
97.02417 -22.00778 -158.5609 7497825
97.834152 -22.017847 -158.17914 7168860
98.775261 -21.985598 -157.75325 6708565
97.353226 -21.34412 -158.6741 8681843
98.070457 -20.995825 -158.47954 8681843
98.859512 -20.916252 -158.14355 6708822
99.760246 -20.927843 -157.71889 4473402
100.57493 -20.491484 -157.51427 3749937
99.128281 -19.876211 -158.43605 6511954
99.890144 -19.810724 -158.1071 4276023
100.82018 -19.867296 -157.65067 3947315
101.56802 -19.607836 -157.40625 4866361
100.11797 -18.99091 -158.3302 4473145
100.88224 -18.925108 -158.00026 4275253
101.81508 -18.981688 -157.54253 5524292
102.56559 -18.721235 -157.29713 7498082
101.11211 -18.102631 -158.22351 4866361
101.87882 -18.036484 -157.89252 4866361
102.81445 -18.093096 -157.43346 7300703
103.56783 -17.831625 -157.18727 8089963
102.11079 -17.21138 -158.11594 4866361
102.92519 -16.918987 -157.85385 5196356
103.82481 -16.994255 -157.40395 5196872
104.75391 -16.668753 -157.10146 6643289
103.31517 -16.017265 -158.04082 4473663
104.06373 -15.877947 -157.80823 2698281
104.85182 -15.81294 -157.49574 3947318
105.67951 -15.822393 -157.10347 5985613
106.60058 -15.6114 -156.84677 7104098
105.34029 -15.153721 -157.82101 5919050
106.09473 -15.013392 -157.58655 6116687
106.88796 -14.947772 -157.27095 6840926
107.7197 -14.957115 -156.8744 8354163
108.64773 -14.74436 -156.61435 6906712
109.79186 -14.347013 -157.05669 7696228
110.4715 -14.336373 -156.42896 8814201
117.29046 -14.13331 -156.34932 10064003
117.85066 -14.132026 -155.92647 8880761
118.40936 -14.130741 -155.502 10262415
120.73936 -13.760311 -155.83392 7563619
121.41837 -13.751408 -155.17041 8550256
121.06871 -13.04528 -155.87489 7563619
121.69107 -12.990155 -155.29073 9274233
121.79246 -12.086668 -155.6523 9997956
122.43394 -12.00012 -155.06535 12761517
122.17748 -11.129728 -155.76216 10261641
122.68832 -11.124284 -155.26227 11314072
123.25303 -10.880108 -154.83134 9208435
122.97136 -10.022505 -155.54634 9801347
123.62856 -9.8247938 -155.0007 9801089
123.80038 -8.7681885 -155.37115 9670019
124.42574 -8.7148542 -154.78304 9735043
123.90711 -7.9975224 -155.65968 10263180
124.64572 -7.7507396 -155.05893 9406079
124.83884 -6.9045587 -155.30101 9406590
125.45522 -6.6988392 -154.79956 9866630
125.03243 -6.0560937 -155.54367 8814198
125.6936 -5.8577924 -154.99446 9208441
126.17168 -5.563869 -154.67418 9537409
125.86366 -4.9174943 -155.3073 9537403
126.5111 -4.832849 -154.7135 8945272
126.16457 -4.1036549 -155.42676 9208435
126.73606 -3.8566625 -154.99071 9076856
127.25106 -3.8542554 -154.48524 7827303
127.13382 -2.8764575 -155.10011 7564643
127.64958 -2.8743725 -154.59373 7564643
127.8773 -1.8919091 -154.8716 7564643
128.39357 -1.8901479 -154.36455 7564643
128.90994 -1.150301 -154.23453 12234405
-8.1489906 -44.695057 -171.10542 10261899
-7.3265591 -44.675568 -171.07382 10261899
-6.2286396 -44.786869 -170.97932 8419952
-5.270195 -44.834728 -170.916 8880506
-4.2452507 -44.814503 -170.87555 9340801
-3.2192037 -44.998089 -170.75084 9603968
-2.1960332 -44.975552 -170.68971 9209467
-1.3774469 -44.938358 -170.56358 9209467
-0.55940986 -44.871262 -170.31938 9143162
-54.771973 -43.999138 -176.67529 7038307
-53.858574 -44.1847 -176.72377 8090736
-52.947517 -44.131367 -176.7718 9143166
-52.003807 -44.050087 -176.70322 9142651
-51.0634 -43.970013 -176.63449 9669251
-50.196266 -43.970287 -176.54385 9077371
-48.904945 -44.103104 -176.2869 9670023
-47.879478 -44.181889 -176.19804 8946556
-46.826744 -44.057808 -176.16011 8880500
-45.904678 -43.983559 -176.09114 6643798
-44.985634 -43.910515 -176.02206 7433573
-43.925735 -44.159267 -175.68236 7039331
-43.093033 -44.175938 -175.63242 8091760
-41.978859 -44.110783 -175.63467 8353647
-40.846508 -44.024853 -175.54805 8287341
-39.943832 -43.957462 -175.47865 7563618
-39.043777 -43.891159 -175.40907 7761253
-38.06422 -44.200325 -174.97101 8353646
-36.981499 -44.158657 -175.03751 9077882
-35.879868 -44.093403 -175.00455 9538433
-34.991993 -44.031521 -174.93463 9603458
-34.106522 -43.970737 -174.86455 11314588
-33.003067 -43.896309 -174.77673 10722450
-31.921516 -44.140812 -174.40494 11775136
-31.09745 -44.201939 -174.30566 11512478
-30.120594 -44.13073 -174.38255 10130828
-29.031847 -44.063412 -174.30089 6248015
-27.94487 -43.995899 -174.21227 6050636
-27.077673 -43.943111 -174.1411 8155756
-26.047983 -43.925362 -173.92433 8353134
-25.168839 -44.159718 -173.64777 9471871
-24.139662 -44.195194 -173.57584 8551281
-23.175098 -44.132294 -173.64606 9998725
-22.107819 -44.077396 -173.57312 8748404
-21.040737 -44.019707 -173.48299 8353134
-20.18907 -43.974743 -173.41063 8024169
-19.117832 -44.128071 -173.24248 7893095
-18.132088 -44.229061 -172.67513 6775126
-17.181112 -44.181862 -172.77283 6511954
-16.137457 -44.155941 -172.77859 7761766
-15.094622 -44.130726 -172.78133 7366752
-14.251047 -44.308998 -172.66814 6183254
-13.203377 -44.262272 -172.57597 6314838
-12.15761 -44.21701 -172.48347 6840925
-11.172308 -44.264076 -172.03551 8420726
-10.166101 -44.280552 -171.81754 9539204
-9.2815247 -44.276131 -171.74028 8092013
-8.1684933 -44.342529 -171.47874 9538176
-7.1393147 -44.324944 -171.46494 11380380
-6.3170319 -44.315319 -171.46652 10196106
-5.2908707 -44.314022 -171.50435 9275004
-4.2644844 -44.31271 -171.53647 9603971
-3.3295534 -44.521603 -171.07094 9472639
-2.199352 -44.574081 -170.86795 9209467
-1.1764047 -44.558468 -170.82634 9340542
-0.15389419 -44.544338 -170.78452 7828332
0.66369653 -44.534168 -170.75073 8354160
1.6851666 -44.522789 -170.70802 7827306
2.7061226 -44.512119 -170.66238 8485235
3.7235081 -44.46286 -170.46179 10458766
4.7348976 -44.371216 -170.09268 10788759
5.5387325 -44.281086 -169.72813 11577760
8.1968069 -43.937695 -170.03694 14077894
8.7922802 -43.859337 -169.70711 13024946
9.5838394 -43.759491 -169.28247 11314327
10.177554 -43.695656 -169.00418 8682867
-55.635025 -43.266777 -176.70332 7564651
-54.846268 -43.336391 -176.90961 8090736
-53.984406 -43.324413 -177.12802 7564393
-53.0495 -43.254555 -177.10455 6445910
-51.967285 -43.119148 -177.04138 7892840
-50.827595 -43.112637 -176.9248 9340030
-49.730324 -43.19836 -176.77882 9998472
-48.77327 -43.339996 -176.62688 9670023
-47.84317 -43.264755 -176.55748 9275261
-46.916214 -43.190697 -176.4879 12959407
-45.992279 -43.117794 -176.41827 8090985
-45.049873 -43.262283 -176.26688 6511954
-43.97831 -43.353474 -176.12149 9538947
-42.87384 -43.355854 -176.00539 7433060
-41.90036 -43.311211 -175.92017 7366239
-40.904663 -43.381317 -175.79057 8287341
-40.00061 -43.314739 -175.72064 8813941
-39.099197 -43.249317 -175.65057 8682612
-38.044376 -43.431877 -175.47345 8485232
-36.822311 -43.517139 -175.31458 8419952
-35.930729 -43.454922 -175.24434 9538433
-35.041565 -43.393864 -175.17403 9472127
-34.154789 -43.333862 -175.10353 11709090
-33.491222 -43.28957 -175.05055 12235690
-31.917961 -43.611889 -174.76797 12433322
-31.040071 -43.555141 -174.6972 10262670
-30.16437 -43.499348 -174.62625 10262670
-29.508879 -43.458218 -174.573 9537664
-24.930033 -43.606159 -174.04083 9734788
13.065917 -43.450336 -169.60703 9340798
13.657836 -43.394669 -169.34601 9538176
14.640694 -43.302132 -168.90738 7564642
15.619108 -43.209949 -168.46461 7301986
18.911337 -42.925194 -168.78142 8617332
19.68634 -42.851788 -168.40646 7039331
20.458355 -42.778687 -168.02875 8617334
21.035355 -42.723957 -167.74385 8090987
-56.639656 -41.944443 -176.91765 8287342
-55.823433 -42.234837 -177.04665 7563619
-54.970325 -42.230457 -177.30064 8156530
-53.827759 -42.64743 -177.37096 7696235
23.759239 -42.49173 -168.24734 10196619
24.523335 -42.419006 -167.84969 10262923
25.473972 -42.328442 -167.34886 8288365
28.591118 -42.057701 -167.57065 11182746
29.531261 -41.96772 -167.04544 10327692
30.28013 -41.895958 -166.62288 10130313
32.652359 -41.686031 -167.15643 9012859
33.381241 -41.596104 -166.64334 10065035
-57.685844 -40.916492 -177.00577 9866116
-56.927757 -41.177502 -177.12901 9405565
-55.949566 -41.127102 -177.43777 10655374
-55.283318 -41.345543 -177.55023 7564651
33.925545 -41.528893 -166.25763 10065035
36.456085 -41.252033 -166.43764 9208694
37.173737 -41.163071 -165.90837 8486262
39.573662 -40.946621 -166.34004 7301475
40.466599 -40.842552 -165.68466 8287084
43.636017 -40.584274 -165.71088 9471359
-58.43293 -40.033329 -177.12642 10063747
-57.887215 -40.295895 -177.18623 9866115
-56.907234 -40.244587 -177.49585 9866116
-56.239342 -40.462776 -177.60895 14602182
44.33897 -40.500992 -165.16579 9471359
47.513927 -40.238449 -165.11113 9012088
48.205509 -40.155113 -164.54601 7959144
50.505352 -39.973114 -165.05782 8748664
51.384411 -39.888504 -164.41109 11512476
52.600861 -39.618114 -164.83894 16247774
53.341881 -39.581589 -164.43947 11775137
54.265541 -39.536705 -163.93912 9867398
-59.665756 -38.707691 -177.27449 10392454
-58.8451 -39.14632 -177.34755 9932161
-57.894295 -39.138901 -177.63158 7630435
-57.224503 -39.356998 -177.74529 8419439
53.875732 -39.237617 -164.74593 9867398
54.543236 -39.095299 -164.56387 11051672
55.364998 -39.051712 -164.23242 9604226
56.299324 -38.955444 -163.89067 8945780
57.216019 -38.786121 -163.62532 11905693
-60.634846 -37.824089 -177.32962 9932161
-59.870197 -38.084866 -177.45491 9340538
-58.885567 -38.031811 -177.76657 8551280
-58.213764 -38.249825 -177.88091 6972762
55.563782 -38.420967 -164.56607 10064006
56.427204 -38.047352 -164.36414 9077368
57.351208 -37.983788 -164.01584 8287851
58.315941 -37.972225 -163.62816 10524296
59.251411 -37.687622 -163.36469 7827299
59.911926 -37.543724 -163.15445 5920074
-60.85178 -37.11087 -177.54131 9734782
-59.854183 -37.146378 -177.82257 8748659
-59.180618 -37.364265 -177.93744 8090987
57.530289 -37.016769 -164.32364 7432800
58.359226 -36.979847 -164.00325 8485228
59.297779 -36.887524 -163.66042 7893348
60.182121 -36.92099 -163.29004 6643539
60.787937 -36.709137 -163.12862 7761250
-61.82605 -36.225121 -177.59576 9011317
-60.826263 -36.260002 -177.87793 9865855
-60.025124 -36.327408 -178.08875 9077111
58.516678 -36.315617 -164.20079 8813936
59.316738 -36.100422 -163.96217 7103833
60.285114 -36.091831 -163.57437 6183246
61.252968 -36.084469 -163.18626 7893092
62.053528 -35.87204 -162.9464 9931646
-63.403702 -34.715725 -177.71291 7564643
-62.789299 -35.158329 -177.72343 10589322
-61.829735 -35.148228 -178.01109 9865856
-60.998951 -35.439598 -178.14413 10260100
59.58683 -35.475876 -164.09862 5920074
60.442623 -35.136414 -163.88632 8484716
61.328964 -35.098675 -163.54306 6972248
62.278069 -34.981453 -163.20578 8813681
63.156025 -34.82859 -162.91119 7893096
63.764931 -34.618237 -162.74791 8814454
-63.842865 -34.000553 -177.85963 8222316
-62.837646 -34.034492 -178.14375 8485231
-62.18618 -34.02784 -178.339 10063235
61.294785 -34.215977 -163.90385 8353131
62.292725 -34.001652 -163.58498 8024681
63.264091 -33.996571 -163.19458 8024425
64.162994 -33.951363 -162.84923 8024938
65.039604 -33.782219 -162.56161 7893096
-64.828979 -33.110256 -177.91237 9999239
-63.82148 -33.14373 -178.19731 8945784
-63.014015 -33.210217 -178.41039 8419696
62.649933 -33.236286 -163.74155 8748149
63.427586 -33.037903 -163.50537 8682356
64.25351 -33.01078 -163.18239 8945784
65.206543 -32.896313 -162.84238 9932419
66.096642 -32.66864 -162.57233 10721934
66.764458 -32.528885 -162.35753 9932419
-65.681953 -32.262051 -177.98814 10130825
-64.809006 -32.251568 -178.25032 9538688
-63.999619 -32.31778 -178.46408 9932424
64.371178 -31.977034 -163.54118 10261643
65.290382 -31.904697 -163.19827 10392970
66.265297 -31.902796 -162.80518 10195591
67.167892 -31.860264 -162.45729 9603198
-67.711006 -30.731407 -178.19151 13156792
-66.706116 -31.065899 -178.24899 9867653
-65.857521 -31.144133 -178.45549 8880502
-64.993523 -31.426075 -178.52968 9406846
65.569458 -31.276873 -163.33229 9932419
66.391434 -31.071939 -163.11942 9471869
67.172714 -31.07118 -162.80392 10128771
68.149231 -31.071154 -162.4091 9471612
68.972733 -30.868071 -162.19353 9537409
-69.50338 -29.898497 -178.37346 8090987
-68.728416 -30.031633 -178.49205 7564643
-67.902313 -30.093126 -178.68686 13022893
-66.953094 -30.29236 -178.76978 8814453
67.328392 -30.473871 -163.18457 9405819
68.336037 -30.374994 -162.85809 10654601
69.3209 -30.146215 -162.65562 9603456
70.19207 -30.082487 -162.362 10985366
71.142014 -29.92671 -162.106 10261643
72.083229 -29.693642 -161.92967 9669250
-82.38311 -29.426308 -179.98473 6511954
-81.736305 -29.425846 -180.2827 10197130
-81.088432 -29.425379 -180.57845 9210491
-75.640038 -29.416565 -179.30382 12431783
-74.78067 -29.415909 -179.66826 10130055
-71.861176 -29.595753 -178.68604 10524556
-70.762207 -29.583357 -179.04785 10787727
73.246048 -29.400723 -162.44872 10129545
74.229485 -29.403812 -162.03581 9537920
75.211647 -29.4077 -161.62086 9405814
75.9972 -29.411169 -161.28728 9931646
78.164665 -29.191854 -161.85336 10655889
79.131485 -29.189972 -161.38341 9143419
79.902794 -29.188469 -161.00305 8616563
85.528633 -29.142344 -161.05519 8682867
86.159019 -28.929468 -160.8468 8484977
87.14875 -28.937191 -160.38219 9406593
88.085548 -28.872778 -159.97116 8157297
86.468323 -28.279192 -160.96376 8616563
87.100403 -28.066111 -160.75467 8221549
88.092354 -28.074331 -160.28882 8222576
89.031456 -28.010214 -159.87666 8287854
87.411507 -27.414534 -160.87143 8616563
88.10788 -27.070614 -160.68478 9341054
89.077858 -26.991558 -160.26425 8288110
90.048828 -26.913214 -159.84293 7959147
90.748756 -26.570169 -159.65433 7564651
89.124184 -25.970699 -160.65276 8617075
90.067879 -25.906038 -160.23866 7893614
91.06591 -25.915724 -159.76935 9012091
91.704666 -25.702887 -159.55699 9012091
90.20388 -25.139185 -160.48331 8090993
91.111 -24.993776 -160.11868 8419956
92.02372 -25.046839 -159.6718 9077371
92.664482 -24.833597 -159.45865 10851980
91.160736 -24.268103 -160.38705 8288371
92.13665 -23.946701 -160.0611 9668735
93.025536 -23.955679 -159.64297 10589065
93.805107 -23.87583 -159.31157 9340027
94.513748 -23.530327 -159.11989 8419702
92.583099 -23.067974 -160.20598 9405819
93.22683 -22.853025 -159.99213 8814453
94.032112 -22.861277 -159.61325 9340283
94.967331 -22.827162 -159.19084 8551288
93.549416 -22.191879 -160.10733 9405819
94.195061 -21.976398 -159.89276 9209467
95.002548 -21.984747 -159.51292 9472128
95.940331 -21.950655 -159.08928 9669253
94.519547 -21.313374 -160.00783 9209467
95.167366 -21.097418 -159.79245 9209467
95.976929 -21.105835 -159.41156 9142909
96.917374 -21.071655 -158.98677 8681843
97.928749 -20.458578 -158.76138 8681843
95.493889 -20.432562 -159.90733 9209467
96.209389 -20.082592 -159.71429 8288627
96.997673 -20.001352 -159.37933 8484464
97.89267 -19.936617 -158.98801 7103068
98.710266 -19.57284 -158.75285 7761253
97.262474 -18.959969 -159.67418 7432032
98.023544 -18.893013 -159.34624 5919818
98.953018 -18.947779 -158.89075 6248783
99.699196 -18.686653 -158.64767 5920074
98.248192 -18.072073 -159.57129 6840663
99.011589 -18.004753 -159.24231 6380368
99.943741 -18.059599 -158.78563 6248783
100.69253 -17.79751 -158.54172 5656389
99.238586 -17.181273 -159.46796 8024425
100.0043 -17.113665 -159.13797 8024422
100.93898 -17.168495 -158.67978 6709076
101.86768 -16.635817 -158.4612 5524547
100.23675 -16.288067 -159.36908 10325893
101.09264 -16.087769 -159.09239 8484716
101.96646 -15.783237 -158.86823 6709076
102.78959 -15.791246 -158.47673 4868164
103.70615 -15.579892 -158.22618 4473663
103.06534 -15.130963 -158.90347 6512214
103.98472 -14.917757 -158.65279 5788751
104.81301 -14.925932 -158.25896 5985100
105.73692 -14.712939 -158.00644 5919050
107.18414 -14.332408 -158.52168 6642517
108.00977 -14.339633 -158.10667 6511954
108.83618 -14.347207 -157.69032 7367263
115.97746 -14.136304 -157.32755 8814195
116.7287 -14.134594 -156.76993 9603451
119.88944 -13.771939 -156.66425 9340026
120.02135 -13.177583 -156.83797 8550768
120.63281 -12.971777 -156.34135 7563619
120.20639 -12.343829 -157.08159 8090987
120.86236 -12.145322 -156.53757 9010806
121.3353 -11.854131 -156.22089 9010806
121.02293 -11.222159 -156.85095 11642781
121.66617 -11.135348 -156.26231 9406333
121.31488 -10.422432 -156.97202 14602182
121.93477 -9.936965 -156.61002 9735554
122.55949 -9.8109617 -156.0596 10524556
122.32138 -8.9736843 -156.72144 9209467
122.79678 -8.6807661 -156.4032 10459019
123.45594 -8.4827709 -155.85582 9538689
123.1451 -7.8429656 -156.48833 9868166
123.75208 -7.6773028 -155.97566 9999752
123.89635 -6.838758 -156.26187 9802117
124.57926 -6.5435448 -155.74075 10263180
124.00352 -6.0628548 -156.55263 8089963
124.68741 -5.7670588 -156.03081 9472638
124.93879 -4.9633102 -156.19385 12169376
125.53751 -4.5946541 -155.79301 9208435
125.13331 -4.1089225 -156.43883 13156527
125.70501 -3.86168 -156.00253 10656137
126.2769 -3.6145875 -155.56612 9208435
125.96779 -2.9630866 -156.20299 11182481
126.61779 -2.8786175 -155.60674 9735296
126.27003 -2.1436806 -156.3243 9341054
126.88235 -1.9774046 -155.80678 9341054
127.36069 -1.8936712 -155.37898 9341054
-19.135958 -43.711834 -173.39728 7958632
-18.075644 -43.658703 -173.30609 7235421
-17.44067 -43.627651 -173.25124 6511954
-14.054907 -43.885521 -172.80324 7103838
-13.006533 -43.83942 -172.71066 8288368
-12.169428 -43.80368 -172.63655 6840925
-11.124937 -43.760403 -172.54343 9144449
-10.082243 -43.71854 -172.44997 8881278
-9.1771564 -43.820911 -172.31789 8091245
-8.2061329 -43.853111 -172.20471 9538176
-7.2368736 -43.886337 -172.09135 9538176
-6.1304169 -43.984753 -171.93974 8682867
-5.0970573 -43.94976 -171.84473 9011832
-4.271513 -43.922821 -171.76851 9340799
-3.1570718 -44.052231 -171.60463 11379608
-2.2102239 -44.064846 -171.50119 10130311
-1.1828916 -44.035446 -171.40475 8946042
-0.15672851 -44.00742 -171.30798 9800836
0.86815667 -43.98098 -171.21072 8024940
1.891906 -43.955902 -171.11311 8222063
2.7101071 -43.936901 -171.03468 10458508
3.7319462 -43.914551 -170.93623 9472643
4.7528763 -43.893562 -170.83739 9144449
5.7740297 -43.883125 -170.77347 7564904
6.7948895 -43.875595 -170.71532 9406335
7.7312517 -43.808998 -170.5977 10460047
8.8373604 -43.650421 -170.63123 12235172
9.8504047 -43.612103 -170.43336 9274747
10.865414 -43.59148 -170.29892 8748404
-49.07653 -42.705639 -176.8916 7762277
-45.092728 -42.82975 -176.43025 6511954
-43.945244 -42.742111 -176.34267 9208955
-43.030159 -42.673088 -176.27249 8091760
-41.623734 -43.001995 -176.00494 6510930
-40.943417 -42.951836 -175.95233 8287341
-40.038448 -42.885956 -175.88203 8813941
-38.911186 -42.805122 -175.79413 7892840
-37.701084 -42.863113 -175.64656 7959145
-36.943192 -42.953403 -175.53427 8551538
-35.9646 -43.028931 -175.40436 9538433
-35.074612 -42.968418 -175.33376 9801349
-33.965561 -42.894314 -175.24521 9406078
-32.844467 -43.033806 -175.07698 11775139
-31.963085 -42.976711 -175.006 9670791
-31.083933 -42.920662 -174.93478 8618105
-30.090611 -42.9645 -174.81499 8420470
-28.868361 -43.206863 -174.59848 9076857
-27.997492 -43.153996 -174.52699 7366240
-27.128683 -43.102119 -174.45537 8747893
-26.045563 -43.03878 -174.36562 8484721
-24.965227 -42.97686 -174.27557 7037786
-24.091898 -43.138123 -174.12521 7564642
-23.017559 -43.078926 -174.03488 8551280
-21.935486 -43.230255 -173.86635 9932167
-21.080549 -43.185036 -173.79375 8682099
-20.014328 -43.129967 -173.70271 8155755
-18.950577 -43.076351 -173.61134 8484720
-18.101398 -43.034592 -173.53807 7827046
-17.038742 -43.072872 -173.41313 8353902
-16.065897 -43.205616 -173.2628 6511443
-15.134199 -43.103542 -173.20309 8617075
-14.08194 -43.056808 -173.11044 7893608
-13.025398 -43.218571 -172.94077 10919314
-12.187181 -43.183273 -172.86623 8222832
-11.14127 -43.140553 -172.7728 8618106
-10.0972 -43.099182 -172.67905 9276035
-9.0550995 -43.059456 -172.58485 8683381
-8.0146828 -43.021053 -172.4904 8090987
-7.1400051 -43.11359 -172.36511 8288366
-6.1432915 -43.161655 -172.24341 9670019
-5.1080685 -43.127235 -172.14803 9472383
-4.126646 -43.044609 -172.07594 9274750
-3.1301286 -43.124249 -171.94273 11708572
-2.2176092 -43.038754 -171.87889 10524557
-1.2462461 -43.128845 -171.74442 9537664
-0.15900207 -43.187634 -171.60931 9011834
0.86766267 -43.161591 -171.51176 9997443
1.8932545 -43.136913 -171.41377 8550512
2.7129328 -43.118214 -171.33508 10721678
3.7365439 -43.09621 -171.23636 10460051
4.7592554 -43.075539 -171.13716 7960176
5.7823172 -43.066124 -171.0764 8814714
6.8075018 -43.075581 -171.08499 9405823
7.833252 -43.086308 -171.09224 10129802
8.8521976 -43.282158 -170.94107 11314327
9.8762751 -43.287258 -170.91345 9866883
11.675401 -43.570751 -170.17047 8156012
12.472131 -43.506111 -169.8663 8419440
15.977698 -43.202335 -170.16393 6511954
16.763988 -43.128132 -169.79881 7695970
17.74297 -43.035652 -169.33896 8617073
18.328123 -42.98032 -169.06096 8682867
21.641415 -42.693012 -169.32771 10459279
22.607109 -42.601261 -168.83914 10722194
-54.379562 -41.784988 -177.64758 7564651
-53.808788 -42.026451 -177.61 8024944
-52.740044 -42.209179 -177.45625 6642772
-51.731392 -42.259342 -177.33255 5919050
-50.788731 -42.182716 -177.2623 6906201
-49.849426 -42.107292 -177.19202 6775382
-48.852608 -42.160034 -177.06863 7433313
-47.957458 -42.177448 -176.9688 7762280
-47.065598 -42.19556 -176.86902 13617080
-45.945755 -42.196899 -176.75174 11643548
-44.83065 -42.199326 -176.63441 7958888
-43.77845 -42.076756 -176.56963 8287853
-42.80513 -42.135078 -176.44661 8090218
-41.930435 -42.157845 -176.34697 6905688
-41.058659 -42.181305 -176.24739 7037274
-39.963402 -42.189598 -176.13007 8616819
-38.872425 -42.198956 -176.01277 7892840
-37.841209 -42.084225 -175.94727 8353647
-36.888916 -42.148022 -175.82443 8946296
-36.032471 -42.176029 -175.72476 9867398
-35.045425 -42.110325 -175.64594 9603714
-33.921604 -42.293327 -175.4614 9537664
-32.906349 -42.184971 -175.39526 9472128
-32.0233 -42.128899 -175.32368 10985622
-30.922667 -42.060299 -175.23404 8092019
-29.811289 -42.204556 -175.06508 7695973
-28.936293 -42.151798 -174.9931 9800837
-28.063381 -42.100086 -174.92102 8879991
-26.962534 -42.24757 -174.75195 8813942
-25.8778 -42.185535 -174.66153 8813686
-25.012285 -42.137077 -174.589 8287853
-24.021551 -42.040665 -174.521 7959400
-22.983555 -42.069069 -174.40224 6906712
-21.987247 -42.18449 -174.25591 7958376
-21.04146 -42.07589 -174.19705 7037274
-20.005909 -42.13596 -174.06691 7366239
-18.986488 -42.242569 -173.92139 7366239
-18.135782 -42.201534 -173.84764 8024169
-17.074677 -42.151653 -173.75528 8880248
-16.015802 -42.103157 -173.66257 6971994
-15.045183 -42.018383 -173.59238 9143418
-14.030092 -42.057594 -173.47206 9143160
-13.056913 -42.182648 -173.32455 9866882
-12.060867 -42.089993 -173.25465 8617072
-11.04718 -42.16074 -173.12288 8815483
-10.122074 -42.0658 -173.06119 11906726
-9.1347904 -42.147156 -172.92827 10196363
-8.0308819 -42.195843 -172.7952 9012089
-7.1984177 -42.166729 -172.71898 8682867
-6.1593685 -42.131725 -172.62344 9011832
-5.121851 -42.098 -172.52754 9472383
-4.0859776 -42.065823 -172.4312 9077372
-3.0514925 -42.034981 -172.33458 11511194
-2.1013772 -41.966816 -172.26042 9734528
-1.07423 -42.185417 -172.07297 9997444
-0.16183066 -42.161587 -171.98645 10786959
0.81565881 -42.188622 -171.8745 11642780
1.8945801 -42.317024 -171.71474 7563619
2.9208519 -42.294254 -171.61601 10064263
3.9461138 -42.272827 -171.51685 9604484
4.7656145 -42.256672 -171.43719 9144449
5.7078285 -42.287666 -171.36052 9340801
6.814991 -42.461365 -171.30943 8813686
23.18412 -42.546471 -168.54402 8288371
25.931614 -42.311729 -169.02086 8617587
26.695534 -42.238834 -168.60962 9210491
27.645687 -42.148121 -168.09187 10525584
30.596916 -41.892994 -168.3877 9867141
31.53751 -41.802742 -167.84657 8946551
32.099491 -41.74873 -167.5202 9210491
-54.800232 -41.07719 -177.79691 10787474
-53.781715 -41.095169 -177.97417 9340545
-52.766705 -41.146587 -177.84935 9932675
-51.855595 -41.16246 -177.74841 7695972
-50.886169 -41.306927 -177.59416 7235165
-49.944862 -41.232895 -177.52318 7762277
-48.871147 -41.10556 -177.45789 7499107
-47.741043 -41.10704 -177.3394 6906719
-46.653397 -41.200073 -177.19168 9143418
-45.726753 -41.130714 -177.1205 9143160
-44.781845 -41.279263 -176.9673 10853012
-43.861649 -41.211765 -176.89607 7564386
-42.944298 -41.145363 -176.82472 9866628
-41.896896 -41.02721 -176.75883 8945270
-40.802006 -41.138107 -176.60381 7432032
-39.828644 -41.20438 -176.47789 8156012
-38.870316 -41.16312 -176.39302 8616819
-37.912674 -41.227707 -176.26936 9538177
-37.013817 -41.167561 -176.19762 9670277
-35.893867 -41.093861 -176.1078 10064777
-34.723206 -41.146694 -175.96628 9537664
-33.871326 -41.178078 -175.86581 9472127
-32.983849 -41.122288 -175.7937 8550513
-32.020054 -41.133801 -175.68886 9669250
-30.889801 -41.249672 -175.52835 8223091
-29.881401 -41.146709 -175.46095 8156267
-29.004313 -41.095161 -175.38831 7695973
-27.911064 -41.032158 -175.29738 9537921
-26.944876 -41.3302 -175.08707 9472128
-25.926519 -41.343788 -174.97583 9011321
-25.059351 -41.296177 -174.90282 8617331
-23.978199 -41.238113 -174.81129 9341054
-22.899763 -41.18145 -174.71956 7037786
-22.107336 -41.210766 -174.62611 7234909
-20.956013 -41.292755 -174.47581 6839895
-19.885738 -41.240032 -174.38347 9208443
-19.022459 -41.407799 -174.23181 6905688
-17.957485 -41.357582 -174.13905 7498083
-16.962896 -41.381462 -174.02655 8288369
-16.038721 -41.479042 -173.89423 7103581
-14.98086 -41.432728 -173.80083 10524812
-13.925127 -41.387772 -173.70715 8551280
-13.082159 -41.352921 -173.63196 7564643
-12.030331 -41.31068 -173.53772 6775125
-8.8777752 -41.605953 -173.1003 11906725
-8.0430317 -41.576309 -173.02399 10591121
-7.0012836 -41.540615 -172.92839 9340798
-5.9610424 -41.506226 -172.83243 10853780
34.645721 -41.476151 -167.75485 9734782
35.554169 -41.363739 -167.09746 10261383
37.950668 -41.134926 -167.51076 9209467
38.49379 -41.072063 -167.12173 8486262
39.034962 -41.009289 -166.73155 7039331
41.861229 -40.793613 -167.06464 10260101
42.574146 -40.709724 -166.5247 9734527
43.106293 -40.646946 -166.11847 9931910
-55.755875 -40.193562 -177.85606 10524302
-54.765793 -40.233498 -178.13336 11182231
-53.884632 -40.212437 -178.30705 8880505
-52.930939 -40.137669 -178.23709 10590860
-51.955067 -40.283611 -178.08168 9538686
-50.846909 -40.374973 -177.93242 8946295
-49.706417 -40.375904 -177.81311 9999752
-48.702087 -40.328991 -177.72545 7301729
-47.673843 -40.398701 -177.59256 7564392
-46.742271 -40.329636 -177.52071 8090479
-45.813747 -40.261623 -177.44878 8814710
-44.867016 -40.411701 -177.29486 7564386
-43.924103 -40.562241 -177.14114 7235421
-43.005409 -40.496792 -177.06935 11050900
-41.861176 -40.416473 -176.97945 12235429
-40.720993 -40.337708 -176.88934 8946298
-38.643089 -40.629707 -176.56519 8419440
-37.9664 -40.584549 -176.51118 8617847
-36.841656 -40.510616 -176.42101 8815225
-35.944439 -40.452576 -176.34863 10262156
-31.907608 -40.629051 -175.86261 8813942
45.592167 -40.468876 -166.65617 8879478
46.469391 -40.363918 -165.95564 8089963
47.896297 -40.114479 -166.44571 8288365
48.458038 -40.084209 -166.15184 6511954
49.540127 -39.910789 -165.86885 7367007
50.530632 -39.703297 -165.85535 10788247
51.484081 -39.67218 -165.4281 10788247
52.230503 -39.636559 -165.03806 13879997
-56.705734 -39.067501 -178.01065 7761766
-55.722748 -39.34848 -178.19266 7695720
-54.927971 -39.419117 -178.40033 7564651
50.613094 -39.320805 -166.1311 10788247
51.525665 -39.139416 -165.84895 10459282
52.466743 -39.040329 -165.51799 13485243
53.344494 -39.059711 -165.12701 12169896
54.154968 -38.850197 -164.93636 9867398
-57.728893 -37.97871 -178.12912 6117453
-56.73407 -38.017189 -178.40845 5919818
-55.881493 -38.324837 -178.5416 6313808
51.691048 -38.488056 -166.10419 9143681
52.626068 -38.194416 -165.84189 10525073
53.481262 -38.041084 -165.55667 10327437
54.449944 -38.024925 -165.17171 10064777
55.388618 -37.9277 -164.83073 10721936
56.04604 -37.587502 -164.69884 7564643
-58.695263 -37.092316 -178.18613 8683123
-57.698425 -37.130009 -178.46635 8617330
-56.89978 -37.19973 -178.67558 7367264
53.766949 -37.208691 -165.76848 8681843
54.566444 -36.988678 -165.53197 10787730
55.5364 -36.974033 -165.14592 10064006
56.423145 -37.003132 -164.77628 7564643
57.111084 -36.74593 -164.59949 7564643
-59.556847 -36.024937 -178.34419 10260100
-58.790421 -36.287746 -178.46915 8485745
-57.865776 -36.311214 -178.73351 7301727
54.636482 -36.366024 -165.74846 10590091
55.510139 -36.187183 -165.46585 13615544
56.408112 -36.133308 -165.12427 9406333
57.378281 -36.121193 -164.73708 9142906
58.29158 -36.041664 -164.39941 9011317
-60.765118 -34.988567 -178.38768 9405050
-59.761784 -35.398975 -178.52565 10260100
-58.771988 -35.346626 -178.83858 8551031
55.89724 -35.517933 -165.57246 15194062
56.504608 -35.302177 -165.41197 11313560
57.501011 -35.082321 -165.09587 10589840
58.472656 -35.071541 -164.70764 9142394
59.32267 -34.993938 -164.39474 6840407
60.077316 -34.641048 -164.22861 7103834
-61.616367 -33.947376 -178.53859 9799807
-60.732285 -34.239265 -178.68715 9142136
-59.804382 -34.321575 -178.9297 9471102
-59.067986 -34.67561 -179.01056 9537667
57.599346 -34.249851 -165.38333 9537408
58.402992 -34.033138 -165.14395 8287341
59.376167 -34.023502 -164.75456 7300446
60.348862 -34.015118 -164.36496 8024166
61.347229 -33.799595 -164.04639 10260100
-62.543892 -32.904835 -178.66754 10261132
-61.770554 -33.168041 -178.79437 9207928
-60.839329 -33.189873 -179.06134 8155756
58.867722 -33.403851 -165.20354 7037274
59.477745 -33.189739 -165.04128 7037274
60.477901 -32.972828 -164.72252 7760739
61.452156 -32.96563 -164.33179 10194821
62.202984 -32.87751 -164.06314 8879735
63.063957 -32.539284 -163.84828 9142907
-63.528923 -32.011448 -178.72166 10261132
-62.753487 -32.274822 -178.84912 10261132
-61.75679 -32.220345 -179.16492 8090987
-61.075699 -32.440296 -179.28133 8090987
60.581398 -32.13755 -165.00909 7037274
61.388321 -31.92284 -164.76744 10129285
62.364342 -31.916662 -164.37561 8879479
63.339966 -31.911661 -163.98344 9340286
64.147713 -31.699318 -163.7406 10261899
-65.302299 -30.703293 -178.92558 10130825
-64.642967 -30.981892 -178.89627 9669507
-63.746193 -31.383144 -178.92047 9669509
-62.749245 -31.328974 -179.24274 9800837
-62.058388 -31.545065 -179.33688 9341054
61.858063 -31.292633 -164.8253 9932163
62.482513 -31.085466 -164.69182 9340029
63.374161 -31.121655 -164.31035 8945528
64.328209 -31.036402 -163.97415 9801348
65.16758 -31.006594 -163.65225 10261899
65.846062 -30.869421 -163.45787 8682867
-67.317802 -29.876945 -179.08345 9011576
-66.539635 -30.008959 -179.1864 9143162
-65.71225 -30.070536 -179.37234 10064264
-64.648949 -30.410326 -179.35425 9932424
-63.881287 -30.545937 -179.47189 8683385
63.607109 -30.483152 -164.68311 8090987
64.516304 -30.380966 -164.39929 8880503
65.425766 -30.279524 -164.11467 9406847
66.338905 -30.13863 -163.87761 8814453
67.312279 -29.884979 -163.70427 8879989
68.250008 -29.819635 -163.38617 9602941
69.144684 -29.690081 -163.14539 10195079
-80.439293 -29.424908 -180.87178 9210491
-79.572342 -29.424269 -181.25925 9998215
-73.703888 -29.415079 -180.11771 9011831
-72.840782 -29.414404 -180.47325 10984849
-69.663246 -29.571699 -179.40742 9537662
-68.784187 -29.562815 -179.69327 9340283
-67.905037 -29.554432 -179.97765 9340283
69.702003 -29.395052 -163.91792 11379356
70.29319 -29.395357 -163.67494 10261387
71.278114 -29.396505 -163.26828 8813685
72.262367 -29.398214 -162.8596 9735043
75.247856 -29.197472 -163.2291 9208955
76.222832 -29.195604 -162.77625 9668730
77.195244 -29.193729 -162.3179 10655373
82.761581 -29.127562 -162.3515 10984852
83.390167 -28.913189 -162.1445 11445402
84.180954 -28.917072 -161.77414 9340541
85.09803 -28.878887 -161.36185 9077369
83.69561 -28.262819 -162.26337 9011579
84.325676 -28.048347 -162.05566 9011579
85.229698 -28.096882 -161.61465 9011321
86.127586 -27.950214 -161.25488 8484721
84.632751 -27.396673 -162.17435 9011579
85.32637 -27.051462 -161.98958 7497826
86.23539 -27.024229 -161.57661 8287342
87.180466 -26.830496 -161.21375 9340798
87.959999 -26.545033 -160.96487 8814710
86.335083 -25.950495 -161.96147 8419184
87.276794 -25.883621 -161.54919 8485488
88.273026 -25.890774 -161.08177 8551538
88.909363 -25.676764 -160.871 8814710
87.281647 -25.08013 -161.86974 7301470
88.225563 -25.013453 -161.45634 7696229
89.224091 -25.021027 -160.98769 8222575
89.862244 -24.806688 -160.77623 7564651
88.231804 -24.207996 -161.77702 7893608
89.216469 -23.921543 -161.43295 7827820
90.217751 -23.929344 -160.96286 7893614
91.00489 -23.642269 -160.71111 8025200
91.699966 -23.501442 -160.44363 10128771
89.370399 -23.041252 -161.71477 7564651
90.284424 -22.871325 -161.35689 7959407
91.216011 -22.834642 -160.93718 9078139
92.019913 -22.841597 -160.55951 9405819
92.663277 -22.62635 -160.34604 9405819
90.730827 -22.167398 -161.43143 8090992
91.373795 -21.950977 -161.2186 9539201
92.179161 -21.957628 -160.84035 8748661
92.985085 -21.964777 -160.46167 9734527
93.630486 -21.749052 -160.24747 9209467
91.693932 -21.288507 -161.33545 9736836
92.338791 -21.071608 -161.12184 8354163
93.146194 -21.078381 -160.74261 9274747
94.083649 -21.042393 -160.31996 10591377
92.660835 -20.40731 -161.23856 7564651
93.372482 -20.056629 -161.04758 9669763
94.158005 -19.9741 -160.71446 13947332
95.055359 -19.982182 -160.29277 9341568
95.862755 -19.543217 -160.09262 8092019
94.41642 -18.934311 -161.01167 12170664
95.174721 -18.866068 -160.6855 12038567
96.101387 -18.919067 -160.23207 8092019
96.843613 -18.6572 -159.99117 8092019
95.394501 -18.046463 -160.91275 10459795
96.15493 -17.977999 -160.58548 10591380
97.084038 -18.031103 -160.13074 8223091
97.828728 -17.76837 -159.88908 8089963
96.376999 -17.155914 -160.81332 9999244
97.139633 -17.087175 -160.4852 8748407
98.07119 -17.140417 -160.02913 8616307
98.818535 -16.876736 -159.78668 8681843
97.368683 -16.263357 -160.72153 9011065
98.135628 -16.194626 -160.39558 8616307
99.099991 -16.045023 -160.06091 8945528
99.91259 -15.764627 -159.8438 9405304
100.82317 -15.552507 -159.59673 10128514
100.17997 -15.105633 -160.27341 9405304
101.09522 -14.891962 -160.02873 9010803
102.02384 -14.944036 -159.54692 7235420
103.04263 -14.686974 -159.28648 6840919
104.50391 -14.310669 -159.86259 6511954
105.12205 -14.315455 -159.55418 6642517
105.94624 -14.322039 -159.14215 6248015
106.56506 -14.327124 -158.83221 5919050
114.08756 -14.140575 -158.70607 8814711
115.03454 -14.138441 -158.0195 8683125
118.18565 -13.796502 -158.32805 10064003
118.86775 -13.786442 -157.66202 8814195
119.02483 -13.072524 -157.87207 9603968
119.75967 -12.825068 -157.27542 8090987
119.23484 -12.118246 -158.15273 10064777
119.86027 -12.062613 -157.56573 10064777
120.09026 -11.073689 -157.84441 10722707
120.74873 -10.66781 -157.40376 14208966
120.96212 -9.7073441 -157.68423 10524299
121.47555 -9.7020922 -157.18169 11905439
121.3477 -8.7422581 -157.79765 9208696
121.86176 -8.7374067 -157.29434 9208696
122.07761 -7.7714362 -157.57516 9208696
122.72444 -7.6855593 -156.98253 8287599
122.41167 -7.0436282 -157.61812 9734788
122.88893 -6.7493663 -157.29874 8090480
123.55059 -6.5508051 -156.74918 8089963
123.19949 -5.8253946 -157.46501 8419445
123.84793 -5.7401047 -156.87057 8880248
123.93495 -4.8473549 -157.2408 9867143
124.67823 -4.5993762 -156.63602 15196110
124.15564 -3.8695135 -157.5229 8419952
124.78694 -3.8173926 -156.92845 10393481
124.98714 -2.9346592 -157.18236 10261898
125.6405 -2.6374836 -156.69141 11182481
125.75267 -2.1456194 -156.83234 11182481
8.8634024 -42.895607 -171.18178 11314327
9.8909683 -42.909138 -171.18834 11050899
10.910079 -43.109283 -171.04135 9340798
11.856723 -43.082733 -171.05881 9011577
12.835407 -43.15757 -170.93784 9801093
13.778717 -43.119251 -170.89835 9406591
14.76192 -42.986477 -170.96596 8551281
15.765038 -43.069965 -170.84505 9012088
16.874655 -42.971619 -170.95088 7103834
17.891829 -42.956696 -170.79613 7695970
18.904184 -42.933357 -170.60112 8683125
19.891335 -42.858986 -170.19725 10260873
20.671177 -42.785069 -169.81244 11049874
1.2785685 -41.715733 -171.99989 9537406
1.895592 -41.701595 -171.94064 7563619
2.9232047 -41.6791 -171.84169 7170403
3.9497893 -41.657894 -171.74225 9209726
4.7704039 -41.642006 -171.66248 10262155
5.8982592 -41.735851 -171.56355 10392461
6.8224154 -41.846622 -171.53403 9076858
7.8480949 -42.062881 -171.47017 8418928
8.8769064 -42.07579 -171.48172 10063752
9.9071617 -42.09296 -171.50412 10984852
10.938393 -42.111931 -171.52803 10459279
11.917791 -42.182648 -171.53145 9274493
12.998729 -42.359535 -171.49911 10919829
13.8188 -42.578861 -171.42294 9143163
23.814312 -42.513508 -170.13884 8617843
24.779865 -42.421532 -169.63313 10723218
25.356741 -42.366531 -169.3278 9736323
27.936678 -42.147762 -169.88347 11315100
28.700623 -42.074638 -169.45898 11117465
29.651501 -41.983616 -168.92532 9538176
32.809772 -41.701389 -169.05675 11512732
33.731598 -41.589188 -168.41002 10328715
-26.615534 -40.74752 -175.26666 10261132
-25.963043 -40.711739 -175.21179 8616818
-25.094706 -40.66486 -175.1384 10261642
-21.834476 -40.91671 -174.70566 7761253
-20.975748 -40.873989 -174.63173 7037274
-19.904507 -40.821762 -174.53906 8287341
-19.049454 -40.78109 -174.4648 7366239
-17.983009 -40.731518 -174.3717 6313810
-16.842688 -40.819221 -174.2205 7367269
-16.061672 -40.854275 -174.12604 9143677
-14.995218 -41.016716 -173.95508 11051156
-13.938488 -40.972191 -173.86121 9537918
-13.094732 -40.937634 -173.7858 7564643
-12.04204 -40.895798 -173.69135 7695969
-10.985813 -41.062515 -173.51988 9274486
-10.022287 -40.984974 -173.4478 10787727
-9.0156269 -41.031353 -173.32568 10854037
-8.0552254 -40.956219 -173.25307 10919830
-7.0120602 -40.920944 -173.1571 9143418
-5.9704609 -40.887012 -173.06091 10130057
-5.1356487 -41.067184 -172.90752 9670020
-4.0975056 -41.035698 -172.81078 8222322
-3.0588682 -41.211533 -172.63777 9669508
-2.0240819 -41.182724 -172.54034 7892582
-0.99055076 -41.155163 -172.44257 9405307
-0.16468215 -41.134201 -172.36409 11181716
0.86649919 -41.109249 -172.26564 11445401
1.8966115 -41.085552 -172.16682 8550512
2.9255421 -41.063351 -172.06752 8157296
3.953522 -41.042427 -171.96794 8617847
4.898737 -40.983414 -171.89093 11576988
5.8846521 -41.05875 -171.81012 10524303
6.8323975 -41.026165 -171.83385 8813686
7.8628254 -41.037231 -171.84499 8484721
8.8939104 -41.04987 -171.85698 9668995
9.8429804 -41.106361 -171.86293 9931909
10.955585 -41.290691 -171.82884 12169380
36.123886 -41.345398 -168.79819 9734782
36.674393 -41.28212 -168.41341 9011573
37.405083 -41.197899 -167.89844 8748916
40.603737 -40.941082 -168.00441 9734014
41.324055 -40.856739 -167.46834 9734014
43.162979 -40.631721 -167.99911 9734782
43.730904 -40.598694 -167.71083 11906725
44.486824 -40.554695 -167.32423 9800578
-51.767788 -39.825375 -178.23041 9078393
-50.584206 -39.735088 -178.14008 8880502
-49.876511 -39.68174 -178.08578 10263180
-48.420597 -40.014267 -177.81172 7564392
-47.719254 -39.962276 -177.75764 7564392
-46.786781 -39.89381 -177.68544 8090479
-45.857334 -39.826496 -177.61316 8814710
-44.930908 -39.760181 -177.54091 8354159
-43.986641 -39.911865 -177.3866 6511954
-42.816849 -40.047932 -177.21452 13814459
-41.672096 -39.968662 -177.12418 14604230
-40.759518 -39.906418 -177.05183 8091760
-39.830856 -40.060528 -176.89825 8090732
-38.924175 -40.000088 -176.82585 9340798
-37.888306 -39.888908 -176.75858 7039331
-36.876381 -40.082142 -176.58199 8091760
-35.668453 -40.14822 -176.43164 9142907
-34.843033 -40.167847 -176.33832 8879478
-33.951042 -40.112305 -176.26561 8813685
-32.839539 -40.044418 -176.17455 9866629
-31.678169 -40.10284 -176.03189 9011577
-30.832907 -40.138237 -175.93066 9010805
-29.951614 -40.086914 -175.85759 8549996
-28.929991 -40.198669 -175.70988 5920074
-27.873312 -40.224072 -175.59026 9669250
-26.871159 -40.126232 -175.52164 9669251
-25.999664 -40.079018 -175.44801 8879990
-24.846214 -40.108341 -175.31688 11182485
-23.818132 -40.175484 -175.18494 9275005
-22.953695 -40.131336 -175.11092 8485489
-21.932117 -40.027775 -175.04236 7300446
-20.917477 -40.283058 -174.84268 7827046
-19.932718 -40.193748 -174.77272 8814454
-18.950012 -40.105934 -174.70241 7300446
-17.921495 -40.142784 -174.58153 6709081
-16.942972 -40.057327 -174.5108 7367269
-15.966318 -39.973251 -174.43979 8748920
-14.969055 -40.233761 -174.23999 12828338
-13.965271 -40.140137 -174.1696 11117464
-12.963247 -40.048042 -174.09888 8814194
-11.94323 -40.119854 -173.96602 8945778
-11.007286 -40.232918 -173.8268 12694691
-9.9571724 -40.194435 -173.73132 10919828
-8.9088058 -40.157265 -173.63557 11511966
-8.0714569 -40.12851 -173.5587 9538176
-7.0264244 -40.093891 -173.46236 9143418
-5.9829903 -40.060574 -173.36571 9406334
-5.0250931 -39.989868 -173.29164 12432812
-4.0253525 -40.043018 -173.16777 9012606
-3.0681036 -40.180874 -173.01724 9077372
-2.0310323 -40.152664 -172.9194 7892326
-0.99521804 -40.125736 -172.82112 9405307
-0.012550116 -40.050011 -172.74637 8814712
0.98407197 -40.136868 -172.61043 10327435
1.8982632 -40.057598 -172.54416 8419698
2.9294789 -40.035885 -172.44447 8157553
3.9597123 -40.015404 -172.34448 10262155
4.9872522 -40.201828 -172.16876 10655886
6.0170412 -40.197071 -172.12447 7959144
6.8423929 -40.204769 -172.13402 8090474
7.7913837 -40.255825 -172.12943 8813686
8.9041491 -40.433617 -172.08238 9537409
45.050873 -40.521183 -167.02992 9734529
45.748413 -40.135685 -167.62759 8879478
46.629066 -40.003502 -167.30367 8879478
47.518681 -39.931755 -166.93959 7827302
48.606895 -39.759583 -166.66801 8814709
49.184647 -39.742256 -166.4248 9406590
-54.460201 -39.12085 -178.65404 7564651
-53.647614 -39.346638 -178.59857 8223342
-52.555779 -39.218933 -178.53539 8815220
