# .PCD v0.7 - Point Cloud Data file format
VERSION 0.7
FIELDS x y z rgb
SIZE 4 4 4 4
TYPE F F F U
COUNT 1 1 1 1
WIDTH 1170
HEIGHT 1
VIEWPOINT 0 0 0 1 0 0 0
POINTS 1170
DATA ascii
-114.00581 -58.626617 -99.258797 7565675
-180.52414 -58.132713 -23.599085 8353134
-113.60589 -58.482029 -100.84264 10853518
-112.81811 -58.388401 -101.36489 16247774
-112.02873 -58.295109 -101.88142 10326922
-111.39616 -58.220638 -102.29116 7366752
-110.95285 -58.073944 -103.86308 9670020
-110.15127 -57.980957 -104.36436 10064779
-109.35204 -57.890266 -104.86369 7696748
-108.79946 -57.783363 -105.85049 8288116
-108.2234 -57.668034 -106.81657 8025201
-180.88075 -57.012352 -22.885828 9865600
-180.98065 -56.89695 -23.658587 8089705
-107.39792 -57.569981 -107.28621 6510930
-106.73671 -57.491806 -107.65782 6510930
-106.37829 -57.357323 -109.11114 9604483
-105.37437 -57.240089 -109.65525 10262414
-104.70435 -57.162197 -110.01394 7565675
-104.48452 -57.045265 -111.37327 9537916
-103.46786 -56.928482 -111.8987 10392709
-102.61983 -56.831512 -112.33061 10590088
-102.54285 -56.732002 -113.60227 9011579
-101.68555 -56.634995 -114.02503 9011579
-181.25456 -55.8536 -22.214762 10062978
-181.27211 -55.97208 -23.030428 10260101
-101.1708 -56.576939 -114.27601 8682867
-100.82749 -56.538326 -114.44222 11380124
-100.55414 -56.417591 -115.79729 11380124
-99.513405 -56.301723 -116.28454 9538691
-98.819168 -56.22477 -116.6053 7038307
-98.552269 -56.120907 -117.99679 8747889
-97.533257 -56.024635 -118.50517 8550513
-96.582504 -55.868267 -120.2595 11905695
-95.541908 -55.767319 -120.73877 8945272
-95.248909 -55.67234 -122.15976 7761253
-94.898132 -55.638603 -122.31563 7761253
-181.55066 -55.036388 -22.17708 9405564
-181.58766 -55.072132 -22.848139 9734014
-94.371758 -55.588039 -122.5478 8287342
-93.669518 -55.520813 -122.85427 7892584
-93.172859 -55.40696 -124.34988 8287342
-92.441139 -55.32671 -124.61829 8682356
-91.688568 -55.234314 -124.85571 7367008
-91.342484 -55.13501 -126.27301 9603202
-90.392754 -55.018951 -126.55693 5920074
-89.834908 -54.894173 -128.02988 6840663
-88.876541 -54.777905 -128.29913 10261385
-88.48838 -54.673939 -129.71696 14340802
-181.84084 -54.114075 -21.545481 11510938
-181.87834 -54.148727 -22.217051 9734788
-87.521629 -54.557373 -129.97227 6511954
-87.113213 -54.451195 -131.39084 6511954
-86.333153 -54.357655 -131.5844 7432288
-85.119606 -54.155571 -133.18817 7564393
-84.333488 -54.061943 -133.36839 8616566
-83.881142 -53.951103 -134.78337 8616566
-83.08844 -53.857189 -134.95335 7038307
-82.617668 -53.744331 -136.37 7038307
-82.018471 -53.673702 -136.48973 13484987
-182.26671 -52.934345 -21.468775 10721424
-182.19373 -53.248898 -22.032648 10129545
-81.419624 -53.603264 -136.60754 16774119
-81.32943 -53.53532 -137.94717 9735043
-80.524475 -53.440952 -138.09572 7037274
-80.016365 -53.323959 -139.51492 10260873
-79.205391 -53.229397 -139.65292 8617334
-78.678612 -53.110256 -141.073 7039331
-77.861771 -53.01556 -141.20035 8682099
-77.321877 -52.898125 -142.63136 10458505
-76.50843 -52.809555 -142.76501 9669250
-75.957359 -52.695324 -144.21158 6511962
-75.547417 -52.650963 -144.27374 6511962
-182.52745 -52.071831 -20.735041 8616307
-182.64774 -51.882332 -21.417902 9603201
-74.93309 -52.584469 -144.36507 7761513
-74.154915 -52.445904 -145.83919 8484977
-73.330009 -52.357048 -145.95024 11906725
-72.737289 -52.238644 -147.39554 11577243
-71.90654 -52.149731 -147.4957 9209467
-71.294731 -52.029266 -148.94223 9734528
-70.248581 -51.862423 -150.4388 8484464
-69.409149 -51.77528 -150.52528 9010808
-68.818321 -51.692856 -152.10092 9602945
-182.94853 -50.912228 -20.693659 8616307
-182.88101 -51.204517 -21.221811 8616307
-67.983917 -51.613968 -152.20111 11378324
-67.582481 -51.549381 -153.75888 8616819
-66.741295 -51.469975 -153.84836 10523529
-66.322128 -51.403679 -155.41536 6511954
-65.474228 -51.323807 -155.49379 6511954
-64.823441 -51.235584 -157.08742 8616819
-63.968975 -51.15535 -157.15414 8090987
-62.866177 -51.024731 -158.77988 10063751
-61.525009 -50.871773 -160.42027 7564651
-60.874729 -50.811039 -160.45229 8617592
-60.158932 -50.716621 -162.05841 10853012
-59.503887 -50.655613 -162.08182 9143163
-183.21336 -50.030102 -19.918825 8089963
-183.25252 -50.060883 -20.593744 8089963
-58.987877 -50.579529 -163.68854 9340289
-58.327831 -50.518246 -163.70419 8419702
-56.908451 -50.35828 -165.33165 9143419
-55.686684 -50.216698 -166.95744 9472640
-54.217957 -50.05217 -168.58295 12431013
-53.098816 -49.855247 -169.97263 8155752
-183.5415 -49.14035 -19.954569 9997958
-183.51192 -49.403404 -20.846796 8089963
-52.305576 -49.593838 -171.02219 8682608
-51.715282 -49.127853 -171.53622 7959143
-50.97044 -48.741219 -171.79449 9011320
-184.0899 -47.561707 -19.565187 10853521
-183.89299 -48.172081 -19.917955 9735298
-51.694286 -48.366615 -171.9567 7103835
-51.054771 -47.991356 -172.07321 9274493
-184.33653 -46.892784 -19.591417 8682867
-51.043724 -47.276325 -172.33421 7498337
-50.25703 -46.952843 -172.41113 7761509
-184.58347 -46.223358 -19.61764 8682867
-50.984562 -46.57856 -172.5864 7103835
-50.45356 -45.967014 -172.81891 7827304
-50.275208 -45.031883 -173.23079 9537921
-49.623341 -44.770134 -173.31319 10854036
-49.643208 -44.500027 -174.15964 6511954
-48.982327 -44.468826 -174.2186 9406590
-48.53944 -44.349274 -175.85648 10590612
-47.727589 -44.258556 -176.20535 9670023
-47.03336 -44.069023 -176.43317 8814971
-47.130795 -43.127537 -176.79051 8617847
-46.945347 -42.27187 -177.08482 7433313
-46.482044 -41.833775 -177.19455 9735555
-46.350475 -40.975315 -177.49588 7104098
-46.330097 -40.248985 -177.76093 7301220
-45.8969 -39.887505 -177.84584 7564392
-46.42915 -39.266548 -178.13354 7038049
-45.729343 -39.216202 -178.07425 7301220
-45.782597 -38.208069 -178.4512 7959149
-45.138012 -38.075317 -178.42842 5920074
-45.691151 -37.232475 -178.80017 8813683
-45.160427 -37.049667 -178.80838 8551024
-45.097248 -36.090267 -179.15445 8813683
-44.417393 -35.825752 -179.17619 7563619
-45.097538 -35.280827 -179.45236 8813683
-44.480526 -35.168098 -179.42526 8813683
-44.565159 -34.28989 -179.7579 7958376
-44.41489 -33.395901 -180.07024 8089963
-43.916683 -32.849922 -180.21573 9011065
-43.83659 -32.033108 -180.50742 9012860
-43.763737 -31.220451 -180.83134 8749945
-43.49548 -30.921242 -180.98709 8092016
-43.575642 -30.505585 -181.31393 8092016
-170.4164 -66.633087 -36.271015 9537665
-170.08115 -66.588577 -37.273426 8089963
-171.75349 -65.73877 -34.909782 9866627
-171.41972 -66.13588 -35.689728 11510426
-171.10355 -66.405045 -36.414227 8089963
-169.72034 -66.51857 -38.05426 9669507
-168.03516 -66.440666 -38.749016 8682867
-167.76259 -66.388832 -39.326553 15722454
-167.39655 -66.319901 -40.094479 9143934
-166.9346 -66.233986 -41.050602 12300451
-166.5621 -66.165443 -41.812977 10129030
-165.0845 -66.125618 -42.08411 10129030
-164.61638 -66.040962 -43.024406 9011061
-164.14401 -65.956543 -43.960972 9735297
-163.66676 -65.87249 -44.89341 9537661
-161.83186 -65.769066 -45.869804 9209467
-161.34877 -65.686264 -46.786499 8287849
-160.82553 -65.589088 -47.689045 8813936
-172.15149 -64.882896 -34.040741 8090987
-172.08986 -64.921982 -34.891457 8090987
-160.26921 -65.480652 -48.578346 8419951
-159.70938 -65.372589 -49.463383 10853012
-159.37181 -65.308014 -49.992218 9932681
-157.70424 -65.223434 -50.522617 8814715
-157.25369 -65.138596 -51.216873 10064779
-156.68724 -65.032852 -52.08036 8222580
-156.11749 -64.927597 -52.939617 9208443
-155.54802 -64.824509 -53.79528 11182745
-155.00734 -64.735069 -54.65781 11774623
-154.47327 -64.650513 -55.519569 10985622
-172.4651 -64.014992 -34.102654 9142905
-172.4039 -64.053528 -34.954849 9866627
-152.39664 -64.501801 -56.655907 7300446
-151.96492 -64.435104 -57.331745 6510930
-151.42151 -64.351997 -58.172546 7563618
-150.87444 -64.269073 -59.009457 8419440
-150.32307 -64.186447 -59.841713 10063750
-149.76805 -64.104012 -60.670013 7563619
-149.20892 -64.021851 -61.493748 9208442
-148.64609 -63.939896 -62.313461 10262156
-146.69057 -63.817108 -63.171543 8815222
-146.12297 -63.736412 -63.97456 9208443
-145.43695 -63.639774 -64.932564 9208443
-144.9767 -63.575481 -65.56797 8091248
-172.83926 -63.109852 -33.311363 8879478
-172.77852 -63.14682 -34.164406 9405821
-144.74561 -63.54335 -65.88456 8091248
-144.28149 -63.479347 -66.515335 9143419
-143.69853 -63.39954 -67.300362 9143419
-143.11166 -63.319981 -68.080772 8616563
-142.5215 -63.240669 -68.857071 9077886
-141.90573 -63.151989 -69.618164 7696235
-141.24174 -63.043571 -70.352852 8090992
-140.57169 -62.934231 -71.080528 9538176
-139.76399 -62.803402 -71.947266 9340797
-139.08803 -62.694756 -72.664078 8089963
-138.5452 -62.608139 -73.233688 11380380
-173.44769 -61.556236 -32.561859 9537406
-173.23091 -62.025181 -33.386703 9142649
-173.092 -62.278435 -34.226074 9734529
-138.13701 -62.543293 -73.658836 11380380
-137.72784 -62.478638 -74.082001 10261643
-137.0437 -62.371136 -74.783104 12367271
-136.35712 -62.263973 -75.479454 12367016
-135.66791 -62.157223 -76.170372 7827304
-134.97632 -62.050812 -76.856476 8617075
-134.2821 -61.944809 -77.537178 8617075
-133.58563 -61.839108 -78.213127 7827822
-132.8159 -61.610157 -80.576515 8616310
-174.00441 -60.719093 -31.797594 7563619
-173.85335 -60.842697 -32.637299 9537406
-173.55943 -61.148346 -33.23288 10524299
-132.29449 -61.548401 -81.135315 9406078
-131.50902 -61.456013 -81.968254 7958888
-130.82159 -61.365448 -82.638954 8748406
-130.08847 -61.255157 -83.277275 10261132
-129.35309 -61.145115 -83.910545 8813686
-128.61537 -61.035355 -84.537949 8748149
-127.72723 -60.904064 -85.283867 9208700
-126.98483 -60.794903 -85.899666 9143166
-126.60249 -60.619263 -87.650246 5920074
-175.30984 -59.597141 -30.288424 8090987
-175.07362 -59.689442 -31.118319 9406077
-174.58794 -60.019554 -31.830233 8221548
-174.25108 -60.355892 -32.493446 8550512
-126.14919 -60.553711 -88.013023 5920074
-125.39217 -60.44471 -88.613342 7694947
-124.6333 -60.336044 -89.208458 8484205
-123.87238 -60.227661 -89.797791 7497568
-123.10973 -60.119572 -90.382027 10459017
-122.96592 -59.983921 -91.875 10459017
-122.34624 -59.897415 -92.334343 10984591
-121.4149 -59.767979 -93.017227 9339254
-120.62753 -59.655861 -93.573242 8090987
-180.38419 -58.84277 -25.203981 8681835
-179.77203 -59.173504 -25.857088 9866113
-179.35449 -59.247807 -26.7558 8419952
-177.62314 -59.24799 -28.039057 11576474
-177.45573 -59.249603 -29.110422 8616815
-176.15509 -59.34317 -29.557009 8090987
-176.05908 -59.359573 -30.414759 9143675
-119.94016 -59.538692 -93.970291 8813945
-119.63904 -59.347366 -95.366486 8813942
-118.63856 -59.192791 -95.980774 8813936
-117.86996 -59.097256 -96.539734 5920074
-117.40868 -59.040386 -96.873146 7563619
-117.0527 -58.897095 -98.482048 10591124
-116.11595 -58.783356 -99.136108 9078143
-115.33346 -58.688889 -99.675514 14076861
-114.70618 -58.613487 -100.10294 10788499
-180.71983 -57.753643 -24.363207 8681835
-180.64601 -58.089344 -25.018709 8747629
-114.23506 -58.557037 -100.42142 9736070
-114.30403 -58.46777 -101.70005 7038307
-113.66779 -58.392349 -102.11938 8551287
-112.8711 -58.298344 -102.63857 7104098
-111.91306 -58.185951 -103.25468 9275005
-111.62701 -58.05677 -104.73772 10064782
-110.97961 -57.981861 -105.14011 8618359
-110.18057 -57.894371 -105.64906 9144702
-109.37729 -57.805729 -106.15032 10328462
-109.21483 -57.692009 -107.52657 10459281
-108.71514 -57.632671 -107.81094 9011838
-181.01662 -56.935474 -24.32918 8945008
-181.05243 -56.97459 -25.000628 8945008
-108.21508 -57.573425 -108.09315 9208958
-107.38078 -57.47504 -108.55905 8419183
-107.02056 -57.339462 -110.02528 8419952
-106.34506 -57.260708 -110.38968 10262414
-105.49987 -57.16259 -110.83995 12038310
-104.93947 -57.005466 -112.38995 14604230
-104.42639 -56.946674 -112.65339 9208435
-103.57067 -56.848877 -113.08791 9143675
-102.97911 -56.689991 -114.62968 10984852
-102.45995 -56.631382 -114.8835 8024943
-181.30861 -56.009247 -23.701365 9471355
-181.34482 -56.047226 -24.373217 9997702
-101.94051 -56.572865 -115.13551 13023917
-101.42079 -56.514542 -115.3854 14077637
-101.14645 -56.39283 -116.75314 15393498
-100.27118 -56.295567 -117.16 8550767
-99.400658 -56.201603 -117.56783 9011318
-99.162392 -56.113258 -119.00761 9011318
-98.305229 -56.032448 -119.43253 8353390
-97.44706 -55.951714 -119.8522 9537150
-97.175484 -55.858467 -121.28584 10984593
-96.300201 -55.773743 -121.68623 8222060
-95.599449 -55.706074 -122.00291 7761253
-95.300049 -55.609947 -123.43485 9209467
-181.62447 -55.108704 -23.520067 10260617
-181.66115 -55.145882 -24.192797 9734529
-94.945801 -55.576103 -123.58955 8287342
-94.236946 -55.508312 -123.89612 8024170
-93.527687 -55.440716 -124.19955 8287342
-93.20002 -55.342678 -125.6299 8945528
-92.292526 -55.251301 -125.98339 8353647
-91.753044 -55.127693 -127.47361 9012344
-90.985573 -55.034164 -127.69886 7301726
-89.843086 -54.837833 -129.34874 8945782
-89.068771 -54.744141 -129.56082 15722454
-88.675072 -54.639099 -130.99127 12959151
-181.91563 -54.183975 -22.889345 9734788
-182.01665 -54.066467 -23.666361 9537408
-88.284477 -54.592022 -131.09259 7958376
-87.698738 -54.521557 -131.24268 6511954
-87.481667 -54.437889 -132.62534 14078918
-86.496925 -54.320015 -132.86366 9735560
-85.468384 -54.13966 -134.43234 8353652
-84.674377 -54.045223 -134.61017 8616566
-84.01757 -53.909698 -136.0817 7038307
-83.217392 -53.815159 -136.24786 7038307
-82.740257 -53.701027 -137.67719 16776175
-82.135323 -53.629879 -137.79446 13683392
-182.34331 -53.014412 -22.887445 9011064
-81.732246 -53.58255 -137.87125 9735043
-81.438049 -53.490051 -139.26343 7037274
-80.625328 -53.395031 -139.40854 7037274
-80.110786 -53.276749 -140.84016 10260873
-79.292061 -53.181488 -140.97461 7828332
-78.758682 -53.061089 -142.40715 8090985
-77.934486 -52.966007 -142.53165 11181970
-77.599205 -52.873669 -143.95331 7564643
-76.77787 -52.784424 -144.08406 7169889
-76.221588 -52.669075 -145.54599 9734788
-75.807777 -52.624306 -145.60664 9734788
-182.68593 -51.915459 -22.092104 10590095
-182.72395 -51.949322 -22.767344 8879479
-75.187424 -52.557297 -145.69569 8616307
-74.81852 -52.462238 -147.12952 10261382
-73.985298 -52.372601 -147.23862 8682865
-72.76104 -52.185886 -148.77728 8353902
-71.514351 -51.996986 -150.31207 9010807
-70.071297 -51.811558 -151.94337 8550514
-68.84597 -51.668736 -153.6171 9340801
-183.01439 -51.025684 -22.131922 9011321
-68.213997 -51.609032 -153.68932 8616819
-67.596077 -51.523724 -155.28943 6511954
-66.958855 -51.463608 -155.35342 6511954
-65.679146 -51.315971 -157.01599 8616819
-64.158829 -51.145828 -158.69263 9932678
-62.827564 -50.9935 -160.3495 9736326
-62.1759 -50.932613 -160.38617 9736326
-61.690266 -50.85936 -161.99445 9736326
-60.814754 -50.777729 -162.03241 9735043
-60.310326 -50.702576 -163.65021 7564643
-59.869171 -50.661499 -163.66396 7564643
-183.29146 -50.092167 -21.269342 8353135
-183.32155 -50.175282 -22.07934 8485233
-59.42831 -50.62051 -163.67679 9735043
-58.238842 -50.481678 -165.31499 10260875
-57.027004 -50.340694 -166.95677 9472640
-55.776741 -50.183559 -168.55493 10853779
-54.892136 -50.11441 -168.59268 11181460
-54.398914 -49.928123 -169.82693 9669505
-183.6837 -49.059795 -21.46451 8419184
-183.58995 -49.466473 -22.201296 8090987
-54.560055 -49.599739 -170.32388 8682867
-53.804386 -49.316048 -170.77823 7696228
-52.968269 -49.068851 -171.22195 7564385
-52.277126 -48.809273 -171.65521 6511954
-184.09718 -47.755749 -20.613779 8682867
-183.98807 -48.167713 -21.170504 8287854
-53.239243 -48.198109 -171.5563 6906712
-52.359982 -48.055191 -171.92238 8090728
-184.39008 -46.931221 -20.496546 8485232
-184.36096 -47.193893 -21.393381 8090219
-53.234814 -47.508961 -171.82877 8682608
-52.511929 -47.138218 -172.22931 10261382
-51.861526 -46.860123 -172.50201 6511954
-184.78773 -45.956902 -19.939302 8616817
-184.73624 -46.127323 -20.684992 8287853
-52.568085 -46.226582 -172.59216 11380380
-51.732296 -46.083717 -172.81863 7498598
-185.29767 -45.264618 -19.842623 8682351
-51.847664 -45.255051 -173.19711 7433064
-51.11837 -45.025284 -173.28088 7301478
-51.187511 -44.574203 -174.01764 7038307
-50.525311 -44.542248 -174.07922 8353648
-50.012638 -44.350246 -175.4371 6511954
-49.171177 -44.349697 -175.67819 10130313
-48.521717 -44.046314 -176.60703 10590612
-48.443516 -43.307377 -176.87029 10524816
-47.937023 -42.899952 -176.96396 10064265
-48.473408 -42.283348 -177.25049 6511954
-47.940029 -41.976929 -177.30396 7499105
-47.74155 -41.169403 -177.57907 7499105
-47.207561 -40.864441 -177.63196 6511962
-47.743183 -40.244537 -177.91965 7762277
-47.126675 -40.124989 -177.89514 7169891
-47.294697 -39.256088 -178.23361 8287856
-47.125828 -38.214348 -178.59821 7301214
-46.433598 -38.055279 -178.57983 8682869
-46.552227 -37.114616 -178.93918 10459530
-46.50407 -36.182903 -179.27676 10854288
-45.799618 -36.136246 -179.21558 8813683
-45.985226 -35.219749 -179.57355 9866881
-45.85503 -34.211521 -179.93015 7629669
-45.097828 -33.658497 -180.04948 7563619
-45.260639 -32.958729 -180.32513 7103843
-45.149273 -32.152779 -180.60934 7433064
-45.312069 -31.450346 -180.8858 7038307
-44.635883 -31.196228 -180.94658 9407873
-44.535137 -30.44923 -181.464 10263180
-43.966389 -29.914652 -181.96567 9144702
-171.74146 -65.643822 -36.331886 9537150
-171.33514 -66.042976 -37.018204 9537664
-170.92407 -66.285431 -37.814442 8813685
-170.01747 -66.422699 -38.549442 9669507
-169.17334 -66.413963 -39.220592 9735298
-168.80493 -66.344437 -39.995064 9143934
-168.33992 -66.257774 -40.959408 9143934
-167.96481 -66.188705 -41.72831 10787985
-166.3746 -66.131271 -42.193127 10129030
-165.99709 -66.062943 -42.951363 9209467
-165.52156 -65.977859 -43.895889 10064520
-165.0412 -65.893097 -44.836166 9867140
-163.18535 -65.788696 -45.822117 8682351
-162.69908 -65.705154 -46.74651 9735037
-162.18544 -65.612595 -47.660473 8090470
-171.99641 -64.982994 -36.169174 11445144
-171.93343 -65.025269 -37.02206 9537150
-161.73727 -65.524986 -48.378494 6643539
-161.17365 -65.415985 -49.271671 8749178
-160.72035 -65.329132 -49.983181 9932681
-159.0327 -65.243607 -50.5191 9998730
-158.57872 -65.158012 -51.219193 10722451
-158.12248 -65.072716 -51.916328 9472387
-157.54887 -64.966515 -52.783432 9208443
-156.996 -64.870605 -53.654213 10195594
-156.46324 -64.785019 -54.528526 9866373
-155.92659 -64.699684 -55.398891 10195594
-155.6026 -64.648582 -55.919029 11182745
-154.04337 -64.582977 -56.206223 10262415
-172.35748 -64.08342 -35.594673 10260872
-172.29506 -64.124336 -36.448524 9142393
-153.82738 -64.549309 -56.548424 11906725
-153.39311 -64.482063 -57.230488 9670535
-152.84706 -64.39817 -58.079662 8089962
-152.29663 -64.31456 -58.924339 8879990
-151.74257 -64.23114 -59.764927 7893608
-151.18422 -64.14801 -60.600956 9603712
-150.62222 -64.065071 -61.432945 10063750
-150.16969 -63.998917 -62.095242 10590353
-148.07925 -63.858223 -63.128551 8552306
-147.50887 -63.776836 -63.939533 8420720
-146.93436 -63.695606 -64.745972 8814453
-146.35616 -63.614525 -65.548241 8091248
-172.74136 -63.044109 -35.511078 8814199
-172.54602 -63.461979 -36.284279 8089963
-145.77403 -63.533669 -66.345818 8419956
-145.07074 -63.437031 -67.297279 9143420
-144.48088 -63.3568 -68.085495 8089963
-143.88713 -63.276791 -68.869049 8419699
-143.29013 -63.197075 -69.648491 7038307
-142.67729 -63.11232 -70.41732 8090992
-142.01053 -63.005451 -71.15686 9670021
-141.33261 -62.89539 -71.886955 8485491
-140.65208 -62.785702 -72.612228 7630187
-139.96866 -62.676365 -73.331932 10655889
-139.42021 -62.589169 -73.904381 10261643
-173.15346 -62.023483 -34.796104 11247766
-173.15683 -61.901073 -35.541748 9998215
-139.14526 -62.545631 -74.189285 10261643
-138.59396 -62.45879 -74.756233 8089963
-137.90273 -62.350552 -75.460808 10919319
-137.20882 -62.242744 -76.159889 7498857
-136.51251 -62.135262 -76.854149 9209215
-135.81358 -62.028175 -77.542885 7563874
-134.97169 -61.900192 -78.362816 9735812
-134.26756 -61.793877 -79.040565 8814458
-133.59373 -61.703094 -79.732185 8616310
-133.07573 -61.641083 -80.295944 8616310
-173.74751 -60.889519 -33.919914 12234659
-173.52766 -61.115105 -34.746666 11971488
-131.66068 -61.358028 -83.383369 9078137
-130.94431 -61.258301 -84.040001 8813686
-130.20088 -61.1474 -84.675468 9997960
-129.45538 -61.036823 -85.305809 7893352
-128.70749 -60.92651 -85.930267 8287854
-127.80733 -60.794598 -86.672523 9077369
-127.05491 -60.684917 -87.285233 8090986
-175.03349 -59.644779 -32.636536 8550512
-174.5914 -59.946991 -33.282204 9866370
-174.21033 -60.315952 -34.008858 13221553
-126.96426 -60.551521 -88.801231 8090986
-126.35238 -60.463669 -89.2836 7958374
-125.43239 -60.332218 -90.000854 10325894
-124.66371 -60.223057 -90.592705 8155499
-123.89301 -60.114216 -91.17865 9011318
-123.2752 -60.027287 -91.643867 10459017
-123.12315 -59.890343 -93.1455 10524297
-122.33913 -59.781647 -93.71685 10128771
-121.38441 -59.645973 -94.386314 7300704
-180.41219 -58.770424 -26.331995 10260872
-180.26567 -58.900364 -27.258516 8616819
-179.19438 -59.249451 -27.837572 9208435
-179.06215 -59.250751 -28.702272 9208435
-177.28145 -59.251209 -30.180666 8814198
-177.138 -59.252483 -31.036165 10261132
-175.91136 -59.385372 -31.701357 9340286
-175.81049 -59.403336 -32.559128 9537406
-120.51855 -59.499599 -94.884903 9734788
-120.391 -59.337254 -96.195068 7038307
-119.54342 -59.204811 -96.704155 7695973
-118.76356 -59.106598 -97.262985 7103835
-117.98695 -59.011177 -97.820213 6643543
-117.62713 -58.866661 -99.44178 8814715
-116.99633 -58.79031 -99.879028 7630443
-116.20657 -58.695087 -100.42124 8618104
-115.57339 -58.619144 -100.85095 8880760
-180.77116 -57.916908 -25.85029 10129286
-180.70605 -57.926487 -26.508333 8747887
-180.55063 -58.156349 -27.153063 8616819
-115.09788 -58.562283 -101.17104 8090987
-114.78049 -58.524483 -101.38331 8090987
-114.52871 -58.396374 -102.88387 7038307
-113.72456 -58.301678 -103.40568 7038307
-112.75761 -58.188381 -104.02496 9735812
-112.11192 -58.113064 -104.4337 10262156
-111.98358 -58.002228 -105.82644 11117468
-111.0225 -57.899776 -106.44711 8815737
-110.04665 -57.791142 -107.04811 9078398
-109.88419 -57.676464 -108.43726 7170141
-109.5479 -57.6366 -108.62736 7170141
-181.08803 -57.014519 -25.672983 8813422
-181.00975 -57.108864 -26.47854 8287336
-109.04319 -57.57695 -108.91088 8420208
-108.20109 -57.47776 -109.3789 8748917
-107.52678 -57.398678 -109.74977 7564643
-107.32957 -57.281612 -111.13376 8157038
-106.30605 -57.162968 -111.67738 7565675
-105.45218 -57.064404 -112.1244 12959154
-105.22599 -56.945374 -113.50623 12169640
-104.3624 -56.846855 -113.94254 10788243
-103.49803 -56.748707 -114.37366 10984852
-103.24461 -56.627689 -115.75351 7038307
-181.38086 -56.085793 -25.045862 9208182
-181.39114 -56.172665 -25.849703 9076854
-102.37079 -56.529572 -116.17374 9143166
-101.67129 -56.451366 -116.50636 16775151
-101.39408 -56.329334 -117.88624 8682867
-100.36025 -56.22686 -118.40292 9143161
-99.676064 -56.161861 -118.74993 9735812
-99.434273 -56.072929 -120.20276 7760222
-98.395271 -55.975292 -120.71056 8089963
-97.700172 -55.909466 -121.04293 9537150
-97.422722 -55.814377 -122.48689 8682098
-96.361938 -55.712006 -122.96475 7958888
-95.654167 -55.64399 -123.27911 9209467
-181.76442 -55.048233 -25.098978 9537149
-181.6595 -55.456657 -25.753847 8090214
-95.348236 -55.546871 -124.72214 9076857
-94.274635 -55.444584 -125.18018 8484721
-93.947731 -55.345779 -126.62663 7564651
-93.224159 -55.277481 -126.92285 7564651
-92.318611 -55.191978 -127.28764 9472899
-91.964531 -55.090858 -128.73259 11512735
-91.005234 -54.978859 -129.02367 9802117
-90.630104 -54.875153 -130.46947 14078918
-89.847801 -54.780556 -130.68082 10261385
-89.065872 -54.686176 -130.88882 12959151
-89.05928 -54.627224 -132.23019 9933702
-182.15395 -53.811802 -24.258318 8879479
-182.10857 -54.071468 -24.922625 9339771
-88.664711 -54.579838 -132.33043 12039079
-88.073067 -54.508816 -132.47897 12039079
-87.456085 -54.376629 -133.97177 10065033
-86.660591 -54.28167 -134.15872 8682616
-86.222008 -54.17107 -135.60475 6511954
-85.41983 -54.075848 -135.78137 7104097
-84.618187 -53.98082 -135.95462 7038307
-84.15374 -53.867615 -137.39513 9669252
-83.345711 -53.772266 -137.558 16776175
-83.066093 -53.680862 -138.96149 10590609
-182.48279 -52.921719 -24.30221 8879479
-82.455116 -53.609207 -139.07663 7563619
-82.048073 -53.56147 -139.15219 7037274
-81.340691 -53.420052 -140.63124 7827046
-80.72541 -53.348328 -140.73692 9735043
-79.997551 -53.204735 -142.21451 7827813
-79.377846 -53.132839 -142.31203 8617328
-78.837593 -53.011154 -143.7578 10458505
-78.215874 -52.940804 -143.85236 10458505
-77.464539 -52.80378 -145.35831 8616822
-76.842812 -52.736378 -145.45306 8616822
-182.76176 -51.983776 -23.443232 7958377
-182.79048 -52.070694 -24.253397 8418928
-76.070541 -52.597179 -146.95808 9867401
-75.444313 -52.52961 -147.04474 11905692
-74.230705 -52.343315 -148.60101 9866881
-73.630051 -52.222652 -150.08192 9143416
-72.782951 -52.132175 -150.1767 8090987
-71.744736 -51.970284 -151.71902 9339771
-70.907555 -51.890892 -151.83371 8681843
-70.322639 -51.80846 -153.43979 7828590
-69.478508 -51.728539 -153.54285 8420470
-68.872192 -51.64415 -155.15436 9734788
-183.09079 -51.09296 -23.485483 8156012
-183.05904 -51.362137 -24.378679 10261132
-68.233925 -51.583893 -155.2229 9142907
-66.964508 -51.436886 -156.90164 7893351
-65.670067 -51.287666 -158.57939 9471867
-65.02195 -51.226807 -158.62967 9932161
-64.568565 -51.156506 -160.241 10261899
-63.69746 -51.074955 -160.2973 13551549
-63.005981 -50.982262 -161.92981 8090993
-62.347775 -50.920765 -161.96342 8617592
-61.193893 -50.784866 -163.61917 7367008
-60.017651 -50.646885 -165.27908 10261132
-183.45116 -49.933945 -22.633348 8617075
-183.39854 -50.241413 -23.434992 8814198
-59.349926 -50.58485 -165.29443 10260875
-58.370766 -50.465145 -166.94702 10589840
-57.074631 -50.260136 -168.39856 9143675
-56.713047 -50.000225 -169.32602 9143422
-55.684818 -49.988125 -169.62779 8880249
-183.80435 -48.988831 -22.73311 8748405
-183.66731 -49.531952 -23.559198 8617075
-55.837383 -49.36338 -170.08472 9143420
-55.076653 -49.086472 -170.52197 9406590
-54.309887 -48.792706 -170.94533 8682867
-184.15334 -47.894306 -22.044336 8748405
-184.17384 -48.007206 -22.872561 8814453
-55.324402 -48.21291 -170.81557 8682867
-54.38361 -48.146652 -171.17319 8222316
-184.49165 -46.950043 -21.949503 8617075
-184.44014 -47.255177 -22.755144 9209467
-55.272129 -47.495293 -171.11609 10459278
-54.558723 -47.327087 -171.43365 9735298
-53.609375 -47.075035 -171.86736 8946038
-184.85585 -46.011238 -21.300013 7695461
-184.81013 -46.184578 -22.04738 8419440
-54.58744 -46.426964 -171.80267 9736329
-53.915619 -46.219128 -172.1366 10262414
-53.021873 -45.906548 -172.59303 10525329
-186.07936 -44.634232 -19.772799 9208435
-185.69055 -44.950939 -20.457186 8287340
-185.41719 -45.250923 -21.288004 8287084
-53.916626 -45.37265 -172.54779 9144448
-53.200081 -45.206692 -172.8719 8684154
-52.53529 -44.9562 -173.21945 8486007
-186.97295 -44.355705 -19.864328 9208435
-52.701557 -44.622204 -173.75954 7038307
-51.867493 -44.521561 -174.26315 7301478
-51.272564 -44.351067 -175.06784 7433064
-50.642941 -44.350662 -175.25381 6511954
-49.948978 -43.946327 -176.80246 9274493
-49.245937 -43.887085 -176.74609 8353647
-49.785839 -43.271481 -177.0327 10261132
-49.352291 -42.905155 -177.11932 9208700
-49.336262 -42.176456 -177.38576 7432544
-49.207836 -41.313091 -177.68921 6906712
-48.58923 -41.191029 -177.66533 7762277
-48.692265 -40.22184 -178.03352 9539200
-48.525043 -39.110783 -178.42386 9209467
-47.879864 -38.930984 -178.41833 7104347
-48.070164 -38.016354 -178.77606 6511954
-47.82687 -37.158009 -179.06491 8354156
-47.142773 -36.889614 -179.08765 9012085
-48.131382 -36.514061 -179.33575 9012085
-47.445866 -36.245892 -179.35825 14077885
-47.257931 -35.180099 -179.72964 9341050
-47.412487 -34.245914 -180.09061 6972762
-46.725483 -33.980438 -180.11194 7104094
-46.577885 -33.082207 -180.42615 7893611
-46.500973 -32.261292 -180.7197 9472642
-45.977985 -31.93383 -180.78198 9670021
-46.732685 -31.531584 -181.01401 7038307
-45.914646 -31.222651 -181.07281 8090992
-45.970425 -30.41773 -181.64803 7103840
-45.315968 -30.179785 -181.80991 8222833
-44.736111 -29.754915 -182.26935 10263180
-44.289303 -29.416859 -183.28033 8682867
-171.57402 -65.698647 -37.811367 10261643
-171.35286 -65.913994 -38.41328 8484721
-170.89418 -66.151863 -39.134693 10261131
-170.2025 -66.357918 -39.886707 10261131
-169.76404 -66.282036 -40.865993 8617847
-167.77611 -66.154228 -42.11166 10787985
-167.39604 -66.085396 -42.876335 10393229
-166.91731 -65.999542 -43.828918 9209467
-166.4337 -65.914017 -44.777237 9209467
-164.55647 -65.808571 -45.772682 9537662
-164.06703 -65.724365 -46.705006 10457993
-163.56174 -65.635704 -47.630112 9471867
-163.22495 -65.570145 -48.174137 10261124
-171.88579 -65.057999 -37.662518 10984593
-171.82182 -65.102783 -38.517342 9603200
-162.9985 -65.5261 -48.535503 7367005
-162.54359 -65.438217 -49.255539 8025200
-162.08675 -65.350571 -49.973099 9012091
-160.49272 -65.285774 -50.337669 9932681
-160.03561 -65.199471 -51.044262 8354934
-159.46132 -65.091812 -51.923622 9011579
-158.90083 -64.991905 -52.803799 9603201
-158.36765 -64.904831 -53.689999 11051159
-157.93893 -64.835785 -54.395988 11445917
-157.39906 -64.749664 -55.274513 12498861
-155.27687 -64.597626 -56.437477 8618105
-172.32658 -63.938511 -37.106377 8089963
-172.19418 -64.22525 -37.599518 10655629
-172.07387 -64.438828 -38.355934 11378324
-154.84048 -64.529732 -57.126423 8618105
-154.29115 -64.445084 -57.983536 9144192
-153.73798 -64.360756 -58.83662 9340799
-153.1805 -64.276581 -59.685028 8156780
-152.61932 -64.192726 -60.529457 9275261
-152.05389 -64.109062 -61.369148 8551538
-151.59901 -64.042297 -62.038181 8090987
-149.82878 -63.949417 -62.590244 10590353
-149.48628 -63.900055 -63.083408 9670019
-148.91248 -63.817875 -63.902084 9736068
-148.33505 -63.735985 -64.71656 8815222
-147.75349 -63.654217 -65.526329 8091505
-147.28569 -63.588936 -66.171204 9143422
-172.68724 -62.996208 -36.80307 8156013
-172.56166 -63.204113 -37.70113 10063492
-147.05083 -63.556412 -66.492607 9143422
-146.57916 -63.491383 -67.132744 9866631
-145.98663 -63.410366 -67.929504 10261132
-145.39021 -63.329636 -68.721535 8485749
-144.79048 -63.249104 -69.509415 9735812
-144.187 -63.168941 -70.292534 7893614
-143.5802 -63.088951 -71.071564 9143678
-142.92345 -62.989033 -71.822876 9406846
-142.23828 -62.878216 -72.556709 8617077
-141.55013 -62.767765 -73.284897 9077373
-140.85948 -62.657692 -74.00827 9537667
-140.44383 -62.591843 -74.43972 10853012
-173.11044 -61.930599 -36.184891 9011579
-173.04808 -61.971046 -37.043228 7038307
-140.0271 -62.526089 -74.869217 9801092
-139.47008 -62.438709 -75.438988 10590353
-138.77136 -62.329739 -76.146378 9866888
-137.92966 -62.19952 -76.988533 7498857
-137.22551 -62.091373 -77.684837 9932937
-136.51881 -61.983711 -78.375465 9275521
-135.80977 -61.876381 -79.061256 9012606
-135.10208 -61.771198 -79.743874 10590867
-134.43343 -61.685188 -80.4459 10524048
-133.90997 -61.622791 -81.012138 12432042
-173.69408 -60.850304 -35.432961 7038307
-173.46373 -61.114761 -36.12748 7432807
-173.29904 -61.308441 -36.878357 7038307
-133.51611 -61.576099 -81.434898 16247774
-132.98903 -61.51395 -81.995667 11182486
-132.3277 -61.436413 -82.692726 9210491
-131.51028 -61.216625 -85.068474 9537409
-131.05916 -61.149601 -85.450722 9866374
-130.30542 -61.038261 -86.08316 9208956
-129.54967 -60.927101 -86.71048 8616819
-128.7917 -60.816265 -87.331841 9208700
-127.87939 -60.683701 -88.070457 8419951
-127.26963 -60.595463 -88.558609 8090986
-174.6263 -59.831497 -34.613274 9274488
-174.23573 -60.211514 -35.396103 8090476
-173.96584 -60.499561 -36.143105 7038307
-127.01608 -60.438641 -90.204521 7958120
-126.39626 -60.350372 -90.684128 8813171
-125.61987 -60.240353 -91.279198 7563619
-124.84155 -60.130592 -91.868324 7563619
-123.90524 -59.999363 -92.568222 9011318
-123.5926 -59.839249 -94.196838 9931136
-123.11718 -59.773636 -94.540161 9931136
-122.31853 -59.662155 -95.104095 7497568
-180.25252 -58.759014 -27.849611 9142904
-180.13347 -58.84396 -28.647242 9208435
-179.29897 -59.193214 -29.330309 10457990
-178.81982 -59.253021 -30.213907 9471611
-178.71233 -59.253986 -30.861109 9734788
-177.02724 -59.253437 -31.677279 8419696
-176.87621 -59.254704 -32.531448 7959401
-176.07547 -59.363438 -33.192337 8221804
-175.62811 -59.436508 -34.060646 8485229
-121.4576 -59.521347 -95.615379 7038307
-120.92425 -59.429184 -95.906471 7038307
-120.4633 -59.218437 -97.439514 7235683
-119.51233 -59.096771 -98.108162 10261132
-118.72808 -59.000713 -98.667671 10261132
-118.09939 -58.923996 -99.111298 8814715
-117.7292 -58.778168 -100.74136 7038307
-117.09119 -58.701427 -101.17686 8288112
-116.4521 -58.62487 -101.60885 9537918
-180.71162 -57.710869 -27.177416 8616819
-180.55592 -57.941479 -27.822214 9406079
-180.43681 -58.026188 -28.621042 7169884
-115.97218 -58.567566 -101.93066 8090987
-115.33118 -58.491386 -102.35622 8682869
-115.23883 -58.381313 -103.76395 10064268
-114.58932 -58.304977 -104.18298 8945785
-113.61343 -58.190845 -104.8054 8946301
-112.79866 -58.096043 -105.31823 12630450
-112.51844 -57.971775 -106.83712 12630450
-111.87582 -57.905216 -107.25595 7697259
-110.89194 -57.796341 -107.86098 8092016
-110.22034 -57.716324 -108.2461 9735812
-180.99675 -56.96648 -27.07136 9011320
-180.84669 -57.096428 -28.000856 9274493
-109.88241 -57.580452 -109.73967 5920074
-109.03241 -57.480541 -110.20983 9012089
-108.1815 -57.380939 -110.67476 10261899
-107.81197 -57.242966 -112.16316 15723486
-107.12311 -57.163326 -112.52599 9867657
-106.26125 -57.064011 -112.97501 11709087
-105.80293 -56.964417 -113.8503 12432552
-105.1647 -56.844826 -114.80872 10261899
-104.29234 -56.74593 -115.24159 8551283
-103.7686 -56.68676 -115.49872 9011579
-181.45622 -55.918606 -26.394831 6972503
-181.30164 -56.105259 -27.176569 6577747
-181.11952 -56.38142 -27.908892 8090475
-103.86369 -56.604134 -116.72021 8287859
-103.1581 -56.525124 -117.0572 8287859
-102.2756 -56.426582 -117.47379 9735555
-101.85206 -56.301842 -118.98676 8682867
-101.33478 -56.252705 -119.25095 8682867
-100.47153 -56.170849 -119.68685 9208954
-99.532448 -56.015621 -121.49665 7036759
-98.481514 -55.916634 -121.99976 8484461
-97.492287 -55.752403 -123.78156 7300188
-96.420868 -55.649437 -124.256 7498081
-181.84096 -54.87706 -26.376108 6446160
-181.63315 -55.183479 -27.241083 6446160
-96.115929 -55.551517 -125.71535 10851980
-95.393562 -55.482815 -126.02258 9010549
-94.49012 -55.397068 -126.40186 8616048
-94.158424 -55.297199 -127.86092 7564651
-93.24514 -55.211372 -128.22867 8354421
-92.514153 -55.142826 -128.5191 10065291
-92.155556 -55.041077 -129.97734 11512735
-91.217186 -54.946255 -130.308 12696753
-90.639053 -54.817535 -131.81918 8486000
-90.04644 -54.746078 -131.97504 11381404
-89.454132 -54.674702 -132.12889 9933702
-182.22752 -53.886612 -25.610216 8090469
-182.17625 -53.954414 -26.409693 6512210
-88.849876 -54.543499 -133.63425 9077882
-88.053238 -54.448071 -133.82857 10065033
-87.627586 -54.338436 -135.28537 8090474
-86.824135 -54.242676 -135.46925 7301470
-86.177086 -54.106815 -136.97188 6511954
-85.367172 -54.010979 -137.14395 8813945
-84.901779 -53.896809 -138.60315 8813945
-84.085457 -53.800739 -138.76459 8682358
-83.189598 -53.636211 -140.30138 7564651
-182.54829 -52.993004 -25.655382 8945009
-182.42468 -53.240543 -26.535471 6972503
-82.572769 -53.564037 -140.41354 7564390
-81.956459 -53.491974 -140.52362 7564386
-81.653061 -53.39727 -141.94386 9142907
-80.824837 -53.30085 -142.0811 9143162
-80.296959 -53.179958 -143.53911 10261894
-79.462601 -53.083363 -143.66545 10261894
-78.91777 -52.961754 -145.12846 10261132
-78.086884 -52.871277 -145.26099 9735039
-77.743614 -52.77808 -146.71587 9867401
-76.906685 -52.6875 -146.83861 7565675
-182.91937 -51.831806 -24.808924 8418928
-182.85905 -52.141506 -25.609079 9339509
-76.336266 -52.569588 -148.32854 9867401
-75.493263 -52.478886 -148.44031 9735038
-74.903206 -52.358856 -149.93208 10261382
-74.266289 -52.290707 -150.00798 9143416
-73.016975 -52.10043 -151.571 9997949
-71.590378 -51.9286 -153.27791 10787723
-70.363609 -51.78508 -154.98485 8420470
-69.511009 -51.704464 -155.08315 9800838
-69.111816 -51.639217 -156.6908 8682867
-183.18806 -51.122982 -24.935274 10786444
-183.13416 -51.43401 -25.737429 9536888
-68.252251 -51.558216 -156.778 8616819
-67.184929 -51.429981 -158.45314 8748660
-66.31884 -51.348618 -158.52704 8090987
-65.877449 -51.279194 -160.1488 9471867
-65.222633 -51.217777 -160.19623 8682867
-64.54467 -51.126072 -161.84296 8682867
-63.884792 -51.064392 -161.88168 8682867
-62.521534 -50.90863 -163.56546 8682355
-61.132591 -50.750557 -165.248 6511954
-60.463341 -50.688278 -165.2674 7761509
-183.62331 -49.788906 -24.228662 9734786
-183.51294 -50.225357 -24.889353 10655118
-59.936501 -50.605682 -166.90692 7300958
-59.251583 -50.466484 -167.52066 9274495
-58.417835 -50.256371 -168.36008 7827305
-57.940205 -50.01033 -168.94016 8090736
-57.326504 -50.005001 -169.13336 9143422
-183.94051 -48.884335 -24.045069 9340027
-183.90923 -49.152954 -24.942995 8681835
-57.998878 -49.485027 -169.32681 8814714
-57.196274 -49.260517 -169.69644 8880251
-56.518158 -48.997128 -170.08708 9537923
-184.26366 -47.886669 -23.485186 8617075
-184.25188 -48.072025 -24.236086 10129286
-57.356846 -48.205765 -170.10202 8617079
-56.493336 -48.179367 -170.41673 10853779
-55.832458 -47.923512 -170.75031 9998727
-184.57077 -47.01199 -23.313425 8946295
-184.51878 -47.318867 -24.120401 10129286
-56.722816 -47.273911 -170.69183 10064521
-55.791008 -47.234306 -171.0358 9735555
-184.92288 -46.067711 -22.66363 8419440
-184.8831 -46.244122 -23.41305 8814709
-56.595825 -46.627495 -170.99066 11380639
-55.996819 -46.295284 -171.38101 11380639
-55.152893 -46.153328 -171.74321 10065294
-186.076 -44.669418 -21.134676 9010550
-185.82204 -44.927269 -22.014444 7563619
-185.45259 -45.351677 -22.787973 7892583
-55.970711 -45.366425 -171.85223 11380639
-55.384937 -45.15564 -172.1537 10525588
-54.445442 -45.116196 -172.49229 9341827
-186.97218 -44.373154 -20.548395 8287084
-186.97037 -44.390808 -21.232615 7563619
-54.772472 -44.617733 -173.08453 9670535
-53.737537 -44.619549 -173.42339 8092019
-53.388821 -44.370743 -174.50438 9144448
-52.554867 -44.372738 -174.77176 8353651
-51.273563 -44.133057 -176.88101 8879736
-50.653667 -44.006226 -176.85875 9537409
-50.751202 -43.131332 -177.1916 8089963
-50.612316 -42.235722 -177.50583 5919050
-49.928989 -41.959286 -177.53156 5919050
-50.174267 -41.168316 -177.84995 7300958
-49.884159 -40.186619 -178.17899 9143674
-49.223164 -39.693748 -178.28693 8090986
-49.530132 -39.052505 -178.55704 7696228
-49.288662 -38.192482 -178.84671 8419951
-49.31641 -37.336266 -179.16492 9143674
-48.700596 -37.144897 -179.16685 7038298
-48.722195 -36.184357 -179.52283 7828070
-48.585567 -35.211342 -179.86572 7301469
-48.141613 -34.885883 -179.93619 5920074
-48.008823 -34.016727 -180.2413 6775126
-47.98917 -33.279999 -180.51025 6972762
-47.547894 -32.918415 -180.5943 9209467
-48.068974 -32.503666 -180.80482 5920074
-47.378208 -32.238956 -180.82549 8880503
-47.446857 -31.222589 -181.25632 8090988
-46.687183 -30.807499 -181.4296 7301476
-46.679768 -30.105709 -181.99448 7234909
-45.895885 -29.79933 -182.26204 7234909
-45.454121 -29.460598 -183.27588 8748403
-171.21674 -65.893105 -39.757504 10064009
-171.02023 -65.967995 -40.50964 8090731
-170.52425 -66.119881 -41.480354 8025452
-169.29138 -66.194901 -41.834808 7038814
-168.81378 -66.108154 -42.79932 6906712
-168.33176 -66.021599 -43.760094 9077881
-167.94273 -65.952591 -44.525654 14603214
-167.64906 -65.900909 -45.098198 16777215
-165.94582 -65.828819 -45.721767 9800834
-165.55208 -65.760841 -46.47435 9077368
-165.05244 -65.67485 -47.410351 9274490
-164.6187 -65.593895 -48.147575 8682867
-171.77348 -65.137238 -39.159092 10261131
-171.68849 -65.219254 -39.924076 10853012
-164.3904 -65.549454 -48.511971 9011574
-164.0468 -65.482971 -49.057091 7893615
-163.70207 -65.416595 -49.600681 8288371
-161.85736 -65.306915 -50.330704 9012350
-161.5121 -65.241577 -50.865452 8552056
-160.93979 -65.135399 -51.754925 7038557
-160.40068 -65.044403 -52.651772 9735812
-159.86549 -64.957092 -53.546627 11314075
-159.32634 -64.869987 -54.437492 13024949
-159.00069 -64.817856 -54.969925 10263180
-156.85522 -64.663849 -56.148956 9208443
-156.41704 -64.595314 -56.84531 9208443
-172.30986 -63.786186 -38.408291 10062979
-172.1906 -63.991718 -39.199409 9076343
-171.96092 -64.519272 -39.856007 9735043
-156.08673 -64.544067 -57.365849 8618105
-155.75473 -64.492867 -57.884518 8814714
-155.19823 -64.407707 -58.745602 8353651
-154.63791 -64.322777 -59.602627 9011579
-154.07329 -64.238159 -60.454872 10130313
-153.50491 -64.153748 -61.303116 7301474
-151.37062 -64.009003 -62.371456 11905701
-150.91161 -63.942501 -63.035755 11445406
-150.33478 -63.859634 -63.862617 8682868
-149.75391 -63.776989 -64.684723 8157551
-149.16933 -63.694569 -65.502617 8157553
-148.58057 -63.612328 -66.31575 9603969
-172.63976 -62.904793 -38.263397 8484207
-172.576 -62.949066 -39.122746 8813171
-147.98833 -63.530338 -67.124695 9669509
-147.39211 -63.448544 -67.92897 8419956
-146.79251 -63.367081 -68.728966 9208958
-146.18907 -63.285862 -69.524223 8024943
-145.58232 -63.204918 -70.315277 8814713
-144.97173 -63.124229 -71.101555 7038561
-144.48105 -63.059891 -71.727699 10262156
-143.43184 -62.905327 -72.940407 7762021
-143.01547 -62.838448 -73.381294 6511954
-142.31932 -62.72736 -74.11187 8682616
-141.62065 -62.616657 -74.837471 8551027
-173.00096 -62.002258 -37.687649 7300963
-172.93768 -62.045139 -38.547913 8089707
-140.91914 -62.506298 -75.557487 7696229
-140.21521 -62.396313 -76.27253 9932679
-139.50853 -62.286751 -76.982056 9340542
-138.79951 -62.177525 -77.6866 8485494
-138.08778 -62.068722 -78.385521 8222065
-137.37378 -61.960297 -79.079514 8880507
-136.65724 -61.852287 -79.767952 8025969
-135.946 -61.748032 -80.455849 10459537
-135.28258 -61.667004 -81.168175 10458768
-134.75401 -61.604225 -81.737404 14604230
-173.55971 -60.909622 -36.933258 7038307
-173.46336 -61.023922 -37.612663 8025199
-173.27335 -61.241852 -38.330101 7433064
-134.48885 -61.572903 -82.02076 12630442
-133.95694 -61.510277 -82.584908 12630956
-133.15559 -61.416645 -83.42585 9736579
-132.48457 -61.33884 -84.121597 9210491
-131.9455 -61.276814 -84.674629 8617331
-131.62344 -61.106953 -86.4907 8485747
-131.16608 -61.039619 -86.871017 9209467
-130.40201 -60.927654 -87.500465 8814198
-129.63599 -60.815983 -88.124641 8616819
-128.86778 -60.704632 -88.742859 8222060
-128.25183 -60.615723 -89.233833 9209467
-174.48204 -59.850246 -36.102364 8616819
-174.20949 -60.138569 -36.85025 7433064
-174.00484 -60.359581 -37.465012 8288371
-127.78904 -60.54921 -89.599365 9274748
-127.3255 -60.482784 -89.963158 7958120
-127.21644 -60.346497 -91.496872 7563619
-126.43185 -60.235653 -92.093712 7958120
-125.64552 -60.125145 -92.685364 8155499
-124.8572 -60.014935 -93.270966 7695204
-124.0674 -59.90506 -93.851341 11904668
-123.90462 -59.765488 -95.374001 7037274
-123.2632 -59.677559 -95.829971 7958118
-180.1382 -58.630718 -29.316454 9208435
-179.98174 -58.863647 -29.959604 9208956
-179.86166 -58.951298 -30.757326 8814457
-178.60225 -59.254951 -31.507921 9800581
-178.45198 -59.256229 -32.369705 8879991
-176.64188 -59.256592 -33.811417 7104091
-176.16968 -59.322342 -34.677284 9800575
-175.46671 -59.46664 -35.348 7498591
-175.38426 -59.482227 -35.992073 10458505
-122.23 -59.512463 -96.453514 8090221
-121.33167 -59.357834 -96.937881 8946555
-121.22837 -59.208141 -98.291756 8881019
-120.42832 -59.106205 -98.85141 9800837
-119.6366 -59.009369 -99.414009 10261132
-118.843 -58.912842 -99.970734 8682872
-118.33891 -58.800777 -101.01366 8485494
-117.9877 -58.70779 -101.94264 9209215
-117.34252 -58.630684 -102.37688 12432037
-180.42307 -57.885902 -29.213839 7367005
-180.27194 -58.019081 -30.141832 8814457
-116.85808 -58.572979 -102.70039 12432037
-116.21099 -58.496185 -103.12817 9537918
-115.56319 -58.419529 -103.55299 10064268
-115.30167 -58.289143 -105.07577 7958633
-114.48061 -58.193367 -105.59628 7563877
-113.65818 -58.097805 -106.11172 7564651
-113.00166 -58.022949 -106.52222 10064782
-112.57835 -57.893955 -108.18072 8287856
-111.91811 -57.821682 -108.58791 9471871
-111.07061 -57.720989 -109.07157 6709596
-110.39187 -57.640656 -109.45486 5920074
-180.88286 -56.835564 -28.542673 9734788
-180.72743 -57.024963 -29.322725 8485233
-180.54457 -57.303677 -30.053102 7695973
-110.56156 -57.563908 -110.67474 5920074
-110.04678 -57.503494 -110.95818 8420208
-109.18797 -57.403034 -111.4259 10525328
-108.32824 -57.302845 -111.88844 13024949
-108.12511 -57.183735 -113.29551 9144447
-107.25534 -57.083633 -113.7472 9867657
-106.38479 -56.98391 -114.19363 9867657
-106.154 -56.862709 -115.59929 8090987
-105.2736 -56.762985 -116.03475 8420208
-104.39259 -56.663597 -116.46484 9537667
-181.16814 -56.090454 -28.438334 8616819
-181.01715 -56.222149 -29.369593 7695973
-104.13419 -56.540428 -117.86861 7630187
-103.24361 -56.441158 -118.28758 10853268
-102.36895 -56.351189 -118.7202 8682867
-102.14971 -56.262478 -120.19937 8287596
-101.2784 -56.180004 -120.63731 8024165
-100.406 -56.097702 -121.07003 7366238
-99.981483 -55.990452 -122.63503 8484714
-99.451645 -55.940918 -122.88798 8352618
-98.562614 -55.855682 -123.29882 8155495
-98.280144 -55.758804 -124.77103 10260611
-97.559174 -55.689545 -125.08919 8812653
-96.837784 -55.620419 -125.40434 8088931
-181.70889 -54.817268 -27.775339 8090469
-181.52722 -55.051243 -28.64419 7367008
-181.26469 -55.509411 -29.49943 5920074
-96.476967 -55.585976 -125.56033 11379348
-96.165565 -55.486992 -127.0313 8616048
-95.436035 -55.417877 -127.33599 8616048
-94.706161 -55.348843 -127.63756 7563619
-94.185158 -55.230656 -129.183 10065291
-93.262894 -55.144344 -129.54749 11381404
-92.15934 -54.972542 -131.30525 10131085
-91.223961 -54.884426 -131.64934 9539206
-91.030281 -54.799072 -133.06012 9933702
-90.245461 -54.711056 -133.28448 9407358
-182.21291 -53.691505 -26.953577 8090469
-182.03151 -53.924355 -27.824602 8156263
-181.84979 -54.158226 -28.694986 8287856
-89.447701 -54.615185 -133.48605 8486000
-89.035294 -54.506481 -134.95377 8089963
-88.230583 -54.41029 -135.14493 8089963
-87.596252 -54.275311 -136.66043 11381404
-86.785011 -54.178993 -136.83984 8091242
-86.332603 -54.065804 -138.31033 7959404
-85.514694 -53.969151 -138.47911 8813945
-84.837074 -53.829571 -139.99138 7564651
-84.012901 -53.732792 -140.14807 7564651
-182.49556 -52.909653 -26.995371 9471351
-182.31401 -53.142437 -27.867678 8945522
-83.105034 -53.566589 -141.69389 7169890
-82.27491 -53.469646 -141.83841 6511954
-81.759651 -53.34967 -143.30835 9011829
-80.923409 -53.252502 -143.44193 8617328
-80.388863 -53.130371 -144.91309 10459531
-79.546509 -53.033119 -145.03564 6512978
-79.210869 -52.937183 -146.49086 9011576
-78.372078 -52.846096 -146.6208 9011576
-77.60289 -52.706142 -148.15312 7565675
-77.180412 -52.660561 -148.21262 9867401
-182.95981 -51.895428 -26.162912 8681835
-182.77841 -52.127281 -27.037195 9405302
-182.59669 -52.360054 -27.910845 8287856
-76.758232 -52.615078 -148.27101 9867401
-75.753456 -52.450089 -149.82684 9143159
-75.157814 -52.328911 -151.33492 10260873
-74.300575 -52.237289 -151.43211 9866107
-73.283577 -52.089283 -153.04764 14077111
-72.436531 -52.008881 -153.16519 12432804
-71.644218 -51.906277 -154.82957 12432804
-71.003647 -51.845581 -154.90849 8420470
-70.40329 -51.761154 -156.55162 7564651
-69.757339 -51.700188 -156.62228 7893615
-183.26425 -51.000332 -26.335276 9668218
-183.12976 -51.121525 -27.20183 9997183
-68.485893 -51.552402 -158.33505 9537664
-67.188988 -51.402325 -160.04732 9011574
-66.532814 -51.340706 -160.09935 9011574
-65.866554 -51.24984 -161.75838 10851980
-65.205269 -51.187962 -161.8017 8682867
-63.852177 -51.032848 -163.50256 10721935
-62.473305 -50.875366 -165.20242 9932678
-61.802479 -50.812935 -165.22647 9011320
-61.233231 -50.687019 -166.73181 9603458
-60.586288 -50.647438 -166.82434 9011320
-183.69958 -49.85841 -25.59112 9076337
-183.62355 -50.014397 -26.348269 9668474
-60.69585 -50.429008 -167.74158 8814713
-60.060802 -50.184395 -168.12532 7696235
-59.166794 -50.02253 -168.55278 7630443
