# .PCD v0.7 - Point Cloud Data file format
VERSION 0.7
FIELDS x y z rgb
SIZE 4 4 4 4
TYPE F F F U
COUNT 1 1 1 1
WIDTH 1228
HEIGHT 1
VIEWPOINT 0 0 0 1 0 0 0
POINTS 1228
DATA ascii
171.58809 -34.647442 42.245358 10787985
171.42931 -34.872021 42.863091 9735038
151.70522 -34.932842 91.628479 10262156
151.22021 -34.695778 92.331451 9735300
150.53172 -34.665752 93.158707 9668995
149.94547 -34.533974 93.92231 8221549
172.59988 -33.505627 37.462646 9340027
172.41887 -33.688843 38.37999 8485232
172.27695 -33.746925 39.350025 9011576
172.13838 -33.765293 40.409142 13550776
171.98361 -33.853962 41.392662 13484983
151.27864 -33.909405 92.70079 8814453
150.80678 -33.688595 93.37928 9800581
150.30907 -33.582325 94.024376 9340030
149.69893 -33.558361 94.75602 8879479
173.12849 -32.36409 36.560448 9734784
172.92593 -32.606125 37.4785 9735299
172.75301 -32.734566 38.491219 8353390
172.62769 -32.772934 39.38578 8485232
172.45047 -32.984276 40.190083 12630443
150.56931 -32.589046 94.271385 9340030
149.87932 -32.583271 95.086861 8813686
149.24536 -32.596931 95.825615 8747893
148.90796 -32.241673 96.420723 9537667
173.73474 -31.352098 34.655487 8089963
173.50705 -31.645819 35.623833 10787470
173.41365 -31.586563 36.547546 9340283
173.27643 -31.600649 37.608288 8617075
173.12285 -31.685446 38.59362 7037530
150.13992 -31.683361 95.281456 9208444
149.51704 -31.618206 96.051003 8682359
148.96451 -31.599411 96.711937 7958895
148.47987 -31.511911 97.331261 9142910
174.18201 -30.494766 33.65646 8024681
173.96362 -30.716402 34.700748 7893352
173.82507 -30.727793 35.761185 11247763
173.71535 -30.737888 36.610519 9603457
173.58957 -30.818642 37.38427 8222573
149.81433 -30.875286 96.114861 8089962
149.32079 -30.541086 96.943626 7432808
148.53262 -30.726055 97.706932 8682616
148.04419 -30.496407 98.409904 9405566
175.74191 -29.293074 30.028902 8089963
175.62483 -29.296728 30.878967 11709340
175.25458 -29.490965 31.900988 10525067
174.9366 -29.694456 32.930729 8945527
174.63414 -29.895449 33.744125 9143675
174.47432 -29.944311 34.715443 9472384
174.20035 -30.115858 35.838524 10788244
148.89195 -30.006582 97.944023 9208446
148.45697 -29.68749 98.832695 10195339
147.92654 -29.59161 99.569832 9669251
147.43065 -29.356358 100.45295 8222317
146.89455 -29.244871 101.25703 10853012
181.10291 -28.699677 17.079988 11117461
181.08125 -28.75577 18.088964 11314841
180.7379 -28.944721 18.932421 9077625
180.64236 -28.943056 19.800962 8682867
176.76981 -28.938696 27.369566 9210491
176.75325 -28.95645 28.238543 9406851
176.73119 -28.979286 29.325953 9670023
147.13837 -28.934015 102.47659 9932421
146.46404 -28.922909 103.32136 10261641
145.78824 -28.91255 104.16415 9340798
144.11769 -28.808701 110.22571 9406847
143.58325 -28.808043 110.91695 8814203
143.04539 -28.807398 111.6056 9077372
142.5043 -28.806765 112.29156 9011320
140.7713 -28.512896 118.55143 5919050
140.08546 -28.490141 119.13102 7103842
139.46147 -28.247789 119.76238 4866361
181.40833 -27.816378 16.228186 9077110
181.49026 -27.887074 17.248163 11642522
181.47339 -28.123278 17.907667 14076861
140.42542 -27.685228 119.22671 5392961
139.64516 -27.586525 119.92035 4866361
139.02049 -27.345194 120.55184 4866361
181.79413 -26.451777 15.14538 7695459
181.78685 -26.767988 16.173021 6116429
181.79184 -27.00893 17.055368 5392706
140.5164 -26.945297 119.4985 4866361
139.89037 -26.703228 120.13142 4932154
139.10924 -26.60603 120.82497 5326912
182.03056 -25.558092 14.28285 10918805
182.1046 -25.65465 15.317656 8023909
182.11002 -25.89439 16.200796 7695459
140.07457 -26.039598 120.29006 4866361
139.50897 -25.576965 120.97636 7234653
138.76552 -25.445076 121.65498 6182990
182.3335 -24.521528 13.570448 7563619
182.31906 -24.754723 14.231241 8418412
182.40334 -24.821146 15.253588 8812909
139.58147 -24.685596 121.3345 9142907
139.069 -24.403839 121.89188 7103836
138.34239 -24.355698 122.51725 8485485
182.55296 -23.859755 13.365469 8813686
182.63841 -23.924843 14.388018 7957603
139.19734 -23.556971 122.18282 7300958
138.50743 -23.540171 122.76301 10919824
138.05095 -23.305799 123.25167 8485485
182.91371 -22.597309 12.432676 8353907
182.95636 -22.762014 13.39395 10064006
182.93005 -23.071373 14.203524 8287082
139.20782 -22.885092 122.48949 8485485
138.75056 -22.650141 122.97904 10985105
138.0601 -22.634474 123.55915 8945526
137.60303 -22.400499 124.04813 9142649
183.21616 -21.557589 11.714602 7564651
183.27132 -21.645216 12.529913 8814200
183.33847 -21.657228 13.199163 10064006
138.82146 -21.75424 123.34116 12432037
138.30249 -21.742992 123.77668 9932164
137.68901 -21.655228 124.32661 9668992
183.47383 -20.509632 10.548986 10128771
183.48293 -20.744411 11.435621 9472644
183.56085 -20.835272 12.474977 10524557
138.48944 -20.735682 124.09492 10392457
137.8223 -20.67404 124.67704 8879477
137.35948 -20.301289 125.23594 9734530
183.74208 -19.804363 10.65246 8814200
183.82985 -19.864241 11.678282 8880508
138.13878 -19.565439 124.93549 7563619
137.407 -19.521957 125.56265 8419444
136.88992 -19.24263 126.12258 10261133
197.77684 -19.25983 -22.691381 6774618
197.21388 -19.19453 -21.668692 7037274
196.7917 -19.145908 -20.905745 7563874
196.36987 -19.097502 -20.146803 7037274
195.80745 -19.033579 -19.140261 6709078
195.24532 -18.970125 -18.139994 5919050
194.8239 -18.922791 -17.393824 10656145
194.54295 -18.891472 -16.898439 10656145
184.07854 -18.579311 9.6198673 8880759
184.07642 -18.867039 10.582148 9406593
184.05103 -19.196676 11.469446 8090995
137.76492 -18.580986 125.70794 7827050
136.97835 -18.522629 126.38758 9735046
191.63652 -18.067703 -7.4067473 9736329
191.21886 -18.027025 -6.9315391 9341054
190.59442 -17.966417 -6.2230124 9538432
189.97191 -17.906212 -5.5186934 11380380
184.70415 -17.408052 7.7232308 9209467
184.59944 -17.584602 8.7418728 8617845
184.50946 -17.740074 9.7159786 8814711
184.44957 -17.852596 10.602453 9734788
137.77283 -17.903152 126.01994 8617080
137.19527 -17.712837 126.58814 8156787
136.47278 -17.543512 127.26678 8288116
188.21432 -17.258429 0.86143351 7893614
186.00824 -16.598194 5.3169847 10656142
185.80128 -16.734526 6.0558076 11971744
185.25981 -16.996094 6.8549752 10656142
185.15367 -16.988207 7.7423501 8682867
185.05711 -16.981504 8.6296597 8354675
137.37918 -16.764736 126.88117 7301479
136.75845 -16.658487 127.44573 7827565
136.04695 -16.519251 128.10101 10591380
136.92854 -15.851209 127.69314 7038307
136.35411 -15.676373 128.31342 8419958
135.84822 -15.168783 129.15547 9999243
136.15704 -14.617835 129.4505 10854294
135.59645 -14.390664 130.16727 9670535
134.97559 -14.274551 130.82686 9144448
134.97319 -13.885008 132.41443 7564651
134.28067 -13.879531 133.0105 9143167
131.46004 -13.699503 141.7001 9735043
130.70238 -13.451897 142.25142 10590093
130.90636 -12.631202 142.47427 8879733
130.27432 -12.425506 142.93381 8155755
131.11086 -11.808438 142.69774 7564643
130.35124 -11.561821 143.24976 7563619
129.59196 -11.315865 143.80122 7563619
130.58403 -10.618977 143.50673 5920074
129.85892 -10.562909 143.95857 6577747
130.06801 -9.7124395 144.19099 7564642
129.4411 -9.4212017 144.68315 7828330
130.23053 -8.7164545 144.51241 9998727
129.50352 -8.6619587 144.96429 8946555
129.84763 -7.7604609 145.13918 10393745
129.11388 -7.6749086 145.60797 10064265
129.87512 -6.8057718 145.52325 9735560
129.31612 -6.5625081 145.95509 10590353
128.75716 -6.3198118 146.38666 10261387
129.40086 -5.3657279 146.40689 9735299
128.78291 -5.3622961 146.7729 10261387
128.22328 -5.1195912 147.20491 8682867
129.01491 -4.402905 147.0383 9669507
128.27838 -4.319581 147.50786 11379356
129.04095 -3.4395342 147.42682 9669507
128.4216 -3.4374537 147.79317 9669507
127.86042 -3.1946988 148.22607 10261124
128.65344 -2.4723072 148.06102 8617075
127.91504 -2.3900845 148.5312 8420209
128.62073 -1.746057 148.38478 8090987
128.19386 -1.4543831 148.75902 8419957
127.49542 -1.2596982 149.25273 7038307
128.20187 -0.61259907 149.10809 7038307
127.55024 -0.45034388 149.56096 8814713
127.832 0.39404082 149.79477 9341056
127.10418 0.44236678 150.25667 10262156
127.45012 1.1771092 150.66737 10854038
127.05984 1.5065702 151.43654 10459795
126.46796 1.6707495 152.09161 8092019
127.25468 2.1649899 151.91858 12433069
126.44531 2.1635542 152.43842 9012863
126.41398 2.6669087 153.52995 8092019
125.74185 2.6640773 153.84306 8684155
125.94222 3.1671224 154.46996 9603971
125.26907 3.1639395 154.78293 9208443
161.69771 -43.175594 67.486458 9143681
161.35132 -43.399082 68.255516 8354164
161.00577 -43.416592 69.25415 10590605
160.65947 -43.435467 70.253464 10524555
160.2538 -43.440201 71.227257 10195591
159.79271 -43.347301 72.098969 11905692
159.48863 -43.190327 72.732613 9538176
164.51506 -42.258884 60.215607 6971994
164.24263 -42.263191 61.013565 6643284
163.90161 -42.269753 62.011158 5919050
163.55815 -42.416889 62.857716 5919050
163.21516 -42.495743 63.779808 9405307
162.87248 -42.506252 64.777763 12431781
162.52705 -42.72633 65.547974 12168098
162.18326 -42.739574 66.546356 9273979
161.90927 -42.54343 67.574562 9011837
161.63301 -42.556099 68.374435 12827052
161.28702 -42.573257 69.374901 9998726
160.94026 -42.591728 70.376038 10327434
160.53415 -42.596455 71.351624 10458761
160.01367 -42.572506 72.275642 10919055
159.59218 -42.553089 73.011566 9340539
159.12144 -42.489799 73.863457 8880504
158.608 -42.297951 74.880875 9143936
166.4987 -41.410545 55.324734 10327951
166.16025 -41.409027 56.323952 7959408
165.75072 -41.549252 57.373055 9670278
165.47789 -41.620274 58.097088 9143932
165.13814 -41.622631 59.095619 8090730
164.7979 -41.62627 60.094234 6971994
164.45703 -41.631424 61.092983 6379858
164.11563 -41.637867 62.091892 7102810
163.84204 -41.644032 62.89119 8878707
163.49948 -41.653049 63.890617 11444119
163.1563 -41.663334 64.890373 12299685
162.88124 -41.672615 65.690491 11181204
162.5368 -41.68552 66.691093 10326152
162.19168 -41.699745 67.692154 11379866
161.91502 -41.712189 68.493484 13221810
161.56856 -41.728992 69.495758 9998726
161.22134 -41.747135 70.498695 10130056
160.8148 -41.751766 71.476189 9406332
160.29335 -41.728291 72.401756 9011831
159.87091 -41.709145 73.138893 8090987
159.34299 -41.686581 74.059242 8288883
158.81523 -41.665367 74.978584 9932938
158.39317 -41.649487 75.713318 10261646
157.93431 -41.420097 76.664055 9604225
168.34239 -40.592022 50.812866 14210509
168.07268 -40.585747 51.614769 9011322
167.66422 -40.719193 52.668335 8222063
167.32475 -40.78458 53.595196 9076858
166.98665 -40.78054 54.5961 8221805
166.7159 -40.778301 55.396614 11446173
166.37695 -40.77681 56.397114 7564651
166.03755 -40.776562 57.397514 7828079
165.76569 -40.777401 58.197765 8091246
165.42543 -40.779652 59.198048 7696487
165.08458 -40.78326 60.198452 7498594
164.74316 -40.788219 61.198933 6840669
164.4012 -40.794529 62.199627 7893101
164.12723 -40.800564 63.000332 10654860
163.85472 -40.650543 63.972229 11115927
163.44043 -40.819462 65.003052 11905701
163.16498 -40.828545 65.804611 9866116
162.83348 -40.882366 66.720924 9931395
162.40367 -41.066399 67.780449 10459278
162.12679 -41.078594 68.582924 9801604
161.8494 -41.091728 69.385735 9998726
160.82076 -41.109222 71.942451 10590347
160.50333 -41.094425 72.496468 9340539
160.15009 -40.864277 73.266449 9077625
159.64674 -40.682522 74.258675 9208958
159.16138 -40.609913 75.141808 10984855
158.73811 -40.594353 75.877983 9472644
158.21841 -40.629787 76.742996 8946300
157.61177 -40.770287 77.682121 9670278
157.15137 -40.543884 78.633354 9604485
169.02789 -39.272469 49.249172 8814454
168.86673 -39.503872 49.864304 10591378
168.61357 -39.74255 50.894249 9274494
168.29741 -39.739868 51.904854 9143680
168.0269 -39.734711 52.707794 8880508
167.68845 -39.729507 53.711174 7958891
167.34959 -39.725517 54.714222 10130314
167.0782 -39.723312 55.516502 9735555
166.73853 -39.721809 56.519203 8617333
166.39842 -39.721523 57.521774 8222576
166.12601 -39.722294 58.323788 7038559
165.76335 -39.845024 59.254322 7499109
165.37163 -39.939171 60.302757 7498596
165.04274 -39.985844 61.219509 7696235
164.61565 -40.161343 62.280479 7893358
164.34134 -40.167282 63.082314 10654860
159.43886 -39.764618 75.272621 10787733
159.02541 -39.607082 76.093544 8946301
158.49362 -39.609505 77.002502 8288116
157.95447 -39.714634 77.850853 9275777
157.53047 -39.702374 78.586174 10064778
157.00049 -39.688248 79.504616 10130571
156.51877 -39.591438 80.399582 10263179
156.09462 -39.348438 81.300385 9342077
155.65079 -39.233578 82.143456 10263179
169.49806 -38.389744 48.061172 7893096
169.30852 -38.626366 48.889038 8814454
169.16393 -38.65971 49.95163 8090475
168.98158 -38.686104 51.004768 7564648
168.66304 -38.683102 52.017071 8617337
168.39194 -38.678001 52.821747 8222579
168.06525 -38.715496 53.742184 8617080
167.6403 -38.880444 54.808853 11906724
167.36847 -38.878273 55.612541 11117208
167.1644 -38.877117 56.215221 8682867
158.65416 -38.882065 77.249016 9406339
158.23955 -38.726963 78.070107 8288885
157.87271 -38.645397 78.75676 7959664
157.34137 -38.631634 79.677078 9143679
156.81 -38.619057 80.596703 10657681
156.30753 -38.650997 81.43502 9736835
155.82428 -38.556763 82.330727 10261899
155.37938 -38.520985 83.118851 10392973
154.96301 -38.373363 83.938103 9538176
169.87985 -37.657902 47.140194 9405566
169.74759 -37.711838 48.043423 9077372
169.57965 -37.826538 49.055355 8287853
169.46149 -37.814365 50.03904 7432545
169.20267 -38.051357 51.071159 7039331
157.52718 -37.889645 79.890236 8354164
157.08212 -37.772659 80.736481 10854036
156.65614 -37.763733 81.472878 10196874
156.12357 -37.753757 82.392769 10655889
155.59084 -37.744995 83.312111 10787475
155.05789 -37.737564 84.230835 9406846
154.58255 -37.661167 85.100212 9802116
154.16463 -37.515709 85.920555 9473663
170.3913 -36.590717 46.161278 9800324
170.23717 -36.670261 47.165352 9734789
170.09383 -36.699738 48.229214 8682874
169.86003 -37.010593 49.194923 8551285
169.71399 -37.173023 49.891266 7037274
156.85982 -37.128338 81.578766 10721682
156.39424 -36.906528 82.535583 10524303
155.92804 -36.685905 83.492577 9998471
155.43573 -36.739922 84.297607 9538432
154.95642 -36.620399 85.204681 9868421
154.43181 -36.668541 86.06942 9736835
153.94022 -36.6119 86.95237 10788240
153.42799 -36.450176 87.946068 11117207
153.06558 -36.237003 88.719864 8091760
171.16753 -35.313217 43.673965 10261382
171.02365 -35.470154 44.368492 9866623
170.82953 -35.712105 45.21772 9800573
170.7267 -35.629539 46.284752 10195336
170.61038 -35.612438 47.26812 9669253
170.4498 -35.841309 47.886818 9537667
155.77008 -35.83157 84.375069 9735812
155.24565 -35.655083 85.400276 9934214
154.76619 -35.608032 86.255745 9605249
154.33731 -35.604923 86.992912 9867909
153.80098 -35.602112 87.914185 8881019
153.2643 -35.600464 88.835121 7697002
152.72723 -35.600056 89.755859 9801607
152.24335 -35.385719 90.708275 9998727
171.45171 -34.629139 43.394783 9603451
171.3073 -34.692947 44.368324 10261382
171.1658 -34.717484 45.432049 9734780
171.00826 -34.812077 46.41935 9142907
154.85971 -34.969971 86.552299 9210491
154.5464 -34.825771 87.192558 10590866
154.06725 -34.752323 88.066345 8025711
153.52962 -34.75069 88.988914 7302245
153.09924 -34.75021 89.726807 9012348
152.55359 -34.749084 90.644585 9998471
151.97758 -34.658298 91.460732 10064777
172.04639 -33.577129 41.699631 10787985
171.88763 -33.801182 42.318531 9406590
171.74744 -33.822807 43.38131 10262152
171.68166 -33.633373 44.464649 10656654
171.442 -33.973164 45.39447 10524557
154.05194 -34.113308 88.550201 6512986
153.73726 -33.970505 89.191711 8814713
153.36426 -33.899094 89.882118 10261131
152.88509 -33.6852 90.841621 10195338
152.2421 -33.664234 91.703117 9603969
151.74326 -33.55608 92.350647 9143419
151.2688 -33.191296 93.112434 9143419
172.7748 -32.268559 39.681435 9406334
172.54517 -32.567772 40.649734 14209474
172.37445 -32.72543 41.55917 11577501
172.23471 -32.745457 42.623188 9538175
172.06999 -32.850636 43.638275 11182997
152.92456 -32.831009 91.363892 10853012
152.57538 -32.599499 91.903954 9603713
152.02095 -32.575855 92.569786 9143419
151.32874 -32.54734 93.400566 9340542
150.84135 -32.312557 94.105202 9142651
173.18648 -31.406683 38.899197 7958632
173.02667 -31.588234 39.651329 9735811
172.86336 -31.689707 40.665756 11446940
172.75035 -31.664036 41.649124 10263180
172.62279 -31.748951 42.424843 9012600
152.63672 -31.953712 92.191414 9143419
152.21846 -31.792183 92.773865 8616563
151.59328 -31.695103 93.563942 8879991
150.90041 -31.668322 94.394478 9537409
150.55074 -31.439764 94.933533 9734788
173.56648 -30.684578 37.962059 9340286
173.44025 -30.766298 38.736771 9274493
173.30197 -30.782139 39.801628 10460303
173.16312 -30.798954 40.867554 10723730
173.00417 -31.022371 41.489746 10263180
151.7894 -30.881958 93.786034 9011833
151.25562 -30.606674 94.616966 10129800
150.70232 -30.587101 95.282936 9274237
150.16875 -30.314188 96.113251 8484721
175.16026 -29.312439 34.06488 9670019
174.86336 -29.449041 35.172241 9670019
174.68739 -29.520189 35.93911 8748405
174.37555 -29.729088 36.969101 8550770
174.06573 -29.939724 37.998394 9406079
173.95055 -29.950441 38.850891 10722195
173.68427 -30.162405 39.669479 9735812
151.1514 -29.768667 95.567818 9142651
150.52805 -29.645779 96.446205 8879478
150.01315 -29.486197 97.240471 9142652
149.44229 -29.442152 97.963936 10853012
149.06914 -29.294958 98.576759 10853012
181.43918 -28.597317 19.2279 8946039
181.04602 -28.782761 20.286242 9537661
180.49133 -28.940575 21.1029 8550766
180.358 -28.93852 22.186907 7761253
180.21866 -28.936472 23.270159 7761253
180.13184 -28.935249 23.919722 12235687
176.6479 -28.99337 30.404619 10722705
176.49602 -28.997377 31.472105 12893612
176.37288 -29.001181 32.326206 10525067
176.2169 -29.006489 33.393776 8747893
149.68971 -28.982557 99.249184 10458254
149.02005 -28.968798 100.10117 10392461
148.34918 -28.955729 100.95133 8879995
147.8116 -28.945807 101.62998 8617080
146.61104 -28.811945 106.90784 10261132
146.22232 -28.811417 107.4354 9537667
145.57021 -28.810551 108.31159 8814456
144.91321 -28.8097 109.18409 8353135
144.51653 -28.809195 109.70573 9143419
142.42749 -28.793701 117.04565 8418928
141.80199 -28.548401 117.67966 7300702
141.11458 -28.524546 118.26113 6379600
181.70308 -27.646437 18.426611 10590863
181.74733 -27.81686 19.436605 9011832
181.68571 -28.187136 20.137903 10459278
142.14563 -27.742231 117.77297 8682867
141.3629 -27.641481 118.46954 6314319
140.73677 -27.398199 119.10316 6511954
181.98026 -26.627253 17.514532 7432799
182.0746 -26.653097 18.496672 9932418
141.63837 -26.6616 118.7009 6511954
140.8282 -26.657431 119.37494 5919561
182.24678 -25.609854 16.507364 6116429
182.32051 -25.708321 17.54648 6643284
182.32552 -25.950041 18.432734 8682608
141.17363 -25.680923 119.54659 7300958
140.42897 -25.513699 120.24281 6445137
182.55272 -24.570183 15.796556 9010288
182.53679 -24.804731 16.459139 7628638
182.62363 -24.825722 17.353106 7630435
141.30786 -24.733347 119.87998 9405822
140.79459 -24.449934 120.43879 9274493
140.06573 -24.400229 121.06666 9472128
182.78841 -23.672733 14.930548 8088931
182.82686 -23.775778 15.642363 9931646
182.89598 -23.85482 16.564539 9932418
140.8477 -23.674091 120.75913 11248538
140.23387 -23.58317 121.31081 11051415
139.71526 -23.569895 121.74708 10261643
183.18477 -22.335033 14.074873 8814713
183.12654 -22.70133 14.779867 9208953
183.20659 -22.717642 15.585127 9010288
183.24524 -22.820925 16.298971 13024949
140.93887 -22.927986 121.03413 10261643
140.48079 -22.691689 121.52489 9998215
139.78804 -22.674662 122.10728 8616307
139.33012 -22.43939 122.59743 8089963
183.40558 -21.669485 13.869429 8814713
183.49509 -21.686295 14.764303 9012091
183.48088 -21.920183 15.429823 8814713
140.49275 -22.017584 121.83166 8089963
140.09578 -21.558012 122.37679 7827300
139.34534 -21.476828 123.03709 10326919
183.72154 -20.549572 13.003687 10525328
183.70056 -20.827957 13.757723 9669762
183.78557 -20.874563 14.712698 9077884
140.16875 -20.658669 122.73875 9735038
139.709 -20.423296 123.23053 10919054
139.01448 -20.4088 123.81318 12432037
183.94287 -19.882029 12.79648 10196107
184.02107 -19.973162 13.84012 9801604
139.78111 -19.521959 123.59422 11379348
139.14278 -19.554501 124.10819 10260871
138.62506 -19.273817 124.6693 7563619
184.33127 -18.302855 11.040983 9734788
184.30589 -18.632748 11.92993 9143680
184.30339 -18.922182 12.894892 10130312
184.2778 -19.231291 13.710115 10064774
139.42607 -18.686184 124.28129 7827046
138.6342 -18.596254 124.98009 7563619
193.73964 -18.274132 -9.8148746 7038307
193.31702 -18.232439 -9.3289509 7039331
192.68503 -18.170309 -8.6043186 9736329
192.05505 -18.10858 -7.8840957 7039331
190.31903 -17.450071 -1.4102988 8814713
189.89607 -17.411337 -0.95188284 9735812
189.2636 -17.35364 -0.26839209 9275262
188.63326 -17.29635 0.41110086 9735812
184.76392 -17.420025 10.174971 8814457
184.68491 -17.568705 10.913111 9077372
184.69597 -17.650675 11.95434 8748922
139.5146 -17.933039 124.56168 7563619
138.93599 -17.74152 125.13142 8024170
138.21199 -17.570818 125.8119 9076858
186.02 -16.601156 7.108233 11182485
185.88612 -16.591589 8.2219715 10459019
185.54169 -16.717596 9.1745815 8617588
185.37727 -16.782444 9.9856014 8814457
185.11128 -16.99365 11.087358 7894126
139.06204 -17.017925 125.36694 8813686
138.51459 -16.61171 126.01163 11181977
137.83681 -16.363026 126.6904 8879739
138.7339 -15.64919 126.28841 11379356
138.09956 -15.529452 126.93266 10655633
137.52684 -15.300182 127.63407 8090737
137.83629 -14.748873 127.9224 9406082
137.21722 -14.474016 128.70811 8551287
136.69493 -14.290633 129.3373 9012091
136.70453 -13.899932 130.91968 8092019
136.0119 -13.89375 131.5184 9670535
135.49258 -13.889329 131.96672 7564651
132.5901 -13.561385 141.09026 9734785
131.95705 -13.354536 141.55084 9997959
132.16348 -12.532273 141.77296 8946040
131.40302 -12.284884 142.32585 7564643
132.34053 -11.825867 141.9639 8617075
131.67296 -11.532548 142.48109 8419695
131.72092 -10.680615 142.80948 8484976
130.99387 -10.623986 143.2625 6709078
131.99229 -9.9243908 142.96631 9537408
131.22887 -9.677906 143.52019 6248783
131.43509 -8.8476353 143.74657 7169116
130.79819 -8.6427555 144.20831 8617330
131.64185 -8.01511 143.97365 8287341
130.90166 -7.6671519 144.55632 9603971
130.64049 -7.050705 144.96892 9143422
131.17084 -6.5760665 144.8549 8089963
130.45349 -6.411025 145.34744 8221806
130.75743 -5.4536519 145.56953 8748407
130.01968 -5.369236 146.04024 9011578
130.81602 -4.6522732 145.87091 8089963
130.11852 -4.4561067 146.36478 9537921
129.69252 -4.1653132 146.73808 9143419
130.40079 -3.5248547 146.58864 10129541
129.66124 -3.44169 147.05986 8617075
130.45892 -2.7189727 146.89212 8089963
129.89566 -2.4752929 147.32677 8090475
129.27408 -2.4737875 147.69417 9143419
129.92316 -1.5051405 147.71727 8090987
129.30067 -1.5043362 148.08495 10327437
129.53564 -0.53188115 148.35509 10064268
128.79379 -0.4505845 148.82713 12103591
129.50954 0.19957089 148.68709 10064268
129.09996 0.49265921 149.08499 7038307
128.41306 0.68746173 149.59827 8090992
128.6877 1.1787307 149.91948 8090992
128.28854 1.6733307 150.92213 9998216
127.93414 2.1675491 151.61349 10985367
127.76209 2.6726747 152.90221 10261645
127.08737 2.6697416 153.21638 9538950
126.61655 3.1704068 154.15648 12038052
163.86032 -40.179764 64.485939 10261391
163.6537 -40.185875 65.087662 11905701
163.37799 -40.194805 65.890327 9274238
162.96271 -40.314278 66.979866 9603712
162.61594 -40.432411 67.868835 8880246
162.33875 -40.44442 68.67234 9735555
161.94144 -40.552349 69.721718 9801348
161.57317 -40.689896 70.652283 8814202
161.22464 -40.69685 71.525444 8946043
160.79118 -40.420635 72.48661 8880246
160.35966 -40.22995 73.362175 11313559
160.04173 -40.21656 73.916214 14076861
165.86064 -39.302589 59.578354 7235938
165.58716 -39.305416 60.381104 7433318
165.17465 -39.416458 61.471695 8353651
164.83031 -39.527592 62.361496 10129801
164.55563 -39.533375 63.164314 9932679
164.21173 -39.541912 64.168213 9406340
163.86731 -39.551682 65.172409 8222323
163.59125 -39.560467 65.976128 8222323
163.24557 -39.572704 66.981216 9011575
162.8992 -39.58617 67.986824 9077625
162.62164 -39.597961 68.791771 9735555
162.27394 -39.61393 69.798599 9340543
161.92555 -39.631111 70.806099 8353909
161.62056 -39.639683 71.601181 10261133
161.10028 -39.617985 72.532562 7893356
160.5695 -39.594936 73.458046 9997701
160.03882 -39.573357 74.382225 11905695
159.57768 -39.34148 75.338097 10261646
159.25923 -39.330002 75.891716 10064011
167.98972 -38.459583 54.252815 10985369
167.78586 -38.457436 54.856228 13551549
167.51372 -38.455261 55.660648 8682867
167.08794 -38.622868 56.7267 10590862
166.75986 -38.66489 57.646229 12367271
166.46027 -38.623524 58.575657 5854288
166.10332 -38.710243 59.530014 7827816
165.80286 -38.671043 60.459499 7103066
165.46008 -38.675724 61.464428 8419442
165.11679 -38.681618 62.46954 11971487
164.84171 -38.687302 63.273838 8683642
164.4973 -38.69561 64.279495 8617593
164.15236 -38.705128 65.285507 7827566
163.8759 -38.713734 66.090622 9209215
163.52971 -38.725677 67.097511 9669762
163.18291 -38.738865 68.10498 9735555
162.90491 -38.750397 68.911369 10327692
162.55675 -38.765999 69.920006 9209468
162.20787 -38.782822 70.929298 8879995
161.84723 -38.861187 71.779091 8946044
161.38141 -38.769978 72.658913 7498600
160.84955 -38.747387 73.585976 9076601
160.31784 -38.726219 74.511726 10721423
159.78619 -38.706249 75.436424 9669508
159.36096 -38.691257 76.175407 9735047
158.91704 -38.56963 77.022644 11050391
158.47301 -38.448936 77.869484 10064011
169.424 -37.415894 51.137627 7631210
169.02934 -37.624359 52.129486 8420213
168.75758 -37.619381 52.935928 8880508
168.41756 -37.614323 53.943649 7894383
168.07719 -37.610462 54.951118 9932937
167.80458 -37.608303 55.756859 9406334
167.46344 -37.606781 56.763939 10064775
167.12189 -37.606426 57.770931 10656655
166.77985 -37.60743 58.777855 8354160
166.43735 -37.609592 59.78476 9668988
166.16295 -37.612293 60.590389 8550509
165.81944 -37.616802 61.59753 8155754
165.47552 -37.622513 62.604851 9538435
165.18501 -37.712551 63.359608 8223605
164.78328 -37.848179 64.39093 9932682
164.43781 -37.857498 65.398727 8222322
164.08963 -38.077969 66.176636 9998727
163.74309 -38.089729 67.18486 11051415
163.39587 -38.102695 68.193642 10459278
161.37944 -38.124146 73.125374 8288371
161.07103 -37.968033 73.765259 8945528
160.70372 -37.881897 74.456017 9997701
160.24069 -37.64994 75.415215 8419957
159.70781 -37.63147 76.340973 9143167
159.175 -37.614365 77.265656 9932425
158.64217 -37.598457 78.189491 10195852
158.21594 -37.586712 78.927834 9340802
157.85818 -37.363884 79.700195 9472386
170.03966 -36.450214 49.394482 10064009
169.85815 -36.672474 50.19994 10590607
169.71945 -36.5676 51.226353 8814969
169.39624 -36.563957 52.2421 8354675
169.12383 -36.559029 53.05027 7828331
168.78305 -36.554096 54.060188 7697004
168.44194 -36.550255 55.069817 10459282
168.10036 -36.547768 56.07922 9801349
167.75844 -36.54641 57.088474 10262154
167.48314 -36.616951 57.820168 10656655
167.06931 -36.759426 58.879501 8946297
166.72624 -36.761478 59.888184 9011059
166.52013 -36.763374 60.493397 10261124
159.98569 -36.782478 76.473679 8617336
159.54999 -36.596992 77.352692 8419956
159.06493 -36.497089 78.254936 9670019
158.55974 -36.52623 79.099205 11446174
157.96576 -36.60321 80.061172 10327694
157.42317 -36.71302 80.911636 10853524
157.06404 -36.492245 81.684929 10787219
156.59756 -36.270401 82.642776 10130057
170.4705 -35.600986 48.423977 9800838
170.32306 -35.670849 49.402428 9537921
170.20496 -35.656948 50.391102 9998470
169.97945 -35.7612 51.393677 10919571
169.69022 -35.714138 52.332329 10064262
169.34651 -35.815147 53.231514 7959659
168.93433 -35.916142 54.332436 9012350
168.66106 -35.913261 55.141151 9998731
159.1942 -35.900356 78.461304 10064777
158.83525 -35.676414 79.236534 10985623
158.30008 -35.663456 80.162224 10392974
157.76492 -35.651608 81.087181 10129289
157.33673 -35.643047 81.826622 10853012
156.80133 -35.633484 82.750282 10195594
156.26584 -35.625053 83.673416 9472640
155.90489 -35.406879 84.44809 9735812
155.5835 -35.403042 85.001823 9735812
171.07005 -34.536404 46.730675 9142907
170.90948 -34.76461 47.350517 10064009
170.76619 -34.79258 48.418816 8879996
170.66138 -34.695263 49.544621 10458249
170.45464 -34.955322 50.442284 9932419
158.50618 -35.025406 80.266556 8682867
158.05811 -34.908592 81.117706 9668738
157.6293 -34.664516 82.026947 8616050
157.15132 -34.624046 82.874458 9406079
156.64209 -34.648201 83.729179 9340798
156.10754 -34.769176 84.557793 9604226
155.57088 -34.76313 85.481613 9867910
155.09219 -34.687546 86.355995 9538945
154.77882 -34.543175 86.996552 11380380
171.6189 -33.404469 45.63987 11314587
171.39822 -33.682121 46.598427 9866885
171.29324 -33.644417 47.551449 10854036
171.09787 -33.851551 48.512321 9406336
170.87575 -34.178074 49.339054 9932419
156.88954 -33.781982 83.926308 8813942
156.44606 -33.704754 84.741104 9208956
155.91808 -33.752319 85.611198 9406848
155.43518 -33.633411 86.523453 9735815
154.93909 -33.690872 87.332161 10064523
154.44424 -33.635002 88.220284 8617337
153.9865 -33.402519 89.17128 9143420
153.56323 -33.259907 89.998772 9997959
172.21648 -32.346031 43.939781 11709084
172.05679 -32.571823 44.561172 10722959
171.91541 -32.594879 45.629753 10525326
171.77341 -32.618973 46.699783 10261643
171.6438 -32.708412 47.478676 9866886
156.28613 -32.847057 85.629852 9472387
155.8143 -32.628609 86.594254 9604229
155.27464 -32.62471 87.521233 10261902
154.84274 -32.622395 88.262611 9143680
154.30273 -32.620621 89.189156 9077628
153.76248 -32.619877 90.115593 9471615
153.27574 -32.576946 90.974052 10063496
172.59822 -31.617783 43.006233 9210491
172.47023 -31.703735 43.783264 9802371
172.35561 -31.680943 44.770859 9210491
172.18968 -31.787722 45.790829 9210491
171.99886 -31.980038 46.760689 8089963
155.47643 -31.983927 87.63501 10261902
155.11108 -31.767841 88.415543 9143936
154.56989 -31.76602 89.34359 8617849
154.02859 -31.765217 90.271553 9471615
153.5954 -31.765432 91.013863 9997959
153.05046 -31.711618 91.83931 9998728
152.4924 -31.515163 92.605713 9143419
173.12685 -30.608564 41.959915 10986645
172.98798 -30.677588 42.863693 9671042
172.88031 -30.644186 43.886856 9473663
172.62671 -30.913679 44.840744 9210491
172.44194 -31.103603 45.768517 13550517
154.66231 -31.12394 89.645493 8617849
154.29533 -30.909178 90.427902 9143421
153.86122 -30.909315 91.171417 8880246
153.33461 -30.686193 92.110268 8551537
152.64085 -30.658598 92.947556 8616819
152.24413 -30.35853 93.629189 8089963
151.85181 -30.203928 94.229362 8682867
174.54323 -29.341406 38.103096 9734788
174.37854 -29.35125 39.167053 9735812
173.98761 -29.698889 40.106159 9801861
173.8111 -29.778913 41.020683 10065545
173.63354 -29.859922 41.935318 13090737
173.54549 -29.808849 42.946533 9736836
153.22075 -29.840912 93.048912 7827559
152.66367 -29.613846 93.972595 8485489
151.97324 -29.589954 94.812828 9011575
151.41495 -29.365286 95.735039 8879991
151.00073 -29.351997 96.237831 9142651
181.56613 -28.637217 20.567297 10459278
181.70186 -28.55884 21.579596 9668735
181.81647 -28.474007 22.369555 7892840
180.07263 -28.934437 24.352552 12235687
179.95064 -28.932819 25.217806 8617074
179.79298 -28.930801 26.298552 9735297
179.66206 -28.929199 27.162439 9143163
179.52696 -28.927605 28.025675 8419184
176.05882 -29.012455 34.461674 7564131
175.93062 -29.017765 35.316162 8354159
175.76837 -29.025068 36.384331 7563619
175.60403 -29.033003 37.452892 10063747
175.50427 -29.038067 38.093994 8813683
151.95764 -29.034691 96.33699 8682867
151.55843 -29.024904 96.852585 9076601
151.0255 -29.012209 97.538979 8550257
150.35812 -28.997053 98.395073 9273980
149.02754 -28.815426 103.53365 7564651
148.52516 -28.814676 104.24853 9011834
148.01941 -28.813932 104.96102 9932681
147.3822 -28.813023 105.84806 10524304
146.86896 -28.812302 106.55527 10261132
144.54158 -28.799255 114.47309 9735812
143.98668 -28.798626 115.16633 9866374
143.43803 -28.593763 116.15078 8550514
142.72554 -28.504488 116.90745 8747893
181.96735 -27.29998 19.725325 9538176
181.916 -27.710058 20.661604 9997957
181.98608 -27.793056 21.612513 8682099
143.77785 -27.725164 116.42683 9800581
143.08667 -27.700521 117.01185 9471616
142.45903 -27.455103 117.64774 8418928
182.21858 -26.596861 19.663443 10261383
182.25591 -26.777723 20.643934 8682099
143.30232 -26.737776 117.28473 8485232
142.62936 -26.501862 117.95374 6511954
142.14401 -26.102499 118.54382 6511954
182.46268 -25.665396 18.742018 11576728
182.53613 -25.765806 19.785799 11247767
182.54077 -26.009563 20.675463 9143422
142.94286 -25.500242 118.164 7169883
142.15878 -25.430925 118.84679 8287853
141.70212 -25.192999 119.33709 7958888
182.68871 -24.841805 18.024614 7564385
182.75377 -24.858288 18.697218 11905693
182.80606 -24.952215 19.51763 9340799
142.86697 -24.779499 118.56554 8287850
142.52626 -24.49964 118.97957 8551025
141.79482 -24.448298 119.6101 11182233
183.10257 -23.424688 17.027029 10327692
183.07426 -23.73671 17.839418 9011574
183.11438 -23.906374 18.807398 9932676
142.58194 -23.722025 119.29876 10064264
141.96623 -23.62969 119.85261 10985367
141.35107 -23.537991 120.40575 10327437
183.40767 -22.379759 16.313009 10985622
183.39314 -22.614548 16.979185 11972517
183.48212 -22.633949 17.878145 7038298
142.21674 -22.736534 120.06455 10261644
141.52168 -22.718159 120.64948 9405822
141.06303 -22.481483 121.141 9208443
183.63203 -21.665668 15.976301 8288370
183.71869 -21.730583 17.008528 8617074
183.70424 -21.965893 17.676138 7038298
142.23082 -22.060776 120.37039 9208443
141.774 -21.688272 120.92413 9932422
141.02304 -21.523474 121.62415 7893096
183.94662 -20.588987 15.245016 8354163
183.92531 -20.868931 16.001192 8156525
184.02252 -20.840073 16.812586 8814452
141.9097 -20.698263 121.27671 11183001
141.44917 -20.461487 121.76978 8880503
140.66039 -20.398726 122.45329 8090728
184.15985 -19.682556 14.14728 10064774
184.25047 -19.697641 15.04637 10064520
184.24693 -20.012396 16.087721 9998212
141.46184 -19.783352 122.07783 7564643
140.88374 -19.589914 122.64811 10261382
140.26607 -19.456453 123.22295 11379348
196.31645 -18.536448 -13.489595 9077370
195.73186 -18.475258 -12.50614 9405307
195.29366 -18.429726 -11.772524 7038307
194.79483 -18.378881 -11.039473 7038307
194.1633 -18.316124 -10.303087 9537926
184.5591 -18.335163 13.283907 7564643
184.53333 -18.666779 14.175154 12235685
184.64726 -18.662468 15.226721 10919570
141.17059 -18.720106 122.81889 10656140
140.37653 -18.628841 123.5202 10064259
139.74036 -18.390244 124.15971 8485485
192.02122 -17.606838 -3.2646232 9010806
191.38103 -17.54772 -2.5656524 9010806
190.74303 -17.489008 -1.8707404 9142393
184.78241 -17.663769 13.076036 7564643
184.87086 -17.723412 14.110682 9538431
140.68188 -17.772783 123.66921 10459273
139.95612 -17.600677 124.35174 8485485
188.87355 -16.84531 4.4984918 7038307
188.44592 -16.808516 4.9404511 9011579
185.57159 -16.57082 10.667547 9734788
185.47223 -16.564531 11.332857 7894126
185.30139 -16.78377 12.217188 7696492
185.29262 -16.833652 13.246233 7564647
140.8105 -17.047911 123.90307 10459273
140.1989 -16.712166 124.56795 8156521
139.51709 -16.419291 125.27083 8616563
186.62404 -16.192005 8.7054844 10459019
186.51524 -16.184958 9.5991764 7038307
186.40594 -16.178263 10.492231 8617335
186.32361 -16.173391 11.161718 7039331
140.48198 -15.675584 124.82019 6511954
139.84369 -15.554431 125.46352 7564390
139.27028 -15.32386 126.16538 10918805
138.63461 -15.204048 126.81074 10458254
139.58406 -14.771775 126.45069 9208187
138.96461 -14.49554 127.23682 9339773
138.25925 -14.308213 128.00644 9274238
138.43593 -13.916522 129.41821 9735812
137.74333 -13.909683 130.01964 9341055
137.22386 -13.904708 130.47012 8092019
133.88358 -13.552207 140.32988 9998984
133.1564 -13.492375 140.78458 9012090
133.95201 -12.797133 140.60555 10985620
133.32472 -12.503064 141.09923 9143417
133.42838 -11.604817 141.41443 8682867
132.69366 -11.515246 141.88553 8617075
133.04964 -10.650324 142.03804 8617075
132.28532 -10.403039 142.59283 9537408
133.0825 -9.6993637 142.4174 8155756
132.34604 -9.6114006 142.88882 8287341
132.70218 -8.74156 143.04341 8682099
131.93584 -8.4952593 143.59883 8287341
132.67447 -8.0248251 143.3602 9537408
132.20766 -7.4052601 143.89548 9866117
131.46577 -7.0573163 144.47919 9143422
132.31369 -6.4245987 144.24408 9734787
131.67323 -6.2199883 144.70781 8879735
131.88123 -5.3802238 144.93716 9406336
131.11191 -5.1352248 145.49385 8089963
132.11952 -4.4175119 145.20021 9208699
131.38435 -4.3657303 145.6557 8945785
131.59834 -3.4970222 145.89366 8156526
130.96339 -3.204627 146.39096 11247763
131.70561 -2.7224822 146.15511 9340027
131.02838 -2.4296062 146.67751 10590091
131.28975 -1.5881912 146.87605 9734784
130.5466 -1.5060196 147.349 8089963
131.34972 -0.7764684 147.18153 7761509
130.78421 -0.53228736 147.61827 10261132
130.15948 -0.53208435 147.98695 10064268
130.94186 0.36343038 147.91679 8551026
130.20331 0.44453394 148.39786 8419699
130.54971 1.1813644 148.79436 6775130
129.91783 1.428153 149.52219 9471871
129.30214 1.6748589 150.27106 8682099
129.15184 2.1736703 151.20032 8089963
128.66371 2.6765704 152.48242 8089963
162.06876 -38.581272 71.566399 8617080
165.27429 -37.205402 63.667542 8092019
164.99803 -37.211861 64.474655 9603973
164.65213 -37.220989 65.483734 10919314
164.30362 -37.441528 66.262711 9275004
163.95667 -37.453041 67.272301 11051415
163.60912 -37.465771 68.28244 9867141
163.25952 -37.689251 69.06105 9669762
162.91078 -37.704437 70.071976 9669762
162.56131 -37.720791 71.083595 9932936
162.25572 -37.728992 71.882088 9143678
161.77765 -37.656319 72.778671 8880507
161.32927 -37.404472 73.726967 9538435
160.91362 -37.244858 74.553116 8090479
167.48857 -36.333981 58.122757 9209467
167.21416 -36.334873 58.930374 8946555
166.87082 -36.336956 59.939964 8682868
166.5248 -36.48127 60.797455 9011059
166.17943 -36.556156 61.730827 8222060
165.83485 -36.561653 62.74041 9604230
165.55872 -36.567024 63.548248 8749435
165.21303 -36.574806 64.558418 9669765
164.86674 -36.583748 65.568909 12498345
164.58928 -36.59182 66.37764 9538176
164.24182 -36.603077 67.389038 10261899
163.89372 -36.615505 68.400993 10261899
163.61475 -36.626358 69.211029 10393741
163.26538 -36.641079 70.224213 10130313
162.91533 -36.656994 71.238113 9735814
162.60938 -36.664986 72.03849 9472899
162.08597 -36.644871 72.975662 9933192
161.55139 -36.623394 73.906548 9538178
161.12386 -36.607071 74.650398 8025200
160.58951 -36.587929 75.57914 8090993
160.12483 -36.357433 76.540031 9143679
169.35419 -35.49461 53.569733 7564643
169.08083 -35.491032 54.379326 9012350
168.8073 -35.488148 55.188797 8354417
168.39201 -35.698185 56.176117 7762021
168.04947 -35.6968 57.187134 10196361
167.77512 -35.696594 57.995865 9735810
167.43181 -35.697491 59.006767 9143678
167.08803 -35.699474 60.017696 8551541
166.81267 -35.701946 60.826511 8682094
166.46797 -35.706188 61.837662 8025712
166.12282 -35.711555 62.849045 8618105
165.84621 -35.716728 63.65831 10195853
165.50003 -35.724335 64.670258 9735556
165.15321 -35.73304 65.682549 12169380
164.87538 -35.74094 66.492714 10261897
164.52739 -35.7519 67.505943 9275004
164.17882 -35.764046 68.519699 10525071
163.89946 -35.774612 69.331184 11906725
163.54907 -35.894135 70.229362 10393486
163.12805 -36.017765 71.330956 8881020
162.8219 -36.0257 72.132492 8881020
162.31152 -35.833588 73.171013 10327693
161.83282 -35.771622 74.035149 9998727
161.40439 -35.755672 74.780251 9538176
160.86899 -35.736904 75.710526 9932936
160.33369 -35.719246 76.639786 8617334
159.90555 -35.706028 77.3825 9209211
159.45845 -35.585812 78.23423 9604226
170.63066 -34.386475 50.695091 9735297
170.33168 -34.65551 51.633713 9275005
170.05841 -34.650032 52.445324 9538176
169.71646 -34.644302 53.459438 9735555
169.37421 -34.639637 54.473267 8551539
169.10014 -34.636784 55.284115 9012090
168.75725 -34.634338 56.297478 7564642
168.41394 -34.63295 57.310684 8354158
168.13905 -34.632713 58.121227 8749433
167.795 -34.633522 59.134323 9340801
167.45056 -34.635395 60.147453 8420470
167.17464 -34.637798 60.958065 8814456
166.82845 -34.694912 61.914043 11051160
166.41122 -34.860161 62.957825 8092019
166.1342 -34.865181 63.768517 9932938
165.80086 -34.914566 64.695511 9603968
165.36833 -35.09425 65.767868 11182742
165.09015 -35.101967 66.57914 10196104
164.88123 -35.108257 67.187752 8682867
162.04414 -35.131981 74.13163 8682867
161.62619 -34.972763 74.961586 10130313
161.17465 -34.72364 75.913445 9669763
160.68237 -34.65398 76.80629 9340797
160.25316 -34.641113 77.550529 9209211
159.71667 -34.626137 78.479942 9275261
159.18027 -34.612274 79.408501 9932935
158.80009 -34.517345 80.127533 8814197
158.33989 -34.335735 81.045761 9800324
157.92227 -34.155991 81.889816 9010808
171.23331 -33.315468 48.995792 10655371
171.07179 -33.545334 49.618446 10984079
170.9272 -33.574581 50.693325 9800833
170.70116 -33.589329 51.745155 7828079
170.42722 -33.583965 52.558502 8880505
170.0845 -33.578346 53.574856 9538176
169.7415 -33.573799 54.590866 8484977
169.4668 -33.570984 55.403473 8089963
169.12318 -33.568527 56.419048 7498849
168.70605 -33.780529 57.409721 7630440
168.43068 -33.780243 58.221684 8617594
168.15506 -33.780758 59.03355 9800838
160.85422 -33.797199 77.126083 9735555
160.53169 -33.787857 77.685165 9998727
160.06363 -33.559689 78.650246 9538176
159.52589 -33.546139 79.580788 9932166
159.09572 -33.536194 80.324577 9406078
158.55797 -33.52478 81.253578 10260875
158.02019 -33.514458 82.181892 9273980
157.58992 -33.507076 82.924049 9142651
157.2276 -33.287189 83.702049 8089963
171.61761 -32.58017 48.06461 10261131
171.4874 -32.670708 48.845074 10261132
171.37219 -32.692642 49.705135 10063492
171.2276 -32.721161 50.781956 9077883
170.9973 -32.734737 51.834496 9078399
170.6489 -32.943275 52.626518 8157043
170.30568 -32.937725 53.644192 8222573
170.03093 -32.933975 54.458122 8089963
160.05672 -32.913208 79.125397 9867398
159.73367 -32.905418 79.684326 10129545
159.37195 -32.681904 80.46389 9537664
158.83321 -32.670742 81.39447 9866373
158.29434 -32.660637 82.324417 10260875
157.86327 -32.653378 83.067848 9932167
157.3243 -32.645321 83.996552 9076601
156.7852 -32.638348 84.924744 9077371
156.42148 -32.420059 85.704048 9012350
172.14928 -31.553535 46.801399 8617331
171.93144 -31.791416 47.854847 7892840
171.78818 -31.817141 48.930248 9603458
171.72398 -31.709139 49.76178 9471872
171.48219 -32.074448 50.632683 8354163
159.03987 -32.029293 81.500336 9340285
158.56902 -31.805346 82.46714 10260875
158.20567 -31.584154 83.24791 8945272
157.66542 -31.576309 84.178627 9537409
157.12515 -31.569468 85.108818 9472130
156.6927 -31.564821 85.852585 9932681
156.08443 -31.773991 86.744331 8223348
155.61116 -31.556324 87.710899 8617849
172.87416 -30.353123 45.104691 11380376
172.62247 -30.602325 46.083088 13221809
172.47644 -30.703737 46.889923 10393995
172.31387 -30.778402 47.904858 9340283
172.08942 -30.962 49.015572 8024681
157.83055 -30.718176 84.510948 9800581
157.42308 -30.572657 85.352013 9340286
157.05701 -30.498606 86.052299 9537923
156.4454 -30.759672 86.883369 9472387
155.96843 -30.642948 87.806328 9275266
155.46425 -30.700769 88.616982 8946814
154.99609 -30.577559 89.519081 8223348
154.54677 -30.27603 90.575661 9867143
154.11159 -30.276066 91.32016 7104091
173.93672 -29.39596 42.37812 11183511
173.70772 -29.544952 43.282555 9736836
173.56084 -29.58708 44.193436 9867652
173.35718 -29.685823 45.208992 9341565
173.20917 -29.729548 46.120911 10657166
173.00841 -29.877808 46.811279 10657166
156.33629 -29.876711 88.120369 10591124
155.90175 -29.874598 88.867004 9341571
155.51996 -29.737915 89.727501 11313818
155.0563 -29.669483 90.624542 10787985
154.51099 -29.66939 91.557648 7959142
154.04543 -29.664532 92.286438 8354158
153.48856 -29.43671 93.212135 8091245
181.90002 -28.420002 22.972433 8024684
181.93555 -28.563946 23.807669 9867401
181.94633 -28.766161 24.610983 14604230
179.42303 -28.926411 28.672693 8089963
179.31656 -28.925224 29.31938 10787732
179.17104 -28.923647 30.180933 10524043
178.98311 -28.921688 31.256804 9208435
178.7892 -28.919737 32.331612 8681835
178.66974 -28.918573 32.97596 7563619
175.40373 -29.043478 38.735382 9735812
175.26836 -29.051052 39.590694 9735812
175.13152 -29.059076 40.446327 9735812
174.95836 -29.069691 41.516094 9932166
174.81837 -29.078684 42.372154 11380124
154.21242 -29.095097 93.400238 9867657
153.55049 -29.076498 94.266541 8683383
152.88765 -29.058588 95.130791 10656142
152.35651 -29.044731 95.820488 8682867
151.84894 -28.819937 99.376717 10853012
151.4873 -28.81933 99.923256 10458254
150.88039 -28.818331 100.8312 10851980
150.26834 -28.817348 101.7358 10128514
149.7746 -28.81657 102.4567 8617080
149.40216 -28.815994 102.99597 7564651
146.99731 -28.802216 111.32101 7827564
146.45752 -28.80154 112.02605 7038307
145.91435 -28.800873 112.72849 10195339
145.23044 -28.800058 113.60275 9932679
145.31816 -28.455828 114.80621 9011065
144.45215 -28.42222 115.54041 8418928
182.18065 -27.365005 21.96858 8089963
182.1844 -27.611601 22.859304 8024429
182.25639 -27.717602 23.908236 9077887
145.44664 -28.012028 114.90803 8813686
144.90839 -27.598608 115.54856 8484721
144.12389 -27.737762 116.13387 9340030
182.42087 -26.461245 21.106779 8089963
182.43283 -26.660019 21.909567 8550513
182.46988 -26.843014 22.894419 8945531
144.86293 -26.792454 115.96497 8287342
144.3616 -26.560642 116.48954 9932166
143.81206 -26.38146 117.02939 10129799
182.67822 -25.724716 20.987539 8090734
182.7516 -25.827063 22.03631 9340029
182.75584 -26.072969 22.929567 10064011
144.58797 -25.508961 116.79599 9734785
143.89256 -25.485884 117.38335 9603452
143.43494 -25.246502 117.87526 6511954
182.97636 -24.674786 20.166529 8091248
183.05232 -24.695017 20.955309 8419956
183.02264 -25.010986 21.770384 9143422
144.6055 -24.834208 117.09844 9011320
144.14697 -24.594227 117.59135 7367006
143.45119 -24.57255 118.1784 7827556
183.32149 -23.475899 19.274035 7039331
183.32094 -23.700508 20.047476 8946043
183.42719 -23.663088 20.922785 8748921
144.32254 -23.773396 117.83146 7695714
143.70473 -23.679621 118.3877 8682610
143.08755 -23.586491 118.94321 8485492
183.63034 -22.427761 18.561544 7038298
183.58488 -22.705147 19.092894 7696746
183.66772 -22.756638 20.054705 9735556
143.90332 -22.670061 118.69733 9143424
143.23184 -22.602882 119.28567 9209217
142.80168 -22.52688 119.67805 11379356
183.85574 -21.711531 18.226355 7038557
183.94226 -21.778048 19.263315 8354675
183.92683 -22.014778 19.933146 12432037
143.5619 -21.493002 119.53345 9472388
142.76443 -21.566496 120.16015 11116696
142.13319 -21.155468 120.87664 10985367
184.10977 -20.777807 17.416224 8090987
184.15004 -20.91296 18.254892 8617330
184.16537 -21.107441 19.062136 8814969
143.19531 -20.502705 120.30267 9997959
142.40387 -20.438459 120.98904 12235690
184.48022 -19.422308 16.256666 11445400
184.4767 -19.737785 17.300798 9537918
184.47279 -20.054546 18.345701 8682867
143.21008 -19.823048 120.60979 9406334
142.63052 -19.628147 121.18186 10854036
141.90497 -19.453346 121.86552 8880503
198.36623 -18.754759 -16.981554 10524043
197.78 -18.691725 -15.975847 8089705
197.34065 -18.644806 -15.225611 11183002
196.90155 -18.598198 -14.479311 9735812
184.78697 -18.370152 15.536337 10063750
184.80334 -18.56185 16.34424 11708315
184.84456 -18.695179 17.184805 9998212
142.82515 -18.67893 121.46638 9341054
142.12439 -18.664116 122.05441 8419952
141.48691 -18.42403 122.69582 9341054
194.17276 -17.807404 -5.6300063 9341054
193.52461 -17.746765 -4.9150023 9537144
192.87866 -17.686535 -4.2043929 8681835
192.44945 -17.646584 -3.7333999 9010806
185.02435 -17.463528 14.659365 7564643
185.01051 -17.697004 15.330534 10261128
185.09926 -17.757929 16.369558 10590092
142.34431 -17.873117 122.24371 8682867
141.61696 -17.699579 122.92831 10064003
190.81145 -17.013258 2.4850488 8419184
189.94759 -16.938152 3.3848329 8683380
189.30228 -16.882307 4.0545945 9011579
185.50171 -16.577215 13.79933 7564651
185.35318 -16.798559 14.460882 7959145
185.39824 -16.807297 15.361952 9405821
185.32751 -17.036337 16.029654 10063750
141.95198 -16.743027 123.09992 8748401
141.26888 -16.448595 123.80466 7498591
140.70857 -16.135292 124.41639 6511954
187.11981 -15.774627 11.210833 9143166
186.63876 -15.969438 11.85676 7827822
186.1214 -16.162195 12.721769 7564651
185.96838 -16.153076 13.609724 8880507
