# .PCD v0.7 - Point Cloud Data file format
VERSION 0.7
FIELDS x y z rgb
SIZE 4 4 4 4
TYPE F F F U
COUNT 1 1 1 1
WIDTH 1216
HEIGHT 1
VIEWPOINT 0 0 0 1 0 0 0
POINTS 1216
DATA ascii
-4.0040541 -20.26095 148.63896 6511954
115.1134 -19.364105 139.7933 11051415
114.40827 -19.457842 140.13596 8814715
113.63844 -19.526489 140.49962 7762027
112.92242 -19.857925 140.71956 9341054
-2.5840614 -19.974884 149.36739 6643802
-3.3452661 -19.624695 149.17542 6380628
-4.323823 -19.488684 148.80482 7104091
-5.0806952 -19.141663 148.61348 8091242
115.43969 -18.384359 140.01768 10064779
114.53278 -18.408857 140.49496 8288372
-3.6657045 -18.849701 149.34203 6511954
-4.3367519 -18.506012 149.18661 9736323
-5.2077446 -18.541832 148.79488 8617586
115.51673 -17.550465 140.31708 7630439
-4.6271114 -17.852003 149.3186 9736323
-5.2044649 -17.656841 149.14525 9078137
-6.0484314 -17.553787 148.81999 8879989
116.04451 -16.63521 140.4063 6642517
115.60204 -16.847298 140.55853 5920074
-5.3841476 -16.714937 149.4386 9274747
-6.1831799 -16.593966 149.13989 9208954
-7.012187 -16.323677 148.88702 9932419
-6.2708921 -15.731921 149.4698 9669247
-7.269351 -15.487787 149.21194 9603969
-8.1022758 -15.228452 149.04475 9867398
-7.6520491 -14.782001 149.60983 9735555
-8.4140072 -14.658646 149.38301 9933191
-9.3560934 -14.521076 149.09013 8748660
-10.197625 -14.066951 149.77086 8880503
-11.261716 -14.046382 149.44409 8880246
-12.331601 -14.036956 149.2327 7564651
-17.188795 -13.815675 150.39738 9340029
-18.275854 -13.817705 150.2684 10854036
-19.361971 -13.819756 150.13147 11380636
-20.266344 -13.821481 150.01163 8092011
-21.169909 -13.82322 149.88597 10327690
-34.295223 -13.828922 151.73143 7169634
-35.128189 -13.686231 151.66946 7432806
-36.168999 -13.656155 151.50339 6511962
-37.27692 -13.663239 151.29155 6775646
-38.251316 -13.492612 151.31285 10460050
-39.001244 -13.50121 151.20712 11644324
-36.313656 -12.943046 151.77809 6511962
-37.195034 -12.724793 151.73709 7894382
-38.132801 -12.734525 151.60529 7828589
-39.259644 -12.7468 151.4467 10196365
-40.169697 -12.681291 151.34608 9735557
-40.915188 -12.512843 151.30548 9209214
-38.29081 -11.825584 151.91486 7434088
-39.177734 -11.606272 151.87346 10524304
-40.12051 -11.616163 151.74088 8287858
-41.253567 -11.628573 151.58139 6446169
-42.169044 -11.56269 151.48021 6644573
-42.919659 -11.393247 151.43919 6249559
-39.437466 -10.846653 152.11469 8287859
-40.283428 -10.702186 152.05164 7235686
-41.157555 -10.672848 151.94273 6314840
-42.10524 -10.682852 151.80946 5986131
-43.244335 -10.695369 151.64912 6183510
-44.138481 -10.641628 151.54639 5196353
-41.28923 -9.9718542 152.18011 5393738
-42.243565 -9.7732859 152.12193 5459531
-43.228012 -9.7901878 151.98116 5459528
-44.157581 -9.6969404 151.88797 5525571
-45.20787 -9.708293 151.7402 5657157
-46.171074 -9.5101061 151.6806 7499103
-43.307228 -8.8372316 152.31741 5920335
-44.26815 -8.6371374 152.25887 5262143
-45.182404 -8.597764 152.14822 5393985
-46.141312 -8.60742 152.01357 7498847
-47.184341 -8.6183062 151.86697 8617327
-48.108215 -8.2399511 151.87849 8748661
-45.17918 -7.7257404 152.46617 6315087
-46.246487 -7.6384134 152.35207 6511954
-47.209339 -7.6474791 152.21713 6906712
-48.174133 -7.6568823 152.0818 9406846
-49.14077 -7.6665058 151.94614 8091248
-49.744434 -7.4774904 151.93239 8091248
-46.309746 -7.0551548 152.55579 6511954
-47.167038 -6.7838583 152.53737 6643540
-48.16729 -6.7367706 152.41776 8814710
-49.11335 -6.6404362 152.32349 7959402
-50.224277 -6.6995049 152.15013 6774874
-51.163658 -6.446763 152.11375 8156267
-51.829624 -6.3219767 152.0681 10262156
-48.372555 -5.899498 152.69453 7367264
-49.171726 -5.7094822 152.65448 7367264
-50.144562 -5.717308 152.51863 6709596
-51.119644 -5.725338 152.38242 7432033
-52.209366 -5.7740297 152.21568 10525328
-52.904419 -5.5432215 152.20473 10458767
-49.628788 -5.1227922 152.8056 10853012
-50.236732 -4.9299564 152.79269 10195339
-51.182343 -4.7886477 152.71489 8353651
-52.13945 -4.689641 152.62009 9603457
-53.198505 -4.754056 152.45186 9471615
-54.15321 -4.6819715 152.34761 9208443
-55.022404 -4.3707523 152.34209 8092019
-52.214367 -3.7949574 152.93562 9011321
-53.148727 -3.5619226 152.89273 9142906
-54.135338 -3.5679727 152.75563 10064523
-55.201771 -3.6316762 152.58665 9736328
-56.130608 -3.4664135 152.51987 9933450
-57.162682 -3.1869149 152.4805 9933193
-54.248009 -2.6700273 153.06715 9736329
-55.137966 -2.5343225 152.99493 8947069
-56.161049 -2.6197362 152.82396 9539205
-57.127922 -2.5443726 152.71922 9538692
-58.155197 -2.4892604 152.59888 8420471
-55.412338 -1.839572 153.21037 9144448
-56.206593 -1.6547687 153.16907 9078399
-57.175655 -1.5778476 153.06464 8552313
-58.176674 -1.5817226 152.92636 9275777
-59.180679 -1.5856481 152.78767 8880505
-60.157578 -1.3193315 152.75113 9340541
-60.849575 -1.1864868 152.70483 9735041
-57.28212 -0.77000213 153.34422 8092019
-58.212395 -0.67097384 153.29112 10064778
-59.145256 -0.57182521 153.23772 9932932
-60.154488 -0.5743233 153.09874 9932676
-61.166492 -0.57688493 152.95944 9735042
-62.240089 -0.37539837 152.96182 9340797
-63.055077 -0.3772316 152.84955 9735299
-60.125553 0.037848651 153.5648 9209467
-61.14027 0.036249876 153.4256 9209211
-62.108715 0.28141636 153.48215 9275004
-63.146416 0.1977216 153.27675 10129803
-64.155144 0.27888703 153.20171 8551542
-65.152168 0.44295764 153.19162 8288371
-65.770935 0.44236958 153.10687 8288371
-66.364716 0.86261427 153.9742 8418928
-67.198715 0.86252451 153.86389 8089963
-68.035049 0.8623302 153.7533 8089963
-69.084007 0.86221421 153.61472 7038307
-70.136543 0.86207521 153.47578 9932937
-86.401222 1.3403685 155.55785 10459022
-87.04512 1.5607765 155.3894 10524815
-88.052856 1.559531 154.9902 10195594
-87.367722 2.2252929 155.52185 10064009
-88.127151 2.4026496 155.2908 9998215
-89.045845 2.557996 154.98808 9406590
-88.231537 3.2636309 155.58646 10063753
-89.101341 3.2936003 155.25406 9274748
-89.880989 3.4130702 154.99229 9472382
-89.153778 4.2331266 155.60098 8419696
-90.080544 4.1893816 155.21716 10129800
-90.823486 4.4596577 155.02902 11182228
-89.482033 4.906888 155.73488 10261132
-90.134956 5.1331539 155.56503 12892079
-90.950897 5.1349068 155.24294 12300196
-91.606354 5.3618402 155.07237 9932419
-90.465599 5.8101883 155.69917 9866116
-91.076378 6.2645159 155.63531 10194824
-92.071136 6.2678118 155.2431 11313558
-92.685432 6.7235041 155.17841 12432037
-91.540306 7.1732635 155.80748 12234149
-92.084892 7.4487247 155.69978 11116180
-93.022072 7.4075289 155.31287 10129797
-92.329781 8.0881948 155.85321 10261383
-93.082626 8.366643 155.66432 9537917
-93.290176 9.1623487 155.89363 9340539
-93.624741 9.4708061 155.88196 11182228
-93.71373 9.9317913 156.02789 8486256
68.467697 -43.142353 144.36734 9932423
67.687157 -43.281544 144.69595 9143418
66.741524 -43.406895 144.9536 9932934
65.751297 -43.705101 144.89478 10131085
64.877563 -43.705303 145.2868 10262929
62.345383 -43.710777 144.72807 10458251
61.647118 -43.710987 145.02533 12563367
60.597412 -43.711315 145.46526 9603969
59.896019 -43.711559 145.7547 8682867
57.410164 -43.717125 145.13741 11314588
56.534924 -43.717476 145.47896 9142650
55.657669 -43.717846 145.81549 8682867
54.954453 -43.718147 146.08089 8682867
52.34071 -43.7239 145.46992 9801605
51.639153 -43.724251 145.71927 8420720
50.760593 -43.724705 146.02606 9997951
49.703934 -43.725273 146.38742 11313299
48.998116 -43.725666 146.62431 10261132
46.612579 -43.731461 145.87828 9340541
45.733128 -43.732002 146.15474 10064776
44.675629 -43.732677 146.47981 10064776
43.615826 -43.733383 146.79723 10393485
42.731033 -43.733986 147.05606 9932934
39.69696 -43.740429 146.42642 5919309
38.637688 -43.741238 146.7079 7038307
37.753502 -43.74192 146.93675 8287859
36.867832 -43.742626 147.16002 8090221
35.803322 -43.7435 147.42101 10393230
34.620701 -43.525902 147.49724 9406081
33.686001 -43.337021 147.17264 9735559
33.076565 -43.237328 146.94772 9932937
69.388695 -42.399052 144.21236 10787988
68.571709 -42.466503 144.58769 9669250
67.706779 -42.471031 145.01187 8682867
67.158554 -42.667671 145.20303 9932934
34.352257 -42.899498 147.63525 9011838
33.726711 -42.506882 147.51947 9275009
32.733479 -42.534428 147.07758 9538181
70.420334 -41.263096 144.16055 10459278
69.652435 -41.551865 144.42279 10722450
68.756332 -41.548126 144.86571 8683127
67.96814 -41.890182 145.1165 7564651
32.7715 -41.601151 147.4641 8354163
31.915573 -41.422443 147.16351 10130314
71.299904 -40.527142 144.02301 8879990
70.605652 -40.527584 144.36481 9867141
69.627464 -40.568333 144.83028 9143418
32.634888 -40.686867 147.76587 10459278
31.632963 -40.609894 147.36209 12169896
30.761997 -40.283039 147.11359 9341054
72.307556 -39.300449 144.01949 10392717
71.562431 -39.502983 144.30513 9932166
70.707336 -39.607315 144.68442 9867141
69.906326 -39.81881 144.99405 9275004
31.631584 -39.688965 147.72404 9867141
30.768934 -39.441113 147.44792 8551284
30.023966 -39.452671 147.12071 10590098
73.541588 -38.137974 143.87785 11511967
72.685837 -38.395061 144.19652 9735043
71.675682 -38.442688 144.67525 10458508
70.880981 -38.782871 144.93011 11511193
30.646757 -38.519588 147.75769 7433063
29.775438 -38.620941 147.34039 9142910
29.061266 -38.114925 147.23027 10261132
74.367424 -37.362789 143.78177 12236458
73.541489 -37.424809 144.16397 11906468
72.668037 -37.422928 144.59529 8879991
72.112839 -37.616886 144.79117 9735043
30.306765 -37.747852 147.91415 7564393
29.720236 -37.485733 147.76331 8090736
28.790447 -37.501938 147.3542 9472127
75.26062 -36.197548 143.80891 8682867
74.575493 -36.454365 144.04362 9867397
73.700172 -36.451374 144.47624 9998984
72.936989 -36.839401 144.69673 8617075
29.58021 -36.744225 147.99443 8090736
28.781134 -36.636642 147.69069 9472126
27.731661 -36.377087 147.3383 8814453
76.348259 -35.292545 143.63594 8288621
75.613564 -35.483635 143.92139 8287597
74.560898 -35.478786 144.44221 9142394
73.827332 -35.671551 144.72646 8814710
28.582987 -35.769615 147.94614 10787726
27.720554 -35.462502 147.69345 10261383
26.883509 -35.310371 147.39082 6511954
77.345055 -34.255806 143.56042 8683123
76.532097 -34.462292 143.87834 8288621
75.666756 -34.562176 144.26482 7892839
74.913078 -34.763653 144.5555 7037274
27.602661 -34.623287 147.97266 9866882
26.740465 -34.575153 147.61818 8419695
26.036484 -34.249115 147.4416 7433056
78.088493 -33.346512 143.55878 10853012
77.625092 -33.578365 143.6942 9275004
76.644836 -33.532394 144.19582 7828326
75.907204 -33.724274 144.48238 8287341
27.388443 -33.936714 148.15009 7959144
26.689318 -33.491898 148.02235 8156523
25.82259 -33.566704 147.61748 8682867
25.051355 -33.29567 147.39015 10854036
79.351707 -32.178226 143.40477 12433068
78.540855 -32.515289 143.66925 12037796
77.569008 -32.507832 144.15129 10853778
76.883568 -32.814384 144.36615 8551793
26.281216 -32.724407 148.14766 9406590
25.690195 -32.65498 147.91901 9143418
24.848963 -32.438049 147.64001 8090730
80.361794 -31.137047 143.32462 12564655
79.541382 -31.342773 143.64648 10393742
78.668877 -31.440845 144.03719 10787985
77.908501 -31.641485 144.3315 10656398
25.684412 -31.816895 148.24632 9209724
24.7845 -31.476078 147.99071 8156780
23.865099 -31.492804 147.58589 7037274
81.124077 -30.226019 143.3336 11314588
80.552467 -30.416479 143.53035 11446174
79.66494 -30.408442 143.97256 10393742
78.915657 -30.59774 144.25381 11314844
24.580133 -30.617126 148.2402 8814709
23.662039 -30.638517 147.84253 7366497
22.722977 -30.192001 147.67027 7564651
83.318604 -29.129356 143.16524 11380380
82.535233 -29.307816 143.40269 12563880
81.632881 -29.538939 143.65753 10656656
80.674057 -29.700052 143.9917 10525071
79.837257 -29.841938 144.28534 10262156
23.647722 -29.867096 148.33502 8090990
22.682257 -29.525877 148.20818 7762029
21.852673 -29.452734 147.9447 10393743
20.967768 -29.079973 148.12233 10788243
104.19087 -28.213678 141.67078 10129798
103.48564 -28.447248 141.92485 8945524
102.61563 -28.380007 142.3808 9735040
101.99859 -28.574171 142.60724 9209467
99.02372 -28.662586 142.02531 10590612
98.509598 -28.662346 142.38115 10590612
97.994347 -28.662109 142.73537 8814971
93.446831 -28.669344 142.63255 9012863
92.585892 -28.669044 143.19145 8089963
88.474854 -28.676485 142.78552 6510930
87.612923 -28.676275 143.31409 7169632
86.921326 -28.676125 143.7336 9209214
85.33503 -28.86393 143.0441 8156785
84.446205 -28.855272 143.51047 11380380
83.734886 -28.848753 143.88223 10064779
20.406487 -29.044062 148.0069 10261643
19.799658 -28.866751 148.36641 9471871
18.688181 -28.765652 148.77972 8287856
17.791582 -28.766708 148.88867 9341059
5.6454592 -28.575943 149.54424 10195852
4.6958418 -28.499809 149.16255 9274753
4.2610245 -28.252016 149.07173 10064011
105.40327 -27.08131 141.52702 9341315
104.53926 -27.496389 141.78661 9538177
103.56087 -27.559507 142.24374 9735297
102.94141 -27.754227 142.47113 10129798
5.4833212 -27.872492 149.7513 10656143
4.8151789 -27.582348 149.57597 10787731
3.9499199 -27.47179 149.24446 9669251
3.1808016 -27.102703 149.05652 8617075
106.19017 -26.145422 141.51427 8683899
105.47864 -26.380907 141.77074 8552313
104.53614 -26.439554 142.21193 10064264
103.93414 -26.720724 142.39606 10129798
4.6399021 -26.854774 149.78688 9866628
3.9123976 -26.545769 149.59328 9077113
2.8945887 -26.512604 149.16508 8419695
107.34499 -25.323851 141.27457 9932166
106.52348 -25.514288 141.60306 8880764
105.55708 -25.4874 142.09032 9012607
104.93216 -25.683718 142.31978 11905701
3.6454566 -25.709955 149.80705 9866373
2.8269999 -25.65258 149.47484 9932423
1.9826214 -25.356873 149.22537 12433069
108.21236 -24.061895 141.35362 10721426
107.47369 -24.524118 141.53215 9931910
106.56376 -24.445578 142.01218 8091245
105.93594 -24.642908 142.24243 9341054
2.710912 -24.692312 149.80312 10721683
1.7442372 -24.509138 149.45624 10590610
1.0219233 -24.284035 149.2318 10985367
109.18409 -23.228128 141.20932 7892584
108.46284 -23.46678 141.46902 8813686
107.57616 -23.399946 141.93292 9405823
106.94545 -23.598192 142.16417 10591121
2.4724209 -23.841455 150.03516 9735046
1.746649 -23.616194 149.80931 7695979
0.73390508 -23.51721 149.40927 8616563
110.16022 -22.103086 141.17978 8813941
109.47523 -22.516922 141.35129 8682355
108.54652 -22.564373 141.79007 7563619
107.96075 -22.549217 142.08481 8813686
1.5061791 -22.944946 149.96971 8288116
0.66169572 -22.655306 149.7178 7498594
-0.20386769 -22.532812 149.39082 7630435
111.24065 -21.120466 141.04167 12169897
110.5125 -21.361782 141.30368 9208958
109.55023 -21.423615 141.75322 10327181
108.78735 -21.779224 141.98648 9603202
0.66128087 -21.75976 150.07069 7762277
-0.06182076 -21.539619 149.84401 7959400
-1.0225208 -21.367336 149.49539 7761766
112.03053 -20.271101 140.99324 8090987
111.49702 -20.518684 141.15691 9998729
110.49125 -20.406557 141.69765 7827821
109.96033 -20.653957 141.86005 9143166
-0.30478072 -20.68964 150.07376 6906712
-1.1459043 -20.58532 149.75026 6578007
-1.9839218 -20.482061 149.42764 6183252
113.22219 -19.137094 140.8611 8880503
112.42764 -19.408791 141.14368 8880503
111.55064 -19.387598 141.58449 9735301
110.74651 -19.804045 141.81369 7564393
-1.1952341 -19.730625 150.0658 8946812
-2.1844089 -19.591785 149.69168 9143675
-2.9480569 -19.241457 149.49879 9209467
114.12161 -18.136507 140.81944 7564651
113.47306 -18.340435 141.05727 8090987
112.47867 -18.317205 141.55669 9538433
-1.5149734 -18.95085 150.23466 11709087
-2.2818229 -18.599827 150.04053 11380122
-3.2683837 -18.464724 149.66609 8288621
115.10942 -17.278189 140.6485 6644053
114.47144 -17.48518 140.90382 7104352
113.47562 -17.462877 141.40828 8090989
112.62838 -17.663414 141.7453 10591121
-2.4839199 -17.705517 150.30548 10985364
-3.3220251 -17.608986 149.98021 9603970
-4.1570835 -17.513378 149.65588 9736323
116.19892 -15.975485 140.59309 5919050
115.41252 -16.255142 140.90312 5986123
114.46435 -16.439037 141.32883 6973274
113.67758 -16.587708 141.66002 7762027
-3.3287284 -16.978212 150.22583 10261899
-4.0936623 -16.63134 150.0309 9604225
-4.9063578 -16.572115 149.70198 11972257
116.3106 -15.24716 140.95845 5919306
115.57072 -15.413859 141.21167 5920074
114.73631 -15.507079 141.57742 5920074
-4.1313677 -15.810175 150.3521 8946295
-5.1379833 -15.562294 150.0834 11313817
-6.1259031 -15.265381 149.86798 10195591
116.52746 -14.674488 141.33688 6642517
-5.5162373 -14.85145 150.47499 10261643
-6.2367878 -14.653505 150.32796 10721935
-7.2352171 -14.5868 149.95195 10130570
-8.0630665 -14.117253 150.50342 9867398
-8.7765627 -14.100143 150.25948 9209211
-9.3105259 -14.087535 150.07625 9933191
-11.195181 -13.804893 150.96663 9341054
-12.104645 -13.806485 150.89554 9538694
-13.195456 -13.808414 150.80324 9867401
-14.285581 -13.810365 150.70303 11380380
-15.193513 -13.812009 150.61372 7564651
-16.100779 -13.813665 150.51859 7959408
-30.289003 -13.6457 152.34619 9011832
-31.146412 -13.614353 152.24033 10196106
-32.07618 -13.621563 152.11052 10524815
-33.192848 -13.630832 151.95436 8682867
-34.067318 -13.575818 151.85486 9077629
-34.699238 -13.456106 151.81207 8814456
-31.188566 -13.050141 152.44011 11380380
-32.19165 -12.727551 152.42044 9538176
-33.156826 -12.741893 152.2832 9077625
-34.065056 -12.648302 152.19308 11511450
-35.135803 -12.704964 152.026 8748661
-36.030472 -12.461112 151.99249 8814456
-36.665932 -12.341007 151.94931 8091760
-33.140957 -11.931711 152.58043 8682867
-34.149849 -11.607893 152.56047 8024936
-35.180237 -11.616366 152.4165 9011573
-36.093185 -11.522548 152.32581 7827816
-37.108047 -11.586017 152.16391 8881018
-38.168106 -11.310855 152.11917 7039331
-35.106976 -10.808252 152.72078 8617072
-36.062756 -10.625494 152.65665 8222316
-37.192005 -10.635039 152.49878 8617332
-38.134197 -10.643438 152.36691 8091760
-39.005661 -10.613318 152.25871 10589840
-39.851265 -10.468549 152.19585 7038307
-36.30011 -10.055151 152.83186 6708822
-37.070656 -9.8701591 152.79384 8090475
-38.03167 -9.6866236 152.72931 8682613
-39.166199 -9.6963778 152.57066 9537667
-40.188965 -9.7603817 152.40756 8813945
-41.007576 -9.4829321 152.39664 7235684
-41.858582 -9.3372126 152.33334 5393738
-38.289894 -8.9217768 152.97247 9340289
-39.065353 -8.7356939 152.93423 9340289
-40.03231 -8.5509911 152.86932 9537667
-41.173046 -8.5606041 152.70981 7762027
-42.125191 -8.5689163 152.57661 7564648
-42.964745 -8.4477978 152.506 7170404
-43.882721 -8.1985998 152.47125 7565675
-40.295349 -7.7816753 153.11346 9275008
-41.075924 -7.5942526 153.07498 10261901
-42.030098 -7.6018162 152.94177 11511967
-43.176956 -7.6112604 152.78157 9341828
-44.134308 -7.6194239 152.64769 7565675
-44.921871 -7.432188 152.60818 7039326
-42.179382 -6.8660688 153.18924 12762290
-43.083584 -6.6394758 153.14815 12236716
-44.042957 -6.6467972 153.01431 8749691
-45.142975 -6.7042465 152.84305 6906972
-46.044773 -6.5327473 152.78215 6380368
-46.97382 -6.2799635 152.74722 6511954
-43.354317 -5.8621283 153.39417 7565675
-44.216545 -5.7117844 153.33105 7499625
-45.106724 -5.6788988 153.22136 7169889
-46.071655 -5.685874 153.08685 6116685
-47.150093 -5.733077 152.92229 6248782
-48.017887 -5.6023054 152.85124 6972506
-45.246777 -4.9613791 153.46342 7367525
-46.165112 -4.8176107 153.39027 5919050
-47.06916 -4.6548023 153.3259 5919050
-48.117054 -4.7178984 153.1597 6709334
-49.089794 -4.724472 153.02431 7959402
-50.001587 -4.4346333 153.00522 9537667
-47.312035 -3.7923801 153.60672 5919050
-48.032768 -3.7305398 153.53073 6445651
-49.007523 -3.7360747 153.39543 9669508
-50.179874 -3.7429316 153.23267 8879995
-51.212456 -3.6298611 153.13269 7498601
-52.102402 -3.2573521 153.14665 7630179
-48.294106 -3.1378429 153.71077 8092019
-49.235844 -2.8775601 153.67682 12893621
-50.099457 -2.7491658 153.6055 8090479
-51.037529 -2.7039015 153.49376 7498598
-52.088036 -2.5594656 153.40271 7958888
-53.074203 -2.5641971 153.26616 8879990
-53.889618 -2.368072 153.22612 9209467
-50.388374 -1.9531163 153.8559 5919050
-51.115234 -1.7959461 153.81372 8024683
-52.06657 -1.5088823 153.78819 8551025
-53.141525 -1.6130424 153.60332 9143162
-54.11013 -1.5089346 153.50879 10064521
-54.952911 -1.4889683 153.40085 9472898
-55.830345 -1.1698365 153.39711 9078399
-52.503304 -0.75711733 154.0022 8287853
-53.097588 -0.75870955 153.92036 9801092
-54.051003 -0.59972608 153.90901 10787732
-55.027088 -0.5212689 153.83464 10985111
-56.134712 -0.56436408 153.65221 8814968
-57.086597 -0.49908271 153.57115 10854036
-57.992435 -0.3659516 153.54651 9933193
-55.295025 0.045826316 154.22763 10064521
-56.095802 0.044488311 154.11775 10261383
-57.063541 0.20620304 154.11093 11774366
-58.052605 0.28660536 154.03827 9998727
-59.079506 0.20337147 153.83444 9472638
-60.040916 0.44803762 153.8918 9209467
-61.056847 0.44697046 153.75262 9735555
-61.202168 0.86421168 154.65906 10262156
-62.022823 0.86391234 154.55 9538176
-63.051144 0.86358356 154.41338 9735555
-64.082939 0.86324894 154.27652 8485749
-65.117989 0.86299181 154.13936 9735812
-65.740685 0.86275446 154.05692 10261132
-84.393532 1.3434231 156.35341 8090987
-85.034492 1.5634134 156.18591 8813685
-85.966606 1.6063879 155.83398 9668738
-85.393082 2.4487586 156.39059 9406591
-85.996971 2.4483232 156.15146 10261643
-86.932167 2.4921758 155.79865 9866374
-86.210541 3.2634509 156.38599 9932678
-86.964226 3.3377512 156.11691 10129802
-87.719124 3.4122651 155.84738 9011321
-86.996597 4.1862993 156.43622 10195850
-88.049759 4.1871519 156.01979 7696229
-88.585922 4.4564686 155.9131 9340286
-87.450569 4.9036999 156.53732 9341057
-88.10041 5.1293478 156.36853 8617331
-88.913383 5.1307821 156.04745 9800581
-89.56562 5.3569736 155.87794 7564643
-88.223854 5.8047066 156.58403 9801093
-89.03405 6.2583818 156.44098 9537921
-89.937599 6.2609892 156.08455 8682099
-90.635292 6.7157593 155.98648 7563619
-89.944092 7.3942356 156.52554 9076857
-90.968086 7.398344 156.12198 9273979
-90.275826 8.0782566 156.66196 9208187
-91.024734 8.3557148 156.47429 10392715
-91.907593 8.3907604 156.13866 10524555
-91.084206 9.1108198 156.74631 9998214
-92.020424 9.2768221 156.4408 9669504
-92.754211 9.2354603 156.13431 10261383
-92.081696 10.03563 156.71376 9143161
-93.021896 10.203544 156.40804 10985105
-93.803108 10.393877 156.17416 8486256
-92.235062 10.843966 156.97069 8682867
-93.053391 11.15901 156.77119 10656398
-93.834099 11.412752 156.56239 8880758
-93.99926 12.483803 156.91817 8617330
-94.343094 13.18761 157.0589 6512978
66.408737 -43.059303 145.41493 9932934
65.688332 -43.25882 145.68965 9210242
64.607666 -43.332275 146.09976 8684155
63.720211 -43.647179 145.98732 9078139
62.770943 -43.705864 146.20573 9932934
62.065659 -43.706085 146.50534 11380380
59.544601 -43.711681 145.89799 8682867
58.840935 -43.711929 146.18169 8682099
57.782845 -43.712337 146.60139 9340029
56.898983 -43.712692 146.94543 9932422
54.426266 -43.718391 146.27769 8682867
53.720776 -43.718719 146.53687 8682867
52.66032 -43.719234 146.91954 8092011
51.774624 -43.719681 147.23279 8814449
51.242218 -43.719959 147.41812 10458246
48.467926 -43.725971 146.79953 8879479
47.760117 -43.726387 147.03023 8418928
46.873672 -43.726925 147.31358 9274493
45.807796 -43.727589 147.64684 10655886
45.095947 -43.728046 147.86502 10655886
41.844513 -43.734608 147.30922 9538176
40.778839 -43.735374 147.60616 9340798
39.711048 -43.736176 147.89537 9077626
38.819645 -43.736851 148.13072 9538176
37.926773 -43.737553 148.36034 10722450
36.529984 -43.502174 148.34134 11511967
35.775349 -43.315697 148.08774 10261387
35.137032 -43.393383 147.77997 9734787
67.216805 -42.281216 145.3295 9932934
66.668312 -42.478374 145.52046 12433069
65.802353 -42.486107 145.94392 12433326
64.984291 -42.558945 146.31761 11907239
36.455784 -42.876534 148.55728 11906725
35.851387 -42.594059 148.40689 10261387
34.855717 -42.570259 147.98433 8879737
34.014614 -42.115639 147.79955 10459281
68.432961 -41.114632 145.19919 8814971
67.644188 -41.457424 145.44995 7696237
66.639336 -41.513058 145.92259 11446943
65.791351 -41.778217 146.23378 14078918
35.700481 -42.018745 148.56949 8681843
34.853668 -41.563251 148.38188 8748666
33.863533 -41.544651 147.96016 7564651
33.267872 -41.269444 147.81075 7564651
69.246613 -40.337246 145.11073 8682867
68.597252 -40.4949 145.36726 9275777
67.751404 -40.576958 145.75095 7762286
67.00592 -40.607895 146.10565 8420214
34.569469 -40.740131 148.58286 9011838
33.747047 -40.6138 148.27634 10459281
32.815838 -40.229218 148.02435 8682867
69.618706 -39.432053 145.29109 9801348
68.670158 -39.56501 145.70491 8222835
67.822609 -39.647175 146.0894 7564651
67.21859 -39.961124 146.26071 7564651
33.598618 -39.568092 148.62358 9932936
32.861423 -39.458588 148.34737 8682867
32.069489 -39.390499 148.03123 8682867
71.352608 -38.005714 145.00984 13550517
70.557419 -38.346558 145.26482 11774108
69.654816 -38.341908 145.71133 10261128
68.88253 -38.633385 145.97458 8222319
32.793083 -38.646149 148.63757 9275007
31.876072 -38.514004 148.29233 9867141
31.065523 -38.398087 147.98695 8090736
72.175026 -37.227829 144.91656 8617075
71.619675 -37.42234 145.11229 11642780
70.745819 -37.42329 145.54265 10853264
69.919952 -37.490036 145.92282 7563619
32.349331 -37.853004 148.75743 11709348
31.754522 -37.587204 148.60449 10393487
30.845331 -37.59016 148.2095 8682616
72.613815 -36.400612 145.03212 8879991
71.650475 -36.400379 145.50705 9866371
70.852592 -36.742104 145.76326 10984850
31.599825 -37.019642 148.76088 9143166
30.820322 -36.549503 148.60825 9997960
29.911844 -36.427147 148.26292 9143166
73.523994 -35.378075 144.99368 8814710
72.729797 -35.513508 145.33081 10854036
71.817406 -35.51326 145.78065 9077113
30.623289 -35.675217 148.86702 10261132
29.74824 -35.560379 148.53319 10326924
28.954622 -35.505428 148.21104 11182483
74.6259 -34.37138 144.8544 7432032
73.666618 -34.499088 145.276 8024938
72.810051 -34.576035 145.66739 10590864
72.197563 -34.888515 145.84395 11380380
29.61731 -34.697548 148.81606 9932933
28.756313 -34.46764 148.5336 10064518
28.15646 -34.392498 148.30339 8682867
75.523552 -33.487247 144.76663 8747892
74.607079 -33.483795 145.21976 8813429
73.809433 -33.618805 145.55873 7695973
28.829327 -33.571526 148.91792 12762290
27.867826 -33.589775 148.49428 8880246
27.046274 -33.174995 148.30176 9406590
76.483131 -32.392994 144.73259 9406589
75.698021 -32.595383 145.03838 8682354
74.787094 -32.673763 145.45596 10589839
28.671961 -33.008602 149.07137 14604238
27.845331 -32.59317 148.87677 8946043
26.817238 -32.42717 148.49683 9472383
78.138481 -30.986471 144.48085 12103329
77.517906 -31.297476 144.66202 9735810
76.62149 -31.567966 144.99538 9209210
75.736511 -31.563791 145.43327 9076854
75.173218 -31.758375 145.63284 9339769
27.554544 -31.790211 149.06686 10064011
26.708673 -31.590143 148.77922 9472130
25.850256 -31.356142 148.49954 9275261
78.53701 -30.360474 144.55211 11116949
77.614326 -30.35454 145.01088 9735810
76.769455 -30.697096 145.27629 9340540
76.011566 -30.974379 145.53413 9339769
26.697721 -30.730244 149.12048 9208960
25.848783 -30.519512 148.8521 7959407
25.106476 -30.370361 148.60785 9209981
81.185104 -29.109676 144.25267 10656398
80.544464 -29.228401 144.46767 9866630
79.660583 -29.363274 144.78871 9340541
78.802704 -29.58663 145.01512 10196107
77.88147 -29.828068 145.25862 9932932
25.538836 -29.80088 149.20436 8617080
24.724092 -29.653259 148.97047 9801351
23.883104 -29.437828 148.78052 9341056
23.045498 -29.223656 148.59041 7564651
102.08765 -28.153976 142.73181 9209467
101.47112 -28.348562 142.95778 10064521
100.60387 -28.283522 143.4115 11510942
99.904922 -28.518677 143.66191 9932934
97.477692 -28.661884 143.08749 9538691
96.613777 -28.661522 143.67023 9012606
91.721397 -28.668768 143.74484 8682100
90.853889 -28.668512 144.29323 7826791
86.40123 -28.676016 144.04573 8354163
85.531654 -28.675856 144.5619 7564651
83.378868 -28.845663 144.06761 13550517
82.666733 -28.839819 144.4369 11116948
81.597435 -28.831793 144.98813 9998471
23.545355 -29.011227 149.4454 9340545
22.784037 -28.96055 149.28561 9209472
21.835621 -28.898024 149.08479 11380380
20.891287 -28.83643 148.88268 9472128
16.894289 -28.767778 148.9919 8156787
15.816769 -28.769085 149.10884 8024170
14.738462 -28.770412 149.21797 8484977
13.839258 -28.77154 149.30316 7826791
12.939556 -28.772684 149.38255 10064009
11.859336 -28.774076 149.47093 10194823
10.778505 -28.775496 149.55151 9471612
9.6970882 -28.776936 149.62427 10589322
8.7955532 -28.778152 149.67908 9603712
7.7920771 -28.593599 150.11263 8682867
6.8675609 -28.492538 150.03616 10853779
6.0885053 -28.397209 149.80676 14604230
102.53634 -27.488939 142.77724 9143418
101.64835 -27.507771 143.20758 10985111
100.93398 -27.559839 143.53896 11248283
6.7858891 -27.633551 150.41019 9340540
5.8552923 -27.543785 150.04216 11050900
104.07057 -26.086575 142.58304 10129798
103.40357 -26.493902 142.7486 8880246
102.56709 -26.411423 143.19418 9209211
101.70233 -26.704557 143.50304 10393230
6.6035728 -26.883625 150.62682 9866628
5.7456903 -26.579111 150.37495 9603456
4.8642921 -26.441999 150.04691 8484720
4.2814245 -26.113123 149.92387 9208187
104.52474 -25.417053 142.62756 11642523
103.62983 -25.436466 143.06107 8682867
102.90993 -25.489271 143.39491 9801090
5.4818668 -25.571524 150.65782 8090219
4.8746843 -25.510206 150.41879 6905688
4.1650553 -25.508026 150.11192 8616306
106.07552 -24.004452 142.42989 9341054
105.40191 -24.414948 142.59715 10393486
104.55907 -24.332451 143.04575 9012604
103.81132 -24.588417 143.31166 8091760
4.7545328 -24.710989 150.68173 6708566
3.9285519 -24.654684 150.34587 9537152
3.0771687 -24.358633 150.09343 10458511
106.53561 -23.330004 142.47385 9538433
105.6334 -23.35029 142.91043 9933191
104.90764 -23.403944 143.24667 8617847
3.8322461 -23.621201 150.71158 9208187
2.8848832 -23.464159 150.36276 8945787
2.1114028 -23.101616 150.17033 8617080
107.37577 -22.53441 142.37907 10985111
106.59683 -22.51507 142.77083 9998728
105.81907 -22.496307 143.1617 9341054
3.5758774 -22.832846 150.91127 9208187
2.8440726 -22.607504 150.68277 8946044
1.8223383 -22.509743 150.27835 10853012
109.07806 -21.065733 142.12961 10853012
108.3745 -21.394409 142.34442 8485236
107.54214 -21.39905 142.75288 9734788
106.65823 -21.698622 143.06827 8880503
2.6033204 -21.932419 150.84459 9340545
1.7519791 -21.642485 150.58978 10392717
0.93336129 -21.505894 150.28876 10263180
109.41903 -20.423925 142.21915 9997961
108.5256 -20.359608 142.68535 8354165
107.76844 -20.457697 143.01917 9011581
1.6811945 -20.773338 150.90173 8946298
0.92115045 -20.463812 150.69427 9144442
0.1529858 -20.402416 150.38542 8223084
111.1404 -18.941952 141.96552 9143166
110.35141 -19.504553 142.12862 8419700
109.61253 -19.560005 142.47057 9406338
108.69817 -19.582811 142.91211 9011837
0.78242707 -19.665924 150.94875 8552049
-0.11750485 -19.637072 150.56993 7564898
-0.79111743 -19.346088 150.39258 8092019
111.48645 -18.294666 142.05484 9406081
110.57459 -18.430363 142.44981 9471874
109.69119 -18.618731 142.80963 9669253
0.66088414 -19.056837 151.13606 7762277
-0.11324479 -18.702303 150.94028 8025966
-1.1107528 -18.564516 150.56218 11248793
-1.8801067 -18.213324 150.36707 13550517
112.42988 -17.366623 141.96233 7827819
111.5751 -17.377594 142.37926 8419443
110.66796 -17.51177 142.77254 9406335
-0.43362975 -17.917974 151.11052 8092019
-1.1610067 -17.522787 150.95094 11511708
-2.1264102 -17.360067 150.59659 12761516
113.27805 -16.579239 141.86034 8485747
112.56993 -16.520576 142.23294 7564649
111.65906 -16.655724 142.62762 9011579
-1.4074857 -16.666153 151.1815 11051415
-2.2526109 -16.570654 150.85281 11906723
-3.0945919 -16.476082 150.52509 10393486
115.33716 -15.086736 141.62091 5920074
114.4941 -15.179275 141.97583 7104349
113.56705 -15.487233 142.22231 7959405
112.59558 -15.72943 142.54704 7301478
111.83263 -15.890142 142.84941 9735043
-2.2576215 -15.935603 151.10106 9998727
-3.0294616 -15.594226 150.96808 10788244
-3.9794328 -15.339512 150.73387 9077625
116.54415 -14.240984 141.70456 7564387
115.55386 -14.485193 142.02698 7170653
114.69375 -14.499205 142.45775 6709080
-3.3581779 -14.924548 151.34671 10788244
-4.1555014 -14.757175 151.14116 10130057
-5.1718397 -14.521111 150.99077 10064520
-6.2707596 -14.161263 151.11275 9603712
-7.1685734 -14.13896 150.80823 10064007
117.57224 -13.863391 142.2572 8486262
-7.3966055 -13.843529 151.72018 8681843
-8.1164494 -13.826406 151.4727 9866371
-9.1947498 -13.804321 151.13608 10788244
-10.28524 -13.803317 151.03195 10591121
-26.335329 -13.785241 152.99503 8089963
-26.971386 -13.5586 152.93613 7498337
-27.99354 -13.595072 152.69911 8353646
-29.103289 -13.600167 152.52493 8879992
-29.859337 -13.417275 152.4882 9143422
-27.184626 -12.906513 153.12914 6511954
-28.056742 -12.654715 153.0321 7564386
-29.119249 -12.706532 152.84816 9143165
-30.023523 -12.611184 152.75923 9143422
-30.985365 -12.563781 152.64499 9801350
-31.804403 -12.300033 152.62912 10130057
-28.476604 -11.901026 153.22935 10261132
-29.048637 -11.715105 153.21877 10261132
-29.994566 -11.531361 153.15637 9472130
-31.11471 -11.538419 153.00067 9735303
-32.124775 -11.599413 152.84038 9077627
-32.998741 -11.362055 152.80733 8682867
-33.762825 -11.178011 152.76993 7038298
-30.235834 -10.774668 153.39893 10261132
-31.10742 -10.627877 153.33322 10590099
-32.011894 -10.55756 153.23515 9932426
-33.058475 -10.602637 153.07565 8090733
-34.183983 -10.610773 152.91884 7038298
-35.138783 -10.427564 152.85504 7038298
-32.078602 -9.9297161 153.45459 10261391
-33.082588 -9.6975861 153.4019 8222318
-33.997047 -9.6013603 153.31194 8485744
-35.014168 -9.6630878 153.15039 6840663
-36.100014 -9.5618973 153.0388 6116685
-37.121075 -9.296277 152.99593 8090475
-34.048706 -8.795454 153.59828 9801605
-35.109524 -8.5145283 153.55557 7301471
-36.053848 -8.5208807 153.42415 9867142
-36.999287 -8.5275478 153.29247 9867142
-38.091026 -8.4257536 153.18028 7498600
-39.118599 -8.1585646 153.13708 9340289
-36.032963 -7.6551132 153.74222 10591121
-37.083359 -7.5655346 153.63124 9998730
-38.031967 -7.5719118 153.49924 7038307
-38.981842 -7.5786085 153.36693 8945532
-40.037296 -7.4896736 153.25505 9077374
-37.133923 -6.9865065 153.83511 7762284
-38.049419 -6.6695127 153.82542 10129547
-39.07058 -6.6113834 153.70697 10326925
-40.100342 -6.6736507 153.54355 8814715
-41.030846 -6.5760822 153.45183 9801608
-42.058952 -6.3403454 153.39717 11446687
-38.950909 -5.8339977 154.00638 9340289
-39.923954 -5.6450996 153.94215 8551544
-41.071976 -5.6520767 153.78267 9801608
-42.030117 -5.6581469 153.64948 8552313
-42.916977 -5.6248589 153.54037 9407620
-43.77861 -5.4742346 153.4774 7565675
-40.170021 -5.0614748 154.121 10064779
-41.066467 -4.9100962 154.05359 9538436
-41.98687 -4.6313095 154.02925 8618106
-43.088223 -4.6865473 153.85858 8815228
-44.051628 -4.6922188 153.72485 8289140
-44.901825 -4.5663681 153.65442 7565161
-45.831963 -4.3098507 153.62062 7367525
-42.203362 -3.8967519 154.26712 9538694
-42.993938 -3.7039163 154.22925 9144193
-43.959393 -3.7087913 154.0955 9275517
-45.120026 -3.7147412 153.93465 7104096
-46.089096 -3.7198982 153.80032 6643287
-46.80809 -3.6578712 153.72459 5919050
-44.113556 -2.9596922 154.3472 12630441
-45.029633 -2.726145 154.30698 9669760
-46.000717 -2.7303686 154.17267 7038559
-47.050743 -2.7917068 154.00682 6380115
-47.96085 -2.6257081 153.94283 7631211
-48.889687 -2.4784257 153.86945 13617343
-46.096016 -1.8373569 154.48482 7827560
-46.968987 -1.7010891 154.4151 8288626
-48.081032 -1.5451702 154.31982 7827818
-49.06041 -1.5484755 154.18472 10261388
-49.998627 -1.5016935 154.07349 8090219
-51.072662 -1.1548901 154.05295 6643288
-47.146954 -1.1431437 154.59389 8551284
-47.973801 -0.74541211 154.6257 6643287
-49.070251 -0.58757377 154.59459 7629668
-50.09333 -0.59006 154.45377 8813942
-51.059071 -0.51188302 154.38078 7301216
-51.958729 -0.55426341 154.22704 9274488
-52.998882 -0.35510504 154.23373 10590096
-50.919205 0.0532341 154.8293 6643288
-52.02993 0.21363193 154.80205 9537403
-53.063374 0.21206647 154.66005 10327179
-54.04092 0.2919898 154.58859 9735555
-54.900562 0.3180058 154.49158 10327693
-56.005367 0.45242023 154.44498 9340539
-56.319912 0.86663282 155.30956 9340539
-56.926613 0.866274 155.22853 9340539
-57.940029 0.86573863 155.09335 10655889
-58.956184 0.86519873 154.95798 12103329
-59.97541 0.86475301 154.82228 11445400
-60.792694 0.86439323 154.71355 9209211
-82.391418 1.3466634 157.14693 9010808
-82.917358 1.6106 157.04211 8419440
-83.831024 1.5650983 156.66283 8748917
-84.471466 1.7851148 156.49548 8617331
-83.144951 2.2290523 157.19411 8880503
-83.873398 2.4942505 157.00967 8617331
-84.789757 2.4491673 156.62946 9406847
-84.141815 3.3379235 157.23369 8880503
-84.947021 3.3377774 156.91502 8748917
-85.699249 3.4119813 156.64644 9340797
-84.975967 4.1850824 157.2352 9472384
-85.912598 4.2302876 156.88231 9735299
-86.559181 4.4543676 156.7141 9735299
-85.951004 5.2947388 157.28371 10524559
-86.866684 5.2623014 156.90874 9866887
-87.532211 5.3530893 156.68094 9341057
-87.03183 6.3284931 157.26065 9275008
-87.87516 6.3456373 156.9337 9670021
-88.59285 6.709095 156.79204 9341057
-87.04541 7.1573267 157.57968 9341057
-87.901482 7.3868542 157.33084 9012093
-88.921829 7.3903885 156.92845 8551287
-88.066559 8.2966919 157.62163 9341057
-88.884468 8.3001652 157.29932 8748405
-89.854103 8.3804893 156.94711 9932166
-89.030983 9.0999546 157.55438 9669250
-89.963165 9.2650127 157.25018 9143162
-90.737129 9.4525814 157.01744 9932166
-89.951599 10.091037 157.57803 10063752
-90.956909 10.189327 157.21878 9603968
-91.734146 10.378672 156.98579 8682867
-90.170418 10.829249 157.78073 10853012
-90.984413 11.143104 157.5825 10196105
-91.93428 11.436782 157.32263 9011831
-92.825958 11.775148 157.10318 9010808
-91.256104 12.226341 157.90097 10985620
-91.921555 12.464665 157.73166 11511708
-92.959412 12.473986 157.32521 8813686
-92.26136 13.166832 157.8734 10853012
-92.929634 13.407199 157.70383 9668738
-93.89698 13.463912 157.34389 9339773
-93.063591 14.111168 157.92761 9010808
-93.985336 14.362541 157.74673 9800323
-94.61367 14.369832 157.50333 10458507
-94.688248 15.10001 158.05525 10458507
63.625114 -43.186775 146.73489 9209467
62.84333 -43.333096 147.06123 9932934
61.873993 -43.407413 147.3709 9866624
60.828056 -43.706486 147.02119 11313299
59.763977 -43.70686 147.45522 11839901
58.874893 -43.707184 147.81114 10984849
56.367718 -43.712917 147.14929 10130057
55.835445 -43.713146 147.35112 10853780
54.946934 -43.713547 147.68311 9998471
53.878178 -43.71405 148.07465 10393486
50.709221 -43.720245 147.60139 10458246
49.81926 -43.720737 147.90254 10063491
48.74905 -43.721344 148.25705 8747893
47.855347 -43.721874 148.5468 7563619
47.318287 -43.722198 148.718 7563619
44.56134 -43.728397 148.02609 9471869
43.847618 -43.728878 148.23798 8287853
42.953995 -43.729492 148.49785 10130569
41.879715 -43.730251 148.80269 9998728
40.803226 -43.731033 149.09987 10656658
40.084496 -43.731567 149.29396 9340798
38.669941 -43.490227 149.27472 10722450
37.902489 -43.300129 149.01707 11117208
37.099174 -43.473999 148.5985 10919574
64.54068 -42.435444 146.58572 11907239
63.721771 -42.510288 146.95909 10262155
62.853798 -42.522736 147.38162 10261899
62.305576 -42.724247 147.57068 10656657
37.906471 -42.62188 149.28745 10722452
36.9701 -42.545975 148.91129 11709347
36.116257 -42.085369 148.7234 9538182
65.640396 -41.232315 146.5275 14078918
64.852448 -41.578892 146.77634 13486526
63.896576 -41.590687 147.24246 12367532
63.109474 -41.939651 147.48994 10656657
37.411133 -41.923992 149.3477 9538182
36.820335 -41.459766 149.27454 8288374
35.844212 -41.453182 148.85432 8353909
66.561424 -40.48246 146.37505 9012350
65.739876 -40.554501 146.75078 10657430
64.869423 -40.563698 147.17586 14078406
64.319016 -40.763664 147.36659 14077894
36.687965 -40.699707 149.51636 8090995
35.851494 -40.570217 149.20497 8880250
34.915977 -40.426437 148.85634 8879990
67.431824 -39.313919 146.41577 7959408
66.75396 -39.577347 146.64384 7301734
65.882141 -39.585136 147.07013 8420214
65.156197 -39.786236 147.34695 11512738
35.660622 -39.680965 149.47234 9538176
34.851318 -39.608364 149.15036 7827047
34.170265 -39.488461 148.90254 9406591
68.655205 -38.142731 146.28371 8682867
67.800735 -38.406422 146.59866 8419698
66.788979 -38.462307 147.0746 10064522
65.996185 -38.808712 147.32599 9012350
34.777916 -38.660061 149.49174 7300446
33.948399 -38.552204 149.17491 8156271
33.134556 -38.33007 148.90982 9867403
69.473686 -37.361969 146.19417 8287853
68.723137 -37.391201 146.55215 9011831
67.87133 -37.473808 146.9386 9011831
67.217979 -37.63372 147.19621 8089963
34.443596 -37.783615 149.69196 7037274
33.78791 -37.616982 149.4735 8090995
32.848274 -37.512398 149.10767 9867403
32.007401 -37.075768 148.91527 11709348
70.593605 -36.158325 146.12509 7563619
69.795784 -36.501423 146.38071 9537406
68.831879 -36.505505 146.85419 13156016
68.035286 -36.850529 147.10828 8682867
33.68531 -36.941662 149.69482 8090995
32.83897 -36.504398 149.50035 9406853
31.852785 -36.507332 149.07204 9735560
71.433014 -35.279346 146.06396 9209467
70.700058 -35.475758 146.34645 8682612
69.822037 -35.478249 146.77821 10393228
69.265236 -35.675434 146.97359 14076861
32.550407 -35.686783 149.69714 9867403
31.934889 -35.605103 149.46271 9472130
31.061182 -35.368706 149.17731 10261132
72.418549 -34.236969 145.99629 10064777
71.732033 -34.497829 146.23009 9867397
70.852394 -34.499184 146.66315 10130569
69.990967 -34.76207 146.98227 9735299
31.680803 -34.59671 149.74953 8616823
30.790602 -34.543694 149.38481 8616823
30.051569 -34.389309 149.12547 8419955
73.504494 -33.324467 145.82719 8814710
72.767876 -33.519619 146.11191 9604226
71.71019 -33.519913 146.63313 9538432
70.974388 -33.716789 146.91684 11314844
30.822348 -33.708172 149.72737 7827821
29.853189 -33.515469 149.38348 9604225
29.074478 -33.057037 149.22661 14604238
74.498001 -32.280315 145.75629 10457737
73.683098 -32.491295 146.07332 9801092
72.814613 -32.59557 146.45956 9932935
72.058868 -32.801243 146.7496 10262155
29.866575 -32.545277 149.77112 9209467
28.917162 -32.493179 149.38042 9209467
28.327845 -32.242283 149.22385 9209467
75.237938 -31.365213 145.75871 9339769
74.674553 -31.560249 145.95813 9339769
73.789566 -31.558489 146.39505 9932167
73.050049 -31.754293 146.68103 9734788
29.583353 -31.842945 149.9249 9209467
28.842838 -31.529577 149.72742 9077883
27.91643 -31.469238 149.34993 9274752
76.51017 -30.192928 145.63409 10260100
75.690903 -30.531628 145.88225 9339769
74.71521 -30.528763 146.36476 8288110
73.900742 -30.870056 146.61646 9734788
28.586943 -30.696205 149.94458 9735301
27.906015 -30.454834 149.76811 11379356
27.124704 -30.415869 149.43434 10064011
78.522377 -29.09412 145.61292 10656658
77.678703 -29.351782 145.78363 9932935
76.732635 -29.557594 146.05916 9931649
75.849403 -29.694523 146.36896 8747889
75.214287 -29.81658 146.57991 8419438
27.718554 -30.017851 149.97058 11379356
26.902437 -29.693802 149.87807 9603717
25.859217 -29.402029 149.68785 8617080
24.88278 -29.099611 149.71396 8617080
24.309031 -29.061617 149.60011 10853012
99.519493 -28.227964 143.96855 10854036
98.619133 -28.276396 144.39307 10130569
97.7201 -28.325497 144.81668 9472382
95.572556 -28.661114 144.36288 10459795
94.701195 -28.660797 144.93448 9538950
90.331825 -28.668369 144.61984 10854036
89.633545 -28.668188 145.05188 10459278
88.933578 -28.668018 145.48114 8617593
84.659332 -28.675714 145.07309 7564651
83.783684 -28.675592 145.57864 9143420
83.081154 -28.675507 145.97975 9209467
80.705757 -28.825821 145.44533 9208955
79.8134 -28.820587 145.90031 8682867
79.099068 -28.816864 146.26302 9932937
24.439426 -28.826374 150.41327 10853012
23.884321 -28.870874 150.03618 8156530
22.929609 -28.754948 150.25031 7564651
21.842865 -28.756142 150.41078 7695979
20.936411 -28.757154 150.53864 8089963
20.029129 -28.758188 150.66072 9537664
18.939451 -28.759447 150.80026 8748150
9.9317102 -28.594139 151.39539 9142135
9.0581427 -28.460691 151.06921 8616818
8.1883669 -28.328741 150.74414 8682867
100.45486 -27.406946 143.83649 10590352
99.63633 -27.415277 144.23679 10327692
98.706169 -27.477825 144.67039 9735811
8.9505396 -27.669123 151.33463 8682867
7.9568672 -27.469135 150.98268 8682867
101.4829 -26.162094 143.82875 10064521
100.65364 -26.364092 144.15666 9867141
99.743767 -26.524248 144.54112 9603969
98.919769 -26.807447 144.83386 10656657
8.7188911 -26.806301 151.57439 8682867
7.9743471 -26.567778 151.3456 8682867
6.9801431 -26.552284 150.9207 8090219
102.42767 -25.335575 143.69431 9735812
101.70928 -25.389212 144.02702 10524817
100.81924 -25.410954 144.45723 9932678
7.7377038 -25.886677 151.51155 8485488
6.8723612 -25.58181 151.25661 8682867
5.9828334 -25.445406 150.92473 11709086
103.40713 -24.365084 143.60056 9144190
102.65594 -24.560553 143.89253 10261647
101.69499 -24.538328 144.37531 10787734
100.88314 -24.73284 144.69756 10261382
6.6650996 -24.554176 151.5719 8090987
5.996069 -24.507736 151.30016 8419696
5.279624 -24.506826 150.98988 9405822
104.4221 -23.249584 143.5479 9144190
103.6321 -23.430704 143.86459 7433831
102.72485 -23.548901 144.26434 8617593
101.82821 -23.902382 144.56468 10261647
5.8770876 -23.703678 151.56552 9011577
5.0433846 -23.648546 151.22583 8550257
4.3069124 -23.420135 150.99661 9208187
105.23656 -22.482527 143.45433 9538434
104.6547 -22.469145 143.74651 9736070
103.68635 -22.447397 144.23257 6775901
102.86768 -22.643711 144.55722 7039331
5.0088863 -22.605875 151.62198 8813685
3.993335 -22.452339 151.24222 8813687
3.2137311 -22.089005 151.04752 8617080
106.43894 -21.14747 143.39761 7169373
105.59229 -21.354172 143.73196 7695716
104.66408 -21.518234 144.12361 8617588
103.82261 -21.807039 144.42238 6512986
4.6927338 -21.81559 151.79645 8681843
3.9546683 -21.590231 151.56534 9208443
2.9236805 -21.493811 151.15637 9406081
107.26234 -20.374168 143.30212 8419696
106.67585 -20.36124 143.59644 9077626
105.69987 -20.340281 144.08589 8551281
3.6839974 -20.758108 151.77608 9208443
2.8552248 -20.621027 151.47079 8813686
1.9994395 -20.33284 151.21339 8946041
108.28396 -19.313282 143.2245 8617080
107.64761 -19.51646 143.45656 7893098
106.66817 -19.495796 143.9476 7564131
105.83926 -19.695082 144.2762 9735812
2.7375939 -19.646727 151.80391 8747636
1.9411328 -19.483986 151.5228 9143675
1.2998908 -19.451111 151.25777 9012600
109.31151 -18.247538 143.14578 9735046
108.6015 -18.388264 143.43925 8945788
107.62768 -18.48493 143.88042 6906203
106.80907 -18.848497 144.13799 5919050
1.9440377 -18.5755 151.88211 9670531
1.0266087 -18.608582 151.47141 8420208
0.29559445 -18.314402 151.27046 7762277
110.34509 -17.176991 143.06599 9735043
109.59382 -17.336872 143.37221 11905953
108.62663 -17.405153 143.8215 10524813
107.87886 -17.565197 144.12582 10985364
1.761513 -18.020203 152.0218 10262667
0.98144937 -17.664848 151.82364 8090987
-0.024654165 -17.528185 151.44135 8814712
111.33551 -16.319994 142.92195 9735043
110.58108 -16.480782 143.22917 9274748
109.61013 -16.549839 143.68005 13353141
108.85931 -16.710707 143.98549 8682867
0.66046071 -16.693146 152.06726 9143163
-0.072361723 -16.479403 151.83377 9932423
-0.89367366 -16.445126 151.4913 10261132
112.54964 -15.035657 143.05464 8156781
111.53231 -15.376422 143.29317 9735043
110.6655 -15.578058 143.60046 9340541
109.75276 -15.705774 143.96277 10985364
-0.31870914 -15.621195 152.10571 10063753
-1.21615 -15.662648 151.71027 10063753
-2.0213764 -15.438937 151.49915 9472383
114.36574 -14.204766 142.87015 6774618
113.55862 -14.450046 143.05786 8946298
112.65955 -14.391135 143.55016 7827819
111.9578 -14.594936 143.72144 7564643
-1.3589237 -14.994777 152.15231 9537920
-2.0905759 -14.792747 152.0038 9341054
-2.9590137 -14.547393 151.88727 9538433
-4.0090036 -14.302665 151.75418 9998471
-4.8278046 -14.19776 151.59947 10261643
117.18474 -13.858022 142.48552 9933193
116.60394 -13.850175 142.82727 12433069
115.63221 -13.836919 143.39 9142906
-5.2245693 -13.896484 152.45953 11314076
-5.9504108 -13.878601 152.2132 10327179
-6.8552952 -13.85652 151.90509 9537151
-22.953802 -13.702034 153.78418 13156795
-23.967268 -13.604154 153.59302 10524558
-25.066248 -13.600638 153.34787 7037274
-25.924311 -13.535783 153.1794 7037274
-24.136938 -12.78797 153.85663 12827308
-25.074343 -12.706738 153.67641 8484718
-25.964937 -12.60369 153.51474 7168859
-26.842669 -12.530304 153.34483 5721927
-24.984938 -11.904951 153.99281 9932163
-25.970274 -11.571798 153.89467 9077365
