# .PCD v0.7 - Point Cloud Data file format
VERSION 0.7
FIELDS x y z rgb
SIZE 4 4 4 4
TYPE F F F U
COUNT 1 1 1 1
WIDTH 1188
HEIGHT 1
VIEWPOINT 0 0 0 1 0 0 0
POINTS 1188
DATA ascii
-163.59941 -62.847736 16.382687 6774870
-163.98584 -63.040672 15.491644 8288365
-169.46561 -63.193211 -58.589493 9340286
-169.31442 -62.985619 -59.473587 8024682
-169.08212 -62.896591 -60.497044 8287854
-168.91618 -62.686745 -61.45314 9604226
-163.17493 -61.746506 18.060335 9734526
-163.47304 -61.907829 17.363272 8089960
-163.88321 -61.953442 16.542561 6643028
-169.61287 -62.045452 -59.710697 7563619
-169.51941 -61.842949 -60.367203 8156268
-169.23582 -61.874462 -61.416687 8879991
-168.9957 -61.832012 -62.406319 12630448
-163.12082 -60.695435 19.213249 13616824
-163.49872 -60.79937 18.360086 10721678
-163.79175 -61.101101 17.395691 7958377
-169.69139 -61.187199 -60.659584 9340798
-169.5043 -61.10276 -61.515026 8419184
-169.30522 -60.976665 -62.459846 11709602
-169.0713 -60.976608 -63.362175 12104104
-162.6946 -59.344841 23.245739 8287594
-162.98976 -59.404091 22.287344 9471354
-163.05844 -59.612522 21.29771 9275265
-163.31294 -59.831638 20.282026 7564651
-163.60448 -59.959934 19.468733 10196108
-163.88805 -60.03537 18.802452 11181972
-169.66618 -60.400043 -62.500908 10196363
-169.57626 -60.189671 -63.490059 10262156
-169.48351 -60.001762 -64.427788 9736328
-169.31142 -59.88702 -65.397957 8749691
-169.2135 -59.716846 -66.298401 8354934
-161.51433 -58.647659 39.845909 9142651
-162.09889 -58.560333 39.16227 8221549
-161.62128 -58.998699 38.019352 10853012
-161.80267 -59.000256 37.240376 8090987
-162.02396 -59.002197 36.265392 8222573
-162.23978 -59.004135 35.289177 8879475
-162.44925 -59.006069 34.311592 8747119
-162.65334 -59.008003 33.332851 9734015
-162.85106 -59.00993 32.352852 11050387
-163.00549 -59.011471 31.567995 12432037
-162.3054 -59.016781 28.199072 7696228
-162.47267 -59.018673 27.221308 7367263
-162.63368 -59.020565 26.242453 7037274
-162.80273 -59.027359 25.26486 7038298
-163.0885 -59.078503 24.304565 7827300
-163.38849 -59.136673 23.344629 6511954
-163.56717 -59.172119 22.76755 6511954
-170.03975 -59.424156 -65.914703 7565675
-169.8326 -59.436169 -66.5411 9144449
-169.55467 -59.452686 -67.37574 9011576
-169.79155 -59.30785 -68.339539 8682868
-169.65474 -59.249542 -69.553246 9275005
-170.36145 -59.201412 -71.52494 8092011
-169.92812 -59.20282 -72.549385 14670283
-170.41705 -58.802399 -73.568184 9736579
-170.02109 -58.836914 -74.411057 11512222
-161.67155 -57.739674 40.177948 8156013
-162.22006 -57.778378 39.466034 7695205
-170.61787 -58.27309 -73.574326 8355182
-170.26942 -58.045403 -74.561333 12038820
-170.00557 -57.80703 -75.260727 11709345
-161.46375 -56.659237 41.069401 9735812
-161.97034 -56.769283 40.368523 7366498
-162.39915 -57.083458 39.646477 7037274
-170.61449 -56.913807 -74.795532 9406590
-170.23183 -56.94606 -75.508911 8551538
-169.97513 -56.663342 -76.229622 8090987
-161.34837 -55.541412 41.86639 7038307
-161.84715 -55.771477 41.105537 8222321
-162.28531 -55.959026 40.445724 10260875
-170.55165 -56.072533 -75.586342 9406590
-170.15535 -55.93787 -76.458992 8353902
-161.52786 -54.793205 42.077461 8945529
-161.98511 -54.887978 41.447842 9274237
-170.73575 -55.316109 -75.832817 7959144
-170.50394 -55.07999 -76.468544 8090730
-170.09361 -55.068024 -77.270554 8025710
-161.39838 -53.51931 42.983513 9340539
-161.71857 -53.873325 42.374817 8813941
-162.22792 -53.976692 41.674797 8813686
-170.74681 -54.248959 -76.660774 9933702
-170.39519 -54.162682 -77.408615 7038556
-170.08678 -54.154556 -78.01078 7039331
-161.16682 -52.462246 43.891304 9340539
-161.5983 -52.762684 43.174107 8748403
-162.10825 -52.862747 42.475292 8155756
-170.72166 -53.120186 -77.607697 7893607
-170.36029 -53.01965 -78.385811 8025194
-170.12602 -52.785992 -79.024101 9340027
-161.33952 -51.774044 44.076073 7564643
-161.8913 -51.796551 43.370033 9406589
-170.73691 -51.886246 -78.560387 10130313
-170.32344 -51.877151 -79.366196 11314331
-161.24945 -50.641418 44.850243 9735299
-161.65759 -50.824524 44.230827 10130569
-162.04111 -50.895996 43.707451 10656657
-170.8595 -51.203308 -78.866966 13551549
-170.70145 -50.925674 -79.393288 10656913
-170.2693 -50.886848 -80.258812 7629667
-161.40428 -49.699635 45.205505 10722710
-161.97568 -49.874527 44.385956 11577759
-170.86562 -50.136562 -79.704269 9603969
-170.51012 -50.053795 -80.456764 7038042
-170.27354 -49.821606 -81.098518 8616819
-161.1404 -48.72131 46.107952 10525331
-161.74493 -48.80619 45.299194 11709347
-170.85298 -49.190063 -80.468666 8156524
-170.43681 -49.058163 -81.345062 11314588
-161.07082 -47.708542 46.786407 11775140
-161.45499 -47.773308 46.266205 11840932
-161.76289 -48.040703 45.723366 11183004
-171.0159 -48.456947 -80.697159 11314588
-170.77477 -47.990765 -81.483406 10130314
-170.38951 -47.867977 -82.291344 9011320
-161.16342 -46.745209 47.232399 12367019
-161.76956 -46.824646 46.42485 11117721
-171.00998 -47.073975 -81.705025 7235166
-170.72981 -46.792084 -82.431381 8419183
-170.39963 -46.602127 -83.184784 10590353
-161.09889 -45.690552 48.055271 12564398
-161.56297 -45.908199 47.263306 10986135
-171.03734 -46.04538 -82.479164 7432288
-170.7455 -45.826931 -83.354317 10130058
-160.62712 -44.338219 50.876446 8089963
-161.02832 -44.383156 50.151169 8089963
-161.17305 -44.718937 49.20507 9406079
-161.51669 -45.077888 48.263573 11379868
-171.10437 -45.301735 -83.529968 8813941
-170.80678 -45.043381 -84.507942 8880249
-171.0419 -44.653221 -85.377327 9405822
-170.86893 -44.541977 -86.23539 5920082
-159.62175 -43.601715 66.031799 13551289
-160.01422 -43.716446 65.068687 11181972
-160.08844 -43.880432 64.202354 9800321
-160.31317 -43.952793 63.174698 14604230
-160.61578 -43.954453 62.401756 9538948
-160.05531 -43.960171 58.878769 5919050
-160.33696 -43.961811 58.107018 6642517
-160.68436 -43.963806 57.140648 8418928
-161.02556 -43.9659 56.172131 8287342
-161.29472 -43.967533 55.395966 8089963
-160.78571 -44.035748 52.207306 8419186
-161.39333 -44.101852 51.118664 8089963
-171.57936 -44.253448 -86.853035 7564392
-171.25684 -44.252136 -87.468056 9341059
-170.93353 -44.251118 -88.082451 9341059
-171.63785 -44.237667 -91.339828 9735297
-171.19659 -44.238716 -92.165535 10262415
-159.6147 -42.467403 66.853455 11314844
-159.90544 -42.770332 66.147415 13156789
-160.35039 -42.862099 65.33239 9340027
-159.73401 -41.695641 67.203369 9735043
-160.3094 -41.775845 66.176819 10524815
-159.65172 -40.797707 67.98307 7432289
-160.18643 -40.74559 67.119461 7037274
-160.36815 -41.098038 66.561638 6510930
-159.46965 -39.682037 69.086121 8090736
-159.94881 -39.794769 68.198471 7892841
-160.30087 -40.028809 67.438408 9208443
-159.40799 -38.630726 69.940544 10590351
-159.87886 -38.727215 69.078438 7893358
-160.23189 -38.959988 68.317558 7038307
-159.26518 -37.773705 70.79287 10459275
-159.69435 -37.738876 70.09478 10261130
-160.11429 -37.817936 69.330956 8222065
-159.16632 -36.352783 71.973701 10459275
-159.49559 -36.740253 71.142441 8682867
-159.99026 -36.732727 70.314499 9011574
-159.3768 -35.724758 72.067505 8485745
-159.90976 -35.749416 71.152016 9143675
-160.15912 -35.97451 70.571404 9735812
-159.3119 -34.516537 73.039299 8485236
-159.7372 -34.729965 72.170425 7959401
-160.0145 -35.115353 71.428314 9735812
-159.13483 -33.693661 73.925102 9274495
-159.65152 -33.608009 73.115578 8551029
-160.00941 -33.836212 72.349709 9735812
-159.0264 -32.660812 74.844917 8485237
-159.39632 -32.745518 74.161209 9011323
-159.82541 -32.762154 73.42643 8221806
-159.01602 -31.382053 75.775124 8089963
-159.25102 -31.735218 75.127083 8550772
-159.73598 -31.834097 74.239418 9142394
-159.01114 -30.408075 76.791519 9668995
-159.21194 -30.65752 76.08651 8682100
-159.65166 -30.698982 75.291756 9471359
-158.66812 -29.234194 79.949799 11181970
-159.21613 -29.249004 79.027649 8484719
-159.04968 -29.609146 78.111778 10787213
-159.31036 -29.806786 77.171501 9603200
-159.60387 -30.019293 76.367104 8089963
-158.17 -28.6077 88.911911 8616563
-158.65686 -28.808596 88.141617 9932424
-158.55391 -28.917526 82.058685 9010800
-159.04564 -28.919653 81.10273 9734523
-159.4131 -28.934557 80.565811 8681835
-157.86302 -27.543797 89.572784 8616563
-158.40004 -27.811832 89.123085 9406335
-158.12006 -26.563663 89.842384 7432032
-158.65849 -26.830549 89.392296 8616563
-157.83878 -25.316917 90.561935 10261132
-158.37749 -25.581429 90.112495 7826790
-157.96669 -24.583977 90.802223 6906456
-158.49063 -24.697422 90.42791 7103835
-158.19002 -23.782398 91.013245 7367263
-158.73064 -24.045063 90.563484 6511954
-157.96802 -22.650482 91.644363 7367263
-158.44548 -22.795055 91.285286 8748916
-158.07002 -21.674206 92.006729 8551024
-157.85577 -20.63217 92.593803 8089963
-158.38228 -20.739552 92.220619 8748147
-157.96652 -19.743658 92.912544 8484721
-158.5099 -20.000174 92.46386 8089963
-157.7412 -18.61072 93.546158 8617337
-158.17317 -18.784054 93.202789 8222321
-157.92458 -17.633516 93.858513 9341058
-158.47569 -17.752558 93.464867 8617337
-157.70355 -16.364597 94.548714 8420470
-158.00105 -16.716331 94.210953 9078143
-157.89928 -15.627638 94.836777 8157298
-158.27962 -15.942153 94.375755 7565675
-157.84746 -14.596384 95.9282 9340801
-158.27263 -14.905091 95.232544 7959660
-157.24617 -13.537862 105.70457 8813936
-157.09303 -13.879613 102.60703 9536894
-157.46278 -13.881024 102.03883 9471359
-157.83078 -13.882335 101.46949 10261132
-157.7318 -14.1668 96.900101 8682867
-157.17058 -12.8867 106.03733 8156267
-157.01863 -11.582568 106.70405 9405816
-157.29395 -12.148626 106.28451 8813936
-157.10913 -10.562619 107.09538 9142649
-156.84468 -9.499752 107.72608 9142649
-157.23248 -9.8205328 107.34431 9142649
-157.09012 -8.6033907 107.96687 8813684
-156.74677 -7.4737544 108.67601 10524555
-157.13574 -7.7935534 108.29392 10195335
-156.86987 -6.7265148 108.9274 11905950
-156.73688 -5.59762 109.50542 7564643
-157.04332 -5.9548535 109.15822 8025193
-156.76936 -4.5895143 109.9275 8748660
-157.3175 -5.1355519 109.34733 7564643
-156.5916 -3.4758179 110.52539 9867135
-157.13148 -3.5600777 110.15234 9867395
-156.6909 -2.5310638 110.87605 8419183
-157.25026 -2.7724771 110.42223 8813939
-156.36533 -1.5812819 111.49354 8089963
-157.00305 -1.5847714 111.09485 8419183
-156.64003 -0.55327821 111.87691 8288627
-157.02478 -0.87193763 111.39259 8089963
-156.59103 0.44120961 112.79144 8485234
-156.98619 0.081815079 112.2179 8419699
-156.05232 1.5803807 122.71312 8814715
-156.38239 1.0465159 114.65485 8682358
-157.02748 1.046948 114.25815 9734785
-155.95175 2.2697902 123.05835 8353393
-155.7813 3.387938 123.61288 7038307
-156.30484 3.0614302 123.21336 7563619
-155.86745 4.3456817 123.96449 7696236
-155.59891 5.2859116 124.48472 10590356
-156.0753 5.2911935 124.25068 9669511
-155.57365 6.1974087 124.87251 9537926
-164.99097 -69.495209 4.1609359 9537665
-165.15607 -69.55838 3.3690124 7827047
-165.3615 -69.638985 2.3774152 9142651
-165.58791 -69.610359 1.2833904 9735045
-165.77974 -69.569878 0.38688797 8682615
-165.85495 -69.603241 -0.61165386 8485235
-165.96335 -69.572334 -1.5449682 8353650
-166.22258 -69.527679 -2.6151128 8419700
-166.13237 -69.499397 -3.6145539 9143166
-165.93613 -69.42968 -4.6101909 9867142
-165.77589 -69.374039 -5.4052958 11380380
-164.90689 -68.525414 6.1450706 8089963
-165.07765 -68.776535 5.2759824 8089963
-165.30406 -68.908768 4.3669572 8813686
-165.62303 -68.853096 3.327455 8484721
-165.87727 -68.893143 2.383615 8616306
-165.95203 -69.16172 1.5856823 8616306
-166.21767 -69.03051 0.9876532 8287859
-166.62827 -69.263031 -6.4376817 9143675
-166.34702 -69.165512 -7.430325 9866115
-166.08212 -69.077072 -8.4211521 8681843
-166.91628 -68.968483 -9.6730766 11708316
-166.70348 -68.902153 -10.466861 11708316
-166.43279 -68.819504 -11.456508 7498593
-166.21281 -68.753502 -12.246363 9341571
-167.01985 -68.643257 -13.519725 10591380
-166.73053 -68.560753 -14.507619 9341571
-166.49519 -68.494972 -15.295761 8682099
-167.34416 -68.399635 -16.390379 8089963
-164.88687 -67.699333 7.2367134 7892584
-165.08748 -67.886864 6.3496861 8155756
-165.42526 -67.833023 5.3152499 8353392
-165.6976 -67.874825 4.3755698 8550514
-165.9211 -67.959381 3.5418534 7432032
-167.22194 -68.366707 -16.785212 9340027
-166.97447 -68.300972 -17.573221 9011065
-166.72437 -68.235428 -18.35965 9537409
-167.5573 -68.138557 -19.473024 10261132
-167.23093 -68.056534 -20.456472 8024427
-166.96649 -67.991165 -21.24124 8616307
-167.71643 -67.87648 -22.569008 9011832
-167.37152 -67.794754 -23.549763 9340798
-167.16225 -67.745903 -24.136614 8419440
-167.89388 -67.629807 -25.48177 8484721
-167.53123 -67.548424 -26.45994 8616307
-167.31131 -67.499702 -27.045221 9011065
-164.72865 -66.601318 9.1171293 9011321
-164.86508 -66.877853 8.3287621 7695205
-165.18062 -66.885338 7.2907581 7563619
-165.47678 -66.854912 6.3628697 8484978
-165.7343 -66.868301 5.5067506 8616822
-165.95755 -67.02758 4.5810771 7564392
-168.00179 -67.373222 -28.40362 8221803
-167.55714 -67.266403 -29.367601 9537918
-168.26018 -67.148865 -30.745348 9274491
-167.93282 -67.07943 -31.522381 9932416
-167.68536 -67.027527 -32.10368 9932416
-168.39671 -66.918816 -33.50259 9734784
-167.96982 -66.8321 -34.470631 10590091
-168.75583 -66.73922 -35.691925 9340030
-168.40276 -66.669815 -36.465572 8747893
-168.04709 -66.600487 -37.237164 7563619
-168.8185 -66.506058 -38.475559 8353135
-168.54379 -66.453979 -39.054184 8682867
-164.55458 -65.626648 10.895912 9011321
-164.68213 -65.819092 10.240906 8748149
-164.97797 -65.817116 9.278861 9274237
-165.252 -65.848434 8.3465128 9076858
-165.52615 -65.881828 7.4112706 7826791
-165.78824 -66.029488 6.3734469 7563877
-168.35965 -66.419281 -39.439068 8682867
-169.12202 -66.323441 -40.692966 8682867
-168.7437 -66.253952 -41.462959 10787985
-168.45804 -66.201988 -42.038857 7565675
-169.10971 -66.087204 -43.501297 7170658
-168.71776 -66.017792 -44.268368 6511954
-169.45789 -65.918983 -45.554356 9604226
-168.95346 -65.83223 -46.511402 13880776
-169.37357 -65.679832 -48.386833 12170416
-169.408 -65.559891 -49.50256 7958888
-169.63277 -65.492744 -50.455372 7958888
-164.48462 -64.693863 12.283123 8090218
-164.74832 -64.828644 11.25597 9208185
-165.02325 -64.854965 10.3269 9011063
-165.32114 -64.816635 9.4034176 9274236
-165.59515 -64.882034 8.4288416 9734788
-165.72296 -65.077805 7.7688804 9734788
-169.46593 -65.366043 -51.370209 9734785
-169.59883 -65.199402 -52.452572 9471356
-169.81633 -64.883057 -53.417572 9010806
-169.77205 -64.677536 -54.393764 8484459
-169.5092 -64.652573 -55.271706 8681835
-169.42404 -64.539978 -55.997124 11905692
-164.30392 -63.738079 14.060205 8090218
-164.50746 -63.703812 13.439151 8419183
-164.73651 -63.858711 12.499859 9143162
-165.08925 -63.830986 11.384472 8879220
-165.40784 -63.82814 10.349209 9734014
-165.54701 -64.099808 9.5580482 9734014
-170.12859 -64.130295 -54.644363 8681835
-170.03064 -63.880379 -55.382065 9471351
-169.68602 -63.983288 -56.44722 10063744
-169.61226 -63.745083 -57.19532 9340286
-164.25713 -62.51815 15.383311 7104091
-164.49806 -62.890423 14.474389 9143418
-164.84726 -62.759308 13.505181 9735299
-165.11868 -62.834339 12.527063 7037274
-165.37877 -63.02187 11.446073 8352877
-170.25224 -63.124275 -55.666958 9997695
-170.07327 -63.06768 -56.440849 9998209
-169.79994 -63.134155 -57.395912 9669249
-169.70181 -62.88784 -58.138245 9800581
-164.21927 -61.601181 16.176466 6840925
-164.51924 -61.765854 15.47307 6775130
-164.8797 -61.868721 14.506162 8748664
-165.15208 -61.940655 13.528726 10788244
-165.29358 -62.204617 12.739522 6510930
-170.33528 -62.261688 -56.604778 8287851
-170.23192 -61.985775 -57.406467 8485488
-169.94604 -62.065536 -58.394478 9077368
-169.84016 -61.703262 -59.331982 8550769
-164.16412 -60.544857 17.434263 7563619
-164.52353 -60.771397 16.414221 7103843
-164.86537 -60.965054 15.504229 7038307
-165.12651 -61.149105 14.626897 7433064
-170.48161 -61.109333 -57.720497 8090987
-170.36232 -60.985638 -58.443405 10656398
-170.12709 -60.938541 -59.433159 8813942
-169.88469 -60.890728 -60.421776 8879991
-169.74483 -60.7635 -61.140556 8419440
-164.38806 -59.342602 20.063227 7564651
-164.37949 -59.465782 19.393179 8748150
-164.47862 -59.712879 18.418398 9076856
-164.60172 -60.011044 17.479837 7563619
-164.85071 -60.152454 16.77084 10984340
-170.5153 -60.332848 -59.569427 8089963
-170.3488 -60.253147 -60.433411 9208699
-170.26559 -60.047474 -61.405972 10458764
-170.24915 -59.768814 -62.343857 9998727
-170.08716 -59.636612 -63.355282 9735812
-162.73289 -58.706306 38.280361 9866371
-163.25331 -58.813316 37.367073 9800320
-163.35213 -59.0033 36.356384 9537147
-163.56815 -59.005249 35.372063 9932676
-163.77849 -59.007206 34.386604 11182742
-163.08118 -59.012234 31.175341 12432037
-163.22929 -59.013775 30.389364 10064005
-163.40974 -59.015686 29.40597 7827814
-163.58388 -59.017601 28.42148 8288365
-163.75246 -59.019508 27.435989 6774614
-163.91464 -59.021416 26.449503 7037274
-164.07137 -59.023315 25.462032 7037274
-164.22171 -59.025215 24.473631 9669507
-164.36649 -59.027111 23.484396 7826790
-164.20099 -59.100582 22.372425 9931907
-164.33148 -59.151592 21.463428 9472127
-164.21388 -59.305405 20.644339 7564651
-170.78853 -59.383636 -63.616329 9735812
-170.51805 -59.397812 -64.452492 9144449
-170.48633 -59.339035 -65.459282 8618105
-170.73178 -59.193504 -66.419472 9144449
-170.37137 -59.209522 -67.462814 10063750
-171.20911 -59.19857 -69.468277 9604480
-171.0148 -59.09053 -70.431023 9736578
-170.93237 -58.993019 -71.200798 8092011
-170.73996 -58.919117 -72.410469 9144699
-162.61157 -57.719452 39.008461 7695205
-163.12555 -57.777016 38.329433 9076596
-163.46014 -58.056873 37.689377 8945008
-171.35011 -58.077797 -71.504799 10920595
-171.11488 -58.009743 -72.327515 8355182
-170.86177 -57.885876 -73.273766 8355182
-162.88542 -56.750267 39.230244 7037274
-163.32338 -56.847687 38.623375 7563874
-171.44737 -56.957466 -72.550423 9736579
-171.21533 -56.904404 -73.345024 9736579
-170.91151 -56.922386 -74.190857 7894375
-162.59476 -55.696114 40.210541 10787219
-163.07141 -55.835663 39.530563 8682611
-171.4713 -56.077309 -73.537132 9736579
-171.14095 -56.061085 -74.438339 9406590
-170.89146 -55.779121 -75.163551 9406590
-162.444 -54.604324 41.037098 9208444
-162.97916 -54.745548 40.282654 7893351
-163.19141 -55.054268 39.835915 6511954
-171.52008 -55.112164 -74.45713 8682867
-171.11902 -55.100121 -75.264442 8682867
-170.88722 -54.863373 -75.900574 6511954
-162.62878 -53.796452 41.276588 8287342
-163.17778 -53.843517 40.5597 8616563
-171.65468 -54.431686 -74.762001 9406590
-171.49858 -53.967655 -75.432671 8551281
-171.07126 -54.106384 -76.147621 7630691
-162.54529 -52.622421 42.066681 8484721
-162.90996 -52.929024 41.429779 9668995
-171.69942 -53.057613 -75.768929 8486000
-171.39059 -53.047791 -76.373337 9933702
-171.06786 -52.923843 -77.095352 9933702
-162.32021 -51.599514 42.94643 12104103
-162.76335 -51.778194 42.285629 10327695
-163.26936 -52.001751 41.51965 10591124
-171.71002 -51.988426 -76.599503 8551795
-171.35672 -51.901985 -77.3507 8486000
-171.04686 -51.893822 -77.955681 7762021
-162.44211 -50.711105 43.311825 11183001
-163.01788 -50.863171 42.499966 10591124
-171.65953 -50.994122 -77.488358 10065032
-171.24556 -50.983559 -78.296349 6511954
-162.3694 -49.802071 43.933701 11117208
-162.89316 -49.753544 43.304291 10656657
-163.12372 -50.230652 42.736248 10591124
-171.78322 -50.309978 -77.794014 7565675
-171.6252 -50.031223 -78.321068 7170142
-171.19258 -49.990795 -79.188774 8814709
-162.19983 -48.331741 45.00491 10656657
-162.56004 -48.827045 44.263371 10788243
-163.07588 -48.91954 43.561642 10656657
-171.79048 -49.240871 -78.630791 7960174
-171.43466 -49.156693 -79.385117 8222572
-171.19531 -48.922379 -80.026619 6511954
-161.99355 -47.434959 45.787395 11315100
-162.30269 -47.702942 45.242683 10789012
-162.81873 -47.792103 44.542648 10855060
-171.82324 -48.081699 -79.458656 9538434
-171.4202 -47.913197 -80.334206 9669507
-171.19057 -47.538857 -81.032753 8616819
-162.16399 -46.747021 45.974808 11315100
-162.68375 -46.776588 45.304813 10591888
-162.92188 -47.162125 44.780666 10855060
-171.77357 -46.906391 -80.399994 8616819
-171.35391 -46.773685 -81.279297 7695717
-162.06035 -45.323414 47.280907 11315100
-162.41685 -45.793488 46.326309 10986391
-162.79201 -46.062469 45.587318 10789012
-171.93527 -46.1712 -80.627922 7235166
-171.73181 -45.908253 -81.391716 6642773
-171.45535 -45.731331 -82.172821 7037274
-162.0289 -44.602489 48.224632 10129545
-162.5417 -44.821014 47.292934 10460303
-172.1749 -45.319626 -81.500908 6510930
-171.89326 -45.101593 -82.383171 9077113
-171.75136 -44.772541 -83.504845 7629411
-171.82535 -44.548225 -84.394936 6643284
-160.80086 -43.402664 64.187645 8155755
-161.2673 -43.509457 63.325596 7828846
-161.40538 -43.680187 62.33614 9538948
-161.06276 -43.956944 61.239677 11117720
-161.42857 -43.959011 60.268787 10262156
-161.78899 -43.961082 59.295845 10262156
-162.0023 -43.962322 58.710991 10262156
-161.42776 -43.968346 55.007271 8089963
-161.69078 -43.969978 54.229046 10260872
-162.01486 -43.972019 53.254631 10721937
-162.33261 -43.974052 52.278145 7498857
-161.89812 -44.158012 50.208199 8879991
-162.40126 -44.215179 49.294395 10590863
-172.32837 -44.257713 -85.415688 7367007
-171.90092 -44.255066 -86.237358 7893354
-172.6161 -44.235287 -89.474579 13024949
-172.1835 -44.236351 -90.304802 12103585
-160.71237 -42.613712 64.899818 7563619
-161.13335 -42.644413 64.16877 8747891
-161.6008 -42.75079 63.305397 6644055
-160.64771 -41.542801 65.773209 7563619
-160.89264 -41.773006 65.196274 9340027
-161.36342 -41.849213 64.348862 9668992
-160.76582 -40.644421 66.215637 8550514
-161.29527 -40.733181 65.260345 8024170
-161.52946 -41.176964 64.549019 11181972
-160.71097 -39.585384 67.064003 8418927
-161.1839 -39.657848 66.215538 7366239
-161.43018 -39.887585 65.636673 7563619
-160.46771 -38.689705 68.113205 6643031
-160.939 -38.788807 67.248505 7629411
-161.41042 -38.889076 66.382805 7103067
-160.46828 -37.411125 69.024879 6643543
-160.86115 -37.663937 68.182701 6971995
-161.18832 -38.056606 67.351204 7629667
-160.37321 -36.62458 69.746574 6511954
-160.69278 -36.641338 69.196266 6511954
-161.16869 -36.709946 68.34552 7300956
-160.49986 -35.735577 70.167786 8222057
-160.97658 -35.80249 69.316757 6511954
-161.22572 -36.029285 68.735115 7367005
-160.41368 -34.654114 71.084854 9275261
-160.90405 -34.730835 70.203949 9208435
-161.20154 -35.030689 69.488731 6511954
-160.24625 -33.561962 72.1465 9209468
-160.7229 -33.654221 71.277626 9209211
-161.08075 -33.884495 70.510338 9208435
-160.14728 -32.775112 72.874855 7892842
-160.57664 -32.793102 72.138588 9142904
-161.05418 -32.885189 71.268364 9865856
-160.09175 -31.420273 73.935547 9010808
-160.45868 -31.658224 73.147369 8879221
-160.84732 -31.877699 72.33593 9734527
-160.0817 -30.441919 74.944801 9602945
-160.28539 -30.693773 74.241982 8616050
-160.79453 -30.774101 73.282173 8813428
-159.84595 -29.262894 77.906036 9010806
-160.26451 -29.272821 77.156815 8089963
-160.15462 -29.63759 76.156441 9142651
-160.3997 -29.881142 75.233833 10326668
-160.78348 -30.05768 74.330513 9931910
-159.39658 -28.567839 88.175423 8617335
-159.14436 -28.909317 87.038086 9143422
-159.66559 -28.911482 86.078255 9011577
-160.07889 -28.913277 85.308426 8419696
-159.73114 -28.940859 80.00338 8287084
-160.15443 -28.949694 79.252747 8024428
-160.47122 -28.956594 78.689232 8485494
-159.09969 -27.648518 88.761421 9669507
-159.64726 -27.784966 88.362679 8683128
-159.29698 -26.54809 89.120659 11446174
-159.83862 -26.816582 88.667908 11906725
-158.99779 -25.629986 89.706993 8616563
-159.52403 -25.74614 89.330093 11116953
-159.11211 -24.74436 90.022186 8748404
-159.73552 -24.791702 89.615044 9735299
-158.89098 -23.609451 90.654091 7367263
-159.44087 -23.738621 90.256821 10656146
-159.07822 -22.637203 90.961838 8288365
-159.62917 -22.765112 90.564476 9209467
-158.86177 -21.367653 91.649475 8288365
-159.26567 -21.663031 91.270332 7893607
-158.99045 -20.627975 91.892181 8419953
-159.52028 -20.735966 91.516724 8551539
-159.10645 -19.766516 92.195839 7696235
-158.92612 -18.564163 92.831779 7038307
-159.40891 -18.703678 92.47171 7038307
-159.07364 -17.51404 93.198181 7959408
-158.76331 -16.566566 93.803658 10788246
-159.29518 -16.66815 93.429573 7038307
-158.93135 -15.704867 94.142082 8683128
-159.53702 -16.00218 93.569954 11379356
-158.88461 -14.209682 96.034386 6446418
-158.93005 -14.785413 94.934166 9209467
-159.2664 -15.09677 94.443199 9209467
-158.29868 -13.575488 105.03388 9405562
-158.1964 -13.883745 100.89867 9735043
-158.68089 -13.885561 100.13561 9471871
-159.04196 -13.886871 99.561958 8090730
-158.05876 -12.405399 105.69642 8221545
-158.32361 -12.879337 105.32386 8747888
-158.12839 -11.576587 106.01691 8484714
-157.70911 -10.299485 106.83785 8681835
-158.26538 -10.548099 106.38305 8681835
-158.04549 -9.5611811 106.95278 8945268
-158.04796 -8.6720133 107.34145 8353134
-157.93869 -7.7320547 107.82182 7958376
-158.49718 -7.9785948 107.36645 7563619
-157.94086 -6.8398433 108.21198 10392458
-157.81621 -5.7711062 108.7584 9735555
-158.35776 -5.8581538 108.38363 8616307
-157.63138 -4.1957669 109.56336 8617331
-157.94502 -4.750793 109.12553 8814453
-157.75104 -3.4085348 109.83264 9011832
-158.29372 -3.4928827 109.45777 10261899
-157.40685 -2.2995319 110.53128 10262148
-157.96841 -2.5409493 110.07611 11248793
-157.6425 -1.5882643 110.69504 10130311
-158.06989 -1.5906454 110.42783 11248538
-157.29962 -0.39645389 111.58678 7565675
-157.90381 -0.68436843 110.98997 10064267
-157.70331 0.40043956 112.06191 7565675
-158.05544 0.08026357 111.55076 7565675
-156.92215 1.5816544 122.17864 9537922
-157.67476 1.0474257 113.86021 11379863
-156.79961 2.5689275 122.68862 8879734
-157.20203 2.2407434 122.29369 8419183
-156.91858 3.361522 122.96265 7563619
-156.77116 4.5520353 123.57748 8814203
-156.83263 4.0555701 123.32101 7300963
-156.47253 5.0466866 123.95306 8814203
-166.28448 -68.578362 1.5878223 7037274
-166.46623 -68.844551 0.50748199 9800582
-166.72314 -68.855392 -0.45552498 8748409
-166.98053 -68.86879 -1.4214579 8353395
-167.11717 -69.027557 -2.3882041 8813945
-167.1454 -69.193405 -3.4354959 8287857
-167.23425 -69.241287 -4.4446912 9735039
-167.20636 -69.243729 -5.4516587 8946038
-167.5799 -69.172409 -6.4743972 9800835
-167.47224 -69.147102 -7.4803452 9273979
-167.22896 -69.068329 -8.4790077 12234660
-167.0737 -69.018394 -9.0765419 10458251
-167.89742 -68.903183 -10.338442 12497831
-167.5833 -68.808975 -11.535357 9537661
-167.3044 -68.725937 -12.529092 9209723
-168.17758 -68.631393 -13.613229 7564386
-167.94333 -68.565018 -14.408904 7695717
-167.64639 -68.482208 -15.401137 8089963
-167.46581 -68.432632 -15.99509 8089963
-166.12086 -67.561256 3.3854327 7037274
-166.29234 -67.81749 2.5079236 7826791
-166.52159 -67.95546 1.5890239 7563618
-166.86714 -67.854988 0.58726448 9406081
-167.10709 -67.9533 -0.31714493 8945531
-167.34703 -68.053772 -1.2243429 7893358
-168.38187 -68.35302 -16.901287 8089963
-168.19455 -68.303352 -17.496576 8418928
-167.87833 -68.220787 -18.486219 9011065
-168.6561 -68.106735 -19.806322 8484973
-168.45802 -68.057137 -20.400385 8484973
-168.1239 -67.974861 -21.38798 7958889
-168.88347 -67.859329 -22.725786 8090987
-168.60452 -67.793503 -23.515699 8617075
-168.25183 -67.711525 -24.500463 8419440
-169.06401 -67.610901 -25.659075 9011065
-168.77068 -67.545319 -26.446856 8484721
-168.40021 -67.463615 -27.428963 7563619
-166.00706 -66.575119 4.9817739 7564392
-166.13318 -66.778023 4.3184934 7564392
-166.30313 -66.919823 3.5883603 7893358
-166.64284 -66.870918 2.5416007 8813944
-166.91664 -66.91745 1.5910619 8681842
-167.13071 -67.002022 0.78815693 8747379
-169.24825 -67.36795 -28.404385 8484973
-168.82524 -67.270714 -29.379801 7958889
-168.50375 -67.201057 -30.161116 7761512
-169.31923 -67.110413 -31.360075 7827308
-168.90274 -67.023216 -32.336102 9603199
-169.62431 -66.913589 -33.746521 7564643
-169.36575 -66.861229 -34.331596 8089963
-169.01834 -66.791481 -35.109825 10590091
-169.72189 -66.680283 -36.536858 9340030
-169.27235 -66.593033 -37.508007 9603202
-169.86963 -66.462852 -39.145256 8089963
-165.94389 -65.616882 6.3787026 8090220
-166.08063 -65.898048 5.5834231 8090479
-166.42105 -65.843506 4.5414777 7038049
-166.69562 -65.884644 3.5951009 8813945
-166.92114 -65.968613 2.7554688 9537409
-169.59081 -66.410469 -39.726933 10261643
-169.4039 -66.37558 -40.113819 10261643
-170.10632 -66.252968 -41.363194 10261131
-169.69244 -66.191574 -42.346146 9669765
-170.28168 -66.006851 -43.365562 8025452
-169.9895 -65.997307 -44.382965 6511954
-170.21709 -65.832245 -45.246246 8156779
-170.1469 -65.755264 -46.399239 9406079
-170.29443 -65.610695 -47.410118 9340030
-170.29376 -65.515282 -48.427994 10260876
-170.04617 -65.511597 -49.244133 7038307
-165.77011 -64.630829 8.1705189 9734788
-165.9081 -64.907585 7.3768511 9142651
-166.23213 -64.78389 6.4742026 7761512
-166.47076 -64.865532 5.5947223 8222321
-166.73036 -64.87838 4.7325234 7038049
-166.95575 -65.037018 3.8004346 7893358
-170.75327 -65.216354 -48.780899 7038307
-170.66025 -65.24929 -49.421837 7038307
-170.55743 -65.117508 -50.417759 8551029
-170.5397 -64.824722 -51.322197 9142907
-170.39584 -64.667816 -52.340008 8418670
-170.2896 -64.515892 -53.116463 9010806
-165.7038 -63.842613 9.3664751 9208185
-166.00256 -63.782898 8.4666824 9865858
-166.24207 -63.859657 7.5904517 8484722
-166.5415 -63.825584 6.6566844 7761766
-166.78284 -64.039604 5.6037726 6446160
-170.96349 -64.07991 -51.525581 8485238
-170.82018 -63.872272 -52.381401 7169635
-170.54305 -63.888966 -53.421741 8616049
-170.36552 -63.829407 -54.193356 8747630
-165.57523 -62.737637 11.158724 9207671
-165.7924 -62.801441 10.371466 10062978
-166.00955 -62.866611 9.5826168 9339513
-166.30966 -62.827751 8.6526728 10654602
-166.6299 -62.829769 7.6063361 8879479
-166.71516 -63.088196 7.0073576 8287600
-171.05109 -63.212238 -52.453079 7038307
-170.90688 -63.005756 -53.311024 9866373
-170.62993 -63.024334 -54.353897 8681835
-170.45181 -62.965881 -55.127251 8681835
-165.43536 -61.341217 13.350336 11906725
-165.56003 -61.697285 12.501337 6774619
-165.77328 -61.886013 11.571692 9208185
-166.07407 -61.842453 10.645405 8813684
-166.39514 -61.839077 9.6030731 8550256
-166.60175 -62.016064 8.7097702 9536894
-171.08199 -62.349037 -53.592606 8880503
-171.03745 -61.922092 -54.387901 9472895
-170.79095 -61.939846 -55.313995 11380118
-170.60017 -61.811951 -56.237625 9537659
-165.33298 -60.433613 15.346426 9011323
-165.47562 -60.686844 14.355725 9406852
-165.67203 -60.831154 13.425776 8354165
-165.99101 -60.819798 12.388779 7827822
-166.20067 -60.876595 11.599749 10458507
-166.3828 -61.039406 10.707075 9011579
-166.57184 -61.20647 9.8134851 9011579
-171.26488 -61.046875 -54.785896 9341310
-171.16173 -60.924633 -55.511284 9736580
-170.99268 -60.870708 -56.291958 10130054
-170.74977 -60.847816 -57.262218 8090987
-170.57988 -60.6991 -58.212242 9340539
-165.39407 -59.476032 17.260761 11773853
-165.38309 -59.788605 16.354971 8024687
-165.7675 -59.894428 15.385884 9011323
-166.04155 -59.962444 14.403733 8617337
-166.15282 -60.206799 13.406229 8617337
-166.35471 -60.258389 12.616586 8617337
-171.35954 -60.281654 -56.642132 9735812
-171.26247 -60.163567 -57.373684 8617331
-171.026 -60.152912 -58.273182 8682611
-171.05556 -59.834183 -59.296833 8879478
-170.88835 -59.705425 -60.316803 9932678
-170.78554 -59.590038 -61.052437 9932678
-163.99989 -58.522236 36.29221 10327179
-164.38445 -58.639606 35.464989 10393227
-164.65074 -58.867947 34.77668 13156018
-163.98262 -59.009148 33.399796 10854034
-164.18114 -59.011089 32.411846 8617847
-164.37328 -59.013031 31.422565 7697259
-164.55991 -59.014961 30.432304 7170401
-164.74017 -59.016891 29.440908 8551537
-164.91486 -59.018822 28.448425 9209467
-165.08313 -59.020741 27.454908 7037274
-165.2459 -59.022663 26.460405 9932163
-165.40227 -59.024574 25.464943 14406853
-164.85938 -59.083614 20.926886 7037274
-165.03508 -59.120766 20.34358 7827302
-165.32562 -59.183655 19.369633 8418927
-165.61365 -59.247528 18.393381 10261132
-165.84209 -59.299438 17.610641 10984853
-171.52806 -59.350582 -61.31773 8616822
-171.19241 -59.364445 -62.362579 10261388
-171.36833 -59.281193 -63.363434 9603973
-171.51558 -59.189793 -64.357765 9473157
-171.20409 -59.19096 -65.183136 8354934
-172.03185 -59.195686 -67.401604 8682867
-171.88406 -59.006367 -68.300499 9011575
-171.67633 -58.9561 -69.097221 9406335
-171.50729 -58.85593 -70.070992 10788243
-163.79266 -57.679192 37.350052 9800320
-164.24481 -57.783001 36.404285 9932420
-164.59161 -57.973839 35.591595 9209467
-172.14642 -58.369709 -68.645493 10129542
-172.01486 -58.158718 -69.31443 10590356
-171.76144 -58.020279 -70.279175 11708834
-171.65941 -57.672283 -71.020401 9998220
-163.76836 -56.723694 38.104111 8090471
-164.15048 -56.7943 37.360615 9406075
-164.45979 -56.923206 36.668255 9998212
-172.27248 -57.333107 -69.499588 9011839
-172.19568 -56.824879 -70.354591 10590356
-171.85905 -56.894634 -71.33007 8946042
-171.71274 -56.642605 -72.094963 9932934
-163.54544 -55.571133 39.089607 9735043
-164.0239 -55.798851 38.310333 8288365
-164.39723 -56.035355 37.484772 9209466
-172.35544 -56.152481 -70.662842 8090995
-172.22217 -55.942329 -71.336121 8682867
-171.88445 -56.013165 -72.31385 9143418
-171.73712 -55.761631 -73.080986 9209723
-163.73563 -54.729927 39.341805 8879990
-164.19176 -54.915974 38.658012 9538430
-172.38152 -55.26955 -71.646156 8682867
-172.24747 -55.059868 -72.32132 8946039
-171.90862 -55.131714 -73.301361 9012089
-171.83096 -54.874447 -73.855972 7564643
-163.59607 -53.732491 40.099129 7432800
-164.13385 -53.712425 39.435558 6906456
-164.44176 -53.99765 38.882366 6511954
-172.48291 -54.160206 -72.665535 8682867
-172.30331 -54.042557 -73.372963 8288109
-172.02863 -53.975067 -74.292755 9011832
-171.95898 -53.525208 -74.895622 11380380
-163.36943 -52.458744 41.127296 10591124
-163.80617 -52.765823 40.399525 9472127
-164.32315 -52.871098 39.688881 6510930
-172.57724 -53.271164 -73.441437 7564643
-172.44731 -52.841114 -74.369286 11051415
-172.08447 -52.841267 -75.197632 9604484
-171.85146 -52.604076 -75.836456 7039331
-163.54631 -51.765053 41.310081 11183260
-164.10582 -51.792217 40.591534 10721937
-172.60567 -52.166451 -74.684914 8814710
-172.38902 -51.933594 -75.331711 9012348
-172.03586 -51.845581 -76.083794 8814969
-163.48326 -50.733982 41.990982 10591124
-163.92682 -50.819187 41.384205 10854039
-172.63396 -51.099796 -75.522255 10590607
-172.28023 -51.011959 -76.275352 9670020
-171.96992 -51.002743 -76.882019 10590607
-163.58376 -49.757256 42.434891 10591124
-164.13594 -49.767139 41.735649 10591124
-172.58449 -50.103016 -76.411079 11050900
-172.16995 -50.091057 -77.221275 8946555
-163.45175 -48.661942 43.239922 10920341
-163.89212 -48.959221 42.513428 10985624
-172.70911 -49.417648 -76.715805 10590607
-172.55119 -49.13773 -77.243607 8157554
-172.11803 -49.095829 -78.113594 7565675
-163.20665 -47.859806 44.015938 9736067
-163.75163 -47.793297 43.370335 10723218
-164.16701 -48.247612 42.583523 11380380
-172.71764 -48.346039 -77.552185 7565675
-172.50146 -47.968212 -78.264809 10591380
-172.18977 -47.794971 -78.982315 10591380
-163.2321 -46.351273 44.864426 10855060
-163.41066 -46.813549 44.370411 10855060
-163.99519 -46.769531 43.662079 10460046
-172.79475 -46.887455 -78.506714 14406343
-172.36629 -46.875355 -79.315613 9274749
-172.1156 -46.637623 -79.955017 11314588
-163.34842 -45.68877 45.233662 11052183
-163.81891 -45.877117 44.459484 10460046
-172.74846 -46.018261 -79.341286 9669507
-172.36276 -45.893192 -80.238884 8616819
-163.0032 -44.285042 48.194 9735812
-163.30553 -44.410557 47.322876 10986391
-163.3484 -44.783859 46.420387 10394255
-163.7722 -45.008816 45.519699 10656914
-172.88948 -45.227848 -80.315834 8616819
-172.60892 -45.008446 -81.198433 8221804
-172.87863 -44.55862 -82.344292 8814197
-172.45871 -44.553947 -83.165436 10590609
-162.00345 -43.567867 62.043823 9143933
-162.42455 -43.602619 61.309605 9537665
-162.78654 -43.704967 60.626732 6906456
-162.21349 -43.963566 58.125374 9866374
-162.49173 -43.965218 57.343346 9537409
-162.83408 -43.967278 56.363884 10129288
-163.17099 -43.969345 55.382572 11379095
-162.64497 -43.976086 51.29987 10656658
-162.95093 -43.978115 50.31966 11117207
-163.28746 -43.989765 49.348576 10590863
-163.39151 -44.110432 48.593655 10262155
-173.28427 -44.265938 -83.563324 7958888
-172.86037 -44.261963 -84.387138 6643284
-173.25665 -44.233681 -88.225037 7893611
-172.83078 -44.23476 -89.058563 7564651
-161.83725 -42.483482 63.097923 6511954
-162.18695 -42.725113 62.336323 7433056
-162.65501 -42.834381 61.469761 8682612
-161.70285 -41.617252 63.942726 11181972
-162.02551 -41.812489 63.25972 7038298
-162.53529 -41.822933 62.393517 7695972
-162.82625 -42.132233 61.682472 7959144
-161.71056 -40.33416 64.845589 13023917
-161.9344 -40.692188 64.212875 12629160
-162.36934 -40.863049 63.358345 9011832
-161.77054 -39.653706 65.230347 9340027
-162.32222 -39.691395 64.27401 11445401
-162.59653 -39.968086 63.614391 10985108
-161.75365 -38.625759 65.992615 7761512
-162.02888 -38.900352 65.332848 11972259
-162.47269 -38.958618 64.543564 10657430
-161.53224 -37.471558 67.189346 8485489
-161.93382 -37.781078 66.291901 7958890
-162.41628 -37.89719 65.39621 10986394
-161.5101 -36.472466 67.939796 7037274
-161.83707 -36.662296 67.253349 8617075
-162.25644 -36.83707 66.422058 7103325
-161.3681 -35.609409 68.794991 7367005
-161.61743 -35.836758 68.212761 7629922
-162.15182 -35.866699 67.290985 8946040
-161.55794 -34.621059 69.180656 8222058
-161.97456 -34.785473 68.361328 8484974
-162.27185 -35.087513 67.64492 9472384
-161.42337 -33.644157 70.104584 9142905
-161.90283 -33.710464 69.249489 9142905
-162.27267 -33.800755 68.561913 8024170
-161.29204 -32.610413 71.063622 9405819
-161.65097 -32.84108 70.294289 9735041
-162.129 -32.935394 69.421654 9669248
-161.21666 -31.536158 71.957436 8682867
-161.56744 -31.711876 71.241013 8945782
-161.99588 -31.927656 70.365074 8484976
-161.15108 -30.479628 73.092773 9208185
-161.53989 -30.658924 72.193108 9405819
-161.92421 -30.819227 71.338341 9077112
-160.89059 -29.288414 76.031296 9340030
-161.3067 -29.299477 75.279427 8353135
-161.37508 -29.613438 74.210449 8682100
-161.56465 -29.880512 73.279167 8747635
-161.91197 -29.961851 72.576691 9207930
-160.01846 -28.623158 87.766357 9143422
-160.6279 -28.528198 87.430557 9866631
-160.284 -28.914158 84.922752 10261132
-160.69113 -28.915915 84.149559 8551283
-161.19539 -28.918062 83.180779 7039331
-160.78748 -28.963799 78.124977 8419443
-161.3132 -28.976301 77.183289 9011065
-161.73282 -28.986809 76.42897 8418928
-160.41068 -27.581852 87.978951 8946043
-160.76221 -27.791937 87.66954 10261132
-160.00117 -26.38188 88.75708 10787732
-160.54529 -26.650852 88.302475 8157038
-160.1329 -25.645012 88.996681 10064265
-160.66252 -25.761852 88.61734 8288366
-160.36147 -24.839575 89.206093 8682867
-160.07674 -23.582739 89.930595 10261387
-160.62318 -23.847441 89.476372 9472127
-160.22821 -22.536985 90.292534 9866886
-160.03372 -21.668743 90.791641 7630440
-160.56592 -21.779305 90.413483 8092019
-160.14856 -20.775612 91.10984 7630443
-160.6974 -21.036165 90.65596 7893614
-159.92432 -19.635189 91.74604 8814713
-160.27965 -19.836697 91.437889 8025200
-160.03845 -18.739332 92.065819 8025199
-160.66997 -18.775557 91.658546 7038307
-159.8934 -17.376478 92.749886 7038307
-160.19312 -17.731466 92.409348 8354163
-159.92601 -16.699793 93.024712 8682617
-160.47734 -16.954247 92.57196 7564651
-159.77458 -15.56456 93.708382 11379356
-160.17607 -15.88298 93.254562 9208960
-159.84921 -14.246056 95.308067 8814709
-159.95851 -14.859769 94.229324 9143166
-160.51271 -15.152316 93.621758 8814203
-159.35635 -13.613758 104.3597 9997442
-159.40068 -13.888234 98.98674 8090730
-159.87595 -13.890101 98.217987 8616818
-160.2301 -13.891514 97.639946 8090986
-159.16116 -12.519536 104.96111 8879731
-159.5153 -13.153523 104.46282 9537659
-159.22197 -11.510264 105.36626 8353643
-159.11441 -10.571937 105.84486 12234145
-159.67357 -10.822129 105.38744 12234145
-159.11842 -9.6823015 106.23272 10063232
-158.85371 -8.612422 106.86675 11773596
-159.36931 -8.7810116 106.47227 9866111
-159.10416 -7.709332 107.10739 9339772
-158.75986 -6.5722871 107.82029 8616307
-159.15231 -6.8935947 107.4354 8287342
-158.99849 -5.8684287 107.98077 8813686
-158.71651 -4.3665648 108.81298 8616819
-159.11824 -4.8767133 108.33997 8287342
-158.93573 -3.4993834 109.05509 10656657
-158.60992 -2.545948 109.67436 11643551
-159.15546 -2.629652 109.298 14275010
-158.71281 -1.5941457 110.02592 11709345
-159.27766 -1.8360202 109.56845 15196110
-158.58429 -0.3998 110.78466 10064267
-158.97226 -0.71976596 110.29847 8814458
-158.38539 0.55996197 111.78274 7565675
-158.86566 0.31953484 111.26451 9078143
-157.57274 1.5825664 121.77357 10261385
-158.2252 1.5835747 121.36737 8091242
-158.54079 1.0480568 113.32792 12169380
-158.02525 2.3255653 121.81785 8485488
-157.8047 3.2336452 122.35419 8419183
-157.48514 4.0596809 122.91618 7563619
-167.52609 -68.617699 -2.6370063 7038307
-167.68805 -68.691185 -3.4475198 7958891
-168.0349 -68.601913 -4.4669681 7827297
-168.1958 -68.678276 -5.282084 7498590
-168.37192 -68.765854 -6.3025365 8813940
-168.39931 -68.795151 -7.3191895 8353135
-168.38669 -68.810875 -8.3346272 8550257
-168.35651 -68.821693 -9.3497286 10524043
-168.78259 -68.585678 -10.4753 10721678
-168.80321 -68.571358 -11.415406 7892582
-168.68983 -68.602158 -12.34669 8222316
-168.82539 -68.51577 -13.256475 7103836
-168.90526 -68.461777 -14.286749 6709078
-168.79721 -68.455849 -15.30161 9339769
-168.62863 -68.41935 -16.105837 9339769
-167.34618 -67.570152 -0.62046009 7038307
-167.54675 -67.775139 -1.5289379 8813945
-167.80586 -67.861443 -2.4810414 9537409
-168.09448 -67.889854 -3.4572692 7893354
-168.44243 -67.799385 -4.4792438 5920074
-168.5759 -68.105659 -5.2949147 6972503
-169.42351 -68.236595 -15.770333 8419438
-169.07545 -68.285759 -16.422312 8287597
-169.24757 -68.232796 -17.399897 8287342
-169.09995 -68.218239 -18.414484 8089963
-169.12987 -68.108269 -19.311537 9142648
-169.58479 -68.01181 -20.32939 7958890
-169.36345 -67.974876 -21.338089 8090475
-169.09032 -67.908768 -22.131836 8287852
-169.87685 -67.790184 -23.275972 8748661
-169.56895 -67.726135 -24.27483 8879991
-169.2816 -67.660217 -25.066605 9011065
-170.02585 -67.542236 -26.433441 9011065
-169.65195 -67.459999 -27.422625 7695722
-167.3298 -66.722458 0.48629707 8352619
-167.53134 -66.923653 -0.42053849 7826791
-167.87245 -66.883545 -1.4829708 7301219
-168.16861 -66.850494 -2.4070849 7432549
-168.39749 -66.883537 -3.1944928 8682358
-168.52299 -67.100433 -3.8732648 8090469
-170.2173 -67.303284 -29.199301 8484973
-169.73027 -67.197922 -30.380026 7038307
-170.48946 -67.080215 -31.576693 8616566
-170.22055 -67.036324 -32.375504 11904668
-170.16086 -66.917076 -33.285519 10261383
-170.51654 -66.804321 -34.350769 9143417
-170.45428 -66.704422 -35.47934 9735042
-170.48421 -66.608765 -36.20018 9997958
-170.46646 -66.531357 -37.342091 9603202
-170.19502 -66.51577 -38.357967 9142907
-167.17543 -65.59037 2.3966098 7433064
-167.31165 -65.879677 1.5930837 7563620
-167.62984 -65.901283 0.52893108 7760225
-167.92886 -65.883148 -0.42330414 8220775
-168.18881 -65.908218 -1.3016821 7169373
-168.41357 -66.081245 -2.2494979 7169373
-170.93506 -66.291092 -38.30835 8418928
-170.81531 -66.17775 -39.435616 9142907
-170.64536 -66.159431 -40.320553 9603201
-170.99095 -65.874847 -41.273201 9932422
-170.86726 -65.822327 -42.289925 7959401
-170.9198 -65.736687 -43.30912 7038298
-170.73149 -65.767235 -44.357002 7301470
-170.88651 -65.456535 -45.718002 9012088
-170.79622 -65.486427 -46.355595 8089963
-167.0047 -64.584648 4.2032971 7564392
-167.13229 -64.787178 3.5355792 7893358
-167.40709 -64.865372 2.5426116 7367271
-167.70671 -64.842049 1.5950922 6248274
-167.98317 -64.888168 0.63675159 6839637
-168.24696 -65.050842 -0.42550904 8089189
-171.328 -65.317017 -42.536118 9208699
-171.28822 -65.223099 -43.47646 7432542
-171.29294 -65.07206 -44.327644 7958629
-171.23439 -65.029243 -45.149429 9537147
-171.23901 -64.888519 -46.255138 8616049
-171.11105 -64.947914 -47.327576 8089963
-170.99232 -64.991081 -48.182449 8089963
-170.98457 -64.852081 -49.293453 7367271
-171.11716 -64.49588 -50.225731 9472130
-166.939 -63.626736 5.6083636 6446160
-167.13155 -63.926376 4.6079993 7761764
-167.48082 -63.814785 3.6085429 7301473
-167.75795 -63.855556 2.6545177 6643542
-168.05736 -63.867016 1.6643299 6116172
-168.18546 -64.072968 0.99080414 5919050
-171.59583 -64.194557 -45.466793 7958629
-171.51587 -64.248459 -46.330765 9734014
-171.55295 -63.948269 -47.377033 7037274
-171.49124 -63.936565 -48.32431 8287856
-171.40947 -63.994526 -49.193451 8419700
-171.35204 -63.837479 -50.295631 9669253
-171.13937 -63.782803 -51.27943 8485238
-166.93875 -62.883385 6.5330224 7432799
-167.25116 -62.800888 5.6174378 6249038
-167.52306 -62.892838 4.6170316 8287849
-167.87343 -62.779915 3.6152158 8682867
-168.01248 -63.063873 2.809155 6380368
-171.78545 -63.074852 -48.631626 8287338
-171.7697 -62.976688 -49.372852 8221804
-171.70964 -62.953373 -50.177235 8616823
-171.4584 -62.974541 -51.226181 8682617
-171.22716 -62.914703 -52.206863 7038307
-166.79958 -61.732372 8.41751 9536894
-167.01781 -61.799938 7.6222787 9273979
-167.29057 -61.886448 6.6257234 7958883
-167.64143 -61.768543 5.6287827 6972503
-167.84798 -61.953499 4.7255921 8090728
-171.90958 -62.304317 -50.461262 8485238
-171.76662 -62.094604 -51.31934 7498601
-171.49088 -62.108994 -52.363594 7761772
-171.34651 -61.901905 -53.223362 8419699
-171.33379 -61.472172 -53.899216 10263180
-166.76265 -60.543407 10.549226 7827822
-166.90707 -60.763 9.5905399 8616820
-167.10805 -60.912022 8.6333618 9076599
-167.46634 -60.791798 7.6410499 10590091
-167.63965 -60.95927 6.7391496 8090479
-167.82082 -61.131317 5.8361249 6972503
-171.99782 -61.434444 -51.389309 7038307
-171.85457 -61.226021 -52.249626 8485238
-171.81058 -60.896496 -53.217422 8090475
-171.56848 -60.836369 -54.200943 8419696
-171.46811 -60.647491 -55.079014 8880503
-166.1815 -59.378647 16.433441 7038307
-166.43683 -59.437172 15.447359 9011323
-166.63094 -59.475887 14.454128 8617337
-166.62671 -59.678764 13.443666 8880508
-166.76678 -59.841255 12.404776 9998472
-166.89194 -59.960789 11.646553 10458507
-167.28664 -59.846577 10.662099 9011579
-167.3941 -60.098328 9.6578836 10590091
-167.59419 -60.155338 8.8598156 9340027
-172.19186 -60.243755 -53.715366 7563619
-172.09807 -60.122536 -54.445045 7563619
-171.93198 -60.067444 -55.228592 8287854
-171.85179 -59.896309 -56.215614 8946040
-171.84612 -59.632469 -57.263046 8814454
-171.62756 -59.55468 -58.340496 8419440
-164.96069 -58.663685 34.343918 12761260
-165.36244 -58.787785 33.473221 10262156
-165.64008 -58.86977 32.575562 7828845
-165.72224 -59.014221 31.473961 9144190
-165.9088 -59.016167 30.475504 10591374
-166.08972 -59.018112 29.47595 8092011
-166.19537 -59.019279 28.875769 8092011
-165.55301 -59.026489 24.46855 8616563
-165.69739 -59.028397 23.471296 7037274
-165.83609 -59.0303 22.473198 7037274
-165.96852 -59.0322 21.474174 7563874
-166.09526 -59.034096 20.474455 8682867
-166.21556 -59.035988 19.474005 8418927
-166.34647 -59.043587 18.474648 9142651
-166.61456 -59.101917 17.489573 10853267
-166.89917 -59.168056 16.504322 7038307
-167.10529 -59.214806 15.712286 7038307
-172.45006 -59.31699 -58.388748 7565675
-172.18925 -59.325802 -59.226006 8025711
-171.86046 -59.337673 -60.272358 9011320
-172.57442 -59.185658 -61.457123 7564651
-172.27686 -59.186844 -62.287704 7564651
-171.97533 -59.188034 -63.116768 8419702
-172.87305 -59.048908 -65.421013 11051415
-172.63335 -58.983307 -66.203033 12827055
-172.37463 -58.893772 -67.177551 11181716
-164.81476 -57.722496 35.362396 9209467
-165.21495 -57.87299 34.478325 9209467
-165.69917 -57.835098 33.581161 8223089
-165.86874 -58.224041 32.95137 8091760
-172.93523 -58.173138 -66.399422 10656141
-172.7077 -58.112926 -67.188324 8551538
-172.40477 -58.087994 -68.172249 9537662
-164.75395 -56.83065 36.178669 9406589
-165.14005 -56.75544 35.49966 8813941
-165.55556 -56.888992 34.599651 9603202
-173.04729 -57.076523 -67.369736 8617332
-172.81467 -57.002613 -68.191246 9340542
-172.56482 -56.872089 -69.135521 9011839
