# .PCD v0.7 - Point Cloud Data file format
VERSION 0.7
FIELDS x y z rgb
SIZE 4 4 4 4
TYPE F F F U
COUNT 1 1 1 1
WIDTH 1229
HEIGHT 1
VIEWPOINT 0 0 0 1 0 0 0
POINTS 1229
DATA ascii
52.692158 -44.298641 142.45261 9866629
52.752388 -44.084038 143.1483 9341310
52.072815 -43.991379 143.43044 9077628
51.54641 -43.825748 144.14439 10262156
50.851063 -43.826138 144.39027 10458246
50.450592 -43.82246 146.06114 10458246
49.569588 -43.822983 146.36092 12168608
48.613243 -43.819611 148.22987 8747893
47.719357 -43.820175 148.51886 7563619
47.271622 -43.816467 150.23296 11904668
46.539852 -43.600998 150.43495 11839132
46.573147 -42.781002 150.76036 10589579
45.888695 -42.458645 150.90529 9931908
45.873966 -41.633705 151.23383 9340287
45.898346 -40.712032 151.59995 9340545
45.22242 -40.576458 151.67036 8090737
45.305958 -39.578011 152.06554 9077372
44.6992 -39.120438 152.26233 9735046
45.282074 -38.645645 152.43706 8946039
44.567623 -38.542183 152.49568 9866886
44.609989 -37.591946 152.87263 9208187
44.710842 -36.706573 153.22238 9734531
44.19136 -36.615803 153.27118 10261132
44.651096 -36.066406 153.47859 9734531
44.298328 -35.665791 153.64653 9734531
128.78682 -79.484306 48.986164 9537918
128.57172 -79.497154 49.613251 9537918
128.19389 -79.523331 50.710865 10130057
127.92301 -79.544571 51.494965 9735299
129.48915 -78.34642 48.185528 7564643
129.13995 -78.649429 48.882462 9275003
128.77066 -78.752464 49.867004 11708572
128.39995 -78.93454 50.766037 10590607
129.75385 -77.722359 48.105618 8222321
129.3855 -77.755554 49.166954 10261384
129.04128 -77.858063 50.077396 12300708
130.71207 -76.462929 46.679691 7958893
130.32001 -76.796867 47.469555 7827566
129.99532 -76.855461 48.3717 10919317
129.71143 -76.942223 49.120033 11314071
97.067856 -76.309113 89.868599 10261385
96.646332 -76.233421 90.127792 8617078
131.51602 -75.496414 45.810097 7037274
131.07289 -75.749596 46.63007 7893099
130.74893 -75.757484 47.579918 7762030
130.33 -75.967819 48.423599 10985110
97.026672 -75.927467 90.047249 7038307
96.263298 -75.806793 90.552361 7169892
95.387909 -75.66861 91.122368 8748664
94.71994 -75.368782 91.711975 8090993
133.90219 -74.312408 42.794395 9471359
133.63911 -74.309586 43.597187 9010808
133.0479 -74.447502 44.316154 8616050
132.39209 -74.71698 45.076248 7432032
131.99185 -74.823097 46.005096 8024425
131.55858 -75.028358 46.802197 8419696
131.28499 -75.111557 47.417164 7564643
96.259094 -75.143669 91.073975 8617078
95.691986 -74.97953 91.52359 10721678
94.995995 -74.735313 92.131775 8682615
94.287186 -74.62323 92.665375 9142907
93.613091 -74.405243 93.321091 10524305
93.019661 -74.252907 94.029434 11050391
142.39629 -73.763123 32.549965 10064264
142.11017 -73.909294 33.606041 8814966
141.06758 -73.976166 33.931934 8814966
140.77536 -73.973572 35.117126 9604226
139.7072 -73.973534 35.742706 12235940
139.44453 -73.971359 36.74897 11380633
138.63332 -73.971268 37.247955 10327948
138.14941 -73.969574 38.187988 8089963
137.50064 -73.968704 38.899048 9143418
136.84793 -73.967857 39.603561 11116948
136.3524 -73.966232 40.527832 10788242
135.49057 -73.965874 41.15855 9209467
134.94759 -74.026009 42.165794 9209467
134.4482 -74.141396 42.791252 9537664
134.192 -74.142044 43.599533 9010808
93.394516 -74.058128 94.523048 10919062
92.371681 -74.086143 94.976707 10853012
91.71608 -73.974594 95.727669 9932678
91.017998 -73.890434 96.661613 9209211
90.551315 -73.88797 97.433449 7695205
90.000313 -73.886353 98.390251 6576724
89.286644 -73.885742 99.035942 5392706
88.568283 -73.885162 99.676544 6183246
88.002167 -73.883652 100.58965 7366751
87.472008 -73.882729 101.25549 8222063
86.890686 -73.881264 102.16269 7565675
86.149902 -73.88076 102.78584 9407105
85.467049 -73.879662 103.6073 7828589
85.002693 -73.878464 104.34267 12564913
84.392487 -73.877068 105.23872 7828846
83.629471 -73.87664 105.84377 7038307
82.999863 -73.737076 106.79758 7235685
82.404114 -73.506981 107.44735 6840669
81.737549 -73.380196 107.82635 7169634
142.85019 -72.76017 31.871941 9998471
142.68544 -72.895958 32.827229 10130057
83.109344 -73.024902 107.29443 9735812
82.559006 -72.648125 107.71688 8090989
81.748352 -72.628868 108.12347 7696236
81.145821 -72.467514 108.48491 8617333
143.3103 -71.758812 31.084858 10853780
143.22238 -71.713165 31.953239 9011320
143.08252 -71.882721 32.600021 9011320
82.473732 -71.859032 108.07648 7564651
81.861855 -71.755402 108.41923 8485747
81.057838 -71.681618 108.84452 8485747
80.505501 -71.312767 109.26473 8090987
143.8851 -70.458046 30.242687 8682867
143.67096 -70.782951 31.040871 8880246
143.539 -70.896332 31.796127 7564642
81.878273 -70.948547 108.73598 8617333
81.246979 -70.648163 109.16747 8617333
80.414749 -70.530235 109.62441 9077626
144.38255 -69.296707 29.620949 6840922
144.15466 -69.699295 30.298046 8946039
144.0083 -69.787361 31.250027 8024937
81.233932 -69.796196 109.51685 10262156
80.620613 -69.605247 109.8955 11182485
79.767288 -69.673332 110.28793 9735040
144.60777 -68.722878 29.485054 8617843
144.49142 -68.751541 30.367149 10788756
144.33052 -68.965309 31.059052 13024949
80.563271 -68.84272 110.23064 10458505
79.873344 -68.714493 110.62174 9603454
79.115456 -68.534851 111.06694 10656141
145.1272 -67.561272 28.681465 7169886
144.9628 -67.740807 29.506344 10460047
144.72697 -68.088654 30.415474 10526352
80.614883 -68.048996 110.52483 10458505
80.055679 -67.68792 110.94528 10064004
79.218498 -67.578781 111.40105 10392970
78.556602 -67.530052 111.74639 9802121
145.38869 -66.801918 28.731842 8617331
145.25314 -66.872116 29.722507 10855317
79.959076 -66.912262 111.30506 10458505
79.406563 -66.69062 111.66608 10064519
78.457176 -66.757339 112.10633 8221806
77.84668 -66.520309 112.50216 9537665
145.78844 -65.709351 27.990108 6182222
145.72754 -65.859001 28.797108 8287854
145.57254 -66.069984 29.494843 9407359
79.347176 -66.025597 111.96297 9933190
78.707352 -65.740562 112.39256 10590609
77.821388 -65.680573 112.8526 9735044
77.181282 -65.399994 113.28049 10459023
146.16676 -64.676552 28.061195 6971738
146.05858 -64.976097 28.739376 7037274
78.707512 -65.021973 112.6817 13551549
78.10022 -64.622955 113.14117 11906469
77.199242 -64.520973 113.62551 10920088
76.633659 -64.173714 114.04358 9144449
146.49059 -63.666237 27.300358 7565675
146.43669 -63.90691 27.898666 7300703
78.187195 -63.912041 113.38461 11511711
77.510674 -63.63126 113.83044 10327949
76.511169 -63.595421 114.33666 9801863
146.8291 -62.713932 27.179176 11840675
146.77864 -62.963882 27.900982 10984852
77.514137 -62.797791 114.16423 10327692
76.771439 -62.754444 114.54711 10788499
75.854858 -62.584667 115.06646 11314844
147.11667 -61.803421 26.408134 11315104
147.15649 -61.809071 27.164913 11116952
77.011124 -61.817772 114.80622 10591120
76.126442 -61.682873 115.29581 11051415
75.250908 -61.453011 115.81925 11117209
147.77319 -60.403194 25.699215 6510930
147.50508 -60.859421 26.38493 10130826
147.37796 -61.216099 27.278015 7038307
76.359276 -60.816132 115.55054 9604225
75.524185 -60.614159 116.10079 10919573
74.758591 -60.385895 116.63671 9998472
74.227463 -60.208378 117.04486 10853012
148.61258 -59.469284 24.77774 9669762
148.22148 -59.835533 25.592987 8156267
148.02768 -60.113354 26.293598 6510930
75.538971 -59.94976 116.61605 10853012
74.996735 -59.707764 117.09863 9800580
74.193459 -59.595352 117.61774 10261131
73.456467 -59.398922 118.20824 10458510
72.886253 -59.283142 118.68858 8682867
155.69348 -58.569519 15.446693 9208435
155.6452 -58.798378 16.198662 7038307
155.51627 -58.998367 16.941803 7038307
154.25294 -58.998173 17.74147 5393730
154.14287 -58.995972 18.66814 5393730
152.9097 -58.996254 19.263817 8156779
152.79018 -58.994087 20.182335 8881014
151.56628 -58.994396 20.761158 8091242
151.41077 -58.99184 21.853508 10131081
150.19559 -58.99218 22.414352 15328473
149.89459 -59.034134 23.29113 9275260
149.51494 -59.143833 23.968876 6511954
149.31544 -59.217808 24.673973 6511954
73.905647 -59.120369 118.74172 10918805
73.022591 -59.102329 119.2338 9537920
72.39566 -58.979752 119.95464 8880246
71.677895 -58.893612 120.59655 9406846
71.209602 -58.861324 121.63854 10787475
70.368431 -58.853786 122.38816 9209467
69.629814 -58.85379 122.80839 9209467
69.370186 -58.850906 124.08884 13353655
68.471237 -58.850956 124.58509 11380376
67.956871 -58.849541 125.43503 8092011
67.435501 -58.848141 126.28242 8814965
66.520805 -58.84824 126.76461 8485747
66.374374 -58.845348 127.98348 7498856
65.447411 -58.845493 128.45799 8879990
64.901276 -58.844124 129.30789 10130057
64.348213 -58.84277 130.15495 9340541
63.405609 -58.842968 130.61482 8222576
63.19751 -58.607216 131.80208 9867398
62.249203 -58.613243 132.26674 9406590
61.644314 -58.435486 132.63603 9011832
156.01596 -57.685398 15.477036 8945783
155.9481 -57.987877 16.2286 7367271
63.090481 -57.937046 132.12387 9340797
62.388916 -57.697922 132.56544 8814453
61.484303 -57.660305 133.02614 8617331
156.29872 -56.793423 14.744568 8616298
156.32837 -56.828842 15.506363 7893098
62.413502 -56.844631 132.89598 9603969
61.81496 -56.606281 133.28648 9011832
60.982304 -56.510792 133.73497 8945783
60.384064 -56.257408 134.13127 9405566
156.6673 -55.776482 14.72998 8682095
156.64218 -55.953899 15.440758 8090474
61.833832 -55.601059 133.68079 9077625
61.130047 -55.517395 134.06107 9866374
60.271416 -55.476318 134.50047 9800324
156.9744 -54.827324 14.043159 10260867
157.00458 -54.860413 14.807457 8419181
61.252499 -54.694035 134.33138 10129545
60.401783 -54.587559 134.79311 9866629
59.568405 -54.56517 135.2126 9866630
157.35484 -53.756664 13.884552 9340286
157.27954 -54.078678 14.641075 9012088
60.661774 -53.749092 135.00172 9077625
59.798855 -53.709438 135.44267 9274748
59.084721 -53.477787 135.88747 9735558
157.66733 -52.794399 13.209915 7958633
157.72623 -52.752075 13.997154 8222317
60.547649 -52.967903 135.37166 8682867
59.942722 -52.715832 135.77074 9406334
59.061874 -52.589569 136.25533 9143422
58.399555 -52.273026 136.70871 7564651
158.02269 -51.801769 13.110336 8090475
158.01767 -51.91235 13.747925 7893608
60.063969 -51.87899 136.04713 10261124
59.424622 -51.569611 136.48622 9998470
58.502697 -51.540512 136.95201 8879735
57.782349 -51.311298 137.39882 8156270
158.41191 -50.622974 12.398994 14012612
158.36511 -50.854099 13.072945 9208955
59.253056 -50.796043 136.8813 8089963
58.63171 -50.624607 137.2562 8089963
57.729584 -50.605995 137.70802 7762283
158.69737 -49.80909 12.211449 10590864
158.69202 -49.948982 13.034103 9406334
58.834484 -49.950756 137.42693 8089963
58.041443 -49.758949 137.89452 9537923
57.15099 -49.636837 138.38219 9603716
159.09962 -48.608089 11.589554 5919050
159.0387 -48.892025 12.354958 6379344
58.059151 -48.698013 138.31178 9669764
57.287331 -48.641132 138.71481 8683127
56.433952 -48.538696 139.17627 9669251
159.43958 -47.549538 10.777428 7563874
159.40277 -47.767456 11.545845 6708566
159.3656 -47.986431 12.31427 5919050
57.507221 -47.630005 139.01253 9472126
56.784157 -47.554554 139.39894 9340796
56.001656 -47.493912 139.78569 9932422
159.79477 -46.673931 10.799835 7037530
159.713 -46.957973 11.566673 8221804
56.837978 -46.674431 139.726 10919313
55.97781 -46.51535 140.19289 9011576
160.50745 -45.579494 10.071175 8419952
160.27478 -45.970089 10.831169 7433057
56.2323 -45.956936 140.46413 9801091
55.415791 -45.66193 140.87758 9471871
54.727287 -45.36433 141.11987 10129545
161.3661 -44.648685 9.7343521 8814710
160.95901 -44.968296 9.9043121 8814710
55.399723 -45.088238 141.33879 8682867
54.904739 -44.672062 141.74995 9077370
54.19046 -44.31139 142.44936 10064265
53.678791 -44.136307 143.00269 13024432
53.412445 -43.974567 143.51906 14076861
52.812622 -43.86776 143.84875 8881015
52.382343 -43.821377 145.38287 9341310
51.680904 -43.821766 145.63228 8683892
50.978439 -43.822159 145.87886 9208435
50.573917 -43.818428 147.57579 10458246
49.683716 -43.818958 147.87619 10063491
48.717617 -43.81554 149.77217 9931904
47.829094 -43.480339 150.37822 10984080
47.977921 -42.620052 150.7901 10721166
47.290371 -42.625225 150.80482 10326664
47.304802 -41.645393 151.19429 9340283
46.639343 -41.138084 151.41234 10786958
47.298962 -40.60767 151.60725 8682867
46.707596 -40.571163 151.63623 9734784
46.624149 -39.61311 152.01939 9274750
45.879978 -39.188061 152.20673 9538176
46.737625 -38.665337 152.39368 8682867
46.030457 -38.586487 152.44234 9340797
46.003651 -37.715984 152.78929 9406590
45.289661 -37.437862 152.91736 8682867
46.170601 -36.720699 153.1812 8682867
45.512932 -36.493973 153.28746 9340285
45.362801 -35.656315 153.62434 9932166
44.715958 -35.49559 153.70406 9537408
45.575962 -34.963993 153.89458 10261132
44.824448 -34.542599 154.08055 8682868
44.733665 -33.578045 154.46651 8222317
44.798626 -33.004089 154.69331 8879991
44.663967 -32.420135 154.92924 9340286
127.75991 -79.558617 51.965561 9932679
127.48735 -79.583984 52.749989 9142907
127.18718 -79.46991 53.775425 9538177
126.93935 -79.641624 54.319496 10261899
128.40369 -78.535072 51.209396 10524816
128.06595 -78.805283 51.909676 10787988
127.73844 -78.835098 52.852859 8418928
127.49197 -78.859535 53.560474 8747893
129.16263 -77.357834 50.284637 12235431
128.76964 -77.658424 51.115051 10261131
128.4427 -77.684494 52.060829 10064009
128.06125 -77.935783 52.913029 8484977
129.68379 -76.626999 49.561172 10327177
129.4099 -76.704239 50.290466 9537407
129.0614 -76.702454 51.332237 8681843
128.74812 -76.934082 52.003429 8681843
99.596741 -76.654732 88.357605 8353903
98.95237 -76.469261 88.78257 8945781
98.05368 -76.489372 89.260925 9734781
97.489876 -76.385612 89.608772 11905692
130.51236 -75.504768 48.776707 9274752
130.05878 -75.783844 49.584213 9800836
129.67197 -75.868423 50.570705 8681843
129.2798 -76.048714 51.435242 8681843
99.073402 -75.841164 88.998619 8813680
98.282234 -75.796349 89.46888 7498079
97.508965 -75.624985 90.005341 7498599
96.924614 -75.351723 90.532936 7038307
132.99501 -74.306366 45.519741 9142651
132.51569 -74.348892 46.515076 9734788
131.95856 -74.494186 47.346542 9077114
131.2924 -74.802193 48.13459 8682615
130.91443 -74.902618 49.018684 8682615
130.49083 -75.062004 49.897797 8682356
98.338318 -75.137207 89.953957 5919050
97.809288 -74.925034 90.424751 6775134
97.046555 -74.731186 91.036369 7696235
96.317543 -74.530472 91.657799 9866628
95.645744 -74.289444 92.476448 10655628
95.143761 -74.189728 93.104843 9931907
142.32501 -73.478218 34.054039 7037274
142.05788 -73.671707 34.894379 10130313
141.64211 -73.914978 35.786777 9209467
140.68912 -73.970551 36.355942 10525325
140.20694 -73.968811 37.311741 12235940
139.4278 -73.968346 37.942055 10525326
138.89742 -73.967041 38.755569 10656915
138.36549 -73.965759 39.56432 9209467
137.58167 -73.96534 40.175793 13550517
137.28706 -73.963249 41.166561 10656398
136.20938 -73.963364 41.736046 9604226
135.85208 -73.960968 42.880188 8156780
135.05101 -73.971252 43.341606 8682355
134.40865 -74.013969 44.206776 9668738
133.93063 -74.08271 44.943165 10392203
133.38289 -74.138351 46.011425 11247254
133.16272 -74.138878 46.65316 9011321
95.17466 -74.071701 93.509544 10326664
94.322655 -74.036942 94.095291 10392716
93.747078 -73.9058 94.881104 10458768
93.038406 -73.889206 95.533195 10458768
92.615227 -73.887398 96.483109 10130058
92.015511 -73.886551 97.160614 9340286
91.476242 -73.884956 98.093376 9340286
90.764679 -73.884323 98.749786 7760998
90.048317 -73.883713 99.401047 5984587
89.381027 -73.882263 100.35067 6840408
88.991371 -73.880844 101.13238 7958632
88.386688 -73.879715 101.91975 8156268
87.523827 -73.879082 102.65871 8353903
86.654945 -73.878487 103.39072 8288366
86.40966 -73.876747 104.21471 7828073
85.778488 -73.875305 105.14276 8289140
85.173454 -73.630722 105.95367 7039331
84.347733 -73.562195 106.46198 8749178
83.612343 -73.445526 106.8776 7038307
142.78387 -72.484276 33.256084 8089963
142.59691 -72.756737 33.982143 8813428
142.46817 -72.815292 34.872818 12169640
85.243195 -72.880432 106.30273 9341057
84.502197 -72.759705 106.71586 8617333
83.599129 -72.624619 107.21461 8748916
82.978859 -72.27565 107.66019 7564642
143.28526 -71.311905 32.645195 8089963
143.07721 -71.673172 33.277699 8353391
142.87932 -71.9245 34.158047 8352877
84.652763 -71.95549 106.96552 6840922
83.907288 -71.666801 107.4485 7827814
83.003883 -71.497704 107.9611 7827814
143.51169 -70.734383 32.514381 7695460
143.39203 -70.771507 33.394749 8287085
143.2282 -70.992722 34.083885 9339257
84.015488 -70.786751 107.74955 7893607
83.175018 -70.735085 108.18383 7696228
82.328468 -70.589729 108.65887 8354161
144.03441 -69.560173 31.721806 6511954
143.87624 -69.742493 32.486282 6972248
143.68584 -70.003754 33.279758 8484719
83.418198 -69.873558 108.41101 7828330
82.544777 -69.703369 108.90925 8157041
81.683556 -69.436699 109.44032 10064778
144.34964 -68.731987 31.607952 7235421
144.18584 -68.86956 32.554634 7762020
82.772385 -68.718262 109.19382 10327949
81.961441 -68.605904 109.63804 9735813
81.107643 -68.54303 110.08346 10261899
144.81027 -67.694511 30.917225 9078906
144.63982 -67.85437 31.85223 7828327
144.4106 -68.259949 32.531269 8419435
82.082855 -67.748123 109.92361 8090992
81.222908 -67.736366 110.35142 8682613
80.620903 -67.325302 110.81312 9011574
145.34512 -66.469429 30.177746 9078906
145.18828 -66.646225 30.947651 11644577
144.98491 -66.962372 31.683014 8025962
82.028725 -67.078117 110.2199 7038307
81.467293 -66.714905 110.64236 7235942
80.626129 -66.602707 111.10141 9275004
79.986748 -66.313011 111.53263 9933190
145.61435 -65.757027 30.095577 8618099
145.48195 -65.803436 31.057365 10723731
81.371811 -65.938576 111.00181 7565675
80.833305 -65.638779 111.3875 9933190
79.927963 -65.647919 111.82928 9933190
79.373283 -65.427658 112.19091 9933190
146.09476 -64.68766 29.337044 7234910
145.93819 -64.815773 30.252247 8024938
145.72128 -65.169884 30.985233 8092011
80.710274 -64.805519 111.78348 9604225
80.116249 -64.761841 112.09331 9801604
79.272469 -64.656975 112.5507 12169896
78.707054 -64.304329 112.97088 13551549
146.51677 -63.776833 28.583458 8814454
146.42424 -63.795906 29.297089 8353647
146.29324 -63.882439 30.125542 8485489
80.217583 -63.810612 112.42633 8616819
79.449074 -63.637447 112.87418 11117208
78.603584 -63.53632 113.33089 10919829
78.036087 -63.186928 113.75076 9406590
146.87286 -62.738117 28.528984 8353651
146.707 -62.980923 29.413403 7432546
79.547401 -62.688381 113.2075 8157035
78.805367 -62.5653 113.62234 8485488
77.996429 -62.648582 113.98701 9735555
147.25688 -61.644249 27.897877 8485493
147.2312 -61.74641 28.673321 9011579
78.836205 -61.748104 113.93566 8419695
78.028419 -61.758194 114.3294 10656657
77.380608 -61.48251 114.75925 10262155
147.77492 -60.491573 26.98299 6511954
147.61307 -60.785313 27.688236 6906720
147.54303 -60.933674 28.410477 9011579
78.302376 -60.845291 114.58347 9538176
77.446899 -60.642609 115.1369 9077881
76.64254 -60.390621 115.7074 9670019
148.66489 -59.502232 26.31414 6511442
148.2847 -59.83696 27.075386 6511954
148.15576 -60.051964 27.789093 6511954
77.767525 -60.052025 115.43493 8090987
77.025162 -59.772114 116.03313 9735555
76.199203 -59.585709 116.64905 10459278
75.666023 -59.253349 117.43264 8880246
155.75055 -58.645966 16.966805 7038307
155.72791 -58.66716 17.722755 9341058
155.34393 -58.99482 18.436272 9998984
154.07379 -58.994659 19.223763 5920074
153.95407 -58.992477 20.149281 9735812
152.71585 -58.99279 20.733109 8091242
152.6131 -58.991074 21.466976 9736323
152.48032 -58.988934 22.383667 9472125
151.22008 -58.988873 23.126545 10853262
151.07736 -58.986771 24.034863 6511954
149.93683 -59.019558 24.591854 6511954
149.51492 -59.165184 25.37225 6511442
149.21471 -59.271736 26.134022 6511954
74.991623 -59.070358 118.38091 9669250
74.342674 -58.990963 118.96638 10721682
73.560905 -58.908199 119.79162 9735299
73.297432 -58.853912 120.66381 10129801
72.423195 -58.853848 121.18849 9669762
72.074806 -58.851879 122.16159 9866885
71.305412 -58.850887 122.99117 9669762
70.265556 -58.85088 123.58608 8748917
70.158585 -58.847958 124.79624 10525328
69.254494 -58.847996 125.29823 12038049
68.608788 -58.847054 126.03628 8092011
68.218018 -58.845135 127.01446 8420720
67.297951 -58.84523 127.5023 9209467
67.000847 -58.842319 128.81535 8681843
66.223419 -58.84243 129.2149 9340285
65.527306 -58.824123 129.90671 9077369
65.092606 -58.603195 130.87027 8814709
64.145287 -58.603878 131.33659 9209211
156.05573 -57.786224 16.846489 7696236
156.08121 -57.821526 17.533203 9143680
65.194931 -57.962509 131.07716 8683124
64.447647 -57.68845 131.55525 8682867
63.544701 -57.534306 132.06189 9209211
156.42163 -56.777576 16.846153 8090993
64.526962 -56.682083 131.92027 8682867
63.827133 -56.592678 132.30081 9011832
62.973038 -56.544785 132.74077 9603969
156.70331 -55.888535 16.112679 8222060
156.80324 -55.731781 16.885162 8814453
63.900284 -55.714813 132.61734 9537409
63.042728 -55.499977 133.12596 9274749
62.28904 -55.432468 133.52428 9143162
157.23901 -54.30558 15.400856 7366495
157.09903 -54.804855 16.15139 8090474
63.421501 -54.69355 133.26323 9537409
62.449177 -54.616928 133.7729 9603714
61.773056 -54.414337 134.18726 9735043
157.46072 -53.681473 15.30674 7498337
157.45503 -53.821129 16.1222 7498081
63.267296 -54.036552 133.60298 9735043
62.636303 -53.721405 134.0403 9735043
61.722584 -53.684258 134.50528 9932423
61.108784 -53.508495 134.87816 9735043
157.86572 -52.464333 14.628761 8156780
157.78128 -52.799778 15.307533 7893608
157.6859 -53.16996 16.016876 7038298
62.473705 -52.946194 134.43169 9208955
61.987709 -52.626125 134.79953 9274749
61.090233 -52.549892 135.27222 9011575
60.493839 -52.238064 135.69113 8682867
158.11966 -51.749737 14.523094 8354159
158.15068 -51.781422 15.293335 7893608
61.996189 -51.854572 135.10516 9734788
61.359489 -51.541901 135.54433 8945269
60.48645 -51.46188 136.00647 8616305
59.847137 -51.151684 136.44592 8813683
158.47284 -50.651333 13.689026 8156268
158.45349 -50.828468 14.503883 8419696
61.496777 -50.885582 135.74023 8089963
60.668945 -50.565464 136.27654 8682097
59.67263 -50.569847 136.76549 8945528
158.83331 -49.56205 13.044937 7563619
158.79486 -49.784119 13.811478 8748405
158.7561 -50.007263 14.578156 8419440
60.773693 -49.767586 136.5453 8813683
60.058086 -49.686565 136.93033 8287341
59.210674 -49.578522 137.39105 8287342
159.14717 -48.687447 12.972656 7827048
159.12366 -48.867008 13.728058 8814198
60.119747 -48.808056 137.25267 8221804
59.311378 -48.565147 137.74843 9340542
58.521713 -48.524391 138.15369 9932935
159.47484 -47.787781 12.983971 9011834
159.43156 -48.040489 13.863419 9340798
59.597076 -47.621342 137.98718 9735812
58.74461 -47.51413 138.44987 9603969
57.971046 -47.455742 138.85413 9275003
159.83582 -46.748413 12.19352 8551541
159.8132 -46.905807 13.009758 9209469
58.873405 -46.596695 138.75569 9077882
57.891514 -46.615334 139.23122 9735297
57.261429 -46.445286 139.60971 13550517
160.61298 -45.571007 11.46331 8156524
160.36435 -45.958126 12.310242 8025200
58.308086 -45.957401 139.47675 8946039
57.441887 -45.773415 140.05235 9735297
56.608959 -45.456806 140.71938 8682867
56.13702 -45.133083 141.21452 8682867
162.11494 -44.425735 9.9755859 9735812
161.23645 -44.797573 10.582985 8946296
161.15309 -44.902763 11.408142 9406847
57.626965 -45.102673 140.5063 9868171
57.086418 -44.912506 140.9267 8091505
56.219074 -44.614044 141.63573 8879735
55.511021 -44.31535 142.46999 9537665
54.792152 -44.200241 142.82402 10064267
55.048855 -43.994404 143.4964 10064267
54.302624 -43.951633 143.61584 11050903
53.781414 -43.820637 144.8732 9801350
52.907558 -43.821095 145.19331 9801605
52.525673 -43.817318 146.89569 8420720
51.81691 -43.817711 147.14574 8683121
51.107178 -43.818115 147.39293 10458246
50.698647 -43.81432 149.11656 8682867
49.799206 -43.814861 149.41772 9274231
49.251507 -43.443481 150.43141 9931904
48.547104 -43.356522 150.48323 10655630
49.432182 -42.654732 150.74078 10655630
48.726162 -42.568645 150.79234 10918803
48.706364 -41.699371 151.13863 10392456
47.995197 -41.414467 151.2693 8682867
48.857231 -40.897449 151.45396 8814203
48.15593 -40.579647 151.59749 8222321
48.008484 -39.696941 151.95229 8814203
47.414425 -39.660637 151.98125 7959152
48.300884 -38.949451 152.24252 8814203
47.553436 -38.521919 152.43085 9208959
47.337425 -37.666748 152.77632 11379868
46.749435 -37.454819 152.87498 10459278
47.340488 -36.976883 153.05072 11380380
46.795078 -36.515202 153.24771 10130056
46.903118 -35.609131 153.60555 9077368
46.179985 -35.506973 153.66386 10261641
46.77179 -35.025497 153.8409 8682867
46.156784 -34.566521 154.03859 8617074
46.256325 -33.71608 154.37488 9077370
45.531193 -33.616341 154.43196 10261132
46.197659 -33.070614 154.63339 10261132
45.497189 -32.603298 154.83629 9932423
45.556313 -31.650299 155.21449 9735043
44.891258 -31.594662 155.25261 9603457
45.062042 -30.701427 155.61302 10064008
44.992821 -29.951067 156.08157 9735043
126.88221 -79.432037 54.728455 11774366
126.51273 -79.477592 55.582153 9274747
126.04968 -79.468094 56.393776 9472125
125.48277 -79.566841 57.30275 9143161
124.91644 -79.515503 58.31908 10064779
124.51141 -79.481422 59.043976 10591124
127.41976 -78.626526 54.041103 9472128
127.08645 -78.724258 54.924416 10721934
126.60222 -78.712135 55.98386 9274747
126.04963 -78.800751 56.875412 8814453
125.52657 -79.030533 57.614021 8353905
125.03963 -79.141006 58.37619 10591124
128.10634 -77.473946 53.303982 8089963
127.68402 -77.793472 54.200485 8879735
127.34116 -77.840874 55.169563 9208698
126.86059 -78.062065 56.006084 10524555
126.46457 -78.117783 56.650623 9932419
103.74043 -77.305664 84.856239 9998216
103.13191 -77.233818 85.398338 9538176
128.63712 -76.726471 52.570885 9405823
128.32809 -76.713791 53.507393 8813942
128.04677 -76.684509 54.380081 9208956
127.70271 -77.036263 55.006271 8089963
103.01538 -76.845825 85.67804 9669762
102.38245 -76.775024 86.240059 9998727
101.5312 -76.683823 86.994118 9405822
100.67603 -76.593651 87.74147 10129289
100.0099 -76.608391 88.152946 9010808
129.73949 -75.479843 51.136375 10129545
129.34608 -75.714661 51.821751 8681843
128.99089 -75.850159 52.641991 9997703
128.68564 -75.87323 53.499733 9669251
128.40807 -75.883148 54.21381 9537921
102.34169 -76.024048 86.626991 9538176
101.69903 -75.841904 87.279221 9011320
100.95683 -75.713631 87.985947 9142650
100.1544 -75.704315 88.522636 9734786
99.412994 -75.439095 89.109756 8484716
98.884132 -75.223351 89.583595 5919050
131.9391 -74.312943 48.551804 10130059
131.37666 -74.391258 49.531738 9340286
130.88858 -74.54879 50.243034 8418928
130.298 -74.81292 51.066856 8747892
129.85057 -75.020233 51.902676 8813429
129.40176 -75.200073 52.809067 9932166
100.31049 -75.016747 88.991096 8287341
99.703728 -74.79586 89.519203 8353131
98.957008 -74.661804 90.084106 6182221
98.306419 -74.430283 90.735046 6445395
97.714005 -74.261574 91.45578 9471871
142.0314 -73.561737 36.235729 9341053
141.60268 -73.809357 37.101841 10064519
140.97577 -73.966248 37.880608 9801863
140.31567 -73.965355 38.608257 8091762
139.65161 -73.964478 39.329311 12104105
139.15149 -73.962807 40.273533 11708828
138.3214 -73.962791 40.754128 9209467
138.02252 -73.960693 41.750267 7432032
137.11113 -73.96051 42.338345 8617075
136.57178 -73.95842 43.469883 7893608
135.89612 -73.957657 44.155476 8617075
135.21681 -73.956924 44.834335 9668735
134.69185 -73.958572 45.740772 10786699
133.88219 -73.969498 46.184116 11642009
133.32831 -74.038223 47.143555 9734788
132.93747 -74.074142 47.942226 9406079
132.37619 -74.145874 48.893867 10591380
132.14734 -74.14933 49.532642 10590609
97.989052 -74.053925 92.04641 10064003
97.182083 -74.0793 92.393913 10392711
96.433151 -74.018776 93.015755 11248020
95.876427 -73.893593 93.82412 9931907
95.07605 -73.888565 94.621124 9603201
94.542084 -73.886856 95.596146 7630443
93.962334 -73.885773 96.352135 7433064
93.429802 -73.884048 97.334831 9406593
92.723671 -73.883369 98.005348 9735044
92.012634 -73.882706 98.670677 8484721
91.29686 -73.882065 99.331009 8484721
90.842766 -73.88031 100.2812 5655878
90.308121 -73.879189 101.02749 6446162
89.645454 -73.877991 101.87841 8814198
88.906609 -73.877426 102.52145 8419440
88.230621 -73.876259 103.3651 6249039
87.692276 -73.828354 104.19503 7104348
87.175621 -73.657791 105.0388 9275261
86.292686 -73.554535 105.51495 7630953
85.746979 -73.306656 105.88319 7039331
142.40118 -72.784027 35.522339 11051415
142.27829 -72.830162 36.401585 9604225
142.11174 -73.059601 37.088306 9209467
87.263062 -72.86216 105.31622 8354418
86.504654 -72.650894 105.77442 7762284
85.70491 -72.561241 106.20398 8485750
142.96735 -71.527618 34.628578 9010549
142.76353 -71.821709 35.428871 10063492
142.61871 -71.941147 36.267971 9209467
86.631729 -71.67749 106.10372 8683385
85.77002 -71.723335 106.50926 9077885
85.029709 -71.626564 106.91245 8288369
143.28693 -70.638031 34.66991 8813170
143.12999 -70.787811 35.518055 8418670
85.991386 -70.791855 106.77529 10262156
85.151787 -70.657341 107.24254 8683128
84.391739 -70.457367 107.69698 7893608
143.718 -69.712639 33.894096 9405563
143.56358 -69.875206 34.683372 9339257
85.909149 -70.000435 107.13433 10262156
85.351677 -69.621445 107.56116 10196365
84.470001 -69.670425 107.97524 9341056
83.793892 -69.543526 108.359 7894381
144.22633 -68.569229 33.128498 8880245
144.08478 -68.697586 33.917931 8880244
143.8826 -68.987251 34.723846 8747632
84.73275 -68.780891 108.20407 9801607
83.78466 -68.689964 108.70713 9275777
83.147423 -68.387779 109.14227 10656657
144.56046 -67.682648 33.03405 8551278
144.38722 -67.844101 33.987644 8089955
84.687325 -68.04512 108.52257 9933193
84.084892 -67.623665 108.98866 9012606
83.162552 -67.585152 109.45799 9867399
82.542694 -67.485039 109.80327 9143678
145.03383 -66.623604 32.302673 5920074
144.83856 -66.852379 33.235733 8156006
84.185783 -66.904297 109.22858 9012606
83.419411 -66.714386 109.68208 9144192
82.450066 -66.705994 110.16241 8617592
81.887878 -66.341888 110.58556 9012606
145.46391 -65.693497 31.541275 8090216
145.33099 -65.786148 32.367397 6972249
145.23573 -65.812752 33.080048 8090216
83.577698 -66.0019 109.89095 9210491
82.786629 -65.692657 110.40466 10459537
81.792557 -65.565826 110.94488 7697261
81.228409 -65.205353 111.36761 9933190
146.0365 -64.403481 30.68417 7893096
145.82237 -64.724243 31.495037 7695718
145.62949 -64.96505 32.371166 10260614
82.919182 -64.858986 110.67455 10920087
82.159843 -64.589638 111.15679 9407107
81.306664 -64.562431 111.58778 9011577
146.29117 -63.652199 30.841297 7235685
146.15756 -63.734146 31.70575 7761772
82.256187 -63.722492 111.45785 10459537
81.385078 -63.77607 111.86533 8879735
80.696274 -63.455589 112.33334 7958890
146.71143 -62.776855 29.995243 7234911
146.61752 -62.785622 30.750916 7959151
146.47842 -62.917229 31.510685 7038307
81.637672 -62.835434 112.11897 7630180
80.798592 -62.690823 112.59032 8223086
80.074265 -62.38942 113.06823 8025964
147.34184 -61.337994 29.107986 9011579
147.10999 -61.702892 29.932674 7366498
146.8739 -62.046875 30.856007 8617337
81.044624 -61.640846 112.8911 10459529
80.192947 -61.537907 113.35191 7894378
79.470284 -61.609619 113.67902 6511954
147.77379 -60.596928 28.454491 7038307
147.70274 -60.6231 29.17828 9142649
147.49718 -60.758915 30.121616 7037274
80.941628 -60.872265 113.25076 11380372
80.32328 -60.614605 113.73061 8025707
79.513374 -60.725414 114.07212 6972762
78.831314 -60.526115 114.51799 9867141
149.16138 -59.299656 26.864693 9406331
148.96382 -59.386013 27.66201 9406331
148.38577 -59.83231 28.489223 6906714
148.18936 -59.957932 29.273563 7037274
79.617592 -59.990162 114.57543 9932678
78.939293 -59.796333 115.07087 10524559
78.22776 -59.570389 115.68478 9341054
77.685616 -59.254089 116.46185 9341054
76.836807 -59.190506 117.07272 9143675
155.89709 -58.56551 19.072224 7301727
155.1814 -58.99173 19.742447 6972762
155.0593 -58.989529 20.674736 10262156
153.80336 -58.989872 21.258957 8617842
153.64458 -58.987278 22.367493 7760740
152.39798 -58.987652 22.933384 9208184
152.28473 -58.98595 23.665657 7563873
151.57883 -58.984882 24.488537 6511954
150.8679 -58.983841 25.304913 11642779
150.27501 -59.027634 26.134571 7433056
149.77173 -59.108349 26.975266 13221810
77.283424 -59.015369 117.4463 9867398
76.419899 -58.958172 118.13747 8748917
75.80555 -58.902416 118.78104 9406078
75.034676 -58.854107 119.59551 10721426
74.437508 -58.853043 120.35467 9603715
74.102676 -58.851036 121.33331 8814971
73.223488 -58.850967 121.8638 10920086
72.742157 -58.849449 122.73295 9998727
72.25386 -58.847954 123.59977 8946039
71.208626 -58.847946 124.20222 9341054
70.956879 -58.844975 125.51131 11183001
70.199203 -58.845001 125.93445 9472896
69.287025 -58.845051 126.43699 8092011
69.010208 -58.842098 127.75436 9406078
68.084892 -58.84219 128.24785 9076857
67.65152 -58.813309 129.18161 9537920
67.080513 -58.584274 129.89873 9472384
66.108475 -58.568768 130.3837 8288366
156.15292 -57.74773 18.340023 9144187
156.18048 -57.789421 19.105251 7037274
67.250916 -57.768513 130.14238 9932934
66.434883 -57.727554 130.5607 8354159
65.653648 -57.46883 131.04941 8814709
156.6129 -56.341309 17.437492 10591124
156.49976 -56.768383 18.18821 7827559
156.45694 -57.002937 18.946644 7037274
66.557259 -56.714787 130.90712 8617330
65.731361 -56.590477 131.36382 8814709
64.981415 -56.516891 131.76271 8814453
156.85336 -55.701935 17.590454 9867400
156.81825 -55.895977 18.223557 7827302
65.935898 -55.712475 131.61559 8814710
65.019173 -55.649479 132.09248 9406335
64.316528 -55.493938 132.50105 9537409
157.29094 -54.366985 16.743652 8485232
157.17859 -54.791355 17.497589 8748408
157.13678 -55.023453 18.258865 9735046
65.966255 -55.127022 131.83582 9538433
65.340385 -54.806625 132.27267 9932679
64.431038 -54.762375 132.7383 8682100
63.821587 -54.581802 133.11105 8813686
157.53873 -53.689182 16.768852 7498341
157.49725 -53.919254 17.531387 8090736
65.213387 -53.846565 132.72072 9537409
64.602882 -53.665001 133.09428 9076858
63.690376 -53.623039 133.56062 9208444
63.05925 -53.307049 133.99832 9735043
157.89819 -52.589046 16.037338 7038298
157.85742 -52.817398 16.801132 7498342
157.74535 -53.240849 17.557617 8090736
64.71743 -52.933331 133.33163 10261132
64.086182 -52.615837 133.77008 9603459
63.17094 -52.575436 134.23711 9340285
62.584293 -52.214424 134.67104 9734788
158.17372 -51.806015 15.871735 7038298
158.2041 -51.839733 16.643761 7038307
64.05143 -51.717216 134.14803 9472130
63.310604 -51.660728 134.53561 8748149
62.415237 -51.631306 134.98845 9537665
158.59363 -50.549568 15.205475 8025194
158.49881 -50.926155 15.966934 8156270
63.377934 -50.86816 134.82072 8287854
62.59053 -50.752586 135.25491 8485233
61.87851 -50.485378 135.71297 8682098
158.86003 -49.793171 15.04969 8551282
158.85574 -49.929886 15.872223 8879736
62.84523 -49.775406 135.52214 8485233
62.001114 -49.66151 135.98351 8879477
61.235008 -49.597099 136.38655 8616305
159.24353 -48.643509 14.427223 9538177
159.16928 -48.964123 15.193375 8024682
62.149197 -48.667435 136.31036 8945785
61.299374 -48.572544 136.76677 9537922
60.581295 -48.307632 137.22673 8946299
159.5988 -47.674892 14.485359 8024683
159.55112 -47.889629 15.034088 7432289
61.580288 -47.691113 136.98302 9538180
60.674393 -47.666138 137.43898 9603715
59.975609 -47.249367 137.95047 9341054
159.96838 -46.617126 13.649139 9735812
159.85254 -46.954659 14.220894 7762028
61.532574 -46.984039 137.29086 9603973
60.808609 -46.750126 137.74496 9801351
59.855034 -46.58083 138.28143 9735812
160.74368 -45.495205 12.805534 8222576
160.48886 -45.884102 13.562859 8288370
160.32005 -46.160419 14.325935 7038307
60.962154 -46.051353 138.09467 7565675
60.261547 -45.838253 138.6125 10591121
59.417465 -45.739361 139.10811 9012089
58.583076 -45.502907 139.71071 8682867
162.11786 -44.444866 11.150383 9735812
161.30133 -44.776413 12.06852 8090474
161.15591 -44.965942 12.837677 7563874
59.608829 -45.068996 139.55852 9736067
58.996342 -44.9114 139.98831 8618104
58.248199 -44.729969 140.5731 9868171
57.585728 -44.413456 141.37837 10789015
57.096252 -44.255562 142.13542 10261644
56.253056 -44.266964 142.51151 9537665
163.31483 -44.09774 9.8532028 6643539
162.85535 -44.203053 10.611511 8156522
56.493332 -44.042973 143.12331 8418928
55.807293 -43.872948 143.91936 8419186
54.827518 -43.82011 144.48228 8748667
53.939285 -43.816559 146.38451 8682867
53.056366 -43.817028 146.70558 8551793
52.133812 -43.813488 148.62318 11183001
51.416859 -43.8139 148.87157 8682867
50.718987 -43.509197 150.36951 10064264
50.001537 -43.394386 150.43266 10129284
50.192867 -42.564014 150.75835 9997697
50.039703 -41.664013 151.12019 9670016
49.453754 -41.446342 151.22099 10459533
50.048267 -40.975464 151.39389 10262667
49.440002 -40.510132 151.59386 10854294
49.547558 -39.665436 151.92726 10854294
48.826019 -39.556232 151.98833 9735047
49.495449 -39.022755 152.18425 10064011
48.802052 -38.548569 152.38982 8617081
48.990543 -37.711926 152.71806 8683385
48.266762 -37.605381 152.77806 10064011
48.936893 -37.067951 152.97554 10986390
48.184879 -36.640274 153.16409 13156790
47.432766 -36.214184 153.3519 10261641
48.161121 -35.741219 153.52263 11249049
47.643093 -35.584648 153.59737 9735297
47.617985 -34.684666 153.95647 9011831
46.86282 -34.260296 154.14365 8682867
47.592377 -33.783112 154.31618 8682867
47.028675 -33.432964 154.46919 9603712
46.919254 -32.654934 154.78172 10129802
46.26498 -32.494781 154.86119 9997959
46.935738 -31.946438 155.06352 9997959
46.39043 -31.423075 155.28503 9406078
46.405693 -30.604527 155.61299 8814454
45.686684 -30.534922 155.66371 8617075
45.736046 -29.656025 156.30101 8879990
45.161453 -29.229418 156.67099 9209467
124.26811 -79.46228 59.478344 7039331
123.86235 -79.43235 60.20166 7039331
123.37472 -79.399452 61.06847 15721430
122.88641 -79.370026 61.934067 11840673
122.39726 -79.344078 62.798592 10788244
121.90739 -79.321442 63.662033 9735555
121.49844 -79.305214 64.380821 9669247
125.62032 -78.518997 57.820942 7893615
125.09351 -78.651497 58.636238 10591124
124.59425 -78.720772 59.449554 8222579
124.10628 -78.684723 60.319263 7631211
123.61761 -78.6521 61.187759 13156017
123.12821 -78.622864 62.055046 11643292
122.5779 -78.783638 62.890572 10919830
122.10908 -78.951256 63.580231 10261899
127.35654 -77.435287 55.585316 9932419
126.95538 -77.550255 56.211494 10919056
126.42123 -77.67981 57.041615 10196105
125.93828 -77.68264 57.874603 10262158
125.44994 -77.64016 58.749573 9012093
124.96616 -77.649239 59.579521 7235686
124.41071 -77.75174 60.466072 7762283
123.93127 -77.815125 61.249237 9538175
123.53326 -77.885902 61.886379 10459019
108.62871 -77.968399 80.461052 8682867
108.10382 -77.794655 80.981239 10261899
107.45663 -77.605316 81.610817 10853780
106.72198 -77.501945 82.273186 10525070
106.02654 -77.445061 82.880852 11972001
105.20285 -77.487862 83.548889 10788244
104.47126 -77.395027 84.203743 9011832
128.0623 -76.278671 54.795483 8813942
127.71774 -76.631294 55.422298 8682356
127.28573 -76.658806 56.283394 9867141
126.80183 -76.658562 57.120285 9867397
126.24603 -76.750816 58.014801 12630959
125.7563 -76.708748 58.891865 10328209
125.16451 -76.980179 59.719326 8222579
124.67474 -77.198502 60.408638 8092019
107.37255 -77.023216 81.954521 10985364
106.8756 -76.802895 82.473228 10985364
106.1423 -76.747459 83.111908 11314328
105.41287 -76.760391 83.715248 10261643
104.67955 -76.668205 84.371201 8879479
103.96464 -76.628487 84.987106 9800581
103.3371 -76.508186 85.567856 10459278
128.78098 -75.396111 54.188683 9537921
128.47508 -75.536652 54.788849 9208956
128.0986 -75.640594 55.662766 9603201
127.55148 -75.742226 56.583344 8945528
126.97201 -75.95491 57.333782 9669762
126.50194 -76.103249 58.039467 12104615
126.10339 -76.164215 58.684555 12630959
106.2357 -76.112717 83.33213 9341057
105.62637 -75.890419 83.967339 8946042
104.96152 -75.776962 84.598106 8089963
104.27322 -75.606346 85.333145 9340030
103.44779 -75.790283 85.869118 9208955
102.77402 -75.678993 86.516891 9669762
102.14542 -75.459251 87.222687 9669506
101.33213 -75.261009 88.099106 8287341
131.07472 -74.32811 50.935463 8089963
130.83937 -74.333809 51.569527 9011320
130.27809 -74.4487 52.436958 9537408
129.78397 -74.634819 53.256344 9537408
129.20856 -74.915222 54.063942 9800580
128.82765 -74.946823 55.121819 9011577
103.77045 -75.080399 86.242691 8879990
103.15703 -74.942123 86.892517 9537406
102.47594 -74.760941 87.643829 8945270
101.71311 -74.689934 88.371979 8550513
100.96906 -74.525581 89.142799 8287341
100.25159 -74.330589 89.862907 9274234
99.728279 -74.203949 90.568848 7366237
141.8484 -73.602844 37.628292 9933193
141.709 -73.715324 38.443825 8091761
141.32222 -73.860466 39.251907 8618105
140.41209 -73.961899 39.909225 12104361
140.11935 -73.959747 40.920502 11708833
139.06723 -73.960213 41.338688 9800836
138.76414 -73.958099 42.340157 8418671
137.84927 -73.957603 43.057861 7301215
137.29739 -73.955841 44.065868 7893608
136.73473 -73.954659 44.853493 8483689
135.92793 -73.954353 45.434376 9208435
135.5954 -73.952339 46.413063 9866109
134.75755 -73.952446 46.850388 10260611
134.21114 -73.950958 47.747795 9405820
133.53439 -73.959328 48.666882 11117466
132.75713 -73.978706 49.39806 10196622
132.23576 -74.051689 50.220047 11643297
131.80661 -74.11599 50.856026 9340286
131.33002 -74.166458 51.763351 9932678
131.09221 -74.172653 52.39922 10854036
100.4791 -74.082848 90.592438 8813680
99.825516 -74.071777 90.986588 7432286
99.047157 -74.050751 91.483727 7234908
98.454346 -73.95388 92.150841 7893093
97.787811 -73.888809 92.971725 8287850
97.113045 -73.888016 93.673836 9997955
96.61441 -73.886269 94.640503 9668735
96.030022 -73.88533 95.343925 8287597
95.535614 -73.884079 96.117516 8353648
94.918953 -73.882729 97.002289 9077884
94.215134 -73.882011 97.68354 8156785
93.506447 -73.881325 98.359695 10261900
92.792839 -73.880661 99.030754 8879735
92.238564 -73.878952 100.0127 7958377
91.890366 -73.877068 100.9517 5920074
91.158142 -73.876457 101.61101 5920074
90.421143 -73.87587 102.26498 5920074
89.62027 -73.861557 103.14648 6117453
89.200676 -73.63073 103.93235 6051660
88.364769 -73.402229 104.55672 6117453
142.43166 -72.27636 36.804955 9735555
142.21057 -72.619247 37.600849 11906468
142.00847 -72.868111 38.523647 11774882
89.294846 -72.85955 104.31759 5920074
88.686981 -72.582603 104.72812 6578009
87.796532 -72.577972 105.16812 7169889
142.668 -71.608818 36.864922 9275261
142.48744 -71.816406 37.733814 9735555
88.611679 -71.782585 105.08723 7038307
87.875847 -71.733025 105.46922 7169892
87.164696 -71.391899 105.95641 7893614
143.11635 -70.614716 36.154198 8748404
142.97153 -70.751289 36.941948 9604226
142.76566 -71.050064 37.744858 8090987
88.073265 -70.730316 105.77571 7762028
87.327286 -70.628204 106.18386 10131083
86.588295 -70.56424 106.57318 10262156
143.6219 -69.520927 35.271572 7563619
143.45653 -69.745407 35.963711 7827815
143.30495 -69.833763 36.95298 9670019
87.393349 -69.791626 106.48814 10723219
86.586128 -69.704239 106.92045 9341057
85.948524 -69.39193 107.35991 9604230
143.9696 -68.591637 35.198109 7103578
143.74162 -68.880005 36.217484 7038555
87.349251 -69.04966 106.80845 9735812
86.789162 -68.668373 107.2375 9341059
85.970314 -68.583725 107.67451 9143681
85.348633 -68.475273 108.02401 9341059
144.36273 -67.711708 34.592735 8089955
144.22708 -67.812431 35.417324 7761511
144.06229 -68.035736 36.112621 5920074
86.704948 -67.879379 107.59621 9341059
86.089348 -67.712463 107.96645 8222581
85.262032 -67.689751 108.3829 9275521
84.700523 -67.316422 108.80936 9012606
144.93871 -66.408493 33.74736 9209467
144.70816 -66.817101 34.42889 9604227
144.53412 -66.985291 35.368404 11117471
86.101143 -66.96447 108.26134 8880510
85.458755 -66.658867 108.70052 11380381
84.611153 -66.533913 109.16817 9341568
84.047813 -66.164375 109.59411 11183510
145.21489 -65.649338 33.749184 8156010
145.04811 -65.826881 34.600193 11446693
85.448692 -65.807289 109.04772 10986390
84.824455 -65.611229 109.43394 9999750
83.936378 -65.573547 109.88642 9999493
145.66185 -64.671936 32.990967 11313045
145.5097 -64.84285 33.739586 9142907
145.37851 -64.924309 34.585133 11906727
84.769096 -64.84848 109.76769 9210491
84.066864 -64.714523 110.16743 9868164
83.29586 -64.528557 110.62188 8486519
146.18275 -63.506996 32.184376 7038307
146.02055 -63.721176 32.886143 10326666
145.87888 -63.828796 33.740047 8617336
84.824905 -64.055244 110.05907 9210491
84.256783 -63.689564 110.48577 9210491
83.404861 -63.573574 110.95199 8420724
82.731232 -63.519348 111.3055 9341570
146.49661 -62.683674 32.067501 7761773
146.33237 -62.817825 33.028774 8486259
84.161697 -62.91301 110.84464 8681835
83.600098 -62.686817 111.21217 8616304
82.633476 -62.745823 111.66453 8616563
82.013268 -62.503662 112.06728 7037274
146.95612 -61.653305 31.364769 12103847
146.78516 -61.809792 32.314125 9472643
146.55612 -62.211521 33.004074 8092011
83.566734 -62.143147 111.44709 8616563
82.952744 -61.735386 111.91335 8616563
81.991409 -61.663582 112.41569 8024680
81.466881 -61.266968 112.8334 9538686
147.67801 -60.404266 30.651817 7037274
147.37283 -60.720623 31.375191 9932163
147.14728 -60.92984 32.1451 12827569
83.046577 -61.023003 112.1534 10261644
82.346573 -60.744186 112.65005 8156011
81.485893 -60.50647 113.24285 9012343
80.746223 -60.317184 113.74799 9538686
148.95518 -59.373814 29.052536 7432287
148.42998 -59.658802 29.797997 7826789
148.09836 -59.856628 30.66404 7037274
147.88713 -60.008865 31.437237 10260870
81.766884 -59.849651 113.63459 10787985
81.005157 -59.71698 114.13798 11577243
80.335449 -59.486996 114.72373 10196106
79.619728 -59.332203 115.31942 9538176
79.022484 -59.251987 115.79093 9932678
155.94385 -58.642246 20.411572 9012089
155.4765 -58.837997 21.206074 8617074
154.85115 -58.986038 22.164581 7695203
154.74214 -58.984306 22.908806 7037274
153.47784 -58.984699 23.474842 8484462
153.33295 -58.982563 24.396736 11379350
152.04819 -58.982571 25.128708 7762021
151.86154 -58.980057 26.224506 8551537
150.61597 -58.980515 26.754349 10262156
150.48428 -58.978863 27.477997 13221810
149.85353 -59.107903 28.107727 10853519
149.58743 -59.17757 28.989662 7958120
79.91497 -59.090954 115.89775 9209467
79.039253 -59.064365 116.41787 10130057
78.421913 -58.939579 117.14899 9735812
77.611122 -58.854557 117.94636 9143675
77.030464 -58.853436 118.71825 8617333
76.717026 -58.851379 119.70391 8354421
75.84951 -58.851246 120.2533 8814971
75.123581 -58.851143 120.70656 8814971
74.917717 -58.848125 122.0099 8814971
74.033546 -58.848049 122.54627 8814971
73.294029 -58.848 122.98849 10919829
73.063988 -58.84499 124.30109 9275004
72.163345 -58.844971 124.82403 9472383
71.528389 -58.843964 125.58131 11051415
71.155617 -58.841972 126.57673 9341054
70.238579 -58.84201 127.08585 9998215
69.845802 -58.737263 128.1953 9932166
69.193901 -58.631016 128.839 10589840
68.316978 -58.584175 129.28975 9472127
156.20088 -57.8214 19.679905 7037274
156.25815 -57.782112 20.451107 9406590
69.223335 -57.836201 129.14365 10589840
68.401176 -57.704742 129.60144 10130314
67.704979 -57.606873 129.98363 10262156
156.66949 -56.421017 18.971325 7037274
156.55534 -56.851055 19.722828 7103323
156.58252 -56.894077 20.491753 9142649
69.157173 -56.979282 129.52031 9406078
68.56765 -56.711166 129.91837 9998471
67.703636 -56.562542 130.40358 10064777
66.934135 -56.350216 130.86789 8814709
156.90091 -55.767673 18.870472 7037274
156.93118 -55.812222 19.704288 7366495
68.033836 -55.554806 130.6456 10130572
67.211922 -55.543049 131.05516 10065034
66.514 -55.67728 131.34505 8814710
157.26294 -54.776192 18.912266 9011579
157.10858 -55.277271 19.405788 9144187
67.936371 -54.769066 131.00911 9867657
67.270973 -54.660702 131.38036 9275262
66.39077 -54.716286 131.7916 9801605
65.764656 -54.395115 132.22888 9538433
157.58047 -53.788868 18.179993 10261133
157.63708 -53.754406 18.973503 10853269
67.259514 -54.032997 131.63806 9143675
66.620537 -53.705486 132.08427 9670019
65.798607 -53.611298 132.52693 9011577
65.300148 -53.297886 132.89833 8089963
157.93742 -52.803116 18.155334 9735046
66.764931 -52.81123 132.37224 8748919
66.056816 -52.566231 132.8194 7630441
65.142555 -52.521076 133.28783 8880250
64.51107 -52.202721 133.72665 9143422
158.27823 -51.759922 17.460083 9537667
158.30496 -51.792244 18.156944 9735046
65.979095 -51.712559 133.20065 7038819
65.239227 -51.652283 133.5891 8222834
64.498901 -51.593407 133.97736 9472130
158.69255 -50.474064 16.49968 8287859
