# .PCD v0.7 - Point Cloud Data file format
VERSION 0.7
FIELDS x y z rgb
SIZE 4 4 4 4
TYPE F F F U
COUNT 1 1 1 1
WIDTH 1229
HEIGHT 1
VIEWPOINT 0 0 0 1 0 0 0
POINTS 1229
DATA ascii
-108.14139 10.352131 148.95358 8485235
-108.92123 10.439645 148.64371 9208443
-109.75504 10.450636 148.27916 10524301
-110.70564 10.416801 147.84485 9603200
-111.69169 10.710564 147.52666 10195335
-109.07774 11.14055 148.85657 10063751
-109.96558 11.386899 148.56277 10063751
-110.80308 11.399287 148.19714 8879734
-111.64257 11.4119 147.8307 10787215
-112.48405 11.424811 147.4635 9142649
-113.38216 11.673779 147.16626 7761515
-111.0687 12.263303 148.42732 7696234
-111.85779 12.354536 148.11488 9011321
-112.70108 12.368597 147.74733 9339772
-113.66256 12.337798 147.30943 7893100
-114.63401 12.520046 146.95282 8222064
-112.23066 13.067804 148.23691 10261124
-112.91914 13.316633 148.03238 10260359
-113.7664 13.332167 147.66364 7038307
-114.61584 13.3481 147.29417 8813943
-115.5842 13.319107 146.85393 9274747
-116.37788 13.619769 146.62372 11708828
-113.93199 14.046817 147.87799 7761515
-114.86142 14.305702 147.60892 10195335
-115.71761 14.323555 147.24129 9603711
-116.5761 14.341759 146.87294 9998725
-117.43701 14.36036 146.50372 8946039
-118.392 14.624033 146.24677 9998211
-119.04367 14.639045 145.97108 8682867
-116.9072 15.083259 147.2894 8880245
-117.77354 15.103209 146.92297 9077624
-118.76809 15.374568 146.71065 8880245
-119.64072 15.395741 146.34253 10195337
-120.51598 15.417385 145.97353 9209472
-121.52296 15.691565 145.75812 9143679
-122.40495 15.714508 145.3873 8879991
-135.56924 16.820768 143.68295 11380380
-136.27174 16.843353 143.38661 9735043
-137.21124 16.873814 142.99043 8420470
-138.15437 16.904774 142.59286 8880507
-139.10104 16.936281 142.19385 7564651
-136.49252 17.520781 143.50311 9142907
-137.3692 17.633961 143.15454 9997959
-138.31363 17.666395 142.75684 10525074
-139.20818 17.444695 142.30299 7564651
-137.78331 18.407183 143.2403 10854036
-138.47574 18.430367 142.92354 10459281
-139.0778 17.945684 142.51231 7564651
52.893974 -13.242327 180.80865 9077368
51.995819 -13.527926 180.69131 9997959
50.991318 -13.66782 180.74174 9471608
50.338654 -13.668099 180.92459 9734782
38.074745 -13.674233 177.5802 12104103
37.219513 -13.674606 177.76094 10656657
36.14941 -13.675076 177.98161 8880503
21.455444 -13.553794 174.73946 9800324
20.516878 -13.516264 174.73434 9011576
19.501785 -13.440026 174.4169 8748661
18.607933 -13.401446 174.00162 8880246
17.728168 -13.153445 173.67752 11578016
53.739826 -12.474211 180.73814 9208954
52.964233 -12.557788 181.04977 9077368
52.312317 -12.792541 181.24626 10261132
20.206371 -12.834173 175.00116 9011576
19.541641 -12.594361 174.7774 9932166
18.645844 -12.558107 174.3602 9143418
17.755186 -12.522348 173.94524 11709602
16.946026 -12.420037 173.59648 10919832
16.216787 -12.251347 173.31299 9735812
54.549393 -11.400958 180.80516 9537662
53.896858 -11.635286 181.00212 8879989
53.120174 -11.718623 181.3143 8945782
18.606049 -11.779829 174.65512 10920086
17.5779 -11.459073 174.28893 11314844
16.56258 -11.482324 173.79001 10393998
15.657689 -11.52977 173.33464 8748917
14.932553 -11.363678 173.05208 8090987
54.8237 -10.390233 181.08531 8617074
54.04879 -10.58 181.35439 9669250
17.168461 -10.597259 174.43939 11314844
16.435406 -10.431501 174.15282 10065291
15.621308 -10.54527 173.71439 9012091
14.743876 -10.516281 173.30313 8485488
13.878259 -10.278126 172.98192 9735043
13.233115 -10.048003 172.76369 10853012
55.756226 -9.2494221 181.12454 9603457
54.977631 -9.331502 181.43811 9800836
54.322563 -9.566556 181.63586 9406078
15.584552 -9.5576715 174.09528 9209728
14.780995 -9.4631071 173.74603 9011834
13.776811 -9.3915634 173.2908 10129545
12.819268 -9.4058628 172.82339 10129545
11.960824 -9.1714287 172.50423 8682867
56.572975 -8.1679668 181.19164 9932166
55.917114 -8.402771 181.38988 9932166
55.137367 -8.4846678 181.70403 10589840
14.296325 -8.6739712 173.83101 9341057
13.497516 -8.582037 173.48296 10655633
12.627933 -8.5590687 173.07297 9603457
11.763095 -8.5363998 172.66513 8880246
10.908265 -8.304739 172.3465 8682867
56.797157 -7.3955355 181.39929 10656657
55.885216 -7.524013 181.75368 9472383
13.299586 -7.9428582 173.64603 10129545
12.653234 -7.7157626 173.42619 9208955
11.792474 -7.4844122 173.10457 9537920
10.839412 -7.4027419 172.67795 9735043
9.8599348 -7.3710752 172.21831 8879478
9.0146074 -7.003469 171.9594 8813942
57.617905 -6.3088446 181.46671 10656657
56.838593 -6.4981914 181.73788 10919829
56.302315 -6.7796049 181.8644 11380380
11.59945 -6.6353865 173.35498 9537920
10.654653 -6.4475741 172.97527 10326668
9.6686029 -6.3863168 172.52441 9471359
8.815196 -6.3701153 172.11938 9076858
8.0380049 -6.2856793 171.77866 9143163
57.905876 -5.6094165 181.6169 9932675
57.061649 -5.6127605 181.99095 10985622
10.326901 -5.7653117 173.0932 9931910
9.6878214 -5.5430369 172.87486 9931910
8.832593 -5.5289621 172.46806 8550257
7.9817748 -5.5150852 172.06332 8288109
7.0317302 -5.3950796 171.65366 6577748
58.787964 -4.3220906 181.73695 10261129
57.870171 -4.500474 182.07401 9998214
8.7773447 -4.7542429 172.75482 8090475
7.7349753 -4.5111375 172.35039 9209468
6.7301345 -4.445322 171.89241 6446418
5.9310851 -4.3512349 171.54503 7828071
5.1228824 -4.1457372 171.23833 8617331
59.673492 -3.0304384 181.85768 9406078
58.800377 -3.2672727 182.15147 10063752
7.378881 -3.6092529 172.54353 9341054
6.674911 -3.4611497 172.26387 9472126
5.9022708 -3.3831952 171.92278 8814709
4.937036 -3.3319862 171.47795 7367263
4.0178561 -3.3654373 171.02098 8288366
59.843773 -2.2770102 182.08211 9208955
59.038387 -2.4041648 182.38945 9406078
5.7028956 -2.5369806 172.16895 8419951
4.7778716 -2.5726297 171.70837 6709333
3.8169398 -2.5236742 171.26466 7762022
2.9853625 -2.5179372 170.86591 7762022
2.3652873 -2.304328 170.65332 7564643
60.709549 -1.3790308 182.05493 8813683
59.860996 -1.3800263 182.4317 8419183
4.5907474 -1.7547591 171.94897 7169885
3.7833819 -1.5537809 171.6409 9341054
2.9923129 -1.4661701 171.29477 9341054
2.0079131 -1.4099818 170.84268 8682611
0.994573 -1.1792248 170.4473 8748404
61.739006 -0.19433098 182.21649 10986132
60.839863 -0.43195245 182.44724 8419696
59.941753 -0.66980672 182.67871 7563619
2.7898803 -0.62111545 171.539 10064264
1.7539839 -0.40871513 171.2061 8879478
0.92777193 -0.40815067 170.80806 8484720
0.10548535 -0.40763417 170.41187 8090477
-0.91786253 -0.19749387 170.08493 8222576
62.575348 0.7583968 182.51625 10986132
61.799683 0.47215819 182.68634 12367272
60.998241 0.28111625 182.92325 10854036
0.72360742 0.22488475 171.23462 9734529
-0.20301875 0.3295573 170.87375 8617076
-1.1259238 0.43383187 170.51459 8617333
-1.9421431 0.43245143 170.12045 8090991
-2.8574624 0.53583002 169.76494 9078395
-3.7693219 0.63886023 169.41116 9144187
69.553268 1.7466708 183.90828 9735555
68.706932 1.7473342 184.34718 9011832
64.438721 1.2419146 182.91557 8815227
63.800354 1.2421063 183.21118 7038819
-4.1990075 1.0627731 170.28061 8089963
-5.007195 1.0600126 169.8837 9143163
-6.0129056 1.0566145 169.38979 9208443
-6.8135018 1.0539416 168.99678 10262156
-7.4118524 1.0519755 168.70316 9735299
-89.540466 1.5065489 153.64479 9143675
-90.369865 1.7276442 153.36591 8485745
-91.356506 1.7283874 152.92906 8813685
-92.257095 1.6849396 152.51263 9866373
-93.157715 1.8404776 152.17593 10130058
-93.972107 1.9519583 151.85974 9734788
70.314613 2.7220757 183.91327 8682867
69.647789 2.478622 184.15912 9735555
69.012344 2.4793949 184.48882 9406590
-90.889366 2.3908908 153.40157 9735812
-91.524475 2.6132963 153.2093 9275005
-92.316422 2.6145072 152.85892 10327436
-93.307808 2.6160731 152.42026 9998216
-94.300682 2.6177213 151.98102 9998215
-95.140083 2.8413947 151.69873 9274748
70.562279 3.5378845 184.1192 9867141
69.834427 3.3757524 184.42993 10590864
-92.443954 3.2807255 153.06931 10064264
-93.281036 3.5051246 152.78844 10129802
-94.275688 3.5075471 152.34871 9997960
-95.271881 3.5100355 151.90826 9077370
-96.018463 3.5864077 151.60812 10327689
-96.714348 3.7372189 151.3602 9209467
71.419556 4.6827192 184.14388 9208443
70.616844 4.3893642 184.43973 9472641
-93.609261 4.174964 152.91138 10459022
-94.428192 4.2891669 152.59439 8222317
-95.337181 4.4487758 152.25557 8551282
-96.248146 4.4071469 151.83527 9932422
-97.049164 4.4099541 151.48154 10524555
-97.896835 4.6374483 151.19713 9932419
71.533371 5.5458112 184.43846 9932422
70.847244 5.1773186 184.64314 9670023
-95.380898 5.0765853 152.48782 10261132
-96.315392 5.350132 152.18343 12365736
-97.229431 5.3091326 151.76205 11445144
-98.14489 5.268292 151.34 9932419
-99.063065 5.4303803 150.99817 9208696
72.346954 6.6600046 184.55855 11182486
71.635712 6.288343 184.70332 9932422
-96.761978 5.9828115 152.23907 9866116
-97.410408 6.2119598 152.04364 10457996
-98.26178 6.4429188 151.75903 11576729
-99.142311 6.3833313 151.34496 10129797
-100.14217 6.5107112 150.95302 7695971
-101.08835 6.7625265 150.6347 9077110
-101.79697 6.9188313 150.38342 8089962
73.467606 7.6651564 184.79601 11050648
72.727089 7.2888722 184.87405 12366759
-98.647308 7.3520985 151.95255 11182228
-99.3526 7.5085716 151.70274 10458505
-100.11117 7.5898218 151.39922 9932418
-101.1265 7.5972996 150.95239 9274233
-102.14389 7.6050353 150.50473 8221805
-102.90759 7.6872249 150.1993 9142650
74.548859 8.1786242 184.91876 7564651
73.635048 8.1756897 185.2179 11050648
-100.45513 8.2767029 151.52206 8485229
-101.11271 8.5108461 151.3246 11049874
-102.13184 8.5195723 150.87656 9932421
-103.15323 8.5286074 150.42766 11182233
-103.97218 8.536129 150.06802 11577500
-104.63691 8.7720442 149.86853 9209467
-102.17219 9.3614292 151.19659 8617334
-103.14355 9.4476442 150.80138 9340539
-104.16928 9.4580498 150.35165 10788241
-104.99169 9.4666471 149.99121 11577500
-105.76381 9.5519304 149.68379 9866629
-106.48549 9.7139292 149.42966 9931910
-103.29025 10.14072 151.01549 9340795
-104.23404 10.336218 150.67645 10853777
-105.19146 10.39349 150.27577 10721679
-106.01728 10.403284 149.91422 9668738
-106.84477 10.413353 149.55208 10129289
-107.72546 10.656581 149.26028 8090991
-105.26389 11.20647 150.57095 9734787
-106.21976 11.335078 150.19971 10129289
-107.049 11.346069 149.8371 10392461
-107.88003 11.357361 149.47389 9603456
-108.84336 11.487591 149.10001 11840160
-106.57954 12.039401 150.32396 9010808
-107.25415 12.282987 150.12347 9143418
-108.08695 12.295279 149.75983 10064519
-108.92162 12.307867 149.39551 13221555
-109.8732 12.275614 148.9614 9866628
-110.64969 12.569854 148.73616 7564392
-108.34715 13.159801 149.99265 10393227
-109.1313 13.250983 149.6823 10985364
-109.96964 13.264972 149.31691 8353648
-110.92541 13.234075 148.88148 7630441
-111.88999 13.416301 148.52795 9800834
-109.49886 13.964679 149.80687 11181972
-110.24129 14.1364 149.55927 8616563
-111.03599 14.230393 149.25404 8616819
-111.8823 14.246451 148.88971 9471615
-112.84367 14.217188 148.45071 9142652
-113.86918 14.525367 148.16437 8484980
-112.39832 14.985352 149.20157 9010808
-113.03857 14.998618 148.92957 9010808
-114.01379 15.265664 148.72215 8550772
-114.87271 15.284517 148.35802 10195591
-115.83903 15.256704 147.9073 10655885
-116.72064 15.573459 147.78304 8880245
-117.80524 15.59913 147.3248 8682867
-131.70618 16.708839 145.43729 9537144
-132.60306 16.733469 145.01849 9537918
-133.50143 16.758446 144.59708 7762796
-134.40599 16.784319 144.17815 9010807
-135.10217 16.805908 143.88007 7563619
-132.86386 17.412218 145.18625 9407106
-133.71169 17.5208 144.82431 9209727
-134.61349 17.547302 144.40022 9932422
-135.51823 17.574301 143.97493 8747893
-136.27045 17.850546 143.73074 11380380
-134.63565 18.434566 144.77211 7762283
-135.57735 18.591078 144.38487 8221807
-136.48672 18.620127 143.95819 8616307
-137.27103 18.730602 143.62709 10064265
-137.92947 18.922432 143.39185 10854036
-135.56525 19.354704 144.71996 8419443
-136.54802 19.643101 144.36977 8353135
-137.38901 19.415646 143.86554 9735558
51.637474 -13.255738 181.36209 9800582
50.798378 -13.265081 181.73148 8419702
49.685112 -13.668381 181.10489 9866368
48.812843 -13.668755 181.3418 10261127
48.157997 -13.669037 181.5168 10458763
35.077919 -13.675547 178.1955 8090987
34.005219 -13.676019 178.40337 8090475
33.361008 -13.676302 178.52493 7563619
24.758333 -13.458105 176.94379 8092011
23.994915 -13.280901 176.64728 8880759
23.142282 -13.386504 176.19363 8354674
22.226515 -13.346334 175.76834 9209467
21.543125 -13.316495 175.45093 9209467
51.836555 -12.523559 181.56482 8748410
50.928444 -12.654997 181.91635 8090994
23.178261 -12.744452 176.47009 8354674
22.272455 -12.492316 176.13515 8880760
21.360113 -12.455162 175.7103 9208955
20.50256 -12.335411 175.3452 9997959
52.576038 -11.571103 181.61497 9077372
51.85363 -11.516722 181.95786 8616824
22.089239 -11.627118 176.396 9209467
21.415121 -11.387059 176.16789 9537664
20.505713 -11.353539 175.74301 9406078
19.591644 -11.533079 175.22987 8814710
18.595909 -11.177735 174.89323 9998983
53.557774 -10.185931 181.72957 9866373
52.838409 -10.563768 181.89911 9997959
52.123436 -10.504498 182.24051 10853012
20.320971 -10.49049 176.00223 9932421
19.324183 -10.499516 175.51805 10130055
18.292761 -10.422206 175.05199 9472639
17.476912 -10.324381 174.69814 8617333
16.741823 -10.158958 174.41051 10065291
54.370785 -9.1053123 181.79793 10853012
53.715172 -9.3405647 181.9959 9932166
52.934723 -9.4232798 182.30998 9603201
19.151676 -9.6664629 175.77136 12037536
18.330164 -9.5697651 175.41423 9735554
17.435244 -9.5425615 174.99368 8354163
16.545513 -9.5157042 174.57545 9078399
15.889356 -9.2839632 174.35268 10065291
54.591942 -8.3340473 182.00647 10326924
53.810726 -8.4162283 182.32114 9735043
18.1336 -8.9221611 175.58139 9209467
17.431454 -8.5600319 175.38924 7959409
16.587618 -8.4517679 175.02606 8354421
15.536853 -8.3708248 174.55196 8683642
14.810737 -8.6172972 174.1021 9012606
55.40889 -7.2484927 182.07504 9209211
54.751335 -7.4840732 182.27379 9406334
54.117882 -7.4877806 182.55396 9274748
16.107635 -7.4425516 175.20279 10525841
15.297561 -7.3525238 174.84853 9341571
14.408214 -7.5448532 174.34177 8749434
13.577922 -7.4407659 173.9834 9012606
12.672357 -7.0813446 173.69202 8748148
55.694168 -6.5501904 182.22606 10196106
54.848976 -6.5544353 182.60022 9209211
15.099437 -6.7070451 175.01405 9012606
14.444707 -6.4798031 174.79024 9012606
13.565637 -6.4622908 174.37337 8551284
12.691472 -6.4449763 173.95869 8616307
11.716706 -6.3200331 173.53908 9932422
56.427887 -5.6153941 182.27177 11380380
55.793533 -5.6181269 182.55273 10788500
55.134125 -5.8543329 182.75198 9209211
13.517579 -5.6788912 174.66711 8353649
12.498996 -5.5901237 174.2117 9405823
11.411849 -5.5717292 173.69478 11050648
10.621076 -5.4879422 173.34727 10524047
57.451984 -3.974992 182.46896 10261132
56.682125 -4.3789124 182.65065 9866885
55.95562 -4.7607751 182.82182 9867141
12.230611 -4.8034573 174.40053 9997960
11.440431 -4.5074086 174.13918 9340030
10.573867 -4.4957314 173.72592 9537152
9.7119017 -4.484252 173.31482 8813429
8.7542353 -4.154182 172.98643 8353647
57.741226 -3.2698877 182.62123 9208955
56.892792 -3.2720585 182.99747 8945783
10.526338 -3.5000877 174.10582 9010808
9.6079168 -3.3769255 173.71265 9405822
8.5758429 -3.4518132 173.18456 9341054
7.6673388 -3.3296864 172.79573 8880503
6.9616237 -3.1819508 172.51512 9341054
58.481628 -2.3265874 182.66777 9735043
57.712257 -2.3752635 182.99043 9077369
9.250844 -2.6337147 173.84106 9405566
8.4649973 -2.5566747 173.49323 10656401
7.610208 -2.5504756 173.08344 9341054
6.7598166 -2.5443485 172.67575 9472126
6.1277175 -2.3280451 172.45836 8090987
58.67691 -1.3341962 182.97624 9406077
57.922752 -1.6192284 183.19792 9471871
8.2629728 -1.9148977 173.65538 10853012
7.5847125 -1.5695974 173.46796 10393485
6.686296 -1.4196173 173.09531 11379606
5.6633677 -1.5296359 172.55739 9537918
4.7366672 -1.1903189 172.2477 9867141
4.038692 -1.0469795 171.96902 9341054
59.587471 -0.31411865 183.08582 9406335
58.688942 -0.55210626 183.31812 9668993
6.3641658 -0.62593114 173.261 11708315
5.4492087 -0.48253253 172.93108 10458762
4.677093 -0.41077402 172.61456 9604226
3.8368316 -0.41016704 172.20967 10525072
2.795114 -0.19780299 171.87401 10064264
60.539566 0.56741327 183.31036 9932678
59.606056 0.4399291 183.64433 8616563
3.5351138 0.33492851 172.67802 9604226
2.5942187 0.44026861 172.31105 9735300
1.7606367 0.43882909 171.9086 11379095
1.000297 0.50822735 171.59904 10787215
0.10539189 0.64770371 171.28224 9537663
68.071495 1.7478315 184.67662 8682867
67.435516 1.7483286 185.00655 10262156
63.161621 1.2422975 183.50703 9537667
62.52235 1.2424889 183.8033 10195339
61.88266 1.2426798 184.09969 10853012
-1.1348406 1.0733423 171.78629 9341054
-2.1618199 1.0697497 171.28154 8946553
-3.1833196 1.0662099 170.77953 9736836
-3.793469 1.0640875 170.4798 8617075
-35.618179 1.4565755 165.18832 6447186
-36.675812 1.595186 164.94778 5919050
-37.608887 1.6646131 164.77142 5919050
-38.597343 1.4552393 164.53323 7432543
-39.600346 1.4552501 164.35507 7695970
-40.604057 1.4553602 164.17679 9472895
-41.608654 1.4554369 163.99835 13552573
-42.614025 1.4556297 163.81981 10262411
-43.41909 1.455837 163.67685 10262411
-44.426331 1.4560957 163.49803 11577246
-45.434597 1.4564037 163.31902 8419702
-46.040123 1.4566082 163.21156 9340545
-85.220856 1.5048048 155.55801 10064518
-85.900162 1.6517575 155.31586 9472638
-86.632515 1.725404 155.02092 9209467
-87.614349 1.7258997 154.58611 9275004
-88.597275 1.7264781 154.15082 9010808
-89.332581 1.8004397 153.85468 8090475
68.376259 2.4802165 184.8188 9209211
67.739655 2.4810886 185.14905 9209211
-86.751526 2.3866014 155.2332 9998983
-87.578171 2.608356 154.95578 9341053
-88.562782 2.6094337 154.51994 9735555
-89.548645 2.610652 154.08365 8880503
-90.338333 2.61164 153.73418 8880503
-90.972847 2.8340702 153.5421 9143675
69.289665 3.5403116 184.77971 10130313
68.500504 3.4601178 185.15585 9998727
-88.705231 3.384908 154.76765 12169896
-89.602966 3.5419023 154.43275 10196363
-90.504555 3.4991994 154.0162 8880503
-91.494858 3.5012157 153.57823 8880247
-92.529205 3.7259543 153.21007 9735299
70.145523 4.6859126 184.80551 8092019
69.476074 4.4414587 185.05223 8749176
68.838036 4.4431806 185.38361 8090991
-89.931023 4.3139582 154.59691 9209211
-90.671448 4.3901834 154.29932 9998728
-91.465134 4.3922949 153.94853 8945783
-92.458542 4.3950591 153.50949 9735299
-93.401489 4.4723215 153.12265 9603713
-94.094589 4.6236339 152.87616 7564643
70.393974 5.5081558 185.01357 9538437
69.602753 5.4283366 185.39087 9143936
-90.995598 5.0611744 154.42462 10787732
-91.686409 5.2127542 154.17929 10458766
-92.546318 5.4507995 153.89369 10458767
-93.455765 5.4433928 153.48779 9472386
-94.425194 5.29742 152.99977 8156780
-95.26915 5.5254169 152.71727 8879991
71.265579 6.6623678 185.06891 9143936
70.370407 6.4166451 185.4003 10064267
-93.600266 6.1933484 153.72437 9341057
-94.505264 6.4795408 153.43806 9669764
-95.446274 6.4278054 153.00038 9406079
-96.249222 6.4319363 152.64629 8287342
-97.221878 6.7763128 152.35335 9866116
72.172287 7.6688862 185.42615 11905956
71.36367 7.3685012 185.59135 9143935
70.533798 7.1686268 185.83151 8092019
-94.820694 7.3286448 153.63861 8419958
-95.668655 7.5603642 153.35576 10129289
-96.473602 7.5653195 153.0011 8682099
-97.39167 7.5257034 152.57846 9866116
-98.312164 7.6909404 152.23683 10984594
-99.144386 7.810462 151.91595 9340539
72.51387 8.1746244 185.64334 11905956
71.646393 8.1772747 186.05988 11183260
-96.004036 8.2440243 153.48111 10853012
-96.706192 8.4007664 153.23283 8813685
-97.461792 8.482152 152.93073 10786960
-98.382996 8.4433336 152.507 10392970
-99.374329 8.5423613 152.10748 9208953
-100.24696 8.5799265 151.73589 8485488
-97.801178 9.1699343 153.05598 9340539
-98.4552 9.4044571 152.86015 9800833
-99.37973 9.3664999 152.43535 9340539
-100.37489 9.4671469 152.03481 8682867
-101.30315 9.4297705 151.6088 10655373
-101.96391 9.665987 151.41135 8617334
-99.506714 10.256136 152.73636 10853776
-100.38257 10.295325 152.3645 9670274
-101.38201 10.397689 151.96338 10130316
-102.31384 10.361341 151.53636 7039072
-103.082 10.446677 151.23074 7762021
-103.79948 10.608779 150.97845 9340795
-100.61659 11.036363 152.55913 10459534
-101.45901 11.161304 152.23666 10459535
-102.39497 11.334168 151.892 9143417
-103.33036 11.298835 151.46382 7564642
-104.15388 11.30883 151.10339 8156778
-105.02905 11.552235 150.81401 9011320
-102.44933 11.984989 152.1299 9801347
-103.41368 12.276708 151.8205 10261640
-104.32837 12.542402 151.52267 9537920
-105.23003 12.488147 151.10181 8354159
-106.00819 12.265136 150.66765 10129289
-106.68167 12.508472 150.46758 9010808
-104.60263 13.415256 151.75261 9932166
-105.48235 13.663333 151.46309 9471871
-106.26257 13.440591 151.02823 9208955
-107.16957 13.387576 150.60545 10459020
-107.9811 13.703056 150.37332 10524813
-108.86998 13.953756 150.08083 11050900
-106.46864 14.385483 151.32031 9076857
-107.45113 14.564956 151.03658 10656657
-108.25915 14.660702 150.75961 10524813
-109.2057 14.62932 150.31454 10392457
-110.05542 14.775653 150.06168 9076600
-110.69717 14.951036 149.92523 8681843
-109.65523 15.421132 150.78017 9931907
-110.2915 15.433801 150.5094 11181972
-111.2378 15.207382 149.90102 8353390
-111.98633 15.304636 149.65155 8353135
-113.06178 15.491361 149.33243 9931910
-116.32976 16.136713 149.494 8617075
-117.24554 16.163494 149.18356 9735812
-118.16556 16.190977 148.87337 9735812
-119.08981 16.219057 148.56345 9340798
-119.78563 16.240503 148.33119 9010808
-128.15411 16.616106 147.11121 8156008
-129.0372 16.638441 146.69312 8353130
-129.92278 16.661278 146.27399 8813681
-130.81201 16.684658 145.85503 9011057
-128.7227 17.129984 147.04745 7037266
-129.79915 17.359591 146.63104 9668993
-130.79417 17.43726 146.18813 8616300
-131.79288 17.515806 145.7438 9011316
-132.65691 17.742346 145.4278 9933193
-130.106 18.172714 146.83482 8813680
-130.89688 18.363939 146.5386 9011060
-131.74187 18.47312 146.18112 8551023
-132.64139 18.500248 145.76213 9472643
-133.54224 18.52775 145.34035 8091761
-134.28952 18.804544 145.09872 7039331
-131.95015 19.239103 146.41171 8288622
-132.92139 19.523981 146.06918 9406335
-133.82401 19.552982 145.64633 8551799
-134.72903 19.582432 145.22197 8485751
-135.70883 19.870253 144.87292 10064779
-133.81013 20.317646 145.98279 8617334
-134.78746 20.606756 145.63538 8485751
-135.69708 20.638283 145.20976 8814715
-135.00212 21.384012 145.86694 7564651
49.735184 -13.273889 182.14749 9537152
48.582787 -13.259146 182.23405 8681843
47.572441 -13.455701 181.95767 9340285
46.666031 -13.447559 182.06688 10459023
45.723633 -13.661802 182.02747 8287342
32.931309 -13.676493 178.60457 7563619
32.07122 -13.676871 178.76051 8156270
30.995203 -13.677348 178.95026 8090993
30.349083 -13.677634 179.06102 9735558
28.519367 -13.628331 178.68826 8288366
27.737759 -13.447502 178.38451 8090987
26.876478 -13.336282 178.01411 8880759
25.937187 -13.294526 177.57814 9670785
25.085629 -13.185053 177.21178 8092011
24.320021 -13.008114 176.91414 8815222
50.38269 -12.508546 182.2173 8287600
49.588802 -12.589648 182.47623 9339773
48.655807 -12.576002 182.50931 8681843
47.69022 -12.787539 182.40939 8090734
26.849512 -12.538022 178.32326 8420720
25.991568 -12.429727 177.95338 8092011
25.056023 -12.391143 177.51791 8092011
24.126265 -12.353131 177.08507 8814453
23.214333 -12.100949 176.7471 8617845
51.360085 -11.124008 182.33351 8419702
50.641117 -11.502284 182.50276 8156272
49.747551 -11.750268 182.77229 9866374
25.79744 -11.770069 178.12602 8092011
25.108402 -11.52597 177.8924 8288878
24.176584 -11.49056 177.45743 8550513
23.250477 -11.455596 177.02505 8879991
22.41032 -11.352435 176.66168 8880504
51.645172 -10.23258 182.56146 9668738
50.732605 -10.363425 182.91516 9471359
24.14525 -10.694517 177.76401 9011320
23.298897 -10.592524 177.39702 9471871
22.24091 -10.512858 176.91899 8879478
21.231083 -10.521487 176.42856 9208955
52.387745 -9.273695 182.61275 9142394
51.605667 -9.3567772 182.92746 9734531
22.803467 -9.7814102 177.48622 9932678
21.974117 -9.4662313 177.21371 8880246
21.057356 -9.4381123 176.78288 10064008
20.187382 -9.4976873 176.33917 10064261
19.465992 -9.3900824 176.03471 12432037
53.201256 -8.188941 182.68262 9405566
52.665718 -8.4703522 182.80875 9208187
51.909245 -8.42943 183.16142 9405566
21.031887 -8.4283066 177.17914 11972518
20.146372 -8.4616356 176.73857 9998469
19.279758 -8.5243692 176.29523 10261641
18.42588 -8.4153404 175.92749 9603968
17.721649 -8.0535326 175.73412 8090995
53.48381 -7.49159 182.8344 9669250
52.637398 -7.4968352 183.20872 9537664
20.001303 -7.6795115 176.985 9932678
19.329506 -7.4466529 176.75516 10393227
18.291142 -7.3790569 176.28171 9669508
17.209282 -7.4397707 175.73534 8748923
16.415276 -7.1639748 175.46393 13550517
54.214394 -6.557694 182.8811 9209211
53.579231 -6.5611281 183.16222 9866885
52.919853 -6.7976832 183.36131 9735299
18.678873 -6.7829614 176.70985 9867145
18.010834 -6.5524273 176.48091 8946302
17.111645 -6.5338998 176.05472 8090995
16.217632 -6.515645 175.63086 13156018
15.405108 -6.4277358 175.27449 11840675
55.183334 -5.3873887 182.91586 9209211
54.523197 -5.6236949 183.11539 8946039
53.737747 -5.7052279 183.43224 9209211
17.812845 -5.8995719 176.64948 8090995
17.068953 -5.7416887 176.35458 8090995
16.259115 -5.4392662 176.08636 9867141
15.367713 -5.4242196 175.66249 9801347
14.522708 -5.495945 175.22591 9078140
13.819743 -5.3986511 174.92621 8089963
55.4617 -4.3564024 183.2023 9275260
54.677891 -4.5467911 183.47505 9209211
53.959457 -4.9246635 183.64421 10261387
15.184371 -4.343226 176.01138 9209467
14.21836 -4.4738584 175.49261 9209211
13.28003 -4.5938926 174.99144 8221805
12.392751 -4.2350082 174.70872 9734788
56.255936 -3.2737427 183.27998 11380121
55.618443 -3.2754524 183.56267 14603206
54.955841 -3.512785 183.76292 11380121
14.028161 -3.5368433 175.77995 9209211
13.221148 -3.4563146 175.42329 8682611
12.342816 -3.4472272 175.00331 9668995
11.469201 -3.4382625 174.58554 9076601
10.82241 -3.2177167 174.36285 8681843
57.233223 -2.0930836 183.3157 8682867
56.447044 -2.2833536 183.5894 12234917
55.693329 -2.5683355 183.81091 15721430
13.241261 -2.8088701 175.6949 8682867
12.367785 -2.5857186 175.36391 9471870
11.492352 -2.5791049 174.94432 9602945
10.492585 -2.5287542 174.48245 9273980
9.7554674 -2.5662951 174.11172 9668738
57.460979 -1.3042167 183.52863 9735042
56.538509 -1.4317925 183.88791 9406589
12.166764 -1.9362406 175.52969 9735296
11.153329 -1.6427929 175.15958 9471871
10.213586 -1.4946638 174.76624 9997960
9.3475199 -1.4911369 174.34995 9602945
8.5306234 -1.4021696 173.99194 9931910
7.8505092 -1.0571702 173.80344 10129289
58.332008 -0.19621953 183.72484 10063750
57.509285 -0.48178053 183.89117 10524301
10.0165 -0.63120562 175.02051 10129289
9.3000021 -0.48633569 174.78625 9602945
8.5111094 -0.41370273 174.4617 9537152
7.5244098 -0.37005359 174.01961 9670018
6.5852084 -0.34105256 173.58929 10984849
5.7387252 -0.19801778 173.29237 10984849
59.381058 0.75839829 183.95621 8616563
58.558655 0.47161874 184.13251 10063750
7.8898101 0.23316315 174.69032 9209467
7.2453227 0.23237336 174.37961 9999239
6.3960223 0.44707331 174.14543 10591375
5.543819 0.44554895 173.73427 10721936
4.5700011 0.48664001 173.29915 9341053
3.6452537 0.65607035 172.99196 9209467
66.374146 1.7492898 185.55698 9933193
61.242435 1.2429205 184.39642 9077368
60.601761 1.2431611 184.69339 9537662
2.403398 1.0860624 173.52652 10591124
1.3551058 1.0822581 173.01071 8879994
0.52116716 1.0792176 172.60057 8090475
-0.30878124 1.0762788 172.1924 8683124
-23.37834 1.4734429 168.62114 9736836
-24.034536 1.6120071 168.38591 8749944
-24.962938 1.6805102 168.13574 9802117
-25.956459 1.6788721 167.86816 9801349
-26.948544 1.6773013 167.60103 9143419
-27.939493 1.6757811 167.33418 9603714
-28.929195 1.6743115 167.06773 10063753
-29.917887 1.6729424 166.8015 9143166
-30.905521 1.6716239 166.53568 10327694
-31.892244 1.6703809 166.27007 9209727
-32.680981 1.6693869 166.0578 9078651
-33.666145 1.6682445 165.79265 7104860
-34.650604 1.6671276 165.52769 5394754
-35.650581 1.8756799 165.33763 6447186
-36.437553 1.8748201 165.12582 5920074
-38.630539 1.8742921 164.67381 6775126
-39.636375 1.8745525 164.50366 7103834
-40.641026 1.8748125 164.32524 9077624
-41.646507 1.8750719 164.14673 13552573
-42.65284 1.875481 163.96805 11052183
-43.458611 1.8757881 163.82506 10262411
-44.466816 1.8762959 163.64615 10064266
-45.476028 1.8768537 163.4671 7564651
-46.550323 1.7092516 163.21428 9077625
-47.476463 1.6676928 163.03438 7827814
-48.489044 1.6683402 162.85474 10261644
-49.502934 1.6690543 162.6749 10062977
-50.315147 1.6696332 162.53084 8088931
-51.331821 1.6704539 162.35054 8220774
-52.350048 1.6713154 162.16995 10523786
-53.370056 1.6722596 161.98909 10985364
-54.391743 1.6732193 161.80794 12235172
-55.415405 1.6742785 161.6265 10130311
-56.440868 1.67542 161.44473 8946295
-57.262726 1.6763442 161.29907 8945786
-58.292007 1.6775755 161.1167 10853012
-59.323318 1.678889 160.93394 9997961
-60.268616 1.6375558 160.75075 10129286
-61.274094 1.7240894 160.60411 8682870
-62.223343 1.6828746 160.42023 7630697
-63.263763 1.6844002 160.23596 8419952
-64.30658 1.6860083 160.0513 9077882
-65.142799 1.6873503 159.90324 9538432
-66.190636 1.6890892 159.71773 9999239
-67.241051 1.690877 159.5318 14868689
-68.083549 1.6923661 159.38268 11905695
-69.139435 1.6942842 159.19583 9472127
-70.198204 1.6962594 159.00845 9801348
-71.047485 1.6978952 158.85815 11644064
-72.112213 1.7000344 158.66982 11183770
-73.179993 1.7021801 158.48093 12235434
-74.036728 1.7039872 158.32944 9668738
-75.017731 1.6626617 158.13986 9537152
-76.066116 1.7518147 157.98651 9143418
-77.053223 1.7106411 157.79597 11775139
-77.920349 1.712618 157.64267 10459534
-79.007835 1.7151543 157.45042 11578528
-80.09903 1.7178305 157.25754 12236458
-80.974983 1.7199532 157.10274 10196619
-81.853569 1.7221748 156.94743 9670786
-82.909203 1.7240225 156.66527 11117721
-83.889153 1.7243365 156.23592 12367016
-84.67218 1.7245775 155.88914 9209467
-85.494926 1.9448844 155.61285 10064518
67.10244 2.4819601 185.47972 10064778
66.312759 2.4015 185.85597 8486262
-25.992163 2.3113103 168.09703 9340540
-26.985596 2.3093302 167.82933 8419440
-27.990692 2.5184968 167.63817 9537664
-28.982187 2.5165596 167.37102 10655633
-29.972635 2.5147562 167.10422 9537922
-30.962019 2.5129869 166.83769 11117208
-31.95048 2.511318 166.57144 9209727
-32.740646 2.5100732 166.35869 8551795
-33.727577 2.5086219 166.09296 6184014
-34.713814 2.5071871 165.82744 5394754
-35.698303 2.5058196 165.55717 7302495
-36.672794 2.5039012 165.24519 6182990
-37.665516 2.5033352 165.01746 5919050
-38.673954 2.5039208 164.85732 6775126
-39.683365 2.5045722 164.69705 6775126
-40.693321 2.5052903 164.53543 8353901
-41.702572 2.5060244 164.36629 12236457
-42.71122 2.506758 164.19107 10262411
-43.518082 2.507339 164.04794 8946039
-44.527695 2.5081968 163.86891 8484976
-45.538296 2.5090787 163.6897 7301220
-46.550171 2.5101104 163.51033 7564643
-47.563236 2.5111911 163.33073 8748916
-48.577713 2.5124214 163.15097 9340540
-49.593506 2.5136757 162.97101 9931392
-50.4072 2.5148036 162.82684 8088931
-51.42588 2.5162652 162.64644 7563614
-52.446014 2.5178342 162.46576 7367006
-53.467987 2.5194526 162.28484 9735040
-54.491611 2.5212364 162.10364 12169122
-55.311928 2.5226865 161.95844 11708828
-56.339115 2.5246022 161.77664 8748660
-57.368141 2.5266087 161.59462 8681843
-58.399422 2.5287304 161.41219 10261133
-59.432724 2.5309267 161.22945 9142908
-60.261051 2.5327725 161.08295 9734528
-61.298626 2.5351663 160.89955 9339771
-62.33844 2.5376594 160.71565 8156780
-63.172157 2.5397027 160.56836 8880503
-64.216705 2.5423598 160.38377 9801605
-65.263718 2.5451326 160.19878 8419952
-66.223297 2.5046926 160.01338 9209467
-67.245987 2.5936377 159.86459 11248792
-68.210403 2.5533707 159.67841 12168866
-69.177155 2.513072 159.49174 9932166
-70.208405 2.602613 159.34161 10262412
-71.180412 2.5624721 159.15411 9736836
-72.033546 2.5652061 159.00359 10328717
-73.103065 2.5687258 158.81485 12038310
-74.175751 2.572336 158.62564 9537920
-75.036514 2.5753162 158.4738 10195338
-76.115814 2.5791399 158.28351 9275004
-77.114075 2.5099332 158.08057 12433069
-78.030701 2.3674459 157.86505 12301485
-78.901649 2.3704212 157.71147 13552573
-79.994064 2.3742216 157.51883 10986135
-81.090218 2.3781538 157.3255 9736067
-81.9702 2.3813248 157.17038 10130825
-83.024452 2.3840303 156.88225 11051926
-83.932755 2.6492572 156.58733 10985364
-84.827232 2.6058426 156.17357 10064519
-85.808792 2.6066048 155.73906 9669761
-86.831078 2.8285327 155.37505 10525327
67.893661 3.706965 185.57146 10262156
67.345963 3.4133916 185.73506 10130570
66.555267 3.2184064 186.06497 9933193
-30.013866 3.1480417 167.33191 9537408
-31.004559 3.1459973 167.06496 9407106
-32.070152 3.2848709 166.83095 7960175
-32.800575 3.3539348 166.66078 6512978
-33.852432 3.4426885 166.41153 6315599
-34.79171 3.5617406 166.1967 5657670
-35.768913 3.5590289 165.8822 7170653
-36.741711 3.5561175 165.55304 8420976
-37.736153 3.5555646 165.32448 7235933
-38.746521 3.5565686 165.16422 10129539
-39.757828 3.5577056 165.0038 7695970
-40.770081 3.5590029 164.84323 7959400
-41.580639 3.5601101 164.71474 9604226
-42.594875 3.5616395 164.55394 8156523
-43.610107 3.5632575 164.39262 6510930
-44.625374 3.5649421 164.22624 7563874
-45.592369 3.4818237 164.03508 6774103
-46.635391 3.3562593 163.80791 8551281
-47.650333 3.3578889 163.6282 8748916
-48.463291 3.3593175 163.4843 8419182
-49.480801 3.3611717 163.30421 8878963
-50.499702 3.3631742 163.12398 9865342
-51.520256 3.365293 162.94345 8945267
-52.542358 3.367578 162.7627 7367006
-53.566265 3.3699453 162.5817 7958630
-54.591866 3.3724535 162.40042 10721935
-55.413761 3.3745024 162.25517 8946295
-56.442917 3.3772588 162.07338 8353647
-57.473927 3.3801477 161.89125 9405308
-58.419025 3.34006 161.70856 10260873
-59.335251 3.3855653 161.56262 9734528
-60.344566 3.1744125 161.30528 9208185
-61.383701 3.1775396 161.12183 9340283
-62.425064 3.1807477 160.938 8090987
-63.260002 3.1834409 160.79073 8880503
-64.306107 3.186914 160.60614 9341054
-65.354691 3.1905193 160.42117 8419952
-66.195595 3.1935089 160.27289 9341054
-67.249329 3.1972785 160.08711 9537665
-68.094177 3.2004333 159.93819 11905695
-84.158272 3.2679515 156.73538 10064519
-84.982864 3.4904077 156.45914 12761517
-85.769524 3.4914217 156.11102 9209467
-86.753731 3.4927909 155.67549 10196106
-87.739029 3.4943185 155.23955 9472639
-88.37133 3.7172747 155.04871 10262155
68.199387 4.4449015 185.71536 9077883
67.407822 4.3649073 186.0928 9933192
-35.927071 4.5096126 166.12787 6709846
-36.810837 4.6123176 165.86195 7762790
-37.807079 4.6117001 165.63268 8222828
-38.819359 4.6131334 165.47224 9340795
-39.832584 4.614799 165.31166 7498591
-40.84676 4.6165996 165.15096 8354158
-41.585892 4.5473123 165.01253 7301470
-42.658985 4.4080863 164.7998 6314319
-43.675922 4.410243 164.63881 6510930
-44.694145 4.4125657 164.47762 8484976
-45.883125 3.9910052 164.16112 8089963
-46.698807 3.9928417 164.02937 9538176
-47.715881 3.994962 163.85205 6511954
-48.529968 3.9966657 163.70808 6510930
-49.548931 3.9990518 163.52791 9142134
-50.365028 4.0010214 163.38362 11378324
-85.296844 4.1563029 156.5869 12761517
-85.979813 4.3057213 156.34421 10722450
-86.826385 4.3369341 155.9816 9735555
-87.7901 4.4279146 155.59108 9472383
-88.691238 4.3853674 155.17479 9209211
-89.430489 4.4613938 154.8777 9209211
68.963631 5.4304323 185.72298 7893615
68.323822 5.4326277 186.05548 8814713
67.652588 5.1873484 186.30286 9735812
-37.647182 5.2471023 165.85034 7367263
-87.033432 5.0504432 156.1758 9538176
-87.864838 5.2759705 155.89783 9209211
-88.822708 5.5664496 155.58987 9209211
-89.689354 5.5051131 155.18127 9209211
-90.643188 5.5642347 154.78235 9668991
-91.666885 5.8107305 154.42761 11182233
69.303131 6.4207697 185.95276 8617335
68.509583 6.3411508 186.33141 8748920
-89.259079 6.4008512 155.73088 9209211
-89.897018 6.6282792 155.53938 9603455
-90.693207 6.6314144 155.18791 9471869
-91.689751 6.6355777 154.74802 9734784
-92.687683 6.6400228 154.30768 10130057
-93.53064 6.8695455 154.02625 9341057
70.194847 7.5490041 186.28915 9538436
69.448708 7.1717391 186.34431 9735812
-90.914154 7.4595761 155.42195 11115666
-91.771629 7.4937954 155.05566 8879989
-92.748627 7.5892906 154.6611 9472641
-93.661194 7.5488868 154.24059 9341057
-94.411148 7.6285911 153.94025 8748921
-95.109978 7.7837682 153.69279 7564651
70.996742 8.1796131 186.37628 9933707
70.346764 8.1820517 186.69283 8684155
-91.988358 8.2197208 155.25056 8682867
-92.811104 8.3379478 154.93346 9011320
-93.724205 8.5025482 154.59489 9275006
-94.639725 8.4628487 154.17332 9011836
-95.444542 8.4681034 153.81885 8551281
-96.29554 8.7017479 153.53546 9932166
-93.888992 9.2554827 154.82358 9406334
-94.816772 9.3761292 154.46088 9011576
-95.623245 9.3820343 154.10591 9932166
-96.543076 9.3432407 153.68282 9143162
-97.464966 9.5107784 153.34154 9866884
-95.15184 10.065066 154.58849 9011576
-95.802704 10.299862 154.39421 10129545
-96.611954 10.306615 154.03841 9800836
-97.625359 10.315454 153.59308 9538175
-98.640625 10.324707 153.14728 10721677
-99.297821 10.561127 152.95149 13023917
-96.748581 10.99798 154.25552 10985620
-97.675156 11.376235 153.99776 9143417
-98.608002 11.420257 153.60258 9406589
-99.616348 11.554841 153.21051 9078137
-100.40543 11.497172 152.83809 10459534
-101.12146 11.504923 152.52428 12433069
-98.858047 12.407653 153.88934 8089963
-99.631523 12.602538 153.62553 8879478
-100.66257 12.583919 153.16168 8486256
-101.51945 12.439281 152.72424 9603457
-102.39012 12.683148 152.4371 11643552
-103.26324 12.928079 152.14928 11642524
-100.68588 13.361382 153.46431 8222060
-101.6482 13.654819 153.15656 9208443
-102.586 13.620894 152.72786 9998215
-103.41154 13.63259 152.36722 10129543
-104.18636 13.722073 152.06039 10195338
-104.91032 13.88937 151.80733 9932166
-101.70192 14.311968 153.3972 10788244
-102.52705 14.32387 153.03687 9208443
-103.66271 14.582994 152.7364 8616563
-104.49373 14.596164 152.37704 9866885
-105.42953 14.562744 151.93179 9735043
-106.27099 14.868839 151.814 8681843
-107.10985 14.883652 151.45537 10459022
-105.02469 15.33554 152.75636 9537921
-105.65282 15.346512 152.48773 8813941
-106.49185 15.361476 152.12915 9537664
-107.33278 15.376839 151.77013 10459022
-108.38675 15.396624 151.32056 10458764
-109.29758 15.680783 151.43517 9734784
-109.80618 15.959787 151.75351 9931907
-110.47234 15.976646 151.51881 10524043
-111.36328 15.999743 151.20653 7564643
-112.2579 16.023335 150.8947 9735556
-113.15611 16.047478 150.58313 9931910
-114.05812 16.072216 150.27151 10261132
-115.19118 16.104006 149.88248 8682868
-124.42812 16.526117 148.87694 8092019
-125.08261 16.541424 148.56654 8617331
-125.95721 16.562212 148.15196 14078918
-126.83413 16.583452 147.73639 11314071
-127.49337 16.599606 147.42407 10260100
-125.31681 17.209951 148.72302 8420467
-126.14137 17.313505 148.36794 9603193
-127.02132 17.33597 147.95383 9208952
-127.90382 17.358904 147.53876 8156523
-128.85724 17.634892 147.20081 7300954
-126.55568 18.074375 148.49237 9339769
-127.28482 18.345263 148.26001 8879475
-128.17099 18.36982 147.84624 8222059
-129.05978 18.394878 147.43155 7893606
-129.89949 18.503006 147.07613 8287335
-130.68987 18.694338 146.78023 9537406
-128.15024 19.124798 148.18182 10260100
-129.00525 19.352137 147.87047 8156777
-130.00081 19.43264 147.42854 7169882
-131.00005 19.514078 146.98521 8945268
-132.08952 19.751509 146.56595 8288622
-130.10289 20.366438 147.78238 7696483
-130.94829 20.478422 147.42586 8419697
-131.84824 20.507877 147.00768 9734788
-132.75089 20.537907 146.58832 8814454
-133.72533 20.826309 146.24307 8288366
-131.38121 21.258213 147.5549 8090736
-132.12796 21.539988 147.31882 9143163
-133.03259 21.571537 146.89867 9340542
-133.93822 21.603436 146.47531 8419952
-134.54753 21.367851 146.07953 8814715
-133.24469 22.350193 147.13229 7893608
-133.92467 22.374937 146.81451 8288366
45.769203 -13.209107 182.20995 8287342
44.678535 -13.371594 182.12762 8550770
43.553925 -13.442945 182.08128 8813942
42.491859 -13.380021 182.08992 8945267
41.566849 -13.364903 182.08145 10853262
40.623833 -13.575079 181.98222 10393229
31.437939 -13.322677 180.21864 8090987
30.710688 -13.289809 179.88136 9735558
29.721338 -13.460772 179.28307 8090993
28.857611 -13.352505 178.96268 8288366
28.073608 -13.171943 178.65758 9012089
47.737984 -12.332243 182.59297 8616819
46.638752 -12.496314 182.50984 9932678
45.505913 -12.568707 182.46298 7563619
44.43663 -12.505967 182.47139 9406335
43.505424 -12.491278 182.46268 10064265
42.555145 -12.703031 182.36275 11905692
30.743382 -12.850569 180.07439 11116693
29.793732 -12.589281 179.722 9341055
28.833958 -12.548635 179.27573 8090987
27.880409 -12.50846 178.83224 8617331
27.183353 -12.261265 178.59596 9537918
49.414238 -11.166553 183.05392 9800324
48.462753 -11.428875 182.96632 9142650
47.475307 -11.688301 182.84732 7630441
46.398663 -11.625856 182.85553 8616819
45.460815 -11.611643 182.84656 9998727
44.503166 -11.825176 182.74576 10722194
29.600208 -11.920973 179.8989 9735812
28.895185 -11.672655 179.65932 8288366
27.995983 -11.505637 179.29318 9012089
26.989714 -11.598307 178.77036 10524555
26.128986 -11.492479 178.39801 8552049
50.184025 -10.21484 183.21825 10063753
49.374069 -10.293324 183.4332 9866117
48.426659 -10.280139 183.42628 9406334
47.43367 -10.725651 183.23267 8090734
46.468349 -10.941113 183.13159 9143161
27.606066 -10.671593 179.4425 10919570
26.823814 -10.497541 179.13562 10327177
25.957548 -10.46735 178.72998 8222316
25.018139 -10.434811 178.29005 9011832
24.472683 -10.416097 178.03461 9011320
50.994083 -9.1306877 183.28935 9734531
50.458931 -9.4123411 183.41525 9273980
49.537762 -9.4481058 183.74911 9339773
26.406221 -9.6054354 179.29506 9537918
25.628178 -9.4345379 178.98895 8551281
24.771173 -9.334857 178.61594 7893352
23.824442 -9.5236425 178.0829 10656657
22.989473 -9.2080488 177.80788 10919829
51.274109 -8.434062 183.44203 10063753
50.489491 -8.5172281 183.75781 9208187
24.740608 -8.5308561 178.92651 9340541
23.886869 -8.4339771 178.55389 9735299
22.956253 -8.4083414 178.1154 10854036
22.031296 -8.3830776 177.67946 9275004
21.352139 -8.1476231 177.44719 11183001
52.001846 -7.5008931 183.4897 9537664
51.365623 -7.5050287 183.77095 10655890
50.706104 -7.7420335 183.96991 10261132
23.690723 -7.771771 178.72716 9735043
23.004326 -7.5353951 178.4917 11380381
22.077255 -7.5127573 178.05374 8946039
21.155838 -7.490418 177.61835 10985622
20.319519 -7.3980613 177.25233 9274748
52.439011 -6.5208259 183.68521 10129801
51.520622 -6.650413 184.04205 10787476
21.892029 -6.6343846 178.31979 7958633
20.969936 -6.6146946 177.88295 9274749
19.960066 -6.6367383 177.38695 10064520
18.994055 -6.5007138 176.97603 10261644
53.187622 -5.552011 183.73782 9538176
52.400562 -5.6337605 184.05528 10261387
51.739189 -5.8710165 184.25491 10853012
20.703062 -5.8081431 178.08055 8682355
19.876478 -5.5014796 177.80588 9471871
18.964211 -5.4856095 177.37228 8683642
18.106106 -5.3839898 176.99954 9538694
17.242233 -5.1672673 176.67059 8090995
54.18177 -4.1420321 183.85672 9866885
53.369667 -4.4578795 184.09219 10392973
52.707413 -4.6953616 184.29219 9735299
18.933966 -4.4669385 177.76984 9012607
18.103861 -4.3825135 177.40361 10590868
17.199738 -4.3701644 176.97253 9801352
16.300781 -4.3580127 176.54388 9209467
15.637803 -4.1326251 176.31523 9209467
55.005135 -3.04164 183.92838 11380121
54.341789 -3.2790477 184.12892 9801604
53.55246 -3.3599153 184.44777 10130313
17.68745 -3.5038621 177.55827 9538694
17.009506 -3.4965191 177.23428 8683125
16.018682 -3.5293334 176.74306 8551537
14.992549 -3.4748566 176.27017 9209467
14.333158 -3.2515676 176.04245 9209211
55.22958 -2.2543416 184.14211 12827053
54.439438 -2.334759 184.4613 9275260
16.810059 -2.8391397 177.40395 7959401
15.918406 -2.613148 177.06537 8419952
15.023273 -2.6061697 176.63643 8748917
14.133155 -2.5992386 176.20992 9472383
13.254775 -2.37604 175.87653 8682867
56.057167 -1.1480138 184.2149 11380121
55.268661 -1.3387249 184.48944 9209467
54.726524 -1.6241806 184.6167 9209467
15.718163 -1.9563689 177.23442 8419952
14.976926 -1.8064854 176.93755 7565675
14.169295 -1.5113457 176.66743 9669763
13.281754 -1.5075802 176.24089 9077625
12.330037 -1.3591241 175.84193 9341052
11.527078 -1.2840436 175.48497 9209467
57.050758 -0.19694172 184.29205 10063750
56.245674 -0.38758689 184.51718 8419951
55.466721 -0.67362982 184.66629 7367263
12.982963 -0.52658099 176.53278 10524554
11.9955 -0.41649076 176.1404 9998211
11.117349 -0.41575372 175.7173 9209467
10.31981 -0.34298366 175.38858 8682867
9.6010981 -0.19858152 175.15332 10129289
58.099846 0.75847745 184.53375 15195086
57.2938 0.56719255 184.76419 11248022
56.51136 0.27993771 184.91071 8288365
11.151462 0.23703282 176.26247 9735296
10.06726 0.45363417 175.9169 9208955
9.1960821 0.45202485 175.49646 9800581
8.3294382 0.45046782 175.07832 9537408
7.2599082 0.66482669 174.73802 9736067
65.098267 1.7504821 186.21872 8617592
64.246307 1.75131 186.6606 10064011
60.174282 1.243288 184.89153 9537662
59.318634 1.2437083 185.28827 9142908
6.0154014 1.0994203 175.29648 8946039
5.1585174 1.0962179 174.87675 11183001
4.3059573 1.0930175 174.45917 10985111
3.4576488 1.0899193 174.04379 11905701
-19.456808 1.486394 170.3848 9932678
-20.331652 1.6532646 170.05423 9603970
-21.23802 1.6923726 169.6622 9143675
-22.217617 1.688777 169.22217 11775395
-23.132959 1.7559189 168.84148 9736836
-23.790071 1.8942497 168.60571 9736836
66.069077 2.728487 186.11621 8486262
65.18705 2.4848733 186.47356 7170661
-20.676044 2.3317971 170.1512 9538433
-21.339163 2.4704247 169.9135 9012089
-22.259157 2.5366981 169.53506 9472641
-23.238228 2.5317705 169.10231 9736836
-24.018923 2.5278881 168.75731 9144701
-25.008837 2.5248785 168.44174 10262152
-26.016047 2.734019 168.24995 9340539
-27.010359 2.7317722 167.98198 8419440
-77.452042 2.8024487 158.12868 11183001
-78.104401 2.8051305 158.01376 12235437
-78.976326 2.8087056 157.86021 11906213
-80.069923 2.8133721 157.66768 10262412
-81.167221 2.8180871 157.47443 9736067
-82.048172 2.8219578 157.31929 9736067
-82.904968 2.8249829 157.11311 9472639
66.079987 3.5144932 186.43262 8749433
65.305855 3.4671226 186.81436 7039331
-22.560083 3.3151648 169.71249 9735046
-23.282476 3.381541 169.42107 8946300
-24.26166 3.3755319 169.00212 8881017
-25.254473 3.3718555 168.69507 9932675
-26.051977 3.369632 168.47998 9603711
-27.047617 3.3669846 168.21141 9472125
-28.042107 3.3644123 167.94322 8485232
-29.048691 3.5740507 167.7518 9274492
-30.055134 3.7834024 167.56033 9142907
-31.047171 3.78104 167.29286 8880249
-31.977221 3.8495455 167.0688 8025709
-32.845657 3.988868 166.88799 7565153
-33.637722 3.9871726 166.67451 7565153
-59.777428 3.6012099 161.56374 8681843
-60.400463 3.6033063 161.45389 9734528
-61.440556 3.6068988 161.27042 9340283
-62.482956 3.6106405 161.08664 8682867
-63.318695 3.6137328 160.93927 10262156
-64.365845 3.617739 160.75473 9341054
-65.415482 3.6219103 160.56978 8880503
-66.257202 3.6252999 160.42152 9341054
-67.312042 3.6297359 160.23579 10064008
-68.418846 3.4901888 159.98759 10063752
-69.185509 3.4212115 159.82591 9997959
-70.248154 3.42576 159.63879 10328460
-71.313751 3.4303737 159.45119 9933959
-72.168678 3.4341567 159.30074 11183257
-73.147606 3.3950374 159.11235 10722194
-74.193184 3.4871514 158.96065 10393229
-75.177895 3.4482141 158.77135 10262156
-76.042786 3.4524426 158.61923 8946039
-77.127304 3.4578385 158.42859 10196107
-78.215324 3.4633837 158.23738 14076870
-79.088608 3.4679327 158.08388 11183004
-79.964447 3.4725804 157.93001 9999240
-81.062996 3.4785368 157.73706 9472895
-82.165421 3.4846075 157.54347 9406846
-83.018982 3.4882576 157.32843 9998727
-83.921631 3.5999169 156.97322 10985364
66.859406 4.5310307 186.44505 10261131
66.127457 4.368598 186.75792 10590609
-23.511833 4.019505 169.57407 8617080
-24.383635 4.1839399 169.26903 7959403
-25.312765 4.4359202 169.08058 9340539
-26.112064 4.4331217 168.86475 10985104
-27.109943 4.4297724 168.59541 10458504
-28.106665 4.4265409 168.32635 7564386
-29.115511 4.6362472 168.13434 7367007
-30.110411 4.6332417 167.86584 9406079
-31.104256 4.6304531 167.59778 8418928
-32.097183 4.6277986 167.33002 11840159
