# .PCD v0.7 - Point Cloud Data file format
VERSION 0.7
FIELDS x y z rgb
SIZE 4 4 4 4
TYPE F F F U
COUNT 1 1 1 1
WIDTH 1212
HEIGHT 1
VIEWPOINT 0 0 0 1 0 0 0
POINTS 1212
DATA ascii
-27.866465 -29.822279 131.00095 9341054
-28.795351 -29.660656 131.01398 11050645
-29.742579 -29.358025 131.28841 12300452
-30.278154 -29.175793 131.68381 9011579
114.99972 -78.459206 73.534859 11709345
114.58568 -78.418083 74.048691 13288121
115.31544 -77.664688 73.605194 9867398
115.71923 -76.816818 73.600929 9867398
115.39768 -77.165123 73.787254 9867398
17.071472 -66.299545 113.52858 6313808
16.873384 -65.770622 113.6514 6642773
16.282806 -65.372147 113.55244 6510930
16.808264 -64.896217 113.96778 6313551
16.073471 -64.639717 113.75025 7037274
15.910494 -63.669224 114.06178 6971481
15.22171 -63.596016 113.79197 9735299
15.780088 -62.899014 114.30856 6510930
15.154692 -62.565586 114.16872 8551284
14.967266 -61.752373 114.4077 6972257
14.372017 -61.489967 114.25298 7038307
14.841768 -60.998524 114.65013 9011579
14.177889 -60.644306 114.5742 8156529
13.423374 -60.292904 114.50854 7038307
13.939579 -60.05571 114.92802 7695979
13.295357 -59.64463 115.02369 7762028
12.331848 -59.260277 115.19991 8880504
12.301277 -59.079853 115.8022 8617333
11.424566 -58.967335 115.84512 7893356
10.545877 -58.88583 116.01521 8089963
9.5148373 -58.867825 116.49961 8879477
8.7254124 -58.867519 116.89852 8353647
7.6137452 -58.867775 117.21579 8682867
6.7292123 -58.867363 117.68647 8682867
5.8121247 -58.867294 118.04733 9603202
4.8261666 -58.867504 118.33613 10261388
3.9865327 -58.866901 118.85793 9537407
3.0382142 -58.598011 119.14201 8485232
2.4137101 -58.21946 119.06235 7564643
2.9145722 -57.743183 119.46652 8616820
2.2113252 -57.527977 119.2454 10129028
2.7120233 -57.050777 119.64991 8090736
2.0855584 -56.608257 119.55124 9801094
1.2668176 -56.185207 119.36147 11905692
2.0551324 -55.757313 119.87157 10327954
1.3047547 -55.545898 119.62849 11709349
1.8512597 -54.917313 120.11222 7038307
1.1260743 -54.642403 119.90501 7169893
0.40276191 -54.21838 119.75701 6840151
1.0307488 -53.817356 120.18696 6774876
0.40270469 -53.526623 120.02812 6840151
0.98332834 -53.102116 120.44671 5919050
0.25758597 -52.682304 120.296 5984843
-0.46659234 -52.423946 120.10358 5919050
0.11149833 -51.838848 120.56312 6050635
-0.6138587 -51.575161 120.38146 7498338
0.11044548 -51.148323 120.83335 6840151
-0.61672354 -50.744209 120.70092 7827046
-1.43926 -50.448807 120.54093 6510930
-0.7655921 -49.817802 120.99843 8156269
-1.4924331 -49.617245 120.83829 6840152
-1.643476 -48.708279 121.13338 8749175
-2.3219352 -48.543388 120.97445 8155497
-1.7957931 -47.743832 121.44897 7960433
-2.5624328 -47.595779 121.25762 8814456
-2.5000587 -46.684216 121.62029 8748664
-3.3709464 -46.507736 121.44498 9537409
-2.7345405 -45.893993 121.85087 8025712
-3.5248427 -45.676815 121.7743 8420212
-4.3003173 -45.404152 121.78797 9341054
-3.6292167 -45.017582 122.23976 8551540
-4.4412513 -44.779453 122.26165 8683124
-5.284307 -44.445656 122.40674 8222573
-6.106214 -44.263725 122.57376 8156785
-5.5415397 -44.118599 123.16188 9341054
-6.2802711 -44.098469 123.06552 9209215
-7.1862388 -43.966984 123.2897 10261390
-8.1546497 -43.881969 123.63852 8024943
-9.0432491 -43.865345 124.18468 7038304
-10.090395 -43.866669 124.10293 8682611
-10.774855 -43.864723 125.04195 9143422
-11.82913 -43.866096 124.94517 8683899
-12.683878 -43.864346 125.87357 10985113
-13.745043 -43.86578 125.7607 8485490
-14.620806 -43.864052 126.69043 7037274
-15.536333 -43.865318 126.58034 9801606
-16.336901 -43.864468 127.17606 9999244
-17.334631 -43.598385 127.55918 8618105
-18.198092 -43.453926 127.45184 8024945
-17.502531 -42.708488 127.88886 9998731
-18.345064 -42.610924 127.73721 8617081
-19.124296 -42.279324 127.68603 11905701
-18.278833 -41.704067 128.08653 8419702
-19.123228 -41.608223 127.93383 11510944
-18.429129 -41.029301 128.302 7564651
-19.160482 -40.699074 128.26096 11445406
-19.985762 -40.526413 128.14081 14208449
-19.309443 -39.853073 128.53992 12563884
-20.124918 -39.702198 128.41394 12300967
-20.816523 -39.406948 128.36887 11709087
-20.126001 -38.81345 128.74159 9933190
-20.980921 -38.708591 128.58987 10525070
-20.212893 -37.912395 129.05473 8090987
-21.041529 -37.69458 128.95049 8880501
-21.869085 -37.256409 128.92784 9012086
-21.168016 -36.615051 129.32063 8617331
-22.027533 -36.512493 129.16701 8156778
-21.333887 -35.914848 129.54202 8814710
-21.972582 -35.589809 129.51967 7893608
-22.815889 -35.535774 129.35176 8353901
-22.122046 -34.846851 129.76051 8485745
-22.851969 -34.598797 129.68942 8879730
-23.594004 -34.462364 129.57448 7695970
-22.939322 -33.791824 129.96771 9537659
-23.858835 -33.594315 129.83577 10326918
-23.066011 -33.034233 130.21901 9537659
-23.821665 -32.738544 130.15981 9669245
-24.657824 -32.581474 130.05365 7762021
-23.957167 -31.815086 130.47035 6840919
-24.828573 -31.78228 130.32179 7498849
-25.530687 -31.442535 130.34811 9735555
-24.696898 -30.915154 130.67296 8880502
-25.648554 -30.577717 130.74861 10656657
-26.550207 -30.318787 130.79842 9538177
-25.774149 -29.812767 131.29391 9143675
-26.650446 -29.695471 131.28558 8288366
-27.483374 -29.466318 131.37355 8946296
-28.602098 -29.260124 131.6389 10590608
-29.314199 -29.163612 131.85114 10984852
-27.70783 -29.145361 132.12364 14604238
-28.35037 -29.152372 132.01549 10130059
-29.297956 -28.951674 132.52774 7498857
-30.266657 -28.963659 132.36044 7038307
114.2751 -78.388382 74.433449 10262415
113.68227 -78.448212 75.102669 9341571
113.08015 -78.471527 75.803429 9341571
114.97267 -77.503883 74.101479 9867398
114.44841 -77.671509 74.629105 9209728
113.76177 -77.826202 75.356476 9341571
115.83286 -76.447998 73.672638 9867398
115.29121 -76.727356 74.158394 9604226
114.67872 -76.717224 74.890091 8880504
114.15044 -77.048241 75.331062 9734787
116.08984 -75.649086 73.933014 9209211
115.54662 -75.754959 74.468575 10130312
114.90363 -75.980385 75.035767 8682867
116.47504 -74.987488 74.21022 8682867
116.06623 -75.062897 74.605415 10261641
18.99592 -66.82341 114.15675 5919050
18.262655 -66.467438 113.97913 6314579
18.221714 -65.713547 114.25871 7762795
17.496696 -65.488365 114.03306 8354160
18.011948 -64.905647 114.48594 10855061
17.355696 -64.58342 114.32832 8354674
17.169504 -63.741932 114.57897 8946040
16.647158 -63.423931 114.47774 7695460
17.13752 -62.783653 114.94243 11380380
16.445482 -62.608902 114.71124 8353390
16.264576 -61.699932 114.99078 9011320
15.585535 -61.573376 114.74625 7037533
16.139946 -60.959393 115.22837 9143162
15.450769 -60.597607 115.15725 10787473
14.609062 -60.273567 115.03712 13023917
15.235346 -60.015087 115.5218 10984852
14.550005 -59.691811 115.50665 10458765
13.710438 -59.263321 115.77486 8551285
13.49531 -59.063053 116.36649 9209467
12.707769 -58.988632 116.3033 8683125
11.85919 -58.872601 116.74005 7959407
10.717127 -58.865211 116.97784 9076856
9.9926739 -58.86454 117.48068 8484720
9.0800991 -58.864456 117.84591 8682355
7.9601922 -58.8647 118.17159 9472126
7.1346459 -58.864021 118.71543 10261641
6.1334023 -58.864906 118.77 8682867
5.4398103 -58.864128 119.29975 9998985
4.3028359 -58.559849 119.71966 8617077
4.2162271 -57.735413 120.03465 8419700
3.5827851 -57.592327 119.8158 8879995
4.1760278 -57.0112 120.30134 9735046
3.366858 -56.675049 120.08162 8485237
2.7165284 -56.440388 119.89112 11379356
3.2590013 -55.722054 120.40824 6774877
2.6501107 -55.550941 120.21085 8617080
2.5102105 -54.649948 120.50322 7959408
1.8532777 -54.461349 120.29179 9341060
2.3591142 -53.677681 120.81864 9340803
1.6622033 -53.652523 120.52583 8551545
1.5478196 -52.67461 120.85942 6511701
0.98485804 -52.193401 120.80341 5919050
1.3956056 -51.71381 121.16988 7038307
0.72616053 -51.580547 120.93132 7037789
1.2801232 -51.028526 121.38825 8814715
0.5482316 -50.611885 121.23367 8946044
-0.18241647 -50.198029 121.07858 8814715
0.51876688 -49.760887 121.55441 9472645
-0.14714578 -49.562569 121.3429 8354678
0.40127799 -49.078461 121.77088 7038307
-0.33175424 -48.66909 121.61466 10065547
-1.0631499 -48.424755 121.42918 10789269
-0.43183663 -47.850231 121.89036 10789269
-1.1644988 -47.592148 121.71299 8881533
-0.48299935 -47.139908 122.14658 9144704
-1.2066245 -46.703053 122.03833 8223348
-2.04849 -46.461479 121.85206 8288627
-1.3693633 -45.891438 122.30585 8288627
-2.1059356 -45.567741 122.26737 8945786
-2.8397193 -45.423428 122.12318 9011579
-2.2637496 -44.874043 122.75106 9011579
-3.0751433 -44.701191 122.64764 8617334
-3.9492011 -44.310959 122.96697 8485745
-4.3574996 -44.152439 123.31101 9341054
-4.9605498 -44.054165 123.49494 10985879
-5.9881759 -43.927597 123.77088 8617337
-6.6475616 -43.862408 124.33884 8156531
-7.6960273 -43.863678 124.27726 8353909
-8.5132046 -43.861855 125.21878 9472132
-9.7198277 -43.863373 125.12942 10261391
-10.558756 -43.861565 126.0721 8090993
-11.46995 -43.862747 125.99144 9671047
-12.244867 -43.861824 126.60253 11315101
-13.246073 -43.862183 126.84282 9275004
-14.221521 -43.862026 127.25836 9011319
-15.176458 -43.695538 127.88 7367010
-16.040979 -43.562775 127.84422 9538950
-16.636351 -43.282509 127.87005 9538950
-15.99312 -42.69886 128.22865 10656658
-16.936132 -42.603565 128.05377 10788502
-16.238455 -42.028328 128.42142 14605262
-16.909079 -41.666683 128.40544 10788502
-17.711718 -41.597748 128.25214 8617081
-17.061441 -40.833279 128.67903 10920086
-17.887583 -40.654163 128.56107 7959663
-17.097162 -40.109051 128.93825 9933193
-17.922167 -39.80336 128.86729 8486262
-18.776335 -39.694172 128.71732 10130060
-18.003637 -38.902027 129.18173 9538692
-18.830835 -38.680149 129.0793 10196362
-19.551264 -38.266201 129.07152 8090987
-18.854795 -37.584087 129.47838 13485751
-19.759085 -37.491734 129.31104 8551538
-19.112471 -36.89986 129.67346 13156786
-19.748964 -36.571999 129.6526 8354158
-20.591513 -36.514095 129.48633 8354159
-19.89393 -35.828842 129.89449 8090987
-20.621943 -35.577721 129.825 8814710
-21.362623 -35.438103 129.71152 9275261
-20.681318 -34.722782 130.12721 8946040
-21.57078 -34.561493 129.9886 9275261
-20.835844 -33.854301 130.41325 6510930
-21.579748 -33.715099 130.29887 7432801
-22.417452 -33.438396 130.21439 8616814
-21.709658 -32.792244 130.61052 8221548
-22.577963 -32.69075 130.45447 6643541
-21.877619 -32.088547 130.83345 7563619
-22.523066 -31.762783 130.80975 8813685
-23.374941 -31.709801 130.63892 8222316
-22.674685 -31.015753 131.05273 12365991
-23.422026 -30.686338 131.07202 13024176
-24.343729 -30.366301 131.0853 10392971
-23.642744 -29.902931 131.59265 13550517
-24.382082 -29.772697 131.53783 9800837
-25.21681 -29.506645 131.66791 8682872
-26.133142 -29.339224 131.71661 8880503
-26.10137 -29.129566 132.38802 9735812
-27.183428 -29.055384 132.47984 11972262
-28.167891 -28.938784 132.71959 13550520
-29.891161 -28.86013 133.67699 9472129
-30.696234 -28.86149 133.49431 9011577
112.76954 -78.445854 76.185982 10261645
112.14811 -78.397087 76.949837 9602939
113.567 -77.565651 75.733238 9538179
113.03061 -77.676109 76.307175 11314076
112.4018 -77.786873 76.990601 10326664
114.31851 -76.495552 75.441109 9734787
113.84616 -76.644119 75.91787 9734787
113.23373 -76.641312 76.645416 11511198
115.45502 -75.340424 74.999863 8682867
114.83198 -75.551865 75.514618 9669505
114.1227 -75.697723 76.199898 8484721
117.25536 -74.270638 74.575188 9012091
116.67081 -74.455894 74.795815 10853521
115.85674 -74.718582 75.260056 10985106
115.14146 -74.908829 75.882652 9669505
117.69463 -74.105888 74.854935 9735812
20.346443 -67.198952 114.59448 8089960
20.229536 -66.697556 114.74161 10260870
19.509426 -66.625893 114.45748 8879732
19.438995 -65.732742 114.77891 11116950
18.780857 -65.523369 114.57603 8947068
19.434248 -64.923981 115.09535 9933961
18.713261 -64.654213 114.889 10723476
18.530638 -63.705627 115.18339 11381404
17.894781 -63.591545 114.95261 11381404
18.353477 -62.78709 115.46827 11512734
17.7001 -62.606319 115.2562 11380892
17.537281 -61.721439 115.5341 10788244
16.833696 -61.561451 115.29202 10919829
17.557755 -60.900734 115.8661 9012350
16.859562 -60.64386 115.73947 9078142
16.102528 -60.318073 115.64597 9735299
16.547636 -59.979374 116.11868 8092019
15.767929 -59.646389 116.08195 9142649
14.913063 -59.249939 116.33116 9208441
14.7024 -59.048347 116.92918 8813683
13.982307 -58.983688 116.885 8945528
13.218239 -58.877026 117.19726 9077628
12.199659 -58.861988 117.56893 8617333
11.156347 -58.861885 117.98836 10721935
10.277884 -58.861378 118.4896 13024431
9.2784557 -58.862194 118.57068 10655886
8.5991268 -58.861347 119.11857 11379607
7.4659295 -58.86161 119.44186 8682867
6.4783311 -58.861416 119.8749 8682867
5.6593461 -58.581821 120.32235 11907239
5.0410714 -58.403492 120.12943 8682867
5.4466386 -57.710155 120.57835 11380895
4.868094 -57.639587 120.35513 10788758
5.3605027 -56.923412 120.85017 11380895
4.6731286 -56.642063 120.66187 8814458
3.8894486 -56.345314 120.43785 6511962
4.5869508 -55.704605 120.99187 9603456
3.963141 -55.643517 120.74488 7761771
3.7357087 -54.710121 121.01191 10261385
3.0259347 -54.357365 120.84185 9341060
3.6217942 -53.798244 121.31982 10655629
3.0693421 -53.601906 121.15681 10261131
2.8581796 -52.686863 121.42374 7169628
2.1565843 -52.383442 121.23792 6511954
2.7018838 -51.762806 121.71803 7695716
2.0727944 -51.579655 121.51656 6577749
1.9389367 -50.642513 121.82572 7564648
1.2812448 -50.574173 121.56683 8814715
1.7265725 -49.733814 122.0896 7893615
1.1365647 -49.58263 121.89263 7696236
0.96633387 -48.658958 122.18069 8222579
0.40109488 -48.323158 122.06678 9671047
0.8145318 -47.688522 122.49509 9538691
0.13889167 -47.563728 122.25053 10591890
0.056108929 -46.663277 122.5675 8815228
-0.6330657 -46.215164 122.44379 8618361
-0.073865436 -45.760822 122.8996 8419959
-0.8163085 -45.553177 122.72454 8025457
-0.88702917 -44.891132 123.22054 8682872
-1.7331901 -44.587475 123.20515 7565418
-2.6947608 -44.247375 123.44024 8814457
-3.4682899 -44.179207 123.41895 8090987
-2.7392898 -44.053463 124.06253 9274494
-3.6382232 -43.962555 124.1047 7169892
-4.5146956 -43.885975 124.31415 8090989
-5.4486861 -43.860981 124.39902 8090987
-6.3997703 -43.859287 125.34709 8748409
-7.4567847 -43.860554 125.28757 8814203
-8.2785816 -43.858696 126.24521 7038307
-9.1910114 -43.859833 126.18056 11905701
-10.107588 -43.859051 126.79353 7564394
-11.104597 -43.85936 127.05066 7828846
-11.869886 -43.860355 126.981 10262927
-12.738508 -43.858547 127.93784 10591377
-13.79925 -43.640011 128.23207 12827822
-14.737726 -43.461792 128.22681 10985620
-13.905794 -42.886269 128.62445 13353909
-14.678503 -42.704418 128.51945 12103844
-15.451139 -42.523823 128.414 9669762
-14.715853 -41.83287 128.8327 12301737
-15.642958 -41.664463 128.68831 12828338
-14.900274 -41.115025 129.05644 12630959
-15.639959 -40.807018 129.00536 11315100
-16.457754 -40.630699 128.88823 10064777
-15.780355 -39.77142 129.35617 9011832
-16.592505 -39.645885 129.22157 8814969
-17.290152 -39.313087 129.18893 9933193
-16.643488 -38.580643 129.60324 10262157
-17.538698 -38.544426 129.41718 10459279
-16.897093 -37.895195 129.79962 12432037
-17.469824 -37.565659 129.79366 10327691
-18.277609 -37.486053 129.64311 13682875
-17.631998 -36.800438 130.03987 9077110
-18.449575 -36.562435 129.94556 13419446
-19.138388 -36.423256 129.84349 13156786
-18.452917 -35.711571 130.25877 9274749
-19.34123 -35.546272 130.12189 9406590
-18.602232 -34.842945 130.5461 7695973
-19.389193 -34.670906 130.43423 8024681
-20.176294 -34.499924 130.32198 8682099
-19.383993 -33.821865 130.74937 6182734
-20.285879 -33.670532 130.60371 6510930
-19.633265 -33.074314 130.97075 6510930
-20.276388 -32.746155 130.94833 8418927
-21.12739 -32.689613 130.77867 10524559
-20.478781 -31.945444 131.19987 8682099
-21.210348 -31.744713 131.11044 10392716
-21.907167 -31.60919 131.00464 9010807
-21.244333 -30.939016 131.41119 8550513
-22.144472 -30.560589 131.43803 8747636
-22.972101 -30.203381 131.50328 16247774
-22.287981 -29.812216 131.95607 7563619
-23.056402 -29.614964 131.97849 8748149
-23.965391 -29.397106 132.00916 10261387
-24.177999 -29.119383 132.72018 9208958
-24.977358 -29.120764 132.57149 7564393
-25.746233 -28.915346 133.11707 10393488
-26.714968 -28.923998 132.96037 12432557
-27.7932 -28.856649 134.13068 14801872
-28.762354 -28.858246 133.92546 13354682
-30.592051 -28.856327 135.27333 8814198
-31.080885 -28.857157 135.16154 9011577
111.42283 -78.3442 77.839149 10721423
110.7541 -78.269867 78.56646 8617331
110.26112 -78.188835 79.016251 8617331
112.13752 -77.547165 77.437943 9602939
111.57677 -77.567612 78.090782 9931905
110.82414 -77.676147 78.786888 8288366
110.01484 -78.148956 79.240639 9735812
113.01972 -76.201027 77.145439 10655886
112.4674 -76.661743 77.542336 9931905
111.73923 -76.711052 78.377892 9931905
114.02132 -75.342636 76.694664 8089963
113.39516 -75.487846 77.281029 9011065
112.62922 -75.809433 77.874763 9602941
112.08109 -76.133789 78.295639 9931905
116.0789 -74.253777 76.040909 9932676
115.22684 -74.466713 76.43647 8682611
114.45252 -74.695251 76.984184 8353135
113.80204 -74.788795 77.610977 9011065
118.73516 -73.870216 75.518013 7564651
117.83073 -73.972626 75.340256 8814713
117.24636 -74.010605 75.843292 9603968
116.62001 -74.056808 76.355865 8682867
21.660772 -67.444878 115.06762 11117207
20.951485 -67.369308 114.7897 12432037
21.565205 -66.810127 115.2764 11905951
20.825712 -66.622086 115.02981 12432037
20.761686 -65.790497 115.3296 12168866
20.063631 -65.456673 115.15843 11708314
20.669357 -64.946136 115.62206 11379865
19.964104 -64.572464 115.46348 9275518
19.863312 -63.712036 115.75862 10460049
19.158829 -63.581718 115.50452 12038822
19.72538 -62.987545 115.98412 11709601
18.979385 -62.614456 115.80763 11972773
18.927858 -61.664707 116.15931 11051927
18.228498 -61.578152 115.89016 10525072
18.786219 -60.89904 116.39939 10460046
18.081509 -60.638336 116.2722 9078143
17.318235 -60.30859 116.17927 9012350
17.815687 -60.022449 116.6312 9472387
17.203997 -59.648922 116.70515 9209472
16.354479 -59.326939 116.78843 8090734
15.89188 -59.100731 117.25542 7563619
15.32102 -59.01857 117.28561 8155755
14.52458 -58.866646 117.8195 8155755
13.414066 -58.858986 118.18066 7893615
12.390398 -58.858887 118.59053 9538181
11.686594 -58.858681 118.92274 10064265
10.628313 -58.858978 119.20705 12235428
9.7393436 -58.858471 119.71297 11643036
8.8142872 -58.858318 120.10662 9473409
7.7817636 -58.858761 120.32858 8748660
6.9959283 -58.601871 120.83593 10262669
6.2283616 -58.322899 120.67617 16777207
6.7947755 -57.769279 121.13982 10986652
6.0932565 -57.601658 120.90155 13618114
6.0848298 -56.725128 121.24244 9736842
5.3680062 -56.462627 121.03403 8092019
5.8274179 -55.777164 121.50222 8552569
5.1687341 -55.612679 121.28059 9274750
5.1188684 -54.725258 121.60674 9800836
4.3581643 -54.283394 121.44949 11905692
4.9309869 -53.831825 121.87531 9011579
4.2549729 -53.614422 121.66688 10064007
4.8212495 -53.13752 122.09971 7564651
4.0799127 -52.70446 121.94746 8485236
3.3399835 -52.274426 121.79469 10853012
4.0411439 -51.729359 122.31281 7761509
3.3832955 -51.633286 122.06474 10129289
3.2055879 -50.727562 122.34254 8682099
2.4645448 -50.304722 122.18644 9405822
3.1067986 -49.797367 122.66418 9208699
2.3700624 -49.614323 122.41593 12038311
2.3373895 -48.718227 122.75294 11972261
1.5830178 -48.498772 122.51133 9801351
2.0618958 -47.872589 122.96472 9932934
1.4873834 -47.591957 122.8252 9275004
1.3659616 -46.698685 123.12257 9011834
0.6969285 -46.552422 122.8893 9472387
1.1444497 -45.863762 123.36856 10393486
0.54947519 -45.557121 123.32058 9669766
0.34119651 -44.840824 123.79401 10064523
-0.37460855 -44.603271 123.7064 8946044
-1.0930686 -44.247662 123.99412 7894126
-1.3960853 -44.123596 124.2911 8814457
-2.1494002 -43.97562 124.51363 9077372
-3.2102065 -43.870907 124.84951 8485493
-4.1333251 -43.85664 125.44527 8485749
-5.1911941 -43.857861 125.40443 8288370
-5.9955955 -43.855942 126.37677 9340797
-7.0612617 -43.857216 126.32023 11116442
-7.9673858 -43.856377 126.94852 8287600
-8.8066654 -43.856445 127.23348 10063754
-9.5730648 -43.857399 127.17738 8617081
-10.578672 -43.855724 128.13695 7828590
-11.688829 -43.75219 128.36409 7631467
-12.500982 -43.566967 128.68623 8617846
-13.27371 -43.381779 128.58246 10985620
-12.476358 -42.846077 128.95769 8617331
-13.403475 -42.673885 128.81471 10196105
-12.713541 -41.975014 129.22629 6117714
-13.427717 -41.679932 129.17604 7827817
-14.164549 -41.558926 129.05655 10196105
-13.613459 -40.598476 129.53369 7893355
-14.392496 -40.654472 129.33952 10327693
-15.095591 -40.159195 129.3656 9669762
-14.387621 -39.584438 129.73538 10524304
-15.240942 -39.48172 129.58321 9603459
-14.531855 -38.90609 129.95357 10853012
-15.257841 -38.569302 129.91612 9340545
-16.065531 -38.485519 129.76707 10261384
-15.408922 -37.718697 130.19626 8551286
-16.232046 -37.561184 130.07108 8682608
-16.927843 -37.259682 130.02727 10458505
-16.178751 -36.704651 130.399 6511954
-17.09836 -36.484619 130.27525 6511954
-16.374453 -35.84161 130.67461 6511954
-17.160498 -35.665829 130.56389 6577747
-17.9466 -35.491177 130.45291 7695973
-17.138365 -34.756958 130.90562 8156523
-18.051271 -34.661972 130.73637 8222317
-17.402925 -33.909645 131.16054 10458510
-18.09704 -33.76918 131.05714 10590096
-18.921396 -33.531879 130.96049 6709334
-18.233786 -32.93737 131.33492 10458253
-18.964067 -32.733727 131.24686 8419183
-19.659853 -32.595356 131.14233 10853524
-19.021166 -31.777292 131.5887 10655115
-19.873468 -31.569981 131.47464 9668993
-19.128382 -30.844715 131.91042 9931137
-19.932711 -30.652153 131.8558 9010550
-20.822157 -30.406626 131.81638 9602943
-20.168062 -29.92993 132.32224 10851980
-20.81851 -29.774897 132.30264 10129284
-21.693434 -29.557974 132.31456 9471357
-22.470381 -29.330963 132.382 7563619
-22.581255 -29.122734 133.03011 8682098
-23.597826 -29.015398 133.17146 8287856
-24.618322 -28.909004 133.30911 7761772
-26.336679 -28.854296 134.42511 14734543
-27.146326 -28.855598 134.26389 15195094
-29.122946 -28.853874 135.59808 14013125
-29.939672 -28.855232 135.41968 9142907
-31.474833 -28.85272 136.8692 8616819
110.48373 -77.455849 79.17466 9735812
109.86257 -77.692757 79.582222 9340798
109.14095 -77.628014 80.215324 9867142
108.4492 -77.650215 80.782654 9538176
107.80425 -77.808769 81.246803 11906725
111.55477 -76.473915 78.729362 12432037
110.93665 -76.713219 79.145332 8813940
110.17274 -76.601982 79.835632 9142907
109.45361 -76.758423 80.362762 9208956
112.65264 -75.362595 78.291351 8550513
111.83398 -75.755074 78.844788 9340028
111.09369 -75.704468 79.558578 9011064
110.40113 -75.79184 80.053978 9669251
115.39953 -74.189209 77.15213 8353650
114.69477 -74.234383 77.762733 9076858
113.68726 -74.49855 78.201912 8879479
112.92519 -74.752869 78.722313 9076600
112.10684 -75.045906 79.27874 8616306
119.26691 -73.867561 76.260796 9340796
118.3697 -73.868988 76.087509 7893613
117.65835 -73.876854 76.70018 7038307
116.51791 -73.930641 77.092346 7301478
115.73219 -74.02037 77.576439 8682616
114.92183 -74.080429 78.239632 9537409
22.993469 -67.707565 115.54208 11972518
22.238329 -67.525543 115.28632 10854036
22.862255 -66.96727 115.77691 12630448
22.225256 -66.660728 115.62144 12301226
21.503483 -66.269676 115.46251 12432037
22.095797 -65.728546 115.93241 12367017
21.355339 -65.498009 115.70216 12169123
21.919643 -64.974281 116.153 11379865
21.207129 -64.595833 115.99317 10722450
21.108528 -63.731609 116.29075 8420727
20.389668 -63.471573 116.08152 8683897
21.125698 -63.044125 116.56888 8092019
20.400471 -62.621456 116.42096 9276030
19.615932 -62.340973 116.19131 13024949
20.169781 -61.67205 116.69485 9473663
19.540756 -61.642956 116.43359 9670786
20.029472 -60.902714 116.93691 9210491
19.317966 -60.637611 116.80817 9407871
18.547844 -60.30349 116.71511 8092019
19.222769 -59.922462 117.32162 11379865
18.472605 -59.677128 117.22832 9736071
17.558472 -59.259499 117.4218 8420727
17.304277 -59.04007 118.06017 8092019
16.605499 -59.025436 117.80548 8617334
15.684864 -58.859997 118.34177 9537148
14.78533 -58.855881 118.76993 7958376
13.771627 -58.856163 119.04147 7564651
12.977129 -58.855743 119.48264 8485751
11.993761 -58.855762 119.83588 11380124
11.005655 -58.855812 120.18343 9537407
10.178507 -58.85503 120.76339 8681843
9.1599064 -58.855865 120.84356 8880504
8.205164 -58.633602 121.28754 8946810
7.4275994 -58.246681 121.22625 9736836
8.1625919 -57.83181 121.70846 9276030
7.4805665 -57.597717 121.50482 8881531
8.0592098 -57.127594 121.94087 8288627
7.3134294 -56.674141 121.79583 8092019
6.5660043 -56.377705 121.58767 8092019
7.1806359 -55.843346 122.06401 8092019
6.4830804 -55.521049 121.88734 9013120
6.4083314 -54.677818 122.18539 12762805
5.7019372 -54.368031 121.99996 8288115
6.264853 -53.801235 122.46662 9669508
5.5164247 -53.497704 122.26054 7301221
5.5391603 -52.675678 122.59258 6313552
4.7561135 -52.436504 122.34621 7169635
5.2631173 -51.740269 122.8393 5919050
4.5809999 -51.526058 122.627 6576723
4.5546517 -50.696964 122.94047 7103067
3.8573442 -50.323936 122.78381 7037274
4.3855615 -49.756737 123.23551 8156011
3.7030625 -49.548588 123.02068 8287597
4.2733178 -49.065727 123.45765 8484976
3.5652528 -48.677219 123.30235 10787987
2.9269586 -48.246426 123.19391 9735555
3.502459 -47.785435 123.62455 7695972
2.7221589 -47.576317 123.36761 7367007
3.3882318 -47.097046 123.84482 6511954
2.5972238 -46.702969 123.65565 6511954
1.8894105 -46.420204 123.45903 8682867
2.5690446 -45.842964 124.00785 9866113
1.8672929 -45.601883 123.85445 8090732
1.6500497 -44.927071 124.2897 8682874
0.91088724 -44.574608 124.3104 8748923
-0.048440479 -44.212646 124.55884 10327437
-0.20029977 -44.044636 125.07014 10787988
-1.0448585 -43.932308 125.1396 9537409
-1.865438 -43.854111 125.50214 9274494
-2.9239211 -43.855282 125.4808 9735300
-3.7106414 -43.853302 126.46707 7235685
-4.7771392 -43.854515 126.43021 8485749
-5.5186439 -43.853443 127.08146 9340797
-6.5057769 -43.853642 127.3744 9735299
-7.4264731 -43.854748 127.3233 11905701
-8.4157619 -43.853012 128.29971 10918801
-9.4975872 -43.854355 128.22314 10787215
-10.286638 -43.537964 129.1902 7498592
-11.076937 -43.551861 129.00903 9012347
-10.532896 -42.689159 129.44853 6511954
-11.268087 -42.673153 129.29068 10985366
-11.931658 -42.319336 129.27336 8485747
-11.370146 -41.609871 129.66023 7762021
-12.195955 -41.574776 129.48923 6315093
-12.743036 -41.181271 129.51256 6117714
-12.084661 -40.600567 129.87347 6117714
-13.038721 -40.497612 129.69894 8090734
-12.325392 -39.92556 130.06892 6972766
-13.000422 -39.557381 130.05437 9011322
-13.812342 -39.48209 129.90132 9734789
-13.144987 -38.719486 130.33141 9208958
-13.979376 -38.533527 130.21408 8814459
-14.713701 -38.266125 130.14911 8617080
-13.96068 -37.714939 130.52077 8485494
-14.79693 -37.522594 130.40506 8419701
-14.076696 -36.773537 130.84377 8222322
-14.936918 -36.671288 130.68898 7235683
-15.729624 -36.333595 130.63669 6511954
-14.909277 -35.762741 131.032 7235680
-15.822191 -35.663406 130.86438 8551279
-15.168921 -34.914356 131.28841 9735555
-15.862539 -34.77071 131.18628 9866884
-16.590483 -34.563549 131.10007 10524555
-15.932383 -33.826046 131.52092 9406590
-16.7848 -33.762451 131.35356 11314071
-17.426588 -33.430786 131.33282 9537150
-16.774965 -32.775761 131.72159 9932163
-17.606421 -32.61142 131.5963 9208185
-16.876516 -31.843386 132.04448 8089963
-17.719236 -31.599342 131.94627 8287341
-18.548185 -31.413919 131.82933 10194309
-17.770338 -30.761986 132.25722 9537150
-18.586946 -30.546238 132.20978 9799551
-19.343302 -30.235842 132.26183 9931137
-18.743345 -29.946259 132.61726 9010550
-19.506124 -29.640417 132.69591 9470843
-20.47135 -29.411818 132.69312 9076340
-20.502363 -29.130756 133.42165 8484461
-21.497774 -29.056471 133.46068 9800319
-22.371984 -28.913553 133.7453 10984849
-23.014238 -28.911709 133.62228 8090730
-24.227491 -28.850965 134.82317 5919050
-25.201727 -28.852491 134.64365 9603714
-26.995047 -28.850401 136.03947 7827815
-27.977934 -28.851994 135.83955 13749697
-29.822996 -28.849943 137.23972 8616819
-30.649466 -28.851326 137.05641 8616819
108.15803 -77.479607 81.106033 10788244
107.5751 -77.546921 81.561226 10788244
106.81615 -77.450119 82.240585 10590863
106.11802 -77.475792 82.811615 11577500
109.25964 -76.373116 80.705788 9537920
108.46911 -76.721474 81.20237 9603969
107.67565 -76.687263 81.881142 9932934
106.9469 -76.673683 82.496193 10985364
111.0234 -75.307762 79.96328 12433069
110.29821 -75.402817 80.480888 11446174
109.45435 -75.736313 80.899734 11643553
108.741 -75.685555 81.540573 9340797
107.96024 -75.788185 82.09623 9077625
113.08694 -74.286613 79.402031 9537150
112.30383 -74.469826 79.864388 9537150
111.39437 -74.660568 80.311195 11643038
110.59658 -74.751892 80.87281 9932679
109.70951 -75.002586 81.363327 10525072
120.53724 -73.865074 76.667252 10656654
119.80274 -73.864868 77.0112 9998725
118.71262 -73.865692 77.118523 8090989
117.8921 -73.865189 77.596642 7696235
116.97549 -73.864418 78.20797 8551542
115.90144 -73.86528 78.297791 9537665
115.09509 -73.939827 78.845985 10063753
114.24039 -74.074524 79.069847 9537409
113.50919 -74.122337 79.698967 9997700
24.43375 -68.310265 115.9291 14932946
24.233593 -67.678833 116.09119 15130326
23.532871 -67.47583 115.86733 13683136
24.288496 -67.058937 116.35916 14077894
23.554773 -66.611313 116.21729 12959413
22.758951 -66.306961 115.99213 12630448
23.331745 -65.640198 116.50302 12038311
22.691168 -65.595428 116.24296 11709346
23.198519 -64.854637 116.75459 12630448
22.504877 -64.585953 116.55971 10459279
22.425373 -63.747097 116.8556 8092019
21.775379 -63.476128 116.68048 8354934
22.38928 -63.066872 117.10777 8092019
21.656698 -62.639217 116.95858 8354934
21.426912 -61.684952 117.23476 11314846
20.790232 -61.652946 116.97137 12169894
21.28787 -60.911964 117.47897 10985881
20.608612 -60.664593 117.34869 11379865
19.944262 -60.33474 117.29283 7564901
20.478411 -59.922119 117.86326 7564901
19.751272 -59.708008 117.73553 8814710
18.896675 -59.253765 118.00957 11775137
18.70178 -59.047302 118.62695 7564651
17.847633 -59.015572 118.36355 7893615
16.9286 -58.855686 118.92624 8354164
16.028162 -58.852879 119.36973 7630442
15.021055 -58.853561 119.49882 8550769
14.296907 -58.85276 120.04594 8222065
13.374914 -58.852566 120.45634 7564651
12.199568 -58.853001 120.7336 9932937
11.540808 -58.852303 121.22167 10458507
10.534559 -58.852551 121.50416 9537407
9.533392 -58.662071 121.89289 9867143
8.8379383 -58.318657 121.8096 7564651
9.3831005 -57.761654 122.26543 9012603
8.6950932 -57.524162 122.06055 8881018
9.2813854 -57.054729 122.49973 9341571
8.57057 -56.633141 122.35743 8551800
8.0826054 -56.200207 122.31591 7564651
8.4761372 -55.731285 122.67061 9341571
7.7935281 -55.586586 122.43085 10656658
7.5879884 -54.633701 122.71503 13155762
6.9080911 -54.431602 122.49895 12432039
7.6092401 -53.708263 123.087 12432039
6.9593415 -53.616833 122.84054 10984594
6.7114739 -52.662361 123.10696 6511186
6.0380273 -52.426254 122.90697 5392706
6.5567193 -51.796974 123.37893 5590085
5.9433198 -51.570663 123.20119 5589829
5.794188 -50.622929 123.50785 6050380
5.1598496 -50.587452 123.24626 6445138
5.6289659 -49.743389 123.78079 7234654
5.0235467 -49.583759 123.58044 9208699
4.9130692 -48.638134 123.90305 8879734
4.2808137 -48.455231 123.7001 10393229
4.7453446 -47.762119 124.17353 11839651
4.1236062 -47.547504 123.98761 9011320
3.9735398 -46.675762 124.26407 8024681
3.2942338 -46.371353 124.08836 8485231
3.8054719 -45.840321 124.53249 9537662
3.046515 -45.579521 124.38473 10589580
2.9105096 -44.903069 124.85542 12431013
2.148169 -44.539021 124.88776 10524303
1.4087815 -44.206089 125.20168 8485751
0.90733194 -44.066021 125.46828 9472388
0.28230903 -43.949635 125.60104 10853525
-0.65955496 -43.857731 126.03851 12431013
-1.5768371 -43.850937 126.51434 10194567
-2.6438727 -43.852104 126.49543 8156785
-3.2810035 -43.849915 127.50239 7827822
-4.356256 -43.851131 127.46861 8683128
-5.3003898 -43.850746 127.95115 8682867
-6.0956931 -43.850204 128.43382 8682867
-7.1787124 -43.851501 128.3763 8485489
-8.1004009 -43.781075 129.43733 8089963
-9.0250683 -43.57272 129.44218 9076600
-9.7418957 -43.356281 129.37857 8485231
-9.0781193 -42.635349 129.79245 9603200
-9.9195766 -42.554974 129.63466 8156523
-10.547728 -42.212379 129.62111 6511954
-9.8340054 -41.634033 129.99348 9209212
-10.79019 -41.522552 129.82164 6511954
-10.073095 -40.85376 130.22815 7564648
-10.795645 -40.585644 130.16611 8024939
-11.533476 -40.429016 130.05954 7893355
-10.856726 -39.777805 130.4511 8682616
-11.76985 -39.55584 130.32921 8551028
-10.958849 -39.018711 130.70966 11379609
-11.748343 -38.673473 130.66081 10129800
-12.607382 -38.565903 130.50832 8682357
-11.856615 -37.794785 130.96233 11379609
-12.717367 -37.688065 130.80913 9998215
-13.508883 -37.346233 130.75856 9143166
-12.634058 -36.775337 131.16617 9537666
-13.496336 -36.670429 131.01195 9011580
-12.832548 -35.986 131.41437 10261132
-13.63246 -35.782703 131.31059 8288114
-14.359793 -35.572014 131.2258 7827564
-13.696581 -34.83783 131.64655 8682616
-14.48926 -34.70784 131.51718 8946297
-15.189653 -34.435585 131.46121 9735555
-14.567675 -33.705566 131.87123 9538176
-15.361971 -33.565086 131.74539 9735555
-14.629496 -32.851376 132.17404 9735555
-15.464525 -32.561695 132.09445 9867141
-16.299578 -32.414742 131.96191 10655885
-15.501493 -31.614956 132.43721 10787985
-16.377439 -31.503809 132.28221 8879221
-15.65896 -30.906054 132.66472 10787723
-16.411749 -30.648705 132.62669 9734782
-17.348455 -30.450018 132.5403 10129029
-17.238585 -29.839149 133.02591 9932160
-18.200785 -29.58923 133.01295 7629668
-18.967333 -29.347752 133.03566 9931137
-19.060812 -29.138868 133.68509 9602429
-20.017496 -29.007372 133.91519 7892325
-20.92552 -28.918957 134.0173 8484461
-22.112249 -28.847719 135.18808 6182222
-22.926497 -28.848959 135.05153 5919050
-23.577265 -28.849955 134.93919 5919050
-25.682135 -28.848305 136.29402 7761762
-26.503019 -28.849609 136.13661 9734779
-28.498541 -28.847761 137.52153 11117721
-29.326696 -28.849119 137.34691 9406591
-30.491449 -28.800505 138.69746 8616819
-31.185175 -28.641615 138.66016 9932935
-31.865763 -28.65377 138.56241 9208443
-31.349569 -28.017756 138.86485 9866887
-31.805899 -27.72908 138.90741 9406078
-31.929495 -26.857153 139.20804 10262156
105.77808 -77.335396 83.161507 13550517
105.11493 -77.437439 83.667427 10393486
104.38345 -77.344406 84.322029 9077369
103.65279 -77.25499 84.974327 9998216
106.83123 -76.342476 82.748405 10985364
106.05434 -76.697243 83.23053 11511450
105.32506 -76.710022 83.833664 9735300
104.60943 -76.666878 84.451653 8682100
103.87807 -76.906258 84.950005 10261132
108.43297 -75.305611 82.126747 8682867
107.83025 -75.364403 82.571259 8880246
107.10609 -75.594177 82.983467 8880251
106.2853 -75.722397 83.558342 9406593
105.4571 -75.854317 84.144905 8814199
111.70042 -74.19754 81.063698 10063745
110.83752 -74.276695 81.45871 9603453
109.89506 -74.444023 81.890404 9274744
109.00053 -74.666222 82.33152 9077369
108.18244 -74.7145 82.934975 9011577
107.31769 -74.927505 83.433784 8617080
106.75694 -75.108932 83.721062 8419958
121.63779 -73.861931 77.369148 8682867
120.89903 -73.862488 77.443672 11314583
120.15485 -73.861526 78.057983 13288371
119.14891 -73.862686 78.015839 10919826
118.22604 -73.861908 78.635246 8551542
117.39529 -73.861443 79.104141 9735812
116.31209 -73.862328 79.18895 8813943
115.5709 -73.861435 79.773033 9143163
114.47872 -73.881653 80.134621 9142906
113.52416 -73.979317 80.363541 10589838
112.79842 -74.010139 80.913017 10326667
112.01125 -74.027725 81.495537 9274487
110.81893 -74.131905 82.062775 9669503
26.393856 -68.796387 116.58757 12301226
25.660898 -68.524071 116.37701 14406603
25.554369 -67.785744 116.62176 15130326
24.899399 -67.426712 116.47913 14472396
25.576616 -67.113159 116.89623 15130326
24.856302 -66.61557 116.77988 15130582
24.613081 -65.683922 117.04134 13419963
23.964417 -65.635826 116.77906 12630448
24.494955 -64.740112 117.36176 13551549
23.779772 -64.621384 117.09847 12038311
23.773706 -63.753098 117.43778 10459023
23.081976 -63.521114 117.22924 8090734
23.668764 -63.095493 117.6512 8089963
22.908743 -62.57933 117.525 8157555
22.784502 -61.647522 117.83807 9867914
22.083298 -61.58234 117.55974 8092019
22.009932 -60.656105 117.95632 8881278
21.242422 -60.434948 117.77113 10064519
21.748981 -59.92614 118.40787 9538950
21.01483 -59.70863 118.28003 7564901
20.156761 -59.249672 118.55856 7564901
19.966145 -59.041008 119.18093 5657419
19.250286 -59.019627 118.9437 8551541
18.295238 -58.857994 119.3922 8946301
17.42938 -58.849792 119.94329 7827822
16.417463 -58.850441 120.08456 8814713
15.436451 -58.850368 120.47098 8156785
14.625971 -58.849472 121.0862 8156269
13.604486 -58.850201 121.20381 7563618
12.768068 -58.849712 121.68351 7037274
11.778215 -58.849361 122.17122 9538433
10.82873 -58.598488 122.51369 9670019
10.163588 -58.325199 122.38204 12959409
10.644056 -57.795639 122.79899 8354159
10.017866 -57.547871 122.62492 9143935
9.9374714 -56.644409 122.94588 8486262
9.2950726 -56.589535 122.68881 9341571
9.7547131 -55.648884 123.25824 10065037
9.0829716 -55.66544 122.95998 9736072
8.8881893 -54.694233 123.25605 11445917
8.2818394 -54.374069 123.11817 10260871
8.8402729 -53.622482 123.65527 8353646
8.2155247 -53.6376 123.37801 8089960
7.9917245 -52.692703 123.65112 7958375
7.2582078 -52.330566 123.47446 8089960
7.9610581 -51.835072 123.97392 7103323
7.2462792 -51.626198 123.74535 7169116
7.0711465 -50.697479 124.03327 6510930
6.3786645 -50.482559 123.8167 5392706
6.9275117 -49.880417 124.29112 5590596
6.3349442 -49.582172 124.15063 5853512
6.1896234 -48.702007 124.43247 5722182
5.4969125 -48.493404 124.21336 8287341
6.0436349 -47.88821 124.688 5919050
5.4504495 -47.595531 124.54509 6576980
5.2747331 -46.714367 124.81411 7169117
4.6095643 -46.516018 124.60293 8287341
5.0261941 -45.914169 125.01978 5919050
4.4304185 -45.5839 124.97733 7564130
3.7129846 -45.362823 124.82369 9537662
4.1303163 -44.965912 125.3319 8090987
3.4488664 -44.614017 125.36731 8288109
2.5226007 -44.230515 125.59186 8879991
2.5327363 -44.071583 126.14092 8353905
1.6217408 -43.931442 126.25356 7762030
0.70988703 -43.848518 126.52529 8485751
-0.28239587 -43.848831 126.78127 11313047
-1.1298537 -43.847553 127.54227 10720910
-2.2055297 -43.848724 127.52657 9537151
-3.154161 -43.846825 128.54344 9341057
-3.9284186 -43.847694 128.521 10262156
-4.8574538 -43.848759 128.4881 10656399
-5.8348289 -43.846909 129.49974 8682867
-6.8272948 -43.6418 129.77025 8682611
-7.6828399 -43.502659 129.74019 8484721
-8.3545818 -43.257401 129.72411 8089963
-6.8095984 -43.010853 130.15926 10853777
-7.6357284 -42.682632 130.09628 9471359
-8.4963322 -42.551418 129.953 8945015
-7.7687888 -41.819744 130.38564 9932166
-8.5930767 -41.627434 130.2726 11116439
-9.335844 -41.307098 130.22511 13550517
-8.6245975 -40.770977 130.58279 10261645
-9.5113544 -40.584351 130.4534 8946302
-8.7512264 -39.898785 130.87784 8090995
-9.5360241 -39.708275 130.77266 9735303
-10.425989 -39.462254 130.66455 8090995
-9.5926418 -38.814201 131.09145 9472388
-10.45912 -38.689487 130.94362 9537924
-9.7378292 -38.107502 131.32092 9867145
-10.475946 -37.832905 131.25745 11511709
-11.315519 -37.642105 131.14014 13551031
-10.635988 -36.879463 131.57512 10787473
-11.373465 -36.746117 131.45937 10787472
-12.082521 -36.539951 131.377 9537408
-11.465563 -35.814892 131.78397 8813941
-12.210783 -35.588715 131.70093 9406337
-12.956812 -35.450905 131.58495 10261132
-12.331533 -34.59795 132.04123 8748918
-13.18767 -34.526573 131.87595 9143166
-12.391893 -33.70937 132.35716 9538945
-13.186045 -33.527641 132.24666 9275517
-14.087111 -33.291161 132.13251 8946296
-13.323717 -32.670151 132.53371 8748916
-14.172293 -32.478207 132.41486 9867141
-13.405058 -31.920038 132.79367 9209467
-14.112375 -31.614063 132.74867 9341053
-14.950865 -31.455915 132.61949 9932934
-14.291834 -30.828676 132.99962 10130569
-15.106955 -30.603809 132.93591 13090739
-15.859552 -30.285824 132.97729 12432804
-15.250822 -29.998734 133.33093 14077885
-16.010145 -29.687735 133.40933 11445653
-16.972445 -29.350788 133.61018 9208435
-17.938128 -29.146587 133.8857 6446162
-18.027029 -28.93589 134.54274 6248783
-18.832937 -28.930405 134.3992 8089963
-19.477243 -28.926439 134.28311 9010550
-20.64467 -28.84553 135.42102 5393730
-21.460314 -28.846743 135.29362 6510930
-23.378996 -28.844721 136.71016 6971994
-24.366823 -28.846247 136.53635 7038042
-26.340578 -28.844282 137.95296 5920074
-27.171331 -28.845612 137.79091 6972509
-27.835348 -28.846684 137.6581 10262156
-28.976213 -28.606255 138.97603 5130309
-29.825277 -28.619112 138.8549 5920082
-30.518526 -28.45949 138.81795 5920082
-29.19787 -27.926645 139.19318 5920082
-29.891722 -27.766052 139.15649 5920082
-30.820299 -27.731838 139.04158 7893613
-30.06748 -26.9701 139.42232 8090991
-30.825369 -26.753298 139.39729 6840668
-31.584703 -26.536821 139.37196 7366752
-30.841612 -25.838001 139.72844 6182223
-31.764669 -25.737932 139.63834 6379601
-31.728674 -24.780756 139.99188 6050636
-32.222019 -24.366888 140.07498 7366752
-31.92037 -23.843967 140.30684 7366752
-32.279346 -23.676455 140.31859 6840408
103.04441 -77.18306 85.516273 9538176
104.25404 -76.325912 84.908684 8813686
103.59846 -76.560509 85.345985 10393229
102.76427 -76.729675 85.963264 9603969
102.0519 -76.697502 86.573349 9669506
101.41738 -76.878212 87.018387 9010808
105.50692 -75.378563 84.495979 8353392
104.6904 -75.508331 85.068062 8550514
103.83385 -75.654366 85.66478 9603458
103.04188 -75.876114 86.141838 8682867
102.37646 -75.986382 86.636383 9538176
109.18815 -74.206886 83.112495 9340286
108.42953 -74.249519 83.568855 9340286
107.41306 -74.440346 83.974968 9012093
106.5721 -74.663803 84.360359 9012093
105.78395 -74.749519 84.891624 7958893
104.94643 -74.833382 85.506111 9142651
103.93879 -75.136391 86.045502 9537409
122.19295 -73.859169 78.136841 10261641
121.38482 -73.859543 78.306702 11840927
120.69686 -73.85878 78.824699 13485752
119.49223 -73.859352 79.065514 9077884
118.65551 -73.858879 79.540962 8354164
117.81645 -73.858421 80.008591 10723219
116.72398 -73.859337 80.088364 9802373
115.79468 -73.85862 80.684921 9407359
114.96027 -73.858215 81.133827 9275260
114.0553 -73.858635 81.318741 10195338
113.1348 -73.863647 81.899284 9208699
112.01778 -73.886734 82.161613 9142901
111.25166 -73.935951 82.591133 9669503
110.38686 -74.024467 82.858055 9274487
109.48705 -74.038498 83.548447 9077369
108.29845 -74.147568 84.092522 9734788
108.07516 -74.133217 84.336456 9341057
27.815325 -69.387962 116.97083 9210491
27.174698 -69.193001 116.76982 8682867
27.702972 -68.868484 117.12685 8486000
27.004759 -68.593536 116.9324 8814709
26.82786 -67.720253 117.19959 9077625
26.194067 -67.485489 117.01731 13748672
26.112831 -66.629967 117.31896 10327692
25.946205 -65.670021 117.62475 8814453
25.283743 -65.595589 117.36686 12762034
25.79505 -64.785614 117.90751 9209211
25.100939 -64.577522 117.68852 11643553
25.042116 -63.720436 118.00052 9471872
24.368565 -63.554802 117.77377 10392973
24.96471 -63.130089 118.19947 8089963
24.196894 -62.608265 118.07207 8353135
24.074787 -61.671928 118.38786 9011577
23.409489 -61.583752 118.13413 11249053
23.294127 -60.670856 118.50318 10919830
22.48085 -60.348267 118.37817 8092019
23.034733 -59.934849 118.95526 7367264
22.293709 -59.713535 118.8271 7828330
21.431101 -59.247791 119.10604 7367780
21.395897 -59.053921 119.74335 7039331
20.617449 -59.015438 119.53613 5460298
19.566172 -58.853729 119.96336 7762283
18.700933 -58.846794 120.53071 7564651
17.684015 -58.847424 120.68266 7564651
16.700743 -58.847313 121.08199 9077884
15.900667 -58.846809 121.55341 8025200
14.864592 -58.84708 121.83924 7564136
13.865786 -58.847046 122.21822 7563618
13.184492 -58.846058 122.81818 7168860
12.122774 -58.579052 123.07922 7038299
11.397177 -58.420551 122.87946 7170141
12.045721 -57.766693 123.41831 7170141
11.370378 -57.614552 123.1853 7170141
11.206194 -56.667557 123.487 7564899
10.532076 -56.519535 123.25291 9341571
11.022699 -55.832535 123.73632 9735814
10.460047 -55.583706 123.58997 9867657
10.27965 -54.749439 123.83879 9341057
9.5871563 -54.540058 123.62006 10262415
10.121458 -53.844357 124.12481 7366239
9.4210224 -53.612732 123.91132 7958890
9.4071064 -52.771206 124.23512 6642516
8.6936512 -52.378487 124.07917 7563619
9.2007046 -51.821251 124.51774 6445394
8.4750004 -51.546429 124.3103 6510931
8.3756695 -50.729252 124.58742 5919050
7.7137361 -50.347385 124.44957 5196094
8.3212376 -49.805008 124.92605 5656133
7.5669808 -49.570068 124.69048 4867385
7.4520631 -48.682453 124.98846 4867385
6.7270684 -48.382229 124.79119 5196094
7.4362473 -47.801392 125.32686 5262143
6.6817575 -47.57333 125.08858 5721926
6.5135827 -46.683659 125.36425 6577236
5.737185 -46.32848 125.16625 5919050
6.4668641 -45.874626 125.66102 6906713
5.7435899 -45.607304 125.52656 5919562
4.9412255 -45.24987 125.44887 5919050
5.5674691 -44.991489 125.93327 6380625
4.7942376 -44.598114 125.95353 8617075
4.058146 -44.219471 126.28345 9209211
3.6104836 -44.066891 126.6158 10195849
3.0312486 -43.977798 126.67457 9143420
2.0169702 -43.855778 127.31123 9077886
1.0217004 -43.845299 127.54589 9472388
0.099577405 -43.846252 127.54877 10918547
-0.8305068 -43.844288 128.58215 10326153
-1.7600226 -43.845287 128.57161 9931395
-2.5346084 -43.846138 128.55786 8419958
-3.493505 -43.844215 129.58664 9341057
-4.586328 -43.845459 129.55147 9406848
-5.3783393 -43.59478 130.19839 9143417
-6.2825294 -43.461472 130.11031 9406333
-5.5148444 -42.863899 130.50757 10459020
-6.3499274 -42.650913 130.39526 11972001
-7.1343856 -42.358311 130.32808 9932166
-6.366075 -41.821293 130.69923 13485754
-7.2025084 -41.611958 130.58951 10326924
-6.4341521 -41.009987 130.98477 12433069
-7.2901435 -40.709076 130.90462 9142650
-8.1104221 -40.562759 130.77521 8681843
-7.3709311 -39.706493 131.25826 7761253
-8.1602268 -39.677006 131.09241 8814200
-8.2698345 -38.686512 131.43509 8024427
-9.0088558 -38.590816 131.30504 9669765
-8.3887157 -37.733608 131.76178 7037274
-9.202776 -37.622402 131.62067 9011577
-9.8638058 -37.358658 131.57036 9537665
-9.2425861 -36.575222 131.99995 9340541
-10.096323 -36.562939 131.81332 9669762
-10.736937 -36.157825 131.82002 9406590
-10.011019 -35.572319 132.19971 9406590
-10.970266 -35.404804 132.047 7695972
-10.253973 -34.7883 132.43599 8419695
-10.988642 -34.52224 132.37007 7498593
-11.738829 -34.368271 132.25916 8420208
-10.993521 -33.727638 132.66359 8090986
-11.873667 -33.492912 132.55347 8814966
-11.154188 -32.944035 132.91817 8814966
-11.912668 -32.630463 132.8645 9538945
-12.752935 -32.449997 132.74321 9078394
-12.019674 -31.699219 133.18582 9670531
-12.899782 -31.582659 133.03191 9670274
-12.858835 -30.692963 133.39204 13091254
-13.737032 -30.594419 133.24715 10788499
-14.429831 -30.311562 133.26714 13551549
-13.752619 -29.840363 133.77867 11511966
-14.716974 -29.597052 133.79539 12564394
-15.643904 -29.212221 134.17131 13090734
-16.493017 -29.158239 134.1384 10787723
-16.412973 -28.948935 134.82401 9997951
-17.381834 -28.940792 134.65619 7629668
-18.520475 -28.842434 135.72981 5393730
-19.338037 -28.843613 135.61487 5722438
-19.991625 -28.844566 135.51978 8681835
-21.234354 -28.841486 137.06146 6445903
-22.059793 -28.84272 136.92987 6050891
-22.884584 -28.843966 136.79422 5392706
-24.842688 -28.84193 138.23151 8156522
-25.67518 -28.843231 138.07881 7169626
-26.880213 -28.635525 139.25287 6314580
-27.693296 -28.564423 139.16722 5130308
-28.467024 -28.598993 139.04851 4340793
-27.604128 -27.783354 139.46397 6577751
-28.530455 -27.746492 139.35033 6248789
-29.23683 -27.414469 139.37434 5920082
-27.912336 -26.88372 139.74937 10261132
-28.606707 -26.721302 139.7133 10130313
-29.536505 -26.684973 139.59903 8946298
-28.670332 -25.865 140.01646 10261641
-29.489202 -25.735317 139.95137 10064520
-30.414267 -25.45933 139.92503 7432804
-29.551317 -24.787832 140.28795 10261641
-30.475183 -24.685564 140.1985 6906968
-31.175932 -24.523352 140.16144 5919050
-30.377756 -23.735533 140.55791 7433823
-31.366423 -23.586121 140.47673 6446929
-30.61088 -22.960724 140.80815 6512978
-31.32884 -22.623882 140.83235 7039065
-32.192745 -22.636089 140.70938 6775128
-31.509241 -21.816626 141.10165 9932932
-32.152313 -21.550085 141.11052 6182993
