# .PCD v0.7 - Point Cloud Data file format
VERSION 0.7
FIELDS x y z rgb
SIZE 4 4 4 4
TYPE F F F U
COUNT 1 1 1 1
WIDTH 1216
HEIGHT 1
VIEWPOINT 0 0 0 1 0 0 0
POINTS 1216
DATA ascii
171.00694 -39.473106 23.939348 7959403
171.0397 -39.5144 24.993591 9209211
169.45325 -38.533016 4.2145629 8616307
169.5849 -38.699848 5.0747104 7958120
169.75703 -38.834145 6.0608344 10853268
169.99014 -38.807373 7.0518661 11116696
170.21344 -38.7341 7.922605 7958376
170.42497 -38.793346 8.9599228 9142394
170.60371 -38.846569 9.9981937 8287341
170.62556 -38.909042 10.946218 8155756
170.69168 -38.850338 11.939632 8813427
170.78578 -38.709648 12.895601 9603198
170.82283 -38.736244 13.931414 9142388
170.8595 -38.764107 14.968609 10326660
170.8752 -38.84325 15.953655 12300451
170.94989 -38.762497 16.960793 10722450
170.95995 -38.849281 17.881481 10854036
171.0359 -38.762737 18.870321 9603456
171.10483 -38.710575 19.979374 14077885
171.1214 -38.784477 20.941381 10063744
171.18416 -38.737225 21.952778 8946295
171.20015 -38.813457 22.918158 7039331
171.23358 -38.852863 23.971752 9275263
171.31337 -38.770939 25.076477 11774624
171.36858 -38.719879 25.885244 9209211
171.401 -38.762939 26.945616 9669249
171.43304 -38.807316 28.008249 9405820
171.53448 -38.635979 28.873192 8747891
171.56586 -38.682697 29.941006 6512722
171.58766 -38.503311 31.009291 7367519
169.02771 -37.332363 0.34285122 9735043
169.15468 -37.360687 0.9532333 10853012
169.29083 -37.611126 1.9715858 10260875
169.42682 -37.863255 2.9916148 8682100
169.66943 -37.796021 3.9582839 9603202
169.9258 -37.764748 5.0449271 7958377
170.09526 -37.807892 5.8689151 8485235
170.30734 -37.863068 6.9017978 10786959
170.51955 -37.919636 7.9375854 7564132
170.6552 -38.181763 8.9726315 9997703
170.86711 -38.255512 11.044706 8089963
170.89745 -38.274673 11.872046 8353134
171.1366 -37.925907 14.371935 8089186
171.15875 -37.94252 14.995602 10655625
171.18797 -37.965305 15.828035 8681835
171.26532 -37.895088 16.978218 10262156
171.33516 -37.819916 17.921669 10262156
171.37061 -37.852085 18.967653 9603714
171.40573 -37.885525 20.015326 14078918
171.509 -37.706608 20.864262 9603198
171.54364 -37.742355 21.916063 8420210
171.57797 -37.779335 22.969774 8485746
171.58638 -37.872501 23.9018 10064264
171.68205 -37.730953 24.87845 11182486
171.74783 -37.682613 25.9436 9209467
171.77422 -37.716057 26.793554 7958377
171.80682 -37.759106 27.858345 8089962
171.83905 -37.803459 28.925375 10327431
171.85315 -37.887226 29.906729 6512978
171.84119 -37.833015 30.927801 7170651
171.69926 -37.885197 31.883512 9406078
171.73257 -37.409096 32.959568 13024944
168.86157 -36.426949 -1.889503 8223348
169.03069 -36.635487 -0.79433101 9143422
169.21077 -36.717285 0.14039761 9077886
169.38043 -36.754292 0.95503575 10853779
169.59262 -36.801811 1.9757819 9932164
169.80489 -36.85059 2.9991412 9537152
170.06207 -36.816608 4.0852084 9997960
170.22995 -36.952267 5.054647 9997960
170.36055 -37.058819 5.8103061 9143164
170.49402 -37.241352 6.7044482 7828332
171.9081 -36.980858 23.857193 13155506
171.94211 -37.019497 24.916899 10524813
171.97574 -37.059391 25.978642 9208956
172.05527 -36.956306 26.908958 8090479
172.11151 -36.926319 27.908607 9406079
172.14418 -36.969685 28.977627 9340793
172.21722 -36.881882 29.88578 7894117
172.21185 -36.828072 30.910118 8419950
172.07262 -36.838791 31.95397 9143166
171.9754 -36.779129 32.863827 10327180
171.89682 -36.610435 33.935642 8222061
171.8544 -36.452526 34.701023 7761253
168.7355 -35.538582 -3.9160542 12629674
168.90547 -35.74321 -2.8235192 11314586
169.08612 -35.82169 -1.8915143 9143935
169.25627 -35.855831 -1.0796304 8223091
169.51341 -35.815468 -0.0039886832 9274749
169.75728 -35.742153 0.95799023 9800829
169.94087 -35.836811 1.9295268 9340278
170.10791 -36.039047 3.0051665 9209209
170.20255 -36.281452 3.8255839 10261132
172.44847 -35.831341 31.896223 7432807
172.33372 -35.799656 32.861736 7301221
172.19223 -35.812096 33.90884 8682869
172.05019 -35.82563 34.956673 8485232
171.97057 -35.766281 35.730858 8485232
168.47919 -34.636131 -6.5441222 10788244
168.60719 -34.657509 -5.9404054 10261899
168.74606 -34.895672 -4.9304271 11051160
169.03391 -34.73193 -3.9223809 14603213
169.24736 -34.771034 -2.9097896 12761521
169.46088 -34.811348 -1.8949599 8748662
169.63181 -34.844563 -1.0812268 8288626
169.79187 -34.94907 -0.19780391 9011835
170.01646 -34.922295 0.7556892 9932416
172.55835 -35.169697 32.90517 8090736
172.52611 -34.900589 33.903706 9997959
172.46449 -34.719719 34.880077 7367007
172.31029 -34.785725 35.874523 8485233
172.19298 -34.747608 36.87775 8879221
172.13275 -34.535419 37.930946 9340027
168.23917 -33.324207 -9.7757874 8089963
168.36859 -33.512333 -8.8906708 8945271
168.51486 -33.704113 -7.9242616 8945783
168.69067 -33.81673 -6.9576659 9932934
168.90466 -33.851261 -5.9502873 10261899
169.11868 -33.887119 -4.9405484 10590865
169.40753 -33.721992 -3.9302325 11906468
169.57901 -33.752281 -3.1186357 12300970
169.71835 -33.993938 -2.1010995 10195334
172.72429 -33.932007 35.095657 6511954
172.68509 -33.732185 35.953716 9340027
172.5705 -33.743988 36.796852 8353135
172.4267 -33.759777 37.851658 8879734
172.28239 -33.776627 38.907383 8682355
172.27051 -33.576046 39.558811 7958632
168.22992 -32.646725 -10.910837 11115409
168.41785 -32.714542 -9.9887438 8484463
168.63263 -32.744656 -8.9852476 8353135
168.8474 -32.775894 -7.9798503 9340030
169.06221 -32.808331 -6.9722314 10984848
169.27707 -32.841885 -5.9626613 10130055
169.45982 -32.91433 -5.0313411 10919830
169.63202 -33.11507 -3.9350009 10262156
172.88167 -33.10186 36.212257 9340027
172.83612 -32.970715 36.926846 9340027
172.79048 -32.755177 37.878113 9537664
172.69151 -32.657547 38.907391 9603713
172.54173 -32.733318 39.840576 8156011
172.44754 -32.629639 40.850445 11972771
172.42976 -32.34322 41.786427 14209730
167.99731 -31.593552 -12.599756 9537664
168.15839 -31.829926 -12.002134 9142392
168.49301 -31.879364 -11.008632 10589322
168.71362 -31.908529 -10.005726 8945014
169.00327 -31.736006 -9.0042696 8879479
169.1445 -31.968403 -7.9932818 9537409
169.30119 -32.098026 -7.0835586 9603199
169.45778 -32.228523 -6.1724982 10590091
173.01047 -31.764585 38.964813 7958888
172.91766 -31.673611 39.928539 7958632
172.80127 -31.68778 40.778446 11249817
172.65532 -31.706484 41.84193 10920853
172.54366 -31.653988 42.841923 10065801
168.0188 -30.331434 -14.022669 7038307
168.22035 -30.7271 -12.971499 10524047
168.56757 -30.830236 -12.030441 10391944
168.85187 -30.923317 -11.082298 10523273
169.00989 -31.10124 -10.022728 9076600
169.21375 -30.916117 -9.422802 9011065
173.14359 -31.036648 39.981464 9998984
173.10255 -30.837894 40.850506 10723730
172.95317 -30.89716 41.826885 10263180
172.88832 -30.73514 42.928734 10526351
172.80283 -30.684374 43.865292 9605250
172.77469 -30.490383 44.744678 9342077
172.77512 -30.301788 45.633678 9210491
167.66763 -29.45657 -16.633047 10261132
167.90669 -29.589472 -15.740469 9997960
168.17165 -29.727877 -14.848351 8419701
168.4738 -29.768177 -14.059034 7301479
168.73758 -29.908604 -13.16258 8484980
173.3011 -30.237593 42.000828 14209730
173.20908 -30.248159 42.640854 14143167
173.35414 -29.864582 43.785542 10197130
173.3499 -29.682096 44.896122 9473151
173.17593 -29.740662 45.875122 9538431
173.0853 -29.679867 46.922909 10328458
173.06003 -29.538143 47.946514 10853262
172.96463 -29.55146 48.593079 10853262
173.1698 -29.250612 51.363415 9538176
166.85439 -28.716654 -27.760557 8420208
167.39931 -28.525427 -26.900732 9604738
167.63481 -28.804228 -26.236698 9736323
167.35251 -29.053268 -20.668337 10062979
167.59789 -29.078348 -19.88154 8748147
167.90338 -29.110321 -18.895884 12432552
168.20743 -29.143053 -17.907602 12827311
168.50999 -29.176542 -16.916794 10788500
173.80058 -29.196392 47.930477 8682608
173.64505 -29.20928 48.788036 8682608
173.44867 -29.226017 49.860592 6511954
173.28983 -29.23987 50.719166 8617075
174.07307 -28.951639 51.864292 8617075
173.88838 -28.962725 52.721691 10195594
173.56242 -28.961893 53.764698 8682867
174.62334 -28.941385 59.685131 7630187
174.2561 -28.940657 60.732521 9998732
174.03275 -28.940224 61.359932 13024949
175.24718 -28.933167 66.828293 11840675
174.99211 -28.838978 67.940468 9275004
175.23512 -28.562326 68.766304 8484976
174.86166 -28.569517 69.836983 9471615
161.11113 -27.460386 -100.50181 10129798
161.68919 -27.475977 -99.788795 10524039
166.78119 -27.556309 -28.778545 7170141
167.06685 -27.95327 -27.95001 8551794
167.57329 -27.815741 -27.12133 9538944
175.41321 -27.961115 68.918297 9011576
175.16449 -27.890921 69.714508 8681843
174.86513 -27.897026 70.572388 9274236
174.86819 -27.223717 71.309807 8287859
160.9808 -26.784491 -101.22652 9077627
161.45049 -26.88747 -100.80255 10129801
161.97047 -27.362915 -97.833031 9537659
161.92184 -27.276468 -96.749428 9274747
161.86981 -27.190527 -95.670418 8682867
161.81438 -27.105146 -94.596085 11379607
161.75568 -27.020378 -93.526321 11379607
161.6936 -26.936062 -92.461121 11511196
161.64507 -26.87322 -91.665138 7038307
161.61151 -26.831493 -91.135948 7038307
166.7292 -26.609377 -29.59514 6511954
167.04791 -26.850798 -28.824045 7038298
167.5425 -26.901585 -27.873907 9274748
167.76308 -27.13496 -27.289629 9736323
175.46985 -26.874023 69.959747 9866371
175.24551 -26.765978 70.727394 10063495
174.99138 -26.501598 71.754471 8485238
161.09293 -25.868784 -101.56728 8551799
161.6727 -25.902008 -101.12145 9537923
163.36501 -25.900232 -80.856415 9210491
163.2514 -25.82176 -79.830193 10854035
163.1349 -25.743752 -78.808502 9866628
163.0157 -25.666349 -77.79126 7564643
162.89362 -25.589354 -76.778542 8156526
166.67389 -25.489347 -30.5497 8485752
166.93475 -25.792635 -29.838013 8024942
167.38576 -25.888721 -28.933645 8485233
167.67319 -26.284716 -28.102499 9011320
175.57634 -25.708334 70.944237 12299684
175.32594 -25.638281 71.744873 9208703
175.02464 -25.644979 72.607323 7630187
160.81175 -24.929399 -102.20132 8551543
161.39175 -24.961126 -101.75606 8880507
164.37524 -24.868607 -68.751274 5393738
164.26672 -24.815392 -68.01458 5393738
164.08258 -24.727339 -66.791939 6446682
163.89468 -24.639944 -65.575417 7368552
163.78008 -24.587793 -64.848564 8684155
166.50151 -24.499563 -31.621683 16249831
166.82077 -24.736717 -30.852327 11380898
167.31569 -24.781673 -29.905525 9603458
167.53703 -25.01185 -29.322443 7761509
175.58038 -24.805054 71.932365 8485237
175.32915 -24.735081 72.734848 7564649
175.07748 -24.665506 73.537964 8156780
161.00571 -23.938271 -102.50578 7959408
161.49724 -24.041071 -102.09409 7631211
165.01598 -24.009943 -58.793232 7563618
164.78508 -23.936354 -57.824234 10195594
164.55215 -23.863331 -56.859932 9340802
166.40941 -23.657619 -32.433163 9210491
166.6301 -23.88475 -31.853186 13617600
167.12505 -23.92729 -30.908148 9670280
167.44559 -24.164806 -30.136183 9011320
175.78461 -24.046644 72.181816 7038307
175.63432 -23.823151 72.862648 9275006
175.3317 -23.829872 73.728584 9341054
175.10449 -23.83527 74.378395 9801605
160.70816 -22.843544 -103.22243 7564651
161.29846 -22.965143 -102.72874 8419701
166.29785 -22.428083 -34.69524 9735807
166.50241 -22.64543 -33.904491 10262411
166.79549 -22.869871 -32.922588 9670532
167.08769 -23.095741 -31.939486 10788759
167.29103 -23.315737 -31.146427 11380639
175.78801 -23.139484 73.175438 8090736
175.66789 -22.77854 73.921219 7433059
175.41014 -22.693468 74.759163 8090987
175.23331 -22.394732 75.599976 7301470
160.99112 -21.775801 -103.49535 8090221
161.3195 -22.177944 -103.0694 8089963
165.92023 -21.638943 -38.581242 9341054
166.14082 -21.643112 -37.792927 10985364
166.29178 -21.772942 -36.710232 9537400
166.6035 -21.816856 -35.884769 10458502
166.75246 -22.067411 -34.996838 11709087
167.16457 -22.093283 -34.036896 10262411
175.82292 -21.591623 74.78656 9340799
175.48817 -21.553677 75.794586 9012088
175.2596 -21.559221 76.448097 10262156
160.67627 -20.524511 -104.29559 8814203
161.18483 -20.778814 -103.80267 9142395
166.68977 -21.274195 -37.495697 9208435
166.84573 -21.2766 -36.900337 9208435
175.825 -20.678459 75.790657 9012088
175.48932 -20.640533 76.801216 8617331
175.33665 -20.415688 77.490517 8090987
160.79482 -19.755234 -104.55568 9669254
161.28888 -19.853266 -104.14423 10590356
176.10121 -19.940075 75.81002 9341057
175.87253 -19.715931 76.718002 8485745
175.49004 -19.724861 77.811951 8485745
175.33688 -19.499414 78.503357 9143675
160.4937 -18.658146 -105.27598 7564651
161.10529 -18.961279 -104.68437 8814203
176.10321 -19.022305 76.819511 8617331
175.87378 -18.79756 77.73011 8748917
175.52422 -18.726919 78.757469 8551281
160.71689 -17.968069 -105.42277 8156531
161.2121 -18.064251 -105.01133 8156272
176.18179 -17.869663 77.867455 9143675
175.85742 -17.874792 78.738579 7695972
175.51013 -17.638174 79.599739 7366751
160.92299 -17.089355 -105.66859 8089963
176.20853 -17.022341 78.727402 7103323
175.86731 -16.649313 79.699287 6708309
175.49913 -16.232809 80.617134 7564651
160.87526 -15.876945 -106.35703 9998727
161.04523 -16.345999 -105.91526 9800835
176.25348 -15.776364 79.683929 6510930
175.9395 -15.541808 80.564697 7959409
175.74294 -15.309495 81.244064 9341059
160.49786 -14.505081 -108.33318 7828326
160.80493 -14.808064 -107.51521 9143675
160.93083 -15.265933 -106.85641 9472640
176.29524 -14.857592 80.986748 9341059
176.13087 -14.626725 81.683395 7959409
175.85783 -14.395401 82.588585 9077371
159.41925 -13.885862 -118.2053 9209214
159.99857 -13.897971 -117.74483 9998729
160.18596 -14.137767 -111.50497 6511954
160.71667 -14.136398 -110.73426 10853518
176.52095 -13.994273 83.945747 9340542
176.05298 -13.989343 84.764565 9341054
176.7926 -13.612736 86.971916 8814710
176.46457 -13.611608 87.603432 9143675
176.13641 -13.610682 88.234772 8486256
159.76717 -12.735836 -118.46374 6906719
160.12834 -13.257776 -117.93952 8617334
176.94798 -13.134892 87.049103 8814710
176.69727 -12.894593 87.719955 9077883
176.32149 -12.813802 88.505783 8025200
159.3627 -11.47234 -119.35393 9736067
159.87851 -11.723138 -118.84448 5920082
176.94574 -12.016092 87.933121 8485749
176.6472 -11.694978 88.759544 8485749
176.34808 -11.374096 89.586876 7367525
159.67516 -10.702717 -119.46877 9472899
160.29286 -11.003544 -118.85479 5919050
176.95818 -10.733305 88.91713 9341055
176.6777 -10.443443 89.684212 7893097
176.34369 -10.250091 90.478325 8090736
159.78073 -9.8307476 -119.78758 10065037
176.97864 -9.647047 89.730995 7563874
176.61581 -9.4047604 90.619102 8090730
159.57462 -8.8067436 -120.4129 8880765
160.16789 -8.8141451 -119.95864 8420215
176.87517 -8.6795244 90.753395 8880758
176.59639 -8.4781733 91.507759 8946297
159.34721 -7.5858564 -121.14446 9208184
159.73442 -7.8825579 -120.71442 7893357
177.0984 -7.6781721 91.770744 7497825
176.80592 -7.5164814 92.521553 7563874
176.51283 -7.3549566 93.272797 8682867
159.45932 -6.7727451 -121.43153 7037274
159.96341 -6.8586731 -121.00904 7564651
159.16801 -5.6288824 -122.21882 7564651
159.39047 -6.119689 -121.7828 7037274
170.74939 -37.308064 7.9488788 8353648
170.8856 -37.569443 8.9853039 9602944
170.97777 -37.823082 10.020998 9274236
171.03688 -37.757965 10.808577 8484720
171.12134 -37.659267 11.888151 9142391
171.15919 -37.683838 12.924721 9668734
171.20857 -37.666515 13.881033 8418407
171.30849 -37.531254 15.0091 8089186
171.33786 -37.553787 15.842268 9208695
171.36703 -37.577171 16.676464 9735812
170.45833 -36.342224 5.0619483 10261132
170.59238 -36.523056 5.9556403 9143164
170.74541 -36.7314 6.9792781 7894125
170.97954 -36.695686 7.9601283 8353648
171.15048 -36.740604 8.793457 9866371
171.32677 -36.790031 9.8357315 9866371
171.38179 -36.814983 10.87248 9011319
171.42027 -36.837818 11.909634 10195076
171.45836 -36.861858 12.948078 9734525
171.48854 -36.882023 13.779875 8616042
171.58406 -36.755234 14.87818 8089186
171.63802 -36.729881 15.870756 8682098
171.67468 -36.758629 16.91559 13287605
171.71101 -36.788639 17.961969 11643295
171.73976 -36.813553 18.800428 9735043
171.77548 -36.845974 19.850246 12236202
171.88646 -36.672695 20.91124 8353649
171.90367 -36.74614 21.878965 8419442
171.96736 -36.697712 22.896709 10392456
172.05978 -36.565826 23.878649 15194062
172.09393 -36.604053 24.93935 10524813
172.12778 -36.643505 26.002081 9208956
172.14784 -36.667763 26.640825 9208702
172.3336 -36.292511 27.732462 9208702
172.36667 -36.335037 28.802637 8353905
172.39284 -36.369907 29.660358 8288618
170.20715 -35.40126 2.3932891 9208435
170.3354 -35.429577 3.0097327 9209467
170.4305 -35.671581 3.8312678 10853012
170.6443 -35.721279 4.8627372 10261131
170.85822 -35.772202 5.8970618 11049874
171.07242 -35.824589 6.9346423 9734786
171.28674 -35.878231 7.975162 9866371
171.49606 -35.797066 8.7706547 11313815
171.62883 -35.969185 9.8538189 9537663
171.68089 -35.992878 10.892179 9011833
171.75171 -35.92701 11.933485 9603712
171.8511 -35.771851 12.889654 10063492
171.86346 -35.852348 13.810925 8813421
171.94199 -35.758675 14.798601 8484200
172.01373 -35.698471 15.906466 8485493
172.04341 -35.720722 16.744001 9011579
172.08028 -35.749741 17.792513 11116695
172.1169 -35.779949 18.842709 10656915
172.15312 -35.81147 19.894892 12104616
172.189 -35.8442 20.94883 8090479
172.21742 -35.871296 21.793493 8616822
172.31131 -35.752316 22.911907 9800579
172.36349 -35.734665 23.921696 12365989
172.39119 -35.764469 24.771503 10130055
172.42545 -35.802879 25.835871 9537921
172.45941 -35.842541 26.902428 8353651
172.56264 -35.666531 27.769978 6709341
172.59602 -35.708313 28.841625 8156530
172.62906 -35.751339 29.915651 10129801
172.6152 -35.778526 30.769415 9472127
172.60588 -35.574532 31.410681 8090736
170.03902 -34.490429 0.14292866 9603712
170.17429 -34.66354 1.029386 9669243
170.34903 -34.773235 1.9863372 9800829
170.56328 -34.819408 3.0142989 9603713
170.73486 -34.85733 3.8388133 9472383
170.99449 -34.821228 4.9323897 9932421
171.24083 -34.751389 5.9111629 9931907
171.34668 -35.043777 6.8638301 10392971
171.52568 -35.117252 7.7802272 9274235
172.21695 -35.062798 15.299545 7038307
172.23958 -35.078716 15.927933 8024943
172.26942 -35.100594 16.766582 8024943
172.3067 -35.129208 17.816519 10787731
172.41919 -34.951622 18.876566 9736071
172.44847 -34.976177 19.719629 7959919
172.48474 -35.007938 20.775213 8879737
172.56769 -34.91753 21.880962 8616822
172.65416 -34.7756 22.652058 8156269
172.73663 -34.687096 23.762892 9340281
172.77179 -34.723137 24.827236 9472124
172.78854 -34.799194 25.806227 8814456
172.85219 -34.752563 26.837038 8222064
172.86836 -34.830734 27.820044 7564392
172.88416 -34.910202 28.805059 7564651
173.00952 -34.700378 29.890869 8025201
172.99013 -34.728653 30.837341 9537407
172.83775 -34.790424 31.82955 7695721
172.81525 -34.495522 32.825684 8419444
172.77333 -34.335445 33.593365 11379356
169.86858 -33.588711 -2.1026511 9142387
170.00798 -33.831505 -1.0827661 9208180
170.22266 -33.872982 -0.06095165 10195077
170.49147 -33.795258 1.0047965 8879214
170.69855 -33.804649 1.9398456 9471609
170.94687 -33.738708 2.9338374 10327180
171.11595 -33.837658 3.8482356 9275260
171.21201 -34.0797 4.6742053 10261129
173.00763 -34.104523 25.074137 9011573
173.02863 -34.126575 25.715105 8156787
173.06343 -34.164253 26.78528 9077374
173.15132 -34.06604 27.937666 12300196
173.202 -34.025455 28.730436 9800838
173.27098 -33.957245 29.706999 7695979
173.36574 -33.676926 30.905413 8089963
173.25308 -33.684303 31.745703 8089963
173.11183 -33.694592 32.796673 8090476
172.97009 -33.705994 33.848232 9274748
172.87961 -33.611801 34.803089 6906456
169.65277 -32.688496 -4.5473075 10262156
169.8463 -32.577316 -3.8714404 10262156
169.95418 -32.739342 -3.1247582 10262156
170.16948 -32.777241 -2.1057296 9668734
170.38499 -32.81625 -1.084372 9142387
170.60062 -32.856537 -0.06026119 10457991
170.83809 -32.814747 0.92549855 11510422
171.0253 -32.793228 1.7215266 11049871
171.16191 -32.966888 2.6147132 10262667
173.47873 -33.052078 31.787718 8089963
173.41263 -32.85117 32.854542 8024425
173.2708 -32.862221 33.907978 9800836
173.15692 -32.871895 34.751286 7695972
173.04053 -32.84169 35.724918 9340027
173.05577 -32.404922 36.829296 10129541
169.36761 -31.362007 -8.0034313 9734788
169.54129 -31.557535 -6.9095016 10326919
169.68878 -31.750629 -5.9355245 10590091
169.83656 -31.91301 -5.0111527 10459020
170.10326 -31.758884 -4.0812211 10854036
170.33 -31.724468 -3.1308713 10722707
170.54633 -31.761185 -2.1095996 9866886
170.76277 -31.798977 -1.0859551 9734527
170.9035 -32.042007 -0.059679449 11642008
173.63853 -32.217583 32.897991 7761509
173.5739 -32.058018 33.838234 9011320
173.53331 -31.814844 34.827946 8879735
173.37865 -31.879848 35.828274 9603199
173.35448 -31.585506 36.835602 11116178
173.20705 -31.641258 37.806942 8617075
173.16681 -31.441607 38.672134 8353903
169.15265 -30.487373 -10.642338 9142392
169.27617 -30.502607 -10.037816 8813680
169.42667 -30.690691 -8.944396 8813685
169.60226 -30.756622 -8.0139847 8155756
169.8132 -30.786131 -7.0016675 9932163
170.0247 -30.816734 -5.9874396 11905692
170.1976 -30.842646 -5.1745057 11117208
170.41443 -30.876259 -4.1562572 10722450
170.59169 -30.976433 -3.2035193 10327693
170.7294 -31.143162 -2.3166976 9078399
173.80643 -30.970074 35.101105 7564643
173.7623 -30.837095 35.817947 9537918
173.65268 -30.778538 36.812634 10853263
173.50856 -30.792624 37.873718 8748405
173.39301 -30.804695 38.723328 9011577
173.30026 -30.71287 39.688873 9274749
169.3087 -29.536131 -12.829876 8484722
169.46764 -29.697233 -12.091473 10786445
169.51215 -29.908691 -11.072351 10260358
169.71909 -29.933372 -10.062475 7432031
169.92564 -29.959105 -9.0507278 8155752
170.13184 -29.985695 -8.0371838 8747629
170.18884 -30.203989 -7.0159307 9537147
170.39404 -30.232767 -5.9991355 10590091
170.51703 -30.250587 -5.3881459 9538176
173.90668 -30.176838 37.743023 8814198
173.90729 -29.990234 38.840267 9406079
173.81664 -29.936874 39.84586 10393486
173.78537 -29.816454 40.793545 9801605
173.75342 -29.696495 41.74345 10460046
173.6599 -29.64535 42.753845 12630186
173.6563 -29.461985 43.863228 10197130
167.94862 -28.558056 -25.803463 10065545
168.34895 -28.672718 -24.899281 10393485
168.80626 -28.724342 -23.931402 9932934
169.00409 -28.95908 -23.338387 9932934
168.8112 -29.210796 -15.92333 11511967
169.11113 -29.245808 -14.927222 8615276
169.34991 -29.274315 -14.128448 8682100
169.58778 -29.303368 -13.327745 7038307
174.48158 -29.144167 44.075916 9736836
174.37013 -29.152254 44.717907 9473151
174.18253 -29.166298 45.788151 11247252
173.99274 -29.180979 46.859013 10064006
173.87775 -29.190168 47.501846 8682608
174.86835 -28.952301 49.138203 8682608
174.68665 -28.951822 49.767757 8617073
174.37863 -28.951035 50.815636 8222573
175.47974 -28.943165 57.162529 7564651
175.26904 -28.942715 57.79438 9274751
174.98468 -28.94212 58.635609 9866631
176.04898 -28.934566 64.718933 10327951
175.78918 -28.837463 65.827248 10919830
175.98032 -28.550922 66.626305 9472383
175.6825 -28.555073 67.482124 10656657
162.01569 -27.449869 -98.921349 9340024
167.88541 -27.709257 -26.619894 10263180
168.19809 -27.812569 -25.91028 9999751
168.65552 -27.861763 -24.944098 10854036
168.94539 -28.10511 -24.157995 9932934
176.20967 -27.874311 66.713966 7696228
175.85143 -27.924149 67.693542 8748916
175.68918 -27.657133 68.458199 8748916
162.0204 -26.768194 -100.43948 9932165
162.57542 -26.95196 -99.885468 10984593
168.16869 -26.756229 -26.822001 9735299
168.58047 -26.798227 -25.968565 10524815
168.81456 -27.104097 -25.243889 10722193
176.36469 -27.197609 67.016273 5920074
176.24823 -26.838791 67.750404 7893607
175.94084 -26.817636 68.661797 9801091
175.77158 -26.531055 69.468224 10524300
162.25415 -25.935682 -100.67431 7893869
162.76114 -26.197279 -100.17921 8089963
163.88914 -26.300491 -86.055786 9208699
163.79022 -26.219383 -85.006721 10459278
163.68837 -26.138838 -83.962303 9998727
163.58348 -26.058743 -82.922501 9538176
163.47569 -25.979259 -81.887207 11315100
167.78128 -25.45496 -28.534872 10261132
167.97673 -25.810389 -27.904078 10063496
168.4362 -25.819941 -27.041924 9273980
168.79503 -25.975941 -26.208876 9010808
176.32695 -25.69523 68.79071 9866884
176.01714 -25.670172 69.71331 11970719
175.85356 -25.40222 70.482758 11707548
161.97302 -24.993248 -101.30968 7039331
162.4659 -25.098047 -100.89607 7039331
164.96121 -25.174919 -72.971901 7893615
164.8277 -25.102098 -71.971962 10853012
164.69144 -25.029737 -70.976196 9669504
164.5526 -24.95783 -69.984795 14603206
164.44678 -24.904158 -69.243813 12630444
167.86758 -24.790878 -28.881283 9208700
168.31088 -24.87467 -28.000542 8024425
168.65164 -24.977741 -27.294117 9931910
176.53265 -24.938898 69.035133 9209467
176.38394 -24.714884 69.712547 9932421
176.02261 -24.766346 70.698906 10195082
175.8582 -24.498016 71.470375 9997703
162.07974 -24.071867 -101.64742 7631211
162.6635 -24.103064 -101.19964 7039331
165.86328 -24.290207 -62.469799 9010808
165.69617 -24.233646 -61.729118 7563619
165.47156 -24.158539 -60.745678 8418927
165.24478 -24.083988 -59.767078 8418927
166.55324 -23.582712 -54.655495 10261132
166.36287 -23.528694 -53.932835 5919050
166.10756 -23.457045 -52.973351 7235422
165.85039 -23.385897 -52.018566 9406847
167.74855 -23.688227 -29.940727 8682356
168.19655 -23.811811 -29.020483 9603457
168.56026 -24.125637 -28.111044 7827047
176.53879 -24.032948 70.020416 7038307
176.3894 -23.808661 70.699593 9011323
176.08763 -23.814056 71.564537 9471617
175.93758 -23.590218 72.245171 7038307
161.87222 -22.900917 -102.33157 8682615
162.38728 -23.01985 -101.89509 7565674
167.54187 -22.51646 -32.024834 9209985
167.79568 -22.827955 -30.971058 7631211
168.28123 -22.777401 -30.075979 10788243
168.48517 -22.999466 -29.278078 10788243
176.62091 -22.896482 71.040367 13022893
176.39424 -22.900433 71.690315 10524046
176.12248 -22.769091 72.619728 8288115
175.99266 -22.377577 73.427422 7367271
162.0533 -21.748161 -102.71874 8813430
162.5632 -22.005257 -102.22358 8486262
167.30176 -21.705559 -34.900818 11380380
167.75085 -21.735348 -33.944916 10459790
167.88297 -21.939905 -32.924343 9736070
167.93512 -22.135227 -31.889868 9209985
168.38223 -22.167973 -30.928251 7039331
176.65063 -22.061499 71.878227 10787218
176.52124 -21.668648 72.686172 8945787
176.24864 -21.53709 73.618385 9143166
176.09749 -21.312071 74.303574 9341057
161.76884 -20.804682 -103.35706 10260876
162.35455 -20.83095 -102.91002 10260876
167.2764 -21.30237 -35.943363 10261123
167.7578 -21.335085 -34.994183 10985878
176.78413 -20.613338 73.094536 9143166
176.55611 -20.617561 73.748032 9801094
176.25175 -20.623549 74.619667 9801606
176.10007 -20.398008 75.306892 9341057
162.00653 -19.836855 -103.61854 11247771
162.38519 -20.132978 -103.20325 10984599
176.81326 -19.773113 73.939926 9933192
176.5596 -19.701469 74.751221 9801606
176.30554 -19.630093 75.563271 8748921
161.66322 -18.703587 -104.38648 8814203
162.17499 -18.95723 -103.89145 9603715
176.81697 -18.854677 74.945061 8090994
176.56261 -18.782873 75.758415 7300962
176.30788 -18.711386 76.572594 7564131
161.9269 -17.896442 -104.5568 10590091
162.20541 -18.257612 -104.18609 9012091
176.90939 -17.970449 75.656212 7169118
176.62666 -17.814404 76.644798 9341054
176.33525 -17.866417 77.428207 9275005
161.48216 -16.828421 -105.37183 10590091
162.09761 -17.130812 -104.77764 9800577
176.9668 -16.88378 76.692436 9143675
176.72183 -16.645443 77.663063 7959149
176.46597 -16.399696 78.673317 6840154
161.82329 -15.830067 -105.68671 9076856
162.22174 -16.385479 -105.02391 9340027
177.11874 -15.769757 77.52092 8419702
176.8889 -15.594471 78.591072 8025201
176.6774 -15.323275 79.621162 8683130
161.41853 -14.527596 -107.55122 8090987
161.90967 -14.764047 -106.76108 9209211
177.19298 -14.717471 79.684982 10261902
176.80057 -14.590134 80.602669 11314589
160.5787 -13.91028 -117.2835 9340286
161.23369 -13.682817 -116.87465 8089963
161.37457 -14.134688 -109.76717 9472125
162.02701 -14.132982 -108.79646 9735296
177.33891 -14.003526 82.510391 8748149
176.87161 -13.99811 83.331017 8813683
177.44868 -13.615392 85.708588 8748661
177.01135 -13.613555 86.550911 8814710
160.85614 -12.788898 -117.58527 8748407
161.26012 -12.958272 -117.18956 8089963
177.72966 -12.978275 85.669456 8089963
177.30411 -12.84875 86.589409 9867142
160.46178 -11.73322 -118.38414 5919566
161.04477 -11.743348 -117.92162 9406591
177.91719 -12.179564 85.936882 8089963
177.69131 -11.794117 86.674019 10854294
177.3587 -11.600686 87.465523 8946299
177.13203 -11.21538 88.204117 8288371
160.8476 -10.721065 -118.55013 6642772
177.94751 -10.735893 87.012596 8485747
177.69592 -10.49384 87.686508 8617333
177.3187 -10.412498 88.475876 9209470
160.34309 -9.5470667 -119.49006 11183772
160.95651 -9.8473692 -118.86946 6642772
177.93083 -9.7700243 87.803383 8814711
177.65039 -9.4789925 88.571327 7498599
177.31615 -9.2847576 89.366562 7037274
160.75836 -8.8214951 -119.50038 8880765
161.27032 -9.0718632 -118.98235 5919050
177.82454 -8.8021593 88.81971 7432289
177.61742 -8.513649 89.627182 7629667
177.30847 -8.3202314 90.438171 7037274
160.53613 -7.5981569 -120.23528 7564651
160.58623 -8.0874252 -119.97195 7564651
178.1104 -7.8432045 89.770851 7893096
177.63028 -7.8410215 90.603874 7037274
177.59505 -7.3587685 91.397293 7037274
160.28661 -7.1064558 -120.64997 7564651
171.73277 -35.318443 9.0317593 9866371
171.85567 -35.352768 9.8673477 10524558
171.90546 -35.375584 10.906963 9011833
171.92889 -35.388592 11.53097 9011833
171.5665 -34.382835 6.7492175 9931907
171.73802 -34.602386 7.8731647 7498336
171.92125 -34.692135 8.8349552 9603456
172.08276 -34.7356 9.880949 10853780
172.13033 -34.757507 10.921764 10064521
172.16167 -34.774666 11.755024 9011833
172.20049 -34.797237 12.797848 9537922
172.239 -34.820896 13.842037 9537667
172.28909 -34.802444 14.805464 8221546
172.39021 -34.665146 15.942263 7038307
172.42033 -34.686771 16.781641 7038307
172.53336 -34.507816 17.840555 10590866
172.64615 -34.329594 18.902025 10459537
172.67567 -34.353664 19.746225 11906724
172.7122 -34.384922 20.803265 7564644
172.74123 -34.410728 21.650108 7564392
171.46794 -33.58305 4.9912028 10655885
171.62418 -33.728676 5.9253097 10524043
171.7972 -33.768162 6.7588134 8681843
172.01367 -33.818684 7.8036551 6906456
172.23039 -33.870419 8.8515835 9932167
172.42372 -33.784481 9.7350254 9998473
172.49768 -33.721809 10.7379 10064522
172.53726 -33.742477 11.781567 7762022
172.57646 -33.764359 12.826725 8287859
172.6153 -33.787346 13.873192 9274752
172.64619 -33.80661 14.711533 9405824
172.68454 -33.831814 15.760902 8945272
172.72266 -33.858124 16.811823 9077115
172.81784 -33.717522 17.786684 10459537
172.88414 -33.661739 18.802521 10459537
172.90318 -33.730373 19.772852 15392723
172.94 -33.761124 20.831264 7498849
172.97647 -33.7929 21.891592 7564645
173.00543 -33.819248 22.741379 8419438
173.04131 -33.853298 23.805647 10327175
173.09993 -33.816513 24.804541 9603712
173.25792 -33.499401 25.749853 7827823
173.293 -33.536446 26.821444 9209472
173.35112 -33.502087 27.827881 11840159
173.43222 -33.396172 28.769316 10261388
173.45969 -33.428181 29.632353 7564651
173.48015 -33.452721 30.280645 8089963
171.1844 -32.53257 1.9977965 12234145
171.34114 -32.673744 2.9268394 9999495
171.49785 -32.816021 3.8576941 9341309
171.71452 -32.861866 4.8957515 10129542
171.98625 -32.787655 5.9800792 10129286
172.18221 -32.741993 6.7748771 7564130
172.39975 -32.791042 7.8220992 7564387
172.54005 -33.047329 8.8682423 9932167
172.70256 -33.012096 9.6403847 9735812
172.79834 -32.895283 10.75733 8485749
172.83817 -32.915409 11.802883 7893614
172.91544 -32.833164 12.852705 8879995
173.0029 -32.707737 13.779762 9537667
173.02379 -32.770626 14.744684 8748151
173.06258 -32.795063 15.796366 9668480
173.10106 -32.820572 16.849674 9011321
173.13159 -32.841816 17.693563 8683383
173.16942 -32.869476 18.75009 8486519
173.25407 -32.774361 19.856148 10722193
173.31285 -32.713581 20.66572 5920074
173.34982 -32.744263 21.728149 6906968
173.38652 -32.77607 22.792511 7893091
173.39688 -32.864998 23.734007 7827556
173.47258 -32.785793 24.770227 8485491
173.56403 -32.66201 25.796185 7827823
173.59254 -32.6908 26.654791 9077887
173.62781 -32.727848 27.73032 10262157
173.6628 -32.766018 28.808176 9012349
173.69055 -32.797443 29.672386 8419444
173.68163 -32.829765 30.747168 10260871
173.62933 -32.630135 31.815779 8813428
171.05515 -31.634148 -0.059439123 10457990
171.19608 -31.878248 0.96930462 14075837
171.42401 -31.790194 1.836412 10788240
171.6631 -31.748835 2.8299766 10591633
171.8806 -31.792051 3.8671794 11315100
172.05473 -31.827539 4.6991725 10129289
172.24774 -31.867695 5.6226439 9668737
172.49078 -31.919638 6.7877231 7564130
173.32851 -32.197033 16.872385 10524558
173.35925 -32.217907 17.717382 7564643
173.39731 -32.244995 18.775345 7565160
173.51125 -32.06459 19.844027 7104091
173.61746 -31.879126 20.702848 5920074
173.65483 -31.909092 21.767204 6643539
173.74536 -31.802649 22.911585 7695968
173.79785 -31.756266 23.698774 6709331
173.83444 -31.789209 24.769619 7564132
173.87071 -31.823215 25.842636 7827823
173.89954 -31.85125 26.702803 10262157
173.93523 -31.887363 27.780293 8223347
174.06673 -31.6506 28.784122 7565675
174.07593 -31.744392 29.739367 9932935
174.05313 -31.83353 30.690571 10261129
173.97102 -31.73089 31.717138 9471357
173.85353 -31.707731 32.679512 8024681
173.80305 -31.48485 33.688335 9011064
170.89552 -30.450876 -3.0714326 8552055
171.02141 -30.635719 -2.0556884 11183001
171.16949 -30.784372 -1.0876031 12038052
171.33325 -30.87496 -0.17660183 8024422
171.58516 -30.803053 0.81782299 10195077
171.79066 -30.807692 1.7586226 10656654
172.06039 -30.726704 2.83744 10788755
172.18732 -30.971439 3.8747764 11248283
172.31848 -30.99724 4.4997134 10129289
174.13014 -31.220598 26.738817 10130315
174.15895 -31.248854 27.601784 8552055
174.3848 -30.900396 29.793018 9143163
174.3902 -30.926777 30.658381 8616563
174.34642 -30.726849 31.732588 9077368
174.20303 -30.735609 32.789608 7893095
174.05438 -30.786898 33.759396 8748148
173.98305 -30.648392 34.701862 8353903
173.90494 -30.55159 35.556965 7564643
170.14738 -29.370472 -11.111354 9142135
170.31557 -29.387991 -10.095675 8353130
170.48169 -29.406204 -9.0782204 8813680
170.64566 -29.424986 -8.0595198 10129539
170.60207 -29.66997 -7.1136317 8945007
170.84799 -29.618578 -6.1368871 9997953
170.92522 -29.799356 -5.1531434 9603453
171.06265 -29.9049 -4.1698966 9735555
171.41774 -29.744778 -3.1474795 8092019
171.57623 -29.812733 -2.2017446 9275777
171.67641 -30.00218 -1.0889935 9866884
171.84016 -30.029684 -0.2638821 7103835
172.00385 -30.05784 0.56289059 7761509
174.58777 -30.126284 32.863518 9274747
174.47063 -30.133556 33.711094 8813941
174.45605 -29.982815 34.710804 9472384
174.37442 -29.913187 35.74239 9472384
174.44394 -29.710054 36.670254 9340541
174.36096 -29.617985 37.755619 8156012
174.41721 -29.389927 38.736145 9340286
174.27792 -29.398037 39.585598 9735812
169.30363 -28.675653 -22.964779 10326923
169.63887 -28.862827 -22.097376 10458509
169.95427 -28.851788 -21.184237 9997955
169.85524 -29.030907 -20.138468 10261125
169.96835 -29.029705 -19.118334 10985364
170.07489 -29.028515 -18.097538 10459534
170.17583 -29.027327 -17.076168 9735812
170.27002 -29.026148 -16.054119 9866885
170.3586 -29.024971 -15.031549 11379356
170.42484 -29.024035 -14.213125 9668479
170.57655 -29.035433 -13.194883 8813429
170.85883 -29.069633 -12.18467 10261132
171.04671 -29.089127 -11.16597 8682613
175.20372 -29.097046 39.800869 9735812
175.06213 -29.105623 40.655453 9735812
174.88327 -29.116838 41.723812 9472127
174.70192 -29.128897 42.792641 10590607
174.5554 -29.138943 43.64806 9736836
175.57181 -28.954245 46.613056 9735043
175.28322 -28.953428 47.666435 8287859
175.04764 -28.952782 48.507835 8485233
176.23232 -28.944841 54.839535 8946039
175.96222 -28.944227 55.68544 9011579
175.68799 -28.943619 56.530109 7564651
176.82535 -28.936005 62.600189 7038298
176.67233 -28.777794 63.649197 9012093
176.64948 -28.544031 64.701256 8683128
176.35229 -28.546665 65.556747 11183260
169.17052 -27.847616 -23.913418 9932934
169.6519 -27.759659 -23.011368 10063749
170.06415 -27.891394 -22.069078 10261129
170.23552 -28.252275 -21.426098 10261129
177.10008 -28.091145 63.901798 7038307
176.95393 -27.867008 64.572258 7301479
176.58199 -27.87022 65.643013 10459021
163.16466 -26.835672 -99.529839 9537150
163.67607 -27.013288 -98.945961 7892840
164.4377 -26.81953 -92.718018 10853262
164.3783 -26.756134 -91.909004 10853262
164.29636 -26.672083 -90.834198 7367010
164.21133 -26.588587 -89.764091 7038307
164.1232 -26.505596 -88.698799 8354164
164.03185 -26.423172 -87.638069 9208699
169.15224 -26.716444 -24.878546 10195591
169.50017 -26.894117 -24.028639 9735553
169.95461 -26.836802 -23.155937 9998212
177.11012 -27.190205 64.871643 8288371
177.04033 -26.739637 65.572403 7367005
176.70509 -26.686636 66.599388 6051146
176.5218 -26.294266 67.563759 5920074
163.31958 -25.951832 -99.875397 8945014
163.93068 -26.26721 -99.278732 12432037
163.96155 -26.361708 -86.84549 10656401
165.62193 -25.537209 -77.810516 11576473
165.52011 -25.478996 -77.039154 8681843
165.41682 -25.421089 -76.269974 8681843
169.02005 -25.716551 -25.966402 9010808
169.42477 -25.827066 -25.056644 12497830
169.83028 -25.938675 -24.144304 12037280
177.27342 -25.834444 65.902588 7367005
177.12614 -25.609806 66.576881 6577490
176.75201 -25.614084 67.652771 6248526
176.52911 -25.391123 68.543732 10261385
163.03555 -24.975296 -100.5284 7695976
163.63554 -25.164347 -99.997124 7695205
165.34718 -25.38262 -75.758842 8681843
165.24124 -25.32527 -74.99427 7827307
165.09775 -25.249142 -73.978767 7038307
166.55266 -24.559402 -66.165047 6972768
166.38763 -24.489233 -65.17955 10064265
166.22017 -24.419518 -64.198273 10392461
168.95866 -24.866152 -26.788364 9273980
169.34827 -24.761585 -26.085604 9208698
169.6976 -24.935974 -25.235535 10129798
177.28233 -24.929401 66.88002 10458761
177.13455 -24.704514 67.556053 6445393
176.80487 -24.663382 68.553902 7629410
163.32497 -23.905903 -100.79742 7038817
163.75931 -24.39542 -100.25312 7037274
166.08415 -24.366228 -63.461666 9010808
165.974 -24.328215 -62.965206 9931910
167.30356 -23.801823 -57.573978 11379095
167.11751 -23.746588 -56.840397 11379095
166.8679 -23.673468 -55.866367 8089963
166.67949 -23.618891 -55.138813 8089963
168.83319 -23.588188 -28.017237 8484459
169.19009 -23.901844 -27.102324 9668734
169.67709 -23.804625 -26.205332 9537148
177.36786 -23.794691 67.890724 5919050
177.14241 -23.797438 68.53875 5919050
176.81165 -23.756615 69.538689 7300961
162.9823 -22.840586 -101.53413 9538692
163.50955 -22.750816 -101.18303 11380380
167.78856 -23.103645 -49.761944 14078923
167.58034 -23.051104 -49.046875 15395297
167.37117 -22.998764 -48.334232 16777207
168.84938 -22.719049 -29.027262 9142907
169.17552 -22.848423 -28.14274 8484715
169.57224 -22.923258 -27.246458 9142386
177.39981 -22.960997 68.72126 5919050
177.14917 -22.888439 69.524803 10194567
176.84744 -22.89286 70.390747 10457739
162.71443 -21.546598 -102.31881 8486262
163.226 -21.803988 -101.82222 8815226
163.73828 -22.062281 -101.32478 11380380
168.33661 -21.375469 -33.850704 10261642
168.72307 -21.402954 -33.085705 9867398
168.85732 -21.609148 -32.06131 12170153
168.86504 -21.800766 -31.0151 9143678
169.01144 -22.009977 -29.994799 10590864
169.3522 -22.103437 -29.07732 10261643
169.54895 -22.256996 -28.412821 8681835
177.45848 -21.859035 69.770836 10852240
177.23251 -21.748138 70.545486 10326152
176.95596 -21.600325 71.507133 10523789
162.94159 -20.857464 -102.46193 9537153
163.43936 -20.95812 -102.04654 8486262
168.70042 -20.995909 -34.132988 9932163
169.18555 -21.029671 -33.174679 9867398
177.56769 -20.677191 70.76284 9931395
177.31548 -20.604601 71.570801 8485491
177.01199 -20.609446 72.441338 9406337
163.04887 -19.928066 -102.80286 9406337
163.56219 -20.184303 -102.30551 6511954
177.57368 -19.760668 71.759079 7039331
177.32091 -19.688015 72.569008 7039331
177.06775 -19.615744 73.379623 8880507
162.76312 -18.980989 -103.44382 9012091
163.35286 -19.005051 -102.99489 8419957
177.78134 -18.992151 72.009811 7039331
177.63058 -18.764303 72.696907 8486004
177.32588 -18.769096 73.571007 9867399
177.07199 -18.696743 74.383675 9933192
163.00388 -18.007332 -103.70683 9275263
163.38475 -18.303429 -103.28954 9012091
177.78711 -18.071186 73.011864 10064777
177.63583 -17.842787 73.700844 10064777
177.33038 -17.847679 74.577003 10196363
177.17847 -17.619629 75.267601 7893096
162.66008 -16.869648 -104.4787 9340027
163.17505 -17.122536 -103.98142 9012091
177.7925 -17.147614 74.017769 10064777
177.7514 -16.685392 74.647682 9933191
177.41229 -16.690796 75.620422 8288110
177.2598 -16.461941 76.313484 9275005
162.51068 -15.467273 -105.48762 9340027
162.99316 -15.867526 -104.78472 7827048
163.20648 -16.419167 -104.27744 7564651
177.81451 -15.758648 75.540398 9735812
177.66525 -15.491602 76.591354 9801348
177.4359 -15.315778 77.661263 9340289
162.52835 -14.555343 -106.60955 9734788
162.92651 -14.837203 -105.86776 8813941
178.14212 -14.854314 76.697372 9932678
177.92445 -14.745887 77.622025 8945786
177.70793 -14.592576 78.651314 8551288
177.56552 -14.415235 79.511253 11906725
161.81642 -13.69527 -116.41125 8089963
162.31071 -13.786697 -115.98069 8089963
162.88216 -14.148874 -107.9591 9011831
178.27228 -14.015065 80.866402 8089963
177.92241 -14.010624 81.483498 9340544
178.43289 -13.620625 83.812561 8813683
177.99545 -13.618088 84.655441 8813683
161.91759 -12.729103 -116.77946 9011320
162.4281 -12.981774 -116.26144 9932678
178.69928 -13.143245 83.675926 9537403
178.33974 -12.901402 84.557098 8945526
177.97997 -12.659825 85.438744 9340286
161.62875 -11.753624 -117.45824 8813941
162.21399 -11.76415 -116.99382 8550513
178.65346 -11.942601 84.707169 9340286
178.35583 -11.700618 85.469612 8616307
178.12048 -11.218468 86.300941 9340286
161.86154 -10.736938 -117.74651 8879734
162.24126 -11.035281 -117.31009 8089963
178.73276 -10.577912 85.626595 8089963
178.35579 -10.495976 86.415947 8353905
178.10419 -10.25385 87.089867 9209467
161.51323 -9.5628681 -118.56402 9537920
161.9359 -9.8937798 -118.07882 10130313
178.67033 -9.5302372 86.569679 8485747
178.29251 -9.4483671 87.360504 8683125
161.53969 -8.8311777 -118.88233 7695717
178.90076 -8.8085728 86.949005 8485747
178.70378 -8.5673542 87.653038 8090991
178.31866 -8.4851618 88.442894 7630185
178.83107 -7.8468132 88.520386 8353904
178.35057 -7.8442965 89.354126 7893096
172.77267 -32.429127 8.8807373 9011320
172.90866 -32.46254 9.7218513 7433064
172.9489 -32.481411 10.767082 8814713
172.98885 -32.501297 11.813494 9143679
173.01268 -32.513802 12.44203 9538438
172.51405 -31.480074 6.1657176 8681843
172.64525 -31.507868 6.7942157 8089963
172.75365 -31.798698 7.7556968 7761509
172.99484 -31.762896 8.7676563 7958891
173.13449 -31.841448 9.7350636 7038307
173.175 -31.859962 10.78167 8617335
173.21524 -31.879494 11.829498 9538437
173.2473 -31.895947 12.668791 8551544
173.34583 -31.762846 13.776539 9209217
173.40228 -31.732342 14.777843 8616565
173.41531 -31.812654 15.709274 9076857
173.54846 -31.567587 16.683809 9801094
173.58714 -31.593019 17.741293 10722450
173.60721 -31.659182 18.714123 7893608
173.69406 -31.537331 19.65386 7564642
173.77 -31.461346 20.721483 5920074
173.80754 -31.490946 21.786741 5920074
173.83742 -31.515242 22.640306 6972503
172.35509 -30.563009 3.8789897 11248283
172.48088 -30.734938 4.780931 9866117
172.65808 -30.844339 5.755754 9602945
172.95554 -30.771351 6.8489223 9340025
173.16544 -30.725788 7.6501021 8813683
173.37968 -30.771826 8.7046432 8156270
173.53561 -30.80867 9.758625 7893357
173.54549 -30.882999 10.685925 9669763
173.62881 -30.790487 11.701586 11051418
173.64346 -30.860357 12.698801 9538438
173.7263 -30.761463 13.695261 9406852
173.80011 -30.695124 14.812796 8419959
173.82837 -30.712753 15.657515 9340545
173.8632 -30.73576 16.714905 9472384
173.89758 -30.759737 17.773802 13024949
173.92465 -30.779659 18.622259 9801348
173.96097 -30.806095 19.684767 8748661
173.9991 -30.833929 20.749372 6709590
174.0294 -30.856945 21.602535 5920074
174.15472 -30.735825 22.736023 7630175
174.21581 -30.713699 23.75701 7695713
174.24237 -30.738512 24.615076 7563618
174.27518 -30.770565 25.6898 8945529
174.39627 -30.595127 26.780573 10459276
174.42026 -30.621914 27.644005 12498344
174.44974 -30.656427 28.725555 7894125
174.57274 -30.483519 29.825785 8089963
174.56667 -30.507511 30.68992 7563619
171.85587 -29.598 -1.7088008 10065035
171.97896 -29.617968 -1.0898385 8880504
172.44397 -29.477236 -0.26236576 7103835
172.55008 -29.588856 0.83330113 8024680
172.61391 -29.725664 1.8114848 7300955
172.72917 -29.809776 2.7321086 7696226
172.88622 -29.850031 3.6849341 9274489
172.97256 -30.01527 4.7270198 10458254
173.17659 -30.055416 5.7748103 9734787
173.33978 -30.08824 6.614984 9537403
174.20242 -30.102495 15.05954 8090995
174.22145 -30.115103 15.694393 10261903
174.24667 -30.132528 16.541737 8091501
174.27727 -30.155188 17.602352 9341054
174.30685 -30.178717 18.664547 10721938
174.33568 -30.20331 19.728567 9866630
174.46716 -30.099119 20.877913 8419696
174.53835 -30.05282 21.667599 7301982
174.60945 -30.006899 22.458979 7367262
174.73984 -29.905073 23.616516 8813680
174.76582 -29.933908 24.691046 8089962
174.78613 -29.957676 25.55224 9668995
174.96472 -29.789837 26.654858 9867908
174.98918 -29.821323 27.736481 11709340
175.00813 -29.84721 28.603456 9078398
174.99837 -29.917692 29.596945 8418927
175.05899 -29.86709 30.648226 8156012
175.02739 -29.801508 31.685423 10130310
175.03407 -29.664078 32.586231 10525067
175.04338 -29.503801 33.693119 9077112
175.05995 -29.357346 34.702396 9143675
174.92737 -29.363384 35.551357 10788244
170.72095 -28.630625 -20.133287 9340021
171.17865 -28.579363 -19.249084 10655625
171.37935 -28.81904 -18.646162 9341054
171.21645 -29.106501 -10.144878 8813680
171.38403 -29.124615 -9.1223106 7892581
171.5499 -29.143389 -8.0981655 8681835
171.68112 -29.158983 -7.2777076 9405559
171.84325 -29.179062 -6.2508025 12301225
172.00371 -29.199821 -5.2222342 10064002
172.16196 -29.221348 -4.1919169 9209210
172.31848 -29.243505 -3.1601558 8091761
172.44212 -29.261803 -2.333364 8092019
172.59456 -29.285263 -1.298245 9340542
175.8226 -29.064272 35.95808 7564643
175.72139 -29.06905 36.598438 7563619
175.55106 -29.077711 37.665699 8813683
175.37856 -29.087044 38.733074 8813683
175.2739 -29.092924 39.373814 9735812
176.34663 -28.956575 43.654675 9208443
176.0759 -28.955732 44.712814 8353135
175.85451 -28.955069 45.558083 10984337
176.95398 -28.946596 52.506718 7234909
176.62987 -28.945776 53.568329 7234909
176.43243 -28.945307 54.204327 7234909
177.79655 -28.937927 59.832119 7038307
177.57622 -28.937477 60.472172 7959145
177.42696 -28.777845 61.519855 5656650
177.39133 -28.540058 62.562901 6117202
170.36221 -27.413799 -21.857679 10261129
170.53416 -27.774778 -21.213459 10721421
170.94547 -27.854683 -20.315603 9603193
171.3217 -27.952978 -19.473396 10655625
177.84187 -28.088839 61.761791 4340793
177.63666 -27.908772 62.554031 5590859
177.36392 -27.751976 63.515583 7301479
164.31847 -26.751848 -98.706596 9997699
164.49666 -27.082872 -98.010704 9340538
164.70676 -27.141331 -96.804726 9011574
164.6395 -27.054789 -95.708382 7761509
164.58699 -26.990177 -94.889153 6511954
164.53246 -26.925964 -94.072861 6511954
164.4763 -26.861965 -93.259048 6511954
170.21007 -26.54509 -22.878172 10262156
170.50348 -26.789818 -22.083649 10261642
170.94722 -26.796076 -21.180548 10853265
171.16998 -27.077919 -20.498493 11379348
177.95477 -27.035597 62.603054 6248532
177.73123 -26.799646 63.510365 6577755
177.45691 -26.607594 64.515511 7169890
164.49245 -26.021799 -98.972412 11840158
166.26051 -25.932663 -83.021553 9011064
166.16914 -25.872471 -82.232552 9011064
166.04492 -25.792744 -81.184502 7760997
165.91794 -25.713572 -80.141144 7564651
165.78804 -25.634853 -79.10247 7564651
165.68896 -25.576187 -78.326355 10458507
170.05724 -25.678682 -23.898508 11576729
170.35086 -25.921453 -23.105049 10064519
170.8943 -25.764908 -22.133619 10130313
171.13191 -26.075182 -21.398132 10327693
178.0195 -25.829548 63.752682 6445912
177.81291 -25.649559 64.549164 6906203
177.53836 -25.493004 65.515633 9932418
164.26402 -24.796345 -99.696739 7037274
164.78297 -24.919167 -99.255585 10918801
167.18718 -24.844868 -70.150604 9011838
167.03238 -24.772812 -69.147682 9735559
166.87511 -24.701221 -68.149071 10459281
166.71516 -24.630083 -67.1549 6972768
170.03778 -24.54443 -24.868326 9143161
