# .PCD v0.7 - Point Cloud Data file format
VERSION 0.7
FIELDS x y z rgb
SIZE 4 4 4 4
TYPE F F F U
COUNT 1 1 1 1
WIDTH 1228
HEIGHT 1
VIEWPOINT 0 0 0 1 0 0 0
POINTS 1228
DATA ascii
66.720291 -28.88409 152.27138 9735558
65.81353 -28.889376 152.69696 9735558
65.087555 -28.894045 153.03658 14077894
63.659386 -28.740337 155.36699 10919573
62.909851 -28.740463 155.67088 9209467
61.970665 -28.740641 156.04568 9209467
58.29821 -28.734314 160.15181 9538176
57.718746 -28.734482 160.36082 8617592
56.751583 -28.734774 160.70412 7565675
55.976562 -28.73502 160.97514 8814710
53.274143 -28.728674 164.63387 10064521
52.432358 -28.570316 165.01372 10261900
51.552433 -28.436766 165.18062 10459278
180.92262 -27.785515 52.12949 9405823
51.754032 -27.530045 165.53679 10064520
50.950546 -27.446297 165.58922 9209211
181.45845 -26.487259 51.415485 9472383
181.23122 -26.954782 52.059422 10787732
51.50795 -26.430296 165.98039 9998727
50.706833 -26.469215 165.9839 9800831
181.98285 -25.259914 50.538357 8682867
181.8067 -25.54917 51.33926 7828326
50.958614 -25.577715 166.33281 10261386
50.173561 -25.480137 166.39027 9340022
182.23164 -24.536991 50.700611 8223090
182.13597 -24.599302 51.525143 8288621
50.816517 -24.947645 166.58696 10261129
50.047489 -24.55604 166.76109 9274231
49.398624 -24.065386 166.97182 10787476
182.54701 -23.672684 50.692265 10130830
50.121517 -23.462543 167.19463 9209211
49.345898 -23.395859 167.23961 10261131
182.9364 -22.750069 50.088062 9011578
182.87047 -22.762712 50.780262 9208443
49.350765 -22.601343 167.55574 9537664
48.507233 -22.366543 167.66922 9406078
183.40724 -21.59868 49.503788 7565675
183.25737 -21.881765 50.032261 8814457
49.423042 -21.974943 167.80348 8682867
48.602242 -21.531223 167.99956 9208955
47.781376 -21.088751 168.19507 9406078
183.78667 -20.614239 49.265713 9407364
183.68858 -20.692173 50.052692 10196879
48.568119 -20.550081 168.39119 9406078
47.863235 -20.355873 168.48509 10064519
184.22659 -19.525902 48.77116 8354934
184.16139 -19.536062 49.466061 9538950
47.945164 -19.621235 168.77583 9603453
47.098557 -19.389256 168.88814 9734779
184.57832 -18.560511 48.767643 7959144
184.4281 -18.844048 49.298519 9144449
47.740486 -18.842583 169.09091 9340022
47.073189 -18.484428 169.24922 9274485
46.366238 -18.106165 169.41646 10853012
184.96732 -17.675489 48.012501 8090473
184.90251 -17.684172 48.708843 8353645
47.088139 -17.487556 169.64607 9866368
46.296642 -17.399632 169.69954 9866626
185.32076 -16.705883 48.007442 9208954
185.17033 -16.989536 48.539921 10851980
46.938847 -16.848053 169.90437 10261129
46.442616 -16.582838 170.02162 10458509
45.675564 -16.397472 170.11343 10853012
185.79372 -15.587127 47.26984 10261643
185.6172 -15.873689 48.082607 10130057
46.318005 -15.843649 170.32182 10261387
45.563442 -15.550081 170.51863 9538176
44.983654 -15.123245 170.82379 10261387
186.68802 -14.213465 46.778545 9274491
186.24699 -14.749662 47.463467 9340285
185.92534 -15.137241 48.256718 10261643
45.507103 -14.718258 171.13806 9538686
44.895069 -14.500266 171.32809 9867396
44.06459 -14.279275 171.52603 10261642
188.03572 -13.327298 45.436207 7563619
187.79805 -13.610559 46.241138 8222061
44.110699 -13.915787 172.57326 9735299
43.240971 -13.904712 172.63263 11116697
38.107018 -13.713843 177.3277 7893615
37.169991 -13.434875 177.83136 8617336
188.38971 -12.581086 45.424732 7103580
188.17726 -12.863059 45.949139 7563619
37.099396 -12.706617 178.21147 9340801
36.472191 -12.38792 178.06476 8288366
189.20891 -11.953863 45.236492 8617331
36.631088 -11.511588 178.47966 9866885
36.400589 -10.396928 178.81961 9669250
35.986595 -9.4965267 178.99533 8551281
35.817322 -8.6023941 179.2748 8748660
35.647469 -7.705884 179.55493 9011576
35.119057 -7.1728258 179.53593 9274749
35.023674 -6.3509336 179.819 8748660
34.852333 -5.4503989 180.10008 10393229
34.435173 -4.5447989 180.27649 11576473
34.262726 -3.6410389 180.5584 12300195
34.165596 -2.8106008 180.84398 10589580
33.722679 -2.2037921 180.89133 11050130
33.706528 -1.3706901 181.2131 10326665
33.372185 -0.53498882 181.44533 9801350
33.087013 -0.23119992 181.53709 10458510
32.702606 0.45475262 181.91576 9867143
31.998802 1.1489213 183.07191 10261391
31.506905 1.1458286 182.85353 10261391
27.593803 1.6409274 186.9868 8485747
26.861366 1.635779 186.69078 7762027
26.899429 2.3399196 186.96091 7762027
26.575432 3.4459386 187.23102 8353905
26.768982 4.4609351 187.67607 6512978
26.133736 4.766861 187.53165 10327433
26.09774 5.6357384 187.83162 9011831
25.735405 6.5007415 187.9991 12037280
25.425659 6.8114915 187.98718 8682867
25.939201 7.3003488 188.37029 11576729
25.303055 7.6040707 188.22482 8814197
25.265694 8.4810028 188.52708 9142651
25.068642 9.4365435 188.79373 8089962
24.57962 9.422348 188.5923 8616306
24.626671 10.387034 188.96028 8221292
24.428642 11.347927 189.22847 8024428
24.218422 12.06816 189.40466 10261132
23.907623 12.380874 189.39301 8551029
23.696571 13.412515 189.69279 8222065
23.830338 14.00943 190.02661 9011323
22.936966 14.739389 190.33629 8418926
22.288231 15.48357 190.76411 9734270
21.634552 15.989635 191.17094 11378324
22.151176 16.031927 191.60394 9734270
21.277138 16.552435 192.16667 7563874
20.757591 16.505634 191.69498 11379356
20.399078 17.076147 192.73384 7563874
131.43193 -47.428318 96.198112 8682867
130.92984 -47.414143 96.801498 9866885
130.29895 -47.632721 97.406281 11840420
129.49294 -47.534714 98.170082 10196107
128.74176 -47.47599 98.825508 9735043
127.99207 -47.419094 99.478859 7038044
127.24361 -47.36372 100.13053 9143166
126.54488 -47.3535 100.71931 7433064
125.69435 -47.453697 101.38318 10262157
124.94992 -47.403206 102.0291 10065034
124.20651 -47.354324 102.6734 10854296
123.46426 -47.30714 103.31599 9933194
122.72289 -47.26157 103.95712 8288883
121.98254 -47.217663 104.59647 9668738
121.24309 -47.175274 105.23455 10063753
120.5045 -47.134583 105.87095 10984598
119.91414 -47.103035 106.37914 10853012
133.57564 -46.311939 94.352806 10261899
133.20111 -46.299988 94.810646 8090986
132.49716 -46.471386 95.515579 9142906
131.83961 -46.705002 96.148178 10853012
131.17702 -46.630505 96.983437 9735299
130.54065 -46.611614 97.732819 12563629
129.8069 -46.559765 98.407112 9932422
129.05856 -46.503872 99.067719 8353646
128.22128 -46.634315 99.656197 7169885
127.47562 -46.581371 100.31229 8879994
126.66506 -46.611343 100.98491 8222322
125.93044 -46.675617 101.57284 9801607
125.18857 -46.627407 102.22323 9735814
124.44756 -46.580685 102.87194 10064778
123.70747 -46.535641 103.51887 9407105
122.92872 -46.435841 104.23972 9341312
122.14497 -46.633537 104.73524 10261132
121.25921 -46.584534 105.50396 9208444
120.52448 -46.546391 106.14528 9931910
119.71069 -46.652431 106.77861 9471359
118.9985 -46.66666 107.37086 9143162
118.26435 -46.632427 108.00598 9406590
117.53063 -46.599617 108.63984 9603969
116.7974 -46.568459 109.27225 8813942
115.96939 -46.486801 110.01204 8484721
115.25921 -46.231781 110.64072 8747893
137.01039 -45.333988 91.441696 9735558
136.26555 -45.4272 92.213753 11511449
135.64281 -45.464954 92.906784 9537662
134.90282 -45.622295 93.597084 10064520
134.27664 -45.600941 94.364113 10459278
133.65027 -45.580799 95.129944 8946296
132.91153 -45.742275 95.813942 8287853
132.2897 -45.785912 96.498848 9537664
131.54724 -45.888691 97.256683 12103077
128.49205 -46.080441 99.866356 7564386
127.7541 -46.031387 100.53119 8616823
127.01694 -45.983982 101.19385 9143166
126.28049 -45.937912 101.85473 10590608
125.54458 -45.893444 102.51352 9735814
124.66221 -45.84185 103.30168 9078398
123.92751 -45.800415 103.95647 8288883
123.19322 -45.760509 104.60927 7828589
122.35603 -45.898773 105.17168 8813686
121.62334 -45.861576 105.82057 7760998
120.89099 -45.82571 106.4678 8813685
120.15896 -45.791378 107.11334 9406334
119.42722 -45.758331 107.75733 9472383
118.69566 -45.726803 108.39964 9406590
117.89633 -45.657825 109.1356 9669762
117.15491 -45.700783 109.71243 8748149
116.35593 -45.635086 110.44491 8945784
115.56472 -45.585827 111.02302 8353135
114.61703 -45.689415 111.44572 9076599
113.86993 -45.446262 112.05966 8484715
113.11227 -45.349377 112.55292 8419693
112.11065 -45.126217 113.28716 6709589
144.16504 -44.301544 85.0868 10262156
143.80983 -44.286385 85.578423 11248795
143.21648 -44.261986 86.395805 11051416
142.62144 -44.23838 87.211113 8090987
141.81328 -44.313541 87.798676 7630444
140.90109 -44.438396 88.268219 12433069
140.11493 -44.515148 89.032257 9472639
139.46947 -44.541992 89.725128 8880502
138.6937 -44.685513 90.410133 8748917
137.93372 -44.777714 91.006187 7564648
137.28421 -44.824863 91.719795 7762026
136.60376 -44.760574 92.602013 10919313
135.9789 -44.798889 93.29689 9932419
135.23235 -44.895935 94.06646 10064520
114.84566 -44.977695 111.93726 8681835
114.16641 -44.923084 112.35154 9471095
113.42172 -44.683342 112.96947 8682608
112.43787 -44.617783 113.61804 7564641
111.62183 -44.565655 114.15892 6709596
110.91113 -44.492176 114.69528 9867402
110.20427 -44.33828 115.45618 8814715
109.41418 -44.300461 116.01793 11577242
108.46534 -44.256252 116.68819 10787985
107.6741 -44.220333 117.24367 10787211
106.88211 -44.185387 117.79607 9734523
160.29941 -43.305786 71.153214 10524555
159.79105 -43.430248 71.942436 10919312
159.15268 -43.460487 72.762672 9867141
158.44728 -43.747601 73.240524 9538176
157.75513 -43.838737 74.152657 7893350
154.95204 -43.837822 75.813179 9736836
154.58452 -43.836304 76.557457 9736836
154.21335 -43.834797 77.299904 9604993
151.60277 -43.83482 78.515877 9931910
151.3176 -43.833725 79.061981 8089963
150.83797 -43.831913 79.969963 9341054
150.45076 -43.830471 80.69455 10591121
147.55324 -43.830307 82.367332 9076857
147.0519 -43.827923 83.251564 7564130
146.31203 -43.948704 83.764595 9209211
145.46915 -44.069283 84.447548 10262156
144.94536 -44.063923 85.313225 10262156
144.47118 -44.044209 85.972664 11051672
108.64339 -44.016689 117.44669 9867657
108.16614 -43.995296 117.78075 10787211
107.37025 -43.960384 118.33524 10260867
106.57371 -43.926296 118.88708 10655883
105.7766 -43.893185 119.43579 9340539
104.81921 -43.854565 120.09065 9668991
104.01863 -43.822441 120.63085 9536894
103.21335 -43.789658 121.16343 8945014
102.46326 -43.781239 121.75971 10459537
101.72756 -43.780525 122.37302 12564654
100.84022 -43.779694 123.10318 12037796
100.09676 -43.779015 123.70695 7037274
99.649078 -43.778618 124.06702 8813941
93.840233 -43.768986 130.42108 13682106
93.210419 -43.768578 130.87025 12366248
92.261841 -43.767986 131.53876 9736068
91.467842 -43.767506 132.09074 9341823
90.670227 -43.767052 132.63766 9736324
90.003372 -43.50489 133.4481 11183514
89.15947 -43.598446 133.85851 11183514
88.153061 -43.580231 134.442 9537918
87.372925 -43.497654 134.8988 11445399
160.99931 -42.507465 70.383537 9669504
160.54514 -42.567585 71.261086 10590347
160.02187 -42.541767 72.183861 10590347
159.63832 -42.737835 72.705544 8682867
89.267502 -42.778484 134.25461 9406847
88.452621 -42.676266 134.6969 9143422
87.633713 -42.545143 135.15282 9866888
86.695091 -42.453789 135.6517 8484979
86.003677 -42.154839 136.11221 9537665
161.55699 -41.509602 69.855438 12432551
161.19893 -41.732384 70.623611 9603713
160.72142 -41.717823 71.569542 9340539
160.3367 -41.913792 72.092964 8090987
88.518784 -41.839554 135.00024 11183004
87.859451 -41.623051 135.4119 10327696
86.81324 -41.591854 135.93962 9669252
85.942238 -41.567307 136.37836 9537665
85.316299 -41.48555 136.71942 8287596
162.25566 -40.227188 69.230629 9209467
161.90935 -40.521557 69.929146 8946044
161.51288 -40.796356 70.759682 8617080
161.03734 -41.088951 71.477203 10590347
87.799896 -41.033905 135.67775 11775140
86.981171 -40.730392 136.20277 11643553
86.215462 -40.541599 136.65564 11775139
85.257607 -40.572628 137.11484 8287596
84.435516 -40.474491 137.55907 9077108
83.936333 -40.150673 137.93486 8813936
162.53752 -39.519306 69.195602 9472384
162.19269 -39.605125 70.127251 8617080
86.246788 -39.685284 136.98402 10854037
85.443382 -39.599823 137.41393 8024681
84.569778 -39.579021 137.85249 8419182
83.696861 -39.559677 138.29008 8814198
83.034996 -39.350563 138.70001 9538433
163.02681 -38.732124 68.631737 10196106
162.79323 -38.700489 69.364983 9472639
162.47401 -38.965786 70.015968 8880505
85.379951 -39.011189 137.68152 7893352
84.828888 -38.606941 138.11516 9208444
83.878914 -38.586296 138.59123 9405823
83.004532 -38.568588 139.02895 9012089
82.270866 -38.424591 139.44803 9012089
81.50264 -38.150787 139.93626 9866372
163.72862 -37.447868 67.999474 10064520
163.45103 -37.668201 68.577248 9867141
163.10512 -37.822289 69.434494 9998983
83.983749 -37.6492 138.91586 8551026
83.184807 -37.594322 139.33134 8814710
82.309021 -37.578396 139.76901 9406847
81.43367 -37.563606 140.20596 9472127
80.943733 -37.360504 140.52876 7563619
164.13834 -36.551163 67.797951 9669762
163.75151 -36.649578 68.840691 10327692
83.258698 -36.877834 139.58264 9538433
82.487602 -36.602928 140.07268 9603969
81.61026 -36.588493 140.51053 9077370
80.733376 -36.575382 140.94753 8879478
79.961334 -36.304153 141.4366 9932423
164.64497 -35.664177 67.295784 9340797
164.36855 -35.743637 68.030708 10261899
164.16161 -35.751026 68.640053 10788244
82.27906 -35.815742 140.49149 8682867
81.787178 -35.611919 140.81546 8814198
80.908279 -35.599144 141.25337 9077114
80.02977 -35.587486 141.6906 8616819
79.228645 -35.538803 142.1046 10064781
165.42174 -34.233704 66.606651 9406846
165.03616 -34.720325 67.203354 9209211
164.72514 -34.78297 68.060593 9472383
80.942619 -34.750088 141.57733 8287854
80.202995 -34.609772 141.99788 8748149
79.322845 -34.599648 142.43526 9670280
78.443001 -34.590649 142.87212 8092019
77.842667 -34.324005 143.27477 8288621
165.7065 -33.590961 66.488701 10262411
165.36052 -33.67123 67.43026 9143674
80.165359 -33.82439 142.33168 9011321
79.494423 -33.62064 142.74388 11905958
78.612595 -33.61187 143.18163 9867403
77.73101 -33.604267 143.61874 9537920
76.919357 -33.532841 144.04706 8288621
166.20181 -32.730167 65.990578 9406846
165.92572 -32.737118 66.807106 9736067
165.64638 -32.956844 67.39077 9406846
79.244324 -33.028782 143.10468 12432045
78.733482 -32.70937 143.48441 11643554
77.898964 -32.623764 143.9297 11379866
77.015564 -32.617424 144.36719 8880502
76.20153 -32.500404 144.81502 9011575
75.490845 -32.216385 145.27896 8419438
166.95914 -31.366364 65.283501 9867141
166.59694 -31.711189 65.971886 9275004
166.28355 -31.878132 66.717384 10855060
77.856537 -31.836824 144.26656 10656398
77.322174 -31.505005 144.66286 9932932
76.296684 -31.63031 145.11748 9274489
75.411552 -31.626297 145.55492 9076854
74.773155 -31.558502 145.89647 9011061
167.65047 -30.363594 64.469398 10459278
167.28514 -30.580547 65.255013 10722451
166.93277 -30.657698 66.199806 10459278
77.104446 -31.044132 144.95508 9209467
76.444336 -30.759605 145.39894 9800319
75.665192 -30.588604 145.86084 9208183
74.691605 -30.641344 146.31628 8748148
73.838501 -30.443491 146.82173 9734788
73.344101 -30.24856 147.16098 9734788
169.30652 -29.177258 63.241684 8155755
168.80156 -29.302547 64.135414 9208698
168.08414 -29.755445 64.63549 9011320
167.59032 -29.964003 65.605782 9538176
75.59964 -29.881598 146.35098 7564643
75.06604 -29.879965 146.61449 7959144
74.238663 -29.692333 147.17691 10195338
73.324806 -29.561806 147.75969 10195081
72.566086 -29.404211 148.276 9603458
71.78569 -29.265965 148.79414 9998216
70.88092 -29.147213 149.36269 9668738
180.46323 -28.483183 53.412106 8418928
180.03848 -28.574165 54.229855 7695460
179.35713 -28.862635 54.967403 8288109
175.22777 -28.860056 57.876785 8814203
174.94582 -28.858171 58.718773 7038307
170.85022 -28.867508 61.719379 10460308
170.49409 -28.868574 62.752724 11249567
71.23735 -28.868235 150.11612 9341571
70.516266 -28.869648 150.4639 9735812
69.433655 -28.872513 150.98351 9275261
68.530304 -28.875662 151.41464 10262156
66.64296 -28.739944 154.11494 9735558
65.899231 -28.740023 154.43336 7564651
64.967537 -28.740145 154.82608 11643041
64.220535 -28.740248 155.1368 12630192
60.799446 -28.733665 159.22229 10656401
59.839066 -28.7339 159.58423 9801348
58.876633 -28.734152 159.94072 9538176
55.451385 -28.727869 163.91591 9735811
54.462791 -28.728224 164.24557 10064521
53.663769 -28.500956 164.93541 10327693
53.009918 -28.359562 165.1768 10064521
180.73949 -27.761419 53.398029 8945272
180.43414 -27.87682 54.190182 8089963
53.712986 -27.973921 165.31363 10064521
53.066486 -27.479172 165.52589 10459279
52.298199 -27.084654 165.70117 10459278
181.34251 -26.487202 52.721035 8814710
181.04591 -26.80542 53.581501 9471616
52.945732 -26.555292 165.89653 10459278
52.158165 -26.4552 165.95506 10196106
181.84993 -25.289417 51.918407 6512978
181.67825 -25.536211 52.81699 7959912
52.385807 -25.672115 166.2614 10722706
51.608856 -25.601496 166.30795 10459278
182.06944 -24.613949 52.216946 6907736
182.00269 -24.628792 52.90955 9143675
52.266865 -24.685904 166.65686 9736067
51.361225 -24.497131 166.7534 9275003
182.41449 -23.70014 52.076939 12368303
51.563152 -23.580082 167.11391 9275004
50.77335 -23.483921 167.17076 9472383
182.8044 -22.775755 51.473537 13552323
182.73811 -22.789045 52.167545 11709348
51.502045 -22.879042 167.3947 9735555
50.728191 -22.554329 167.54213 9801348
183.35701 -21.393803 50.912991 9208443
183.19615 -21.697983 51.480083 10261388
50.779324 -21.595274 167.92308 10262156
49.967518 -21.518526 167.97261 9340797
183.65991 -20.611181 50.710209 8815484
183.6386 -20.48608 51.465862 8354163
49.937046 -20.559978 168.35527 10196106
49.15654 -20.496044 168.39894 9406078
184.09607 -19.546425 50.161663 9144449
184.03049 -19.557079 50.858303 7565675
50.102882 -19.889231 168.61867 10591121
49.325859 -19.498598 168.79243 10459535
184.44803 -18.579794 50.160709 8815227
184.29747 -18.864012 50.692097 9144449
49.066055 -18.734232 169.10307 11511967
48.442169 -18.436607 169.2363 9932932
184.83751 -17.693151 49.405949 7564643
184.77246 -17.70233 50.103947 8090473
48.525757 -17.56245 169.58261 10721938
47.743004 -17.502144 169.62495 10261129
185.19118 -16.722357 49.403378 8813939
185.01881 -17.009647 50.169521 8616560
48.470379 -16.881126 169.85536 10853012
47.860371 -16.442148 170.04454 10326923
185.66478 -15.601778 48.666988 9142907
185.48779 -15.889158 49.480938 8419181
47.636074 -15.588259 170.43149 10129797
46.929317 -15.491343 170.51483 9801089
46.292831 -15.146447 170.77379 9538686
186.60333 -14.229418 48.191929 9142907
186.1465 -14.765582 48.871861 9274749
185.82132 -15.153934 49.664448 7564643
46.996513 -14.605323 171.19308 9604222
46.207539 -14.522312 171.27878 10590860
45.594479 -14.304069 171.46898 9538686
187.95714 -13.341626 46.856068 8288365
187.76782 -13.578874 47.529942 9143675
45.418098 -13.9331 172.48225 9538686
44.764069 -13.924394 172.52798 9208955
40.241096 -13.712432 176.85764 7563619
39.174805 -13.713129 177.09608 8419440
38.112183 -13.336832 178.40273 9472383
188.27333 -12.59192 46.837543 9011832
188.09863 -12.876881 47.371693 10064777
38.021599 -12.522645 178.68425 9998469
189.925 -11.515924 45.649464 9801091
189.06386 -11.956314 46.164951 9340539
37.683723 -11.697556 178.86327 9735297
37.325584 -11.093466 178.94624 9471871
37.384949 -10.428925 179.2343 8551281
36.970169 -9.5254974 179.41087 9208955
37.029037 -8.85783 179.69997 9932166
36.57428 -8.3988895 179.68372 9932166
36.487236 -7.5014892 180.00017 9011576
36.330383 -6.4502287 180.34708 8617331
35.779816 -6.1403737 180.23039 7564643
35.836861 -5.4659038 180.52139 8090987
35.4189 -4.5572777 180.69862 10525071
35.722557 -3.8819904 181.09709 9735555
35.088745 -3.5734539 180.94362 10919057
34.928925 -2.5129905 181.29285 9865858
34.768478 -1.4489919 181.6432 10129288
34.463333 -1.1442372 181.63106 9406078
34.285965 -0.45820469 181.89558 9208955
34.14502 0.22990537 182.3606 9538694
33.534821 0.53478825 182.33896 9012607
32.739906 1.1534687 183.40111 8815228
28.329796 1.646084 187.28415 8682867
27.878532 2.3487916 187.35727 7630694
28.164062 3.0595112 187.72908 6512978
27.507507 3.6194119 187.66805 7696996
27.272659 4.7058349 187.96693 8946807
27.324417 5.6583714 188.33232 8486256
26.832649 5.6492252 188.13161 8682867
26.638046 6.5990653 188.3972 9011831
26.602501 7.4754515 188.70004 9603711
25.963913 7.7795677 188.55367 8682867
26.48053 8.2725353 188.93951 8682867
26.169334 8.5851173 188.92766 8551282
25.804939 9.4579411 189.09717 9142393
25.768059 10.342649 189.40248 10194823
25.128601 10.644794 189.25504 9142393
25.410843 11.381756 189.63509 8747635
24.966866 12.339025 189.80319 9340030
25.002838 13.072538 190.08321 8287343
24.53447 13.543166 190.06755 9603459
24.360313 14.292191 190.53505 8550515
23.498558 15.286858 191.12477 8024684
22.674782 16.077835 192.07646 7761512
21.799492 16.599545 192.6412 7761512
133.49854 -45.209129 95.749634 8090987
133.12169 -45.198376 96.208763 8287853
132.35406 -45.324314 96.969078 9735811
131.75377 -45.345966 97.654549 12366504
130.99678 -45.505325 98.31974 13879230
130.25275 -45.531239 98.942055 10655889
129.41446 -45.58551 99.58802 9143162
128.67369 -45.535755 100.25591 8090730
127.93365 -45.48756 100.92164 9077373
127.19435 -45.440712 101.58544 11379609
126.45567 -45.395435 102.24715 10327180
125.71758 -45.351467 102.90709 9735814
124.98007 -45.309029 103.56498 8354934
124.25711 -45.329807 104.14787 7828589
123.40188 -45.40588 104.7864 7433832
122.66651 -45.367546 105.43851 10063753
121.93177 -45.330692 106.0888 10064009
121.1973 -45.295128 106.7375 12432045
120.46318 -45.261078 107.38448 9340797
119.58257 -45.221985 108.15876 9867398
118.84908 -45.190926 108.80223 10130313
118.11569 -45.161331 109.44417 9143418
117.38252 -45.132996 110.08464 8616819
116.64943 -45.106163 110.72362 9142904
141.42598 -44.193802 88.834892 10788247
140.82549 -44.172943 89.643333 10262157
140.22322 -44.152866 90.449821 8288365
139.40016 -44.191944 91.229927 9077625
138.69736 -44.235561 91.84639 9275005
137.77644 -44.338341 92.433075 9209211
137.16986 -44.321796 93.227524 9932419
136.412 -44.367485 93.916695 9274747
135.65771 -44.43716 94.45974 9472126
134.72612 -44.696766 94.921898 10261899
134.10626 -44.680489 95.697426 8420209
133.43956 -44.629398 96.585114 9209467
132.78464 -44.68412 97.284554 9209467
132.08656 -44.804878 97.900925 11972003
131.4422 -44.786118 98.653801 12826543
130.59027 -44.856682 99.330437 11510685
129.85806 -44.86948 99.92907 10721682
129.11421 -44.820343 100.59895 7893608
128.37122 -44.772728 101.26655 9998215
127.62891 -44.726475 101.93233 10590095
126.92825 -44.722118 102.52806 10064008
126.03891 -44.816971 103.16994 10525071
125.29919 -44.774891 103.82931 8092019
124.44041 -44.850193 104.47152 8683640
123.71641 -44.872833 105.05339 7630955
122.97893 -44.834824 105.7069 9867145
122.24191 -44.798271 106.35861 10393998
121.43738 -44.723412 107.10472 11116952
120.68956 -44.762081 107.69061 9801605
119.8875 -44.691124 108.43446 9209211
119.1637 -44.664669 109.09029 10130313
118.4416 -44.64032 109.74623 8880246
117.71892 -44.617016 110.40034 7630179
116.99554 -44.59491 111.05235 8287850
116.11554 -44.728363 111.55247 9537402
115.40943 -44.578369 112.13976 8681835
114.54897 -44.419071 112.89175 10260611
113.88029 -44.273708 113.70086 10985105
113.08824 -44.232235 114.27669 8419693
112.29574 -44.191635 114.84963 12038052
111.5027 -44.15197 115.41944 9998987
110.70911 -44.113243 115.98639 8618355
110.2327 -44.090389 116.32527 9867657
159.08141 -43.14024 73.3787 10459278
158.62968 -43.547562 73.866302 9077625
158.21252 -43.529984 74.600311 8946039
157.53676 -43.640335 75.350029 8880502
156.84937 -43.83485 76.04377 9998983
156.48091 -43.833302 76.79731 9736836
153.93282 -43.833672 77.855644 9538686
153.55513 -43.83218 78.594788 11972258
153.07866 -43.830322 79.516472 11183004
152.79007 -43.82922 80.0681 11183004
150.25566 -43.829758 81.05603 8089963
149.8627 -43.828327 81.777397 9866371
149.26712 -43.826206 82.856224 9274747
146.3441 -43.825527 84.486 10262156
146.03737 -43.824505 85.013206 10262156
145.52205 -43.822823 85.88929 10262156
144.70573 -43.890556 86.663528 10459536
143.75526 -44.014938 86.95768 9933191
143.15674 -43.991554 87.775963 9933192
142.55652 -43.968994 88.592117 11577762
141.95441 -43.947403 89.405891 9143681
111.0582 -43.878609 116.63389 8420976
110.00806 -43.95446 116.93116 8947070
109.32481 -43.897938 117.50173 10591121
108.69704 -43.782497 118.36026 10458761
107.98175 -43.781658 119.01109 9208435
107.26289 -43.780838 119.65783 14075837
106.53978 -43.780033 120.3 8485488
105.66721 -43.779087 121.06499 8879989
104.93605 -43.778316 121.69779 9801606
104.20068 -43.777569 122.32594 9604228
103.46193 -43.776833 122.94994 8420470
102.71918 -43.776112 123.56917 7565675
101.82312 -43.775276 124.30646 9406592
101.07241 -43.77459 124.91613 8813941
100.31784 -43.773926 125.52089 10590609
99.559921 -43.773273 126.12147 9670023
98.798126 -43.772644 126.71719 8814715
98.032997 -43.772026 127.30853 10327437
97.264107 -43.771427 127.89504 9603456
96.336914 -43.770733 128.59286 9077370
95.560539 -43.770168 129.1694 9735558
94.780556 -43.769623 129.741 9735558
94.154343 -43.769192 130.19519 11708319
93.726692 -43.50956 131.76521 13155763
92.959076 -43.378117 132.196 9143421
92.084373 -43.342014 132.64124 8881018
91.036179 -43.300629 133.17401 9604738
90.377747 -43.079494 133.58698 11183514
159.47102 -42.473427 73.18541 8682867
158.9068 -42.705242 73.994011 9670020
158.39323 -42.737495 74.858948 9012605
157.82864 -43.088547 75.582253 11709345
93.081802 -42.793003 132.37048 9011579
92.246292 -42.562325 132.8745 8485235
91.196091 -42.52158 133.40807 9537919
90.322037 -42.489162 133.85146 10656656
89.694809 -42.401493 134.19554 9603711
160.16917 -41.648621 72.573624 8090987
159.6729 -41.669075 73.416405 8354417
159.17697 -41.690788 74.257988 8946557
92.192383 -41.970119 133.13879 8681843
91.520401 -41.629921 133.60634 9668735
90.69529 -41.521236 134.0563 9472125
89.645126 -41.484737 134.58809 12168866
88.821411 -41.379101 135.03613 10656661
161.52968 -40.252888 71.22982 9735046
161.00809 -40.534946 71.927475 9340796
160.46724 -40.693985 72.747185 9932676
160.01494 -40.698524 73.525497 9997958
159.56725 -41.022305 74.065544 8092019
90.646675 -40.602669 134.44905 8682867
89.84137 -40.510033 134.8828 11576729
88.965134 -40.481731 135.32561 9932939
88.123398 -40.539936 135.71678 10985625
87.428459 -40.239677 136.17955 11183004
161.78365 -39.573563 71.247772 9735046
161.26352 -39.637821 72.133293 7958892
160.80455 -39.645702 72.920586 9866115
89.959106 -39.9245 135.05981 8682867
89.281471 -39.559227 135.54025 8485493
88.282318 -39.480091 136.06404 12103589
87.405869 -39.455124 136.50566 11314075
86.738457 -39.567688 136.78911 10196363
162.4075 -38.690594 70.528015 8946044
162.01233 -38.766102 71.440254 8682873
161.50786 -38.816795 72.303383 7038307
88.396843 -38.541008 136.38461 12365988
87.596451 -38.479534 136.80348 9406334
86.681137 -38.65163 137.18515 9867142
85.854584 -38.552586 137.63191 7827815
85.353264 -38.227306 138.00932 9011321
163.10919 -37.403282 69.899651 9406846
162.72707 -37.647549 70.762245 10393486
162.26299 -38.023518 71.549622 8354164
87.677727 -37.761616 137.05171 9866885
86.854233 -37.527714 137.5511 11183002
86.028801 -37.458641 137.98534 10788244
85.179703 -37.55143 138.36617 8353647
84.448532 -37.423691 138.77756 9734788
163.67139 -36.400665 69.363411 11380380
163.39291 -36.622208 69.942513 9932934
163.1162 -36.634445 70.754807 9735814
86.706642 -36.689148 137.96048 9143675
86.215851 -36.48119 138.28564 9933192
85.263992 -36.607414 138.7037 8814198
84.419548 -36.638855 139.10693 8353646
83.682259 -36.493805 139.52826 8682868
163.95436 -35.758919 69.249741 11446174
163.62198 -35.814445 70.179008 10064778
85.405991 -35.716648 138.99141 9603457
84.639511 -35.465225 139.46982 9208443
83.758636 -35.448677 139.91023 10130313
82.842392 -35.628902 140.28905 9998727
82.350281 -35.424629 140.61336 8682867
164.60298 -34.59726 68.636726 9077625
164.28185 -34.693336 69.486191 10722450
163.89162 -35.130146 70.153603 9735814
84.609802 -34.678173 139.80046 11315100
83.940262 -34.469326 140.21399 10393229
83.021965 -34.650158 140.59357 10261899
82.140594 -34.636292 141.03319 9603713
81.365189 -34.363304 141.52458 7564643
165.22415 -33.534302 67.993462 8682867
164.94649 -33.613796 68.73185 9077625
164.66858 -33.693974 69.470238 10591378
83.695847 -33.874756 140.57304 11380380
83.201843 -33.669834 140.89862 10919829
82.354103 -33.460041 141.40027 10130314
81.470749 -33.447685 141.84019 8748661
80.693909 -33.503315 142.20036 8879991
165.5667 -32.704731 67.91581 8946039
165.23366 -32.757458 68.850121 8354677
82.284302 -32.540115 141.80396 9867141
81.647034 -32.465881 142.1476 9735812
80.691788 -32.601788 142.56339 12958901
79.843094 -32.641502 142.96533 11314844
79.240448 -32.373177 143.36977 11643809
166.19844 -31.606817 67.280479 10328204
165.87093 -31.676569 68.178894 9208699
165.51872 -32.112133 68.734192 9208443
81.575706 -31.873594 142.42044 9735812
80.866096 -31.583437 142.88643 12432813
80.050255 -31.461943 143.3369 11512223
79.164032 -31.453526 143.77663 10459535
78.326958 -31.36767 144.22327 10919571
77.813675 -31.048681 144.60406 10656398
166.88268 -30.377268 66.722359 9538176
166.54486 -30.638248 67.379257 9406592
166.229 -30.815353 68.091072 9208443
80.188599 -30.674074 143.58505 10788500
79.340172 -30.470591 144.09712 10591121
78.452675 -30.463581 144.53824 11051413
77.565338 -30.457645 144.97861 10130311
76.894791 -30.258898 145.40498 9209467
168.58783 -29.182568 65.295036 10590351
167.97575 -29.409866 66.082878 9340797
167.32784 -29.808514 66.75985 8353903
166.96001 -29.976435 67.452888 8288371
78.800797 -29.898855 144.76431 10393484
77.857307 -29.743546 145.35687 10656399
77.057861 -29.518312 145.95749 9800834
76.192978 -29.514704 146.38692 9536891
75.392975 -29.292332 146.99242 9273719
74.456871 -29.146309 147.61099 9866369
179.82047 -28.4708 55.345982 8748404
179.27834 -28.663235 56.124928 6445394
178.74922 -28.858246 56.905319 8879478
174.51579 -28.855362 59.979366 9669765
174.15071 -28.853029 61.027519 10985876
170.06407 -28.870722 63.991978 12893616
169.70331 -28.873262 65.024452 12103589
74.833 -28.867922 148.35878 9866369
74.114952 -28.867111 148.71254 9537406
73.216721 -28.866726 149.15321 8814712
72.317551 -28.867016 149.59195 10591380
71.59758 -28.867752 149.94164 9341571
69.601662 -28.739733 152.80586 9537921
68.679657 -28.73978 153.2209 9011577
67.755341 -28.739841 153.63072 9406850
67.1996 -28.739889 153.87407 9735558
63.476727 -28.733103 158.1776 10261388
62.713596 -28.733248 158.48064 9735043
61.757572 -28.733448 158.85416 10195595
57.618858 -28.72715 163.16911 10393230
56.63496 -28.727465 163.51221 9735811
56.043587 -28.727663 163.71529 9209467
55.117241 -28.283848 165.15695 10262156
54.311844 -28.41518 165.12372 11905701
180.26952 -27.797916 54.771618 7563619
180.0276 -27.748371 55.550724 9274237
179.69049 -28.015406 56.253086 5392706
55.291306 -27.624285 165.41534 10985111
54.434166 -27.46888 165.49757 9801349
181.10555 -26.220528 54.072346 10261132
180.69905 -26.611645 54.840687 9340030
180.31798 -26.965519 55.575596 9011065
54.460064 -26.587791 165.84781 9341053
53.543434 -26.439831 165.9283 9275260
181.38649 -25.49543 54.059879 9143162
181.01518 -25.648443 54.994312 9734788
53.750874 -25.525173 166.28777 9077625
52.96513 -25.234156 166.42207 9406846
181.92395 -24.560472 53.520176 10196106
181.61308 -24.676523 54.316326 9209211
53.643703 -24.491449 166.70215 9406846
52.850967 -24.39295 166.75995 9736067
182.23557 -23.72303 53.45158 10327948
181.97411 -23.720865 54.327213 8682867
53.081085 -23.603964 167.06888 10262411
52.161903 -23.46051 167.14758 9735811
182.67165 -22.802656 52.862553 9143419
182.50563 -22.888763 53.688259 10460046
52.839909 -22.712732 167.42967 9406846
52.114944 -22.478533 167.5399 9867397
51.603222 -22.041636 167.726 9209211
183.22501 -21.418373 52.304073 8551025
183.06366 -21.723423 52.871937 8025450
182.81905 -22.127485 53.619877 7893864
52.255409 -21.499924 167.92657 9078139
51.460403 -21.405302 167.98283 10985620
183.57256 -20.497814 52.162891 12827571
183.50642 -20.509794 52.860729 10985879
52.194576 -20.794111 168.20921 9209467
51.342415 -20.557756 168.32329 13354421
50.491135 -20.322428 168.43695 12762285
183.96483 -19.567987 51.555622 8355187
183.89891 -19.579163 52.254002 13288375
51.443275 -19.714359 168.65698 10985876
50.651516 -19.428019 168.78958 12235686
184.31378 -18.644075 51.412701 9144700
184.24812 -18.654554 52.111958 9210491
50.702446 -18.528126 169.14694 10327948
49.848747 -18.294441 169.25999 11248795
184.70717 -17.711702 50.802761 8353906
184.61214 -17.769587 51.638103 10131080
50.789669 -17.786091 169.44057 10591121
49.934601 -17.552736 169.55354 10130570
49.080338 -17.320219 169.66615 10591121
185.077 -16.671453 50.902767 9142393
184.8882 -17.027843 51.570103 9998469
49.877842 -16.770258 169.86662 9604226
49.190845 -16.348803 170.05064 9998983
185.64326 -15.391374 50.336231 9931652
185.41753 -15.783104 50.914829 9405308
49.221901 -15.450727 170.46909 9472639
48.307518 -15.321898 170.58755 9341052
186.51685 -14.246015 49.608913 10853263
186.10381 -14.705626 50.219707 8879476
48.315319 -14.628748 171.14246 9866882
47.612659 -14.477255 171.28108 9866882
187.73357 -13.587023 48.243046 7300958
187.69917 -13.59532 48.957371 9077112
46.947193 -13.953982 172.37349 8815220
46.072918 -13.941905 172.43604 9538686
42.581947 -13.710967 176.31111 8419952
41.518829 -13.711621 176.56328 8222060
39.101883 -13.379153 178.81543 7564647
188.15916 -12.603621 48.254421 7630435
188.01961 -12.891491 48.798191 8682867
39.240181 -12.793406 179.10635 8617074
38.798256 -12.183696 179.15521 10261384
189.74315 -11.518907 46.815037 7301474
188.84535 -11.960485 47.55875 8288365
188.71719 -11.964629 48.493565 9932419
38.646248 -11.317986 179.43091 9077368
190.65111 -11.077366 46.309727 7761771
38.375916 -10.461408 179.65167 10129798
37.960251 -9.5548534 179.82913 9603456
37.792488 -8.6547356 180.11157 9011574
37.700386 -7.8289571 180.39755 8485487
37.25631 -7.2192154 180.44545 8024937
37.246292 -6.3926463 180.76741 10787469
36.904312 -5.5581484 180.94832 10854036
36.598801 -5.252027 180.93658 9735555
37.135941 -4.8065715 181.3456 10854036
36.409073 -4.5699663 181.12343 9735555
36.238167 -3.6602459 181.40836 9143419
36.143265 -2.8243384 181.69716 9077370
35.697044 -2.2134337 181.74455 9340542
35.684227 -1.374926 182.06999 9406078
35.34922 -0.53374797 182.30322 9143162
35.062187 -0.22796589 182.39326 9406078
34.831657 0.3861115 182.7813 10326924
34.219025 0.6914562 182.75905 9538694
33.982681 1.1612328 183.95314 9538694
33.484253 1.1581241 183.7317 9538694
29.563019 1.6547934 187.78246 9144449
29.068565 1.651347 187.58267 7565675
28.863213 2.3577271 187.75584 8354934
28.671112 3.3020415 188.0204 9801863
28.217773 4.0077481 188.0938 12433069
28.725609 4.2527575 188.38634 8486256
28.265205 4.840785 188.41426 9933446
28.06488 5.6721463 188.63469 8946807
28.031479 6.5487633 188.93846 7828839
27.376549 6.6147628 188.69939 8682867
27.91082 7.3461518 189.17865 7564643
27.435867 7.6955891 189.11433 8617075
27.234192 8.5332546 189.33644 9340286
27.19944 9.4180679 189.64268 9340286
26.543991 9.4795437 189.40176 9340286
26.696846 10.501701 189.83299 9011320
26.398552 11.415998 190.04408 10391945
26.436859 12.149319 190.32568 9669249
25.875877 12.454568 190.21199 7892840
25.758713 13.348597 190.5034 9077369
25.831535 14.107544 191.05098 8682867
25.206955 14.421046 191.05618 9011063
24.963135 15.100192 191.5892 9537150
24.262222 15.335498 191.61882 8089963
23.460953 16.143751 192.74919 8090474
22.58876 16.670879 193.35701 8484973
135.33873 -44.27763 95.598083 9143676
134.72462 -44.264656 96.384346 9209726
134.10846 -44.252563 97.168442 12564395
133.49054 -44.241341 97.950615 12104103
132.57016 -44.350174 98.507172 12432812
131.63951 -44.455978 99.049873 11839649
130.94746 -44.423634 99.76828 12892334
130.25072 -44.390858 100.48147 11906725
129.5527 -44.359127 101.19176 8485745
128.85362 -44.328186 101.89951 8879991
128.15311 -44.298256 102.60452 10590095
127.21159 -44.345089 103.19664 10261131
126.4604 -44.357746 103.76984 11642780
125.75793 -44.330402 104.4657 12169381
125.05415 -44.30405 105.15881 10656915
124.34913 -44.278515 105.84949 8617337
123.57309 -44.314705 106.34735 8354420
122.65582 -44.346924 106.97905 11314332
121.94849 -44.324066 107.66055 10985622
121.23985 -44.302074 108.33986 9472383
120.52977 -44.281029 109.01643 8682867
119.81833 -44.260807 109.69087 8485488
119.10551 -44.241528 110.36257 8551537
118.24818 -44.219467 111.16565 7695715
117.5323 -44.202068 111.83222 7367005
116.78892 -44.175888 112.4713 10261124
115.99645 -44.132423 113.06097 10260611
115.36028 -44.097721 113.52856 10260611
157.16959 -43.490059 76.432564 11051415
156.46959 -43.616283 77.352791 10657426
155.97665 -43.643322 78.186226 10854549
155.44835 -43.829117 78.859734 9736836
152.49927 -43.828125 80.618553 11248795
152.10866 -43.826664 81.350914 10591121
151.61523 -43.824852 82.263611 11446174
148.76501 -43.824459 83.751991 7827814
148.2572 -43.82272 84.644562 8090986
147.74437 -43.820995 85.534279 9209211
147.43417 -43.819969 86.066566 9209211
144.68706 -43.820156 87.284859 9341057
144.37029 -43.819168 87.806084 9341057
143.8382 -43.817528 88.672096 9933192
143.30118 -43.815907 89.535149 8354166
141.3506 -43.926682 90.217628 10525075
140.74498 -43.906906 91.026993 10064264
140.01582 -43.884243 91.995445 10063750
139.15379 -43.945847 92.71228 10459278
138.5903 -43.947506 93.368042 10261899
137.67381 -44.078457 93.813133 8682867
137.06204 -44.063015 94.608559 10524555
136.44835 -44.0485 95.401711 9076856
135.83282 -44.034786 96.193024 10262155
114.88297 -44.071987 113.87803 13549237
114.40543 -44.046658 114.22632 13549749
113.60925 -44.005219 114.80429 6709589
112.81261 -43.96463 115.37943 13550517
112.01543 -43.924992 115.95139 8618355
98.996521 -43.767494 128.56348 13023925
98.22007 -43.766888 129.15572 8024425
97.425095 -43.639381 129.832 11182745
96.646721 -43.546391 130.31253 10985624
95.590698 -43.495613 130.85289 9735558
94.712166 -43.454887 131.3019 15721430
94.051727 -43.228279 131.71811 14669000
158.31325 -42.254375 75.345352 10459278
157.8685 -42.578693 75.880745 11183001
157.33937 -42.645084 76.747978 11445917
156.81041 -42.712666 77.614029 10854293
156.36696 -43.038765 78.145813 9736836
96.567924 -42.817326 130.64403 8617336
95.92572 -42.602493 131.04655 7104098
95.097084 -42.485737 131.50145 8485492
94.068367 -42.553322 131.98088 10458510
93.163635 -42.402641 132.48694 9208187
159.00868 -41.427418 74.738792 10261646
158.62517 -41.626068 75.258904 10261646
158.10136 -41.606712 76.178551 10196106
157.58963 -41.660084 77.025009 8881020
95.197342 -41.601463 131.80708 7959404
94.173676 -41.60693 132.30902 10064524
93.327499 -41.621395 132.71988 8945788
92.52227 -41.477032 133.17436 10458250
91.827415 -41.169342 133.64008 9931907
159.95116 -40.181526 74.008644 9275007
159.43634 -40.588909 74.604256 10261646
158.94576 -40.508881 75.509773 9209473
158.40517 -40.806728 76.229805 9209472
94.549385 -40.882404 132.41489 10459281
93.726418 -40.566906 132.94679 9998731
92.651863 -40.60973 133.45872 11181972
91.772324 -40.577007 133.905 9931907
91.141357 -40.488804 134.25116 8682867
160.75749 -39.357193 73.20993 10458251
160.26595 -39.55122 73.91938 11905695
159.73921 -39.530151 74.844772 10590096
159.32986 -39.586029 75.511772 8946301
93.47908 -40.049751 133.27625 10459281
92.800743 -39.678799 133.75919 9602943
91.973434 -39.599461 134.19846 9931907
91.092987 -39.568893 134.64429 9208699
90.264435 -39.462627 135.09496 8946041
89.764694 -39.132042 135.47372 7038307
161.46092 -38.527653 72.593079 8288371
160.96806 -38.721493 73.304756 9537151
160.44014 -38.699772 74.232597 10853009
160.02986 -38.755238 74.901497 10392716
92.102493 -38.683907 134.50249 9537664
91.292259 -38.590744 134.93889 9471874
90.410706 -38.562145 135.38446 9406340
89.530258 -38.534904 135.82895 7827306
88.86525 -38.318523 136.24329 11379095
162.33156 -37.416763 71.890076 9933192
161.78697 -37.626381 72.679756 8880507
161.2388 -37.71859 73.560387 9142907
160.73204 -37.923557 74.288185 10458251
91.202896 -37.864876 135.27432 10261391
90.608223 -37.583115 135.68028 9406340
89.725677 -37.556519 136.12556 8222065
88.84407 -37.531147 136.5699 9142649
88.106216 -37.379868 136.99391 10129543
87.335358 -37.097721 137.48689 10788244
162.90828 -36.644161 71.364357 8881020
162.57727 -36.592636 72.059998 9998986
162.03931 -36.655842 72.943901 9538435
161.60098 -36.810329 73.590012 9538435
89.842751 -36.613903 136.44633 9340288
89.037674 -36.551941 136.86768 8089963
88.154953 -36.528503 137.31178 9603200
87.273041 -36.506241 137.75502 9933191
86.781967 -36.297733 138.08051 9143675
163.6124 -35.352253 70.73423 8881020
163.31841 -35.514095 71.408516 8092019
162.83484 -35.689461 72.266449 10196108
162.30806 -35.976089 72.969902 9538435
89.120804 -35.831242 137.11607 9339771
88.292969 -35.596146 137.61815 8156529
87.462875 -35.526451 138.05489 8090992
86.579803 -35.506023 138.49794 8288371
85.66494 -35.191059 139.07495 9735043
164.24657 -34.272873 70.070404 11380380
163.96698 -34.495029 70.65213 10919829
163.62589 -34.549995 71.58152 10722193
88.14624 -34.754169 138.02847 7564651
87.653053 -34.545116 138.35526 7564649
86.767914 -34.525227 138.79912 7893614
85.883484 -34.506393 139.24219 10196364
85.07782 -34.451019 139.66116 11710114
164.5313 -33.558144 70.034782 9867913
164.18323 -33.642208 70.978325 11774879
86.840141 -33.777088 139.06389 8485749
86.069931 -33.524231 139.54472 10196364
85.184219 -33.507149 139.98773 11381149
84.223343 -33.489834 140.46785 11117465
83.486954 -33.083572 140.99355 9143418
165.02551 -32.764465 69.463486 8618105
164.81842 -32.644669 70.218254 8289397
164.5383 -32.852928 70.817406 8420983
86.041733 -32.733887 139.87592 9735812
85.29052 -32.561832 140.3149 10525070
84.481873 -32.508171 140.73468 14275010
83.595428 -32.493755 141.177 9406334
82.780464 -32.415707 141.60965 8682867
165.80687 -31.253258 68.85247 14603206
165.48412 -31.688446 69.320244 10130058
165.16132 -31.784233 70.174942 8092019
85.124519 -31.926464 140.65175 9735812
84.628281 -31.72039 140.9789 9735812
83.776459 -31.509161 141.48312 9603969
82.888496 -31.496183 141.92558 8682867
82.054291 -31.435678 142.36064 9735812
81.184235 -31.07962 142.93199 11314588
166.15897 -30.563705 68.622917 12761261
165.82072 -30.615612 69.560066 11905696
165.53346 -30.836472 70.143608 9208443
83.743668 -30.717588 141.81729 8682867
83.07016 -30.510941 142.23708 9406334
82.181595 -30.49971 142.68109 9735812
81.293289 -30.4895 143.12434 11314588
80.513733 -30.383417 143.55782 11183002
167.86038 -29.19066 67.346718 8288371
167.06462 -29.64604 68.040955 8551285
166.58699 -29.852024 68.861351 12761261
166.25607 -29.993757 69.506798 9208443
82.358437 -29.932438 142.98885 9735812
81.537354 -29.736622 143.55501 10985365
80.677574 -29.64851 144.05423 10459022
79.925797 -29.483398 144.57294 9801092
79.00943 -29.344477 145.14857 9077626
78.196976 -29.157282 145.73958 11380380
77.663635 -29.154934 146.00894 9932937
179.31993 -28.463284 56.849274 5392706
178.91753 -28.592728 57.512093 5919309
178.57555 -28.656534 58.27269 7038306
178.04898 -28.853424 59.050468 8682867
173.77888 -28.850719 62.073376 10393739
173.40117 -28.848417 63.117146 11183260
169.34035 -28.876509 66.056175 10459023
169.04855 -28.879648 66.881401 10854036
78.414749 -28.878603 146.57104 9932937
77.878326 -28.876255 146.84111 9932937
76.983505 -28.873011 147.28973 11510937
75.908829 -28.869999 147.82558 12497573
75.191757 -28.868444 148.1814 9866369
73.081772 -28.739721 151.1778 8092019
72.534668 -28.739704 151.44002 8683899
71.620834 -28.739695 151.87274 8551797
70.704544 -28.739702 152.30034 9143675
70.153625 -28.739714 152.55412 9538433
66.514297 -28.732635 156.92867 10064264
65.757217 -28.732735 157.24634 9471615
64.808464 -28.732876 157.6382 9471615
64.048111 -28.733 157.948 9537665
60.558517 -28.726311 162.10493 9209467
59.5807 -28.726574 162.46544 9735812
58.600975 -28.726852 162.82037 9997960
58.205647 -28.475622 164.20464 9734788
57.469948 -28.282167 164.64447 9472127
56.499809 -28.293711 165.05312 11314844
55.673687 -28.058088 165.2336 11314844
179.62741 -27.712196 56.786877 5392706
179.28017 -27.828857 57.691025 5984845
57.354065 -27.658545 164.95222 9209467
56.806507 -27.460926 165.30113 10393742
55.849293 -27.397644 165.49261 11183002
180.30623 -26.548279 56.086155 8418928
179.98154 -26.600637 56.996204 6708310
179.57256 -27.106764 57.640965 6971738
56.68932 -26.835823 165.61026 10064777
55.866413 -26.603489 165.80864 10393742
55.017029 -26.35947 165.92567 9735555
180.9894 -25.305683 55.461849 7563619
180.62317 -25.528173 56.302166 9471616
180.25708 -25.751133 57.141548 7169117
55.821049 -25.833124 166.11665 10196363
55.077808 -25.471569 166.27811 9801348
54.30267 -25.07505 166.45421 9209211
181.27026 -24.579075 55.45129 8550514
180.89821 -24.73344 56.386509 8550770
55.041889 -24.472963 166.67686 9077625
54.245728 -24.37351 166.73508 8880502
181.80815 -23.641485 54.913342 8946295
181.49666 -23.758669 55.710133 8814197
181.17378 -23.937172 56.470959 7959144
54.49052 -23.611345 167.03302 8946039
53.638405 -23.371033 167.14868 9406846
182.51524 -22.582235 54.008862 10460046
182.14677 -22.805614 54.854755 9999239
181.85767 -22.8009 55.723515 11907236
54.280945 -22.655464 167.41878 9209981
53.437828 -22.46158 167.51575 8617847
183.13805 -21.210846 53.711834 4867385
182.79224 -21.665924 54.225826 9143931
182.468 -21.775524 55.069309 11512734
53.656487 -21.473177 167.90448 8420983
52.85825 -21.377811 167.96111 8289397
183.42003 -20.519909 53.553745 7104348
183.16002 -20.518017 54.435673 10196363
53.541618 -20.622583 168.24608 8420983
52.753521 -20.556744 168.2907 9144446
183.83293 -19.590542 52.953205 7893864
183.74347 -19.599783 53.646526 7893864
183.47258 -19.829197 54.287228 7893864
52.887352 -19.648556 168.64944 9999751
52.041702 -19.458178 168.74507 9209467
184.18219 -18.665277 52.81226 10328715
184.05713 -18.753942 53.656452 8946295
52.119854 -18.500832 169.12471 9012347
51.400368 -18.227032 169.2506 9209467
184.65822 -17.500088 52.225941 9210491
184.48073 -17.789747 53.040508 8947321
52.13924 -17.606001 169.48076 9341571
51.349064 -17.544067 169.52394 9407363
184.94618 -16.689642 52.306019 9999237
184.757 -17.046926 52.974194 9276031
51.29163 -16.65992 169.87755 9670277
50.518414 -16.328865 170.02751 9933191
185.57747 -15.331423 51.679279 8616049
185.29112 -15.800425 52.321774 8879736
50.545689 -15.477521 170.42299 9867398
49.804893 -15.212134 170.63698 9538432
186.42848 -14.263304 51.02953 8090475
186.08217 -14.60934 51.658108 7563619
49.85125 -14.629054 171.1049 9735811
48.934261 -14.500776 171.23012 10064004
187.66451 -13.603815 49.672626 10853263
187.62975 -13.612455 50.389011 9735297
48.480705 -13.975769 172.26176 9866882
47.603767 -13.963192 172.32603 9209467
44.703377 -13.709715 175.78729 11380380
43.643383 -13.710332 176.05217 10196106
40.098228 -13.42201 179.23091 8287856
188.07297 -12.617777 49.682377 10064005
187.94011 -12.906793 50.228695 8682867
40.01693 -12.528483 179.54814 9735040
189.52388 -11.523029 48.215069 11642779
189.02327 -11.746902 49.057514 10524555
188.59767 -11.972794 49.67445 9932419
39.866127 -11.480962 179.89613 12102818
39.560318 -11.172037 179.88536 13023917
190.52718 -11.078216 47.00861 7038307
190.40294 -11.079264 47.707661 10984849
190.28142 -11.080607 48.40781 12432037
39.373528 -10.49435 180.07175 9735043
39.103004 -9.6340208 180.29393 9208444
39.26989 -8.919569 180.64835 8089963
38.685486 -8.4533825 180.57872 9603456
38.400902 -7.4549179 180.8493 9537917
38.495361 -6.4165511 181.30017 9011574
37.994377 -6.4068918 181.0865 9735039
37.825569 -5.4976172 181.37221 8748659
37.65612 -4.5862427 181.65839 8682868
37.716492 -3.9031305 181.95419 9734788
37.075432 -3.5923753 181.79865 9208700
36.917946 -2.5248995 182.15163 8814453
36.933365 -1.3777078 182.61116 8682867
36.432358 -1.3765584 182.3941 8682867
36.275513 -0.4564594 182.75868 9208699
36.137901 0.23618805 183.22678 9537918
35.522209 0.54306209 183.20442 9406334
34.733505 1.1659039 184.28676 12432553
30.307404 1.6601194 188.0833 9144449
30.09507 2.2504716 188.2117 9933708
29.619476 2.6014352 188.14767 10788759
30.159554 3.3199248 188.62456 10788759
