# .PCD v0.7 - Point Cloud Data file format
VERSION 0.7
FIELDS x y z rgb
SIZE 4 4 4 4
TYPE F F F U
COUNT 1 1 1 1
WIDTH 1224
HEIGHT 1
VIEWPOINT 0 0 0 1 0 0 0
POINTS 1224
DATA ascii
43.040298 -58.792847 133.42163 8617587
42.075043 -58.79298 133.72775 7958120
41.513985 -58.79118 134.58478 6510930
40.677746 -58.712166 135.23972 7630438
39.870323 -58.502106 135.20471 10394511
145.20642 -57.46294 71.068596 10787473
144.7971 -57.595871 71.679756 9077372
144.29706 -57.759521 72.425468 10985108
39.786812 -57.599922 135.52388 9933447
145.63341 -56.634228 70.929024 11051159
145.08073 -56.64957 71.872688 8485237
39.675808 -56.586395 135.87492 10853012
39.003613 -56.619278 135.57053 10065290
146.34966 -55.563129 70.464668 8089962
145.79109 -55.671406 71.351494 10063752
145.27512 -56.052368 71.967903 7038307
39.616104 -55.797348 136.15987 11379356
38.884533 -55.581745 135.92754 10262156
147.05241 -54.518253 70.004181 9734531
146.59996 -54.698372 70.656166 9997959
146.1478 -54.879261 71.306908 10524559
38.841827 -54.613071 136.29051 9406590
38.154652 -54.580456 136.00536 10789011
147.93018 -53.347267 69.331963 11379356
147.40312 -53.674744 70.006523 11379356
146.85028 -53.833179 70.847641 9997959
38.653275 -53.818516 136.52176 9143419
38.155308 -53.656094 136.36974 10065032
148.71364 -52.171066 68.826408 10853262
148.17107 -52.615746 69.443291 10655632
147.56973 -52.760815 70.377846 9735043
37.941559 -52.653496 136.67195 9143419
37.25473 -52.110458 136.588 7038307
148.94435 -51.472183 68.931877 8682608
148.40004 -51.74794 69.673607 7695972
147.91362 -51.993824 70.336784 8616818
37.883327 -51.898083 136.94424 7564135
37.409214 -51.388504 136.93933 7630442
149.78546 -50.331757 68.30098 8682608
149.2411 -50.57309 69.067528 6709333
148.69742 -50.815556 69.832275 10853262
37.039394 -50.571602 137.10071 10458767
150.42122 -49.41679 67.862175 9735555
149.96297 -49.594715 68.525826 9011574
149.48378 -49.6367 69.323738 7958886
36.991772 -49.848469 137.36493 10853265
36.531246 -49.451981 137.32135 9208443
151.21324 -48.238022 67.343727 8682867
150.7282 -48.567284 67.944565 10525072
150.21724 -48.725689 68.71328 10590864
149.76909 -48.973351 69.309059 8682608
36.271259 -48.600113 137.54417 9077370
151.50133 -47.573605 67.325249 8024935
151.01949 -47.614101 68.128731 10064521
150.55931 -47.792866 68.795097 11906725
36.271706 -47.731556 137.88646 8288366
35.635227 -47.53698 137.68686 9012089
152.24648 -46.565548 66.815773 7761762
151.7718 -46.6409 67.589561 9472124
151.28564 -46.811886 68.247375 9077628
36.252243 -47.032436 138.15291 7564643
35.5089 -46.541557 138.02246 9012089
153.16975 -45.442776 66.561516 8024934
152.7128 -45.721832 67.128838 10130052
152.21022 -45.888676 67.783699 10656139
35.396858 -45.566502 138.41994 9406847
34.773129 -45.394173 138.26657 8157040
153.65422 -44.798016 66.661171 8814710
34.508675 -44.72414 138.67871 8881018
33.820747 -44.284672 138.93135 9341824
33.344772 -44.054985 139.31267 10263180
32.876701 -43.908337 139.58304 10000008
32.087063 -43.785744 140.00487 7564898
31.243187 -43.786079 140.19467 9144699
30.327507 -43.782818 141.70984 6511954
29.644257 -43.783115 141.85318 6511954
28.618191 -43.783577 142.06244 6840663
27.762032 -43.783989 142.23143 7564130
26.972939 -43.780689 143.71242 5392706
26.095699 -43.565731 143.80841 8748146
25.929119 -42.732273 144.08047 13288117
25.308784 -42.4776 143.91197 9405563
25.833683 -41.94157 144.35248 14078918
25.20232 -41.493328 144.25595 11183257
25.045589 -40.614422 144.53632 10920342
24.391281 -40.493534 144.29999 6511954
24.504486 -39.58633 144.70883 9407358
24.200123 -38.647949 144.94788 7696484
23.773674 -38.295547 144.90161 7235677
24.204842 -37.648975 145.34311 6511954
23.584908 -37.671108 145.06552 10262667
23.44717 -36.710152 145.38393 10853780
22.756645 -36.22414 145.27567 7564651
23.29702 -35.823372 145.66779 10130828
22.746189 -35.40078 145.59523 9209728
22.67622 -34.495495 145.92111 9407875
22.404804 -33.711918 146.11172 9539205
21.969639 -33.484146 146.01268 8485235
21.833088 -32.585476 146.30711 9339773
21.663563 -31.57621 146.63074 9866373
21.132591 -31.446894 146.45137 8681843
21.557285 -30.785362 146.89587 8681843
20.86377 -30.593916 146.67487 9010808
20.863667 -29.947094 147.1032 9932166
20.208431 -29.526875 147.15848 9010808
19.88673 -29.025757 147.90889 8681843
19.141273 -28.97756 147.74899 9010808
18.36599 -28.775324 148.80469 8419443
17.469105 -28.775944 148.91154 9341059
16.571648 -28.776577 149.01335 7564651
14.244607 -28.772623 151.29649 12959413
13.150388 -28.773468 151.39401 10064009
12.323293 -28.38653 152.5415 7564647
11.751191 -28.337374 152.31255 7694947
11.582658 -27.593824 152.53247 6445394
11.418622 -26.667028 152.82664 6379600
10.754506 -26.522829 152.59518 6839895
11.248757 -25.92182 153.04668 7366237
10.688199 -25.466869 152.98268 9142646
10.596314 -24.626234 153.27417 9274746
9.9540453 -24.359741 153.10046 6511954
10.540189 -23.850985 153.55539 9406590
9.8921213 -23.569393 153.38512 7301470
9.6987696 -22.558359 153.69974 8748660
9.0511179 -22.279373 153.52859 9340286
9.6359987 -21.764559 153.98538 9406590
9.0700197 -21.452202 153.86287 10261644
8.8343515 -20.607473 154.09354 10327436
8.8244982 -19.589085 154.49037 8682867
8.1981096 -19.387175 154.2981 9406591
7.9865193 -18.523249 154.54651 9406333
7.9384389 -17.71557 154.84375 9011832
7.3727651 -17.315355 154.75589 9406333
7.3081059 -16.489578 155.05302 9472382
7.0484319 -15.614533 155.33997 8682867
6.5164266 -15.481116 155.18082 9209467
6.4161305 -14.697746 155.80768 10130058
5.5101094 -14.282552 155.89932 10524815
4.6890035 -13.8694 156.77283 10854549
3.9264379 -13.846942 156.52081 11709858
-0.61872047 -13.763038 160.21606 8618101
-1.3909906 -13.763842 160.21043 8618101
-2.1729426 -13.419597 160.87512 9867398
-2.3321071 -12.71458 161.0835 10195852
-2.8538203 -12.524106 160.93213 9669252
-2.9581141 -11.560925 161.2659 9274752
-3.1983256 -10.582696 161.54669 8090994
-3.7396541 -10.452486 161.36305 9537918
-3.7495646 -9.4717216 161.74474 9340796
-4.0687556 -8.5208778 161.98045 10392969
-4.5351176 -8.2759275 161.87457 10984849
-4.1556544 -7.6901441 162.26973 10984849
-4.6106105 -7.3530536 162.20493 11840415
-4.9437327 -6.4898667 162.40015 11051416
-4.8588328 -5.5961938 162.78867 10722452
-5.5000911 -5.4099007 162.58376 10722707
-5.7455516 -4.4902983 162.83917 9604228
-5.7582469 -3.6493912 163.16457 10196108
-6.345161 -3.2850475 163.05334 11708316
-6.4752421 -2.4405632 163.32938 11510937
-6.6315684 -1.6065481 163.59048 10129543
-7.220367 -1.2018636 163.49455 9668993
-6.5829005 -0.6618557 163.98427 10655630
-7.2909312 -0.4189488 163.87184 11248539
-7.3902202 0.15068853 164.29684 11709348
-8.0997 0.39377356 164.19144 11709348
-9.0126028 0.96877706 164.90131 11643041
106.78407 -71.309418 95.560616 9341059
106.07011 -71.378952 96.099663 10919832
105.06547 -71.377739 96.671822 8946044
104.15063 -71.231209 97.226479 10393487
103.54217 -71.135445 97.594666 7038307
109.15012 -70.270485 94.072792 9209215
108.39921 -70.356979 94.659302 9735558
107.62273 -70.567719 95.208763 8025201
106.82792 -70.607597 95.853859 10788247
106.09917 -70.702927 96.373222 12367276
105.27341 -70.638618 96.862221 8617080
104.38162 -70.545341 97.382568 10261901
103.36942 -70.614693 97.901436 8222322
102.58147 -70.604355 98.331825 7695978
101.79616 -70.596031 98.759979 7630441
100.86943 -70.542015 99.283356 8222059
99.966606 -70.412781 99.824585 6511954
99.117004 -70.388901 100.29388 7235685
98.120346 -70.347679 100.84987 8485749
97.374077 -70.248276 101.29421 9077883
96.778229 -70.170563 101.64833 9801605
110.91338 -69.285477 93.063049 8815225
110.20985 -69.538216 93.531883 8223090
109.4892 -69.535934 94.134834 8551543
108.64735 -69.65271 94.783073 10854036
107.79864 -69.662949 95.487099 9933194
107.01868 -69.709038 96.116814 10722710
106.19531 -69.625488 96.77037 9538437
105.44131 -69.585342 97.202995 8353907
104.5475 -69.643906 97.662254 9340543
103.64536 -69.615555 98.161629 8089963
102.74646 -69.59005 98.658035 6642517
101.80496 -69.597313 99.164268 8024424
101.06614 -69.665558 99.535919 7367006
100.23634 -69.548248 100.03279 6511954
99.185776 -69.68763 100.54395 7038307
98.311584 -69.617104 101.04565 8485749
97.439789 -69.549606 101.54484 9341054
96.506348 -69.633789 102.01526 8551538
95.78183 -69.715096 102.37379 7893608
94.934441 -69.560921 102.88457 7892839
94.047729 -69.591904 103.31097 7892839
93.114395 -69.319397 103.88009 8946039
92.20726 -69.203415 104.3734 10064777
91.603676 -69.12793 104.70106 10854036
112.72858 -68.409309 91.958809 9933194
111.8989 -68.566078 92.57811 9670022
111.1236 -68.538872 93.238426 9736837
110.27722 -68.651268 93.892456 9868423
109.54731 -68.547668 94.550766 9077629
108.85858 -68.764771 95.023933 9012093
108.12164 -68.764549 95.639542 10130316
107.22113 -68.964447 96.297714 9933195
105.2275 -69.090126 97.521507 8813942
104.61377 -68.99572 97.892021 9537921
103.84846 -68.88002 98.353165 7366240
102.83151 -68.88221 98.902092 6313808
101.9698 -68.795479 99.403526 8155754
101.13026 -68.638542 99.921898 7893093
100.32153 -68.690727 100.33794 9471354
99.500832 -68.642311 100.80167 9208956
98.598083 -68.522484 101.33906 8551542
97.587479 -68.660706 101.82905 9538433
96.706009 -68.656792 102.3074 7959402
95.810928 -68.546654 102.83662 8156782
95.014671 -68.634468 103.21953 8025453
94.206993 -68.714478 103.58509 7959660
93.295509 -68.596069 104.08155 8814454
92.413025 -68.530907 104.54236 8617331
91.416183 -68.627022 104.99461 8880503
90.530907 -68.441254 105.50522 8485747
89.628723 -68.336121 105.99175 8551540
115.01143 -67.398727 90.526802 10260873
114.37999 -67.484749 91.013885 8945015
113.61479 -67.587082 91.605064 10524816
112.90177 -67.562256 92.212318 9012094
112.18341 -67.682755 92.7556 10064523
111.38608 -67.606422 93.457428 10065801
110.5376 -67.719505 94.112923 10131594
109.7334 -67.87719 94.710426 9012605
109.10999 -67.976135 95.184669 7564651
97.792023 -68.042 101.97186 9472641
96.892754 -67.929482 102.50427 8485749
95.995659 -67.82032 103.03423 8485749
95.042961 -67.749146 103.56138 7960176
94.225922 -67.549522 104.04393 9537923
93.486038 -67.626167 104.3775 12103845
92.547531 -67.65094 104.82973 10919826
91.656258 -67.648697 105.26951 8617075
90.749451 -67.541389 105.75921 7893612
89.801605 -67.617004 106.19561 8485747
88.856689 -67.695602 106.62936 8550770
87.956947 -67.597717 107.11177 8879991
87.106812 -67.462181 107.58489 8485751
86.162964 -67.411583 108.07005 8090995
85.268509 -67.323402 108.5459 9078399
117.60057 -66.144836 88.953033 16777207
116.81596 -66.441467 89.469078 10985620
116.15328 -66.521072 89.985291 11906721
115.4498 -66.723183 90.47802 9603456
114.69269 -66.593414 91.171471 8550513
113.9097 -66.559959 91.841309 12563882
113.03445 -66.61599 92.546089 8222581
112.25246 -66.795502 93.114922 8814715
111.56964 -66.954254 93.610611 9934216
111.01147 -66.99852 94.055946 9144446
93.352623 -67.113075 104.6494 14604230
92.718903 -66.886726 105.05247 11051412
91.877144 -66.748619 105.5225 8617075
90.967773 -66.642456 106.01293 7498856
90.01741 -66.719109 106.45014 8156783
89.112717 -66.619263 106.93578 9209212
88.210022 -66.522636 107.41915 8945784
87.267479 -66.608063 107.84898 9275008
86.327789 -66.696404 108.27629 9472645
85.431396 -66.608971 108.75283 11380381
84.536659 -66.524704 109.22728 9078654
83.663193 -66.549034 109.64735 9275777
82.751526 -66.365318 110.16988 10459537
81.861023 -66.290306 110.63818 8486519
81.268089 -66.241936 110.94938 7565675
119.4256 -65.198074 87.873283 11315613
118.7307 -65.405663 88.356285 12039850
117.97224 -65.645714 88.877083 13882312
117.17136 -65.708061 89.516823 12301222
116.3622 -65.617279 90.23542 9669761
115.57449 -65.57991 90.911003 8550769
114.75846 -65.600044 91.583267 9800323
114.01003 -65.850113 92.090981 10195852
113.32749 -66.069763 92.557915 8617337
90.189964 -66.001381 106.65365 8222576
89.283257 -65.902458 107.1399 9341054
88.351913 -65.657349 107.69701 9932419
87.475739 -65.714165 108.10566 9999243
86.574753 -65.624718 108.58533 8223604
85.675461 -65.538445 109.06283 9868169
84.797676 -65.560966 109.48606 9999750
83.775101 -65.683365 109.94041 9670785
82.908768 -65.65387 110.3788 10722709
82.016449 -65.579529 110.84781 7828847
81.12542 -65.508209 111.31486 8880761
80.197746 -65.617271 111.72733 10196618
79.402313 -65.468651 112.17851 10327692
78.459625 -65.312492 112.70515 10853525
77.86853 -65.272583 113.01198 9537665
120.88552 -64.166855 86.945267 10656913
120.43172 -64.452057 87.324409 13815489
119.73064 -64.65184 87.875099 10130826
118.83853 -64.690681 88.60218 10000008
118.04417 -64.646812 89.286301 10460816
117.32437 -64.510391 89.951729 8814709
116.63559 -64.682739 90.446114 8682867
115.73528 -64.907211 91.092766 9208698
115.1244 -65.099678 91.512657 10260873
86.43856 -64.882004 108.95078 7565675
85.838043 -64.825493 109.26929 8092016
84.825249 -64.793449 109.78094 9210491
84.040558 -64.663788 110.21944 9868164
83.144127 -64.587524 110.69156 9275778
82.2491 -64.514282 111.16171 9472900
81.376144 -64.548584 111.57771 9011834
80.387215 -64.73101 111.99088 9603969
79.496841 -64.666367 112.45496 11117464
78.607544 -64.604744 112.91727 13551549
77.719299 -64.546097 113.37789 10590609
76.832008 -64.490402 113.83681 11117723
76.001625 -64.53022 114.22937 10788759
75.060165 -64.387932 114.74993 10591889
121.24596 -63.572529 86.85006 8814197
120.52747 -63.65522 87.632912 9209211
119.83318 -63.63731 88.266121 9472639
119.14555 -63.660465 88.829704 9736836
118.36455 -63.754765 89.437851 9736836
117.72253 -63.837395 89.935387 9736836
82.403961 -63.804722 111.37064 9933450
81.418282 -63.872307 111.82886 8748149
80.614227 -63.668583 112.30665 8156269
79.721146 -63.604904 112.77184 9932934
78.82914 -63.544121 113.23518 11709345
77.938171 -63.486256 113.69682 10064521
77.012169 -63.607735 114.10349 10196621
76.088013 -63.731987 114.50815 9736070
75.200752 -63.682686 114.96461 10459535
74.31424 -63.636322 115.41958 8617587
73.428459 -63.592854 115.8731 10327947
72.577042 -63.376305 116.37925 9801606
71.757584 -63.305935 116.81091 8354418
70.840263 -63.128178 117.33393 9538174
70.250374 -63.10656 117.63294 9209467
122.58724 -62.338978 85.948685 9340027
122.09209 -62.568916 86.407333 9537405
121.51582 -62.716469 87.009003 8813941
120.88095 -62.686157 87.769554 9143418
120.06034 -62.846378 88.448006 9669762
78.976738 -62.83765 113.44692 9406590
78.083969 -62.780315 113.90923 9406590
77.192184 -62.72596 114.36987 10854036
76.301323 -62.674423 114.82887 10459534
75.411369 -62.625816 115.28639 11051416
74.522247 -62.580082 115.7424 8090987
73.633804 -62.537209 116.19694 9538176
72.745979 -62.497166 116.64998 10130054
71.88736 -62.505398 117.06927 8222573
70.938988 -62.601212 117.49742 9538174
70.053085 -62.569622 117.94623 9735296
69.167397 -62.540852 118.39366 9867141
68.31369 -62.339436 118.89492 11577503
67.575684 -62.319954 119.26598 10130057
123.6141 -61.246109 85.343117 9734782
123.02678 -61.549461 85.869881 9866368
122.35164 -61.563221 86.663116 10590091
121.70151 -61.659992 87.380272 10787727
76.146027 -61.953499 115.1954 10262155
75.551674 -61.921856 115.50072 12235690
74.603798 -61.785046 116.0223 8683124
73.804749 -61.658375 116.46655 10130570
72.914719 -61.618813 116.92046 10984849
71.968735 -61.655628 117.37126 9275003
71.103477 -61.723591 117.76977 9538174
70.215347 -61.692352 118.21944 9735296
69.327599 -61.663906 118.66783 9077368
68.440102 -61.638237 119.11497 10722450
67.552788 -61.615364 119.56091 9932678
66.665596 -61.595268 120.00562 9735555
65.838005 -61.478619 120.45992 10459278
64.986343 -61.354107 120.92916 9537667
64.063004 -61.201401 121.44508 8682616
63.470905 -61.194988 121.73912 9537667
125.24643 -60.249634 84.262917 9735555
124.66132 -60.355312 84.830872 9274486
123.96243 -60.486324 85.527687 9471608
123.35106 -60.615757 86.113396 9405816
122.67787 -60.727848 86.782097 11247763
72.867447 -61.08585 117.15833 10984849
72.125191 -61.055676 117.53577 9537918
71.268059 -60.846874 118.04234 9866882
70.3797 -60.817627 118.49609 10195589
69.491699 -60.791164 118.94868 9735039
68.603928 -60.646927 119.4836 9208955
67.76519 -60.587154 119.93701 10919573
66.876846 -60.568863 120.38616 8946039
65.988266 -60.55307 120.83373 10525071
65.099411 -60.539795 121.27979 9274495
64.210136 -60.529003 121.72437 7301222
63.320511 -60.520729 122.16749 9471875
62.430344 -60.514984 122.60923 9340546
61.582611 -60.351124 123.13551 9142909
60.690689 -60.350338 123.57481 9208699
59.846542 -60.198204 124.11343 10459022
58.952221 -60.202171 124.54997 9538176
58.355492 -60.206108 124.84029 9538176
128.22832 -59.167339 82.729973 9604482
127.47781 -59.209892 83.408211 9604482
126.47292 -59.440216 83.855507 11183002
125.77623 -59.605648 84.472633 10525072
124.99249 -59.723183 85.187943 9208695
124.4307 -59.866077 85.684563 9208435
66.045494 -59.927063 121.28619 10459278
65.30262 -59.916508 121.65935 10392718
64.410851 -59.906082 122.10573 7827565
63.571014 -59.744736 122.652 9472130
62.677395 -59.739101 123.09557 7959152
61.783123 -59.73579 123.53751 8748152
60.943096 -59.586056 124.09021 8550514
60.046158 -59.587166 124.5288 9011321
59.148205 -59.590405 124.96535 8485232
58.249107 -59.595695 125.39973 8616818
57.348667 -59.603043 125.83199 9077629
56.517555 -59.483917 126.42104 9340803
55.721931 -59.316902 126.99342 11050904
54.941929 -59.203491 127.2567 11445145
143.36662 -58.529373 73.477196 10063753
142.89674 -58.580505 74.252037 9734788
142.00963 -58.811649 74.660698 9472127
141.21022 -58.854321 75.109093 9932419
140.84666 -58.852806 75.787315 9209467
139.4157 -58.854004 75.882851 10786960
138.86328 -58.851788 76.886269 9077372
137.35565 -58.852642 77.13279 10129545
136.88823 -58.850834 77.956711 8880246
135.48903 -58.852077 78.023987 10129545
135.1111 -58.850658 78.674301 10326407
134.63477 -58.8489 79.484932 10128769
133.25063 -58.850178 79.533089 9010032
132.76884 -58.848454 80.332413 9537147
131.80428 -58.852997 80.834007 9076595
130.8159 -58.847889 81.314346 9340028
130.02457 -58.929035 81.910316 9274491
129.18407 -58.989185 82.469643 8551536
128.64032 -58.967224 83.215584 9341310
127.35838 -59.134041 83.9151 10262156
127.14 -59.126144 84.210411 10788244
54.708599 -59.0681 127.702 9076856
53.997955 -58.929836 128.16916 9668736
53.107029 -58.86171 128.46834 10261391
52.200504 -58.795521 129.08356 9669511
51.266323 -58.795444 129.45587 9341056
50.329449 -58.795387 129.82152 9735812
49.889656 -58.7925 131.02531 9208443
49.099655 -58.792488 131.32198 10129801
47.990715 -58.792484 131.72931 10721939
46.878502 -58.792515 132.12776 9077882
45.922478 -58.792564 132.46158 9735296
45.598598 -58.789722 133.60669 9537149
44.631912 -58.78981 133.93127 10062978
43.662895 -58.789917 134.24883 9339513
42.691643 -58.790047 134.55946 7564130
42.095833 -58.680046 135.51007 9274489
41.176323 -58.432831 135.75513 10064005
144.13733 -57.350216 72.996696 12103074
143.69836 -57.602539 73.572975 10261131
143.17851 -57.826183 74.309601 9734788
41.092026 -57.688534 136.02617 8748403
40.667183 -57.107342 136.09962 7563619
144.50218 -56.62582 72.889282 10656144
143.94894 -56.645821 73.830544 10656145
41.111153 -56.860485 136.38943 8813686
40.398037 -56.571083 136.19417 9011065
145.24834 -55.532532 72.389305 7367271
144.71178 -55.677074 73.211861 7827565
144.30911 -56.014557 73.663788 11379609
40.333294 -55.664032 136.52333 9668995
39.682812 -55.284683 136.39072 8813686
146.00856 -54.603531 71.746346 9734787
145.53484 -54.650982 72.530518 7827307
145.1472 -54.635754 73.211143 9011579
40.168739 -54.692356 136.8347 7563619
39.626953 -54.461754 136.6906 9011065
146.78645 -53.425514 71.251976 9734787
146.24678 -53.671227 72.007393 10392717
145.77757 -53.752861 72.759285 10129289
39.37344 -53.629963 136.90826 8616563
38.739315 -53.136486 136.82764 9143419
147.41473 -52.510147 70.826515 9735043
147.01231 -52.653614 71.41851 10261387
146.5388 -52.774551 72.149574 10984598
39.309578 -52.648685 137.26703 8156529
38.726788 -52.432262 137.09958 8946041
148.19698 -51.331738 70.324738 8090730
147.78017 -51.636066 70.825523 8748404
147.29411 -51.74556 71.586533 9735299
146.76607 -52.076836 72.260193 10853012
38.528515 -51.587746 137.3463 9077117
148.48062 -50.669388 70.312325 9735040
148.00273 -50.714405 71.105713 9735299
147.54655 -50.896515 71.762657 9932678
38.397755 -50.678734 137.64758 9076859
37.853382 -50.493633 137.48444 10129287
149.26645 -49.489918 69.805168 10130055
148.8194 -49.738731 70.39817 11709089
148.29033 -49.957336 71.154762 11379356
38.332302 -49.894142 137.92822 10853265
37.678837 -49.558624 137.77699 10524300
150.13171 -48.177872 69.256264 11051416
149.6501 -48.628113 69.763748 9603972
149.07584 -48.776321 70.649254 10590867
37.553356 -48.684639 138.06683 11774365
36.898174 -48.37812 137.90344 8681843
150.40253 -47.540009 69.24836 10459280
149.77193 -47.752705 70.184715 9932939
37.55061 -47.985291 138.34111 10853265
37.010674 -47.429523 138.32584 8616562
151.20772 -46.477642 68.722946 8682873
150.66708 -46.631901 69.500473 9011837
150.13419 -46.956329 70.133064 8485494
36.713421 -46.524776 138.55212 7301215
153.01637 -45.170841 67.481331 10261898
152.12975 -45.656937 68.274391 9538692
151.57106 -45.70512 69.165703 8090993
36.803856 -45.744614 138.89719 7170141
36.149887 -45.588833 138.73842 8683124
154.80028 -44.237663 67.158737 9537667
153.84174 -44.565083 67.182709 9801093
153.17305 -44.805969 67.858055 10459279
152.54768 -45.019623 68.519905 10196364
35.925385 -44.853699 139.18814 10196362
35.236435 -44.442455 139.28822 11577759
34.438145 -44.165257 139.4234 13024949
34.966431 -44.018204 140.11717 11577503
34.23278 -43.944118 140.043 10130057
33.446926 -43.826149 140.49521 9406334
32.713081 -43.781845 141.18095 8221549
31.691803 -43.782246 141.41243 7563619
30.839523 -43.7826 141.59984 7037786
29.910271 -43.779293 143.1337 5919050
29.220173 -43.779606 143.27501 5919050
28.183811 -43.780094 143.48123 6116172
27.427361 -43.558113 144.22176 6182222
26.770679 -43.264809 144.235 7958376
27.323452 -42.880093 144.62778 6510930
26.701817 -42.487625 144.51326 11906724
26.521706 -41.693169 144.74998 13289146
25.873371 -41.41806 144.57733 13354939
26.437469 -40.854328 145.04596 12631216
25.884407 -40.4184 144.9785 12631216
25.625179 -39.538582 145.21463 10920342
25.555622 -38.719017 145.50778 9012344
24.984913 -38.521587 145.33795 9407358
24.859184 -37.560753 145.66153 8880246
24.766598 -36.57378 146.0098 9932678
24.193844 -36.410179 145.82578 9932678
24.725765 -35.770077 146.30844 9932678
23.960258 -35.570984 146.05476 9538434
23.911552 -34.653545 146.39467 9933962
23.265774 -34.346355 146.23546 10262926
23.36961 -33.517101 146.60687 10526097
22.939548 -32.668343 146.75433 10526097
23.041744 -31.836412 147.1261 8090989
22.39518 -31.535767 146.96396 12959925
22.300789 -30.55858 147.32935 11511966
21.597176 -30.267704 147.17273 9998215
22.040695 -29.813078 147.72182 10064779
21.37672 -29.478487 147.7402 10919830
20.821766 -29.085867 148.10223 11380380
20.314037 -28.933704 148.38338 9669507
19.624813 -28.780823 148.67906 8748149
18.903763 -28.774961 148.73801 8089963
16.430649 -28.771002 151.07687 8092019
15.520162 -28.771667 151.17203 8092019
14.791402 -28.772209 151.24469 8092019
13.089837 -28.452997 152.84807 7039331
12.732709 -27.611616 153.02469 6841695
12.172338 -27.094252 152.98541 8089959
12.765885 -26.592384 153.44087 7893609
12.189492 -26.545891 153.209 9142645
11.976624 -25.657276 153.46689 8221544
11.269765 -25.190073 153.34424 10261124
11.923982 -24.748838 153.80215 8287337
11.446576 -24.394373 153.73462 9932160
11.095719 -23.60104 153.89508 10459020
11.052209 -22.688396 154.23601 9472384
10.42312 -22.480053 154.04504 9406590
10.978997 -21.850967 154.53432 8090987
10.329579 -21.438932 154.41489 9538177
10.046605 -20.68026 154.59102 10590608
9.6047678 -20.406677 154.50705 10129799
10.257596 -19.950293 154.97012 12433069
9.5465746 -19.490908 154.84247 9208954
9.3268976 -18.594902 155.10002 9735298
8.7509241 -18.563927 154.86226 8682867
9.3398333 -18.036192 155.32567 10853521
8.7735605 -17.526985 155.28049 12695467
8.4577265 -16.54353 155.53076 13814459
8.0336161 -16.102831 155.52022 10853777
8.4325113 -15.563251 155.96155 11182486
7.8555379 -15.53834 155.72661 9801347
7.6882405 -14.897163 156.16759 9208443
7.016953 -14.384992 156.35425 9603200
6.0296025 -13.909529 157.21408 9800836
5.4538808 -13.892189 157.02493 10458766
0.92599541 -13.761464 160.21542 9208699
-0.039405271 -13.762444 160.21758 8617333
-0.88426155 -13.330735 161.46921 8813942
-1.4005808 -13.444106 161.20053 8616563
-1.0160745 -12.676213 161.66957 8089963
-1.5150675 -12.605218 161.48106 8879736
-1.7974848 -11.592109 161.75722 9275008
-2.3823085 -11.073248 161.70764 9011838
-1.8038629 -10.498837 162.18469 9011838
-2.3865123 -10.484715 161.93747 9340802
-2.5876231 -9.4965115 162.23909 10656659
-2.5953212 -8.5092201 162.62427 9932679
-3.1783824 -8.4981546 162.37567 9866882
-3.3815913 -7.504777 162.67847 10458763
-3.5203013 -6.5756493 162.98392 10327692
-4.0402675 -6.4358182 162.81342 10853779
-4.1320415 -5.4547625 163.15964 10196108
-4.3864284 -4.5019751 163.42426 10788502
-4.9701762 -4.4969163 163.17294 9012606
-4.1984324 -3.9013009 163.74216 11906725
-4.935142 -3.4437752 163.6026 8815227
-5.3078685 -2.525342 163.80263 8486005
-5.7789378 -2.2817426 163.69426 9208443
-5.1998744 -1.8790147 164.10446 8354163
-5.7926021 -1.3570461 164.05309 11642779
-6.0045009 -0.45784387 164.39813 10327178
-6.5963817 -0.25538397 164.30359 10655630
-6.8126826 0.3570106 164.71771 10919830
-7.8416286 0.97420502 165.41876 11314332
108.08293 -68.272293 95.903145 8814713
107.37277 -68.406532 96.433266 10130314
106.52897 -68.566818 97.014542 8617331
105.53619 -68.561401 97.571243 8550770
104.68551 -68.393196 98.100128 9669763
103.97528 -68.420616 98.472847 8221805
103.033 -68.377457 99.000031 6379601
102.11879 -68.245903 99.548157 7629667
101.51067 -68.159988 99.912086 8287594
109.75354 -67.364449 94.934578 8748919
108.92766 -67.533012 95.545113 8683127
108.1999 -67.474495 96.180473 9209214
107.51189 -67.696304 96.650841 10393485
106.69716 -67.664558 97.292374 8748917
105.79434 -67.640915 97.8088 8156268
104.89506 -67.553322 98.33094 8945784
103.93086 -67.618095 98.825676 7958377
103.18283 -67.68441 99.202957 7234654
102.34303 -67.564804 99.705986 7300446
101.2797 -67.70134 100.22495 9142646
100.39536 -67.628288 100.73313 11313044
99.638901 -67.527534 101.18359 9208699
98.836548 -67.611343 101.58323 9011321
97.933525 -67.496246 102.11881 9340542
97.032707 -67.384438 102.6518 8025200
96.185867 -67.375626 103.11349 7893615
95.490326 -67.386627 103.48514 7565675
112.15318 -66.339684 93.412094 8156016
111.46037 -66.371262 93.975883 9735812
110.77364 -66.59581 94.443855 8419696
110.05188 -66.533363 95.076027 7959146
109.20375 -66.652931 95.728188 8946298
108.40785 -66.589722 96.422585 8946298
107.56236 -66.715149 97.069801 10590864
106.82716 -66.838104 97.578323 9735555
106.05229 -66.721191 98.046227 8551282
105.05855 -66.655731 98.610329 9801349
104.14903 -66.632713 99.111473 8748405
103.31515 -66.514053 99.610939 9932162
102.43018 -66.706909 100.01032 7893094
101.59972 -66.656219 100.48012 8024936
100.68644 -66.533829 101.02407 9143159
99.664009 -66.669334 101.52148 10129543
98.872398 -66.621887 101.96911 9142650
98.119637 -66.628151 102.37369 8747893
97.282181 -66.585663 102.84404 8156785
96.246552 -66.682312 103.36463 7893615
95.36821 -66.623344 103.85198 7828590
94.47654 -66.556274 104.31964 8288884
93.487656 -66.572311 104.80018 12827823
92.770241 -66.299324 105.26318 10656654
92.009544 -66.209061 105.6741 8682867
91.401978 -66.138214 106.00169 7762027
114.07652 -65.377167 92.257622 11774365
113.29207 -65.57386 92.820549 7827305
112.49721 -65.607582 93.468719 7826790
111.69543 -65.534172 94.172943 8945783
110.84275 -65.649597 94.830856 6839895
110.10663 -65.549461 95.492729 6708568
109.43015 -65.830566 95.925606 8551541
108.65375 -65.888657 96.546745 8419956
108.02895 -65.992752 97.019661 9735555
103.0203 -66.092964 99.942902 9866624
102.56057 -66.029724 100.21735 9866624
101.79578 -65.926109 100.67324 7959142
100.85809 -65.651184 101.29285 7630434
99.967499 -65.686996 101.75973 11511708
99.057159 -65.572441 102.29899 9142650
98.234352 -65.533829 102.75987 9142650
97.365929 -65.741066 103.14465 8880506
96.548874 -65.645096 103.62594 8288371
95.643333 -65.539017 104.15058 8946555
94.613785 -65.676254 104.60571 9077629
93.712479 -65.6716 105.05144 7959403
92.795784 -65.561661 105.54707 8353646
91.968216 -65.526512 105.96871 8616819
91.099091 -65.734718 106.31303 7367271
90.319199 -65.46357 106.80608 8156530
89.411026 -65.36528 107.29284 9077370
88.806618 -65.301384 107.61613 9932419
115.78519 -64.495758 91.244331 9669504
114.94273 -64.649139 91.876091 10721934
114.20261 -64.575394 92.529015 9867138
113.48383 -64.553955 93.139557 8023913
112.76028 -64.677231 93.686073 7695204
111.95634 -64.604691 94.391724 8813685
111.11028 -64.830231 94.992493 6510930
110.33062 -65.036194 95.546913 6510930
98.091629 -65.080238 103.02286 9208699
97.336243 -64.990921 103.46796 9209470
96.582275 -64.903778 103.91148 8486262
95.826599 -64.816757 104.34953 10064520
94.834259 -64.800995 104.84886 8156523
93.982002 -64.591728 105.35264 6709077
93.089447 -64.532623 105.81596 7037530
92.029846 -64.687691 106.27541 9340799
91.191628 -64.593849 106.72593 7762029
90.382446 -64.551529 107.14142 7959408
89.599525 -64.572853 107.51842 8551283
88.603828 -64.685379 107.96352 8814453
87.725288 -64.642601 108.41335 8288624
86.86924 -64.513435 108.88683 7565675
86.011833 -64.332321 109.38184 9342085
85.168648 -64.400574 109.76966 10196872
118.4505 -63.274807 89.59156 9736836
117.46275 -63.577461 90.274467 9472897
116.6853 -63.676971 90.877159 9867399
116.00361 -63.708691 91.431732 9407362
115.28537 -63.580933 92.091759 9933187
114.49591 -63.55127 92.765137 9078392
113.61397 -63.611095 93.473801 8155499
112.83623 -63.921196 93.977852 8944247
112.24691 -64.059044 94.405388 9207163
92.844467 -64.088623 106.11503 9537920
92.206306 -63.869034 106.51749 10261643
91.359581 -63.738708 106.98688 7959408
90.44503 -63.640549 107.47672 8682873
89.568993 -63.610237 107.9203 8748661
88.834869 -63.703205 108.24448 9406589
87.974586 -63.572285 108.72068 9538176
87.095299 -63.533348 109.1694 8684155
86.061783 -63.651531 109.63084 12368304
85.179184 -63.675896 110.05571 12038562
84.278397 -63.597652 110.53076 9210491
83.379143 -63.522411 111.00382 8420724
82.575493 -63.367413 111.46185 9736071
81.584877 -63.380894 111.94428 9669508
120.73705 -62.24683 88.164375 10656913
120.08858 -62.326294 88.668747 9669762
119.19943 -62.650463 89.259193 9736068
118.40756 -62.626518 89.931984 9077625
117.73279 -62.729912 90.447083 9867141
116.96455 -62.600574 91.149567 10985879
116.17041 -62.567253 91.828682 9538948
115.4184 -62.636299 92.424416 11182484
114.65317 -62.881203 92.948677 9933187
114.04218 -63.078243 93.36647 7565667
90.268532 -63.072208 107.79193 10261132
89.659523 -63.009766 108.11701 10853265
88.747581 -62.918518 108.60275 11971743
88.030441 -62.666588 109.05717 9406593
87.21212 -62.667435 109.45983 9473157
86.32486 -62.689999 109.88767 14604488
85.419594 -62.609848 110.36572 11972258
84.515945 -62.532684 110.84171 10195847
83.634506 -62.563217 111.26353 8747889
82.6082 -62.694237 111.71626 8616563
81.737663 -62.672859 112.15356 7432545
80.840729 -62.60717 112.62168 8288879
79.944969 -62.544441 113.08801 8288879
79.087189 -62.308102 113.60542 7433056
78.156807 -62.427578 114.01538 9867141
121.58233 -61.273575 87.738235 10261384
121.01762 -61.56147 88.219521 9998984
120.29036 -61.652321 88.816887 9143676
119.47762 -61.715256 89.466179 9735812
118.65643 -61.625202 90.194519 10130313
117.91472 -61.546303 90.851212 11051416
117.20947 -61.761398 91.339294 9670535
116.31203 -61.958416 91.996399 9670535
86.335625 -61.965569 110.17348 14077885
85.579758 -61.899685 110.57224 11248536
84.618538 -61.728439 111.11442 11117207
83.742409 -61.702492 111.55626 8813941
82.867775 -61.67926 111.99635 8616563
81.966682 -61.611607 112.46728 8024680
81.066917 -61.546864 112.93634 10327943
80.168442 -61.485012 113.40371 7894378
79.234367 -61.602364 113.81654 6511954
78.302254 -61.722385 114.22732 10525071
77.407898 -61.668846 114.68915 10656913
76.560478 -61.576122 115.14349 10262155
75.656845 -61.394238 115.66133 11511967
74.830948 -61.31699 116.09889 9077882
73.907242 -61.131405 116.62821 10130570
73.312927 -61.104874 116.93136 10984849
123.3083 -60.154388 86.672531 10129540
122.75153 -60.356407 87.092613 10392715
121.97867 -60.610371 87.726242 10655631
121.19047 -60.708347 88.549057 9341055
120.41444 -60.721004 89.209473 9012091
119.63541 -60.773891 89.807793 9538178
118.87706 -60.878231 90.361206 10459278
82.72097 -60.948841 112.36214 8616563
82.119217 -60.904613 112.67626 8353646
81.217667 -60.840496 113.14599 10722700
80.272408 -60.694744 113.69565 8157549
79.435524 -60.733955 114.10525 7104091
78.541107 -60.681259 114.57551 9670018
77.649429 -60.632801 115.04687 9143418
76.758408 -60.586945 115.51632 9275260
75.867683 -60.543587 115.98368 10656657
74.977097 -60.502537 116.44871 10327693
74.086899 -60.464092 116.91186 11248538
73.196922 -60.428101 117.37318 10590092
72.248306 -60.548923 117.73657 9998212
71.416878 -60.363346 118.28918 10327176
70.528999 -60.33625 118.74774 10261382
69.640961 -60.311588 119.20451 9735039
69.048798 -60.296379 119.50799 8682867
125.31606 -59.277046 85.629059 9735297
124.47939 -59.444733 86.307838 8551021
123.80303 -59.603481 86.797585 8946036
122.94116 -59.75695 87.579063 10524303
122.1787 -59.972679 88.226692 9932422
121.59251 -60.086418 88.786392 9012091
76.110069 -59.920753 116.35468 10458766
75.218712 -59.88179 116.82438 9866373
74.327484 -59.845131 117.29188 10853012
73.392319 -59.731304 117.84518 9998215
72.545158 -59.778992 118.22111 9340541
71.654037 -59.749565 118.68267 10261387
70.762856 -59.7225 119.14227 10919061
69.871513 -59.69783 119.60001 11313818
68.979965 -59.675518 120.05583 10459276
68.088158 -59.655552 120.50982 13222324
67.196083 -59.637997 120.96199 9472642
66.463684 -59.415226 121.63676 9736071
65.568748 -59.347523 122.15619 11577760
64.676186 -59.339779 122.60992 9143680
63.861801 -59.20496 123.21445 8090991
62.966248 -59.201359 123.66428 8617331
62.068958 -59.199104 124.11044 8156523
61.286491 -59.108089 124.79137 8418928
60.383934 -59.10862 125.23117 8089963
59.479542 -59.1105 125.66736 8089963
58.573296 -59.113762 126.09992 8813942
57.665314 -59.118366 126.52885 9011581
57.058945 -59.122166 126.81307 8814203
142.29395 -58.52253 75.335182 9800835
141.76784 -58.589478 76.195656 9472127
140.57167 -58.851685 76.294624 9735299
140.10924 -58.849819 77.137947 10261132
138.30373 -58.849586 77.88575 7827822
137.83208 -58.847767 78.715546 10129545
136.32094 -58.848686 78.941856 9603457
135.74657 -58.84655 79.922874 9865597
134.34657 -58.847847 79.969879 10128769
133.95932 -58.846455 80.614708 8944240
133.47127 -58.84473 81.418358 8550256
132.08659 -58.846062 81.446556 8813424
131.59335 -58.844372 82.238762 8748146
130.61075 -58.844036 82.719398 7827557
129.62608 -58.843731 83.192253 8551536
128.8528 -58.879585 83.867271 8420720
127.87526 -58.938236 84.256096 8092011
127.05435 -58.994732 84.947884 10327693
126.26282 -59.096012 85.388451 9011832
125.71194 -59.078449 86.121971 9538176
60.614983 -58.927246 125.71207 8747893
59.707161 -58.929134 126.14996 8813942
58.797367 -58.932392 126.58432 9274749
57.885841 -58.936989 127.01499 9275008
56.972664 -58.943039 127.44198 9669254
56.057495 -58.950436 127.86544 10129546
55.388023 -58.854061 128.43491 9406335
54.745941 -58.792938 129.07919 10786959
53.811646 -58.792816 129.46997 9866627
52.874695 -58.792698 129.85396 9866882
51.934929 -58.792614 130.23116 9340540
50.99247 -58.792553 130.60158 9011064
50.387215 -58.790344 131.62086 9208443
49.441017 -58.789597 132.23882 9208955
48.484131 -58.789593 132.59119 9209467
47.524719 -58.789616 132.93663 9208953
46.56287 -58.789658 133.2751 9537149
46.079147 -58.786789 134.48907 8945008
45.26836 -58.786858 134.7628 7892581
44.255341 -58.741554 135.24521 9142135
43.409569 -58.501762 135.69345 11247251
42.635117 -58.449757 135.80299 12037536
143.11992 -57.282146 74.803421 9735045
142.57397 -57.567722 75.540474 9801094
142.10336 -57.823009 76.169212 9735043
43.301155 -57.691265 136.10919 12629159
42.42387 -57.681282 136.13416 10787727
41.668549 -57.418182 136.25716 8879989
143.79416 -56.399288 74.275795 10787732
143.34364 -56.58625 74.919136 10853780
142.87138 -56.639896 75.69622 9933193
42.484287 -56.716465 136.51663 7827814
41.57629 -56.531994 136.5937 7827559
144.56635 -55.218735 73.793694 13023917
144.09087 -55.554829 74.372688 10195851
143.58839 -55.723545 75.118881 10854293
143.14827 -55.978813 75.694984 9933193
42.323147 -55.940533 136.8293 7564643
41.642925 -55.622749 136.96269 7168861
41.030979 -55.423428 136.92062 8024170
144.85634 -54.625237 73.721169 11971488
144.37132 -54.609032 74.570686 8024943
143.91916 -54.796146 75.216698 8486262
40.795151 -54.615768 137.13469 7497825
145.57344 -53.563595 73.24855 11313561
145.08104 -53.626644 74.053558 11840159
144.62794 -53.81295 74.701927 7038307
40.644955 -53.682529 137.43893 7498081
40.149719 -53.276108 137.38429 7761253
146.34407 -52.463669 72.710358 10853012
145.93536 -52.690113 73.253273 10853012
145.50032 -52.634254 74.045341 10919060
40.03014 -52.619473 137.59103 7498343
147.22102 -51.287273 72.04335 9209467
146.69261 -51.61937 72.716988 9734527
146.1526 -51.707085 73.586952 10129286
39.803059 -51.729988 137.8429 9011581
39.248566 -51.258099 137.78833 10261132
147.39012 -50.647152 72.212799 9472383
146.92726 -50.669102 72.996864 9340024
146.56914 -50.857552 73.479828 8681835
39.861374 -50.743572 138.25671 8419702
39.210186 -50.487949 138.07501 9932168
148.23167 -49.40752 71.652771 10458766
147.70091 -49.739517 72.330505 9998471
147.2682 -49.772919 73.054207 9603711
39.056839 -49.693974 138.32123 9603204
38.395535 -49.381546 138.15758 10853265
148.91881 -48.525345 71.10154 9011838
148.4604 -48.708096 71.762024 9340799
147.98024 -48.755699 72.557434 10130057
38.989307 -48.713341 138.67821 10656401
38.350422 -48.425777 138.51443 13156273
149.70659 -47.342854 70.593239 7038307
149.22218 -47.676311 71.189796 9472388
148.71092 -47.840137 71.955162 9011836
148.26302 -48.092003 72.547539 8287853
38.217285 -47.517555 138.81439 8747892
150.59102 -46.187744 70.124763 7038307
150.0963 -46.424492 70.701843 7038307
149.55234 -46.642868 71.400612 6709083
149.0491 -46.9076 72.043404 5919050
38.013317 -46.676212 139.05708 6510930
37.426888 -46.47522 138.88135 6576979
151.48909 -45.474419 69.657234 8485494
151.03539 -45.604916 70.242546 7564650
150.51637 -45.714397 70.972435 8353651
37.996029 -45.971405 139.32605 7958120
37.262119 -45.504124 139.2733 7367008
154.4921 -44.240929 67.910118 10392718
153.68643 -44.348587 68.661469 9670278
152.6209 -44.669186 69.215538 9472899
151.9362 -44.889099 69.773552 8946044
151.44972 -45.094528 70.30175 7038307
37.401413 -44.888905 139.79803 9012088
36.537266 -44.577282 139.70583 7762278
35.887161 -44.111862 140.20773 8090986
155.36293 -43.995319 67.847916 8287859
35.417713 -43.962673 140.48555 10130057
34.768356 -43.802998 140.76735 9603969
33.902527 -43.78141 140.90176 8682867
33.00679 -43.778015 142.45537 9537665
32.319874 -43.778286 142.61157 10853781
31.288235 -43.778702 142.84018 9011320
30.427395 -43.779072 143.02518 5919050
29.484371 -43.775726 144.57816 8813686
28.785412 -43.773247 144.70796 9208444
28.065399 -43.441833 144.72736 7563618
27.870789 -42.611477 144.97208 9405822
27.917187 -41.640354 145.37726 10853524
27.339115 -41.463047 145.19641 12367275
27.11124 -40.616776 145.43294 11183259
26.946819 -39.698856 145.72513 9341053
26.316811 -39.447983 145.55069 9275261
26.850986 -38.90197 145.99751 8090986
26.376804 -38.47921 145.95828 6906712
26.026421 -37.66003 146.12871 8222316
25.400059 -37.279022 146.00702 9932678
26.204529 -37.03146 146.45337 6511954
25.503517 -36.537693 146.34357 9735299
25.413712 -35.553551 146.69193 11117208
24.750671 -35.41803 146.45766 11380380
25.202419 -34.584923 146.98154 9932678
24.650105 -34.623192 146.7269 11117465
24.486229 -33.606258 147.05602 10196876
24.352604 -32.699123 147.35507 9407359
23.884563 -32.377262 147.27876 8617587
23.613968 -31.620966 147.45903 7432544
23.568886 -30.766813 147.78035 8090218
23.013672 -30.355591 147.73245 7564651
22.737751 -29.59544 148.20074 7564651
21.992844 -29.267508 148.22234 9604229
21.878029 -28.916815 149.10469 11380380
21.121861 -28.866999 148.94293 10590864
18.79504 -28.769348 150.80319 8550771
17.704311 -28.7701 150.93399 7563619
16.976658 -28.770611 151.01714 7563619
14.992871 -28.766239 153.32507 13882064
14.245564 -28.553455 153.30518 10328983
14.079236 -27.804644 153.5331 11842737
13.511212 -27.425463 153.436 8289655
13.494542 -26.513468 153.7883 7039331
13.18282 -25.705059 153.97168 8551282
12.675397 -25.420004 153.86375 7366237
13.207463 -24.968626 154.27264 9209467
12.640534 -24.510162 154.20731 8880245
12.412393 -23.553396 154.48546 10393226
11.707578 -23.380424 154.24774 9209467
11.779469 -22.598835 154.58699 8617331
11.650479 -21.57629 154.93408 9472383
10.994416 -21.295673 154.75992 8814454
11.396752 -20.763151 155.14435 8090987
10.938943 -20.511732 155.04472 10064521
10.782701 -19.608377 155.3327 10130313
10.683236 -18.481441 155.73334 9867910
10.102498 -18.450029 155.49374 9603968
9.9325075 -17.505627 155.79187 8552049
9.7984362 -16.635691 156.07632 9276285
9.2798662 -16.441782 155.92761 12565679
9.2052393 -15.59704 156.27612 11117462
9.035737 -15.04303 156.63077 10195336
8.3101511 -14.545344 156.72737 10590350
7.1853185 -13.944602 157.59131 10195336
6.6064992 -13.926965 157.40324 9208443
3.2428823 -13.75918 160.18695 11182742
2.084496 -13.76031 160.20535 10130057
0.54440361 -13.507255 162.01962 9143419
-0.1582865 -13.249856 161.81601 8945784
-0.31558937 -12.540829 162.02679 8484977
-0.43460792 -11.71367 162.30069 8879991
-1.020965 -11.344049 162.19174 8156014
-1.023971 -10.517941 162.51553 8222322
-1.2623285 -9.6045256 162.77159 10590866
-1.8094705 -9.5133562 162.5701 9801352
-1.8147959 -8.5242033 162.95703 9209727
-2.1458964 -7.6577773 163.15439 8946298
-2.6042705 -7.318892 163.08884 9406334
-2.2173839 -6.7272859 163.48959 6510930
-2.6885829 -6.4809637 163.38206 8485232
-2.9599681 -5.5679698 163.6236 8287597
-3.4043803 -5.1126595 163.61002 7958632
-3.018127 -4.5140977 164.01309 7958632
-3.6056056 -4.508872 163.76031 10525072
-3.7629848 -3.4509912 164.10837 9801607
-3.8220744 -2.4906721 164.46126 8089962
-4.4100795 -2.4884014 164.20691 7959919
-4.5697093 -1.4235656 164.55769 10064009
-4.7622676 -0.52434063 164.88353 11380380
-5.2889781 -0.38894442 164.76314 10722450
-5.5182872 0.32011062 165.24707 10261899
-6.2325969 0.56410491 165.1396 10459278
-6.2703471 0.98166513 166.11334 10459278
-6.8609233 0.97883928 165.85219 10590609
106.82611 -66.261444 97.812431 8617331
106.05174 -66.146614 98.281975 8682868
109.29515 -65.332222 96.272552 7893614
108.67087 -65.37883 96.772003 7893614
107.84344 -65.553825 97.380829 9077627
107.05635 -65.575439 97.963264 8682870
106.12313 -65.545273 98.489777 9603715
105.32785 -65.706451 98.853691 10327693
104.45164 -65.533577 99.398232 8222577
103.477 -65.587189 99.903183 7564384
102.55553 -65.461143 100.45305 10524297
101.78965 -65.358574 100.90911 7038298
101.28243 -65.480324 101.13348 7038298
111.07121 -64.338234 95.256325 6510930
110.29106 -64.54512 95.810722 6708825
109.49883 -64.590607 96.450981 7301478
108.78909 -64.482742 97.094437 7104100
108.13672 -64.597031 97.585571 8024687
107.22118 -64.675804 98.239952 8813945
106.30731 -64.655266 98.754814 8090736
105.46302 -64.534744 99.260689 8090992
104.63159 -64.64637 99.664444 7498857
103.72626 -64.673401 100.14284 6314832
102.80209 -64.54879 100.69355 6775126
101.8319 -64.609634 101.19318 6840919
101.06975 -64.753197 101.54639 7433056
100.25498 -64.5961 102.05124 11379607
99.367668 -64.533066 102.55684 9932678
98.383507 -64.55455 103.08026 9866885
97.475281 -64.447838 103.61523 8946556
96.638672 -64.314941 104.12211 8486262
95.918159 -64.455841 104.44888 10064520
95.149124 -64.361931 104.87024 8682867
112.76575 -63.438683 94.263374 7826534
112.02795 -63.532825 94.835518 7892840
111.36539 -63.650898 95.333519 7169116
110.60762 -63.541653 96.017868 6906457
109.81335 -63.587654 96.659691 7367271
108.95088 -63.604233 97.3722 8354163
108.15258 -63.73597 97.977051 7498857
107.42317 -63.896999 98.451416 8945531
106.56373 -63.738266 98.991936 7630186
105.5618 -63.679005 99.557899 7893614
104.69629 -63.621017 100.0496 7169893
103.92239 -63.61797 100.46925 6709590
103.11374 -63.564651 100.92828 7564642
102.07564 -63.699226 101.43441 7695971
101.20505 -63.541756 101.96963 7433056
100.45927 -63.621029 102.34034 7564642
99.514404 -63.648567 102.8399 9867141
98.61763 -63.648727 103.3247 10064520
97.706818 -63.543198 103.8605 8157297
96.815353 -63.548882 104.34035 7828589
95.895607 -63.657276 104.7845 7564645
95.126602 -63.663456 105.16204 8090730
94.251266 -63.513 105.65359 7695716
93.284027 -63.585529 106.10075 7103324
92.462463 -63.400429 106.57967 9537920
91.489563 -63.201611 107.13868 8090994
90.878571 -63.136196 107.4659 8419702
115.06564 -62.410896 92.824997 11182484
114.57918 -62.492142 93.193184 10525067
113.85754 -62.632084 93.730309 8813940
113.06866 -62.609039 94.400169 7432805
112.26029 -62.539387 95.108162 7695978
111.52534 -62.541748 95.721016 7761766
110.79982 -62.647942 96.277184 6643541
109.99059 -62.799965 96.881744 7301475
109.23602 -63.058743 97.390388 8354163
103.04173 -63.070137 101.16986 11709343
102.27052 -62.971283 101.62732 9142903
101.34747 -62.855545 102.17377 9998211
100.40319 -62.833698 102.69328 8485231
99.696854 -62.879955 103.05619 8814710
98.851685 -62.743526 103.56904 9341054
97.938217 -62.639221 104.10562 8091503
96.954926 -62.669304 104.62511 9538692
96.067719 -62.617039 105.11646 7959402
95.188904 -62.466858 105.61218 7038042
94.404663 -62.643528 105.92741 9669762
93.505676 -62.688431 106.3521 9537920
92.583092 -62.585625 106.84774 8879991
91.690323 -62.534752 107.30784 7893615
90.683563 -62.644638 107.75946 9340289
89.786461 -62.474346 108.26968 10129801
88.873001 -62.383678 108.75593 11182230
88.154633 -62.132336 109.21071 9537667
117.67293 -61.136707 91.245651 9144448
117.01836 -61.453979 91.643288 10262414
116.37617 -61.543346 92.137856 8684154
115.55064 -61.69278 92.75724 8814965
114.73676 -61.616287 93.473091 10064519
114.01635 -61.496635 94.131157 8946041
113.35287 -61.601452 94.636124 8419958
112.56356 -61.653732 95.270973 7564651
111.60745 -61.916771 95.946114 7761766
111.01751 -62.059395 96.371964 7169629
97.012436 -61.980213 104.87627 9933193
96.249847 -61.896809 105.31511 9735813
95.319641 -61.788452 105.82045 7959144
94.433807 -61.760803 106.26782 10327435
93.72171 -61.653271 106.66167 10459023
92.845795 -61.511406 107.15002 8748409
91.816864 -61.663883 107.5955 8354676
90.915833 -61.675034 108.03471 9210495
89.997902 -61.582447 108.52397 8748665
89.081993 -61.492874 109.01104 10524304
88.065666 -61.656353 109.44579 9274752
87.272598 -61.635265 109.8448 8748922
86.581306 -61.564682 110.21362 10064778
85.699791 -61.367367 110.72699 11248536
84.943848 -61.303879 111.12479 9800575
120.31535 -60.308262 89.641235 8288371
119.77931 -60.255825 90.140762 8419699
119.00749 -60.355202 90.685966 9406590
118.18846 -60.553406 91.190346 10590864
117.26707 -60.725048 91.83696 9144447
116.56229 -60.609898 92.51902 7893615
115.86771 -60.642635 93.067848 8748663
115.02695 -60.700298 93.708382 10788243
114.13449 -60.800289 94.359612 8880247
113.21668 -61.101196 94.984924 8419958
91.98288 -60.906998 107.81966 9144190
91.137825 -60.788017 108.29789 9473666
90.225876 -60.70224 108.79836 7235429
89.315605 -60.619259 109.2964 9932424
88.355133 -60.709827 109.72788 9340288
87.450035 -60.63335 110.22295 7762030
86.600174 -60.522522 110.71607 9998729
85.79734 -60.502499 111.12893 10985364
84.93911 -60.548115 111.51934 8747628
84.025612 -60.702534 111.8631 9340024
83.178299 -60.599491 112.34512 10459023
82.286751 -60.413418 112.9062 8090218
81.39399 -60.35767 113.39183 8881014
80.574669 -60.276993 113.86197 8814965
