# .PCD v0.7 - Point Cloud Data file format
VERSION 0.7
FIELDS x y z rgb
SIZE 4 4 4 4
TYPE F F F U
COUNT 1 1 1 1
WIDTH 1177
HEIGHT 1
VIEWPOINT 0 0 0 1 0 0 0
POINTS 1177
DATA ascii
-94.279045 -55.795368 -115.86616 8616307
-93.679092 -55.687012 -115.98306 8089963
-85.027763 -55.789883 -117.5015 8617072
-84.290428 -56.05653 -117.7451 8156270
-83.385155 -56.04467 -118.19726 7827564
-82.48243 -56.035782 -118.64911 8418929
-81.679886 -56.186172 -118.98871 10062979
-80.757225 -56.618793 -119.27715 11378324
-14.748957 -56.074619 -132.29579 10590609
-13.745542 -55.999279 -132.27055 7368039
-12.774769 -56.164478 -132.15916 7827562
-11.856375 -56.071396 -132.14487 8616562
-11.027589 -55.736206 -132.22383 9932163
-93.078255 -55.577892 -116.09499 7300958
-92.275917 -55.431244 -116.23789 6906711
-91.271088 -55.246197 -116.40526 6709333
-90.264503 -55.059185 -116.56129 7169629
-89.380432 -54.945732 -116.86497 7169629
-88.34639 -54.956497 -117.14127 9735555
-87.358139 -54.954456 -117.45209 7827814
-86.391632 -55.098434 -117.58344 7235683
-85.440834 -55.17609 -117.86733 8156782
-84.513924 -55.197754 -118.23286 7564385
-83.628456 -55.284626 -118.53697 6775126
-82.588562 -55.466084 -118.8743 8551023
-13.536186 -55.209881 -132.54816 7039331
-12.813187 -55.168533 -132.52527 7630953
-11.850728 -55.11554 -132.49403 9735555
-10.889953 -55.065113 -132.46196 9471870
-10.040559 -54.912079 -132.47324 10985109
-9.3016443 -54.655674 -132.52815 14076861
-12.677929 -54.495945 -132.76407 7301473
-11.844737 -54.160282 -132.843 7367263
-10.922988 -54.071281 -132.82704 8551281
-9.9611101 -54.024178 -132.79372 10524046
-8.8852854 -53.944256 -132.76634 8748402
-7.8903794 -53.600079 -132.8399 9340286
-10.867309 -53.322323 -133.09798 9471614
-9.9914713 -53.031544 -133.1582 9866116
-8.9634905 -53.01783 -133.10922 9405822
-7.8639359 -52.907616 -133.09171 9142651
-6.895844 -52.788635 -133.0843 8089963
-9.6898413 -52.355179 -133.38963 10260617
-8.9457884 -52.10154 -133.44327 11049618
-7.9744668 -51.980438 -133.43646 8813429
-6.8733506 -51.87389 -133.41756 9800577
-5.9817548 -52.015373 -133.31895 8748147
-5.207211 -51.846905 -133.33978 8288366
-7.8967652 -51.175961 -133.7265 9734528
-6.9892354 -50.986652 -133.74805 9866114
-5.922379 -51.001831 -133.68639 9536893
-4.898169 -51.177071 -133.56845 8880247
-4.0209661 -50.902279 -133.6228 8551026
-5.881495 -50.074024 -134.02348 8484463
-4.9144025 -50.188469 -133.93079 9470844
-3.95118 -50.158768 -133.89098 8484463
-3.0357671 -50.038574 -133.88681 7563619
-2.3511033 -49.785137 -133.94348 10064265
-4.8829999 -49.292645 -134.25662 8747635
-3.9647737 -49.170719 -134.25296 8024169
-2.9999528 -49.143764 -134.21208 8287341
-2.0360856 -49.119095 -134.17043 10722192
-1.154717 -48.851715 -134.22183 10787985
-3.8943162 -48.427429 -134.521 7563619
-2.9701638 -48.196274 -134.55695 7761254
-2.044457 -48.131893 -134.53178 10458761
-1.0788674 -48.109833 -134.48911 9801090
-0.15430123 -48.049667 -134.46249 8223088
0.68915123 -47.746292 -134.52902 8814709
-2.6953626 -47.489376 -134.80092 9340539
-1.9442296 -47.251793 -134.84833 10392968
-1.0846066 -47.122917 -134.85023 10261639
-0.11719757 -47.103413 -134.8065 8616563
0.84955162 -47.086018 -134.76204 10130314
1.7516589 -46.874577 -134.79195 9801604
-0.87351853 -46.350662 -135.12154 9340283
-0.079741061 -46.160519 -135.16112 8616307
0.84899849 -46.100471 -135.12556 9011321
1.8176818 -46.084572 -135.07729 9406849
2.7457461 -46.031147 -135.04803 9801863
3.5945849 -45.733986 -135.11206 8486262
1.0112071 -45.488239 -135.50249 8089963
1.8859 -45.349689 -135.52811 7565675
2.8342509 -45.189404 -135.56551 8091762
3.798677 -45.074608 -135.56612 9340799
4.7425628 -44.827183 -135.68851 9406849
5.7129836 -44.803165 -135.58533 8880764
5.7320666 -44.417885 -136.09964 9011836
6.7542949 -44.316818 -136.17746 9077117
7.7902522 -44.158058 -136.27135 9274752
8.7022467 -43.910679 -136.6875 8617847
9.6989546 -43.740482 -136.86996 8881019
10.687791 -43.649147 -136.90546 9011321
11.359139 -43.531277 -137.06982 8419440
11.064834 -43.298969 -137.53371 8419440
11.767911 -43.369106 -137.23135 9340030
12.60801 -43.324387 -137.19855 9077370
13.6095 -43.117199 -137.4248 8813942
14.698579 -42.986267 -137.41252 11117468
15.568496 -42.753876 -137.77698 9537923
17.135229 -42.596413 -138.31137 10262415
17.429398 -42.505116 -137.97609 10262415
23.48197 -42.221771 -139.96349 7367263
25.420073 -42.007755 -140.20752 7631211
27.369429 -41.792583 -140.4287 9735555
29.33493 -41.583389 -140.6517 8749176
30.690228 -41.444084 -141.23793 9735043
31.154634 -41.387093 -140.93684 9735043
32.368637 -41.26506 -141.6142 8682867
32.986088 -41.189148 -141.20276 9208955
34.36834 -41.046432 -141.76578 8880245
34.982872 -40.970592 -141.34375 10590347
36.071808 -40.864063 -142.10864 9340543
37.482555 -40.717979 -142.65791 10853012
37.941853 -40.661049 -142.32715 8552056
39.213085 -40.532204 -142.97711 9868171
39.823277 -40.456291 -142.526 10789015
41.261055 -40.306759 -143.05139 9209467
42.865116 -40.136536 -143.45416 15722454
44.331921 -39.983528 -143.96733 12037796
44.93634 -39.90778 -143.48663 11314588
46.115269 -39.790882 -144.23041 13749697
46.717495 -39.715183 -143.73972 13157048
48.062046 -39.577568 -144.35361 13946564
49.721691 -39.400337 -144.71208 13617343
51.246536 -39.240265 -145.19046 13156536
51.693745 -39.183571 -144.80026 13156536
53.084011 -39.04063 -145.39862 9999239
54.786976 -38.858089 -145.72661 9011063
56.20937 -38.711464 -146.31926 9931910
56.652309 -38.654785 -145.907 10392461
58.090176 -38.506317 -146.49181 9076857
58.531071 -38.449791 -146.07191 9209467
59.920094 -38.370621 -146.99236 10722193
60.360031 -38.314281 -146.56514 9209467
61.933533 -38.22411 -147.37883 8682867
62.225414 -38.186371 -147.08762 11183001
63.967175 -38.07534 -147.75058 10524555
64.402374 -38.018478 -147.30388 9932419
65.876945 -37.943203 -148.25951 8682867
-46.244793 -61.693222 -126.17392 7563619
-45.211796 -61.723591 -126.44175 8353391
-44.206551 -61.792122 -126.68752 7563618
-43.45599 -61.797405 -126.81294 8879477
-52.371128 -60.615589 -124.94993 15723486
-50.905155 -60.874474 -125.2289 15722462
-50.279659 -60.842609 -125.41045 15854046
-49.260647 -60.930565 -125.65215 11512220
-48.327682 -60.995808 -125.87936 9209467
-47.366291 -61.018288 -126.13074 8156012
-46.288029 -61.040783 -126.41376 9142907
-45.246758 -60.972397 -126.72424 10393230
-44.315388 -60.942478 -126.9913 8287341
-43.316944 -61.086895 -127.06228 8484721
-42.36499 -60.838272 -127.05937 7695205
-41.634121 -60.589905 -127.09889 8287342
-64.867233 -59.627922 -122.51445 10591377
-62.47131 -59.712402 -122.94562 9735299
-61.843922 -59.675041 -123.17111 9735299
-60.920208 -59.636677 -123.54046 8551025
-60.183018 -59.794941 -123.54054 7959144
-59.193394 -59.79295 -123.76537 7169628
-58.194786 -59.881607 -123.96359 7038298
-57.170002 -59.801243 -124.31839 10130056
-56.160572 -59.921951 -124.51598 8814971
-55.272663 -59.911472 -124.76997 8814971
-54.221676 -60.076469 -124.87978 9078913
-53.230629 -60.055447 -125.16404 12828854
-52.208836 -60.060074 -125.43621 14669775
-51.258148 -60.11301 -125.65561 14735568
-50.308624 -60.123055 -125.91003 14603978
-49.289158 -60.177269 -126.13092 10788499
-48.304478 -60.168758 -126.40363 8222575
-47.344982 -60.141186 -126.68465 7760998
-46.342175 -60.219318 -126.89339 10064009
-45.409142 -60.190014 -127.16865 10524816
-44.438107 -60.310932 -127.33467 7037274
-43.35508 -60.284225 -127.49754 9076858
-42.463428 -60.108475 -127.5463 8747893
-41.449211 -59.967754 -127.55674 8879476
-40.542416 -59.852955 -127.58613 9471097
-39.431606 -59.692707 -127.56678 10852236
-77.637459 -58.751762 -119.98514 10260617
-76.757339 -59.104931 -120.27864 8156271
-75.77063 -59.087132 -120.77793 7367263
-74.772507 -59.088737 -121.16359 7038299
-73.903542 -59.275654 -121.20599 8090736
-72.829697 -59.323132 -121.53789 7038307
-71.836334 -59.338688 -121.42405 9144192
-70.884346 -59.329048 -121.58805 9670535
-69.855003 -59.401367 -121.8333 7301729
-68.990829 -59.400997 -122.22173 7432543
-67.806763 -59.451214 -122.31467 8484973
-66.964279 -59.455608 -122.52519 7631458
-66.101463 -59.43272 -122.83163 7894373
-65.129044 -59.460163 -123.00053 10591377
-64.071777 -59.50243 -123.14285 14012612
-63.181126 -59.481594 -123.44991 9604482
-62.091629 -59.507202 -123.65617 8814710
-61.164944 -59.469635 -124.02837 9604484
-60.077251 -59.54472 -124.07018 8617332
-59.072151 -59.565529 -124.26993 6840919
-58.147068 -59.531944 -124.62835 9537918
-57.375645 -59.504879 -124.92406 9537918
-54.838566 -59.595726 -125.30141 9012350
-54.221951 -59.577042 -125.52808 8092019
-40.226318 -59.569515 -127.95005 8681835
-39.581539 -59.520088 -128.03989 10063750
-38.614475 -59.447048 -128.17116 10195076
-37.648777 -59.375431 -128.29819 9010806
-36.527016 -59.299763 -128.45392 7498598
-35.440712 -59.282005 -128.72585 9142907
-34.516705 -59.281105 -128.98254 9472640
-33.590851 -59.280224 -129.23254 8748917
-32.663223 -59.27927 -129.47583 8879988
-31.733929 -59.278332 -129.71245 9142387
-30.802887 -59.277344 -129.94232 10391943
-29.870209 -59.276382 -130.16551 9734788
-28.780064 -59.275265 -130.41716 8090479
-27.687876 -59.274162 -130.65999 8682100
-26.750175 -59.273159 -130.86067 9011065
-25.810951 -59.272118 -131.05455 10195080
-24.870413 -59.271126 -131.24164 10128513
-23.928526 -59.270054 -131.42197 8879214
-22.990459 -59.084835 -131.62201 8089702
-21.85215 -58.988552 -131.60384 9208179
-20.716162 -58.893402 -131.5789 8879477
-19.811756 -58.786629 -131.5704 7563619
-19.108568 -58.596779 -131.60281 8287342
-116.72504 -57.875256 -112.52863 8090987
-116.01566 -57.791164 -112.92795 12695725
-115.30566 -57.707367 -113.32346 13550517
-79.307755 -57.629566 -119.6004 9537918
-78.527206 -58.042645 -119.82602 9866371
-77.606247 -58.165535 -120.23505 8353651
-76.710152 -58.227341 -120.65599 8024684
-75.820793 -58.233604 -121.0953 7696228
-75.11116 -58.519928 -121.33545 7367263
-22.699068 -58.554558 -131.8071 7760994
-21.774633 -58.21331 -131.88318 8484716
-20.767475 -58.055363 -131.88799 8090475
-19.794132 -57.977879 -131.86511 7629412
-18.861301 -57.948009 -131.82703 8353135
-18.015789 -57.842937 -131.821 6840663
-113.69354 -57.620155 -112.83199 7695720
-112.98915 -57.537407 -113.21825 7893358
-112.10779 -57.434376 -113.69571 8156529
-111.22562 -57.331722 -114.16772 7564643
-109.83549 -57.269409 -113.5699 7564643
-109.13529 -57.188316 -113.93846 7894381
-108.08411 -57.067139 -114.485 9867657
-107.20736 -56.966541 -114.93439 8946554
-105.86158 -56.90823 -114.32787 11380124
-105.16566 -56.828815 -114.67869 8617331
-104.12106 -56.710136 -115.19862 7695979
-79.668381 -57.068348 -119.64158 9537918
-78.762726 -57.239498 -120.02422 8682869
-77.839218 -57.194733 -120.50047 8090479
-76.996185 -57.276489 -120.88712 9340030
-76.233772 -57.483852 -121.1844 8288365
-20.732195 -57.295135 -132.16412 8090730
-19.809744 -57.01276 -132.21884 7300958
-18.87299 -57.011776 -132.16995 7695460
-17.889946 -57.163342 -132.06285 6577748
-16.996216 -56.899166 -132.11244 6840665
-16.293377 -56.717175 -132.14204 8485494
-103.24975 -56.61158 -115.6259 8024943
-102.72665 -56.552685 -115.87962 11380124
-101.25557 -56.479458 -115.34506 11380124
-100.2176 -56.363155 -115.83894 10591633
-99.35202 -56.266602 -116.24466 7564649
-98.489517 -56.172626 -116.64895 9538690
-97.060356 -56.101761 -116.09705 6510930
-96.388947 -56.035217 -116.42741 6510930
-95.384628 -55.937897 -116.92178 8418928
-94.513489 -55.837696 -117.28746 9142907
-93.621017 -55.725548 -117.62116 8221545
-81.290817 -56.04324 -119.23797 7563619
-80.540535 -56.140678 -119.57243 8485232
-79.695122 -56.200104 -119.96899 7893608
-78.76828 -56.154034 -120.44746 7695974
-77.995941 -56.388504 -120.73901 9011066
-19.566355 -56.280506 -132.47372 7235421
-18.811174 -56.168709 -132.47491 7629667
-17.943058 -56.162086 -132.43167 7563874
-16.971972 -56.094563 -132.40532 6972255
-16.003016 -56.029652 -132.37814 7169893
-15.127822 -55.722988 -132.44424 7301478
-92.906921 -55.635952 -117.88431 7367005
-86.262985 -54.667961 -118.29281 7762027
-84.386612 -54.785057 -118.69528 6511954
-83.454407 -54.841236 -119.01279 6577747
-82.584984 -54.927223 -119.30128 9537661
-81.711937 -55.246666 -119.43943 8813683
-80.771576 -55.190895 -119.91006 7235421
-79.844131 -55.233837 -120.30731 6709333
-79.115143 -55.447109 -120.55253 6511954
-17.901611 -55.405884 -132.70601 7235165
-17.022243 -55.094921 -132.77347 6577749
-16.050568 -55.030991 -132.74573 6972512
-15.01495 -54.998962 -132.703 7762028
-14.117275 -54.81604 -132.7227 7762540
-85.444778 -54.598103 -118.66177 7762027
-84.627075 -54.529434 -119.02826 6511954
-83.810249 -54.462193 -119.39182 6643540
-82.998711 -54.399158 -119.75963 7893094
-81.66452 -54.58979 -119.98169 7629410
-16.7309 -54.407269 -133.00952 6511954
-15.984551 -54.136902 -133.06918 7235162
-15.12568 -53.972481 -133.08412 7827562
-13.990486 -53.988319 -133.01868 9011836
-12.901258 -54.080967 -132.92757 7367523
-12.220143 -53.806496 -132.99203 7959144
-14.993291 -53.298176 -133.32373 7367271
-14.029927 -53.042286 -133.36661 8420211
-12.955995 -53.148682 -133.27126 8090987
-11.922157 -53.126911 -133.22487 9077625
-11.026956 -52.882534 -133.26715 9209212
-13.022979 -52.255333 -133.60136 9340028
-11.957855 -52.133167 -133.59007 10064007
-10.988999 -52.085014 -133.55673 8879736
-10.063296 -51.999847 -133.53923 7235429
-9.276782 -51.785088 -133.5764 8090479
-12.03958 -51.363235 -133.87584 9076600
-11.02201 -51.092323 -133.92142 8682100
-10.052131 -51.047337 -133.88686 7630186
-9.0838003 -51.004757 -133.85155 8287344
-8.2270098 -50.858826 -133.85982 9866114
-7.4808564 -50.608898 -133.91194 9734528
-10.881921 -50.422974 -134.15877 8616307
-10.040662 -50.09507 -134.23442 8287342
-9.1114664 -50.013645 -134.21535 8550513
-8.1419382 -49.974064 -134.17882 9734528
-7.173821 -49.936829 -134.14157 9142393
-6.2924657 -49.657444 -134.19736 9010550
-9.0511045 -49.267017 -134.48517 9537147
-8.1669283 -48.983639 -134.5423 10392454
-7.1961675 -48.947048 -134.50462 9536637
-6.2267213 -48.912704 -134.46619 7826791
-5.3669477 -48.829128 -134.45157 8023913
-7.8593011 -48.310989 -134.77209 7037274
-7.1700177 -48.049835 -134.83134 8287341
-6.2464318 -47.923443 -134.82899 7958377
-5.1854672 -48.00901 -134.74187 7826791
-4.2115369 -48.001148 -134.69356 7760997
-3.3372216 -47.83543 -134.70811 10458249
-6.0454392 -47.146797 -135.10245 8484720
-5.2513967 -46.943016 -135.13522 9603713
-4.2898812 -47.120579 -135.01968 9077112
-3.1843076 -47.106873 -134.96652 10195334
-2.2700582 -46.93026 -134.98308 8485488
-4.2499852 -46.316345 -135.38084 9077625
-3.2937436 -46.243862 -135.36642 10129797
-2.2640214 -46.045155 -135.42422 10326919
-1.270514 -45.853306 -135.46733 10721677
-0.44520622 -45.8153 -135.36678 8089963
-1.4261804 -45.284325 -135.97565 10261385
-0.20582253 -45.322571 -135.83067 8747893
0.72749275 -45.123066 -135.93211 8221549
1.6398845 -44.864269 -136.16904 9999244
2.6085048 -44.70232 -136.24738 9867657
3.6170764 -44.607216 -136.16812 9800836
2.6499591 -44.455513 -136.85329 10459537
3.6281772 -44.406162 -136.6866 8682356
4.6114955 -44.256939 -136.77759 8089963
5.5974383 -44.11375 -136.87851 8353391
6.5625834 -43.935558 -137.21446 7432802
7.7403026 -43.84063 -137.09747 8485494
8.7510805 -43.618015 -137.51389 7565416
9.3971529 -43.559921 -137.29288 8091760
10.602277 -43.431736 -137.99051 9340286
12.775945 -43.163631 -138.16122 7366751
14.852481 -43.074539 -138.89613 5920074
16.618305 -42.979893 -139.63327 7564651
16.938631 -42.944416 -139.48048 7039331
18.524359 -42.769543 -139.9626 10262415
19.162809 -42.698784 -139.64632 11248796
20.602037 -42.540092 -140.18816 10591124
21.238035 -42.469582 -139.86111 11315356
22.372786 -42.34473 -140.55399 7959657
23.007509 -42.274403 -140.21722 7893863
24.314449 -42.130409 -140.81563 9670022
24.947361 -42.060188 -140.46887 7039331
26.267544 -41.914707 -141.05452 9472383
28.08618 -41.732433 -141.42043 9143677
29.443537 -41.596786 -142.03598 7039331
29.912315 -41.539349 -141.73747 9538691
30.379646 -41.482101 -141.43813 8814710
31.124828 -41.417839 -142.43205 10064775
31.748247 -41.341328 -142.02396 9471871
33.130676 -41.198925 -142.60522 9603712
33.75124 -41.12244 -142.18651 8090987
34.992809 -40.997421 -142.86102 9340539
36.248825 -40.870682 -143.53583 7038307
36.866955 -40.794209 -143.09752 7038307
38.291882 -40.646576 -143.65102 8682867
38.753414 -40.589287 -143.31459 9868171
39.731125 -40.497246 -144.19974 9868171
40.192146 -40.439896 -143.85616 8092019
40.651615 -40.382751 -143.51176 9209467
41.951454 -40.250675 -144.15872 10656655
43.266483 -40.116943 -144.80544 13550517
43.724239 -40.059631 -144.44681 12629416
45.054043 -39.924084 -145.08626 10787215
45.510201 -39.866909 -144.71997 11708316
46.854847 -39.72958 -145.35223 11906471
47.460369 -39.653309 -144.85367 12235434
48.518002 -39.552338 -145.73024 12169897
49.121792 -39.476151 -145.2218 14604238
50.496937 -39.335201 -145.83931 13617343
52.038403 -39.173393 -146.32448 11708834
52.487999 -39.116337 -145.9281 10261132
53.894352 -38.971756 -146.53528 7893355
55.615284 -38.787296 -146.86801 8681843
57.351173 -38.601002 -147.19055 9931910
58.885891 -38.502625 -147.98654 11380380
59.330463 -38.445938 -147.56099 11380380
61.346607 -38.299885 -147.96017 9866884
63.237186 -38.170483 -148.49339 11972260
65.295982 -38.019703 -148.86676 9274747
-50.006634 -59.634857 -126.46326 8617590
-49.389702 -59.620483 -126.67567 8617590
-48.463985 -59.600002 -126.991 7367525
-47.085804 -59.795547 -127.0295 9142907
-46.461979 -59.774921 -127.21439 9472128
-45.526669 -59.745773 -127.49015 11314588
-44.553219 -59.867039 -127.65667 7300446
-43.675655 -59.796444 -127.89362 8418928
-42.825588 -59.604301 -128.10822 9011065
-73.804947 -58.919739 -121.82593 8881019
-72.955399 -59.005154 -122.21375 10855060
-71.921844 -59.0411 -122.58778 10920598
-71.094223 -59.144836 -122.89777 8025456
-70.199013 -59.3218 -123.09941 7498081
-69.220566 -59.320427 -123.09793 7103577
-68.096138 -59.319004 -123.17207 6512466
-67.063721 -59.318447 -123.74638 10393993
-66.093018 -59.317074 -123.72611 9604479
-65.124161 -59.315693 -123.69877 8090987
-64.235611 -59.31509 -124.16995 12301994
-63.248169 -59.327213 -124.44968 7893608
-62.341591 -59.339275 -124.1459 7630435
-61.27322 -59.312222 -124.61584 12958639
-60.170162 -59.357597 -124.86185 10065036
-59.377483 -59.363285 -125.05418 7104865
-58.380417 -59.364796 -125.11983 9537918
-57.316029 -59.371624 -125.38155 9275006
-56.410717 -59.388554 -125.5872 10195854
-55.494343 -59.372597 -125.96315 10195854
-54.438721 -59.410667 -126.0211 8092019
-53.403065 -59.466789 -126.11197 9736842
-52.475067 -59.441086 -126.44516 9406597
-51.546131 -59.416649 -126.77437 8946046
-50.515575 -59.47673 -126.85071 9998987
-49.586712 -59.454887 -127.17122 8091503
-48.65728 -59.434341 -127.48766 7367525
-47.631882 -59.497925 -127.55122 14010046
-46.733387 -59.522842 -127.70885 13352372
-45.680676 -59.546139 -127.91304 10853780
-44.751083 -59.530838 -128.21234 7563618
-43.813301 -59.506916 -128.48645 9734788
-42.713238 -59.466969 -128.53139 9011065
-41.693211 -59.416828 -128.58475 9405822
-40.647709 -59.363827 -128.73398 8945009
-39.698372 -59.326141 -128.94865 10392459
-38.665516 -59.291557 -129.12183 10720908
-37.537292 -59.285381 -129.04771 8221549
-36.610893 -59.2845 -129.31955 9800579
-35.682613 -59.283634 -129.58467 9142907
-34.752346 -59.282738 -129.84306 9209468
-33.820312 -59.28175 -130.09479 9012089
-32.886482 -59.280888 -130.33968 9340797
-31.950939 -59.279911 -130.57787 10326666
-31.013624 -59.278957 -130.80936 10326666
-29.918003 -59.277859 -131.07056 8879990
-28.820353 -59.276646 -131.323 10063753
-27.877739 -59.275715 -131.53177 8682100
-26.918289 -58.980503 -131.85466 9076858
-25.963993 -59.022297 -131.80768 9536893
-24.977915 -58.929001 -131.78993 9273460
-23.994669 -58.838665 -131.77126 8879214
-23.188843 -58.597397 -131.81712 7366238
-117.83929 -57.902119 -113.31807 7564386
-117.12302 -57.817352 -113.71988 8617586
-116.4062 -57.732819 -114.11853 13024949
-75.552399 -57.816322 -121.39236 7367263
-74.842674 -58.103531 -121.63216 6709335
-73.954636 -58.115013 -122.06872 9670533
-73.037369 -58.082912 -122.53692 10855060
-72.200943 -58.17572 -122.91595 10855061
-25.973595 -58.270874 -132.0829 9010546
-25.039551 -58.086815 -132.10109 8813421
-24.053907 -57.997524 -132.08191 9010545
-23.109131 -57.956585 -132.0472 7826787
-22.301039 -57.957634 -132.00433 7760994
-114.7727 -57.644615 -113.61774 7563619
-114.23944 -57.58205 -113.90974 7037786
-113.34988 -57.478096 -114.39162 7959400
-112.45952 -57.37442 -114.86809 6511954
-110.34252 -57.229424 -114.63356 10590607
-109.28176 -57.107067 -115.1852 12960439
-108.39694 -57.005531 -115.63876 7565675
-107.86567 -56.944839 -115.90819 10262929
-106.3297 -56.866333 -115.37767 8090987
-105.45146 -56.766411 -115.81573 9144443
-104.74828 -56.686798 -116.16188 8879995
-76.757492 -56.904766 -121.15157 8353904
-75.964951 -57.066757 -121.48159 7564642
-75.073776 -57.076275 -121.92054 7104091
-74.153397 -57.042049 -122.39104 9078397
-73.394234 -57.255444 -122.68442 9538947
-24.923985 -57.39838 -132.34668 8681835
-24.080811 -57.027225 -132.4381 9273972
-23.131723 -57.015472 -132.39247 7958372
-22.134403 -57.156555 -132.28847 7234652
-21.121918 -56.947731 -132.3116 8551281
-20.197758 -56.664513 -132.3665 7235421
-104.2207 -56.627251 -116.41937 10853012
-103.69283 -56.567795 -116.67445 8945531
-102.20331 -56.493832 -116.131 14077637
-101.3306 -56.396126 -116.54569 12235689
-100.45735 -56.298737 -116.95518 8286824
-99.600632 -56.211376 -117.3788 8484460
-97.47892 -56.074608 -117.15694 8156267
-96.469009 -55.978157 -117.65982 9340029
-95.621445 -55.895233 -118.06719 9208187
-94.766327 -55.808712 -118.46066 7563619
-77.719536 -55.888126 -121.07268 9076854
-76.917358 -56.069637 -121.39986 8485233
-75.993172 -56.031372 -121.87392 7169884
-75.201302 -56.120575 -122.23222 7367263
-74.439453 -56.332462 -122.52745 8881019
-23.053141 -56.221241 -132.67873 7760994
-22.199671 -56.150684 -132.65965 7169116
-21.053953 -56.059036 -132.6329 8090730
-19.954647 -55.932186 -132.62152 7235421
-19.164181 -55.691566 -132.66795 6709333
-92.371323 -55.568901 -118.07887 8747885
-91.657059 -55.479645 -118.33501 9011062
-90.764336 -55.368217 -118.64969 8879735
-89.693039 -55.234921 -119.01983 6906713
-88.800339 -55.124096 -119.32196 6511954
-87.793228 -54.942608 -119.46368 7169885
-86.694138 -54.703003 -119.47176 9209467
-79.791641 -54.800858 -120.62892 7827814
-78.868317 -55.042767 -120.88438 6511954
-77.962692 -55.042183 -121.31874 7103834
-77.030624 -54.999168 -121.78827 7038041
-76.114616 -55.171337 -122.1511 7038298
-22.031292 -55.351139 -132.9431 6511954
-21.069231 -55.082096 -132.99094 7038042
-19.970116 -54.968311 -132.97473 6906456
-18.984669 -55.008064 -132.90839 7103835
-18.07168 -54.965885 -132.87581 6774870
-85.862724 -54.53994 -119.53398 7762027
-84.823364 -54.334633 -119.60101 7038298
-83.751373 -54.198479 -119.91437 7367263
-82.705673 -54.181213 -120.25613 7892582
-81.829819 -54.181213 -120.52892 8221546
-80.851807 -54.289463 -120.72231 8024937
-79.946198 -54.276798 -121.08152 7564642
-78.95134 -54.308422 -121.43427 6577747
-78.036789 -54.381634 -121.7495 6511954
-20.664585 -54.348648 -133.23776 6511954
-19.912893 -54.069611 -133.30032 8090218
-19.040478 -54.007008 -133.2773 7629667
-18.049107 -54.161331 -133.16878 6709333
-17.115189 -54.056896 -133.15787 7103577
-16.325024 -53.82476 -133.20123 6709332
-18.859253 -53.324635 -133.51727 8155755
-18.102119 -53.161625 -133.53708 8352873
-17.12273 -53.097103 -133.50917 8352871
-16.145536 -53.035133 -133.48045 7564127
-15.221011 -52.883575 -133.48723 7301478
-14.535661 -52.605331 -133.55295 8485747
-17.973642 -52.484425 -133.77788 8616300
-17.121422 -52.190865 -133.84044 8155493
-16.193005 -52.037701 -133.84761 8222059
-15.215161 -51.979233 -133.81758 7630442
-14.239333 -51.923195 -133.78677 8880503
-13.48612 -51.770718 -133.80293 9931907
-16.14677 -51.28487 -134.12042 8945784
-15.217157 -51.022099 -134.16768 8090991
-14.28133 -50.927807 -134.15292 9406590
-13.296092 -51.096066 -134.03958 9602943
-12.271789 -50.932556 -134.0455 9471357
-14.962645 -50.300297 -134.41823 8287342
-14.249557 -50.128078 -134.44373 9866627
-13.335379 -50.101658 -134.40526 9866115
-12.288178 -50.192337 -134.31703 8681843
-11.239032 -49.997993 -134.33293 7695205
-10.416869 -49.739254 -134.38431 8287342
-13.200336 -49.375153 -134.66386 9273978
-12.390928 -49.168865 -134.69672 8550257
-11.294177 -49.146942 -134.64709 8813686
-10.178821 -49.033562 -134.62985 8682100
-9.2095327 -48.827019 -134.65439 7563617
-12.088554 -48.490776 -134.92879 9735812
-11.397449 -48.221924 -134.99075 9472128
-10.306012 -48.078976 -134.98563 8813685
-9.1667528 -48.031448 -134.94308 7300446
-8.2335215 -47.95348 -134.92252 8616303
-7.3882585 -47.632965 -134.99524 8089963
-10.410693 -47.338718 -135.26312 9406591
-9.3372183 -47.16077 -135.28551 7958374
-8.2853727 -46.984497 -135.32027 8879218
-7.241776 -46.97271 -135.24698 8353134
-6.3767323 -46.829571 -135.2421 9076856
-5.623095 -46.583351 -135.28632 8089963
-8.0851583 -46.414421 -135.73463 9603197
-7.2079129 -46.258041 -135.76953 8813684
-6.2587743 -46.081818 -135.82626 9471613
-5.3211465 -46.002193 -135.77586 9011576
-4.3479962 -45.821125 -135.83165 11051415
-3.3745732 -45.643299 -135.89003 8484977
-4.368855 -45.450115 -136.3869 11643552
-3.306891 -45.33614 -136.3627 8287341
-2.41009 -45.233353 -136.35928 7563619
-1.4375463 -44.977325 -136.73065 9011320
-0.45675522 -44.858658 -136.76199 8550513
0.52343506 -44.663471 -136.92964 8682356
1.5063758 -44.514847 -137.04388 10920087
2.4944491 -44.427101 -137.34196 9736071
3.478538 -44.247261 -137.34639 9208700
5.4794326 -44.150898 -138.16046 7695716
7.6504531 -43.92585 -138.54442 8090219
8.1214609 -43.776611 -138.04945 7563619
9.5161238 -43.764267 -139.12289 7563619
9.990777 -43.654144 -138.74182 9143678
11.387467 -43.557747 -139.54218 7498594
12.197307 -43.468086 -139.19086 8288110
13.433871 -43.33194 -139.86678 6510930
14.241347 -43.24242 -139.50182 6840664
15.330594 -43.122604 -140.23903 8090986
16.136555 -43.033291 -139.86137 6446418
17.240015 -42.911842 -140.58905 7564648
17.883503 -42.840542 -140.27687 7039331
19.161572 -42.699799 -140.91647 7630443
19.963432 -42.610859 -140.51312 8814715
20.614004 -42.539673 -141.46988 8814715
21.2556 -42.468555 -141.1384 8880760
22.148001 -42.370132 -141.32509 8420464
23.041185 -42.271492 -141.50359 8683892
23.939896 -42.172329 -141.68147 11709090
24.998545 -42.055462 -141.76292 8288370
26.172285 -41.926231 -142.4516 8880507
26.971535 -41.843616 -142.01871 9340797
28.183571 -41.748592 -142.81978 10854036
28.815443 -41.673573 -142.43219 9143934
30.184113 -41.533253 -143.04102 10196363
30.655409 -41.475445 -142.73709 12762285
31.880899 -41.352619 -143.4381 9209467
32.507572 -41.275604 -143.02267 10985876
33.903835 -41.131737 -143.60838 9340540
35.627056 -40.947586 -143.9722 9011579
37.052639 -40.800266 -144.5443 7038307
37.673801 -40.723244 -144.0984 7038307
38.958443 -40.593311 -144.77039 9406590
39.422626 -40.535614 -144.42838 10854036
40.721939 -40.403992 -145.09322 8683383
41.687561 -40.298901 -145.19254 9209467
42.652893 -40.19363 -145.28242 10853777
43.982693 -40.05843 -145.93814 8089963
44.443035 -40.000748 -145.57347 8945271
45.787807 -39.863701 -146.22191 13026237
46.246586 -39.806057 -145.84975 13026237
47.606419 -39.667255 -146.49081 9868166
49.134792 -39.50742 -147.00284 10524816
49.742378 -39.430622 -146.4865 13156792
51.284904 -39.268967 -146.98367 13156536
52.69241 -39.124641 -147.60999 11708834
53.144741 -39.067116 -147.20744 9342083
54.567944 -38.920918 -147.82626 7565675
55.018272 -38.863434 -147.41597 8089963
56.457302 -38.715343 -148.02711 10195594
58.289379 -38.578384 -148.55255 8748149
60.459599 -38.413921 -148.82996 10393228
62.353432 -38.285191 -149.38232 10458761
64.417236 -38.134918 -149.7755 9801347
64.857857 -38.077232 -149.32153 9932419
66.355728 -38.001568 -150.30836 7038307
66.794479 -37.943626 -149.84464 8090736
-70.92424 -58.737122 -123.32975 7038307
-70.130806 -58.895737 -123.66156 7563614
-69.186211 -58.970253 -123.98317 6708307
-68.349983 -59.071346 -124.26941 6972513
-67.450668 -59.134815 -124.59046 7893358
-66.425713 -59.112377 -124.784 8946296
-65.499588 -59.181667 -125.01524 7169884
-64.521698 -59.269367 -125.25822 7630436
-63.48737 -59.316315 -125.64825 8814710
-62.448551 -59.314049 -125.09285 7564643
-61.550034 -59.313477 -125.54466 9012347
-60.648247 -59.312885 -125.98995 8354934
-59.564926 -59.311771 -126.2493 8354929
-58.427723 -59.309822 -125.9965 6511954
-57.522907 -59.309193 -126.41921 6511442
-56.614948 -59.308548 -126.8354 10656402
-55.532475 -59.307365 -127.06292 9012090
-54.412148 -59.305393 -126.78239 8092019
-53.501736 -59.304749 -127.17611 8092019
-52.588497 -59.303955 -127.56319 8946046
-51.672504 -59.303349 -127.94371 9932940
-50.803162 -59.30843 -127.55961 7828076
-49.6422 -59.300236 -127.75574 7828332
-48.571827 -59.2994 -128.17441 8551028
-47.651421 -59.298611 -128.52591 12299686
-46.693081 -59.336388 -128.58633 9800322
-45.748516 -59.343246 -128.78268 8024168
-44.618359 -59.360237 -128.81242 9603199
-43.669601 -59.327225 -129.06532 9932423
-42.718121 -59.292976 -129.30862 9011065
-41.78973 -59.292118 -129.6178 9603201
-40.859135 -59.291275 -129.9203 9471614
-39.926338 -59.290447 -130.21603 8879989
-38.991467 -59.289551 -130.50508 9011575
-37.924511 -59.287846 -130.35001 9734785
-36.861828 -59.286095 -130.1862 9274237
-35.927246 -59.285229 -130.45314 8156271
-34.990772 -59.284355 -130.71327 7564643
-34.052414 -59.283428 -130.96669 8025194
-33.112289 -59.282494 -131.21326 9143160
-32.042103 -59.235146 -131.6098 9405560
-30.992901 -59.057892 -131.94449 8616558
-30.020655 -58.961182 -132.03976 8287853
-28.968994 -58.980824 -131.98079 10392717
-27.97274 -58.879238 -131.96558 7827559
-27.323687 -58.644066 -132.01746 9340286
-118.42807 -57.865364 -114.42275 7564386
-117.52333 -57.758659 -114.92499 6708822
-116.04753 -57.690613 -114.31628 13024949
-71.959854 -57.808887 -123.17964 9933705
-71.204201 -58.02663 -123.46951 7630699
-70.288116 -58.00248 -123.93401 8023907
-69.379219 -58.06815 -124.31033 6576721
-68.289597 -58.210163 -124.647 7169893
-67.384842 -58.414711 -124.89362 10196108
-66.653603 -58.513805 -125.11594 11380380
-29.908682 -58.223534 -132.30708 7761765
-29.040485 -58.134163 -132.29408 8879991
-28.041739 -58.033813 -132.27831 7564643
-27.084309 -57.982525 -132.24672 9340286
-26.218836 -57.857227 -132.24702 9142907
-115.32965 -57.606434 -114.70858 11183004
-114.43167 -57.501526 -115.19421 6511954
-113.53275 -57.396976 -115.67357 7038298
-111.9249 -57.31234 -115.15117 5920074
-111.38995 -57.250519 -115.43188 9537918
-110.49773 -57.147701 -115.89508 12169639
-109.60475 -57.045258 -116.35294 8881534
-109.06858 -56.983967 -116.62492 7565675
-107.33417 -56.884201 -116.17522 8617842
-106.62511 -56.803638 -116.52834 8617842
-105.73812 -56.70319 -116.96437 8091248
-73.153259 -56.887917 -122.9483 9341312
-72.344513 -57.027233 -123.29532 8617592
-71.363525 -57.133583 -123.74081 7038307
-70.445366 -57.109711 -124.20621 8352871
-69.446465 -57.429779 -124.52745 7037271
-68.769325 -57.566246 -124.71848 7038307
-29.021177 -57.364166 -132.57462 8353646
-28.079344 -57.058014 -132.63702 9866630
-27.117247 -57.036224 -132.59441 9406079
-26.104946 -57.167595 -132.49318 8682100
-25.167629 -56.984913 -132.5107 8023912
-24.478008 -56.681465 -132.58543 9011321
-104.67294 -56.583172 -117.48039 7827565
-103.16473 -56.508438 -116.92786 10853780
-102.63637 -56.449326 -117.17899 9735555
-101.75924 -56.353127 -117.59737 8682867
-100.73255 -56.25288 -118.12329 9472383
-100.05006 -56.187717 -118.47299 9735812
-98.585266 -56.114571 -117.89635 9340027
-97.737831 -56.034142 -118.32175 8089963
-96.886597 -55.952492 -118.73819 9471359
-95.858856 -55.851955 -119.22481 10063496
-93.873711 -55.700897 -118.8031 8681835
-74.806541 -55.745934 -122.5753 7169373
-73.956711 -56.0998 -122.85853 7564134
-73.089806 -56.10733 -123.28615 8024170
-72.15477 -56.15609 -123.73138 8682101
-71.450378 -56.358582 -124.00179 8024429
-70.692871 -56.577976 -124.29189 8681835
-27.045969 -56.236595 -132.883 7892840
-26.181755 -56.156803 -132.86676 9142907
-25.187412 -56.067333 -132.84718 7695205
-24.195927 -55.980656 -132.82674 7893356
-23.434359 -55.803185 -132.85162 7762027
-93.332703 -55.63319 -118.99907 7761248
-92.79158 -55.565575 -119.19254 8681835
-91.88974 -55.453087 -119.51028 7432287
-90.807541 -55.318405 -119.8839 6577492
-89.905846 -55.206509 -120.18893 5985868
-89.004242 -55.094902 -120.48763 5985614
-87.922501 -54.961258 -120.83858 6379601
-87.201553 -54.872364 -121.0681 7565675
-76.138626 -54.783596 -122.31766 7958888
-75.134132 -55.098305 -122.66675 6840663
-74.176285 -55.244514 -123.08507 9340286
-73.252441 -55.214607 -123.55567 8879735
-72.352097 -55.40308 -123.92886 8221549
-26.156136 -55.39159 -133.14516 10459023
-25.216623 -55.096828 -133.20358 9208700
-24.266899 -54.973038 -133.19891 8354162
-23.260363 -55.113945 -133.09445 7235685
-22.381683 -55.0425 -133.07439 7300963
-21.628838 -54.758438 -133.13863 7563619
-81.195847 -53.911659 -122.08905 7301470
-80.086777 -53.785282 -121.88438 7564642
-79.057076 -53.919689 -121.87947 7959142
-78.042465 -53.991619 -122.16792 10064003
-77.146027 -53.989456 -122.53034 6511954
-76.224594 -54.136517 -122.77859 7038298
-75.30986 -54.287914 -123.03088 7827302
-74.365555 -54.369293 -123.3938 10787988
-73.536713 -54.505329 -123.69285 11577760
-24.257261 -54.161709 -133.49501 8617332
-23.328436 -54.10791 -133.46585 7235685
-22.330095 -54.140575 -133.40146 7826791
-21.342087 -54.064087 -133.37746 8287342
-20.434175 -53.794594 -133.42825 8221548
-79.100327 -53.587318 -122.42205 9471866
-78.282654 -53.529533 -122.7676 10064003
-23.152719 -53.419758 -133.70825 7695720
-22.35117 -53.174728 -133.75566 8616307
-21.404419 -53.06078 -133.74756 9537409
-20.251785 -52.976303 -133.71785 9405822
-19.214752 -52.847126 -133.71054 9340027
-22.107431 -52.441292 -134.01111 8287342
-21.388147 -52.25346 -134.04196 9405823
-20.354036 -52.008091 -134.07727 9405821
-19.225239 -52.010838 -134.01686 8879217
-18.206936 -52.070129 -133.94165 8616302
-17.35334 -51.776249 -134.00424 8616302
-20.350033 -51.306736 -134.33357 9537407
-19.298059 -51.167877 -134.32899 8945010
-18.208101 -51.162956 -134.27344 9011062
-17.223167 -51.100479 -134.24449 8879476
-16.315414 -50.844986 -134.29019 9471615
-15.601634 -50.669636 -134.31677 9734788
-19.067463 -50.550167 -134.5428 9537407
-18.217628 -50.20285 -134.62506 9537409
-17.273396 -50.10236 -134.61214 8879476
-16.287949 -50.043377 -134.58189 8550513
-15.347365 -49.947582 -134.56744 8616307
-14.415538 -49.688152 -134.61328 8616048
-17.228638 -49.348877 -134.88533 8484715
-16.335382 -49.046227 -134.94905 8418928
-15.349347 -48.990589 -134.91756 8155756
-14.365314 -48.937309 -134.88525 8945014
-13.514073 -48.892982 -134.85669 8155754
-16.037434 -48.36272 -135.18329 8287342
-15.342982 -48.08728 -135.24956 7760998
-14.40738 -47.941998 -135.25182 7760741
-13.41612 -48.057545 -135.15709 7958376
-12.469867 -48.135826 -135.07867 9405820
-11.62206 -47.805912 -135.15477 9735812
-14.120559 -47.308109 -135.61865 8616048
-13.372219 -47.337196 -135.5137 7826534
-12.446012 -47.157955 -135.5788 8814197
-11.499747 -47.020256 -135.59628 9012089
-10.580709 -46.935551 -135.54012 9472640
-9.7036772 -46.776691 -135.58499 9341054
-10.557015 -46.394737 -136.03592 9077882
-9.5286627 -46.286655 -136.03778 8946296
-8.6411409 -46.137398 -136.11626 9867141
-7.6347432 -45.869137 -136.35756 9142905
-6.7270741 -45.677429 -136.50761 9997955
-6.0131421 -45.552162 -136.61769 11905692
-6.367209 -45.358021 -137.13927 13022893
-5.5306897 -45.418247 -136.80074 8682867
-4.7175622 -45.271267 -136.95624 11051415
-3.7371716 -45.103287 -137.05127 11051416
-2.5916219 -44.934093 -137.13846 7563619
-0.79448754 -44.755043 -137.77055 8747891
1.5172496 -44.637535 -138.57849 9143675
1.8465362 -44.571575 -138.3723 8090987
2.3386149 -44.472584 -138.06128 8551796
3.5159125 -44.424088 -139.06451 9537659
4.1748157 -44.352325 -138.82642 10260358
5.1801028 -44.242905 -139.04861 8879477
6.1859508 -44.132275 -139.25821 8616819
7.1880527 -44.021572 -139.26645 8945528
8.210187 -43.908897 -139.65681 10458254
9.0275183 -43.81839 -139.32422 8616307
10.083596 -43.702244 -140.09676 10919832
10.899838 -43.611782 -139.7514 10261132
11.643947 -43.53019 -140.65762 8092019
12.133822 -43.475941 -140.44353 6510930
12.785098 -43.403767 -140.15631 6905944
14.033244 -43.266346 -140.83649 8288109
14.683341 -43.194309 -140.539 9209467
15.945386 -43.055321 -141.20706 8617330
16.755941 -42.965454 -140.82188 7564648
17.870522 -42.842831 -141.55537 6446425
18.92001 -42.726986 -141.68178 6182738
19.969341 -42.611153 -141.79901 6840669
21.111883 -42.485336 -142.5213 7564643
21.757477 -42.413849 -142.18388 8091499
23.075443 -42.268646 -142.81163 10130826
23.719198 -42.197292 -142.46408 10985367
24.890251 -42.068363 -143.1684 10261388
25.532608 -41.997143 -142.81094 9538181
26.892725 -41.871742 -143.4938 10591382
27.700663 -41.794685 -143.07359 10722709
28.919317 -41.688091 -143.84683 9801863
29.553198 -41.610519 -143.44479 10196363
30.777599 -41.488033 -144.16138 11906720
31.251774 -41.429871 -143.85217 9209467
32.648144 -41.286381 -144.45642 9340797
34.059917 -41.14106 -145.05673 10459022
34.688976 -41.063416 -144.62404 9866627
35.958023 -40.935722 -145.32098 10261899
36.428284 -40.877533 -144.98869 8879995
37.711979 -40.748077 -145.67877 8814456
38.336815 -40.67054 -145.22539 9406590
39.635719 -40.5392 -145.90636 9735555
40.102634 -40.48114 -145.55853 10130313
41.416386 -40.347992 -146.23248 8091762
42.745861 -40.213173 -146.90659 8682867
43.36565 -40.135632 -146.42291 8287597
44.710545 -39.99892 -147.08774 9866371
45.173416 -39.940884 -146.71716 9998730
46.533569 -39.802319 -147.37469 11907754
46.994865 -39.74432 -146.99648 11907754
48.370358 -39.603878 -147.64674 9866373
50.22086 -39.403706 -147.90369 12366763
51.476254 -39.278908 -148.68044 7563619
52.085789 -39.201607 -148.14565 12169385
53.509792 -39.055649 -148.78142 11184028
53.964573 -38.997761 -148.37242 9342083
55.404575 -38.849804 -149.00064 9932934
55.857281 -38.791996 -148.58383 8682867
57.388027 -38.692486 -149.39915 9735299
59.41415 -38.547634 -149.84103 9142907
59.863811 -38.490276 -149.40828 10261643
61.311672 -38.419712 -150.41586 9735296
61.759739 -38.361885 -149.97343 8682867
63.381035 -38.270111 -150.83231 9735812
63.826508 -38.212029 -150.37982 9735812
65.323807 -38.137447 -151.38803 11511962
65.767464 -38.079144 -150.92578 10393482
67.584778 -37.963459 -151.62122 8090987
-65.468903 -58.80122 -125.42186 6511954
-64.580521 -58.894054 -125.69941 8222572
-63.679882 -58.881432 -126.02266 8683123
-62.676762 -58.993748 -126.28922 8419951
-61.767918 -59.006851 -126.64391 7828333
-60.753857 -59.095299 -126.97288 7565675
-59.706028 -59.091263 -127.239 8354670
-58.75005 -59.194813 -127.35497 7367520
-57.761436 -59.275093 -127.53317 7301214
-56.704678 -59.310101 -127.8438 9471871
-55.786526 -59.309475 -128.25397 9340541
-54.790295 -59.307232 -127.64803 8551281
-53.873547 -59.306515 -128.0444 7762277
-52.953918 -59.30582 -128.4342 11182486
-52.031673 -59.305141 -128.81732 14537414
-50.904064 -59.30365 -128.86806 10458761
-49.832172 -59.30183 -128.68489 10261641
-48.908138 -59.301083 -129.04552 7695976
-47.981472 -59.300323 -129.3994 8089963
-47.05225 -59.299622 -129.74657 7695205
-46.120548 -59.298805 -130.08711 8221546
-45.062275 -59.297031 -129.87057 9274234
-43.945362 -59.295498 -129.86522 11774882
-43.012955 -59.294674 -130.18324 9932423
-42.078228 -59.293842 -130.49455 8879733
-41.141319 -59.292965 -130.79916 9011064
-40.20216 -59.292103 -131.09691 8879989
-39.260944 -59.291233 -131.38789 9340283
-38.317604 -59.290375 -131.67213 9668992
-37.243919 -59.288628 -131.50613 8879479
-36.174679 -59.286907 -131.33156 9537409
-35.249294 -59.088718 -132.06987 7564392
-34.254395 -59.008953 -132.14818 8156271
-33.210735 -59.036407 -132.17197 9208183
-32.079655 -58.936684 -132.16048 8681835
-31.352665 -58.719521 -132.20161 9405560
-119.57122 -57.892609 -115.23778 10722705
-118.84042 -57.806492 -115.64273 9209723
-116.98001 -57.694843 -115.22337 7564651
-67.323624 -57.926514 -125.10029 9932937
-66.362 -58.094025 -125.38041 8880502
-65.432205 -58.08606 -125.71447 9341053
-64.518646 -57.991905 -126.0754 8682867
-63.617275 -57.989491 -126.395 8551537
-62.681652 -58.120598 -126.67424 8551281
-61.757603 -58.195179 -126.97153 9273978
-60.926903 -58.429585 -127.17312 7958891
-60.044491 -58.533554 -127.44416 9736836
-34.799023 -58.417519 -132.49329 8616822
-34.064415 -58.195225 -132.53589 9471873
-33.112774 -58.111099 -132.51662 9405562
-32.088337 -58.11293 -132.4621 9537149
-31.078476 -58.00423 -132.44876 8748147
-30.305326 -57.808548 -132.47968 7827558
-116.4364 -57.631233 -115.51949 13024949
-115.52966 -57.525364 -116.00811 9275263
-114.6221 -57.41991 -116.49117 7367263
-112.63299 -57.292797 -116.14745 8419694
-111.73241 -57.189037 -116.61504 10721935
-110.6508 -57.064964 -117.16862 8223089
-109.92914 -56.982502 -117.53328 7565675
-108.53212 -56.922771 -116.89446 7565675
-107.6376 -56.821171 -117.33916 7038298
-106.74242 -56.719849 -117.77852 8617843
-106.20493 -56.659294 -118.03932 7038307
-69.444824 -56.979935 -124.69779 7760736
-68.477036 -57.143864 -124.98286 7893614
-67.542435 -57.132305 -125.32204 8617080
-66.576874 -57.076504 -125.68908 8880247
-65.612671 -57.023396 -126.05456 7893607
-64.682587 -57.019241 -126.38937 6906712
-63.724789 -57.194504 -126.6663 7630435
-62.610584 -57.584763 -126.90973 8419440
-32.951824 -57.405231 -132.76622 9208182
-32.136875 -57.131001 -132.82364 9866115
-31.170235 -56.985901 -132.82591 8419440
-30.141207 -57.10754 -132.72734 7235166
-29.210255 -56.922398 -132.74606 7958888
-28.485849 -56.714306 -132.78406 9340286
-105.66733 -56.598831 -118.29797 7630187
-103.78461 -56.483589 -117.90428 10853268
-102.91316 -56.393883 -118.34209 8682867
-101.88179 -56.295078 -118.87811 9011832
-101.19334 -56.229424 -119.23135 9735812
-99.537544 -56.138988 -118.73254 9340797
-98.853622 -56.0741 -119.07564 8089963
-97.997108 -55.992928 -119.49879 9997700
-96.962036 -55.892387 -119.99222 11379353
-94.829636 -55.75164 -119.70327 8616304
-94.127335 -55.675865 -119.99857 8681835
-71.053642 -55.989624 -124.34362 8155753
-70.313721 -56.108242 -124.6646 7169627
-69.452103 -56.171478 -125.00053 7760993
-68.53511 -56.115234 -125.35078 7366495
-67.679024 -56.109444 -125.6597 7827046
-66.79155 -56.059025 -125.99668 8419695
-65.827606 -56.230228 -126.27734 7301726
-31.175978 -56.164646 -133.12648 7892840
-30.181589 -56.157543 -133.07678 8419440
-29.21191 -56.103855 -133.04541 9208699
-28.207216 -56.006409 -133.02826 9669251
-27.385736 -55.758663 -133.07564 8419696
-93.762856 -55.630253 -120.12816 8681835
-93.033966 -55.539425 -120.38417 6511953
-92.122993 -55.426037 -120.69932 6445906
-91.212051 -55.312965 -121.00811 6643029
-90.119087 -55.177589 -121.37078 6051405
-89.390572 -55.087593 -121.60824 6117199
-86.841064 -54.828033 -121.18137 7565675
-86.120338 -54.739468 -121.40464 7301730
-85.399696 -54.651096 -121.62492 8616819
-72.300323 -54.917439 -124.14523 8550257
-71.40612 -55.162395 -124.4932 8879220
-70.483498 -55.140079 -124.96021 8681839
-69.533691 -55.098778 -125.3772 6774869
-68.587563 -55.257164 -125.6563 6839894
-67.850212 -55.35759 -125.88245 7366237
-30.20207 -55.433784 -133.34248 9077626
-29.251881 -55.127594 -133.40446 9997959
-28.289862 -54.993431 -133.40294 9077369
-27.272263 -55.068771 -133.32188 8419184
-26.340475 -54.950466 -133.31616 10722195
-25.618168 -54.750977 -133.35112 9011321
-84.859406 -54.584934 -121.78725 8616819
-84.139191 -54.496853 -122.00068 8616819
-83.239197 -54.387043 -122.2621 7367263
-82.142189 -54.148827 -122.22799 7564642
-75.97644 -53.663616 -123.36244 9405822
-75.284309 -53.726521 -123.56441 10787732
-74.233955 -53.880016 -123.84205 11840932
-73.341904 -54.074356 -124.08671 10787475
-72.449234 -54.13636 -124.45335 8682100
-71.566223 -54.148182 -124.85304 9010807
-70.695236 -54.285645 -125.19033 9734013
-69.985336 -54.407944 -125.47643 6511954
-28.288704 -54.177067 -133.7014 9077369
-27.347532 -54.113689 -133.67508 8616818
-26.335297 -54.13662 -133.61345 9209212
-25.335064 -54.049892 -133.59259 8682613
-24.43857 -53.720963 -133.66568 8090991
-77.792198 -53.495461 -122.97381 6511954
-77.303459 -53.462841 -123.18152 6511954
-76.395248 -53.3452 -123.70387 8748404
-75.471481 -53.359077 -123.9995 11577503
-74.470078 -53.441166 -124.22993 11577760
-73.542877 -53.463448 -124.54102 10985366
-72.628067 -53.495361 -124.86837 8089963
-27.176701 -53.419777 -133.91985 8222317
-26.366934 -53.165482 -133.97026 8353646
-25.408899 -53.041618 -133.96518 8682612
-24.408754 -52.958881 -133.94279 8682101
-23.51837 -52.943386 -133.90164 8024941
-22.748096 -52.826721 -133.90381 7563619
-26.127678 -52.425476 -134.22829 6510930
-25.40097 -52.229603 -134.26173 8682356
-24.479662 -51.952137 -134.3147 9537409
-23.418129 -52.163284 -134.18166 8484464
-22.504576 -52.093109 -134.1593 7958376
-21.565056 -51.813034 -134.2123 7892584
-24.192526 -51.254684 -134.5547 9340030
-23.524887 -51.203068 -134.53844 8550255
-22.525627 -51.127655 -134.51346 8615791
-21.5291 -51.054779 -134.48769 8484205
-20.588087 -50.892319 -134.4976 9471615
-19.727898 -50.594063 -134.56145 9340027
-23.236124 -50.507587 -134.77757 8615534
-22.472326 -50.227028 -134.84 8483948
-21.591396 -50.051857 -134.85776 9273979
-20.594706 -49.982674 -134.83061 9471356
-19.497627 -49.976154 -134.77531 9339770
-18.608723 -49.85157 -134.77411 9142649
-21.466228 -49.371613 -135.09999 8089963
-20.610088 -49.019798 -135.18353 9010806
-19.651033 -49.026409 -135.13068 9602941
-18.479439 -49.17498 -135.01472 8945266
-17.399612 -48.908554 -135.05537 8287335
-19.607277 -48.326111 -135.38449 9537402
-18.580963 -48.219505 -135.40445 8616301
-17.446194 -48.088306 -135.39517 8089960
-16.428391 -48.016445 -135.35201 8418925
-15.576768 -47.680561 -135.43912 7563619
-17.437645 -47.5196 -135.81941 7958630
-16.552055 -47.292316 -135.90186 8156006
-15.47443 -47.101521 -135.9514 7629921
-14.524053 -47.005161 -135.91916 8813682
-13.500874 -46.838451 -135.95612 8221547
-12.686768 -46.645271 -136.02361 7564131
-14.227275 -46.516983 -136.58853 10063488
-13.55923 -46.467724 -136.51526 9076597
-12.513128 -46.311283 -136.60562 8288366
-11.58611 -46.225147 -136.55023 8748917
-10.63028 -45.945721 -136.92007 8156780
-9.7043428 -45.867149 -136.87306 8090987
-8.6584101 -45.722546 -136.96631 9603712
-7.9952893 -45.679802 -136.88368 10129542
-8.5240412 -45.493412 -137.4149 9735298
-7.6904283 -45.425304 -137.26431 9143161
-6.8629479 -45.38298 -137.18665 11576217
-5.5939603 -45.324345 -138.2173 9538950
-4.7497888 -45.168766 -137.78027 11314846
-2.6287065 -45.085888 -138.75204 10261644
-1.7924008 -44.94717 -138.34482 9011320
-0.47555214 -44.855183 -139.24554 13023917
0.19068664 -44.782635 -139.02611 11774108
1.0207553 -44.692223 -138.74872 8090987
2.0249 -44.586628 -139.59082 10261899
2.5231166 -44.532284 -139.41681 11380380
3.0200591 -44.478138 -139.24126 9537659
4.0401092 -44.370758 -140.07309 10459019
4.8683696 -44.280453 -139.76799 9208696
6.0686316 -44.146133 -140.50528 8156524
6.8951545 -44.054562 -140.18178 8616819
8.1106329 -43.920765 -140.91252 7563619
8.935277 -43.829418 -140.5751 7563619
10.165713 -43.693977 -141.29219 10065294
10.988261 -43.602818 -140.9409 10723223
12.069028 -43.483971 -141.7168 15197142
12.889853 -43.393017 -141.3521 11380636
13.985435 -43.272511 -142.11887 9011576
14.804843 -43.181713 -141.74124 8419951
16.078802 -43.041458 -142.42058 7235937
16.895523 -42.95089 -142.02921 8617334
17.857344 -42.845192 -142.85538 9998729
18.672798 -42.754845 -142.45161 7300704
19.975357 -42.611378 -143.10651 8681843
20.625744 -42.539238 -142.77274 9405566
21.77986 -42.412262 -143.50098 8880507
22.428967 -42.34026 -143.15727 9341822
23.759508 -42.193748 -143.78926 8550514
24.406796 -42.121929 -143.43532 8089963
25.592306 -41.995964 -144.15991 8090995
26.243847 -41.933567 -143.82768 8090995
27.465313 -41.838104 -144.65604 13815490
28.278761 -41.760494 -144.22801 8815227
