# .PCD v0.7 - Point Cloud Data file format
VERSION 0.7
FIELDS x y z rgb
SIZE 4 4 4 4
TYPE F F F U
COUNT 1 1 1 1
WIDTH 1170
HEIGHT 1
VIEWPOINT 0 0 0 1 0 0 0
POINTS 1170
DATA ascii
-126.78147 -71.93898 -65.913795 8682356
-126.33748 -71.957596 -66.846893 8682355
-125.89226 -71.979393 -67.779953 8550514
-125.44943 -72.049934 -68.665977 8550514
-124.94576 -72.31041 -69.518867 10590609
-109.55328 -72.422462 -90.664368 10129025
-109.03138 -72.291489 -91.231979 9143419
-108.39655 -72.013634 -91.983353 8221804
-107.72584 -71.97213 -92.647675 8221805
-106.9245 -72.066986 -93.367119 8813944
-106.19293 -72.028046 -94.088394 8353649
-105.52038 -71.957573 -94.769394 8420469
-104.90253 -71.779961 -95.452911 8092019
-128.47227 -70.78299 -63.292881 8813938
-127.96986 -70.97847 -64.198906 9537657
-127.52726 -70.990677 -65.134529 9932416
-127.08356 -71.006004 -66.069984 8879477
-126.63858 -71.024445 -67.005325 9274749
-126.19963 -71.137375 -67.846626 9142907
-107.72041 -71.297714 -92.999596 8616562
-107.18482 -71.142456 -93.59285 9274493
-106.4514 -71.103905 -94.315758 9734529
-105.71784 -71.068512 -95.037132 9341314
-104.98418 -71.036247 -95.757011 9604485
-104.31411 -70.903008 -96.467873 9867399
-103.6526 -70.70652 -97.203056 9143162
-129.58153 -69.781509 -61.782444 8288366
-129.15419 -69.985832 -62.52029 8090730
-128.71591 -70.038116 -63.412312 8682609
-128.27344 -70.047112 -64.350395 9208435
-127.82986 -70.059196 -65.288277 9406071
-127.3719 -70.179993 -66.163437 10129797
-126.89342 -70.461769 -66.944176 10788243
-106.62239 -70.270126 -94.580467 9471355
-105.96093 -70.065323 -95.319839 9932679
-105.30735 -69.977028 -95.991776 10393486
-104.50277 -70.085182 -96.707458 9670022
-103.76679 -70.059517 -97.426239 8813684
-103.03047 -70.03685 -98.143707 7563619
-102.57314 -69.828606 -98.653694 7563619
-168.69962 -68.58596 -8.9180641 9340027
-168.4866 -68.717514 -9.5867195 9932163
-167.82631 -68.832558 -10.363728 6445394
-167.14322 -68.817795 -11.133503 8617586
-166.8705 -68.734909 -12.127613 9999244
-165.56125 -68.697311 -12.63966 8092019
-165.33908 -68.631752 -13.425945 9341312
-164.99998 -68.533783 -14.602253 10919056
-163.64944 -68.481956 -15.283848 8089963
-130.75441 -68.636429 -60.259274 10459276
-130.25584 -68.866737 -61.12711 11314584
-129.81798 -68.914047 -62.022526 11709598
-129.37607 -68.917862 -62.963882 8288109
-128.96683 -68.877892 -63.873165 8682867
-128.53497 -69.154732 -64.558388 8550764
-128.14589 -69.312492 -65.254555 9208435
-105.29488 -69.309013 -96.347176 9143681
-104.75491 -69.164474 -96.93911 8748924
-104.01706 -69.139046 -97.659523 8747893
-103.27889 -69.116661 -98.378616 12300454
-102.54021 -69.023186 -99.037056 9800320
-101.90089 -68.752037 -99.59166 8089955
-169.14676 -67.855644 -7.9866977 7038307
-169.1218 -68.021065 -8.6670341 7761770
-163.47659 -68.433601 -15.865093 10261643
-163.18448 -68.353218 -16.831516 9932934
-162.94757 -68.28904 -17.60281 9341310
-161.60968 -68.23983 -18.252293 9998216
-161.30824 -68.160599 -19.205067 10985367
-161.00157 -68.081688 -20.154762 10590353
-159.67758 -68.034813 -20.776989 9143417
-159.42813 -67.972382 -21.527695 8091246
-159.04855 -67.879143 -22.650562 8420209
-158.26488 -67.825783 -23.321415 9077628
-157.48029 -67.773048 -23.985241 7958893
-157.15463 -67.696533 -24.907097 9931651
-156.82397 -67.620354 -25.82576 8945272
-155.526 -67.578285 -26.388302 7894126
-155.32515 -67.533165 -26.933117 7892581
-131.33733 -67.912155 -59.539326 9340286
-131.00632 -67.986656 -60.279278 9669761
-130.56537 -67.984459 -61.223759 9669761
-130.12346 -67.985268 -62.167751 11840927
-129.69798 -68.02581 -63.042477 6906712
-129.3241 -68.178825 -63.710331 8682867
-104.1804 -68.309547 -97.929359 7563877
-103.56651 -68.23555 -98.55587 10524301
-102.97534 -67.982086 -99.195847 10787216
-102.11842 -68.004448 -99.779411 9341058
-101.52097 -67.83696 -100.25921 9736071
-169.46542 -67.011795 -8.0021248 7433063
-169.47287 -67.273117 -8.8215218 7038307
-155.12282 -67.488022 -27.477104 9734779
-154.81018 -67.410851 -28.193279 9076851
-154.40924 -67.311707 -29.084415 7366238
-153.72891 -67.235321 -29.791 7366239
-152.7731 -67.181824 -30.31118 8616819
-152.36546 -67.084442 -31.187275 9274747
-151.87122 -66.968132 -32.233959 7958885
-151.45518 -66.871643 -33.102325 9208694
-150.77184 -66.798401 -33.78146 8945523
-149.74081 -66.729561 -34.440468 10391943
-149.31801 -66.634857 -35.293587 9931648
-148.89114 -66.540649 -36.14278 9734788
-131.99014 -66.848457 -58.562168 8551282
-131.69229 -67.032631 -59.445042 8814198
-131.31352 -67.058975 -60.41991 8814198
-130.87471 -67.103149 -61.320011 8419952
-130.37408 -67.335579 -62.190479 10525325
-102.99364 -67.234993 -99.531471 10261132
-102.40364 -67.127884 -99.97921 9275521
-101.57702 -67.092796 -100.55483 8157555
-100.85548 -66.898956 -101.13049 10656659
-169.82031 -65.806725 -7.30125 7827561
-169.79753 -66.091286 -7.9496493 7959404
-148.37408 -66.428162 -37.157139 8485238
-147.93916 -66.334923 -37.998608 9932169
-147.12592 -66.276978 -38.550014 8287600
-146.22557 -66.201447 -39.260723 10656400
-145.78436 -66.109924 -40.087082 8880507
-145.33936 -66.018906 -40.90955 9012093
-144.80463 -65.912003 -41.893032 6972765
-144.29651 -65.820076 -42.880543 9012088
-143.8737 -65.746033 -43.701248 9538175
-142.91426 -65.711517 -43.978928 9538175
-142.16782 -65.626656 -44.879532 11774878
-141.70596 -65.539238 -45.675808 12959151
-132.53711 -65.928673 -57.788563 9341060
-132.30898 -65.913132 -58.719017 9208957
-132.0303 -66.028679 -59.596844 8551026
-131.62666 -66.225098 -60.467262 10524560
-102.46925 -66.306007 -100.30315 7368296
-101.8248 -66.040527 -100.85872 9012606
-101.03429 -66.026077 -101.40068 9801864
-100.2184 -65.938583 -101.99259 10722453
-170.15198 -64.592896 -6.3911929 7958376
-170.12155 -64.937202 -7.1531405 8813679
-141.41562 -65.481689 -46.148167 12959151
-141.12395 -65.424301 -46.618931 8879734
-140.63516 -65.328926 -47.400394 10129285
-140.04408 -65.214989 -48.333122 6511954
-139.44824 -65.101662 -49.260223 7695714
-138.9482 -65.007599 -50.028599 7563871
-134.11195 -64.75489 -55.548386 9341059
-133.77371 -64.905769 -56.240925 8551026
-133.33766 -65.091187 -57.166683 7958890
-132.98416 -65.166046 -58.1087 11183005
-132.64322 -65.302711 -58.849979 7762030
-101.78501 -65.242462 -101.24347 14078918
-101.19331 -65.141273 -101.68957 11512736
-100.365 -65.113762 -102.263 13222841
-99.640427 -64.927147 -102.8366 13748929
-170.39749 -63.881672 -6.2635379 8681843
-170.45206 -63.993282 -7.0201602 8484973
-137.07811 -64.191124 -52.557037 7038298
-136.24567 -64.043671 -53.089962 8617072
-135.75594 -64.087196 -53.939205 9801092
-135.27806 -64.199669 -54.838123 7959409
-134.7233 -64.394417 -55.49522 8617337
-134.37595 -64.394867 -56.33923 10064525
-133.80157 -64.500786 -57.316177 9341060
-101.26913 -64.449341 -101.94838 12433837
-100.60632 -64.065384 -102.56853 13091255
-99.822403 -63.997803 -103.12575 13485757
-98.963257 -64.028336 -103.68922 12433069
-170.68799 -62.860191 -5.5877948 10261132
-170.76262 -62.95919 -6.466373 7892841
-100.55936 -63.270809 -102.95192 14077894
-99.973892 -63.115181 -103.4137 13288377
-99.131149 -63.152168 -103.96337 12104101
-98.401596 -62.971329 -104.53314 11972000
-171.06235 -61.847198 -5.6004672 8155755
-171.06676 -62.048004 -6.2200122 8813685
-99.890381 -62.47229 -103.75368 11511705
-99.385147 -62.167179 -104.22771 11445656
-98.620331 -61.965374 -104.83044 11445912
-97.778435 -61.939713 -105.40713 10262408
-171.48853 -60.74754 -4.7864795 7760997
-171.40561 -61.01292 -5.5289721 7168860
-99.005356 -61.144909 -104.93417 11117460
-98.111084 -61.121136 -105.5452 10065286
-97.334442 -61.066216 -106.09101 10656140
-96.827385 -60.769047 -106.56274 9208435
-172.27296 -59.700882 -3.9757955 9012089
-172.00114 -60.108646 -4.8000445 8156268
-171.85794 -60.40892 -5.6258121 6510930
-98.924194 -60.548244 -105.25222 9210491
-98.33773 -60.362537 -105.7439 9143414
-97.630936 -60.114727 -106.41149 7958627
-96.841522 -60.029217 -107.02757 7366492
-96.095444 -59.835159 -107.71597 5787465
-95.545174 -59.680092 -108.24603 4471609
-173.07451 -59.375088 -3.574352 9735812
-96.988968 -59.514336 -107.77058 5919050
-96.446686 -59.499233 -108.20997 5919050
-95.631401 -59.47752 -108.86631 4208438
-95.049088 -59.403233 -109.68166 5392452
-94.664719 -59.142029 -110.56377 4472122
-94.038872 -58.962837 -111.29308 3616815
-93.210434 -58.946419 -111.94046 3879727
-92.576965 -58.762054 -112.54792 4537398
-94.076645 -58.122887 -111.6984 4932414
-93.442345 -58.048283 -112.21666 5919050
-92.539246 -58.102806 -112.85546 5524293
-91.897263 -57.913944 -113.28462 5721672
-93.570999 -57.502884 -112.36987 6182992
-92.953506 -57.174171 -113.00168 6182222
-92.114426 -57.033092 -113.54968 5919050
-91.505264 -56.65329 -114.00778 6445394
-92.428207 -56.323559 -113.88687 5919050
-91.620232 -56.051414 -114.49963 8221548
-90.883896 -55.839031 -115.01324 13352884
-91.037079 -55.382122 -115.6777 11050387
-90.22187 -55.369781 -115.92889 7366749
-90.001579 -55.100094 -116.93929 6906713
-89.19487 -54.95034 -117.05454 7169629
-88.096306 -55.080734 -119.72623 6511954
-87.557922 -55.01379 -119.8988 6511954
-87.026703 -54.896503 -121.29363 6510930
-86.303787 -54.807991 -121.51643 7170402
-85.750427 -54.687645 -122.90732 7170402
-85.203293 -54.620968 -123.06748 6511954
-84.838646 -54.576672 -123.17306 6511954
-84.630859 -54.498619 -124.45716 6511954
-83.894897 -54.409485 -124.6609 8353903
-83.487297 -54.307373 -125.99914 9406335
-82.744896 -54.217957 -126.19337 10722194
-82.132591 -54.091404 -127.57902 11708572
-81.383957 -54.001732 -127.7631 9011574
-80.939651 -53.895573 -129.10159 8551025
-80.334641 -53.796761 -129.8618 9537663
-79.722954 -53.697571 -130.61531 9406847
-79.249908 -53.587856 -131.96196 9538686
-78.482544 -53.497292 -132.11987 11182998
-77.99176 -53.385731 -133.46719 9538686
-77.411636 -53.317585 -133.57858 7695714
-76.904724 -53.204098 -134.92752 7631202
-76.125458 -53.113049 -135.06665 8090987
-75.797012 -53.020466 -136.38287 7630186
-75.011864 -52.929169 -136.51305 7038307
-74.477531 -52.816658 -137.87625 9077626
-73.937073 -52.706505 -139.25761 9209467
-73.345566 -52.642178 -139.3548 8617330
-72.754395 -52.577946 -139.44995 7959144
-72.589752 -52.508804 -140.76881 13024949
-71.993935 -52.444256 -140.85823 11183004
-71.418442 -52.330456 -142.24278 7564651
-70.818176 -52.265743 -142.32538 11381404
-70.225922 -52.150181 -143.71201 8354421
-69.215202 -51.989594 -145.1535 9406080
-68.59523 -51.870621 -146.55243 7038307
-67.98143 -51.805367 -146.61592 8616307
-67.550392 -51.706409 -147.99779 9011065
-66.932274 -51.640934 -148.05452 8287342
-66.2854 -51.522972 -149.47276 8682867
-65.469131 -51.445873 -149.56836 9275004
-64.849152 -51.362114 -151.09419 7959144
-64.232048 -51.304005 -151.15805 8682867
-63.800789 -51.237911 -152.6701 7235421
-63.178638 -51.17939 -152.72684 7959144
-62.73185 -51.111748 -154.24878 12629927
-62.104546 -51.052856 -154.29849 8681835
-61.431347 -50.963879 -155.84433 9274491
-60.319 -50.833622 -157.42599 8880245
-58.971497 -50.681458 -159.01979 9734527
-58.329803 -50.621658 -159.04593 9405560
-57.81525 -50.547115 -160.60422 10261386
-57.168697 -50.487049 -160.62289 8682867
-56.637554 -50.410702 -162.19115 7959408
-55.657261 -50.292614 -163.77895 9538175
-54.878994 -50.192947 -165.37535 12431013
-123.17249 -73.634499 -72.171432 10457990
-122.79391 -73.814888 -72.826057 9010800
-122.31305 -73.865707 -73.660042 9273716
-121.72166 -73.830208 -74.507889 10260617
-121.12979 -73.79792 -75.354317 8879736
-120.53748 -73.768936 -76.199379 9603200
-119.87908 -73.814629 -77.059502 8485493
-119.26218 -73.999496 -77.769745 8222323
-118.62777 -74.066772 -78.642159 9077372
-118.14443 -74.060257 -79.349586 9734788
-117.65196 -74.050842 -80.050659 9274748
-117.05649 -74.040024 -80.888603 9866885
-116.46029 -74.032471 -81.725708 9801092
-115.8632 -74.028152 -82.561943 11115925
-115.2652 -74.027039 -83.397438 9143162
-114.66628 -74.029144 -84.232201 8223604
-114.0663 -74.034492 -85.066345 8156530
-113.46534 -74.04303 -85.89994 9143167
-112.82276 -74.028427 -86.702179 8222064
-112.09409 -73.961128 -87.437622 7761509
-111.54111 -73.720673 -88.09137 7037274
-124.0109 -72.834869 -71.066704 8681843
-123.50094 -73.059258 -71.964478 8945267
-123.07475 -72.960983 -72.961769 8879214
-122.60799 -72.92823 -73.836624 10063232
-121.95638 -73.080368 -74.650742 12431269
-121.36329 -73.048386 -75.498734 11576473
-120.76973 -73.01963 -76.345398 9602943
-120.17564 -72.994095 -77.190735 8090737
-119.51315 -73.111252 -78.042076 7959151
-118.92854 -73.139732 -78.840302 8814456
-118.33289 -73.123741 -79.681839 9143162
-117.83598 -73.112755 -80.382408 8945783
-117.33847 -73.104187 -81.082245 9998215
-116.7408 -73.09671 -81.921326 9603713
-116.14225 -73.092415 -82.759552 9209211
-115.54285 -73.091339 -83.597031 8552313
-114.94245 -73.09343 -84.433823 9012606
-114.34111 -73.098724 -85.269974 8091250
-113.73872 -73.107185 -86.105591 8485495
-113.09678 -73.09417 -86.911392 7761768
-112.36934 -73.029671 -87.650932 8484716
-111.63873 -72.966156 -88.385681 7366238
-110.97068 -72.973869 -89.022102 8418668
-110.42032 -72.866539 -89.604897 11378324
-125.41624 -71.639549 -69.089615 9340286
-125.0397 -71.810211 -69.748215 10064265
-124.54896 -72.063927 -70.579819 10853266
-124.13237 -72.0504 -71.483345 7564391
-123.72242 -72.130051 -72.292366 8616558
-123.36485 -72.10125 -73.082748 9734523
-122.90254 -71.99205 -74.013008 9471610
-122.25956 -72.192551 -74.784706 9472127
-121.59653 -72.299736 -75.64296 9865858
-121.00174 -72.271233 -76.49118 9142393
-120.40644 -72.245895 -77.338089 7893357
-119.81055 -72.223755 -78.183838 7827307
-119.21405 -72.204773 -79.028404 8617075
-118.61691 -72.188942 -79.871941 9208955
-118.11877 -72.178108 -80.574181 8814197
-117.64183 -72.263786 -81.186165 9735043
-116.96494 -72.348969 -82.077637 9735299
-116.36529 -72.344749 -82.917435 8090987
-115.76468 -72.343689 -83.756531 8091504
-115.16317 -72.345764 -84.594925 8683898
-114.56064 -72.351006 -85.432686 8814971
-113.95718 -72.359474 -86.269882 9603971
-113.28226 -72.249054 -87.161324 9275261
-112.64169 -72.097832 -87.861969 9274487
-111.91134 -72.036469 -88.600098 7563617
-111.16574 -72.165817 -89.250534 9208181
-110.61967 -72.075508 -89.820465 8287593
-109.94826 -72.025223 -90.489944 8945009
-109.285 -71.798698 -91.242218 9537661
-108.79026 -71.614632 -91.811127 10262156
-126.17789 -70.863297 -68.128716 8089963
-125.74511 -71.070831 -68.876137 9077114
-125.32276 -70.960213 -69.875702 9274493
-124.90649 -70.943558 -70.781303 7827565
-124.45921 -71.023003 -71.670395 7038307
-123.9616 -71.236755 -72.551147 8287852
-123.5817 -71.415451 -73.210266 8484973
-112.56078 -71.518379 -88.234955 9734779
-112.06755 -71.325569 -88.810585 8945266
-111.52525 -71.130745 -89.434769 9208699
-110.96033 -71.011887 -90.040024 9471353
-110.226 -70.957916 -90.7724 8945007
-109.49617 -71.014961 -91.442665 10590092
-108.70445 -71.043983 -92.186722 8090218
-108.05796 -70.910454 -92.875114 7563618
-127.43146 -69.704727 -66.44474 9735043
-126.95253 -69.987244 -67.226334 10261643
-126.49258 -70.114258 -68.101402 8418928
-126.04456 -70.138939 -69.039261 8945528
-125.65073 -70.058838 -69.9515 9668995
-125.21191 -70.101723 -70.853928 9997703
-110.92982 -70.25238 -90.458015 8681835
-110.43372 -70.066391 -91.031364 8945007
-109.68678 -70.119057 -91.720535 9405816
-108.96825 -70.119949 -92.408882 8156267
-108.23255 -70.075706 -93.136971 7893350
-107.49681 -70.034546 -93.863358 8616302
-106.87202 -69.777603 -94.594376 9076595
-106.25038 -69.598419 -95.282402 9997702
-168.91115 -68.539101 -10.222729 6445394
-168.57431 -68.666779 -11.019741 7959144
-168.13797 -68.755646 -11.807331 9209723
-167.97339 -68.706535 -12.407467 7564386
-166.59219 -68.652382 -13.118633 8880507
-166.2516 -68.553604 -14.304241 8879477
-166.02068 -68.487999 -15.092472 9340027
-128.61032 -68.562943 -64.906364 9998469
-128.16338 -68.882545 -65.587349 9274745
-127.74716 -68.958199 -66.413155 9208955
-127.30048 -68.976456 -67.353661 9472128
-126.85261 -68.997787 -68.294174 8550514
-126.39072 -69.127213 -69.171303 8617588
-125.90895 -69.416847 -69.952812 9011323
-109.7936 -69.420303 -91.977386 8089963
-109.23178 -69.196953 -92.630798 8485487
-108.54634 -68.968842 -93.405136 9866625
-107.82614 -68.975899 -94.091904 9011317
-107.01883 -69.074875 -94.814941 9339769
-106.28112 -69.040337 -95.539856 10458509
-105.63014 -68.919327 -96.226089 11183003
-169.37991 -67.735092 -9.430912 7038307
-169.29674 -68.009781 -10.122608 6774359
-169.23207 -68.196892 -10.856091 7564386
-164.71202 -68.452461 -15.579357 9142907
-164.41856 -68.371384 -16.55344 11117464
-164.12041 -68.290573 -17.524784 8090987
-163.15804 -68.241409 -18.155346 9472128
-162.52475 -68.177177 -18.947811 9537665
-162.21666 -68.097588 -19.904884 10129545
-161.96698 -68.034119 -20.668747 8616307
-160.62723 -67.987305 -21.290619 8091246
-160.31013 -67.908897 -22.23402 8091246
-159.98795 -67.830849 -23.174232 7696492
-158.66234 -67.786232 -23.769337 8484979
-158.40065 -67.724525 -24.512512 7498600
-158.00269 -67.632324 -25.62394 9931651
-157.66608 -67.555748 -26.546959 9537409
-156.42114 -67.52919 -26.924366 8155752
-129.59355 -67.80526 -63.455364 8682867
-129.21931 -67.959351 -64.123375 10393229
-128.79218 -68.005966 -64.997635 11511967
-128.3465 -68.01902 -65.94059 8814453
-127.94151 -67.996773 -66.826828 9208955
-127.55919 -68.085915 -67.568413 9735043
-127.16724 -68.250519 -68.265541 9142907
-108.50883 -68.217819 -93.827217 11905692
-107.91718 -68.186378 -94.4105 8090215
-107.27625 -68.154358 -95.04142 10261385
-106.53665 -68.120201 -95.767944 10854293
-105.79694 -68.089058 -96.493019 9143424
-105.05711 -68.060989 -97.216721 7696237
-104.49046 -67.856049 -97.865334 7564651
-103.92289 -67.65345 -98.513496 8353134
-169.66054 -66.954475 -9.3784294 8156527
-169.67921 -67.138954 -10.063328 9142907
-156.05899 -67.444298 -27.832909 8353130
-155.65613 -67.34436 -28.731499 7300445
-155.24939 -67.244759 -29.626732 6511954
-154.56107 -67.168167 -30.335342 8090218
-153.51248 -67.095192 -31.031746 8090218
-153.09871 -66.997452 -31.911217 8090218
-152.68066 -66.900131 -32.786865 8485229
-152.25891 -66.803291 -33.658997 9932160
-151.59131 -66.714516 -34.473404 7761763
-150.52585 -66.661072 -34.999512 9405561
-150.09738 -66.565979 -35.85622 8419440
-149.83849 -66.509178 -36.36853 7169629
-130.84631 -66.68573 -61.739479 8682867
-130.47241 -66.835274 -62.410717 12630955
-129.98514 -67.061562 -63.258778 8156523
-129.5406 -67.068535 -64.20433 11314331
-129.09508 -67.078468 -65.149719 10196106
-128.65198 -67.137161 -66.047729 9274748
-128.14766 -67.384079 -66.914215 9077369
-107.35844 -67.412674 -95.343887 9998728
-106.73226 -67.235596 -96.035202 9801605
-106.1193 -67.03373 -96.726608 7959405
-105.55005 -66.912773 -97.334496 8419959
-104.86406 -66.942085 -97.977013 8157042
-104.12861 -67.025177 -98.639313 8485748
-103.38065 -67.042191 -99.329147 8683128
-170.019 -65.704872 -8.576519 8090989
-169.95294 -66.094971 -9.1893806 8288111
-149.57811 -66.45253 -36.879322 8419440
-149.1411 -66.358467 -37.727695 9800581
-148.70062 -66.264839 -38.572674 8813428
-148.02312 -66.179993 -39.352825 10589836
-146.96892 -66.13131 -39.836506 11050901
-146.52225 -66.039429 -40.666195 7959408
-146.09256 -65.957382 -41.497906 8025453
-145.5898 -65.867432 -42.496513 8288622
-145.16641 -65.792686 -43.324993 11051671
-144.73865 -65.71817 -44.149952 12366761
-143.70514 -65.657906 -44.723557 8880761
-142.9137 -65.577049 -45.489841 13551545
-132.02301 -65.577072 -60.168095 9340286
-131.66951 -65.761101 -60.775036 9801351
-131.23894 -65.944992 -61.537998 9011834
-130.79529 -65.946007 -62.487064 9472638
-130.35059 -65.949974 -63.43568 10656911
-129.90834 -66.002808 -64.336937 9340797
-129.40466 -66.243591 -65.20742 9735555
-105.68389 -66.229164 -97.557617 9012347
-105.11407 -66.024841 -98.208916 8617847
-104.30155 -66.138985 -98.929115 9735301
-103.5646 -66.158936 -99.600075 8814457
-102.85286 -65.96933 -100.19424 7499625
-102.2553 -65.660889 -100.7372 9012606
-170.29173 -64.921242 -8.4533424 7169892
-170.29996 -65.181999 -9.2769279 8090989
-142.42955 -65.481636 -46.284096 10261385
-141.93889 -65.385399 -47.073334 7563619
-141.34575 -65.270393 -48.015347 8222573
-140.7477 -65.155975 -48.951649 6511954
-140.24573 -65.061035 -49.727699 9536891
-139.74023 -64.966492 -50.499493 6117199
-139.12935 -64.853607 -51.42054 7893356
-138.61685 -64.759933 -52.183834 9142909
-138.30783 -64.703888 -52.639843 9734788
-133.38127 -64.532021 -58.471813 10525076
-132.91772 -64.79538 -59.280499 7433063
-132.51012 -64.918976 -60.195675 8354163
-132.04857 -64.906593 -61.141361 8485751
-131.5139 -65.019318 -61.975216 8485750
-131.09283 -65.124344 -62.62841 8682867
-130.59399 -65.209602 -63.553574 9341309
-105.0155 -65.467041 -98.590195 8288883
-104.48112 -65.359283 -99.157829 9603971
-103.81715 -65.105331 -99.901115 8156783
-103.02308 -64.987061 -100.51922 7564645
-102.24644 -64.974678 -101.05091 10986136
-170.55847 -63.965176 -7.7799029 8682351
-170.56593 -64.180977 -8.4671364 7893097
-136.76727 -64.004066 -54.907551 7827566
-135.96521 -63.754009 -55.351017 7301479
-135.34567 -63.835625 -56.053432 7827823
-134.88857 -63.903851 -57.010113 12169895
-134.36078 -64.058136 -57.717133 10722452
-133.82051 -64.175049 -58.580605 8025201
-133.34438 -64.253983 -59.414257 7498857
-133.03261 -64.276291 -60.237949 9341057
-103.2041 -64.106689 -100.79125 6972504
-102.34126 -64.127884 -101.36627 10722962
-101.57738 -63.998272 -101.9418 13092023
-101.03581 -63.684444 -102.44928 12433837
-170.90894 -62.97113 -7.6585803 9011057
-170.91843 -63.229183 -8.4848518 9208435
-103.13358 -63.501987 -101.11006 7367005
-102.59039 -63.1852 -101.62007 8946037
-101.80042 -63.007614 -102.23386 11841700
-101.02271 -62.939056 -102.78719 13552574
-171.2337 -61.880569 -7.05302 9735812
-171.28876 -61.992226 -7.8137698 8880246
-101.97445 -62.12941 -102.50559 9472639
-101.14764 -62.144356 -103.05422 12104101
-100.42635 -62.099209 -103.55851 12367270
-99.935349 -61.734829 -104.04913 10524555
-171.60371 -60.802345 -6.0322299 8089963
-171.56248 -61.038044 -6.8595157 8484977
-171.5343 -61.279758 -7.6870379 9143419
-101.59071 -61.352436 -103.10637 7301214
-100.84203 -61.067314 -103.73505 8748147
-99.97963 -60.998165 -104.34472 9735041
-99.371735 -60.704731 -104.88251 10064774
-172.4754 -59.665623 -5.4370837 8354159
-172.15033 -60.118629 -6.1199298 8616563
-171.97244 -60.465237 -6.8751636 8089963
-100.88255 -60.212135 -104.10873 7563619
-100.23605 -60.036583 -104.68205 7234912
-99.488464 -59.899734 -105.34081 7038301
-98.773499 -59.806087 -105.93687 7235418
-173.88992 -59.17458 -3.7983129 9735812
-173.34003 -59.352592 -4.4155993 7893608
-173.19684 -59.432121 -5.2483554 7038298
-98.60997 -59.563622 -106.44196 5393730
-98.283325 -59.476212 -107.01278 5393730
-97.722961 -59.426712 -107.64229 5985099
-97.284821 -59.086605 -108.68261 6642771
-96.514854 -59.022713 -109.3339 6248015
-95.773666 -58.909176 -110.00817 6510930
-95.1353 -58.759804 -110.59724 6510930
-97.290176 -58.33865 -109.14753 6510930
-96.70047 -58.073738 -109.71888 8352877
-96.003159 -58.034481 -110.26935 7497567
-95.110519 -58.087681 -110.92598 6116429
-94.476227 -58.010368 -111.44543 4932414
-95.993652 -57.386501 -110.60175 8286826
-95.377762 -57.239323 -111.16763 7168603
-94.608902 -57.173409 -111.7808 6182736
-93.961723 -56.944012 -112.39685 6315092
-93.500771 -56.792759 -112.83389 6315092
-95.091026 -56.522846 -111.98299 6709593
-94.327721 -56.34111 -112.72102 6315092
-93.507591 -56.201031 -113.46184 6577493
-92.903435 -55.883484 -114.23434 7300190
-92.224854 -55.763981 -114.61504 7760741
-92.524109 -55.528095 -114.98315 8023913
-91.697746 -55.446415 -115.37016 7037274
-91.209755 -55.322521 -116.75294 6775125
-89.528633 -55.257645 -119.25021 8024682
-88.633362 -55.146976 -119.54946 6511954
-88.472809 -55.074078 -120.83585 5985614
-87.568924 -54.962959 -121.12376 6117199
-87.210068 -54.86581 -122.47012 6643030
-86.480118 -54.776608 -122.69051 6643030
-85.919678 -54.655102 -124.09158 6709079
-85.183098 -54.565613 -124.30207 6511954
-84.787552 -54.464317 -125.64999 7104864
-84.044403 -54.37458 -125.85113 10064265
-83.631241 -54.271336 -127.20023 7563619
-82.881599 -54.18121 -127.39182 11380380
-82.450844 -54.076042 -128.74214 9932418
-81.695 -53.985691 -128.92404 7564643
-81.246468 -53.878517 -130.27539 10129796
-80.786758 -53.769741 -131.63428 7037274
-80.018082 -53.678753 -131.79967 9077882
-79.346771 -53.545132 -133.19855 7039322
-78.572189 -53.453972 -133.35338 12038050
-78.27037 -53.364071 -134.67484 11314843
-77.489655 -53.272499 -134.82083 8814963
-76.976334 -53.157909 -136.181 6512978
-75.856667 -52.972588 -137.64522 7630443
-74.726631 -52.792572 -139.12437 8287855
-74.181046 -52.681366 -140.51968 9734788
-73.782867 -52.638176 -140.58336 8616822
-73.186096 -52.573391 -140.67705 8946044
-73.021622 -52.503574 -142.01259 7564651
-72.219559 -52.416916 -142.12953 7564651
-71.638672 -52.301937 -143.52829 8814971
-71.032806 -52.236813 -143.60869 10065291
-70.434898 -52.120041 -145.00969 10261642
-69.414703 -51.957966 -146.46414 7827565
-68.788727 -51.837845 -147.87769 9734788
-68.169304 -51.772072 -147.93866 9340030
-67.526138 -51.650066 -149.35437 9011065
-66.90242 -51.584129 -149.40811 8682867
-66.497147 -51.517555 -150.91348 8090216
-65.672714 -51.439735 -151.00581 6511954
-65.254616 -51.374733 -152.52933 9406590
-64.631149 -51.316013 -152.59105 7959144
-63.988007 -51.229679 -154.14301 9406590
-63.359604 -51.170643 -154.19708 14604230
-62.908375 -51.10218 -155.73878 10261132
-62.274853 -51.042828 -155.78571 10261132
-61.807743 -50.972763 -157.33759 10590093
-61.16922 -50.91309 -157.37726 9340539
-60.471428 -50.821236 -158.95035 9340539
-59.828156 -50.761299 -158.98148 9734784
-59.326672 -50.687687 -160.55234 9735043
-58.894474 -50.647484 -160.56842 10129286
-58.462444 -50.607281 -160.58353 10853012
-57.942673 -50.531857 -162.1626 7959408
-57.289677 -50.471184 -162.17812 8419702
-56.753109 -50.394066 -163.76767 8419702
-55.541714 -50.254211 -165.3755 9209467
-122.16818 -71.759354 -75.184113 7169373
-121.77129 -71.738808 -75.75103 10129030
-121.17557 -71.710464 -76.600388 10129030
-120.57933 -71.685303 -77.448524 8287600
-119.98257 -71.663322 -78.295418 8156012
-119.38515 -71.644455 -79.141205 9209467
-118.7871 -71.628738 -79.985863 9011576
-118.28827 -71.617981 -80.689034 9735043
-117.70389 -71.758255 -81.416809 10392717
-117.13283 -71.788887 -82.194725 9472125
-116.5323 -71.78466 -83.035744 8288109
-115.93085 -71.783615 -83.875999 9406847
-115.32848 -71.78569 -84.715569 9144191
-114.72514 -71.790916 -85.554581 9801864
-114.12077 -71.799278 -86.392998 9735812
-113.5382 -71.754776 -87.161774 9735812
-113.04849 -71.560036 -87.741417 9735812
-124.42302 -70.616516 -72.098579 7038307
-124.05336 -70.73848 -72.784775 8090474
-123.58152 -70.948891 -73.612175 8551027
-123.12309 -71.107262 -74.260483 8222317
-122.60056 -71.022942 -75.042778 8551282
-122.00404 -70.991676 -75.895012 9866370
-121.40706 -70.963608 -76.745926 10392457
-120.80964 -70.93866 -77.595558 7169117
-120.22229 -70.96431 -78.399376 8419440
-119.55612 -71.084663 -79.253838 9011832
-118.95717 -71.069046 -80.099678 8682867
-118.35754 -71.056557 -80.944603 10195338
-117.8573 -71.048485 -81.648003 10524555
-117.35651 -71.04274 -82.350731 10853521
-116.75481 -71.038536 -83.193336 8880245
-116.15221 -71.037498 -84.035156 9340796
-115.54874 -71.039574 -84.876343 8946813
-114.94427 -71.044777 -85.716919 11380380
-114.33877 -71.053101 -86.556961 10262156
-113.69715 -71.042732 -87.369781 8156780
-112.94416 -71.060738 -88.096382 8814195
-112.32278 -70.832542 -88.814133 9537406
-111.80023 -70.696152 -89.389496 9340286
-125.18822 -69.830276 -71.13903 9997703
-124.75176 -70.045143 -71.887939 7104099
-124.29808 -70.082222 -72.827248 9340283
-123.90137 -69.935585 -73.80162 8814200
-123.38936 -69.880287 -74.658836 7893354
-122.84119 -70.124832 -75.270508 8682868
-122.29468 -70.058823 -76.074776 8946041
-121.69621 -70.031044 -76.927605 7761766
-121.09721 -70.006386 -77.779198 6313808
-120.44465 -70.063713 -78.654091 8353646
-119.8407 -70.152634 -79.441376 8814454
-119.2403 -70.137215 -80.289207 8418926
-118.63922 -70.124901 -81.13607 9471608
-118.13775 -70.116905 -81.841118 10524555
-117.63573 -70.111214 -82.545471 11774623
-117.03261 -70.107101 -83.390038 10985104
-116.42857 -70.106094 -84.233856 8485490
-115.82367 -70.108131 -85.077026 9406336
-115.21777 -70.113297 -85.919609 10590865
-114.61089 -70.121513 -86.761658 10130058
-113.96955 -70.112381 -87.577744 8814710
-113.23847 -70.05175 -88.324425 7762022
-112.55853 -70.050468 -88.983513 8682612
-111.99725 -69.905075 -89.600967 9011321
-111.28683 -70.051102 -90.214676 8879475
-110.79123 -69.864502 -90.789459 8681835
-168.85475 -68.553848 -11.650944 7564386
-168.7869 -68.55014 -12.465023 6972250
-168.10809 -68.619934 -13.096821 7564386
-167.51852 -68.573792 -14.001598 8089963
-167.28653 -68.50766 -14.796177 8089963
-126.44792 -68.654495 -69.456787 7367527
-125.96557 -68.944679 -70.239113 8682615
-125.50118 -69.080109 -71.116417 10326667
-125.04797 -69.113678 -72.057671 8683127
-124.5934 -69.15036 -72.999344 9669506
-124.21456 -69.038055 -73.906174 8025200
-123.58409 -69.179657 -74.826683 7827820
-123.02638 -69.33857 -75.50544 9406591
-122.5269 -69.313339 -76.218407 8353908
-121.92723 -69.285851 -77.072792 6445653
-121.26962 -69.447594 -77.889275 6313808
-120.66917 -69.426163 -78.740807 8419440
-120.06823 -69.407791 -79.591248 8222317
-119.46658 -69.392471 -80.440659 8353645
-118.86432 -69.38031 -81.289078 9208435
-118.36189 -69.372398 -81.995407 10524555
-117.85887 -69.366776 -82.701134 11577759
-117.25458 -69.362694 -83.547234 10853262
-116.64943 -69.361679 -84.392662 10392712
-116.24558 -69.362656 -84.955925 7038307
-114.06964 -69.361328 -87.872261 12432552
-113.44919 -69.156586 -88.57547 10393227
-112.89536 -69.073929 -89.153824 8025194
-112.28186 -69.026665 -89.77198 8879991
-111.49282 -69.15799 -90.469246 9142906
-110.75755 -69.107025 -91.207184 10786957
-110.08718 -68.955589 -91.933052 8155755
-109.38971 -68.643646 -92.763824 8419438
-169.51663 -67.823708 -10.874187 7564386
-169.42062 -68.050735 -11.688709 7564386
-167.16924 -68.474617 -15.19257 8089963
-165.90384 -68.455231 -15.485874 9340027
-165.66751 -68.389931 -16.270977 8945784
-165.36795 -68.308464 -17.250011 9341310
-165.12459 -68.243546 -18.031025 8090987
-163.75578 -68.193977 -18.686375 8090987
-163.44624 -68.113785 -19.651058 9142907
-163.13208 -68.033836 -20.612869 7563619
-162.39104 -67.994202 -21.119164 8089963
-161.58597 -67.939255 -21.810398 8945272
-161.19821 -67.84478 -22.948002 9866630
-160.86996 -67.766342 -23.892807 9735046
-159.595 -67.73748 -24.298668 7893615
-159.26251 -67.659981 -25.232456 8024687
-158.92493 -67.582817 -26.163048 9668995
-158.65184 -67.521187 -26.905586 8813686
-157.46184 -67.509926 -27.099277 9537409
-127.14475 -67.977592 -68.549187 8090991
-126.7281 -67.954453 -69.461205 7170149
-126.31023 -67.934067 -70.373444 8025710
-125.85732 -67.96418 -71.317131 7696235
-125.39091 -68.101936 -72.196754 8684152
-124.90539 -68.399223 -72.97953 8946555
-112.93378 -68.508209 -89.40432 8090987
-112.43571 -68.319145 -89.98275 8945784
-111.76707 -68.091469 -90.746025 9537665
-111.0735 -67.997101 -91.465637 8155756
-110.33612 -67.949936 -92.203674 9471613
-109.54678 -68.090294 -92.896111 9142904
-108.86729 -68.013542 -93.58857 9932417
-108.24284 -67.829773 -94.281654 7827557
-169.86082 -66.861084 -10.690899 10261643
-169.7942 -67.299538 -11.44006 9340541
-157.24158 -67.458229 -27.64798 9142648
-156.91766 -67.377563 -28.372871 7892581
-156.50897 -67.277122 -29.275589 7563871
-156.01328 -67.157211 -30.354084 8550763
-155.17645 -67.09185 -30.971989 7169371
-154.34 -67.027336 -31.582748 8419439
-153.92043 -66.929192 -32.466133 8486259
-153.49666 -66.831482 -33.3456 8485745
-153.06915 -66.734192 -34.221581 8485229
-152.63757 -66.637451 -35.093594 8682351
-151.31705 -66.591843 -35.56443 9076854
-150.97018 -66.515411 -36.253139 9734788
-128.6198 -66.725456 -66.471809 10261132
-128.24284 -66.88591 -67.140434 8879990
-127.78526 -67.078957 -67.953468 9208699
-127.3764 -67.144218 -68.772545 7564393
-127.02032 -67.102394 -69.570923 7038307
-126.6076 -67.005493 -70.538208 8486257
-126.17027 -67.21566 -71.293159 7038814
-111.2839 -67.257912 -91.637711 8089963
-110.59715 -67.026649 -92.420357 11708316
-109.80624 -67.167511 -93.114624 8156012
-109.06732 -67.126678 -93.850349 8156267
-108.32661 -67.087685 -94.582863 7563619
-107.64944 -66.947655 -95.303986 9077626
-106.98132 -66.744446 -96.048973 9012089
-170.16238 -65.788902 -9.9551735 9142907
-170.2146 -65.907433 -10.713352 8616307
-150.79568 -66.477318 -36.596504 8419440
-150.44481 -66.401413 -37.281197 8419440
-149.9142 -66.28804 -38.304157 8156786
-149.47205 -66.195778 -39.153667 10984593
-149.05618 -66.117332 -40.007198 9011063
-147.73305 -66.067078 -40.422161 8089963
-147.31746 -65.991142 -41.265453 7893868
-146.89734 -65.915588 -42.105137 8288622
-146.38788 -65.825081 -43.108311 9209980
-145.95885 -65.749962 -43.940681 14078918
-145.52553 -65.675102 -44.769314 10525071
-144.48007 -65.614334 -45.34264 8749433
-143.75003 -65.540039 -45.94249 11182487
-129.87735 -65.589432 -64.760063 9735555
-129.50089 -65.745201 -65.431595 10590864
-129.01025 -65.979469 -66.27977 9735299
-128.56125 -65.995163 -67.227516 8945272
-128.11107 -66.013802 -68.175194 8682100
-127.66367 -66.080772 -69.075378 8156014
-127.22844 -66.301353 -69.816772 8223088
-126.93714 -66.439537 -70.321259 8486259
-110.50694 -66.458191 -92.796776 8089963
-109.97758 -66.334175 -93.372467 7695978
-109.33228 -66.065536 -94.133942 7892841
-108.63512 -65.983894 -94.850388 9142648
-107.89285 -65.94883 -95.583885 8945783
-107.19762 -66.04155 -96.202942 9077882
-106.56264 -66.03994 -96.812508 9801605
-105.94527 -65.960831 -97.444992 8617591
-170.46919 -64.937721 -9.904789 8616307
-170.42902 -65.258614 -10.520695 9142907
-143.45511 -65.48159 -46.421352 10261385
-143.15878 -65.423454 -46.898701 11577500
-142.66225 -65.326759 -47.690948 7828330
-142.06194 -65.21125 -48.63662 7170658
-141.55809 -65.115379 -49.420383 7695714
-141.05066 -65.019974 -50.199909 8484717
-140.43741 -64.905983 -51.130131 6511954
-139.9229 -64.811462 -51.901073 7038049
-139.40494 -64.717339 -52.667686 7893356
-138.77922 -64.604889 -53.582481 8288627
-138.35959 -64.530251 -54.189396 7038307
-131.79256 -64.567879 -62.182762 8814715
-131.2574 -64.633957 -63.094498 9472639
-130.80093 -64.704193 -63.848156 10262667
-130.27037 -64.910484 -64.612862 9735811
-129.82115 -64.968033 -65.458107 10459279
-129.31152 -65.05378 -66.433739 9537921
-128.86156 -65.069321 -67.383698 8682100
-128.41817 -65.17868 -68.238602 7958377
-108.71541 -65.241852 -95.150085 10260872
-108.27119 -65.035461 -95.685211 11642266
-107.5945 -65.086029 -96.312881 9867398
-106.85554 -65.161652 -96.983261 9604226
-106.10979 -65.133636 -97.712578 8749174
-105.40736 -65.063667 -98.421883 8880762
-104.72691 -64.867867 -99.174858 8486261
-104.21866 -64.706779 -99.744865 8091248
-170.75964 -63.906109 -9.1991768 9142649
-170.82242 -64.015495 -10.014004 8747893
-138.04346 -64.474495 -54.642551 7038307
-136.3685 -63.792286 -57.240688 7038307
-135.74756 -63.599655 -57.56076 9735558
-134.67957 -63.725967 -58.263939 7038307
-134.33743 -63.73045 -59.078976 7038307
-133.80812 -63.841022 -59.92746 8222579
-133.28786 -63.919437 -60.766682 9735814
-132.7285 -64.007561 -61.50172 9538437
-132.28389 -63.945351 -62.412304 10722197
-131.64435 -64.070045 -63.278797 9407361
-131.16164 -64.058235 -64.217918 10460046
-130.66289 -64.130264 -65.050529 9867653
-130.05305 -64.364929 -65.826553 10261644
-129.53697 -64.520935 -66.548752 8287342
-129.13 -64.517899 -67.325615 9537409
-107.67926 -64.452934 -96.554619 9341054
-107.10856 -64.245232 -97.211281 11248795
-106.41141 -64.034592 -97.98838 8486003
-105.66327 -64.00985 -98.718338 8288882
-104.91489 -63.987946 -99.447006 8090987
-104.15858 -63.964245 -100.16714 7235419
-103.60722 -63.921112 -100.6014 7367005
-171.12645 -62.87059 -9.0863686 9405819
-171.12782 -63.090199 -9.7365074 8616307
-135.08144 -63.451145 -58.243061 7038307
-134.69803 -63.469368 -59.235767 7762029
-134.35417 -63.4757 -60.052822 9341057
-106.3626 -63.293888 -98.416084 9341054
-105.85258 -63.130062 -98.989113 7367263
-105.16237 -63.073399 -99.679886 7103833
-104.40576 -63.050915 -100.40315 7038040
-103.56753 -63.122974 -100.98604 8353641
-102.901 -62.734253 -101.61182 9208435
-171.39966 -61.881874 -8.3710747 8550769
-171.45419 -61.995487 -9.1334953 9011065
-105.18556 -62.521626 -99.94133 5920074
-104.58755 -62.240997 -100.64574 8814192
-103.84042 -62.121761 -101.25002 7169626
-103.04971 -62.002483 -101.8386 7761764
-102.53815 -61.707779 -102.31325 8090473
-171.93761 -60.622688 -7.5661731 8616563
-171.84238 -60.922241 -8.4125175 8287854
-171.66681 -61.348595 -8.9375267 8617075
-104.15926 -61.358463 -101.37629 8089963
-103.50695 -61.032135 -101.96098 9734529
-102.55718 -61.106747 -102.5658 8090728
-101.84947 -60.87302 -103.14429 6511954
-172.78381 -59.628365 -6.7672763 8880247
-172.42061 -59.993031 -7.5174136 8616563
-103.39624 -60.35902 -102.34228 9734529
-102.82834 -60.175243 -102.82632 7695715
-102.02126 -60.06641 -103.44067 7367007
-101.30823 -59.89748 -104.04471 7959144
-100.62386 -59.632759 -104.76028 6511962
-175.32414 -59.17606 -3.8246191 9142651
-173.92291 -59.197132 -5.058414 9275261
-173.59341 -59.334244 -5.8879809 8814710
-173.25276 -59.46619 -6.5051684 9735812
-102.21686 -59.48605 -104.13474 9735043
-101.67931 -59.464508 -104.58896 8616821
-100.87183 -59.433376 -105.26751 7564392
-100.31449 -59.247288 -106.12218 7893356
-99.708733 -59.126312 -106.75906 6182990
-99.099716 -58.961761 -107.47994 7038039
-98.266479 -58.92712 -108.13154 6774612
-97.756126 -58.723221 -108.61481 7563618
-99.914803 -58.320511 -107.14952 8484973
-99.285347 -58.096199 -107.74449 7827043
-98.494354 -58.016811 -108.38029 7695203
-97.701538 -57.938816 -109.01301 6905688
-97.065781 -57.717621 -109.60001 7563618
-98.757195 -57.335072 -108.66701 7168861
-97.983925 -57.132652 -109.391 6839895
-97.283089 -56.990948 -110.04483 9076858
-96.693329 -56.821163 -110.59656 10720910
-96.071198 -56.886574 -110.95803 10062979
-96.976669 -56.348858 -111.18554 12694701
-96.106262 -56.372002 -111.61325 10787472
-95.477097 -56.125362 -112.4332 7104350
-94.724823 -55.951851 -113.19122 5657419
-94.366402 -55.748333 -113.86839 6315092
-93.665672 -55.63448 -114.41566 8681843
-93.016754 -55.650887 -116.44128 8616307
-92.214584 -55.505775 -116.58486 7300958
-91.677414 -55.524174 -118.50867 9208435
-90.782097 -55.412952 -118.82137 9011062
-90.281181 -55.296989 -120.24299 6971994
-89.557762 -55.20771 -120.48277 6314577
-89.218323 -55.112019 -121.84436 6117199
-88.487915 -55.022308 -122.07487 6248784
-87.757568 -54.932831 -122.30237 5722700
-87.393547 -54.834549 -123.65977 6576980
-86.656387 -54.744675 -123.8779 6840666
-86.274773 -54.644508 -125.23698 6117710
-85.530945 -54.554287 -125.4457 6644055
-85.506821 -54.497372 -126.70583 8092019
-84.756363 -54.406796 -126.90625 7169888
-84.342636 -54.302845 -128.2718 10064265
-83.585564 -54.211945 -128.46263 8353391
-83.153976 -54.105972 -129.82953 7169626
-82.390594 -54.014816 -130.01048 7761506
-82.133621 -53.929684 -131.33496 6248782
-81.363785 -53.8382 -131.50737 7037274
-80.898117 -53.728348 -132.87758 9275005
-80.122093 -53.636639 -133.03995 9735812
-79.638351 -53.524761 -134.41107 7038298
-79.051773 -53.455769 -134.52565 7038298
-78.551651 -53.342045 -135.89874 10525584
-77.763504 -53.249828 -136.04205 8814963
-77.245285 -53.134048 -137.41571 11182740
-76.715431 -53.016708 -138.79704 9866371
-75.915558 -52.92432 -138.92389 8682099
-75.576233 -52.833275 -140.28928 8353392
-74.778725 -52.746349 -140.42238 8616822
-74.226341 -52.634064 -141.82999 7038049
-73.623703 -52.568672 -141.92247 7564651
-73.256927 -52.476376 -143.30399 7564651
-72.447327 -52.389057 -143.41803 8419959
-72.064957 -52.294891 -144.80467 10590349
-71.249329 -52.207314 -144.90939 10656398
-70.645859 -52.089394 -146.32507 11248023
-69.615906 -51.925831 -147.79266 7432808
-68.984123 -51.804497 -149.22119 9734788
-68.358818 -51.738216 -149.2796 8287342
-67.941971 -51.654011 -150.74236 10853012
-67.528885 -51.614983 -150.79254 9010808
-67.116089 -51.575951 -150.84167 8090216
-66.711212 -51.511971 -152.37604 9734270
-65.878571 -51.433502 -152.46503 10523529
-65.456329 -51.367718 -154.0083 10854036
-64.826691 -51.308437 -154.06749 9406590
-64.388748 -51.241062 -155.621 9734788
-63.753891 -51.181465 -155.67291 9077114
-63.086758 -51.0924 -157.25186 8879991
-62.446987 -51.032536 -157.29593 9340286
-61.760082 -50.941608 -158.88089 10590347
-61.115467 -50.881371 -158.9166 9340539
-60.625443 -50.808697 -160.49805 8617592
-59.975742 -50.748146 -160.52618 9735043
-59.46912 -50.673656 -162.11816 9735043
-59.032566 -50.633144 -162.13206 9735043
-58.596355 -50.592533 -162.14513 8617075
-58.291183 -50.536701 -163.74133 9340289
-57.631504 -50.475475 -163.75403 8419702
-57.091099 -50.397541 -165.36746 9142651
-56.426556 -50.336037 -165.37233 9143675
-55.869011 -50.256363 -166.99657 10261899
-55.422592 -50.215107 -166.99481 9143675
-168.67694 -68.543991 -13.684803 10260100
-168.55196 -68.52121 -14.493534 9602684
-124.10092 -68.830231 -74.324562 7564651
-123.70111 -68.807022 -74.897186 7827820
-123.20119 -68.779739 -75.612129 9800582
-122.701 -68.754723 -76.326065 8682873
-122.10031 -68.727402 -77.181572 7432806
-121.44184 -68.889183 -77.999229 6511443
-120.8405 -68.86792 -78.851982 9077626
-120.23863 -68.849716 -79.703575 8748146
-119.63614 -68.834526 -80.554131 9011061
-119.03298 -68.822395 -81.403725 9866368
-118.52984 -68.814545 -82.111046 10261383
-118.02613 -68.808952 -82.817703 11248794
-117.42094 -68.804924 -83.665047 11182227
-116.81493 -68.803932 -84.511658 9406077
-116.14162 -68.945587 -85.362747 7564391
-115.54558 -68.996986 -86.162498 8616563
-114.93703 -69.005127 -87.006966 10524816
-114.36066 -68.893517 -87.814095 11511452
-113.79941 -68.704231 -88.466553 14800843
-169.81187 -67.487404 -12.126743 7564386
-169.5843 -67.9674 -12.881596 8419181
-169.32379 -68.323914 -13.941006 8419438
-168.33128 -68.461044 -15.293888 8089963
-166.9317 -68.408745 -15.983974 9471615
-166.63074 -68.326614 -16.970821 9537409
-166.32431 -68.244804 -17.954449 8288110
-164.9399 -68.194931 -18.615566 9341310
-164.75334 -68.14637 -19.198933 9537921
-164.43835 -68.065742 -20.16885 8221549
-164.11871 -67.985451 -21.135899 9142651
-162.74837 -67.938278 -21.76305 9734531
-162.48866 -67.874763 -22.527431 10129286
-162.15942 -67.795692 -23.480007 9866113
-161.8929 -67.732643 -24.24012 10853012
-160.53653 -67.688187 -24.83429 8222579
-160.13022 -67.59481 -25.960197 8089963
-159.78661 -67.517258 -26.895187 9537409
-125.44536 -67.631134 -72.486427 8092016
-124.9593 -67.928993 -73.270065 8946811
-124.48955 -68.072372 -74.150009 7695980
-123.93505 -68.062363 -75.037956 9011835
-123.33385 -68.030251 -75.897331 9932168
-122.83255 -68.00573 -76.612434 8090994
-122.331 -67.983459 -77.326553 8156530
-121.72867 -67.959427 -78.182373 8156524
-121.12584 -67.938416 -79.037033 8287854
-120.53345 -67.967499 -79.845665 9011575
-119.86203 -68.091095 -80.70533 9405819
-119.25769 -68.079102 -81.55645 10392456
-118.70419 -68.033447 -82.357826 10985364
-118.19736 -68.102539 -83.021988 10985366
-117.64257 -68.061798 -83.821976 11445658
-117.03542 -68.060822 -84.670181 9208699
-116.42739 -68.062881 -85.517723 8485235
-115.81843 -68.067924 -86.364655 7366496
-115.20843 -68.075966 -87.211113 8551026
-114.56773 -68.069496 -88.034454 12037540
-113.77546 -68.08773 -88.803246 10985364
-113.21021 -68.075241 -89.35675 8090987
-112.6906 -67.827629 -89.985863 8748661
-112.16332 -67.694695 -90.56411 10261643
-170.04825 -66.850891 -12.143925 8484462
-170.05357 -67.119865 -12.968395 9339769
-159.04065 -67.478409 -27.364426 9537409
-158.19373 -67.411392 -28.007877 9537409
-157.70087 -67.289848 -29.100266 8616558
-157.28574 -67.189072 -30.006611 9208435
-156.86624 -67.08873 -30.908928 8550763
-156.02007 -67.023323 -31.527916 8617074
-155.17422 -66.95874 -32.139626 7762283
-154.7489 -66.860161 -33.026985 8815479
-154.31924 -66.762115 -33.910294 7959917
-153.79874 -66.645004 -34.965466 8484716
-153.36078 -66.547859 -35.840801 9274229
-152.20235 -66.541107 -35.962086 9274229
-126.14552 -66.945045 -71.579689 7302244
-125.69853 -67.068047 -72.430473 7039331
-125.26699 -66.966026 -73.44239 8749945
-124.84186 -66.956367 -74.358665 9012090
-124.28558 -66.946434 -75.249023 9669762
-123.69317 -66.962448 -76.065895 9077884
-123.12192 -67.076347 -76.791862 7564651
-122.61899 -67.054329 -77.507584 8288115
-122.01519 -67.030571 -78.365341 7695206
-121.41087 -67.009827 -79.221931 7958633
-120.75294 -67.070831 -80.102089 8682611
-120.14413 -67.162811 -80.894165 8616817
-119.53831 -67.150902 -81.747231 10260615
-118.93182 -67.142044 -82.599411 10985623
-118.42586 -67.136841 -83.308998 11117209
-117.91933 -67.133858 -84.017967 10130569
-117.31071 -67.132912 -84.868118 8485235
-116.70131 -67.134949 -85.717651 7630186
-116.0909 -67.139931 -86.566597 7827561
-115.47953 -67.147896 -87.415062 7761509
-114.83917 -67.142578 -88.241684 9208699
-114.15923 -67.143906 -88.912003 10130312
-113.59239 -66.997757 -89.534584 8353904
-112.86917 -66.990784 -90.238449 8287856
-112.14658 -66.986481 -90.940369 10393229
-111.38904 -66.888596 -91.723732 9603200
-170.27856 -65.947426 -11.33559 8616307
-170.36343 -66.002274 -12.166637 8353389
-151.93936 -66.483459 -36.481453 7037274
-151.67487 -66.426064 -36.99926 7761766
-151.23099 -66.330696 -37.859341 7762027
-150.72461 -66.230438 -38.894485 10787731
-150.31137 -66.152985 -39.756702 10524044
-149.97762 -66.091209 -40.443916 8089963
-148.55618 -66.025528 -41.028286 9405564
-148.13493 -65.949226 -41.875492 7565675
-147.70923 -65.873222 -42.719048 8288622
-147.19295 -65.782288 -43.72691 8880503
-146.75833 -65.706802 -44.563065 9406851
-146.31833 -65.631165 -45.395172 8354677
-145.36507 -65.550522 -46.065151 7565675
-127.62825 -65.672455 -69.503471 9340030
-127.24828 -65.839142 -70.173096 9275515
-126.82895 -66.082535 -70.860809 9735552
-126.44985 -66.107376 -71.651047 11051411
-125.99377 -66.139771 -72.599663 8552566
-125.59163 -66.067314 -73.523041 7105119
-125.07647 -66.213043 -74.497688 8748915
-123.59738 -66.533234 -76.468987 8682867
-123.19465 -66.514664 -77.042824 7564651
-122.691 -66.493088 -77.759422 8616307
-122.18696 -66.473701 -78.475021 7695461
-121.5817 -66.453133 -79.332787 8090219
-120.97596 -66.435463 -80.189461 8222061
-114.44402 -66.355209 -89.037865 10327180
-113.81799 -66.155014 -89.744629 8419444
-113.13569 -66.066833 -90.450127 8222066
-112.33562 -66.091599 -91.212387 10393229
-111.59917 -66.150375 -91.895592 9406078
-110.90182 -66.060066 -92.616814 8221806
-110.22841 -65.842834 -93.379356 8419700
-109.72592 -65.665649 -93.956001 7038307
-170.63309 -65.012535 -11.418728 8484977
-170.67862 -65.153572 -12.189266 8484973
-144.49236 -65.481712 -46.559673 8420726
-143.99394 -65.384117 -47.359898 11379865
-143.39136 -65.267479 -48.31498 8486003
-142.88556 -65.170738 -49.10664 7499366
-142.37608 -65.074379 -49.893948 9406334
-141.7605 -64.959335 -50.833488 8616303
-141.24396 -64.863907 -51.612202 6511954
-140.72389 -64.768883 -52.386475 6511956
-140.09563 -64.655342 -53.310459 10064780
-139.56868 -64.561218 -54.076118 10459537
-128.45473 -64.720818 -68.555428 8616307
-128.01772 -64.923958 -69.315727 9866630
-127.56398 -64.948166 -70.266335 9473151
-127.10896 -64.975281 -71.21711 9867138
-126.72878 -64.999977 -72.009613 10919825
-126.30743 -65.247147 -72.698441 11117717
-125.92448 -65.420654 -73.36866 8090984
-113.29549 -65.512878 -90.577095 8485237
-112.59221 -65.19545 -91.419525 9669507
-111.91406 -65.044052 -92.153206 7629923
-111.17054 -64.998619 -92.896294 8024940
-110.42725 -64.956131 -93.63768 7630186
-109.69016 -65.023529 -94.317139 8748149
-108.97739 -64.974869 -95.032135 8879477
-170.97902 -63.77578 -10.555111 8879479
-170.97433 -64.03212 -11.264294 9274492
-139.25093 -64.504921 -54.533489 9012606
-138.93196 -64.448814 -54.989342 9604230
