# .PCD v0.7 - Point Cloud Data file format
VERSION 0.7
FIELDS x y z rgb
SIZE 4 4 4 4
TYPE F F F U
COUNT 1 1 1 1
WIDTH 1195
HEIGHT 1
VIEWPOINT 0 0 0 1 0 0 0
POINTS 1195
DATA ascii
-127.38174 -75.184784 47.671196 9997951
-127.48045 -75.130577 46.962486 8945779
-127.96426 -75.031845 46.023773 8881021
-128.36545 -74.950569 45.03595 9275778
-128.79076 -74.886902 44.298653 11577761
-129.29041 -74.808311 43.359085 10393230
-129.48801 -74.74575 42.387024 9734787
-130.03468 -74.668518 41.527847 10327436
-130.57513 -74.5914 40.66288 9143418
-130.75322 -74.529686 39.684273 7958888
-131.34457 -74.453629 38.897739 6248015
-131.80826 -74.375786 37.932587 6576980
-132.15533 -74.298645 36.914322 6708566
-132.02121 -74.247673 36.27813 7037274
-118.7638 -73.292969 64.782394 8814713
-119.50336 -73.578796 64.180931 8617334
-119.98324 -73.827034 63.309021 8025199
-120.3266 -73.847366 62.291149 7433064
-120.71407 -73.96888 61.317272 7235942
-121.26107 -74.071678 60.642731 8617334
-132.72107 -74.153526 36.126419 6445650
-133.0031 -73.984283 35.103867 8288366
-133.50435 -73.871971 34.274628 8485749
-133.88805 -73.76651 33.274876 8419956
-134.40269 -73.666817 32.441895 9472128
-134.65735 -73.571953 31.475334 8879990
-135.26869 -73.476059 30.760101 7827562
-135.52185 -73.367653 29.618162 10459540
-136.11855 -73.304298 29.233288 9867404
-118.95791 -72.572647 64.978806 8683127
-119.58536 -72.829056 64.483315 8814713
-136.145 -73.263191 28.724768 9867404
-136.33972 -73.186562 27.875055 10261389
-136.987 -73.098091 27.183073 10853012
-137.21857 -73.002365 26.113813 7959145
-137.62852 -72.919685 25.333788 8222317
-138.03978 -72.816681 24.293982 8354159
-138.63498 -72.726051 23.538706 8090732
-138.84026 -72.623993 22.370832 9405819
-139.43172 -72.548279 21.777246 9866368
-139.68246 -72.483742 20.697149 7826534
-140.26099 -72.384918 19.834402 10062978
-140.22156 -72.317406 19.1402 7563619
-118.33486 -71.548897 65.807068 9275265
-119.05245 -71.782524 65.266541 8156786
-140.78854 -72.254745 18.872026 10262155
-140.91591 -72.144081 17.853418 10854292
-141.65504 -72.037178 17.253649 11446686
-141.88589 -71.913689 16.172548 9998728
-142.27876 -71.795647 15.24599 5919050
-142.75198 -71.697456 14.485087 6971994
-143.12082 -71.593376 13.385642 7169373
-143.73763 -71.510262 12.605376 7564391
-143.95067 -71.430496 11.692412 8946042
-144.44983 -71.351723 10.916198 9209470
-117.94779 -70.369446 66.559311 11380380
-118.67553 -70.60881 66.010063 11248795
-119.21696 -70.970695 65.521011 9143675
-144.38936 -71.297966 10.212188 9735812
-144.91664 -71.245621 9.7814283 10064522
-145.11145 -71.16571 8.8588057 13682107
-145.90054 -71.086433 8.2013578 7564136
-146.22064 -70.993141 7.1591024 7498337
-146.53613 -70.901726 6.1138411 7761253
-147.02197 -70.823257 5.3060141 7959400
-147.19604 -70.74498 4.3660078 8288365
-147.98364 -70.665512 3.6756198 7959400
-148.28185 -70.573463 2.6103046 9011830
-148.5714 -70.481483 1.542033 7564643
-149.35623 -70.400475 0.83026767 8617331
-149.24614 -70.348648 0.11065175 6510930
-118.00042 -69.620041 66.854843 11051671
-118.70672 -69.808189 66.341095 11577759
-149.6385 -70.307785 -0.24968837 6905944
-149.97064 -70.24099 -0.97281766 8551537
-150.43326 -70.160179 -1.8218625 8090218
-150.55133 -70.073357 -2.7902997 7037274
-151.25281 -69.9561 -3.7147 7761253
-151.9023 -69.816925 -4.8297014 8485232
-152.00621 -69.726418 -5.6275873 8222060
-152.39938 -69.620453 -6.4999056 8156267
-153.1384 -69.516991 -7.2709284 7761509
-153.35405 -69.40834 -8.2078371 7169630
-117.55127 -68.645927 67.549828 9209727
-118.20484 -68.721832 67.122696 8814970
-118.75929 -69.05777 66.637184 9735555
-153.56271 -69.299652 -9.1461611 7104096
-154.242 -69.174911 -10.119187 8749433
-154.97421 -69.066589 -10.917756 9472383
-154.74496 -68.989914 -11.651006 8485488
-155.41379 -68.861153 -12.643151 8682098
-156.02101 -68.71228 -13.828351 10062979
-156.2628 -68.618187 -14.609113 9406076
-156.4987 -68.524094 -15.391992 9077882
-157.22781 -68.422417 -16.420343 9012089
-117.05507 -67.46389 68.297005 7038307
-117.67757 -67.634781 67.902519 7169893
-118.34527 -67.808922 67.436119 9209727
-157.98602 -68.332001 -17.46232 9932678
-157.7529 -68.269608 -18.20598 9274749
-158.56494 -68.193756 -19.074419 9735300
-158.79051 -68.10849 -20.073072 8618105
-159.07095 -68.038704 -20.886927 8618105
-159.81871 -67.945259 -21.96501 8946297
-160.09705 -67.874596 -22.789762 8617331
-160.36902 -67.803741 -23.617205 8091246
-161.18079 -67.724007 -24.530745 9735046
-160.90842 -67.661018 -25.283136 9735046
-161.7175 -67.580284 -26.209158 10064010
-162.45897 -67.482887 -27.334517 10260875
-162.24304 -67.435432 -27.901365 10260875
-117.1512 -66.608704 68.603149 8090994
-117.92438 -66.691757 68.168877 7367272
-163.20084 -67.38443 -28.471106 8089963
-162.94632 -67.323219 -29.033663 8616307
-116.70039 -65.671906 69.220604 7564651
-117.3946 -65.669006 68.869621 10196367
-116.20976 -64.234741 70.065971 9735558
-116.76473 -64.705322 69.589096 7762029
-117.51557 -64.667358 69.223892 9538438
-116.38691 -63.535305 70.266396 9735558
-117.04028 -63.748783 69.846306 8288372
-115.8407 -62.471085 70.985176 9735558
-116.44863 -62.683884 70.588402 10196108
-117.10091 -62.785454 70.215332 8090987
-115.93166 -61.570114 71.312897 10064522
-116.57255 -61.800545 70.892136 10985106
-115.41795 -60.46307 72.162483 8353906
-116.12338 -60.707928 71.635147 9011831
-116.72504 -61.024044 71.137047 10590347
-114.51453 -59.255585 74.014519 7038307
-115.08788 -59.552586 73.157089 9800836
-115.77746 -59.82811 72.530891 9406076
-109.67502 -58.392448 84.896156 9800834
-110.13538 -58.738308 84.218376 8748660
-110.40918 -58.852005 83.241081 8748923
-111.00703 -58.854042 82.441071 9933195
-111.59906 -58.856079 81.636696 11577761
-111.91738 -58.858147 80.553787 10985107
-111.99518 -58.859886 79.469154 7039331
-112.5657 -58.861908 78.657806 11116951
-113.13048 -58.863926 77.842339 10064265
-113.68935 -58.86594 77.022781 10064265
-114.01024 -58.889874 75.965714 8353907
-114.43951 -58.949482 75.221596 6775132
-114.99169 -59.100296 74.322166 6906456
-115.47438 -59.166218 73.848412 7564643
-109.04465 -57.575272 85.552017 11445657
-109.85713 -57.613537 85.125504 9011832
-109.21796 -56.666088 85.839516 8353649
-110.00157 -56.656612 85.447304 7038298
-108.78596 -55.477444 86.548347 8090479
-109.46884 -55.746075 86.092308 7432806
-108.26308 -54.368084 87.270416 10458508
-108.9377 -54.624722 86.823463 9405823
-109.5601 -54.946999 86.375893 6511962
-108.37607 -53.622597 87.520851 10919056
-109.02713 -53.774296 87.129158 8748407
-107.9185 -52.446144 88.237579 9340539
-108.5952 -52.670082 87.803101 8617074
-109.16671 -53.076687 87.346466 9340539
-107.40535 -51.365814 88.942787 10590351
-108.04501 -51.565979 88.536789 9209210
-108.69067 -51.802864 88.112656 7564643
-107.44447 -50.539753 89.263802 11511194
-108.15501 -50.765507 88.81147 10327178
-107.0485 -49.354698 89.952873 10590351
-107.62251 -49.615921 89.55497 12169123
-108.28448 -49.951305 89.082001 9998215
-107.08473 -48.531193 90.274353 10195851
-107.79983 -48.692177 89.846474 13354427
-106.54442 -47.452156 90.992737 8090995
-107.24229 -47.665913 90.551865 9999499
-107.83643 -47.867077 90.16848 16776175
-106.70573 -46.569851 91.275764 8288373
-107.31184 -46.907066 90.830238 8880765
-106.26524 -45.408092 92.126534 9406595
-106.95374 -45.759937 91.52282 9275522
-104.87852 -44.166382 94.323799 7563619
-105.43914 -44.212917 93.913506 8813944
-105.92466 -44.506863 93.133766 7827566
-106.4359 -44.834785 92.529488 9735047
-100.85211 -43.587032 104.06051 7761765
-101.53429 -43.809086 103.51157 5920074
-101.37119 -43.811337 101.86391 9735812
-101.98182 -43.81311 101.25127 9735043
-102.83115 -43.815598 100.38819 9537664
-103.31332 -43.81702 99.891869 9537664
-103.11532 -43.81918 98.270065 8089963
-103.70422 -43.820938 97.647102 8813683
-104.52313 -43.823406 96.76963 10721164
-104.74745 -43.868755 95.81411 9010806
-105.07191 -43.958771 94.955101 9010806
-105.77744 -44.01701 94.44249 9537408
-100.31988 -42.589462 104.69998 10064011
-101.04008 -42.780308 104.3026 8288367
-99.830582 -41.420036 105.38569 8814203
-100.55043 -41.580685 105.00055 9340546
-101.11743 -41.997097 104.58136 11379356
-99.93544 -40.504429 105.70537 9340545
-100.61649 -40.581821 105.37092 8551031
-99.413223 -39.500706 106.34051 8090987
-99.999008 -39.689129 106.00399 8617332
-99.534546 -38.584457 106.65398 9077882
-100.26352 -38.861984 106.21803 9143675
-99.038422 -37.448914 107.33046 10196107
-99.818367 -37.618549 106.91508 9209468
-98.543556 -36.386078 107.97721 9209467
-99.229111 -36.544876 107.60819 10261900
-99.827209 -36.67186 107.29093 9603969
-98.612701 -35.605267 108.25962 9341053
-99.226501 -35.726212 107.93777 11576991
-98.095634 -34.206734 109.051 11906725
-98.736824 -34.613415 108.60226 9275004
-99.244667 -35.011295 108.2165 9142907
-98.261116 -33.42448 109.29102 11379864
-99.005989 -33.649006 108.86926 10590606
-97.742188 -32.512646 109.88796 8945781
-98.525627 -32.55138 109.52351 10655625
-97.783852 -31.636061 110.22101 9668987
-98.483253 -31.729111 109.87224 10655625
-97.440506 -30.458086 110.96864 9011059
-97.99791 -30.728203 110.52624 9471609
-98.581886 -31.018511 110.11329 10655625
-96.529457 -29.217548 112.63294 8090986
-96.978577 -29.462992 112.06149 7760994
-97.600395 -29.812342 111.41864 8747888
-91.90551 -28.41441 122.96083 9208958
-92.617767 -28.658371 122.54713 8617080
-93.020966 -28.771837 120.3488 9471873
-93.887543 -28.774069 119.67362 8814200
-94.746727 -28.780218 116.37998 8616307
-95.445175 -28.782057 115.8073 8155756
-96.001678 -28.783527 115.34649 9209467
-96.08577 -28.946455 113.76696 7367264
-96.872559 -28.979265 113.30817 8090986
-91.491463 -27.249058 123.61042 9208443
-92.105148 -27.604998 123.19576 9603458
-91.528282 -26.570124 123.86547 9208443
-92.216888 -26.598402 123.54853 9603458
-90.980141 -25.526474 124.52593 9669252
-91.681526 -25.693274 124.14796 10064009
-90.684006 -24.119839 125.21962 7038307
-91.223442 -24.512007 124.82343 7235685
-91.900597 -24.910229 124.36367 10985367
-90.633926 -23.558771 125.4661 7038307
-91.325394 -23.582991 125.14951 7038307
-90.054535 -22.2325 126.25346 9210491
-90.734589 -22.628483 125.79327 7959662
-91.275764 -23.0208 125.39626 7038307
-90.270485 -21.444111 126.4727 11051928
-90.977036 -21.606781 126.09406 8618101
-89.726082 -20.537601 127.07671 11315100
-90.420609 -20.558046 126.76041 9868165
-89.831436 -19.518299 127.43894 9932421
-90.454758 -19.870169 127.02139 11182998
-89.353523 -18.384687 128.10599 10392201
-90.062546 -18.532341 127.73241 10919059
-89.436172 -17.492029 128.42783 9866370
-89.988052 -17.721638 128.09105 10788244
-88.919235 -16.435316 129.0813 9406335
-89.564392 -16.702477 128.68803 9472126
-88.542839 -15.14755 129.97623 9274748
-89.089554 -15.541782 129.43637 9274748
-89.695572 -15.820783 128.98387 9735555
-88.034355 -14.430625 130.80052 9735301
-88.738213 -14.542418 130.39587 10261131
-82.935806 -13.43775 141.73538 9537406
-83.662201 -13.446507 141.41042 8551281
-85.958069 -13.73925 135.43497 10262155
-86.771523 -13.741171 134.91493 10854036
-87.6689 -13.980324 132.07831 10065036
-88.360794 -13.990768 131.73965 9736329
-82.650566 -12.040618 142.41978 11379356
-83.122116 -12.444574 142.04974 10984853
-83.593002 -12.848653 141.67993 8090987
-82.579842 -11.440562 142.69083 8419695
-83.309036 -11.447997 142.36525 8880247
-82.109375 -10.033493 143.46118 10261643
-82.696678 -10.48469 143.02107 10525071
-83.238747 -10.846516 142.6366 8090987
-82.220352 -9.4312086 143.65277 9998215
-82.878716 -9.5038958 143.33235 9537664
-82.473785 -8.482625 143.91959 9274493
-82.40834 -7.4125824 144.37613 7827302
-123.0947 -75.447289 57.827892 8090986
-123.80504 -75.49308 57.43483 8222829
-124.16994 -75.687363 56.518314 6643540
-124.50063 -75.644562 55.586571 7103834
-124.81939 -75.598701 54.650749 7103834
-125.47387 -75.538712 53.860046 9406079
-125.78028 -75.493439 52.918671 11380637
-126.42364 -75.433739 52.117172 8221805
-126.71767 -75.388939 51.170422 7563618
-127.00521 -75.344505 50.222332 7563618
-127.56813 -75.276413 49.311047 9076851
-127.42432 -75.244194 48.621944 9208435
-122.81662 -74.522232 59.145523 6510930
-123.30895 -74.921814 58.341846 7433313
-123.95848 -75.009842 57.868176 9209467
-128.01056 -75.190819 48.492386 9800572
-128.38876 -75.101738 47.577637 12497831
-128.77364 -75.002975 46.454205 12301225
-129.24361 -74.934158 45.71122 9473157
-129.72656 -74.863197 44.899635 11445917
-129.96706 -74.789368 43.759693 8681843
-130.52473 -74.711487 42.90012 10590862
-131.04451 -74.644051 42.197567 9142907
-131.26224 -74.571121 41.049805 9669507
-131.74927 -74.490364 40.055283 7761254
-132.31088 -74.426132 39.460838 5919050
-132.50558 -74.354179 38.305649 6248271
-133.08856 -74.279617 37.53793 6379601
-120.65051 -73.606934 63.4925 9604483
-121.35502 -73.669823 62.868431 8683897
-121.49017 -73.851128 61.784073 9275777
-121.98417 -73.884209 60.93 11840675
-122.37983 -74.079231 60.027367 9800836
-123.2559 -74.131485 59.355991 6510930
-133.42728 -74.155373 36.663544 5919050
-133.85556 -73.994827 35.81147 6248015
-134.21873 -73.871849 34.802361 8025200
-134.74608 -73.771454 33.970345 8090993
-135.12704 -73.665405 32.960892 8616821
-135.64461 -73.564804 32.118912 9472384
-136.0128 -73.458771 31.101046 9012091
-136.52773 -73.361847 30.250799 8090737
-136.87744 -73.289955 29.568195 7893358
-120.25778 -72.554893 64.192413 9735812
-120.91835 -72.745605 63.705544 9275005
-121.50758 -72.916992 63.27063 8092019
-136.90396 -73.248657 29.056681 9734788
-137.32378 -73.179337 28.45492 10853012
-137.7534 -73.082527 27.507215 10853012
-138.17972 -72.985527 26.555182 8682867
-138.59366 -72.902275 25.770178 8617331
-139.00919 -72.805115 24.808867 8617331
-139.4171 -72.708122 23.843786 7169890
-139.82016 -72.624443 23.046743 10129283
-140.23067 -72.534309 22.07469 9405819
-140.69138 -72.471512 21.106264 9405306
-141.06586 -72.380714 20.294512 10062978
-141.02689 -72.312752 19.595854 10851980
-119.71265 -71.365578 65.045547 9538433
-120.28741 -71.736931 64.532059 9670019
-121.03847 -71.869278 64.015335 10262156
-141.79741 -72.239998 19.354536 10853521
-141.92873 -72.128342 18.328623 8222575
-142.47639 -72.030762 17.701639 7762028
-142.79659 -71.909042 16.693888 7235166
-143.10883 -71.78756 15.68328 6576979
-143.71846 -71.693855 14.909385 9340286
-144.10188 -71.592896 13.803596 8551282
-144.61374 -71.514137 13.032908 7696232
-144.83038 -71.43383 12.114703 8485237
-145.3358 -71.354607 11.334826 9208958
-119.90353 -70.581535 65.271767 8617331
-120.60664 -70.767143 64.761101 8551282
-145.2758 -71.300377 10.6263 9208958
-145.8092 -71.247803 10.194163 10261391
-146.00752 -71.167351 9.2662153 10787478
-146.80576 -71.087585 8.6066046 8353650
-146.99765 -71.006805 7.6703596 7432544
-147.47116 -70.914642 6.6864042 7958632
-147.9436 -70.822556 5.6957884 7761765
-148.12117 -70.743759 4.7502012 7959400
-148.91815 -70.66378 4.0574293 9209467
-149.08888 -70.584587 3.1034648 9011830
-149.54167 -70.491501 2.0922 7893607
-150.31024 -70.396896 1.1973102 9143417
-150.20039 -70.344734 0.47276187 6510930
-119.41502 -69.53849 66.026321 9406590
-120.07329 -69.744995 65.53389 10327692
-120.68281 -69.95932 65.06778 7366752
-150.59752 -70.30368 0.11111332 6905944
-150.9346 -70.236389 -0.61580014 7959144
-151.40373 -70.154999 -1.4691861 9143419
-151.54153 -70.075264 -2.4438908 8090218
-152.31667 -69.984558 -3.1906407 9143419
-152.38814 -69.877342 -4.1720018 8682867
-152.791 -69.771339 -5.0424089 7761253
-153.49048 -69.649254 -5.9911394 9800581
-154.13866 -69.507225 -7.1327791 7761509
-154.23308 -69.415382 -7.9443903 7695975
-118.87886 -68.453796 66.828171 10789011
-119.54154 -68.691505 66.319389 9275261
-120.20609 -68.932144 65.808205 10788243
-154.62265 -69.307411 -8.8358469 7367525
-155.31247 -69.182045 -9.8143015 9274492
-155.57062 -69.088921 -10.583974 9998984
-155.76556 -68.97641 -11.539426 8485488
-156.50227 -68.866104 -12.352586 10721422
-156.87457 -68.753334 -13.27007 9668736
-156.93492 -68.65831 -14.100221 10062979
-157.61877 -68.532379 -15.11913 7564643
-158.38611 -68.441582 -16.156168 10064777
-158.21594 -68.394592 -16.716589 8814710
-119.07061 -67.615784 67.077461 10723475
-119.7217 -67.784218 66.606033 9735812
-158.10136 -68.36319 -17.089655 9932678
-158.98015 -68.303459 -17.766005 8682355
-159.74602 -68.21151 -18.826563 8682867
-159.50305 -68.148514 -19.577353 8091761
-160.32503 -68.071205 -20.462831 9143678
-160.5481 -67.984756 -21.47542 9143422
-160.82858 -67.913948 -22.30147 8879992
-161.58388 -67.818878 -23.398829 9142906
-162.40836 -67.738686 -24.317869 10129286
-162.13422 -67.67524 -25.075804 9866113
-162.95615 -67.593941 -26.007475 9866113
-162.67331 -67.530434 -26.766657 9142651
-163.49277 -67.44809 -27.711077 9471359
-118.5013 -66.486542 67.919098 8157042
-119.19157 -66.761024 67.37735 10394000
-119.83553 -67.051834 66.856735 10787988
-164.2168 -67.338585 -28.852331 7300963
-163.9548 -67.275108 -29.417387 8089963
-118.63078 -65.647575 68.204857 9011836
-119.27487 -65.961868 67.675911 9142907
-118.15771 -64.694893 68.885078 11248026
-118.99365 -64.699188 68.399857 8682100
-117.76477 -63.326836 69.653862 6510930
-118.30745 -63.728207 69.208412 8089706
-117.72274 -62.673145 69.946411 7629668
-118.50237 -62.766582 69.512108 7958120
-117.30641 -61.474117 70.655266 9077624
-117.99585 -61.799221 70.170525 8222317
-116.65235 -60.310242 71.669899 8419695
-117.41588 -60.651402 71.014618 10064004
-118.12584 -60.994061 70.438728 8090987
-115.83586 -59.216156 73.491547 8419695
-116.51839 -59.36861 72.710526 8617073
-117.05612 -59.790455 71.915985 9011831
-110.98447 -58.480125 84.198097 8024941
-111.56176 -58.609837 83.740402 8222580
-111.97393 -58.854946 82.740891 11183004
-112.56817 -58.857002 81.92955 11972002
-113.15656 -58.859047 81.113976 8223089
-112.86179 -58.860485 79.879341 7894382
-113.53053 -58.862862 78.925117 8813942
-114.09723 -58.864887 78.102676 9011320
-114.65792 -58.866917 77.276215 8156267
-115.21258 -58.868942 76.445602 9011320
-115.44263 -58.873466 75.535728 8156267
-115.59344 -58.960762 74.513107 7038299
-116.44157 -59.076855 73.678528 8748403
-116.92566 -59.144325 73.198875 9340539
-110.46056 -57.285892 84.955742 8485488
-110.95062 -57.695679 84.538887 8814453
-111.66196 -57.690498 84.181458 8024941
-110.52795 -56.568954 85.21743 8682867
-111.20866 -56.744183 84.800995 9669762
-110.02166 -55.570282 85.885406 7564392
-110.66945 -55.623173 85.53614 9998727
-111.22512 -55.964634 85.114418 9932934
-110.03772 -54.621403 86.268814 7432806
-110.69331 -54.779194 85.872322 8551540
-109.6074 -53.509457 86.945137 8748662
-110.26312 -53.663811 86.550018 8617844
-110.83728 -54.077717 86.088997 8092011
-109.07005 -52.341518 87.698631 7564643
-109.82507 -52.570999 87.222328 8157293
-110.37945 -52.914356 86.800438 10262924
-109.19879 -51.489441 87.985146 8617081
-109.84782 -51.805866 87.526543 7959408
-108.71987 -50.314445 88.712074 12629677
-109.40221 -50.630424 88.236763 9801353
-110.13753 -51.071342 87.683197 10064268
-108.92248 -49.539822 88.929268 10458510
-109.65523 -49.798836 88.451988 10064268
-108.38213 -48.443073 89.654922 14736079
-109.03207 -48.795883 89.180901 10129801
-107.99515 -47.355846 90.299751 15460059
-108.57486 -47.614944 89.899948 13880771
-109.24335 -47.947895 89.424812 9998215
-108.03149 -46.531612 90.622498 10789269
-108.75361 -46.689838 90.192665 9208443
-107.55383 -45.482422 91.402046 10262670
-108.15594 -45.742149 90.928093 10525584
-108.79025 -45.863785 90.516045 12432037
-107.29649 -44.13504 93.27523 10064011
-107.13425 -44.499836 92.555 10655890
-107.74323 -44.783894 91.914909 10393999
-108.22371 -45.127502 91.373367 10262670
-101.4929 -43.11565 103.96671 5920074
-102.14249 -43.449638 103.4635 7433313
-102.57517 -43.761139 102.70155 8683124
-103.26326 -43.814102 101.78495 8945271
-103.75214 -43.815536 101.28658 8419696
-103.67314 -43.818085 99.517952 8813683
-104.26985 -43.819862 98.891777 9734270
-104.98103 -43.821995 98.135834 10260357
-105.45235 -43.823414 97.629143 11905692
-105.3346 -43.825871 95.885231 9010806
-105.90942 -43.827633 95.249092 9471356
-106.55363 -43.909042 94.445503 10064011
-106.74529 -44.092064 93.702187 9208960
-101.54236 -42.520622 104.18256 9735812
-102.32198 -42.585114 103.8092 8420208
-101.76509 -41.67038 104.42326 9866886
-101.2755 -40.522758 105.10117 10064011
-101.94673 -40.712334 104.72618 9603458
-100.73957 -39.624035 105.7004 7564651
-101.45335 -39.51189 105.42747 9340544
-102.025 -39.927128 105.00628 10853012
-100.75205 -38.675934 106.07509 9340797
-101.52505 -38.618698 105.75384 8617075
-100.30669 -37.430603 106.77302 10919313
-100.9846 -37.706097 106.36059 10064005
-100.48434 -36.512413 107.06222 11379607
-101.16389 -36.786545 106.64962 11379607
-99.940178 -35.605198 107.66851 11051415
-100.71491 -35.54076 107.34934 9801090
-99.429581 -34.308857 108.41588 8089963
-100.00616 -34.713043 107.997 9406078
-100.72372 -34.590652 107.72655 10261643
-99.499283 -33.524841 108.69935 9603457
-100.17674 -33.699814 108.3275 8221549
-98.978104 -32.122803 109.49395 9208435
-99.671013 -32.564777 109.00804 9011061
-99.192383 -31.563465 109.62289 10063488
-99.89595 -31.559185 109.31126 9603195
-98.686607 -30.442652 110.40659 9208435
-99.313477 -30.759005 109.92693 11905692
-98.243835 -29.358831 111.55424 7234651
-98.827362 -29.757227 110.91943 8682094
-99.365273 -30.033306 110.44894 9208435
-93.252892 -28.464869 122.34263 8156786
-93.965439 -28.597221 121.97348 8617080
-94.892197 -28.77667 118.87791 9932420
-95.748352 -28.778906 118.18957 8418928
-96.417465 -28.784636 114.99891 8617330
-97.107597 -28.786476 114.41627 7696228
-97.644623 -28.858644 113.56369 8814709
-97.974617 -29.026367 112.66129 9405816
-98.604584 -29.053871 112.28948 7760994
-92.738998 -27.364243 123.01071 10261902
-93.386757 -27.578709 122.63745 8090994
-93.992279 -27.978403 122.20896 8617080
-92.949066 -26.44289 123.28571 11643297
-93.468773 -26.71353 122.94687 10064523
-92.365791 -25.42547 123.95126 11248795
-92.919533 -25.696224 123.59725 10787732
-92.463913 -24.475599 124.2874 9406337
-93.082466 -24.831762 123.87051 10064010
-91.974205 -23.54389 124.87717 7498598
-92.61039 -23.566956 124.58559 8419697
-91.440559 -22.277891 125.62014 7038307
-92.052414 -22.673227 125.1905 7103837
-92.747711 -22.697649 124.87208 6511954
-91.48317 -21.454226 125.93038 8354159
-92.190613 -21.605984 125.55575 7893349
-91.15744 -20.392269 126.50028 8682867
-91.707779 -20.623993 126.16326 8617074
-91.085541 -19.583588 126.85685 10721678
-91.795288 -19.733551 126.48203 9209210
-90.694199 -18.243481 127.56841 10196106
-91.255478 -18.557615 127.19353 10129798
-91.838699 -18.904579 126.79562 8682867
-90.728539 -17.551216 127.83124 9011832
-91.429214 -17.569176 127.51344 9406332
-90.166046 -16.495485 128.50446 10261899
-90.880409 -16.654785 128.12387 10261899
-89.806839 -15.080953 129.47327 10129545
-90.397575 -15.504892 128.88565 10064264
-91.099915 -15.852607 128.34872 8682867
-89.431343 -14.333487 130.26407 10458510
-89.930359 -14.565531 129.84944 10392717
-90.496643 -14.72518 129.46565 10129545
-84.207535 -13.453237 141.16647 9011576
-84.935318 -13.462529 140.84064 9011576
-87.743599 -13.743479 134.2847 9933449
-88.389236 -13.745022 133.86087 9736329
-89.053146 -14.001549 131.39977 8946042
-89.745956 -14.012533 131.05888 9406078
-83.743286 -12.052484 141.93156 11379356
-84.396896 -12.459088 141.47987 9077370
-85.087997 -12.66713 141.09094 9932166
-83.990616 -11.388461 142.0874 9143419
-84.567757 -11.561566 141.76283 8353903
-83.388794 -10.045043 142.89044 10261387
-84.045303 -10.45298 142.43698 9274748
-84.701019 -10.861445 141.98357 8090987
-83.520477 -9.3416424 143.11327 8879479
-84.099953 -9.5146933 142.78767 10458510
-82.993423 -8.2268295 143.79184 9142907
-83.690254 -8.4344845 143.40056 9340286
-84.348854 -8.8444042 142.94528 10853012
-83.077621 -7.3767533 144.0943 8287342
-83.744186 -7.4897714 143.75418 8682100
-82.557495 -6.6013522 144.63422 6511954
-83.294159 -6.6061435 144.30634 8419185
-82.907402 -5.5027533 144.91835 8617590
-83.309586 -5.8590584 144.59801 8157554
-83.04332 -4.6306362 145.20663 9341313
-83.08342 -3.7411666 145.5443 8881019
-124.94335 -75.494049 56.869019 7038298
-125.51034 -75.592041 56.036316 7367006
-125.84687 -75.555344 55.099644 6775126
-126.50603 -75.494865 54.30212 10064265
-126.81435 -75.449226 53.352741 11380637
-127.11609 -75.403908 52.402016 13354683
-127.41132 -75.358948 51.449867 9669507
-128.0502 -75.299026 50.634628 8287598
-128.381 -75.255394 49.932655 8682355
-124.02609 -74.498642 58.554264 7433056
-124.64618 -74.801208 57.868858 7762278
-125.27248 -75.07074 57.199856 7301470
-128.73552 -75.20034 49.476555 9143675
-128.87663 -75.146248 48.81971 9143675
-129.27655 -75.050591 47.816975 11183001
-129.70651 -74.978088 47.07238 12367018
-130.22812 -74.897964 46.128952 9998728
-130.44228 -74.833939 45.146782 9406589
-131.01083 -74.755341 44.285885 6775382
-131.5732 -74.676819 43.418961 12235683
-131.76767 -74.613579 42.429905 10261643
-132.25964 -74.534103 41.465553 8089963
-132.66917 -74.469917 40.700455 7695461
-133.0412 -74.394432 39.678093 6116685
-133.57753 -74.316277 38.789009 5919050
-134.05458 -74.258797 38.227966 5919050
-121.96124 -73.443787 62.763103 9867657
-122.51294 -73.639099 62.256123 13089967
-122.78144 -73.840874 61.420307 11314073
-123.4739 -73.862595 60.562626 8879734
-123.92949 -73.938606 59.753063 6510930
-124.39503 -74.121826 58.800571 6643540
-134.1235 -74.222191 37.724239 5919050
-134.42552 -74.079979 36.867146 6116429
-134.8801 -73.932198 36.015396 6774874
-135.15707 -73.834717 35.04496 7827820
-135.7928 -73.738022 34.338242 8025193
-136.07227 -73.626816 33.190792 8617331
-136.68941 -73.544395 32.644112 9735812
-136.76529 -73.442703 31.446043 8025197
-137.59395 -73.345055 30.764877 8813945
-137.63351 -73.289345 30.07822 7893358
-121.99474 -72.618271 63.103607 10525329
-122.75593 -72.825455 62.548023 13550517
-137.66095 -73.247765 29.563541 8813945
-138.28436 -73.163857 28.913687 8682612
-138.52705 -73.066772 27.834677 9932166
-139.08064 -72.982536 27.133009 9011576
-139.37459 -72.885406 26.088663 9143675
-139.98889 -72.793633 25.331694 9143675
-140.20384 -72.703728 24.325594 7695973
-140.81142 -72.604614 23.470629 8879990
-141.03523 -72.519127 22.374891 9669247
-141.63277 -72.466843 21.653841 9471356
-141.86819 -72.359489 20.58399 9340027
-121.46956 -71.602608 63.86858 8288110
-122.31321 -71.695396 63.312637 9406592
-122.81078 -72.119682 62.823086 13550517
-142.61752 -72.234985 19.816034 11050385
-142.82631 -72.1306 18.910334 10787471
-143.29202 -72.007317 17.977907 7498598
-143.75519 -71.883652 17.039686 7367007
-143.95436 -71.78363 16.126532 7103323
-144.75964 -71.691895 15.334327 8617075
-144.97981 -71.597404 14.239768 9011833
-145.49808 -71.518227 13.46561 11313821
-145.71835 -71.437363 12.542109 8485237
-146.23019 -71.357552 11.758636 7038307
-121.07246 -70.647636 64.528763 10262156
-121.73302 -70.638435 64.129242 8156268
-122.25981 -70.981857 63.657288 10262156
-146.17065 -71.303017 11.045329 7038307
-146.71025 -71.250069 10.61193 8090737
-146.91208 -71.169037 9.6785574 7038307
-147.71967 -71.088829 9.0169172 7038307
-147.91499 -71.007439 8.0751295 8024425
-148.39505 -70.914642 7.0861349 6380368
-148.87411 -70.821938 6.0903769 7762021
-149.05511 -70.742615 5.1392164 9209467
-149.86169 -70.662117 4.4440145 9209467
-150.03595 -70.582382 3.4844158 10722189
-150.52122 -70.501816 2.6494586 10919823
-151.00636 -70.420853 1.8085811 9471868
-151.19159 -70.35405 1.0218341 8288109
-121.16638 -69.657539 64.90435 10327693
-121.92281 -69.720337 64.41478 8352878
-151.10789 -70.314705 0.47531009 7366751
-151.90804 -70.231819 -0.25421262 8156266
-152.21979 -70.150681 -1.1721318 9143163
-152.52496 -70.069542 -2.0926144 10261643
-153.3248 -69.985062 -2.842664 9866886
-153.42513 -69.889091 -3.8309186 8089963
-153.83414 -69.782333 -4.7062082 8418928
-154.54376 -69.659439 -5.6599932 9340027
-154.646 -69.567368 -6.4723711 9734784
-155.04538 -69.45929 -7.3621264 8879477
-155.80151 -69.353432 -8.1508493 8089963
-120.63404 -68.662781 65.664536 11577503
-121.46075 -68.676193 65.153671 11906210
-121.97638 -69.153893 64.62973 8681843
-155.69421 -69.315338 -8.5212984 8089963
-155.8378 -69.241669 -9.1571054 9011323
-156.22481 -69.131096 -10.06104 8683384
-156.91393 -69.001656 -11.054742 8552055
-157.60298 -68.871132 -12.057946 9209467
-157.42278 -68.81292 -12.616403 9932934
-158.04376 -68.662018 -13.816239 8748661
-158.83151 -68.567406 -14.656953 9406335
-158.61043 -68.504417 -15.407434 10722194
-159.38623 -68.413689 -16.452326 9998471
-120.29578 -67.552048 66.356865 8288115
-120.889 -67.707359 65.926552 9143166
-121.48406 -67.864403 65.494392 9340545
-160.16312 -68.322052 -17.508116 9932419
-159.92593 -68.258804 -18.262152 8682867
-160.69658 -68.1661 -19.331285 9998216
-161.53123 -68.088295 -20.221849 10985367
-161.27826 -68.024719 -20.97962 11445918
-162.11057 -67.945908 -21.882708 9339773
-161.84903 -67.882278 -22.641962 8616307
-162.679 -67.802353 -23.557634 10589839
-163.44426 -67.705574 -24.674448 9405560
-163.72321 -67.632744 -25.524538 9734527
-163.92529 -67.543823 -26.567392 9668480
-164.83098 -67.477036 -27.325956 10786703
-164.53801 -67.412834 -28.092436 9997188
-119.80069 -66.28315 67.214203 12433069
-120.29984 -66.681625 66.735062 9208959
-121.14267 -66.753281 66.18882 7564651
-165.23891 -67.290329 -29.237177 7959407
-119.84167 -65.59893 67.488403 10524560
-120.60169 -65.773689 66.947647 8945529
-119.41746 -64.425613 68.260643 7563619
-120.06688 -64.709389 67.739761 7892584
-120.68375 -64.798279 67.324051 8353135
-118.92654 -63.432652 68.99469 10853012
-119.54026 -63.625137 68.535591 8550514
-120.20699 -63.813217 68.046051 9471872
-118.98463 -62.644817 69.300117 9800324
-119.745 -62.715927 68.808128 9602945
-118.57233 -61.662743 69.934677 9405566
-119.26156 -61.642784 69.568611 8879990
-119.79649 -61.95274 69.11039 9603970
-118.06515 -60.280758 70.97995 8682867
-118.75038 -60.666534 70.336891 8879733
-119.38078 -60.807762 69.893372 8420720
-117.28848 -59.19532 72.837624 13023917
-117.86235 -59.345665 72.117409 11905950
-118.38152 -59.673138 71.362396 7629667
-118.91798 -60.014557 70.778862 7432032
-112.12167 -58.328335 83.685883 9341059
-112.87861 -58.59203 83.174294 8485235
-113.54844 -58.857929 82.224808 9341051
-114.04104 -58.85965 81.53968 10525067
-113.73899 -58.861095 80.294136 10130310
-114.31554 -58.86314 79.470192 7827814
-114.88611 -58.865185 78.642014 8156267
-115.45066 -58.867229 77.809814 9011320
-116.00919 -58.869267 76.973534 9406078
-116.40707 -58.871384 75.932961 7761509
-116.30397 -58.872986 74.772621 7432799
-116.93034 -58.920078 73.986885 9340539
-117.65972 -59.021423 73.263725 11971745
-118.14565 -59.089966 72.779274 9932937
-112.27159 -57.539574 83.93557 8419698
-112.96314 -57.825439 83.468033 8288111
-111.81191 -56.557827 84.57299 8551540
-112.5648 -56.655304 84.152214 8288111
-111.45049 -55.275188 85.284843 9735812
-111.90816 -55.721806 84.869331 9341055
-112.66431 -55.67466 84.506516 9012091
-111.4494 -54.546413 85.586189 8156784
-112.2049 -54.730476 85.128319 8748921
-110.91741 -53.48666 86.292366 14605262
-111.6585 -53.611877 85.866089 10525841
-112.22005 -53.950928 85.442314 8288371
-111.01914 -52.612717 86.60157 13223609
-111.68118 -52.767723 86.202927 12960437
-110.58297 -51.502365 87.280167 8946811
-111.24513 -51.653934 86.882904 9934215
-111.82543 -52.065399 86.419792 10262924
-110.03883 -50.336266 88.036392 10064268
-110.65968 -50.612545 87.608528 10064268
-111.34513 -50.780598 87.19268 8092011
-110.08142 -49.504276 88.358139 10064268
-110.80359 -49.733875 87.898514 9537923
-109.68324 -48.309486 89.053169 9208443
-110.2663 -48.574329 88.649345 8813944
-110.85034 -48.840942 88.244293 9011064
-109.77699 -47.487812 89.34594 7761515
-110.46434 -47.742115 88.893837 6971740
-109.1786 -46.39185 90.101509 9999497
-109.91553 -46.732361 89.588722 7762284
-108.83869 -45.202026 90.998444 11314071
-109.49657 -45.578709 90.361092 9604483
-109.99893 -45.909988 89.889915 8288627
-107.98518 -44.189564 92.738609 11051157
-108.58965 -44.347328 92.038612 9998726
-109.05815 -44.698208 91.347633 9998469
-109.65496 -44.972885 90.786705 11314071
-103.43889 -43.506355 102.94296 9932423
-104.10721 -43.580391 102.61548 8879991
-104.11703 -43.816612 100.91094 9340286
-104.72205 -43.818405 100.28211 9602942
-105.44333 -43.82056 99.522865 9142390
-105.9213 -43.821991 99.013977 8090216
-105.80398 -43.824482 97.247482 9010806
-106.38701 -43.82626 96.608604 9931906
-107.08163 -43.828392 95.837418 9800578
-107.65642 -43.83017 95.191002 9735812
-107.50487 -43.926044 93.910774 9406593
-108.33569 -43.991177 93.265709 10919829
-102.957 -42.458782 103.57664 9143163
-103.63052 -42.66674 103.19324 9866374
-103.08645 -41.477768 103.91158 9603458
-103.69071 -41.782326 103.52026 9143163
-102.4409 -40.599316 104.55143 7959144
-103.07461 -40.693161 104.23158 8748661
-102.67847 -39.597111 104.84769 10326924
-103.3655 -40.059181 104.35641 8090730
-102.18468 -38.448421 105.5284 7959401
-102.86161 -38.635818 105.15173 10392717
-101.644 -37.549149 106.12991 8090987
-102.38441 -37.538784 105.80434 8353903
-102.94035 -37.847961 105.43272 9735043
-101.65646 -36.597992 106.50591 9209210
-102.33483 -36.781322 106.13028 8156780
-101.20721 -35.350216 107.20655 8880246
-101.89082 -35.623959 106.79229 8814709
-101.47458 -34.516201 107.42202 8617330
-102.07152 -34.700462 107.08231 8618099
-100.83768 -33.519592 108.10546 8418928
-101.4412 -33.747036 107.74546 8419440
-100.32288 -32.220146 108.85595 8089963
-100.90419 -32.623684 108.43523 10195595
-101.6412 -32.769958 108.04833 9142907
-100.39335 -31.432594 109.14056 8617848
-101.07625 -31.605602 108.76702 9077114
-100.10805 -30.250065 109.93674 9932681
-100.61635 -30.568985 109.46209 9209215
-99.550339 -29.096039 111.72834 7563619
-99.739761 -29.333521 111.07778 8025198
-100.11537 -29.739643 110.36183 9406594
-94.454155 -28.496437 121.79684 8946300
-95.147964 -28.62396 121.39925 8287341
-95.761131 -28.774914 120.85822 7958120
-96.174538 -28.780022 117.84303 8418928
-96.740509 -28.781513 117.37825 7563619
-97.445206 -28.783379 116.79388 9340030
-98.204834 -28.789429 113.4758 7760994
-98.802223 -28.806055 113.06115 9998214
-99.19696 -28.994482 112.2353 8418927
-94.162651 -27.241112 122.42796 7564642
-94.7006 -27.638554 122.03039 8419952
-95.376694 -28.043507 121.56843 6510930
-94.098038 -26.438837 122.77737 8946040
-94.802223 -26.597843 122.40125 7762021
-93.548004 -25.348701 123.45722 10853012
-94.199936 -25.562546 123.0824 8814199
-94.852264 -25.777355 122.70705 6511954
-93.771606 -24.562826 123.67213 9274752
-94.479027 -24.731705 123.29063 8353909
-93.209717 -23.37056 124.39809 8551285
-93.918129 -23.53779 124.01681 9274752
-93.326599 -22.467926 124.70701 8156266
-93.968033 -22.7416 124.31293 9143167
-92.867218 -21.386806 125.34322 6972504
-93.502762 -21.690506 124.93977 9669246
-92.903336 -20.446257 125.70468 8682608
-93.561234 -20.656151 125.32883 11445143
-92.405212 -19.525305 126.29531 8946038
-93.093483 -19.602846 125.95911 9932420
-91.963928 -18.340847 126.96652 8682867
-92.623863 -18.548563 126.59064 9142904
-93.241661 -18.945202 126.15752 9734270
-91.955627 -17.58297 127.27455 8682867
-92.658653 -17.601734 126.95542 9734270
-91.544586 -16.243509 127.99461 9604483
-92.148285 -16.714582 127.53788 8683124
-91.03389 -15.106568 128.90936 8682867
-91.646484 -15.444687 128.37921 8354163
-92.312271 -15.755557 127.86983 7828077
-90.661407 -14.357457 129.70004 10129545
-91.282799 -14.555692 129.25969 9341312
-91.903572 -14.754521 128.81902 9538947
-85.663826 -13.472058 140.51451 8090987
-86.393311 -13.481987 140.18774 8486005
-88.871979 -13.74618 133.54071 8881278
-89.673927 -13.74811 133.0032 8092019
-90.265793 -14.020997 130.80238 10129545
-90.959526 -14.032434 130.45943 9143681
-85.693283 -12.374831 140.93985 9406593
-86.366028 -12.683281 140.51897 9209727
-85.208817 -11.401753 141.54303 10261131
-85.969048 -11.5174 141.16045 9012605
-85.283173 -10.3762 141.91992 10589840
-85.947769 -10.740848 141.48012 7894126
-84.785172 -9.4538469 142.50876 9735046
-85.519714 -9.4608183 142.181 9735046
-84.848419 -8.3935385 142.90445 9735046
-85.49025 -8.6521959 142.51707 8090737
-84.431915 -7.427247 143.47482 9471359
-85.094803 -7.5000682 143.1524 10064010
-84.511429 -6.5852799 143.77605 9668738
-85.10025 -6.822238 143.42084 9010808
-83.968948 -5.5322819 144.43681 10327181
-84.724472 -5.677073 144.04465 10853012
-83.34034 -4.3587193 145.18387 10262156
-84.04303 -4.5674462 144.78951 9933192
-84.745636 -4.7764745 144.39513 10853012
-83.608963 -3.4787157 145.41658 8946812
-84.307968 -3.6436877 145.04138 9801606
-83.348763 -2.2984962 146.0033 9209467
-83.749283 -2.5479739 145.72639 8749433
-83.501396 -1.4698449 146.26753 9472639
-83.835571 -1.6785281 146.03598 10985623
-83.654961 -0.63882631 146.53316 10064777
-125.71348 -75.212311 56.853535 6511954
-126.45108 -75.36013 56.363247 11643036
-126.87944 -75.507744 55.550682 9471866
-127.20181 -75.465294 54.600117 8747893
-127.51136 -75.419426 53.645344 11117464
-128.16631 -75.358749 52.833969 7695716
-128.46329 -75.313423 51.873734 9076857
-129.1068 -75.253067 51.05146 9537408
-125.32086 -74.515015 57.890549 6972762
-126.00896 -74.650848 57.397102 6841178
-126.53226 -75.001915 56.734154 13090741
-129.36278 -75.191826 50.075039 9603970
-129.77023 -75.094421 49.067772 8617331
-130.19952 -75.016266 48.318142 9538176
-130.72784 -74.933525 47.371185 9012089
-130.94928 -74.868797 46.383831 8551538
-131.52794 -74.789528 45.521641 8222572
-132.1003 -74.710342 44.653297 6775382
-132.30197 -74.646416 43.65889 10393737
-132.80392 -74.566193 42.691898 10722194
-133.2215 -74.501411 41.924889 9406079
-133.60266 -74.425209 40.89846 8090219
-133.96339 -74.354431 39.952415 6445650
-134.63342 -74.288445 39.446671 5919050
-123.63625 -73.607544 61.629078 9735043
-124.4855 -73.648285 61.13163 7563874
-124.87477 -73.868805 60.041531 7827301
-125.16328 -73.918106 59.162689 7433315
-125.6084 -74.063332 58.359016 6841693
-134.81255 -74.20945 38.268253 6511443
-135.39986 -74.075058 37.554974 7104092
-135.60536 -73.932846 36.558632 6511954
-136.14656 -73.830002 35.720837 7169884
-136.54153 -73.722382 34.701962 8880502
-137.00296 -73.617485 33.766457 9077882
-137.45839 -73.513474 32.827286 8288365
-137.72496 -73.421936 31.840649 6643542
-138.36554 -73.330956 31.111954 8353651
-123.26267 -72.383469 62.43169 13550517
-123.91614 -72.708603 61.890312 7564902
-124.47085 -73.006813 61.421043 6511954
-138.63031 -73.225914 29.945837 9011323
-139.25542 -73.148399 29.379099 8024940
-139.50247 -73.0504 28.291986 8551281
-139.93103 -72.966019 27.50252 11576986
-140.16296 -72.868439 26.410471 10064520
-140.97891 -72.782143 25.861078 9538176
-141.16115 -72.676491 24.631094 8682867
-141.81366 -72.584709 23.900843 8682867
-141.84361 -72.515823 22.853067 10261641
-142.55289 -72.455582 22.122271 10853263
-142.88014 -72.328354 20.905863 8353135
-122.78803 -71.328201 63.183067 9867657
-123.39046 -71.614494 62.689922 11315097
-124.08078 -71.782204 62.194859 9538944
-143.44498 -72.230103 20.282877 7695720
-143.78427 -72.106834 19.27141 8222321
-144.11554 -71.983711 18.257055 10392711
-144.67645 -71.885361 17.62002 7169372
-145.03644 -71.775879 16.512175 7169372
-145.63228 -71.683342 15.603686 8551282
-145.86606 -71.602097 14.68127 9011833
-146.39072 -71.522316 13.90351 11445406
-146.61475 -71.440926 12.9747 9208958
-147.11824 -71.346916 12.008113 7564393
-122.84077 -70.626129 63.457912 9998983
-123.57832 -70.771034 62.94397 10460046
-147.61984 -71.252403 11.034835 9011838
-147.82532 -71.170845 10.095992 8090737
-148.64229 -71.090172 9.4322958 7563619
-148.54965 -71.021568 8.5285521 7761253
-149.3477 -70.928055 7.67208 6775125
-149.67728 -70.83477 6.6042471 7564642
-149.99823 -70.741554 5.5331144 9011574
-150.81444 -70.660545 4.8354902 9274745
-150.69586 -70.594193 3.9234607 11379607
-151.48422 -70.49913 3.0310352 10261384
-151.81377 -70.418152 2.1223896 9735297
-152.1647 -70.350349 1.3945873 8616560
-122.39754 -69.560646 64.194572 8879222
-123.01759 -69.781586 63.719189 9340285
-123.63947 -70.005013 63.241615 9012344
-152.08102 -70.310715 0.84425616 9734270
-152.6217 -70.255104 0.35671878 9339769
-152.77214 -70.174484 -0.6239903 8419182
-153.54951 -70.077034 -1.5520566 9998215
-154.32831 -69.978775 -2.4898694 11380380
-154.19316 -69.925186 -3.2306645 8089963
-154.88846 -69.793594 -4.3653841 9142907
-155.30289 -69.685577 -5.2513018 11313814
-155.40599 -69.593102 -6.0667505 9340027
-156.11868 -69.468399 -7.0365343 8089963
-156.39653 -69.376793 -7.8044252 8089963
-121.94719 -68.373116 64.989052 9537664
-122.55044 -68.646904 64.500771 9405822
-123.24035 -68.802361 64.011307 8813685
-156.77728 -69.323471 -8.2021685 8089963
-156.92383 -69.249245 -8.8420038 13881293
-157.31729 -69.138062 -9.7512407 9999497
-158.01686 -69.007744 -10.750501 7038307
-158.09277 -68.911842 -11.585172 9275520
-158.47368 -68.798164 -12.508756 10130569
-159.2278 -68.685364 -13.340699 10854036
-158.99542 -68.614746 -14.092996 8813942
-159.78223 -68.524414 -15.13289 10393229
-160.62816 -68.449028 -15.994569 10064265
-160.39725 -68.385452 -16.752234 11182228
-122.00211 -67.617355 65.285904 8485237
-122.73093 -67.811745 64.755684 9537664
-161.18102 -68.293129 -17.815985 9932419
-161.62415 -68.209732 -18.785521 10064007
-161.71872 -68.136002 -19.652143 9537665
-162.49736 -68.041626 -20.740561 10459023
-163.34268 -67.96228 -21.648928 7563619
-163.07948 -67.898155 -22.413797 7563619
-163.92247 -67.817764 -23.334963 9866116
-163.65047 -67.753601 -24.101213 10129286
-164.49118 -67.672112 -25.035231 9142387
-165.2646 -67.57357 -26.172373 9142393
-165.04871 -67.52523 -26.749762 9142393
-165.89124 -67.441757 -27.707094 7563619
-121.57378 -66.482193 66.043983 7564651
-122.27377 -66.663864 65.536919 7564651
-122.78575 -67.05468 65.053177 8681843
-166.28229 -67.343369 -28.734411 10393487
-166.27203 -67.241478 -29.626825 9932937
-167.31616 -67.192024 -30.021044 8485494
-121.08457 -65.467499 66.786507 7564651
-121.68344 -65.619133 66.354378 8748409
-122.3596 -65.791664 65.865891 8090737
-121.15214 -64.670715 67.093719 8879735
-121.94071 -64.769386 66.568802 9734786
-120.69734 -63.604736 67.837654 7563619
-121.44055 -63.658924 67.359917 9210236
-121.97681 -63.979687 66.892082 8092011
-120.26568 -62.436249 68.612297 9341310
-120.80017 -62.750221 68.148476 10986391
-121.54455 -62.80188 67.671082 14605262
-120.36539 -61.585228 68.923134 8420720
-121.13352 -61.74749 68.382126 11184026
-119.86636 -60.561432 69.789825 9144187
-120.55176 -60.779259 69.204536 8552050
-121.14284 -60.951866 68.722588 9341310
-119.1155 -59.229218 71.803368 8682355
-119.60813 -59.564793 70.879753 9537920
-120.19395 -59.829857 70.237076 9341310
-120.69897 -60.159283 69.626198 9341310
-113.5064 -58.224964 83.02858 6510930
-114.08618 -58.522972 82.612556 7235164
-114.77119 -58.775845 81.852837 12630441
-114.72341 -58.862053 80.575218 12498855
-115.30196 -58.864113 79.744102 6906456
-115.8744 -58.866165 78.908821 8156267
-116.44091 -58.868225 78.069473 8551026
-117.0013 -58.870274 77.226021 8419696
-117.55562 -58.87233 76.378578 8617073
-117.1081 -58.873341 75.288956 7695716
-117.64838 -58.875366 74.440765 7498857
-118.19593 -58.884037 73.596954 9932937
-118.73625 -59.036854 72.670364 9801350
-119.49687 -59.054085 72.228874 8287597
-113.65988 -57.515228 83.243858 7563874
-114.32518 -57.689011 82.835861 8485488
-113.12975 -56.310261 84.00898 7563874
-113.62766 -56.724922 83.586227 8748661
-114.3522 -56.722511 83.220978 8090474
-113.14844 -55.526531 84.322929 8288112
-113.89327 -55.767403 83.847061 9077626
-112.68797 -54.580379 84.946045 7564651
-113.41137 -54.571072 84.584259 8222323
-113.9122 -54.982124 84.161552 8617075
-112.70725 -53.624603 85.330711 8551285
-113.37427 -53.785843 84.927048 11642524
-112.27262 -52.502892 86.013229 12302251
-113.00449 -52.707142 85.559021 8945527
-111.72934 -51.324535 86.774094 10262924
-112.4379 -51.681831 86.268471 10064521
-113.2214 -51.932636 85.769005 9340027
-111.91461 -50.493969 87.023232 9866886
-112.61137 -50.862068 86.519249 9735044
-111.57587 -49.371422 87.65863 8550513
-112.1567 -49.662106 87.245209 9405822
-111.0153 -48.325821 88.374222 9011064
-111.52061 -48.716595 87.957535 8024169
-112.33504 -48.76495 87.526543 9932167
-111.05801 -47.493134 88.697334 7432033
-111.82535 -47.770523 88.19532 8353134
-110.60044 -46.470375 89.35157 9538947
-111.2438 -46.561386 88.989235 6708825
-111.83363 -46.825607 88.582207 9011064
-110.7121 -45.649261 89.714882 9538947
-111.30591 -45.737625 89.330193 8288627
-110.02377 -44.242104 91.536392 10524812
-110.22974 -44.67181 90.7593 8748920
-110.87114 -44.858303 90.273552 9275775
-104.76534 -43.470387 102.35557 8090987
-105.30022 -43.621094 101.8926 8748405
-105.90994 -43.819096 100.93122 9602942
-106.39471 -43.820541 100.42011 11511449
-106.27792 -43.823067 98.630623 6511954
-106.86923 -43.82486 97.988831 9274492
-107.57385 -43.827011 97.214119 9208700
-108.15691 -43.828808 96.564751 11380380
-107.99942 -43.831234 94.801567 9735812
-108.45422 -43.832649 94.280075 10064777
-109.14126 -43.838455 93.501854 9538433
-109.47028 -44.005966 92.647522 9735554
-109.99599 -44.125397 91.962563 11314071
-104.28629 -42.329559 103.03574 8748661
-104.85206 -42.714241 102.62971 8024938
-104.37112 -41.567184 103.30355 9669251
-105.04991 -41.775986 102.9175 8288108
-103.856 -40.470776 103.97282 9669251
-104.55998 -40.588398 103.61211 9274491
-103.82841 -39.639645 104.31852 9274748
-104.62094 -39.701694 103.94069 10919055
-103.36 -38.520443 104.97604 9538177
-104.11108 -38.763962 104.54388 10590861
-103.59929 -37.514263 105.27313 10393998
-104.29236 -37.974937 104.77972 9210491
-103.01949 -36.553101 105.91692 9276284
-103.78381 -36.549141 105.57813 9999751
-102.55569 -35.463779 106.56042 8618099
-103.18454 -35.698875 106.18612 10196618
-103.86309 -35.758213 105.86016 10262667
-102.5682 -34.509163 106.93783 8486256
-103.25227 -34.690357 106.56049 9736067
-102.06741 -33.435486 107.59156 8618099
-102.80447 -33.530483 107.22523 8289134
-102.28589 -32.625839 107.81905 8945784
-102.98672 -32.602539 107.51632 9736067
-101.74812 -31.530838 108.49781 8945272
-102.49104 -31.703684 108.0976 9537665
-101.19952 -30.150295 109.53541 9012350
-101.86853 -30.539141 108.93777 8418927
-102.55224 -30.819218 108.44248 9274491
-100.49652 -29.139315 111.16341 9932681
-101.03352 -29.279974 110.57529 9143936
-101.56043 -29.62258 109.85781 9012350
-102.22105 -29.874811 109.31288 8089963
-95.897125 -28.317648 121.22782 7234397
-96.431534 -28.450399 120.80418 7563362
-96.92009 -28.777931 119.93002 7629155
-97.496445 -28.779442 119.46207 8418928
-97.866257 -28.784498 116.44118 6972762
-98.425491 -28.785994 115.96831 7367264
-99.2603 -28.788235 115.2543 9603458
-100.07056 -28.861925 112.31118 8155756
-100.86369 -28.897814 111.83907 8683384
-95.835609 -27.585178 121.54794 7761253
-96.550354 -27.53928 121.24906 6510930
-95.410248 -26.400566 122.21022 8354159
-96.047272 -26.686306 121.81328 7827815
-94.938347 -25.406513 122.81701 6511954
-95.660843 -25.544617 122.44114 7959401
-96.246765 -25.838476 122.06361 8814451
-94.988327 -24.583759 123.12373 7104097
-95.634583 -24.68557 122.7962 6840919
-94.581375 -23.140461 123.88126 8617080
-95.177711 -23.614708 123.42701 7827306
-94.613632 -22.539614 124.10713 8550772
-95.338074 -22.66712 123.73464 7958376
-94.091423 -21.428265 124.78376 9274234
-94.749939 -21.639843 124.40696 8418671
-95.365402 -22.039465 123.97367 8681843
-93.688995 -20.093824 125.49793 9537409
-94.305878 -20.49176 125.06475 10063752
-94.965866 -20.70298 124.68744 8813686
-93.71405 -19.464329 125.73969 9734788
-94.441788 -19.588032 125.36742 9340030
-93.871887 -18.508844 126.05341 9866116
-94.473709 -18.98237 125.5965 8813686
-93.423843 -17.508451 126.65374 10589065
-94.059036 -17.526035 126.36509 9931392
-92.777786 -16.273729 127.43594 7564643
-93.365784 -16.621929 127.03544 9142647
-94.106293 -16.689127 126.6802 9734270
-92.440216 -15.137115 128.26166 7038307
-93.031715 -15.415921 127.78153 8222319
-93.597054 -15.817955 127.26715 9142647
-92.348503 -14.056166 129.76994 10855060
-92.545135 -14.520153 128.7312 8683384
