# .PCD v0.7 - Point Cloud Data file format
VERSION 0.7
FIELDS x y z rgb
SIZE 4 4 4 4
TYPE F F F U
COUNT 1 1 1 1
WIDTH 1223
HEIGHT 1
VIEWPOINT 0 0 0 1 0 0 0
POINTS 1223
DATA ascii
75.644539 3.3705349 181.41425 6510930
-123.58913 3.3984344 139.31996 8682867
-124.34841 3.5574157 139.04799 9274747
-125.16209 3.6396863 138.72101 8946039
-126.0375 3.5056982 138.27972 9538435
-126.84055 3.4176159 137.88885 8157043
-127.77626 3.656286 137.57085 8222579
-128.49628 3.8946948 137.34814 9011838
77.234344 4.6744075 181.12434 7038307
76.566742 4.4301672 181.37039 7037274
75.899406 4.1859269 181.61613 6510930
-125.56098 4.339982 138.82637 8090987
-126.27505 4.5788946 138.60649 9867398
-127.14855 4.5859756 138.22279 8946555
-128.02493 4.5932069 137.83786 9011838
-128.90425 4.6005855 137.45172 10788246
-129.72009 4.6854191 137.104 10459281
77.357018 5.5348649 181.41324 7695721
76.623726 5.3310995 181.70987 7563619
-127.11495 5.2878656 138.52013 8090987
-127.95441 5.4837446 138.22749 8748922
-129.03633 5.5887389 137.79094 10130317
-130.02087 5.5512366 137.31091 10459281
-130.82475 5.6373811 136.94426 9142646
-131.58067 5.8021579 136.63405 8681835
78.047523 6.6536207 181.81989 10261132
77.519554 6.2794061 181.79523 9866374
-128.90367 6.247117 138.11462 9011838
-129.84462 6.4942999 137.78682 8288116
-130.81612 6.4573803 137.28705 8945786
-131.8712 6.5638423 136.80313 8747630
-132.69751 6.7632809 136.47206 8681843
78.180267 7.155036 182.12953 10261132
-130.24809 7.2096162 137.88174 7564651
-130.95416 7.4559274 137.63011 8617081
-131.81355 7.466785 137.20464 7827305
-132.79228 7.4315505 136.70047 8879478
-133.63423 7.5698628 136.33633 9076601
-134.25627 7.7376504 136.09442 8681843
-132.121 8.3457832 137.41364 8155756
-132.93472 8.437254 137.04434 8813685
-133.80156 8.4500074 136.61588 8681843
-134.67122 8.4630365 136.18619 9208956
-135.3916 8.7143631 135.92952 10064265
-133.12968 9.159441 137.24478 9011064
-134.06386 9.4151726 136.88303 12629936
-134.93561 9.4297228 136.45288 11511455
-135.81024 9.4445963 136.02144 9538177
-136.63707 9.5394697 135.64694 7563619
-134.8147 10.312934 136.87794 12037799
-135.75743 10.362624 136.42674 10853525
-136.73749 10.42963 135.9641 9603715
-137.65364 10.568913 135.56329 10984857
-138.57321 10.708869 135.16124 10984857
-136.0596 11.144841 136.59848 8090987
-136.78763 11.403265 136.34106 9340545
-137.67136 11.421885 135.90704 7696236
-138.55823 11.440802 135.47174 7498857
-139.39706 11.540619 135.09387 8090736
-137.21251 12.144345 136.43533 7564651
-137.99681 12.325376 136.11832 7564651
-138.83481 12.426483 135.74146 6183254
-139.72702 12.447472 135.30435 7695978
-140.62239 12.468886 134.86583 10458511
-141.36681 12.733301 134.60324 6972765
-139.04309 13.168564 135.94461 5920082
-139.78322 13.433632 135.68448 5920082
-140.6801 13.456693 135.24588 8156272
-141.58022 13.480154 134.8058 4866873
-142.55565 13.754021 134.43173 6510930
-140.66736 14.19855 135.5593 5130305
-141.69971 14.47994 135.24438 4340785
-142.60939 14.506021 134.80676 7629411
-143.5226 14.532574 134.36765 8024938
-144.58701 14.819026 134.06384 9669507
-143.51657 15.299006 135.01114 9143419
-144.43973 15.327781 134.57477 10787475
-145.13437 15.349684 134.24657 10261387
35.974785 -14.210115 173.37405 12695209
35.087402 -14.189267 173.28519 9209467
34.156181 -14.149579 172.96153 10459019
58.536613 -13.338424 178.25998 9011834
57.6371 -13.466897 178.60889 10655889
46.04528 -13.668271 175.68323 9538177
44.987511 -13.66875 175.95709 10459278
40.788612 -13.919988 174.3138 9209467
40.130531 -13.910358 174.33559 8815220
39.254395 -13.897787 174.36382 9538686
38.161247 -13.882505 174.39795 8946294
37.070122 -13.867554 174.43073 10261387
32.07811 -13.714836 173.39011 9668995
31.16646 -13.681681 173.11702 9011323
17.609011 -13.683308 169.48085 5920074
16.589039 -13.683795 169.58334 7432544
15.568505 -13.684284 169.68002 7892840
14.955937 -13.684578 169.73517 8089963
5.5950308 -13.345485 167.75021 8881021
4.8449144 -13.248941 167.42761 8353904
3.907876 -13.172771 167.00659 6971994
3.0142698 -13.379628 166.49236 7301215
2.2075529 -13.348754 166.11584 8287850
59.349937 -12.272479 178.32242 11905701
58.580837 -12.460073 178.58977 9735557
57.843201 -12.738744 178.8069 9932678
4.6470766 -12.635914 167.57961 7892840
3.751565 -12.441913 167.22618 6774358
2.8171759 -12.569187 166.7244 7564386
2.0100546 -12.540297 166.34694 7367006
1.0870428 -12.267721 166.01202 7630691
59.575947 -11.511833 178.52448 11248282
58.80407 -11.59309 178.83539 10985110
3.431138 -11.784954 167.33685 5919050
2.755477 -11.627729 167.07454 6314319
2.0143938 -11.536096 166.75432 6906712
1.0084658 -11.503352 166.28258 7367006
0.0079012178 -11.471238 165.8132 7697002
-0.78886318 -11.246228 165.51988 8092019
60.420067 -10.211945 178.66621 9538176
59.678848 -10.44515 178.90303 10327692
59.090515 -10.906401 178.9812 11380380
1.7146006 -10.821445 166.89816 8748144
0.80915737 -10.491699 166.59473 9998725
0.0073461793 -10.468256 166.21768 7630435
-0.98962688 -10.439492 165.74869 7762795
-1.9825048 -10.211343 165.36209 7301735
-2.5766077 -9.9951668 165.1629 7038307
61.388657 -9.0604115 178.69363 9538176
60.6157 -9.2479706 178.96271 9867141
59.87397 -9.5275812 179.18132 10919829
-0.19344613 -9.5236092 166.50211 7235677
-1.0723124 -9.4736347 166.09859 8156781
-1.9868307 -9.4098186 165.68346 7038307
-2.8967371 -9.3467283 165.27029 7038307
-3.7629976 -9.2985668 164.87212 9603714
61.618584 -8.2925978 178.89679 9471613
60.71244 -8.4196548 179.24921 9143160
-1.1941748 -8.8261518 166.30116 8814197
-2.0315847 -8.4838171 166.0356 7827049
-2.9814463 -8.5827236 165.5378 7038307
-3.9667425 -8.5601692 165.07188 10392971
-4.6866693 -8.4773417 164.75826 10853521
-5.3399248 -8.3297386 164.50291 8682867
62.443672 -7.2127466 178.95947 10851980
61.579201 -7.447094 179.2507 9339770
60.714813 -7.6818066 179.54164 8616302
-3.120307 -7.708096 165.82378 8353649
-3.9769602 -7.5563588 165.47205 9406333
-4.9106932 -7.4877372 165.04961 8682867
-5.8062429 -7.5204015 164.60471 9538175
-6.6539698 -7.2376165 164.31017 9406848
62.540688 -6.4023781 179.23877 8352877
61.819126 -6.5979705 179.48178 9142391
-4.1824312 -6.7470732 165.69957 8682867
-5.0496778 -6.5706568 165.35269 8682867
-5.9511137 -6.5150938 164.94057 8617074
-6.8482676 -6.4600964 164.53026 8156267
-7.7012873 -6.486217 164.10852 7368295
-8.4782953 -6.2738962 163.81961 6510930
63.505287 -5.3548789 179.22696 9734014
62.637993 -5.5897942 179.51891 7563619
-5.3723631 -5.9203992 165.45956 9209467
-6.0273657 -5.7760644 165.20206 8946039
-6.9425459 -5.4941239 164.87462 7563874
-7.9143667 -5.4807224 164.41156 6379344
-8.6881227 -5.47018 164.04279 6708309
-9.5797453 -5.2183566 163.71463 7629667
64.095833 -3.9549398 179.52197 10984593
63.498482 -4.4230366 179.60104 9734528
62.749771 -4.6583033 179.84018 10984593
-7.3467016 -4.6829462 165.00726 7037274
-7.9340029 -4.4743686 164.8082 6642773
-8.9028692 -4.4637046 164.34541 6445137
-9.8672457 -4.4532714 163.88478 8945527
-10.635228 -4.4450588 163.51785 11183003
-11.214835 -4.2389274 163.32169 10459537
64.524284 -3.2053306 179.63004 8946298
63.610756 -3.3319714 179.98566 9537150
-8.9971743 -3.6970055 164.60941 5919050
-9.8915758 -3.4470532 164.27916 8814198
-10.806569 -3.3893883 163.8613 9867658
-11.726949 -3.4896281 163.37711 9012606
-12.51769 -3.1589007 163.12939 11576730
-13.155725 -3.0208561 162.8775 12103073
65.290039 -2.2341919 179.67639 7565675
64.507378 -2.3136108 179.99265 7827819
63.846153 -2.549655 180.19261 9537150
-10.955827 -2.4711843 164.16034 7959662
-11.839387 -2.425916 163.75249 8354163
-12.79408 -2.4207439 163.29419 10853265
-13.744632 -2.4156785 162.83789 9471871
-14.319842 -2.2122688 162.64259 8420726
66.130226 -1.1342996 179.74094 10261132
65.467552 -1.3707197 179.94131 10261132
64.683731 -1.4501308 180.25809 9866371
-11.924727 -1.6851664 164.01102 9208443
-12.871655 -1.4628803 163.64417 10984594
-13.778195 -1.4097238 163.22849 9866373
-14.680837 -1.3569316 162.8145 13025465
-15.485789 -1.3046757 162.44742 15656670
-16.250561 -1.0018928 162.2011 11906725
66.402695 -0.34641743 180.03664 6905688
65.661812 -0.50458217 180.25111 8550514
-13.233083 -0.60244322 163.81796 10655630
-13.805102 -0.60191995 163.5423 11182489
-14.842574 -0.43946105 163.17511 14736853
-15.716285 -0.39870971 162.78726 14802390
-16.58676 -0.35816649 162.40096 12103848
-17.614328 -0.19729209 162.03847 11709089
-18.176058 -0.19741291 161.76776 11709089
67.455635 0.60349828 180.21648 8354421
66.664001 0.523965 180.52357 8024170
-15.953147 0.20741193 163.18266 11709348
-16.811689 0.30786034 162.85425 10984854
-17.667864 0.40801001 162.52672 10722194
-18.605682 0.4066076 162.07361 10919573
-19.484369 0.47243133 161.70616 9406334
-20.304739 0.60528094 161.42357 8682867
-62.783604 0.59033728 152.27495 11182228
-63.58371 0.59055281 152.13284 10459020
-64.585938 0.59084594 151.95483 10656398
-65.389824 0.59112608 151.81204 10656398
-66.397308 0.59148329 151.6331 9209467
-67.407555 0.59187233 151.45364 9472383
-68.421082 0.5922929 151.27368 10064265
-69.437492 0.5926621 151.09328 10064268
-70.457291 0.59312952 150.91219 8748920
-71.480194 0.59359527 150.73061 8288371
-72.339134 0.34619585 150.38629 8287598
-73.355026 0.42903554 150.26984 10392717
-74.289886 0.38787717 150.07185 11774626
-75.325287 0.38806137 149.88802 9208958
-76.364281 0.38826874 149.70369 9274747
-77.198242 0.38845825 149.55571 9932164
-78.244423 0.38868681 149.37009 9471871
-79.294312 0.38896352 149.18382 9932166
-80.212593 0.3471522 148.91678 8880503
-81.090126 0.49344191 148.65488 10591121
-82.064095 0.59793067 148.31049 10591121
-82.62574 0.59786338 148.06126 9341054
74.085823 1.7473708 181.55716 9143419
73.244118 1.7477752 181.99359 8616818
69.212479 1.2445776 180.70479 12433069
68.57695 1.244611 180.99893 13156792
-20.792789 1.0118065 162.1489 9275004
-21.538103 1.00973 161.78476 8288371
-22.488037 1.0082132 161.48706 8485749
-23.441853 1.0069506 161.22884 7564651
-24.394167 1.0057224 160.97108 7959144
-25.535294 1.0043095 160.66241 7300446
-26.48494 1.0031661 160.40565 7760997
-27.433367 1.0020899 160.14941 7169373
-28.380898 1.0010475 159.89384 6774869
-29.327427 1.0000393 159.63884 6906967
-30.273085 0.99903142 159.38423 8288619
-31.217888 0.99809074 159.12994 7499360
-32.161919 0.99716735 158.87593 6183758
-33.105217 0.99631071 158.62231 6511954
-38.440582 0.99378979 157.46048 8814203
-39.018108 0.99368811 157.35831 8814203
-39.981384 0.99365199 157.18808 7695979
-40.945423 0.99358189 157.01775 9076856
-41.910477 0.99357808 156.84737 9405821
-43.069962 0.99367273 156.64285 7629411
-44.037407 0.99371767 156.47235 7761253
-45.006054 0.99386203 156.30173 9143422
-45.97596 0.99400568 156.131 10262673
-46.947239 0.99421525 155.96019 7039331
-47.919937 0.99439085 155.78923 9801865
-48.894161 0.99473226 155.61807 9012089
-49.869926 0.99502313 155.44685 9341054
-50.847404 0.99534619 155.27539 10327180
-51.826508 0.99575186 155.10378 9010808
-52.807579 0.99618983 154.93195 7958120
-53.790344 0.99657702 154.75993 11182998
-54.775299 0.99712968 154.58765 14538182
-55.762047 0.99764812 154.41513 8682867
-56.751144 0.99823201 154.24228 8419438
-57.742256 0.99886477 154.0692 9340281
-58.735775 0.99949634 153.89575 9604226
-59.731499 1.0002267 153.72203 9998727
-60.729897 1.0009558 153.54803 9538176
-61.730621 1.0016837 153.37369 9340539
-62.734169 1.0024768 153.19901 8748403
-63.740234 1.0033354 153.02399 10327179
-64.74926 1.0042255 152.8486 10392716
-83.298599 1.0226569 148.84506 13156784
-84.242203 1.0227576 148.42825 11380379
-85.186935 1.0228907 148.01111 11050900
-86.133011 1.0230566 147.59349 9931902
-87.080345 1.0232717 147.17549 8353131
-115.91784 1.5367472 141.97159 10853012
-116.54611 1.5379424 141.6937 9537667
-117.38579 1.5396681 141.32233 9537667
-118.22781 1.5413927 140.95001 10262926
-119.28368 1.5435797 140.48306 9142394
-120.13087 1.5453678 140.10854 8681843
74.319366 2.5259678 181.75511 7234653
73.554268 2.477901 182.13193 10262156
-116.8662 1.9936409 141.73451 9537667
-117.60423 2.1478338 141.46925 10328206
-118.4522 2.4552417 141.2168 9671047
-119.29844 2.4582806 140.84311 9735813
-120.22184 2.3961284 140.40912 8813686
-121.17233 2.6488109 140.08926 8682356
-122.18246 2.9293315 139.75417 9142907
75.105293 3.5341909 181.76076 6839895
74.32061 3.4537051 182.13446 7037274
-119.63437 3.5304434 141.12393 10657681
-120.43365 3.6115551 140.80247 8353647
-121.28742 3.6163983 140.42641 10261643
-122.14378 3.6214149 140.04936 9669251
-123.00282 3.6264803 139.67125 7433063
-123.9242 3.8637249 139.35898 8682867
75.968269 4.6764874 181.78145 7563619
75.300499 4.4322972 182.02747 6905688
74.666801 4.4334373 182.35635 6774102
-120.82038 4.3058572 140.91049 9142907
-121.57269 4.465476 140.64178 9472128
-122.37911 4.5486174 140.31844 9800837
-123.24014 4.5551071 139.93999 8024943
-124.10381 4.5617442 139.56046 7827819
-124.97025 4.5685062 139.17975 9209211
-125.68269 4.8073435 138.96057 9538433
76.071754 5.4143291 182.03 8813686
75.437302 5.4157434 182.35944 7563619
-122.55613 5.2463379 140.52089 9998215
-123.47839 5.4875326 140.20984 9472129
-124.34414 5.4956446 139.82999 8879989
-125.21261 5.5039043 139.44894 9670019
-126.08389 5.5122876 139.06674 8814710
-126.90568 5.5985374 138.73779 8419954
76.975159 6.6551752 182.34036 9405823
76.229797 6.2809176 182.40916 10392461
-124.52502 6.1984873 140.03278 9537402
-125.33744 6.488688 139.79007 8222314
-126.32932 6.4530849 139.33678 8683124
-127.20555 6.4631906 138.95309 8617333
-128.08469 6.473495 138.56821 7893613
-129.02988 6.7208772 138.24945 9011838
78.159538 7.6646156 182.688 10063496
77.359444 7.2827625 182.63776 8813686
-126.29527 7.1584163 139.63571 8946037
-127.23425 7.4065351 139.32007 7762027
-128.21568 7.4670854 138.91011 7762027
-129.21968 7.4335408 138.45229 7761771
-130.04716 7.5238862 138.11195 8025201
78.707878 8.1904936 183.35982 11904668
-127.42092 8.118577 139.52405 7038307
-128.19791 8.288414 139.24852 7235685
-129.03011 8.3802853 138.91721 7826791
-130.03288 8.3479929 138.45177 9274751
-131.09294 8.4584742 137.9745 9011580
-131.91911 8.6615534 137.64491 7563619
-129.44243 9.1012974 139.02492 8616307
-130.17036 9.3525515 138.79819 9997703
-131.03438 9.3662338 138.37843 11314332
-132.01328 9.333745 137.87529 9669251
-132.82634 9.635046 137.59286 8419184
-133.47711 9.6459255 137.27185 13024949
-131.34108 10.251124 138.59019 10721939
-132.15477 10.345454 138.22206 10261387
-133.02174 10.360884 137.79469 7563619
-133.89143 10.376611 137.36609 13616571
-134.61157 10.631538 137.11101 14076870
-132.34914 11.072368 138.42485 11182489
-133.28316 11.332273 138.06483 8747893
-134.155 11.349548 137.63582 10984852
-135.02962 11.367098 137.20547 9801092
-135.85626 11.465047 136.83234 8485490
-134.03331 12.237477 138.06319 9208443
-134.97607 12.290259 137.6134 8945527
-135.95638 12.36063 137.15254 8419700
-136.87279 12.503565 136.75375 11182231
-137.79247 12.647147 136.35371 7564651
-135.27831 13.078019 137.7883 9209467
-136.00648 13.340143 137.53293 11116949
-136.89018 13.361514 137.1002 9800838
-137.77686 13.383304 136.66617 7827820
-138.61557 13.486265 136.28972 6116685
-136.4308 14.086824 137.62996 11182742
-137.09518 14.103894 137.30502 7564651
-138.09488 14.38005 136.98091 6840663
-138.99113 14.404361 136.54884 6511698
-139.8907 14.429121 136.11542 6117200
-140.91956 14.710064 135.80196 4932666
-139.86063 15.188788 136.74248 6576979
-140.96846 15.393985 136.39471 5590340
-141.89445 15.51053 136.0836 5590340
-142.84859 15.542893 135.68457 6906204
-143.84825 15.843245 135.64923 9537667
-144.59979 15.871829 135.37515 10787475
-145.6075 15.910474 135.00909 8353647
57.168671 -13.198659 178.92395 10655889
56.519615 -13.431322 179.11995 11379356
55.739105 -13.51189 179.40036 10853010
43.928017 -13.66923 176.22418 9933191
42.65461 -13.669807 176.53645 9538174
35.9813 -13.853137 174.46201 11116697
34.866116 -13.827856 174.35039 9209467
33.931786 -13.789719 174.02936 9801347
33.002464 -13.752028 173.7093 8616307
30.111885 -13.676532 173.22945 9471356
29.069178 -13.677019 173.4075 11181970
28.234261 -13.67741 173.54524 8090986
14.34303 -13.684873 169.78781 9143419
13.525695 -13.685265 169.85471 9143419
12.503545 -13.685757 169.93254 9011832
11.480964 -13.686251 170.00473 9471871
10.02893 -13.660006 169.76082 9011065
9.3310423 -13.494895 169.49098 8484721
8.5645685 -13.3957 169.16153 7761512
7.7307405 -13.362275 168.77304 9932937
6.6945868 -13.321174 168.29013 11248283
5.8725653 -13.086544 167.98851 8092019
57.391571 -12.439083 179.12697 10655889
56.619381 -12.521324 179.43761 11379356
8.5770025 -12.783629 169.41451 8287342
7.5376844 -12.540006 169.01175 9801350
6.5002813 -12.501472 168.52727 9275522
5.6751375 -12.471141 168.14172 8354677
4.9230165 -12.376306 167.81741 8287598
4.2426271 -12.217217 167.5536 7892840
58.179321 -11.597579 179.11142 10656401
57.433838 -11.557503 179.45883 10919061
56.90303 -11.835484 179.58426 11379356
7.3400698 -11.920429 169.16661 9143675
6.512723 -11.687287 168.86182 8092019
5.6886168 -11.45526 168.55815 8156526
4.6604776 -11.420982 168.07637 7629411
3.7400484 -11.390676 167.6449 5655878
3.0276289 -11.367556 167.31076 6511954
59.195007 -9.9902973 179.29913 10787988
58.434502 -10.387587 179.47931 10590609
57.655762 -10.687367 179.7063 10392974
5.2865458 -10.627117 168.69852 9208443
4.4657679 -10.398022 168.39532 5984843
3.6047106 -10.49401 167.94148 5590085
2.8298864 -10.551816 167.54465 6116684
1.8984842 -10.281551 167.20471 7893349
59.421753 -9.2238531 179.50322 10985366
58.646233 -9.3049364 179.81584 10524560
4.2664499 -9.7805452 168.54851 5392706
3.5844374 -9.6254911 168.28224 6510930
2.6328363 -9.531496 167.86137 6050636
1.6180182 -9.5041647 167.38319 7893093
0.81052876 -9.4826756 167.00262 12367275
0.0066976808 -9.259696 166.70506 8814709
60.242485 -8.1454363 179.56729 9142649
59.378613 -8.38025 179.85803 10656402
2.5349913 -8.8164959 168.10278 7037274
1.5805502 -8.56884 167.74261 8814200
0.81196117 -8.4691 167.41234 11248794
-0.19444177 -8.4454966 166.93668 8551537
-1.1962252 -8.2203636 166.54459 10261132
-1.7955198 -8.0051908 166.34259 10261132
60.336052 -7.336895 179.84732 9142649
59.615013 -7.5327625 180.09007 9603197
0.51012135 -7.5472202 167.63885 9077885
-0.39681336 -7.4266305 167.25032 7629924
-1.1990156 -7.4103127 166.87016 9866374
-2.1172972 -7.3514738 166.45123 9537409
-2.7928228 -7.3786206 166.11455 8089963
61.269196 -6.5228491 179.75623 9142649
60.429852 -6.5260863 180.12817 9208442
-0.39774606 -6.8159661 167.49634 8419444
-1.201827 -6.5975108 167.19684 9142651
-2.2013597 -6.5797133 166.72218 8813686
-3.1957083 -6.562223 166.24989 9209467
-3.9220762 -6.4823074 165.93196 9012088
-4.580945 -6.3365746 165.67308 8682867
61.378189 -5.5938263 180.07739 8747889
60.537468 -5.5966487 180.45006 9734788
-1.4047556 -5.9828372 167.34711 9537409
-2.3398123 -5.6962533 167.01195 8287342
-3.2040758 -5.5475202 166.6553 8353647
-4.1462564 -5.48317 166.22705 8814454
-5.0500174 -5.5209394 165.77615 9011832
-5.9048128 -5.2395592 165.47762 9209467
62.305424 -4.2703657 180.1922 11379350
61.493202 -4.6149015 180.41603 9603454
-3.4099245 -4.7304006 166.88588 8090219
-4.2847757 -4.5567093 166.53427 8551026
-5.1943293 -4.5053301 166.11646 9472640
-5.9811525 -4.4963546 165.74077 8616818
-6.8825674 -4.4457259 165.32666 7366495
63.15683 -3.0203767 180.31152 9537150
62.406296 -3.3030722 180.53256 11050385
-4.6091642 -3.9009321 166.64301 8814710
-5.2698889 -3.7585003 166.38194 8814710
-6.1927881 -3.4782982 166.05017 7564387
-7.1732092 -3.4698191 165.5807 6313808
-7.9537954 -3.4631972 165.20702 6840408
-8.8346872 -3.1525717 164.90775 5919050
63.373936 -2.2682569 180.51451 9537150
62.6082 -2.3164134 180.83571 9471612
-6.5990076 -2.6600881 166.18523 7039331
-7.1912165 -2.4522626 165.98366 8091247
-8.0915136 -2.406364 165.56804 7893352
-9.0239744 -2.482281 165.08759 6774102
-9.9160242 -2.4365678 164.67586 8089962
-10.500283 -2.230988 164.47716 9142651
64.139633 -1.2934173 180.56238 9208435
63.355 -1.3729123 180.87952 9208435
-8.2623777 -1.6716139 165.78282 8946298
-9.1641722 -1.4234226 165.4483 7168860
-9.940629 -1.4210494 165.07477 8221548
-10.906756 -1.4181008 164.61002 9208700
-11.812379 -1.1453671 164.2836 11379609
-12.455579 -1.0088255 164.02861 13550517
65.13298 -0.34712067 180.59949 10129544
64.338928 -0.42649874 180.8947 9932416
63.65197 -0.66371632 181.02994 9932416
-10.154199 -0.60538477 165.30176 9142651
-11.132545 -0.40059176 164.99635 10327436
-11.903613 -0.40025717 164.62473 10656657
-12.789296 -0.35931766 164.23112 10392715
-13.832307 -0.196932 163.86128 11709348
-14.403987 -0.19695854 163.58571 14210509
66.028999 0.52382237 180.80972 7103067
65.393616 0.52370459 181.09607 8945268
64.712158 0.28534341 181.254 9932416
-12.325438 0.21128432 164.93401 9998727
-13.167455 0.34665519 164.6429 10524558
-13.874761 0.41377711 164.35916 11709348
-14.829251 0.41229844 163.89818 13815494
-15.721904 0.47864771 163.52437 11709348
-16.553698 0.61252427 163.23726 10458254
72.190842 1.7483763 182.53976 7563619
68.153076 1.2446332 181.19507 10262156
67.304848 1.2447107 181.58763 10853521
-17.029222 1.0225604 163.98973 12234666
-17.787062 1.0203266 163.61888 9800580
-18.730597 1.0176365 163.15726 8682355
-19.670389 1.0149487 162.69768 11380380
-20.23243 1.0133772 162.42291 9932678
-65.760933 1.0051312 152.67281 12826795
-66.572533 1.0059078 152.53191 10392970
-67.589882 1.0069439 152.35545 9538176
-68.6101 1.007995 152.17857 9209211
-69.633789 1.0090777 152.00114 9012091
-70.660583 1.0102254 151.82341 8288371
-71.484543 1.0110956 151.68086 9735812
-72.517715 1.0123068 151.50218 8287342
-73.554291 1.0135663 151.32303 8089963
-74.594688 1.0148571 151.14339 7367013
-75.638641 1.0161793 150.96323 7761772
-76.476707 1.0172923 150.81868 9932937
-77.527954 1.0186943 150.63751 10129801
-78.582939 1.020144 150.45576 9406078
-79.430092 1.0213523 150.30995 9406078
-80.464027 1.0225204 150.07352 9472383
-81.414909 1.0226208 149.67754 10591121
-82.35627 1.0226223 149.26144 11709599
-111.96717 1.5294784 143.71899 9340801
-112.79496 1.530911 143.3528 10392461
-113.62482 1.5324421 142.98576 8550257
-114.66522 1.5343546 142.52554 8550257
-115.49964 1.5358834 142.15649 9536894
72.921776 2.4785163 182.45998 10524301
72.137329 2.3979642 182.83353 9142393
-112.27918 1.9818317 143.76205 10261132
-113.00558 2.1346979 143.50145 9866117
-113.85918 2.3489025 143.20912 8616050
-114.67275 2.4423425 142.88609 7761514
-115.5828 2.3802764 142.45804 9536895
-116.50512 2.5242796 142.10713 8682359
-117.48122 2.7941954 141.78287 9736327
73.720825 3.6993001 182.54587 7037274
73.173943 3.4064362 182.70938 10853522
72.38707 3.2117202 183.03741 10786703
-114.8894 3.3536456 143.15536 8287600
-115.78204 3.5864561 142.85313 8550771
-116.62256 3.5908067 142.48245 8747635
-117.46532 3.5952556 142.11089 7959919
-118.52219 3.6009092 141.64494 8947326
-119.42683 3.8358133 141.33824 9144704
74.032661 4.4346266 182.68552 7300446
73.24601 4.3542819 183.06027 10392716
-116.15691 4.2752895 142.9631 10851980
-116.896 4.4331822 142.69893 9932423
-117.68894 4.5150642 142.38068 9011835
-118.53612 4.5209117 142.00793 8092019
-119.50198 4.4814734 141.56461 8025963
-120.48025 4.650197 141.19962 8947319
-121.36478 4.7724795 140.85739 9142907
74.802521 5.4171586 182.68901 7037274
74.167297 5.4187474 183.01886 7826790
73.498276 5.1737065 183.26521 9734788
-118.06968 5.2089691 142.49129 9340286
-118.76345 5.4457674 142.27953 8683639
-119.61503 5.4530377 141.90559 6906968
-120.46915 5.4604306 141.53062 8289133
-121.44274 5.4225774 141.0845 9275516
-122.45921 5.7108221 140.75073 10327179
75.902184 6.656929 182.86133 8813686
75.073807 6.4579573 183.10173 8813686
74.268578 6.1591878 183.2697 9734788
-119.78768 6.1500607 142.10973 7828326
-120.70138 6.3918338 141.80269 8486512
-121.55992 6.4007502 141.42633 9340537
-122.42105 6.4098649 141.04895 11905694
-123.28481 6.4191523 140.67046 9472129
-124.09899 6.5061145 140.34514 9997954
76.806877 7.6609259 183.17178 7563619
75.996956 7.3602324 183.33995 8024171
75.170982 7.1603851 183.59088 9734788
-121.09084 7.0952854 141.91342 9866624
-121.84734 7.2601018 141.64502 9866624
-122.65826 7.3479409 141.3215 7893349
-123.52406 7.3586779 140.94267 6183248
-124.39253 7.3696132 140.56276 7695969
-125.26373 7.3807473 140.18167 6249038
-126.19927 7.6286349 139.86746 9011573
78.036522 8.1893044 183.62193 10129030
77.365463 8.1882153 183.88406 9142393
-123.05325 8.0569391 141.43207 5920074
-123.76429 8.3022537 141.21613 8024676
-124.63486 8.3146362 140.83585 7367005
-125.50815 8.3272943 140.45447 6249038
-126.38428 8.3401766 140.07196 7432801
-127.21066 8.4315491 139.74298 6643546
-127.98707 8.6014881 139.46786 7038307
-124.5989 9.0225286 141.13666 8813936
-125.50393 9.1553764 140.78964 6249038
-126.51237 9.3378487 140.41681 6643541
-127.51296 9.3070765 139.96164 6775129
-128.39705 9.322053 139.57642 7958635
-129.23131 9.4159698 139.24504 8945272
-126.59789 10.005163 140.64752 7169629
-127.32178 10.25692 140.42845 6511698
-128.32687 10.22772 139.97195 7629412
-129.3166 10.294197 139.56075 8353135
-130.30603 10.36099 139.14323 9471617
-131.13882 10.568028 138.82225 8485238
-128.3961 10.995061 140.25009 7037274
-129.34941 11.25479 139.93279 9471101
-130.24239 11.273488 139.54517 8419444
-131.23239 11.244479 139.05458 8485238
-132.04535 11.549823 138.77394 9932169
-132.69621 11.5627 138.45361 11182489
-129.76479 11.986003 140.04329 7038307
-130.5536 12.164903 139.76538 7498601
-131.373 12.262582 139.40446 7761772
-132.2401 12.28051 138.97806 8879994
-133.10991 12.298812 138.55043 9997958
-133.82983 12.557315 138.29692 9208443
-131.56685 12.994394 139.60951 8485238
-132.50079 13.2585 139.25127 10590609
-133.37283 13.278301 138.82341 9406078
-134.24782 13.29855 138.39449 10984852
-135.07483 13.399524 138.02299 9208955
-133.35271 14.010552 139.13646 9998471
-134.31982 14.281305 138.80197 9537919
-135.20282 14.303802 138.37527 9209467
-136.14047 14.452578 137.99931 12695467
-137.30847 14.608423 137.51828 9077624
-135.5903 15.067622 138.7713 11182742
-136.25981 15.086141 138.45277 12169380
-137.30284 15.369682 138.17563 10327178
-138.20261 15.395595 137.7485 6248271
-139.10571 15.421953 137.3201 6445649
-140.16367 15.708887 137.03835 6905687
-140.87494 15.732888 136.74246 6510930
55.196815 -13.364777 179.68797 10129541
54.406376 -13.443536 179.93918 9537403
53.703152 -13.663805 179.95508 8682867
41.591805 -13.670293 176.78996 9209467
40.527382 -13.670778 177.03656 9274749
27.607582 -13.677704 173.64604 9735555
26.980576 -13.677998 173.74434 11380380
25.934776 -13.678487 173.90308 9867654
25.097523 -13.678881 174.02617 8092011
13.234868 -13.381457 171.4187 9340542
12.376367 -13.345895 171.0192 8550257
11.309918 -13.302185 170.52274 9471615
10.454568 -13.470631 170.01512 9997960
9.6173983 -13.233713 169.73444 9011065
55.994064 -12.526662 179.71355 9931904
55.368046 -12.532202 179.9897 9340022
54.71743 -12.765967 180.18605 9931904
12.093865 -12.755808 171.12111 9734531
11.119056 -12.469924 170.7666 9866373
10.270114 -12.437673 170.3703 9932166
9.425559 -12.40587 169.97603 8616307
8.5853605 -12.374748 169.58357 9011065
56.301872 -11.611998 179.94054 10655630
55.527496 -11.694489 180.25203 9208435
10.927762 -11.636461 171.0107 10984852
10.222825 -11.473854 170.73656 10524302
9.448596 -11.378216 170.40189 9340030
8.3924532 -11.547425 169.82445 10064008
7.3507013 -11.306983 169.41928 10261899
6.5221052 -11.07494 169.11339 9144191
57.171417 -10.347075 180.05705 10392718
56.329716 -10.533185 180.35736 9932166
8.9726686 -10.606077 170.48401 9077626
8.2025518 -10.51292 170.15038 9406847
7.3649168 -10.486772 169.75714 9998727
6.5314627 -10.460971 169.36572 10919829
5.6002378 -10.330295 168.96953 9603457
58.018379 -9.3087006 180.09354 9734788
57.180496 -9.3138714 180.4641 9866373
8.0042315 -9.8883171 170.30682 10261899
7.3791513 -9.6637354 170.0961 8354159
6.3918295 -9.3784685 169.73529 9340541
5.3895426 -9.4609098 169.2188 8550769
4.5434313 -9.5157709 168.78877 6182222
3.8598108 -9.3609505 168.52171 6839895
58.210278 -8.3403673 180.39345 10327181
57.413414 -8.4678516 180.69707 9208956
6.1426573 -8.5993471 169.9296 7958632
5.3141966 -8.3726063 169.62167 6510930
4.4846678 -8.5577755 169.14711 6313807
3.5742884 -8.4770412 168.74078 6313551
2.6397791 -8.308754 168.3582 8418671
1.8257799 -8.0856304 168.05579 9143680
59.064461 -7.4582896 180.36446 10261639
58.303421 -7.5082941 180.68301 11183001
5.114089 -7.7495284 169.77667 6510930
4.4255991 -7.596746 169.50641 7038298
3.4647589 -7.5072885 169.07935 7366751
2.4401102 -7.4854889 168.59412 8748150
1.6248198 -7.4683781 168.20804 9143680
0.81367588 -7.2474523 167.9062 8617337
59.169415 -6.5312352 180.6866 9932416
58.302235 -6.7670674 180.97839 10656398
3.1960726 -6.7472591 169.25653 8090986
2.4041109 -6.5400987 168.95834 9077117
1.5411463 -6.3835092 168.60553 8222580
0.56145 -6.4758716 168.09593 8617337
-0.39865968 -6.2035522 167.74297 10261133
-1.0031786 -5.9893084 167.53802 9735046
59.985329 -5.5209765 180.72569 9998215
59.261589 -5.7175951 180.96928 10064259
1.3253183 -5.513247 168.85298 8288116
0.40992072 -5.3964381 168.45869 8617080
-0.39990899 -5.3845496 168.07304 8617080
-1.4068518 -5.369915 167.59341 9142910
-2.2099848 -5.1542425 167.2932 7563619
60.989681 -4.1180291 180.83771 8880245
60.191341 -4.4901981 181.04433 10064007
59.354088 -4.9017038 181.25279 10656398
0.41017821 -4.7789721 168.7086 8090737
-0.40119264 -4.5625968 168.40483 7827566
-1.4101057 -4.55023 167.92319 9340545
-2.4137163 -4.5381193 167.44409 7958892
-3.1466513 -4.4613004 167.12166 7695461
-3.811368 -4.3176031 166.85918 8090219
61.230404 -3.2586722 181.07292 9143160
60.385616 -3.2605126 181.44772 10129545
-0.80702686 -3.9399626 168.461 7564651
-1.6150618 -3.7255852 168.15799 9537667
-2.4202757 -3.5119565 167.85605 7959408
-3.3710451 -3.4521084 167.42168 8879735
-4.2831964 -3.4952526 166.96434 8288110
-5.1452475 -3.215327 166.66176 8485745
61.974327 -2.3174312 181.11708 9406075
61.190006 -2.397234 181.43396 9406075
-2.6265001 -2.6866202 168.09045 8419702
-3.5091143 -2.5158136 167.73384 9735301
-4.4268637 -2.4688847 167.31018 8946552
-5.2208681 -2.4640629 166.9292 8090987
-6.1303148 -2.4177046 166.50931 9012090
62.748573 -1.1374284 181.24283 9210491
62.206833 -1.4213754 181.37057 9669760
61.422577 -1.6113188 181.64349 9406075
-3.835248 -1.854257 167.84422 8814966
-4.5017748 -1.7138284 167.57951 8814966
-5.3837156 -1.3841232 167.28752 9538945
-6.3362741 -1.4911617 166.78479 8815226
-7.2093306 -1.4295896 166.38858 10656916
-8.0974512 -1.1200687 166.08546 9472900
63.754871 -0.1901183 181.32321 9932416
63.067482 -0.42731103 181.45854 9209463
62.273197 -0.50681406 181.75478 11578012
-5.8409491 -0.60982138 167.38022 8681843
-6.4348669 -0.6091606 167.09407 7039331
-7.2310991 -0.40243858 166.87645 10985881
-8.2136431 -0.40196633 166.40294 8880764
-9.1915503 -0.40150821 165.93173 8024686
-10.174321 -0.1966428 165.62421 8813685
64.80365 0.76173002 181.51102 9208435
64.121841 0.52344364 181.6692 9932416
63.329021 0.44384316 181.97675 10985620
-8.4355936 0.21550651 166.81206 9932169
-9.2914076 0.35216948 166.51419 9932169
-10.205794 0.41957307 166.13037 10063754
-11.177913 0.41801775 165.66103 9538176
-12.05477 0.51905572 165.32425 10196106
-12.928983 0.61989522 164.98874 10459278
70.925278 1.7491566 183.19594 8945527
66.03138 1.2449099 182.17714 8551539
-13.39207 1.0334922 165.77071 10590609
-14.162818 1.0311842 165.3931 11183002
-15.122697 1.0282515 164.923 9208443
-16.07794 1.0253881 164.45531 13287610
-107.24464 1.5218458 145.80823 9735812
-108.06164 1.5231175 145.4467 8748405
-109.08527 1.5247061 144.99387 9603457
-109.90623 1.5259923 144.63065 7960176
-110.93528 1.5276945 144.17545 9340801
71.687927 2.7237511 183.19992 9142393
71.005516 2.3584216 183.40396 9011063
-108.16258 1.9725561 145.58214 8748405
-109.1254 2.2449896 145.26472 9603200
-110.03878 2.4925728 144.9593 8484978
-110.93698 2.430702 144.53656 8551799
-111.76357 2.4331851 144.17133 8748920
-112.7804 2.7082553 143.83102 9603457
-113.73782 2.8932664 143.48106 9010808
71.918861 3.5063272 183.40076 9471101
71.118179 3.2135992 183.6958 9142393
-110.31896 3.333576 145.17213 8089963
-111.19772 3.5643196 144.87531 8222575
-112.0266 3.5681267 144.5096 9340285
-112.85748 3.5720325 144.14305 9208955
-113.80482 3.5309896 143.70692 8748406
-114.78889 3.8096983 143.38261 7827308
72.703621 4.5192704 183.40898 9142650
71.975578 4.3569598 183.71982 9142393
-112.28967 4.4045486 144.72823 8814453
-113.07068 4.485321 144.41458 9340285
-113.90546 4.4904499 144.04681 10524815
-114.74235 4.4957018 143.67812 7827049
-115.71857 4.547894 143.26654 8813430
-116.68864 4.7380185 142.91298 11182489
73.565041 5.6669664 183.43266 9734788
72.895576 5.4220247 183.67931 9668993
72.226128 5.1769843 183.92587 9208443
-113.43993 5.1739821 144.52698 9142907
-114.17323 5.3324451 144.2657 8418928
-114.9603 5.414989 143.95027 8616307
-115.80141 5.4215641 143.58063 9668737
-116.76043 5.3830795 143.14073 11182489
-117.73055 5.5525837 142.77963 9340286
73.854851 6.4940233 183.72911 8945272
73.102791 6.3292265 183.98721 11182486
-115.12489 6.106791 144.15573 8616307
-116.02299 6.345849 143.85457 9537923
-116.86831 6.3538222 143.48369 7958633
-117.71589 6.3619437 143.11183 7563619
-118.6822 6.324995 142.66937 9208701
-119.68938 6.6138458 142.33989 7893864
74.836159 7.5391665 184.03549 8090737
74.094872 7.162837 184.11382 8089962
-117.03654 7.0503726 143.68958 8748150
-117.94227 7.2926021 143.38623 7038302
-118.79417 7.3022208 143.01314 8354162
-119.64846 7.3120394 142.63898 9274751
-120.50526 7.3220301 142.26385 7762020
-121.42318 7.5667281 141.9561 9866624
76.694649 8.1872272 184.14633 9142393
75.800011 8.1860399 184.49529 7564651
-118.32562 7.9957051 143.49953 7762282
-119.07554 8.1608925 143.23416 9011579
-119.87971 8.2492437 142.91385 10656146
-120.73843 8.2606354 142.53842 8946037
-121.59972 8.2722235 142.16193 10853262
-122.46356 8.2840357 141.78442 7893349
-123.1729 8.5292006 141.56915 8089955
-120.26852 8.9577694 143.02693 11906725
-120.97266 9.2032385 142.81415 9341054
-121.89521 9.4531174 142.50644 10985105
-122.76157 9.4667282 142.12849 9208693
-123.57034 9.2430229 141.68057 9997695
-124.38916 9.3348675 141.35519 10260867
-125.15781 9.5051441 141.08353 7367005
-123.00106 10.417022 142.40497 9142643
-123.79608 10.499149 142.08626 9734780
-124.74608 10.448355 141.64537 9800575
-125.5541 10.367677 141.25536 9734786
-126.38737 10.319237 140.86711 7564387
-124.77168 11.401519 142.0177 10787727
-125.76217 11.516974 141.62581 9208953
-126.67434 11.508302 141.21864 7432544
-127.56608 11.362145 140.76523 7300445
-128.52295 11.477671 140.3882 7629154
-125.8969 12.382214 141.9144 11379607
-126.6743 12.559687 141.6418 8682611
-127.60232 12.516258 141.21367 8155497
-128.5547 12.441401 140.76205 8615791
-129.44661 12.461714 140.37558 8813681
-130.34142 12.482309 139.98781 7038307
-127.91859 13.392137 141.42625 9536635
-128.70367 13.572805 141.15152 9997697
-129.55052 13.529305 140.75925 7762019
-130.40747 13.291707 140.28357 6840920
-131.26257 13.47395 139.95969 11379356
-131.91347 13.488577 139.64006 12433069
-129.75182 14.410222 141.04529 8880499
-130.68239 14.272671 140.5787 7038297
-131.47099 14.211259 140.18141 9669762
-132.3446 14.232383 139.75845 11972262
-133.3082 14.502655 139.42537 11511711
-131.83017 14.968017 140.56383 7367005
-132.71005 14.990766 140.1438 11511711
-133.5145 15.264693 139.9776 8813941
-134.40073 15.288661 139.55551 8024681
-135.19002 15.394798 139.25256 9143418
-136.32925 15.596038 138.85657 10788240
53.834023 -13.22977 180.39438 8682867
53.130032 -13.45014 180.40915 8682867
52.185463 -13.664483 180.4007 9866629
51.5341 -13.664775 180.58786 10261132
39.461563 -13.671267 177.27722 9537921
38.39426 -13.671756 177.51097 11972517
37.539452 -13.67215 177.69389 10656657
24.678627 -13.679079 174.08594 8815222
23.840418 -13.679473 174.20218 9077882
22.791906 -13.679968 174.34247 9734531
22.162472 -13.680266 174.42357 10261132
17.377415 -13.557103 173.34489 10459281
16.724604 -13.319385 173.12607 10788246
15.846539 -13.282459 172.71771 8814456
14.973418 -13.245906 172.31149 9406847
14.105088 -13.209923 171.90742 9275005
54.765778 -12.309816 180.3461 9931904
54.114494 -12.543732 180.54254 9997699
53.339451 -12.627274 180.854 8682867
15.870435 -12.655704 172.98216 9143675
15.003465 -12.412135 172.66248 8748917
14.133258 -12.37838 172.25662 8748917
13.170756 -12.48975 171.74763 10261131
12.19468 -12.235276 171.37978 10195082
54.986038 -11.546676 180.55162 9208435
54.079811 -11.676507 180.90298 9011575
14.807563 -11.776955 172.82437 8090987
13.944304 -11.536306 172.50536 8354159
12.990659 -11.543837 172.04254 10195338
12.002126 -11.467063 171.597 9668738
11.219384 -11.37051 171.25859 10326666
10.512734 -11.208171 170.98346 10984852
55.823029 -10.242188 180.69839 9471871
55.169571 -10.476396 180.89581 8288366
54.368313 -10.788687 181.1279 8880246
13.53073 -10.894325 172.56499 10129545
12.813781 -10.730892 172.28539 10261131
12.03194 -10.426819 172.03116 9668994
11.214646 -10.484002 171.61409 11379353
10.315574 -10.579992 171.14188 9998215
9.5391283 -10.48628 170.80545 7695979
56.131947 -9.320673 180.92764 9932166
55.353817 -9.4027166 181.24098 9208699
10.984082 -9.4768696 171.90938 12563624
10.073562 -9.5859671 171.42639 9208958
9.0666151 -9.505002 170.97365 8485234
8.2661772 -9.3995771 170.63034 9867142
7.3898458 -9.0447149 170.3511 8090987
56.862053 -8.3941307 180.97153 9932166
56.100437 -8.4449263 181.29004 9932166
9.934598 -8.6967373 171.71829 9537922
9.0888319 -8.4663057 171.40352 11051159
8.2425222 -8.4449635 171.00417 10722194
7.2754984 -8.3794546 170.56441 8814197
6.3552485 -8.3293571 170.14102 7432288
57.829994 -7.2328973 181.00314 10656398
57.052231 -7.4220366 181.27371 10196106
56.306557 -7.70402 181.49315 9932934
8.8897696 -7.8359776 171.56194 11380380
8.04737 -7.6080694 171.24783 10656657
7.1201468 -7.6287956 170.79251 8616818
6.1574144 -7.565846 170.35381 7234653
5.3943377 -7.4801846 170.02046 6510930
4.7041998 -7.3276358 169.74928 6511954
58.056145 -6.4586844 181.21051 10393225
57.143719 -6.5867052 181.56534 10788243
7.636529 -6.9736376 171.30614 8682867
6.9370432 -6.8204269 171.03069 7761765
6.172267 -6.5276117 170.78032 6314575
5.3369875 -6.511837 170.38388 6380112
4.2988977 -6.4924798 169.89116 7893607
3.3372622 -6.1995764 169.5457 10261899
2.6527224 -6.0501242 169.27597 10261132
58.879723 -5.3697333 181.27748 10656398
58.010254 -5.6059666 181.57016 9932675
5.0573072 -5.5089955 170.65465 7235677
4.1014204 -5.4523826 170.21648 8485744
3.274251 -5.4396043 169.82269 11051416
2.4510374 -5.4270735 169.43076 9932167
1.6323843 -5.2084022 169.12442 8353134
58.999863 -4.3017292 181.64906 10590096
58.245972 -4.7495952 181.80603 9866627
4.1072359 -4.8283629 170.47173 8880502
3.2802896 -4.6090465 170.16159 10195595
2.2500505 -4.5958591 169.67009 9208443
1.2254362 -4.5828691 169.18118 7169119
0.41038612 -4.3663454 168.8756 7564651
59.830788 -3.1835253 181.72499 9866373
59.103531 -3.3809116 181.96964 10458510
3.0778799 -3.9819467 170.31766 9011064
2.1169977 -3.693877 169.97078 7497825
1.2279043 -3.5462418 169.60172 6643031
0.41070083 -3.5384245 169.21069 7959149
-0.54769421 -3.4113519 168.7999 8222323
-1.617835 -3.1070218 168.40686 10261132
60.944359 -2.0836511 181.668 10129539
60.070267 -2.3206353 181.96217 9471871
59.196243 -2.55792 182.25616 10129545
1.0247545 -2.7123368 169.84103 7038307
0.2887049 -2.4572802 169.5892 8682868
-0.68864918 -2.5340636 169.08679 8880248
-1.6205549 -2.4865079 168.65659 8617080
-2.3602495 -2.4129503 168.32957 8090994
-3.030839 -2.2712245 168.06345 10261132
60.947052 -1.3283616 181.96761 9077624
60.02774 -1.4555314 182.32556 8287853
-0.20156381 -1.8710824 169.58992 9143161
-0.81273365 -1.6598178 169.38062 8814454
-1.6251307 -1.4483346 169.07434 7564649
-2.5847483 -1.3931874 168.6338 7695980
-3.5054579 -1.4419748 168.17 8617076
-4.3749475 -1.1635866 167.86331 8551794
61.740311 -0.34918785 182.10324 10986132
60.999603 -0.50775224 182.31984 8617843
-1.8317823 -0.61433166 169.31207 7762027
-2.7427607 -0.50916356 168.95618 7827819
-3.6503458 -0.40436849 168.60188 8090987
-4.4520407 -0.40392634 168.21562 9144187
-5.3707209 -0.36212066 167.80614 9604738
-6.4476576 -0.19651441 167.42001 8090991
62.79261 0.60266644 182.31801 10986132
61.998726 0.52304888 182.62608 11841184
-4.8667974 0.21954529 168.53517 9538945
-5.7361422 0.35740051 168.23065 9735299
-6.4678659 0.42570847 167.93504 9603457
-7.4584742 0.42404255 167.45673 10525330
-8.4529276 0.62935221 167.14952 11379356
-9.0426092 0.6280154 166.86484 9932169
69.869095 1.7498399 183.74361 9735555
69.023155 1.7504925 184.1823 9011832
64.969009 1.2450978 182.66902 8815227
64.118385 1.2452909 183.06306 7894383
-9.6888475 1.045262 167.58591 9932169
-10.474156 1.0427123 167.20076 9931910
-11.451377 1.039603 166.72174 9077112
-12.424052 1.0365463 166.245 10459278
-13.005401 1.0347133 165.96007 10459278
-102.78171 1.5158663 147.7831 7959144
-103.38743 1.5165743 147.51501 8024681
-104.39902 1.5179197 147.06731 9012603
-105.41296 1.5192802 146.6187 9012603
-106.22595 1.520421 146.25891 7893871
-106.83685 1.521276 145.98868 9735812
70.630714 2.7250669 183.74838 8682867
69.752357 2.48194 184.10399 9406590
-103.48345 1.9633987 147.65152 8090989
-104.34177 2.1889033 147.36162 8091249
-105.3429 2.359412 146.98643 8881018
-106.35092 2.4822845 146.58904 8419701
-107.24061 2.4204226 146.17009 9011578
-108.10928 2.647805 145.87634 7892840
-108.98075 2.8761024 145.58174 9142650
70.648521 3.5085056 184.06007 9603713
69.878975 3.4609067 184.43935 10854036
-105.60255 3.315289 147.25438 9736836
-106.31574 3.4683626 146.99982 8682616
-107.28672 3.5474524 146.60129 8879995
-108.31184 3.5516989 146.14882 8879478
-109.13404 3.5551846 145.78593 8089963
-109.90655 3.6341119 145.47533 8089963
-110.62928 3.7885802 145.21706 8089963
71.524307 4.6859641 184.08847 9208443
70.763992 4.3925114 184.36237 9472128
-107.43734 4.2266121 146.80673 9537667
-108.3817 4.4130106 146.46303 10590092
-109.33915 4.4636273 146.05913 12432039
-110.16499 4.4682121 145.6951 9142650
-111.10657 4.4280319 145.26181 8945272
-111.87511 4.7061362 145.03275 9340286
71.755959 5.4745708 184.29143 9603200
70.984505 5.4274406 184.67198 10261646
-109.41618 5.2608104 146.34445 12695467
-110.37268 5.3813276 145.96896 10063495
-111.20222 5.3871107 145.60381 9537409
-112.03375 5.3930659 145.23778 9537409
-113.00328 5.4460263 144.82948 8616819
-113.966 5.6368146 144.47952 8089963
72.565788 6.4969215 184.35751 12498344
71.762436 6.4159055 184.70352 9208443
-110.73647 6.0700674 146.0838 8089963
-111.4127 6.3050256 145.87856 8945272
-112.24617 6.3120556 145.51239 8945272
-113.08168 6.319283 145.14542 8419187
-114.0344 6.281558 144.70868 9340542
-115.02451 6.5672779 144.3855 8748149
73.67617 7.5000033 184.56805 9669252
72.86451 7.4181566 184.90013 12498347
-112.40656 7.003684 145.7197 9340289
-113.37214 7.3827834 145.44498 9932169
-114.1918 7.4838901 145.12291 9274750
-114.97884 7.2604728 144.68474 9340286
-115.93842 7.2242837 144.24551 9012350
-116.93686 7.5136251 143.92004 9142908
74.661659 8.1825743 184.88077 7564651
73.747734 8.179637 185.17981 10261132
-114.62141 8.4161243 145.30804 8089963
-115.27493 8.3312902 144.98465 9538180
-116.10099 8.4345732 144.66063 9735559
-116.9495 8.4452457 144.28944 10129802
-117.89165 8.4572668 143.87737 9406334
-118.95325 8.8220787 143.55438 9011579
-116.53692 9.3736038 144.84566 9012350
-117.23161 9.6177788 144.63651 9998211
-118.08483 9.6302719 144.26398 9274487
-118.94041 9.6430645 143.89046 9735043
-119.90298 9.5009117 143.40732 9603971
-120.71748 9.9058771 143.20984 9998728
-121.36481 9.9163141 142.92755 10591121
-118.25626 10.337846 144.47281 8681835
-119.17115 10.588471 144.16888 8419953
-120.03117 10.602836 143.7941 9933191
-120.89373 10.6175 143.41826 8683124
-121.75872 10.632486 143.0415 8420208
-122.57394 10.725882 142.71837 8551535
-119.55997 11.303922 144.28477 9143417
-120.31742 11.475772 144.01874 10064777
-121.12949 11.569879 143.69724 9998984
-121.99653 11.58624 143.32013 7631203
-122.8662 11.602975 142.94197 10525071
-123.73858 11.619956 142.56281 10787211
-124.67469 11.877371 142.25209 10524556
-121.5238 12.291177 143.81303 10854036
-122.28806 12.465824 143.54514 9143930
-123.10715 12.562451 143.22153 10854036
-123.98154 12.581008 142.842 12037537
-124.85871 12.599839 142.46146 9275003
-125.6859 12.69802 142.13486 9735297
-126.46273 12.875626 141.86255 6511954
-123.06991 13.280068 143.52682 9538688
-123.9759 13.42049 143.1824 11182228
-124.98521 13.612128 142.81285 9274746
-125.98698 13.587589 142.35968 9340538
-126.87193 13.608743 141.97656 6775126
-127.70679 13.709676 141.64775 9011320
-128.49118 13.890445 141.37338 10851980
-125.06977 14.289404 143.04803 11576729
-125.73182 14.305731 142.76157 8945780
-126.85406 14.532764 142.43816 7498593
-127.86237 14.608915 142.04889 9603458
-128.76175 14.633184 141.67061 11051409
-129.57822 14.905685 141.5385 10525065
-130.4852 14.931277 141.15887 8090984
-128.95175 15.389754 142.22237 10261895
-129.85789 15.415847 141.84355 9735550
-130.76736 15.442337 141.46356 9801086
-131.50356 15.295799 141.00655 6775125
-132.55225 15.491675 140.65341 8090473
-136.14435 16.178156 140.68599 7761253
-136.8679 16.203506 140.41533 10129801
-137.59398 16.229156 140.14461 10064006
52.579323 -13.242701 180.9471 9537662
51.951057 -13.249466 181.22388 9800582
51.028542 -13.528822 181.01526 9405819
50.011082 -13.665458 181.01506 9866368
49.357315 -13.665751 181.19444 10063491
37.111839 -13.672347 177.78362 10656657
36.255577 -13.672739 177.95973 9472383
35.398739 -13.673136 178.13231 8419952
21.532682 -13.680566 174.50224 9734531
20.720819 -13.480684 174.84277 9208955
19.837395 -13.45294 174.57277 8551281
18.809761 -13.366351 174.11232 8682867
17.829193 -13.366532 173.63951 10459281
52.796589 -12.480526 181.15375 9208954
52.020004 -12.564467 181.46568 9077374
20.092836 -12.827704 174.94823 9932166
19.350283 -12.655684 174.65973 9603457
18.533289 -12.551927 174.30771 9735811
17.64332 -12.516233 173.8931 11709602
16.758379 -12.48106 173.48067 10064524
15.886426 -12.236969 173.15883 9406847
53.605328 -11.406249 181.22151 8682867
52.952255 -11.640991 181.41858 9274747
52.322338 -11.646856 181.69632 8879995
18.561651 -11.91787 174.57721 10788499
17.639959 -11.544263 174.28372 11512223
16.800797 -11.428994 173.92569 10591377
15.959292 -11.482799 173.49834 9538433
15.108918 -11.508364 173.07805 8419952
14.386117 -11.342767 172.79649 8090987
54.588627 -10.021745 181.33495 8682867
53.877998 -10.394808 181.50258 9669250
53.102364 -10.584929 181.77187 10129545
16.400267 -10.358253 174.16473 10065291
15.659686 -10.474782 173.76068 8946553
14.725244 -10.574368 173.26999 8419696
13.807807 -10.400296 172.89798 9406078
12.975057 -10.178198 172.58618 10589840
54.809643 -9.2530012 181.54259 10129545
53.898983 -9.3824148 181.89604 9932422
15.321355 -9.6893253 173.91457 8814971
14.670358 -9.4583569 173.69395 9077627
13.796088 -9.4326792 173.28284 10261131
12.926599 -9.4073248 172.87387 10129545
12.061812 -9.3823919 172.46704 8814453
11.421752 -9.1549177 172.25034 9537920
55.625351 -8.1705875 181.61041 9932166
54.847507 -8.3602886 181.88086 10261131
54.102093 -8.6426115 182.10001 10458510
13.748658 -8.6577568 173.57275 10589840
12.952458 -8.5661564 173.22589 10261131
11.870187 -8.5378046 172.7155 8946039
10.794631 -8.5099087 172.20827 9209211
9.9444189 -8.2792044 171.89151 9537922
55.848324 -7.3976111 181.81877 9406846
55.066895 -7.4792795 182.13377 9209211
12.537335 -7.9228005 173.28581 9077625
11.637738 -7.5638709 172.99713 9669506
10.821425 -7.4609838 172.64507 9077625
9.9640455 -7.4417219 172.23932 8945271
9.1554556 -7.3400946 171.89046 9537921
8.3386049 -7.1274128 171.58252 10064265
56.668076 -6.3101282 181.88695 11380380
55.798676 -6.5466938 182.1794 10327692
10.627584 -6.6145062 172.89398 9931910
9.9887629 -6.3910809 172.67627 9668738
8.920785 -6.3707476 172.16937 9340030
7.8592882 -6.3507943 171.66547 9011832
7.0864019 -6.2668724 171.32666 6511954
56.833282 -5.5640707 182.1102 11051415
56.030899 -5.6918244 182.41618 10985622
9.3607645 -5.7473726 172.63374 9931910
8.7249479 -5.5258708 172.41667 8090219
