# .PCD v0.7 - Point Cloud Data file format
VERSION 0.7
FIELDS x y z rgb
SIZE 4 4 4 4
TYPE F F F U
COUNT 1 1 1 1
WIDTH 1229
HEIGHT 1
VIEWPOINT 0 0 0 1 0 0 0
POINTS 1229
DATA ascii
153.11818 -28.819683 97.428085 9143675
152.52628 -28.818663 98.346054 9931910
151.92921 -28.817608 99.260574 10392461
151.44743 -28.816772 99.989532 10852496
150.84023 -28.815744 100.89738 10851980
150.35088 -28.81493 101.62122 9405304
147.08789 -28.799509 111.20908 8090479
146.41354 -28.798634 112.09073 7038307
145.87004 -28.797945 112.79298 10195339
145.70494 -28.637232 113.793 8879991
145.25581 -28.449463 114.85658 9011065
144.56306 -28.422567 115.44415 8813686
182.53329 -27.481131 25.663284 8814715
182.51534 -27.723749 26.333107 8814715
182.59686 -27.803198 27.377342 9538436
145.54279 -27.862173 114.89427 8550514
144.84618 -27.592394 115.59898 8418928
144.12558 -27.509937 116.23561 9340030
182.79239 -26.741493 25.549591 9274495
182.84369 -26.841553 26.379692 8485751
182.8257 -27.084688 27.051243 8814715
144.98061 -26.56809 115.96872 8682100
144.26703 -26.527887 116.57953 10589839
143.81372 -26.153305 117.13162 10064003
183.11951 -25.594172 24.666599 9800582
183.16878 -25.708261 25.526466 9273981
183.13812 -26.028852 26.346474 7892843
144.61745 -25.551147 116.74789 9800835
143.83076 -25.480043 117.43388 9143158
143.37334 -25.240673 117.92587 6511954
183.48871 -24.32852 23.771973 8419187
183.46405 -24.615614 24.53257 8945274
183.54591 -24.672798 25.50301 12432045
144.70216 -24.683315 117.08542 7761509
144.08507 -24.588488 117.6419 7367006
143.46852 -24.494295 118.19753 8287850
183.71387 -23.657654 23.575954 8616307
183.78862 -23.75997 24.63504 10129290
144.26053 -23.767679 117.882 7695714
143.64302 -23.674004 118.43835 8682610
143.02605 -23.580933 118.99383 8814456
183.99695 -22.635784 22.711922 9406079
184.03618 -22.816259 23.7066 9735044
184.04933 -23.015236 24.519024 11379356
144.35683 -23.018269 118.15431 8090995
143.90024 -22.643681 118.70911 8683130
143.26292 -22.535553 119.28859 9340546
142.7403 -22.5215 119.72878 11906725
184.27983 -21.613815 21.846085 9537667
184.28598 -21.857519 22.74691 8748407
184.29184 -22.102116 23.648579 10064011
143.50018 -21.487667 119.58415 9143424
142.70309 -21.561178 120.21087 10985111
184.60309 -20.480114 20.983147 10853012
184.62141 -20.655966 21.757202 8287859
184.59154 -21.008608 22.693634 7235428
143.59506 -20.735487 119.85896 9143424
143.13377 -20.49749 120.35345 10524559
142.34265 -20.433298 121.03986 12235690
184.92422 -19.345415 20.117786 11182998
184.91003 -19.582342 20.791981 10524047
185.00105 -19.600822 21.704128 8879995
143.1485 -19.817848 120.66058 9406334
142.56912 -19.623064 121.23269 11183001
141.94997 -19.488337 121.80972 8748917
185.14903 -18.670038 19.916317 11182999
185.24045 -18.687113 20.828312 9735558
185.22627 -18.924465 21.504051 8287859
142.85953 -18.75181 121.40125 8353903
142.06325 -18.659132 122.10532 8419952
141.42595 -18.419159 122.74673 9341054
198.74287 -18.2465 -11.171551 9997959
198.28664 -18.200951 -10.429928 9208699
197.76762 -18.150095 -9.6894569 6709334
195.07918 -17.391104 -2.0561867 9471355
194.19386 -17.312105 -1.1155128 10326408
185.42313 -17.684158 19.117908 13683130
185.4798 -17.773357 19.951069 12104101
185.54877 -17.785421 20.636059 8090992
142.28304 -17.86824 122.29466 8419694
141.55598 -17.694717 122.97932 10459017
140.9756 -17.50202 123.55141 10459273
191.97977 -16.637634 5.5842476 8287856
191.28413 -16.579788 6.2523003 8287856
190.59123 -16.522343 6.9162025 7038307
185.73427 -16.623955 18.396629 13024949
185.68916 -16.902233 18.934082 12367276
185.77641 -16.94812 19.906803 8090992
142.50327 -17.075449 122.48447 8485229
141.86711 -16.664528 123.20534 8485229
141.10948 -16.50293 123.90977 8090727
140.64799 -16.130667 124.46754 6511954
187.54147 -15.353679 14.260273 10459278
187.3997 -15.347575 15.382835 9209211
187.25708 -15.341876 16.504742 7564642
186.28094 -15.732834 17.09428 8946044
186.09418 -15.956361 18.206066 8880509
186.07231 -16.037464 19.032631 8748923
186.04031 -16.195101 19.783466 5920074
141.50346 -15.510046 124.13586 6709335
140.72156 -15.452961 124.83564 7038302
140.32143 -15.224299 125.38969 7564651
141.10036 -14.789629 125.17298 9998220
140.65668 -14.514728 125.81232 9472133
139.92531 -14.474863 126.45836 9537152
139.93607 -13.928634 128.11429 7038307
139.41661 -13.923033 128.56744 8090992
138.72409 -13.915818 129.17073 9341055
135.40283 -13.75722 139.19304 11906981
134.92326 -13.51816 139.70662 13486525
134.20021 -13.42753 140.1913 12367274
134.91046 -12.80887 140.03102 15196110
134.21693 -12.607818 140.52486 13353909
133.79465 -12.317067 140.89607 8682867
134.5051 -11.695741 140.73711 13353909
133.76898 -11.60562 141.20958 9209211
134.56905 -10.904564 141.03108 13353909
134.00961 -10.658936 141.46442 9209211
133.39047 -10.650631 141.83351 8682867
134.16188 -9.787796 141.73982 8748149
133.42401 -9.6993103 142.21257 8089963
132.86449 -9.4546356 142.64555 8287341
133.66447 -8.7477226 142.46962 8813686
132.92616 -8.6602898 142.94223 9076857
133.69823 -7.7911487 142.85081 9142651
133.13681 -7.546165 143.28499 9537408
132.57555 -7.3018489 143.71889 10853012
133.3481 -6.4284358 143.62895 10458766
132.60757 -6.3426967 144.10213 9997959
132.04578 -6.0985465 144.53618 9208699
132.84729 -5.3821507 144.36339 9208699
132.10623 -5.2973952 144.83647 9208699
132.87956 -4.4173422 144.74886 9208699
132.25603 -4.4141936 145.11833 7564386
131.69276 -4.1702199 145.55324 9143422
132.49559 -3.4480677 145.38205 7039331
131.75279 -3.3646307 145.85556 8156269
132.46729 -2.7207823 145.70364 8091760
131.90236 -2.4763832 146.13972 8156783
131.33763 -2.2323852 146.57545 11905692
132.05225 -1.5854341 146.42479 8156269
131.30807 -1.5031483 146.8987 9011063
131.66057 -0.57749724 147.07982 7893096
130.92171 -0.52836621 147.53673 10261132
131.93687 0.20459318 147.24651 7761509
131.17253 0.44914269 147.82014 8748405
130.41338 0.6932106 148.39903 6511954
131.51686 1.1867104 148.21007 6511954
130.78108 1.3094755 148.81917 6643542
130.24992 1.6802326 149.66426 9406078
130.04141 2.1820068 150.89015 10590091
129.55217 2.1795478 151.05623 8089963
129.03706 2.682126 152.30505 8089963
165.22903 -32.558796 69.040497 8617335
164.94839 -32.568436 69.857597 8618105
164.5262 -32.65477 71.00576 8420983
164.24483 -32.595558 71.902504 9867144
163.9283 -32.600983 72.706009 9932678
163.4872 -32.512394 73.532379 9603969
162.95976 -32.565777 74.397713 9011832
167.82693 -31.222628 62.882843 6510930
167.61816 -31.225542 63.495403 7760997
167.33952 -31.229979 64.312355 8353908
166.91833 -31.451101 65.305611 12037794
166.56918 -31.458731 66.32711 8682867
166.21727 -31.680157 67.115639 10393997
165.86711 -31.689856 68.137619 9604225
165.51634 -31.700562 69.160225 11576988
165.23528 -31.709951 69.978783 9012606
164.91887 -31.668316 70.959244 7960177
164.60225 -31.52154 72.05864 10853012
164.28526 -31.526783 72.864037 9274751
163.686 -31.5986 73.846962 8880246
163.13553 -31.70359 74.714874 9142906
162.70319 -31.689316 75.465981 8814713
162.23335 -31.457945 76.436859 10788502
161.76323 -31.227636 77.407654 10261644
161.43887 -31.218775 77.969673 8616563
169.54787 -30.361702 58.916317 8749434
169.2002 -30.362272 59.938431 7631211
168.83691 -30.504467 60.802074 9538691
168.55086 -30.576723 61.540295 7169890
168.20215 -30.580088 62.562096 6905688
167.85284 -30.584364 63.584057 6774102
167.57291 -30.5886 64.401817 7168861
167.22235 -30.594759 65.424271 10459278
166.87112 -30.60187 66.447006 9998727
166.5896 -30.608334 67.265564 10459278
166.23697 -30.617336 68.289177 10524558
165.88367 -30.627302 69.313324 14142655
165.60039 -30.63604 70.133041 9603201
165.24554 -30.647926 71.158325 8945787
164.81708 -30.875954 72.152473 10261133
164.49992 -30.881119 72.959015 8617080
164.03561 -30.647507 73.936684 8551027
163.49632 -30.629711 74.879898 9208443
163.06496 -30.616255 75.63356 10788244
162.52576 -30.600348 76.574524 11117723
161.98659 -30.585438 77.51445 10261643
161.55516 -30.574259 78.265564 8814198
161.12375 -30.563732 79.016113 9735812
160.67149 -30.339989 79.996735 9604226
160.24097 -30.331171 80.746986 10261382
173.36383 -29.191408 50.816692 9538176
173.01003 -29.328096 51.693447 9801348
172.70033 -29.350502 52.567863 9735043
172.26332 -29.418808 53.523067 10064264
171.87413 -29.495735 54.491783 10590864
171.53632 -29.571363 55.248642 7827819
171.07736 -29.676601 56.172951 7761256
170.61121 -29.755281 57.224007 7695204
170.33347 -29.754311 58.044071 10129289
169.98566 -29.753977 59.068932 10722707
169.63716 -29.754488 60.093681 7631211
169.35782 -29.755619 60.913464 9538691
169.00784 -29.757963 61.938156 7828333
168.65724 -29.761175 62.962841 6510930
168.23122 -29.967514 63.727642 6510930
167.94977 -29.971399 64.546936 7037274
167.59715 -29.977207 65.571198 8879990
167.24379 -29.983917 66.59568 8682867
167.03128 -29.988384 67.210564 8682867
163.3176 -29.993814 75.990051 10788244
162.99486 -29.984741 76.556496 12959925
162.45677 -29.970421 77.499794 9735299
162.058 -29.753792 78.509781 9406335
161.62679 -29.743832 79.263405 10261899
161.08755 -29.732239 80.204475 9867140
160.54808 -29.72154 81.144714 10129796
160.11617 -29.713713 81.896164 10392716
159.71701 -29.56357 82.969528 7958636
159.44273 -29.314518 83.98793 8090736
158.95691 -29.369406 84.629585 9603458
158.41422 -29.484451 85.157471 9340286
182.43367 -28.613653 28.641518 9800323
182.42567 -28.708624 29.465374 12300195
182.29744 -28.759577 30.480095 9800066
181.91217 -28.916193 31.630993 11904668
181.7952 -28.914984 32.286602 10261132
176.68033 -28.901489 42.234066 9208443
176.42007 -28.899637 43.294827 8089963
176.15384 -28.897797 44.354061 10063494
175.9361 -28.896336 45.20026 10984337
175.65802 -28.894518 46.256439 9142909
175.37393 -28.892714 47.311085 8287859
175.20044 -28.891638 47.943005 8682608
173.55667 -29.174606 49.741665 7893352
159.17795 -29.129614 85.076614 10261132
158.74838 -29.125782 85.831886 8419696
158.20999 -29.121496 86.77494 9142651
157.77785 -29.118639 87.528481 8879995
157.34456 -29.116236 88.281258 8090995
156.80125 -29.113884 89.221054 8485752
156.36537 -29.112398 89.972168 10590607
156.66264 -28.826626 91.658661 8814969
156.32893 -28.826025 92.222633 7894382
155.76833 -28.824867 93.159988 8683898
155.20241 -28.823723 94.094147 9867657
154.74547 -28.822821 94.838905 11051416
154.16913 -28.821705 95.766647 12498089
153.58752 -28.820606 96.691193 9933191
149.9926 -28.803556 107.28315 9209467
149.60255 -28.802984 107.82295 10064519
148.94821 -28.80205 108.7195 12169380
148.28877 -28.801126 109.61235 8288371
147.75728 -28.800402 110.32372 8617335
148.0045 -28.506519 111.90582 7564392
147.57159 -28.500971 112.41838 7827564
146.8502 -28.492588 113.27201 8682616
146.27315 -28.486521 113.95454 9537667
182.7467 -27.557041 27.939205 10064779
182.72829 -27.801579 28.612057 9669253
182.81346 -27.833883 29.527443 10392717
147.69421 -27.907 112.60564 8156272
147.12544 -27.658424 113.41383 7893096
146.45001 -27.52965 114.25435 6511954
145.83063 -27.273939 114.93192 9274237
183.02011 -26.736219 27.680172 8222579
183.1033 -26.782381 28.624718 8682872
183.03975 -27.161879 29.337437 9143166
146.76537 -26.524063 114.45216 8090471
146.00954 -26.455503 115.16812 10326922
145.55142 -26.213678 115.66164 8089963
183.34612 -25.600206 26.826496 8156013
183.41356 -25.688635 27.768818 7762029
183.44955 -25.80085 28.497181 8090736
146.36026 -25.611601 115.27368 11511451
145.57056 -25.538668 115.96311 7169629
145.11198 -25.297644 116.45673 7761509
183.7068 -24.392313 26.051067 12432045
183.6817 -24.68141 26.814766 8353393
183.69385 -24.883917 27.62965 8814203
146.35298 -24.662832 115.72563 9011576
145.82852 -24.645161 116.16895 7761509
145.20978 -24.549498 116.72714 7761509
183.92793 -23.471998 24.953865 8814203
183.933 -23.719263 25.85693 10721427
184.00761 -23.823481 26.921715 9537668
146.00717 -23.822487 116.40733 6906456
145.38736 -23.727322 116.96619 7103835
144.76825 -23.632795 117.52417 8156267
184.18901 -22.726463 24.838192 9603717
184.23888 -22.870893 25.808739 9208960
145.64873 -22.694712 117.23463 8287854
144.93425 -22.582968 117.87984 9143421
144.43755 -22.116352 118.51115 8617336
184.43184 -21.812376 23.967072 9208960
184.56444 -21.744057 24.98225 9274497
184.51332 -22.159489 25.937019 8814203
145.25047 -21.534967 118.10998 9143678
144.45422 -21.437586 118.81625 9472388
143.81787 -21.194206 119.4585 10261390
184.84039 -20.451704 23.114994 6248274
184.84502 -20.706816 24.041492 7367011
184.87863 -20.784506 24.627655 8814203
144.88559 -20.541655 118.87947 9406594
144.09164 -20.475958 119.56894 9603718
185.06929 -19.614933 22.389515 7038307
185.13745 -19.629343 23.076084 6182480
185.19244 -19.722021 23.912998 6248015
144.90234 -19.86031 119.1857 9143678
144.26395 -19.617262 119.82951 9406334
143.46648 -19.522686 120.53553 8419183
185.39189 -18.475985 21.522881 6511962
185.37769 -18.713556 22.199825 8616823
185.46922 -18.7318 23.1166 6182222
144.51958 -18.713013 120.04239 9406334
143.81656 -18.697123 120.63306 8156011
143.17758 -18.455614 121.27655 6510930
197.08798 -17.571806 -4.2040825 11906725
196.41585 -17.511116 -3.483326 8090475
195.74611 -17.450829 -2.7669792 8089963
185.61771 -17.797804 21.32225 6906719
185.70975 -17.814621 22.238789 9406593
185.69559 -18.052717 22.917324 6971994
143.9882 -17.835138 120.89568 7037530
143.34911 -17.482815 121.59142 7564131
142.79158 -17.308964 122.1356 6511954
193.57613 -16.77124 4.004879 8681843
192.90485 -16.714884 4.685379 9538686
192.44528 -16.676504 5.1359673 10655886
185.94133 -16.656788 20.452332 8090992
185.91966 -16.940056 21.220303 9077629
186.0072 -16.987144 22.197899 9011835
143.66603 -16.458464 121.80989 8419184
142.86858 -16.397688 122.49997 8945780
142.40379 -16.160919 122.99673 12432037
190.95697 -16.085457 10.610455 6511954
190.49028 -16.048622 11.042809 6511954
187.12756 -15.336531 17.400337 7564651
186.96727 -15.32904 18.292503 8419959
186.64574 -15.426891 19.394112 8748919
186.34517 -15.758938 20.398975 8880504
186.25038 -16.068806 21.317585 8617335
143.26129 -15.539607 122.65797 8353389
142.47633 -15.481349 123.35965 9471867
142.07234 -15.251274 123.91093 6511954
188.03368 -14.935776 16.802387 7367775
187.9471 -14.932732 17.478111 7367775
142.85628 -14.816455 123.68984 8485229
142.28172 -14.583277 124.39663 5920074
141.67995 -14.499632 124.97842 7564651
141.66812 -13.948413 126.59874 9143425
141.14841 -13.942357 127.05423 9143425
140.4556 -13.934435 127.66046 8681843
137.0771 -13.758629 137.55956 8092011
136.53503 -13.570668 138.20923 11972771
135.83246 -13.404556 138.96359 12960181
136.66716 -12.816694 138.47704 15196110
136.09511 -12.625835 139.09868 14276039
135.37111 -12.457845 139.83371 15196110
136.36757 -11.710855 139.28841 14472644
135.57504 -11.629348 140.04497 15196110
134.86128 -11.384425 140.65736 13353909
135.91249 -10.760063 140.16888 14472644
135.13866 -10.626861 140.81126 12695979
135.25685 -9.8412828 141.07088 9406333
134.72586 -9.4766216 141.53728 9142651
135.47032 -9.0072041 141.29456 8681843
134.78627 -8.6573362 141.84518 10129546
135.0051 -7.5635953 142.17462 8813686
134.30968 -7.4885197 142.61668 9537409
134.5955 -6.4381537 142.88832 7629929
133.94237 -6.2726426 143.3434 8485749
134.65959 -5.6352997 143.18712 7893614
133.95827 -5.4374695 143.68417 8880249
133.53107 -5.145401 144.05884 9208699
134.24846 -4.5051217 143.90381 8485749
133.50423 -4.420517 144.37871 9603715
134.31216 -3.6979632 144.2047 8814713
133.7464 -3.4529386 144.64148 9998473
133.12048 -3.450491 145.01207 9143676
133.78018 -2.4814005 145.02888 9801094
133.15335 -2.4796782 145.39967 9144190
132.58748 -2.235229 145.83635 8091760
133.39546 -1.5062704 145.6649 8617847
132.64891 -1.4239352 146.14021 8091760
133.4295 -0.52929932 146.0558 8618104
132.80122 -0.52905393 146.42677 8091761
132.23418 -0.28457919 146.86464 8092019
132.95871 0.36866474 146.71965 8092019
132.30756 0.53166568 147.18434 7959918
132.55637 1.188244 147.58165 7301986
132.05785 1.518334 148.34059 6511954
131.47018 1.6821507 148.88014 6511954
130.77747 2.1858468 150.64043 11905692
164.96272 -30.445459 72.216095 9735046
164.64369 -30.450277 73.022766 8090737
171.58722 -29.190006 56.635731 8090736
171.30927 -29.188528 57.459385 8089962
171.03001 -29.18745 58.2827 11248025
170.67883 -29.186766 59.311172 12827311
170.32574 -29.186703 60.338871 7039331
170.04166 -29.187237 61.160725 8157555
169.68456 -29.188463 62.18742 8092019
169.32556 -29.190361 63.213734 9143679
168.77876 -29.376934 63.936039 9076857
168.49977 -29.343491 64.899132 9340285
168.05492 -29.422409 65.844513 10459278
167.77332 -29.390381 66.807549 8551283
167.36499 -29.514664 67.626358 7762028
166.94879 -29.601147 68.582443 9143165
166.58694 -29.609524 69.608055 11248024
166.29646 -29.616856 70.428696 9011580
165.84909 -29.738953 71.351112 8682616
165.39017 -29.835875 72.403778 8617080
165.06992 -29.840466 73.212318 7827821
164.61212 -29.738691 74.197227 9143418
164.28123 -29.555553 75.137718 9603457
163.84584 -29.519716 75.949051 10130058
163.50024 -29.389008 76.794678 11643809
162.96945 -29.376461 77.745338 9867142
162.67848 -29.17881 78.811798 9735299
162.2581 -29.171215 79.574547 9735300
161.73116 -29.162344 80.526497 9538174
161.20259 -29.154148 81.477028 9998211
160.77847 -29.148167 82.236519 9472381
160.45961 -29.143932 82.805473 9142651
182.5278 -28.527901 31.060909 9208435
182.46439 -28.534639 31.727894 11904668
182.19785 -28.638552 32.811161 10326407
181.82098 -28.79431 33.495907 9471613
181.38765 -28.910994 34.46883 10853004
181.17445 -28.90901 35.558121 10853004
180.99901 -28.907434 36.428551 10261132
180.86484 -28.906261 37.080944 10853012
175.08353 -28.890923 48.363964 8682608
174.84607 -28.889502 49.204815 8617074
174.54436 -28.88773 50.254539 8090731
174.30783 -28.887907 51.095715 8617075
174.1288 -28.898163 51.954365 10195594
173.80817 -28.896065 52.999134 8682867
173.46657 -28.891544 54.037048 9406078
173.19173 -28.8885 54.866848 9669251
172.84624 -28.885288 55.903248 7761772
172.5686 -28.883183 56.732094 7038307
161.21756 -28.837391 83.445183 8946300
160.70964 -28.836094 84.412094 8748665
160.19632 -28.83481 85.376167 9143166
159.78127 -28.833797 86.145035 7564130
159.25714 -28.832544 87.103256 8221549
158.72762 -28.831301 88.058487 8616307
158.29971 -28.83032 88.82029 8090995
157.86815 -28.82935 89.580093 9011065
157.32335 -28.828148 90.526741 8945529
156.88388 -28.827198 91.281937 8814969
152.79213 -28.807911 103.28142 7038307
152.41656 -28.807299 103.83145 9471359
151.91277 -28.806494 104.56265 10260617
151.27798 -28.805498 105.47316 9011574
150.63805 -28.80452 106.38007 10458505
150.25157 -28.80394 106.92242 9209467
150.1702 -28.539429 109.33896 10064519
149.59248 -28.529779 110.02425 9735299
148.87054 -28.518658 110.87996 9734788
148.29317 -28.510424 111.564 9734788
182.85141 -27.854666 30.211086 8681843
182.78825 -27.860779 30.878525 9471353
182.70383 -27.869408 31.768936 10984078
182.59039 -27.924536 32.790894 10984078
150.15605 -28.091438 109.60559 10985364
149.71753 -27.935068 110.20898 9997960
149.14926 -27.683916 111.01786 9340031
148.48662 -27.554827 111.86966 7564392
147.96152 -27.313944 112.62201 7169891
183.34886 -26.267303 29.160122 9143166
183.2433 -26.736265 29.951565 9537667
183.18822 -26.750118 30.945129 10721422
183.004 -27.054274 31.744801 10655369
149.38826 -26.73506 111.26604 8813686
148.87349 -26.503944 112.00104 6643547
148.14899 -26.49511 112.85873 8090986
147.5695 -26.488707 113.54436 6972504
147.19885 -26.260956 114.10787 8485229
183.60088 -25.55208 29.063763 7630443
183.65726 -25.627302 30.115421 7301479
183.52995 -25.857851 30.775116 8287859
149.06755 -25.833075 112.14723 7564642
148.48071 -25.646431 112.94232 8617331
147.82603 -25.594444 113.74196 7498591
147.24557 -25.588818 114.42838 8945780
146.85764 -25.358419 114.98003 12432037
183.83331 -24.596672 27.951988 8814203
183.90738 -24.70364 29.020882 7301479
183.91133 -24.955374 29.929466 7038307
148.45476 -24.926979 113.37477 6511954
148.08307 -24.698227 113.94003 7564642
147.50154 -24.692728 114.62756 10064004
146.87805 -24.680931 115.28149 9932935
184.14743 -23.535173 27.243652 8814203
184.15218 -23.784475 28.151112 9208960
184.15668 -24.034845 29.059441 7564651
148.13065 -24.023485 114.26093 7564642
147.75807 -23.794788 114.82717 8617074
147.11043 -23.621164 115.5867 8419439
146.60411 -23.388998 116.11581 6905688
184.3914 -22.61795 26.372837 8091242
184.37457 -22.859625 27.050156 8814203
184.45941 -22.933569 28.106441 9274753
147.35521 -22.429573 115.94363 7761253
146.55923 -22.575096 116.53554 6774614
146.01424 -22.161816 117.18192 8090992
184.80147 -21.253939 25.523464 7564651
184.73958 -21.62994 26.240391 8222573
184.77644 -21.808298 27.20554 7235678
147.00786 -21.585501 116.62839 6510930
146.20857 -21.486404 117.33801 7893354
145.57033 -21.241274 117.9826 8090992
185.02904 -20.57662 25.327492 7827823
185.11859 -20.598333 26.247944 9341309
185.10226 -20.839552 26.92765 8091242
146.43565 -20.696939 117.52059 8485490
145.70673 -20.517838 118.20947 7433064
185.30806 -19.585722 24.532486 8419951
185.36284 -19.679092 25.372433 8090730
185.43044 -19.694593 26.063751 7037786
146.66321 -19.905775 117.7036 8288109
146.02287 -19.661028 118.34981 7564649
145.22253 -19.564917 119.05891 9801607
185.62108 -18.52084 23.815891 5919050
185.57622 -18.802107 24.355476 6971994
185.66205 -18.852682 25.336723 7695461
146.0408 -18.977322 118.65623 7630443
145.51877 -18.690775 119.22389 9012092
144.87154 -18.721127 119.74658 9538435
199.34836 -17.777559 -6.6439781 15196110
198.66719 -17.7153 -5.9063454 9274747
197.98854 -17.65344 -5.1733131 10591121
197.53763 -17.612473 -4.6875572 9341054
185.85072 -17.792982 23.481308 6709080
185.94009 -17.858557 24.538815 6182222
185.9257 -18.098146 25.220177 9340027
145.73869 -17.75164 119.4828 7827821
145.01663 -17.583143 120.161 6840669
144.45534 -17.266647 120.77528 6510930
195.60544 -16.942753 1.9359169 6841439
195.15233 -16.904333 2.3994484 6510930
194.47511 -16.847012 3.0904655 9405566
186.25941 -16.42202 22.621658 8945784
186.23161 -16.774431 23.567646 8288626
186.16753 -17.176643 24.340298 7565675
145.33867 -16.445665 120.42831 7630184
144.63158 -16.431444 121.02157 8089962
144.16592 -16.193472 121.5197 8616563
192.60152 -16.215591 9.0809822 10721682
191.89456 -16.159527 9.7397995 8089963
191.42503 -16.122391 10.176178 9010808
186.57233 -15.474712 21.505688 7893610
186.58723 -15.561839 22.569664 9208442
186.57921 -15.802254 23.480282 9340027
145.35526 -15.757892 120.73778 8287853
144.84435 -15.598117 121.29907 9208955
144.23671 -15.51199 121.87726 10854036
143.82841 -15.280354 122.42568 10854036
187.86023 -14.92979 18.153591 7367775
187.7731 -14.927047 18.828907 7630438
187.63928 -14.922304 19.7272 7235934
187.43559 -14.914116 20.845478 6775383
187.23112 -14.906297 21.962795 9010808
144.61754 -14.845436 122.20023 10854036
144.04268 -14.610979 122.90851 8616563
143.31424 -14.487058 123.63505 7893095
143.40135 -13.969905 125.07533 5920074
142.70795 -13.961124 125.68557 7564389
142.01472 -13.952549 126.29474 9143425
138.7281 -13.759722 135.90254 12564399
138.12279 -13.480772 136.75188 12564908
137.40875 -13.447411 137.45067 9670529
138.3119 -12.664727 137.0278 9867142
137.70122 -12.536185 137.65524 9933957
136.97493 -12.502195 138.34399 14406595
137.96577 -11.755139 137.78749 9276027
137.24905 -11.586777 138.53235 15459283
136.67567 -11.395355 139.15556 13156786
137.46202 -10.732055 138.74802 11841440
136.67992 -10.682433 139.49599 12630699
136.22078 -10.443564 140.03636 13156786
137.08882 -9.7304716 139.57726 9670529
136.22433 -9.7286901 140.37834 9209467
135.7637 -9.4892693 140.91917 10457481
137.26651 -9.014432 139.75862 10789009
136.65836 -8.6712809 140.48732 9537407
135.96149 -8.3726454 141.23854 10917774
136.34132 -7.3822966 141.38368 10260102
135.64215 -7.2492867 141.93025 9536894
136.47063 -6.6131992 141.65501 8681843
135.7283 -6.3668909 142.24937 8616564
134.95467 -6.1198659 142.80974 7038307
135.97446 -5.4025736 142.50841 9734788
135.23401 -5.349329 142.96788 7893614
135.45511 -4.4793167 143.20218 8222578
134.81721 -4.1852384 143.70213 8354163
135.62962 -3.4606323 143.52626 7894126
134.8876 -3.4089899 143.98605 9275007
135.15619 -2.5665245 144.18073 9340289
134.40807 -2.4831724 144.65744 9077374
135.22133 -1.7536618 144.48317 8419702
134.51482 -1.5568539 144.98279 8222323
134.08459 -1.2632639 145.35988 9340289
134.80855 -0.61150432 145.20691 7564651
134.05882 -0.52954471 145.68413 7828077
134.30713 0.45148385 145.95482 9538693
133.56087 0.53270781 146.43645 12828085
134.43343 1.1911262 146.44719 11381404
133.80687 1.1901153 146.82582 12828085
133.44682 1.5229779 147.73824 8092019
132.85562 1.6868864 148.27638 8092019
166.2222 -29.234476 71.817558 9011323
165.91833 -29.241297 72.635986 9735046
165.58888 -29.244329 73.443405 8682867
165.28169 -29.236607 74.021912 9538176
182.23082 -28.562286 34.176674 9011574
182.16667 -28.570673 34.845562 9471867
182.05937 -28.585484 35.961262 9471868
181.97325 -28.597933 36.854679 8682867
180.728 -28.905088 37.732624 8617080
180.54205 -28.903534 38.600933 10853012
180.35197 -28.901985 39.468365 7300962
180.1082 -28.900066 40.55122 8617592
179.85846 -28.898153 41.632694 10855060
179.65379 -28.896633 42.496754 9472640
172.42917 -28.882317 57.146229 7038307
172.21947 -28.881214 57.767181 7565163
171.86824 -28.879948 58.80167 8092019
171.51512 -28.879341 59.835423 9275778
171.23102 -28.879362 60.662113 9538947
170.94557 -28.879843 61.488239 10460308
170.58679 -28.881123 62.520584 10460308
170.22603 -28.883047 63.55228 11644324
169.93587 -28.885084 64.377312 13682619
169.57109 -28.888296 65.408134 11577245
169.2043 -28.892162 66.438713 10590351
168.90916 -28.89576 67.262901 10525073
168.61278 -28.899855 68.086662 10196107
168.24011 -28.9056 69.116234 10393486
167.86539 -28.91201 70.145477 9077374
167.56389 -28.917618 70.968826 9931651
167.26088 -28.923727 71.791847 10391687
166.06088 -28.926586 74.613426 10919829
165.5399 -28.913795 75.579269 10525072
165.01759 -28.901693 76.543503 9932937
164.59843 -28.892582 77.313614 9209215
164.07303 -28.881788 78.274902 7169635
163.5461 -28.871666 79.234711 8616820
163.12335 -28.864067 80.001289 9735558
162.69943 -28.856972 80.767105 8880505
162.16805 -28.848701 81.72287 9341052
161.63503 -28.841099 82.677376 9012091
155.84348 -28.813183 98.645981 10788244
155.36458 -28.812355 99.393761 8353651
154.7608 -28.811275 100.32514 8353393
154.15178 -28.810205 101.25308 7563619
153.66043 -28.809364 101.99269 8287342
153.16557 -28.808531 102.73001 7037786
152.18985 -28.428522 107.02423 8814967
151.68138 -28.343349 107.67009 8486260
150.95822 -28.329557 108.52876 9472640
150.44527 -28.096342 109.26247 10985364
182.78703 -27.326941 33.029919 10129540
182.5714 -27.671436 34.01263 9406589
182.48595 -27.682137 34.905903 9669247
182.33974 -27.842751 35.864059 8617073
151.87502 -27.524303 107.89935 7894382
151.26562 -27.483025 108.63946 8683638
150.59663 -27.381678 109.48326 10063753
149.98746 -27.341923 110.22235 9997960
183.17015 -26.494446 32.166626 9997953
183.05653 -26.549282 33.191708 9800832
182.97131 -26.558876 34.086212 10129798
182.80577 -26.792042 34.966385 13023917
151.56316 -26.769583 108.6875 10262157
150.90349 -26.533529 109.59558 9406079
150.17821 -26.522095 110.45542 9668995
149.66817 -26.439835 111.10156 8813686
183.60884 -25.563076 31.090797 9997961
183.48338 -25.646671 32.130016 9800579
183.37732 -25.657425 33.249126 9735297
183.2332 -25.887602 33.906498 9735297
150.95503 -25.859692 109.91093 8682356
150.53973 -25.58329 110.554 9340030
149.85843 -25.618605 111.33624 9077114
149.3476 -25.53698 111.98313 7630436
148.90666 -25.381777 112.58875 9735812
184.00848 -24.66213 30.247963 7827565
183.88951 -24.745663 31.289417 9340288
183.78371 -24.755272 32.409634 9143163
183.63963 -24.985174 33.067993 8814195
150.63092 -24.803768 110.88203 9603458
150.1192 -24.721674 111.5302 8814710
149.53728 -24.714266 112.21924 8683124
148.88118 -24.661648 113.02103 8419951
184.29681 -23.746328 29.384453 8090730
184.3119 -23.841555 30.221245 6643542
184.20401 -23.894753 31.25098 7761772
184.04642 -24.082048 32.227253 8814195
150.16951 -24.045904 111.84848 7893608
149.80754 -23.680223 112.47881 9341054
149.27965 -23.58395 113.15392 9735812
148.60347 -23.520645 113.98521 8354158
147.95091 -23.119993 114.97715 8288109
184.70891 -22.377909 28.538166 10458768
184.67883 -22.700006 29.368629 7235677
184.65973 -22.871181 30.353401 6840919
149.53423 -22.532177 113.4417 9472641
149.02026 -22.451704 114.09164 8090986
148.29001 -22.445181 114.95484 6840919
147.70586 -22.440493 115.64505 7761253
184.94093 -21.535675 27.814281 8091242
185.0078 -21.553795 28.507744 8419696
185.06158 -21.651217 29.352474 9603969
149.06866 -21.773008 114.41377 6511954
148.59392 -21.587683 115.07612 6511954
147.89613 -21.488804 115.90898 7498337
147.32994 -21.291544 116.49931 7366751
185.25636 -20.583616 27.496464 7762277
185.34273 -20.65493 28.558605 8879990
148.74236 -20.863203 115.30605 6511954
148.2049 -20.630098 116.03618 8682867
147.34988 -20.608599 116.80373 8288109
146.88577 -20.367697 117.30194 7366751
185.49808 -19.710367 26.756474 10131081
185.58826 -19.731815 27.681896 10131081
185.57198 -19.973755 28.364685 9208443
148.24591 -19.948116 116.35664 9275260
147.7314 -19.660429 116.93275 8814709
146.98555 -19.610044 117.57516 8288109
185.80402 -18.558802 25.659569 7563619
185.8109 -18.803934 26.572762 8748148
185.90167 -18.824194 27.499195 9472383
147.79375 -18.869152 117.25284 8880502
147.23172 -18.549522 117.86931 8551282
146.61235 -18.534306 118.39024 7630182
186.08125 -17.838284 25.788551 8221548
186.20053 -17.789553 26.741711 10721422
147.47835 -17.486263 118.16431 7103324
146.77531 -17.530943 118.72658 6116687
146.22203 -17.30471 119.29187 7433064
197.43001 -17.098753 0.06029886 7563619
196.74367 -17.03986 0.76750559 8879478
196.05977 -16.981476 1.470295 6841439
194.26784 -16.348646 7.5265541 8089963
193.55064 -16.291227 8.1957359 11248539
186.42947 -16.580111 24.754524 7959407
186.42635 -16.879309 25.744133 8747891
147.03033 -16.557743 118.97235 7695717
146.40143 -16.467728 119.53635 7301479
145.86966 -16.456583 119.98267 8288371
191.74983 -15.683604 13.896832 9208435
186.72314 -15.504835 23.802467 8682869
186.80344 -15.598489 24.879597 7367015
147.13005 -15.793351 119.24885 11380380
146.61455 -15.632186 119.80907 8485488
146.00334 -15.544888 120.38809 8287853
145.41371 -15.308433 121.08297 10195338
188.40736 -14.513856 20.267643 8617331
188.28917 -14.510929 21.171303 9735043
188.1505 -14.506787 22.072369 10853012
187.38815 -14.767873 22.81926 9076857
187.04454 -14.905828 23.767036 8419955
187.06377 -14.914773 24.684574 6182223
146.38464 -14.876523 120.70368 8287853
145.67685 -14.683504 121.48132 9866373
145.0565 -14.402799 122.2729 8550770
145.13612 -13.993113 123.54368 8089963
144.44199 -13.983662 124.15726 8287341
143.74823 -13.974446 124.7697 6840663
140.84488 -13.761247 133.71936 9076856
140.24196 -13.608915 134.54614 11116693
139.6808 -13.531376 135.19749 8748659
139.12743 -13.299059 135.96661 10787732
140.45218 -12.832595 134.96547 11906725
139.99593 -12.59335 135.50343 8353647
139.30714 -12.590054 136.14262 8747893
138.79066 -12.587821 136.62181 9406079
140.00441 -11.882006 135.8391 8089963
139.54732 -11.64251 136.37794 8747893
138.85748 -11.639714 137.01784 8747893
138.39992 -11.40062 137.55695 8089963
139.55513 -10.929418 136.7151 10787732
139.09711 -10.689646 137.2549 10392712
138.40623 -10.687274 137.89555 7499105
137.94774 -10.447828 138.43565 8092011
139.25967 -9.8160725 137.52629 8024422
138.64537 -9.7345753 138.13437 6709590
137.95343 -9.7326288 138.7758 8092011
138.80737 -8.8586416 138.40749 5919049
138.25182 -8.5377388 139.07674 10196873
137.61696 -8.4405241 139.71141 10459022
137.15712 -8.0563059 140.32256 10261132
138.49127 -7.5789857 139.31821 9866630
137.9726 -7.2893739 139.93816 9537665
137.1617 -7.3360014 140.66631 9340028
138.03564 -6.6156306 140.20518 10261132
137.51591 -6.3254271 140.82646 9537665
136.78148 -6.2922282 141.5224 8681843
137.57852 -5.6496224 141.09499 9866630
137.05769 -5.3587379 141.71754 9208957
136.39328 -5.4054894 142.25984 9274494
137.32408 -4.559814 141.8568 9011834
136.55803 -4.3881292 142.56964 9340287
136.78065 -3.5139966 142.8029 8419956
136.04944 -3.4623971 143.27769 7039331
136.29752 -2.4886212 143.53949 7761255
135.51822 -2.2425311 144.10284 9340289
136.38499 -1.5926799 143.86354 8419440
135.73462 -1.3877335 144.33348 8616823
136.02435 -0.57935834 144.50264 8222062
135.38228 -0.28487974 145.00591 9340289
136.13983 0.20676231 144.76588 8419440
135.35829 0.45231915 145.33107 8090993
135.68939 1.1931489 145.68819 7038307
135.061 1.1921374 146.06789 7038307
134.70692 1.69335 147.46004 8092019
134.25842 1.6919667 147.68163 8092019
181.93013 -28.604458 37.301731 8682867
181.8651 -28.614492 37.972763 8090737
181.78557 -28.522575 39.213032 8616307
181.70793 -28.500826 40.150188 8484205
179.44492 -28.895124 43.359852 8682867
179.1778 -28.893251 44.437199 10787988
178.90462 -28.891384 45.513035 10195339
178.68127 -28.889902 46.372391 8879995
178.39606 -28.888063 47.445095 8287859
178.10484 -28.886232 48.51622 9734528
177.92697 -28.885141 49.157951 10787214
167.03271 -28.928562 72.409119 9931651
166.80362 -28.933645 73.026199 9734788
166.47319 -28.936819 73.838242 9538176
159.43146 -28.820379 92.773895 7564651
159.0937 -28.81966 93.347946 9736836
158.52621 -28.81848 94.30191 11709860
157.95335 -28.81731 95.252647 10064776
157.49083 -28.816387 96.010628 9208955
156.90739 -28.815248 96.954857 9340286
156.31863 -28.814123 97.895805 8089963
154.65617 -28.635592 104.00635 5919050
154.28847 -28.401316 104.56981 9931649
153.7085 -28.387354 105.26008 11444375
152.98412 -28.370785 106.12177 8683128
152.47119 -28.135164 106.85684 9209467
182.45654 -27.403708 36.342766 8682867
182.271 -27.711548 37.142605 8946039
182.18448 -27.724422 38.038799 9932421
182.07008 -27.826368 38.884247 9142649
153.90562 -27.566971 105.48592 11116437
153.29536 -27.523354 106.22845 9143934
152.62561 -27.419266 107.07466 8486261
152.15643 -27.230183 107.7324 8091760
182.89383 -26.461714 35.325035 10721678
182.75717 -26.585581 36.325878 9537919
182.67096 -26.597273 37.223228 12694698
182.565 -26.682951 38.041027 12826284
153.59224 -26.658913 106.36151 10196106
152.93625 -26.570322 107.18296 9143933
152.20982 -26.556347 108.04553 8946554
151.69499 -26.322039 108.78217 11248539
183.31177 -25.593052 34.224831 9735297
183.18524 -25.679079 35.266506 10129798
183.07793 -25.692337 36.388912 9735041
182.91147 -25.927246 37.271698 14075837
153.136 -25.897989 107.32305 9143934
152.57559 -25.616739 108.13959 9011577
151.89302 -25.64978 108.92429 10590609
151.38181 -25.566235 109.57254 9340286
183.71851 -24.689795 33.386208 9077367
183.59221 -24.774849 34.428978 8880246
183.48524 -24.78688 35.552402 9735041
183.34041 -25.018503 36.211372 8682867
152.66978 -24.835867 108.46449 9669762
152.15758 -24.751875 109.11414 9932679
151.57489 -24.742538 109.8051 8353391
151.06285 -24.659643 110.45414 8287854
184.25009 -23.63014 31.805912 8287859
184.12575 -23.785835 32.545254 8814195
184.02095 -23.867844 33.364353 8353900
183.94899 -23.7824 34.495056 8879988
183.74826 -24.112171 35.373581 8682867
152.35197 -23.926271 109.34633 9735044
151.84944 -23.707335 110.06007 8616822
151.3214 -23.609222 110.73652 8156787
150.64473 -23.543694 111.56955 8090987
150.1391 -23.142014 112.38907 8814710
184.77971 -22.425125 30.829395 7235677
184.59447 -22.730562 31.636105 10261900
184.50975 -22.737612 32.53598 12103330
184.36374 -22.895733 33.501934 9998211
151.58038 -22.556372 111.01973 8090995
150.96539 -22.518232 111.76492 7235679
150.28996 -22.419619 112.61502 8156781
149.81592 -22.233316 113.27704 9012091
185.21567 -21.364927 29.909962 12367275
185.08034 -21.643734 30.665535 8354158
184.9994 -21.605667 31.704525 10064009
184.8947 -21.686857 32.526497 11380125
151.25882 -21.644804 111.90737 8025197
150.59737 -21.561527 112.73247 8025200
149.86539 -21.553848 113.59839 9406847
149.35034 -21.473345 114.24957 7893608
185.44568 -20.683413 29.717766 12894131
185.40883 -20.697435 30.856552 9603714
185.24292 -20.929129 31.745689 9076858
150.79436 -20.882233 112.88005 7564651
150.27335 -20.649525 113.62328 8748920
149.54018 -20.642662 114.49011 8090986
149.02422 -20.562643 115.14217 8354159
185.74315 -19.646492 28.848339 9998215
185.76811 -19.827688 29.860432 9800837
185.6741 -20.018164 30.670712 10788244
150.32309 -19.967375 113.94574 9341055
149.90227 -19.690258 114.59587 8946296
149.21355 -19.730183 115.38425 9538433
148.69667 -19.650469 116.03713 9341054
185.94701 -18.834501 27.963337 9208443
186.0379 -18.855536 28.893524 9735043
186.04434 -19.103529 29.81229 12433581
149.99709 -19.052715 114.84036 8354159
149.48363 -18.683348 115.65099 8419952
148.95049 -18.588263 116.33167 8288366
148.28041 -18.423391 117.05865 8946039
199.27457 -17.2579 -1.8503914 6511954
186.36133 -17.456999 27.107922 10260871
186.38403 -17.644718 27.970966 8617843
186.33223 -18.021505 28.785393 10065289
149.20486 -17.523191 116.62717 8683127
148.6263 -17.437016 117.23524 10065291
147.99596 -17.345375 117.80118 9537920
198.81154 -17.217758 -1.3693352 6511954
198.11948 -17.158054 -0.65229422 6511954
195.95465 -16.484373 5.9451828 6512218
195.22948 -16.425842 6.6263428 8420211
194.74788 -16.387094 7.0775909 8089963
186.6888 -16.304604 26.237679 7563619
186.67468 -16.544708 26.923466 7958889
186.73206 -16.636917 27.773281 7828071
148.80995 -16.597542 117.47737 9670278
148.05862 -16.549736 118.12311 8617076
147.53246 -16.262135 118.69472 6774615
193.18791 -15.792238 12.604771 9208435
192.46739 -15.73772 13.252846 10260867
186.91982 -15.61836 26.040344 7103842
187.00995 -15.682789 27.108952 8748660
148.39174 -15.668528 118.31163 9275006
147.6929 -15.533099 119.00014 9274749
147.00375 -15.338313 119.73446 11906725
187.90231 -14.498219 23.418331 8089963
187.73613 -14.492826 24.314945 6445653
187.41472 -14.633059 25.266487 6248273
187.30707 -14.71041 26.093643 6050636
187.24573 -14.946771 26.774441 9208699
147.98058 -14.906307 119.35043 7563619
147.40451 -14.669429 120.06199 10064265
146.65054 -14.430075 120.92369 10195338
188.89583 -14.09492 22.852322 9010808
188.83577 -14.093856 23.305874 8089963
146.69882 -14.015463 122.15797 8287853
146.00404 -14.005372 122.77466 9603202
145.48314 -13.997956 123.23637 9010808
142.9272 -13.762889 131.50336 9208435
142.44963 -13.7625 132.0175 11379348
142.01765 -13.539454 132.89551 10787467
141.46695 -13.462154 133.55722 8418925
140.84756 -13.308224 134.3698 12037537
142.17522 -12.842764 133.36559 9208435
141.71913 -12.602793 133.9037 9011318
141.0296 -12.598771 134.54391 10919830
140.57323 -12.359375 135.08214 9341054
141.72987 -11.890876 134.23764 9341054
141.27298 -11.650679 134.77657 10591121
140.5825 -11.647207 135.4174 8354159
140.12517 -11.407486 135.9565 8090987
141.34404 -10.698974 135.17046 9341054
140.82527 -10.696611 135.65181 8683124
140.04214 -10.645632 136.40132 8485232
140.99068 -9.8225412 135.92085 9209468
140.37604 -9.740468 136.52946 8814195
139.76135 -9.6586294 137.13799 8024422
140.56261 -8.6642675 136.87653 9012089
139.98586 -8.5425406 137.46925 6971736
139.35085 -8.4448318 138.10428 5655878
138.89194 -8.0600729 138.71483 6971736
140.21098 -7.4228172 137.80167 9011318
139.59386 -7.3410678 138.41243 8484976
138.97665 -7.2594032 139.02316 8682611
139.75783 -6.4582787 138.687 9603713
139.13979 -6.3765125 139.29863 9208699
138.52156 -6.2949305 139.91026 9274749
139.38155 -5.4106026 139.54134 8748149
138.68411 -5.409379 140.18752 9537665
138.06487 -5.3278546 140.80013 9406335
139.38875 -4.6838932 139.88557 9932678
138.92546 -4.4404898 140.43211 10130056
138.2269 -4.4395418 141.07918 9603968
137.763 -4.1963882 141.62605 9209467
138.93211 -3.7115779 140.778 10787729
138.46776 -3.4675994 141.32567 11182230
137.76819 -3.4668498 141.97365 11642524
137.30322 -3.222971 142.52179 8814457
138.53426 -2.4921918 141.73529 11576988
138.00856 -2.4917297 142.22208 11642524
137.30782 -2.4911554 142.87105 8946043
138.1897 -1.7583743 142.40926 9735812
137.66568 -1.4639033 143.03697 8814714
136.96825 -1.5121385 143.55296 10262156
137.7354 -0.77697337 143.31725 9077885
137.14214 -0.48162085 143.87447 9340798
137.36855 0.40462804 144.11285 10656658
136.50537 0.53536248 144.68866 8616819
136.80331 1.1957221 145.12263 9143675
136.11938 1.193962 145.44594 7038307
181.78522 -28.209003 40.472984 11378324
181.63963 -28.44331 41.129322 9207670
181.52956 -28.463499 42.25386 9735043
181.39981 -28.55759 43.29855 9867398
177.80707 -28.884417 49.585464 10787214
177.62512 -28.883335 50.226124 10260871
177.31676 -28.881542 51.2924 7695204
177.0023 -28.879757 52.356907 6840151
176.74608 -28.878344 53.20715 7564130
176.4857 -28.876936 54.056057 8946039
176.15428 -28.875195 55.115414 8485493
175.81693 -28.873459 56.172794 7564651
175.5423 -28.872084 57.017242 9274751
175.26363 -28.870712 57.860298 9866631
174.98085 -28.869356 58.70216 8814203
164.24413 -28.831802 84.02137 8814971
163.83559 -28.830738 84.809784 8814971
163.42325 -28.829681 85.596214 10722194
163.00713 -28.828638 86.380608 9735558
162.48154 -28.827343 87.358231 7564651
161.95044 -28.826065 88.332954 7564651
161.52116 -28.825052 89.110245 7564643
161.08812 -28.824051 89.885506 12498087
160.54144 -28.822811 90.851463 9603456
159.98938 -28.821587 91.814423 8616823
159.65529 -28.82086 92.390564 7564651
156.68909 -28.691641 101.58275 8813945
156.3213 -28.45529 102.14757 9142908
155.73993 -28.439095 102.84073 8550511
155.0854 -28.376568 103.64577 7366237
182.15344 -27.448851 39.482525 8484720
182.04675 -27.536312 40.300961 9536635
181.95912 -27.551222 41.201 9207670
181.84204 -27.613844 42.233669 9734531
156.38051 -27.779655 102.45505 7958888
156.0119 -27.543777 103.02036 7038043
155.28439 -27.524982 103.8869 8089958
154.55753 -27.507093 104.75227 9668990
154.18878 -27.273113 105.3168 12432037
182.56061 -26.542542 38.651386 10524302
182.45418 -26.629091 39.470524 7564392
182.36696 -26.642876 40.371197 9931394
182.25999 -26.73064 41.191631 9602429
156.07045 -26.867369 103.32901 6511954
155.62997 -26.70549 103.93765 7366237
154.97278 -26.614397 104.76184 9537666
154.24489 -26.597805 105.62759 9406594
153.87546 -26.364225 106.19275 7565675
183.07205 -25.479897 37.30405 11379352
182.88358 -25.718521 38.412876 10392717
182.77502 -25.734257 39.539272 6774877
182.6683 -25.821095 40.360401 9340287
155.17131 -25.759947 105.00507 9011837
154.51396 -25.700228 105.81197 7827566
153.93094 -25.688017 106.50481 7960175
153.4151 -25.451933 107.24362 8354675
183.41904 -24.723351 36.53233 8682867
183.31636 -24.764809 37.491199 9669249
183.18033 -24.868349 38.566593 7959149
183.01608 -25.061872 39.590908 9734788
154.8577 -24.847574 105.88331 8354165
154.26668 -24.56365 106.73723 8683383
153.68263 -24.552505 107.43079 9603968
153.17178 -24.543196 108.03706 9801347
184.11378 -23.209461 34.984131 7761509
183.91615 -23.576206 35.680752 12168098
183.80228 -23.675282 36.5313 11576217
183.67973 -23.743782 37.599133 10853010
183.44672 -24.148878 38.529873 7038307
154.38951 -23.659481 107.09731 8090987
154.01773 -23.425726 107.66527 10459019
153.26849 -23.63929 108.42783 10853777
152.7735 -23.359413 109.16678 9406591
152.18361 -23.169144 109.96742 9537667
184.48289 -22.44993 33.981857 8814195
184.3777 -22.532484 34.803997 8024681
184.29204 -22.541159 35.706917 9011320
184.155 -22.664291 36.715687 9077113
154.07281 -22.745583 107.98019 10459019
153.62929 -22.586643 108.59106 9208955
152.96826 -22.500547 109.41728 9406079
152.23636 -22.489723 110.28477 9143167
151.86354 -22.257744 110.8532 9537667
184.95329 -21.390312 33.072002 9076858
184.78362 -21.667072 33.822296 9208954
184.70174 -21.630913 34.864426 9011320
184.59624 -21.713751 35.688358 6511954
153.31081 -21.67231 109.47668 8089963
152.64867 -21.587046 110.30367 9668995
151.91574 -21.57725 111.17186 8945789
151.54216 -21.345345 111.74104 8090995
185.40558 -20.477386 31.773144 9076858
185.21826 -20.711147 32.889027 9076858
185.11194 -20.71979 34.019619 9406076
185.00658 -20.801962 34.844471 9143162
152.88191 -20.793571 110.47236 9405823
152.28233 -20.626299 111.27148 9143424
151.59372 -20.663595 112.0612 9538438
151.07762 -20.581972 112.71431 9012091
185.75461 -19.718109 30.989784 8485232
185.65356 -19.754196 31.95306 10064009
185.5191 -19.852022 33.033829 8089963
185.35603 -20.040892 34.063953 9537918
152.3755 -19.836994 111.60268 9670024
151.85846 -19.755001 112.25708 11577762
151.27037 -19.748716 112.95282 9406850
150.7534 -19.667562 113.6067 8288371
186.15399 -18.805422 30.135902 10590608
186.12872 -18.660194 31.128178 10459278
185.99028 -18.795671 32.102306 9801348
185.78862 -19.125826 32.988968 8089963
152.05251 -18.919687 112.49518 11314590
151.60088 -18.610008 113.19986 8288114
151.01161 -18.604462 113.89651 7827816
150.39528 -18.523005 114.6675 7630435
149.96442 -18.13866 115.38937 7433057
186.5369 -17.616161 29.314671 11249819
186.5428 -17.744457 30.121197 11249050
186.46613 -17.750242 31.076118 9538176
151.71829 -17.695337 113.57245 9011320
151.27042 -17.538496 114.1873 7367263
150.75122 -17.457792 114.84351 8288365
150.01338 -17.452272 115.71507 8025194
149.48851 -17.219593 116.46286 8814971
198.14978 -16.662806 3.8728523 13024949
197.41483 -16.602856 4.5685081 10722450
196.68282 -16.543312 5.2596359 9735812
186.85028 -16.497288 28.403862 7828071
186.90703 -16.589973 29.256824 9209980
186.93823 -16.681084 30.10725 8353391
150.94365 -16.617878 115.08614 8551537
150.4236 -16.537504 115.7432 8156779
149.68462 -16.53269 116.61578 8551800
149.13649 -16.297743 117.34735 8814971
194.88248 -15.921204 11.073383 7565675
194.15385 -15.865572 11.733006 9011320
193.67015 -15.828753 12.16988 9011320
187.16843 -15.419172 27.683659 10263180
187.15327 -15.659897 28.372467 7959657
187.21082 -15.751969 29.226711 8288366
150.62105 -15.849096 115.89523 7564642
150.02557 -15.664179 116.76567 8485748
149.32008 -15.566188 117.60841 8814971
148.7767 -15.373611 118.22888 7564651
187.40984 -14.682404 27.350281 10459022
187.49556 -14.745819 28.423592 8222573
187.48019 -14.986916 29.114098 10855060
149.58188 -14.937896 117.99084 9407363
149.13928 -14.657075 118.63516 7696231
148.39719 -14.612688 119.29458 9011321
188.7756 -14.09279 23.759476 6840919
188.66156 -14.089681 24.436588 6840919
188.45177 -14.083471 25.56216 5919050
188.24117 -14.077714 26.686874 7037274
188.0719 -14.073369 27.586033 9208699
148.43726 -14.04195 120.60979 9011321
147.74161 -14.031154 121.23011 9340542
147.22008 -14.023183 121.69456 8287853
145.13049 -13.76479 129.08057 8089963
144.66173 -13.764372 129.60274 8813429
143.87616 -13.763687 130.46927 9076858
143.71417 -13.474046 131.37881 9603202
143.08678 -13.322971 132.2899 9932161
143.90054 -12.854735 131.76268 10261132
143.32863 -12.660732 132.38579 10063491
142.61229 -12.489773 133.13148 9208435
143.45743 -11.901346 132.63338 9208435
142.8278 -11.659453 133.33308 9208954
142.0417 -11.57561 134.10118 9406078
143.16949 -10.788006 133.43767 8682867
142.3822 -10.704195 134.20695 9735043
141.68997 -10.700647 134.84941 10591121
142.72353 -9.8303776 134.3131 10326924
141.93509 -9.7469187 135.08316 10195851
141.30299 -9.5051403 135.785 8288366
142.29846 -8.6707888 135.26653 9668995
141.57593 -8.6079531 135.96571 8354159
141.05049 -8.2263517 136.63637 8025194
141.95016 -7.428154 136.18916 9735812
141.15877 -7.3453922 136.96172 8880503
140.52399 -7.1029139 137.66649 9012089
141.49954 -6.4626169 137.07259 9670020
140.70694 -6.3800879 137.84615 10591123
140.07098 -6.1372085 138.55211 9932678
141.58827 -5.6573768 137.37944 9538950
141.12614 -5.4141002 137.9247 10591380
140.25369 -5.4122801 138.73323 9932678
141.13562 -4.6869664 138.26714 10985881
140.67261 -4.4432878 138.81343 11248795
139.88091 -4.393383 139.57042 10196107
140.6815 -3.7140517 139.15749 8090218
140.21788 -3.4697719 139.70512 8879991
139.42462 -3.4200277 140.46286 9472127
140.38707 -2.5755682 139.98671 7037274
139.76303 -2.493422 140.60092 7563618
139.06042 -2.4927025 141.24886 9669505
139.94879 -1.5964462 140.90175 7695461
139.32689 -1.5142214 141.52022 7564132
138.69388 -1.4319861 142.12764 8814457
139.51285 -0.61410582 141.82381 7037533
