# .PCD v0.7 - Point Cloud Data file format
VERSION 0.7
FIELDS x y z rgb
SIZE 4 4 4 4
TYPE F F F U
COUNT 1 1 1 1
WIDTH 1181
HEIGHT 1
VIEWPOINT 0 0 0 1 0 0 0
POINTS 1181
DATA ascii
-7.8737922 -67.005249 -121.39857 8814971
-6.8321128 -66.86364 -121.34686 8551541
-7.6866012 -66.311317 -121.63502 7564651
-7.0198569 -65.938187 -121.70588 8024941
-6.1193137 -65.83252 -121.65504 8551282
-6.8064399 -65.02018 -122.02223 8814454
-5.9542747 -64.975998 -121.95358 8353647
-5.3241439 -64.638367 -122.01498 7037274
-6.0381904 -63.983524 -122.3269 9604226
-5.0812888 -63.923241 -122.25378 8617847
-5.8420539 -63.282871 -122.56502 11379356
-5.1589866 -62.989117 -122.605 9866630
-4.2407889 -62.860523 -122.56084 9867400
-5.0755324 -62.166443 -122.89922 9339773
-4.2425323 -61.90239 -122.91335 8353392
-3.3879182 -61.788361 -122.87016 8156270
-4.2268577 -61.008453 -123.24055 9931910
-3.3355386 -60.942886 -123.17664 8945271
-2.5356309 -60.641514 -123.21632 8089963
-3.3829477 -60.204002 -123.57364 9340027
-2.4584215 -59.950172 -123.66457 9208441
-1.5389153 -59.727516 -123.73596 9405820
-2.3643968 -59.503349 -124.22388 9340027
-1.5930611 -59.453072 -124.29313 9734785
-0.66929018 -59.373966 -124.43401 8484720
0.22161326 -59.247837 -124.96471 8747892
1.3545517 -59.216934 -125.23906 7629411
1.962397 -59.217464 -126.03419 7629411
3.1677001 -59.215858 -126.01482 8420213
3.7910445 -59.216396 -126.80951 10525071
4.8591218 -59.215313 -126.98232 10853783
5.6426911 -59.215267 -127.56654 13353655
6.5772271 -59.214661 -127.93962 10458769
7.517302 -59.214108 -128.30499 9999242
8.3221531 -59.213963 -128.88637 10327949
9.4149761 -59.212845 -129.02446 10130570
10.192389 -58.899334 -129.88779 10196621
11.188673 -58.87434 -129.84265 10261900
11.82102 -58.550472 -129.92668 9735046
10.272497 -58.206097 -130.13699 9144449
11.061041 -57.882465 -130.21248 9341314
12.065542 -57.845676 -130.17126 9537923
11.134871 -57.113037 -130.48996 8946039
12.027632 -56.902447 -130.51837 9472383
12.937567 -56.84798 -130.48878 8880249
12.002481 -56.02282 -130.84158 10261899
12.999716 -55.925526 -130.82288 9275006
13.79059 -55.772339 -130.83582 8617078
12.235563 -55.256481 -131.10925 8682867
12.913343 -54.976784 -131.17467 8617077
13.935556 -54.920769 -131.13948 8419700
13.05475 -54.278694 -131.42233 8617078
13.791933 -53.960117 -131.49873 7169892
14.764849 -53.935074 -131.45497 7367015
13.881433 -53.220558 -131.76445 7038307
14.726393 -52.957611 -131.81464 7301478
15.603777 -52.93782 -131.77411 8880251
14.736784 -52.141083 -132.11281 6972253
15.717279 -51.988022 -132.11542 7301221
16.474642 -51.868664 -132.11786 7960176
14.903372 -51.344479 -132.39517 5919050
15.591516 -51.068897 -132.45853 6643030
16.627123 -51.01862 -132.42058 8090990
15.796907 -50.26347 -132.74207 6643284
16.551828 -50.059002 -132.77583 8024681
17.473555 -50.037861 -132.73347 9472130
16.583372 -49.318768 -133.04501 9406079
17.440977 -49.060139 -133.093 9602942
18.330023 -49.044731 -133.05029 9340024
17.456839 -48.243347 -133.39102 10063234
18.451204 -48.094944 -133.39124 9537144
19.219492 -47.979042 -133.39185 10654857
17.630827 -47.446987 -133.67294 10654857
18.329775 -47.174309 -133.73471 9602937
19.296076 -47.090549 -133.71283 9143419
20.043253 -46.625977 -133.84221 8091762
18.483995 -46.477299 -133.98141 10654857
19.219378 -46.071079 -134.10699 9603716
20.204382 -45.807892 -134.20428 8025969
20.987551 -45.595955 -134.31961 6510930
20.162844 -45.055225 -134.67334 8420470
21.105902 -44.974815 -134.6678 7103324
21.888086 -44.69117 -134.81685 7037274
22.951067 -44.509598 -135.23792 7761253
22.017729 -44.44717 -135.42313 7761253
22.891821 -44.075424 -135.88809 8945783
23.790758 -43.946629 -135.93275 8748148
24.580282 -43.899086 -135.97704 6510930
23.820063 -43.185719 -136.29541 8748404
24.518583 -43.01836 -136.39482 7827305
24.555414 -42.472359 -136.79872 9275007
-114.70437 -77.571602 -71.596138 9735299
-114.0887 -78.053963 -72.089142 9011578
-113.42648 -78.087082 -72.906128 9077114
-114.87651 -77.023552 -71.702179 9340542
-114.25307 -77.193726 -72.389328 8683127
-113.68687 -77.358482 -73.007278 10655890
-116.55225 -75.581963 -70.805702 9209467
-115.77426 -76.06662 -71.229836 8748406
-115.15788 -76.130432 -71.952454 9406594
-114.55214 -76.432129 -72.46106 8880507
-118.70478 -74.603951 -69.966934 9143165
-117.76901 -74.771042 -70.570724 8748404
-116.94612 -75.093788 -70.945663 8748404
-116.16802 -75.347229 -71.580994 8353647
-115.57783 -75.503105 -72.134331 9340801
-120.18663 -74.28083 -69.473877 9734531
-119.63368 -74.387123 -69.734818 9932168
-118.98398 -74.442307 -70.514053 9997959
-11.839045 -69.843697 -120.74964 9735812
-11.136877 -69.727371 -120.72249 8551027
-10.37055 -69.786789 -120.62426 9011838
-11.038958 -69.046844 -120.96301 8682871
-10.070276 -69.03434 -120.87111 8485751
-10.795172 -68.194214 -121.25231 10459281
-10.025957 -68.155136 -121.19001 9801352
-9.2573185 -67.928978 -121.19665 10327951
-10.081011 -67.201752 -121.54612 9011838
-9.1368504 -67.075165 -121.49864 9472900
-8.4071674 -66.853226 -121.50756 7564651
-9.8936405 -66.490387 -121.78902 9011838
-9.213728 -66.181786 -121.83482 9275008
-8.2850742 -65.970474 -121.82003 8288628
-7.5566497 -65.655724 -121.86324 7564651
-9.0439243 -65.287941 -122.14661 10853012
-8.3105679 -65.068825 -122.15414 8551031
-7.364099 -64.950768 -122.10329 7630184
-8.1862316 -64.221573 -122.45334 7498857
-7.411283 -64.005844 -122.45547 7892585
-6.5962577 -63.912167 -122.40874 8945528
-7.358274 -63.139202 -122.76888 8616307
-6.3804717 -62.999165 -122.72298 9273980
-5.7075133 -62.633572 -122.79041 10524047
-7.3432479 -62.425358 -123.02981 9142651
-6.5682464 -62.080578 -123.07948 9208444
-5.5409331 -61.912323 -123.03902 9668738
-6.3303695 -61.236141 -123.36631 9142651
-5.5915427 -61.028656 -123.36903 8418928
-4.7529159 -60.870098 -123.3438 8813429
-5.5505195 -60.298584 -123.72511 7563619
-4.6011176 -60.060928 -123.81039 9997703
-3.7125375 -59.691906 -124.05347 8879477
-2.9592798 -59.519035 -124.23949 11905692
-3.5700433 -59.379299 -124.7115 9340027
-2.7736452 -59.361977 -124.70164 10195078
-2.0244806 -59.267708 -124.99686 10260871
-1.0128227 -59.220219 -125.39194 9208186
-0.14712301 -59.220196 -126.04016 9537150
0.90826261 -59.219158 -126.24413 9537408
1.6681923 -59.219177 -126.84613 9208443
2.7332327 -59.218128 -127.03693 8288371
3.5068381 -59.218117 -127.63428 8880507
4.4349275 -59.21759 -128.02301 9670021
5.3687806 -59.216999 -128.40421 14472133
6.1636949 -59.216938 -128.99904 10919315
7.2540383 -59.215775 -129.15552 8749691
7.998137 -58.9828 -129.97672 10459535
8.949728 -58.827351 -129.98177 9538693
9.6373196 -58.697769 -129.99174 10788759
8.0914021 -58.19849 -130.25861 9933193
8.8761349 -57.93581 -130.31194 9604743
9.8670483 -57.800465 -130.3075 9473413
8.9467144 -57.100311 -130.61374 8091762
9.7942371 -56.913921 -130.63576 9407621
10.757608 -56.74881 -130.64375 9670277
9.8918133 -55.961609 -130.97885 11775140
10.759409 -55.931339 -130.94269 10196106
11.594633 -55.661495 -130.99594 8682867
10.710978 -54.95409 -131.30284 9275007
11.679441 -54.921295 -131.26212 8814453
12.413637 -54.599884 -131.33978 9538178
11.530077 -53.962257 -131.62111 10721682
12.554144 -53.901985 -131.5874 10524300
13.234743 -53.622589 -131.65254 7038307
11.66498 -53.27536 -131.86507 8617080
12.465734 -52.954937 -131.93869 8748404
13.471918 -52.857979 -131.91937 6249042
12.573751 -52.051418 -132.26337 8748405
13.449156 -51.98032 -132.2417 6051660
14.356913 -51.774269 -132.26765 6971994
13.413191 -51.039951 -132.58769 6051148
14.342638 -51.006386 -132.54938 6840408
15.087957 -50.689518 -132.62479 6971994
13.664892 -50.338585 -132.8306 5919050
14.314936 -50.019062 -132.91212 6379601
15.234877 -49.992825 -132.87166 7695972
15.925783 -49.717358 -132.93489 6511954
14.498877 -49.363976 -133.14183 6971994
15.196436 -49.01638 -133.23108 8748405
16.171026 -48.954018 -133.20088 9340286
15.26692 -48.142536 -133.54703 9734788
16.153757 -48.075966 -133.52313 9734788
17.074408 -47.874397 -133.54683 9997701
16.123552 -47.134758 -133.8692 9208958
17.065092 -47.105751 -133.82855 10063234
17.822123 -46.792118 -133.90222 9931646
16.383085 -46.433907 -134.11154 8814971
17.043516 -46.117054 -134.19156 10326404
17.999041 -45.938938 -134.24493 10589064
18.809237 -45.637543 -134.37944 9340801
17.842295 -45.210461 -134.70422 9208435
18.878038 -44.955166 -134.81792 9800578
19.760733 -44.71973 -134.93126 8880507
19.841799 -44.44363 -135.49951 10392456
20.672575 -44.079681 -135.8289 9472382
21.572206 -43.9328 -135.97859 8682867
22.360479 -43.743637 -136.04477 8485233
21.462477 -43.177425 -136.35393 9077881
22.481062 -43.008499 -136.45433 10261899
23.339678 -42.809307 -136.57777 10459278
22.75247 -42.472359 -137.0957 13551549
23.365801 -42.365643 -137.13861 11248794
24.259356 -42.048019 -137.42706 9209469
24.8752 -41.810059 -137.65289 10788247
-113.20562 -77.81926 -73.343193 6511954
-112.70503 -77.941483 -73.903458 7169629
-112.0424 -77.982994 -74.716019 9142650
-113.52428 -76.95594 -73.450363 8682612
-112.86568 -77.08358 -74.206894 8090474
-112.38455 -77.198425 -74.747002 8089963
-114.98586 -75.781311 -72.53878 10261132
-114.41027 -76.029953 -72.998413 8420212
-113.82576 -76.031136 -73.740005 8287853
-113.24744 -76.213242 -74.273361 8879734
-116.99574 -74.711525 -71.649002 8090474
-116.32919 -74.779694 -72.320053 8353134
-115.47633 -75.136635 -72.714951 9537923
-114.82687 -75.264046 -73.378281 7894383
-121.64104 -74.283951 -70.301025 8681843
-120.74351 -74.2827 -70.177551 9339773
-119.96482 -74.283104 -70.697998 10261132
-119.06392 -74.319 -71.140739 9603457
-118.20679 -74.43531 -71.574028 8813685
-117.34402 -74.547203 -72.052513 7037274
-116.97389 -74.531265 -72.603531 7037274
-14.000036 -70.035172 -120.89447 7760998
-13.166536 -69.89415 -120.86333 8616307
-12.334333 -69.755714 -120.83134 8616563
-13.263296 -69.131226 -121.15354 8682612
-12.316557 -68.990448 -121.11103 9341054
-11.586374 -68.756615 -121.12421 9143419
-13.08243 -68.411736 -121.4001 9209467
-12.314901 -68.040161 -121.46034 9275260
-11.361113 -67.879776 -121.42431 10854037
-10.744867 -67.538689 -121.48836 9011838
-12.241381 -67.188606 -121.76614 11182742
-11.507463 -66.957916 -121.77789 11050900
-10.620493 -66.877937 -121.71896 8880251
-11.329393 -66.162308 -122.05273 9537665
-10.48057 -65.947121 -122.0473 8222065
-9.8201618 -65.728821 -122.06181 9011580
-10.571199 -65.00222 -122.40379 9208701
-9.5924129 -64.995232 -122.3089 9011324
-10.265909 -64.258575 -122.64688 10590351
-9.5974522 -63.998692 -122.67585 9603460
-8.7846813 -64.047035 -122.57713 9669253
-9.5077 -63.123199 -122.98889 10853012
-8.7071743 -63.076324 -122.92635 9800582
-7.8266997 -62.887844 -122.90796 10260875
-8.6550694 -62.120758 -123.27256 10326925
-7.8408484 -62.024368 -123.22691 9142651
-7.0620894 -61.765251 -123.24466 9142651
-7.7914329 -61.054703 -123.58054 8616307
-6.8659797 -61.066826 -123.48193 9274237
-7.7041106 -60.255569 -123.97031 8418928
-6.9089599 -60.185886 -123.94376 8879735
-6.0448813 -59.883587 -124.08302 8879991
-5.1144652 -59.644089 -124.21889 9406079
-5.9614921 -59.450027 -124.7513 9143163
-5.213903 -59.427025 -124.74147 9143163
-4.2636275 -59.312664 -124.99619 8353646
-3.2359064 -59.224552 -125.5072 7432544
-2.4070451 -59.223007 -126.00726 10721676
-1.4478165 -59.222366 -126.34997 9274235
-0.60658801 -59.222042 -126.84593 9011063
0.36371836 -59.221397 -127.17818 9471615
1.2175392 -59.221058 -127.66705 10853012
2.1988776 -59.220379 -127.98879 9011579
3.0652792 -59.220051 -128.47049 8288371
3.9388449 -59.219719 -128.95172 7959150
4.9366784 -59.218983 -129.25569 10721937
5.7395196 -59.034111 -129.9821 9208443
6.7215791 -58.83131 -130.10159 9735557
7.5640092 -58.638912 -130.12616 10525072
6.6413293 -57.944778 -130.43033 9538434
7.63135 -57.802963 -130.42831 9933193
8.4166508 -57.538944 -130.4821 9933193
6.8639436 -57.046116 -130.74696 9208435
7.5540109 -56.912766 -130.75818 7564388
8.5111294 -56.756184 -130.76334 8552569
7.743731 -55.97348 -131.09146 6774616
8.5127888 -55.924328 -131.06755 8552312
9.3419132 -55.78355 -131.07393 9604742
8.5602055 -54.950771 -131.42113 8354933
9.476759 -54.939098 -131.37553 9275777
10.154135 -54.689846 -131.42984 8617080
9.3309841 -53.991673 -131.73007 9604486
10.321592 -53.890217 -131.71326 9143167
11.023764 -53.598839 -131.78157 8617080
9.4531536 -53.261097 -131.99069 10853012
10.249674 -53.001808 -132.04218 9735046
11.254961 -52.869904 -132.03574 8880251
10.32379 -52.169292 -132.34274 8617080
11.183844 -51.985897 -132.36299 8156527
12.077246 -51.854282 -132.3625 8879990
11.199732 -51.079517 -132.69373 8353905
12.165678 -51.008457 -132.66713 9208699
12.906534 -50.767361 -132.71495 6972506
11.433527 -50.314457 -132.96088 8682867
12.119547 -50.033024 -133.02652 9274748
13.038034 -50.001835 -132.98788 7893095
13.682055 -49.845501 -133.01004 6445394
12.100798 -49.334423 -133.2831 10130057
12.953272 -49.044575 -133.34276 13682620
13.992224 -48.986637 -133.30746 8090474
12.988981 -48.247929 -133.63229 13879741
13.860518 -48.069405 -133.65027 9801604
14.765638 -47.942669 -133.6474 8946297
13.882647 -47.162777 -133.98079 9209467
14.8608 -47.096813 -133.95172 8025968
15.61241 -46.859371 -133.99779 8354677
14.124388 -46.398422 -134.24736 11379356
14.82057 -46.120205 -134.31131 9867145
15.750601 -46.093636 -134.27048 8814971
16.403757 -45.940228 -134.29105 11181969
15.663172 -45.29668 -134.74011 9998473
16.671576 -45.073414 -134.86133 11445141
17.613016 -44.776848 -135.02216 10326660
17.553762 -44.403206 -135.67165 12497829
18.398825 -44.162777 -135.82886 10392197
19.356451 -43.924782 -135.97572 10786699
20.09696 -43.54137 -136.13002 9997955
18.612261 -43.49968 -136.19641 10260611
19.3132 -43.14996 -136.47003 10260611
20.240541 -43.028996 -136.55219 9406589
21.165163 -42.761299 -136.81801 9209467
21.102179 -42.456127 -137.2923 9209467
22.047216 -42.258762 -137.42477 12169896
22.97835 -41.97953 -137.65582 12301482
23.912081 -41.670124 -137.97479 7367263
-111.82018 -77.71936 -75.152435 8089963
-111.31952 -77.847435 -75.709274 9603200
-110.65617 -77.897308 -76.517761 9997696
-112.13463 -76.913063 -75.231094 7892585
-111.48946 -77.037827 -75.972527 7629927
-110.93995 -77.294373 -76.515167 11905692
-113.61739 -75.688202 -74.383011 8287853
-113.03584 -75.937065 -74.832886 9142906
-112.44843 -75.983803 -75.520454 7235170
-111.76938 -76.230247 -76.095657 6511962
-115.7926 -74.661682 -73.429169 9012093
-114.95988 -74.778214 -74.073677 8288884
-114.12041 -75.084152 -74.512604 9537665
-113.39082 -75.248917 -75.211472 9866374
-122.20963 -74.285957 -71.015991 9010808
-121.30481 -74.284531 -70.888275 9734531
-120.61076 -74.28476 -71.527725 9537664
-119.64317 -74.284401 -72.066666 9077369
-118.49872 -74.283386 -72.359886 9538176
-117.78693 -74.340538 -72.788025 8748661
-116.82162 -74.435516 -73.288773 9866884
-116.04117 -74.494293 -73.975037 9603716
-16.266558 -70.393738 -120.98837 7893096
-15.498934 -70.008057 -121.05376 7826791
-14.587801 -69.878654 -121.01057 7760998
-15.331873 -69.192078 -121.33722 7760998
-14.569601 -68.967506 -121.34387 8221549
-13.800997 -68.97541 -121.2644 8879734
-14.492228 -68.010193 -121.68822 9011065
-13.619181 -68.057274 -121.58396 9143418
-12.813932 -67.732368 -121.62329 9209467
-13.634466 -67.160881 -121.9151 9209467
-12.74555 -67.001694 -121.88513 10722192
-13.568663 -66.39402 -122.19057 9209467
-12.73377 -66.097092 -122.21659 14340034
-11.796022 -65.901794 -122.19502 11774365
-12.819445 -65.239326 -122.54056 9932933
-11.8794 -65.045113 -122.51835 9406336
-11.043776 -64.755363 -122.54166 8814201
-11.826231 -64.10218 -122.85979 8880503
-10.872561 -63.987122 -122.80711 9077372
-10.28227 -63.776192 -122.82587 9143166
-11.792501 -63.420788 -123.10699 9538430
-11.014883 -63.061214 -123.16177 9472381
-9.9805584 -62.875244 -123.12714 9340030
-10.786177 -62.207989 -123.45277 8814196
-10.043505 -61.987423 -123.45987 8550514
-9.212389 -61.72998 -123.47175 8945272
-9.9879475 -61.066139 -123.79317 8813686
-9.0264645 -60.94698 -123.74119 8353135
-8.2880154 -60.574249 -123.80868 7563619
-9.8002872 -60.391041 -124.08646 9537409
-9.1114864 -60.158478 -124.18291 7826791
-8.2220211 -59.945412 -124.2655 8616307
-7.3283019 -59.769981 -124.2891 8418928
-8.0580807 -59.51963 -124.76424 9340030
-7.2849059 -59.462307 -124.85518 9142651
-6.4283385 -59.362675 -125.06875 9143163
-5.5527434 -59.253563 -125.55029 9143163
-4.6660438 -59.225784 -125.93319 9537661
-3.688421 -59.225395 -126.45605 8156521
-2.7293642 -59.224766 -126.80842 10130311
-1.889608 -59.224514 -127.31821 8747893
-0.91938937 -59.223824 -127.66024 7563619
-0.15854421 -59.223568 -128.08017 8681842
0.760939 -59.223049 -128.4948 10260871
1.686438 -59.222519 -128.90794 10392715
2.6178763 -59.222019 -129.31364 8879993
3.4970458 -59.030334 -130.08342 8682357
4.4582849 -58.907612 -130.19691 7695715
5.2819047 -58.622135 -130.25652 8353390
4.3934045 -57.92915 -130.55843 8090469
5.4038453 -57.90871 -130.51088 7958884
6.0753427 -57.54425 -130.60767 9208435
4.6735559 -57.225258 -130.80061 6972503
5.3026567 -56.890198 -130.88902 8287848
6.3042169 -56.850834 -130.84886 8813678
5.4672837 -56.229874 -131.12158 9208435
6.1928201 -55.896072 -131.20422 8550507
7.1579804 -55.85107 -131.16818 7103066
6.330008 -55.105198 -131.4861 8418922
7.1510682 -54.871838 -131.52675 8090472
7.9694886 -54.837612 -131.49472 7828846
7.0930123 -54.058952 -131.82729 9735039
8.0623264 -53.886726 -131.83752 9538693
8.8106403 -53.752628 -131.84586 9012606
7.2418046 -53.259922 -132.11154 11905692
7.9838319 -53.003292 -132.16501 11708828
8.9879322 -52.865425 -132.16078 11116696
9.7849445 -52.604832 -132.21272 10853012
8.2123585 -52.108437 -132.47992 10260870
8.9123516 -51.977833 -132.48959 8089961
9.8832378 -51.824795 -132.49272 8550771
9.0603123 -51.025177 -132.83008 6050892
9.8875332 -50.995117 -132.79604 7498338
10.720392 -50.769478 -132.83324 9472127
9.8875523 -50.017704 -133.15363 9208955
10.805155 -49.981426 -133.11693 11972261
11.555609 -49.767815 -133.15421 9143418
10.72312 -49.068371 -133.45543 10130057
11.68651 -48.929188 -133.45389 10261643
12.440931 -48.680355 -133.50385 10130057
10.849279 -48.33894 -133.71547 8682867
11.615046 -48.045753 -133.78104 9866885
12.603449 -47.883904 -133.7865 11774624
11.766352 -47.113251 -134.11404 11511710
12.555521 -47.071072 -134.08653 10327691
13.399714 -46.849899 -134.12158 9209467
12.613783 -46.099319 -134.43895 9143419
13.490763 -46.061684 -134.40503 9933190
14.251589 -45.851742 -134.44044 10919062
13.393103 -45.361504 -134.74934 9998215
14.361208 -45.053379 -134.99124 10524817
15.278269 -44.757275 -135.16768 10524560
16.188375 -44.586838 -135.25479 11181969
15.430956 -44.371929 -135.81607 10787732
16.155317 -44.101246 -135.92017 11379606
17.136801 -43.97319 -135.9706 11905692
17.930704 -43.796005 -136.04633 9734779
16.309431 -43.448219 -136.30946 9143422
17.143526 -43.373814 -136.37029 9537659
18.107309 -43.182858 -136.56642 9734781
18.793554 -42.810196 -137.06258 9734779
19.737799 -42.719612 -137.12656 10392712
19.122549 -42.442406 -137.52129 10260611
19.869261 -42.343281 -137.58661 10459277
20.725019 -42.247108 -137.58069 9209467
21.875593 -41.940887 -137.94788 10459278
23.878057 -42.200649 -139.78751 7367263
25.186754 -42.056789 -140.37529 7039331
-110.43248 -77.637756 -76.953598 8616304
-109.98044 -77.800438 -77.428604 7300445
-109.38481 -77.773224 -78.197105 7563618
-111.36008 -76.576851 -76.408081 9405307
-110.76788 -77.062805 -76.869278 9076854
-110.10076 -77.06649 -77.709908 7037274
-109.5488 -77.226143 -78.312988 7037274
-112.34096 -75.615364 -76.086105 8681842
-111.75286 -75.824524 -76.575623 7761256
-110.9571 -76.23233 -77.171234 8879219
-110.33498 -76.40036 -77.807198 7037274
-114.85613 -74.627853 -74.789474 9340801
-114.47855 -74.615494 -75.331223 9537409
-113.64964 -74.752983 -75.801666 9405823
-112.76198 -75.047989 -76.30162 9800066
-112.09256 -75.206764 -76.903931 8681842
-111.35503 -75.568153 -77.390305 10851980
-123.3918 -73.952988 -71.455177 9931649
-122.78275 -74.287872 -71.738297 9273721
-121.6994 -74.286758 -71.900627 9340030
-120.9041 -74.286575 -72.419632 8616820
-120.01959 -74.286545 -73.076523 10260617
-118.95151 -74.285416 -73.220619 10523787
-118.21874 -74.285576 -73.888901 9472385
-117.22491 -74.296043 -74.165924 10458253
-116.28996 -74.326286 -74.523941 9012093
-115.52737 -74.417061 -75.023071 9209215
-114.81431 -74.452072 -75.746201 9142651
-123.77167 -73.11306 -71.51384 9208435
-18.354235 -70.640404 -121.1056 9143419
-17.75643 -70.568222 -121.07262 8222060
-17.688356 -70.009094 -121.27151 9275005
-16.773085 -70.092232 -121.14973 8353903
-16.003698 -69.704781 -121.21556 7037274
-17.532648 -69.220467 -121.54596 9735812
-16.823771 -69.169022 -121.49431 8287854
-15.893206 -68.952522 -121.48122 7497826
-16.776197 -68.366096 -121.78484 7893096
-15.939882 -68.054993 -121.81596 7958633
-14.999372 -67.845039 -121.79948 9340030
-15.835779 -67.154564 -122.13669 9076599
-14.94248 -66.967247 -122.11661 9603201
-14.255209 -66.679382 -122.15401 9143162
-15.019499 -66.068909 -122.45461 9800321
-14.03126 -65.897194 -122.41935 8749175
-14.826063 -65.216949 -122.74863 8486261
-14.072817 -64.991035 -122.75671 8157811
-13.333979 -64.909233 -122.71321 9407106
-13.950712 -64.022163 -123.10083 8092019
-13.121511 -64.025322 -123.01707 8486262
-12.372164 -63.956703 -122.96763 7564643
-13.140261 -63.079872 -123.36663 9275775
-12.300505 -63.02552 -123.30296 10920081
-11.517626 -62.752094 -123.32555 9538430
-13.046232 -62.241009 -123.66578 11512217
-12.271582 -62.0923 -123.64324 12170146
-11.329115 -62.046375 -123.56628 9538430
-12.174627 -61.359386 -123.90307 9538430
-11.464483 -61.090237 -123.93266 9538175
-10.557695 -61.00106 -123.87384 9208444
-11.307909 -60.42556 -124.21351 9734787
-10.514826 -60.021709 -124.43082 9011577
-9.5764408 -59.795586 -124.53351 8945272
-8.8076687 -59.546188 -124.76383 8418928
-9.4450436 -59.411816 -125.22417 9538433
-8.6464252 -59.324448 -125.42268 10130058
-7.8077407 -59.292332 -125.49585 9800581
-6.7521071 -59.228558 -125.99083 8945784
-6.0631309 -59.228825 -126.67738 9340286
-5.0027938 -59.227497 -126.72838 10261127
-4.2685561 -59.227619 -127.37258 8485229
-3.2084672 -59.226658 -127.61278 9208694
-2.4601839 -59.226776 -128.25294 9998216
-1.3898674 -59.225758 -128.48012 8550514
-0.62751544 -59.225849 -129.11621 9011064
0.45300135 -59.224792 -129.33017 10589836
1.3193573 -59.048294 -130.14798 11708572
2.2279799 -58.936172 -130.29387 10459022
3.0392249 -58.697311 -130.35109 10919573
2.2583754 -57.964439 -130.66174 9932678
3.1683447 -57.936172 -130.62256 9340286
3.836344 -57.674236 -130.68201 9208435
3.0768263 -56.988182 -130.97433 8156010
4.0510774 -56.90234 -130.9527 9076849
4.6786447 -56.730751 -130.98131 8090469
3.1157629 -56.254982 -131.24043 8682867
3.9451087 -55.945049 -131.30865 8551021
4.9620652 -55.863495 -131.28314 8879727
5.6324296 -55.570045 -131.354 9208435
3.9611952 -55.14645 -131.59998 8682867
4.8544755 -54.918056 -131.63489 9866626
5.8522096 -54.80072 -131.6235 8155750
4.9689965 -54.0396 -131.95003 11182744
5.8547044 -53.893669 -131.95518 9668989
6.7083993 -53.699955 -131.97958 10787985
5.8233705 -53.019554 -132.27667 10919571
6.7742105 -52.866985 -132.28073 11774622
7.5695481 -52.601871 -132.33443 11905692
5.9916291 -52.278931 -132.53844 11906725
6.630343 -51.94735 -132.625 11511193
7.6455903 -51.911793 -132.58272 10063747
6.854075 -51.179878 -132.8936 9142647
7.5363336 -50.926414 -132.9492 7958375
8.4632854 -50.911781 -132.90408 7761253
7.6774278 -50.170731 -133.21794 8616304
8.510397 -49.94059 -133.25682 9077369
9.2926731 -49.892487 -133.2318 9011576
8.5115566 -49.11129 -133.56012 11512223
9.4896717 -48.957027 -133.56329 9406590
10.196356 -48.828243 -133.57198 8814453
8.6075954 -48.331219 -133.84019 13551549
9.4141293 -48.070004 -133.89194 9144449
10.432524 -47.935196 -133.8858 8288112
9.4867535 -47.237965 -134.19238 11512225
10.305109 -47.054867 -134.21486 7762030
11.208654 -46.933151 -134.21027 9143679
10.371187 -46.146049 -134.54382 10064779
11.296904 -46.074619 -134.51962 8748665
12.044317 -45.882854 -134.54915 8419440
11.126982 -45.328556 -134.83945 8353907
12.150171 -45.088402 -135.0367 8485233
13.082491 -44.783268 -135.26297 8682612
13.911924 -44.557293 -135.39949 10261644
13.197248 -44.210354 -135.91589 7563619
13.972136 -44.017624 -136.01247 10853781
14.916555 -43.99892 -136.00562 11906981
15.627436 -43.732567 -136.11203 9143422
14.839109 -43.443356 -136.44998 11578018
15.750971 -43.308064 -136.63324 8485494
16.56946 -42.967911 -137.12021 9932679
17.557707 -42.764141 -137.30807 9143935
17.81106 -42.456635 -137.73369 10262415
18.462744 -42.439411 -137.59586 9144192
19.553297 -42.2953 -138.21326 10591124
21.603045 -42.385414 -139.48529 11446173
23.246286 -42.270752 -140.12709 7696484
24.078978 -42.17976 -140.98318 12433069
24.554636 -42.126972 -140.7233 8288627
25.39979 -42.034554 -141.58119 8288370
-108.93295 -77.939255 -78.669884 10261132
-108.53547 -77.924515 -79.180801 9471616
-107.93878 -77.905182 -79.946236 9208187
-109.31979 -77.093895 -78.680321 8221548
-108.68971 -77.159897 -79.437271 9208443
-108.14899 -77.420914 -79.966415 9339772
-110.25812 -76.025246 -78.244606 8155753
-109.56787 -76.17392 -78.977768 9076599
-108.94292 -76.34687 -79.607895 9339770
-113.62376 -74.589821 -76.545898 9537409
-113.02971 -74.659309 -76.9412 9405307
-112.07211 -74.869934 -77.512276 8287598
-111.28265 -75.13105 -78.054596 8813427
-110.60223 -75.312866 -78.656464 9471355
-110.06783 -75.518173 -79.078575 9010806
-123.05128 -73.879799 -72.403175 8681835
-122.3652 -74.146957 -72.982681 9537145
-121.2902 -74.288773 -73.440033 7827308
-120.48421 -74.288551 -73.950348 9668738
-119.40672 -74.287399 -74.089905 10260873
-118.69601 -74.287544 -74.710709 9472385
-117.71448 -74.287132 -75.223846 8223348
-116.65231 -74.28595 -75.345505 9537923
-115.77429 -74.291809 -75.972404 10063753
-114.85724 -74.325653 -76.368118 9340030
-114.16075 -74.40081 -76.86232 9932167
-113.2233 -74.521896 -77.402626 8550769
-112.66473 -74.565147 -77.887787 9012089
-123.5934 -73.068314 -71.940811 9273716
-123.25578 -73.057274 -72.674004 8878958
-123.92085 -72.190605 -71.996628 8879472
-123.68213 -72.030594 -72.656105 10457990
-124.54587 -70.682991 -71.956329 8484973
-124.24371 -71.17601 -72.182175 8222059
-20.039026 -70.785133 -121.22026 8814197
-18.953384 -70.714355 -121.1381 8090218
-124.72414 -70.123489 -72.058289 8484973
-124.51529 -70.322693 -72.338249 8484973
-19.735405 -70.314651 -121.363 7037274
-19.056173 -70.031174 -121.39963 8485232
-18.200171 -69.849831 -121.38105 8748661
-124.90222 -69.564278 -72.160118 10064006
-19.083605 -69.148766 -121.72684 8681840
-18.044355 -68.921051 -121.70707 8024424
-17.26993 -68.531509 -121.77321 7893096
-18.793131 -68.380013 -121.98064 8681835
-18.169489 -68.018585 -122.05139 8813421
-17.271235 -67.91098 -122.0015 8418923
-18.052977 -67.196976 -122.34192 9208182
-17.192327 -67.00753 -122.3259 9208183
-16.369902 -67.036736 -122.23321 9011575
-17.10314 -66.085945 -122.65589 9471354
-16.346666 -66.053398 -122.59253 9931649
-15.50078 -65.828438 -122.59103 9865856
-16.303068 -65.151443 -122.91985 9931649
-15.377645 -65.01516 -122.87782 9471612
-14.751707 -64.667717 -122.94321 8092019
-16.276541 -64.497017 -123.15785 9405819
-15.537329 -64.096527 -123.23152 9866370
-14.520781 -63.955448 -123.18214 10130314
-15.327894 -63.210121 -123.53662 10195334
-14.46483 -63.050911 -123.5092 11182487
-13.690138 -62.751732 -123.54206 9407106
-14.532118 -62.094959 -123.86745 10327177
-13.555323 -61.935135 -123.82893 9077882
-12.771395 -61.571918 -123.88442 13551541
-14.298487 -61.386734 -124.10457 9735297
-13.644503 -61.037346 -124.16796 7696485
-12.649607 -60.853947 -124.1375 8617075
-13.437666 -60.371925 -124.46367 6512978
-12.74917 -60.1012 -124.59054 6841687
-11.800303 -59.914059 -124.63331 8354158
-11.061384 -59.639977 -124.76521 10130313
-11.857088 -59.505161 -125.19881 8617075
-10.930578 -59.437462 -125.30675 8814453
-10.074697 -59.333652 -125.5388 10130313
-9.1263561 -59.239811 -126.17131 10459535
-8.1823368 -59.231293 -126.54799 9735812
-7.2337966 -59.230671 -126.93802 9275004
-6.4109321 -59.230587 -127.47737 9143675
-5.3208137 -59.229549 -127.69796 8617074
-4.6148314 -59.229786 -128.39043 9341054
-3.5145166 -59.22868 -128.59726 10853519
-2.7939928 -59.228897 -129.28674 11643297
-1.711805 -59.227531 -129.31021 9537665
-1.0113961 -59.176567 -130.22144 9011321
-0.078496605 -58.905663 -130.3996 9537407
0.8155731 -58.818222 -130.40878 10260872
0.0441688 -58.160084 -130.71071 11116953
0.85663068 -57.910873 -130.75763 8419440
1.669516 -57.861694 -130.7314 10261643
0.84071958 -57.077763 -131.06329 7959150
1.7965263 -56.902584 -131.07535 7432807
2.5911009 -56.702263 -131.10539 7695720
0.91880643 -56.292667 -131.34619 7038307
1.7042602 -56.014145 -131.40541 7038307
2.6994231 -55.858513 -131.40816 7959149
3.4339011 -55.591843 -131.46568 8682867
1.8634781 -55.121677 -131.72324 9537667
2.6512473 -54.944508 -131.74518 9866887
3.6490729 -54.821056 -131.73602 10393486
2.7344229 -54.038036 -132.07225 11906725
3.6028349 -53.944263 -132.0593 11709346
4.4715295 -53.852287 -132.04564 11906725
3.5564864 -53.067738 -132.38249 11511967
4.5591989 -52.947357 -132.3719 11709346
5.3520799 -52.776104 -132.39142 11906725
3.7732031 -52.297958 -132.65227 12433069
4.4495873 -52.003342 -132.72324 12104104
5.4776292 -51.923904 -132.69635 11380123
4.6294389 -51.19389 -133.00958 12433069
5.373713 -50.968868 -133.05139 9998982
6.2885613 -50.922264 -133.0186 8813940
5.5429101 -50.146481 -133.343 8617587
6.2787309 -49.945255 -133.37657 8024944
7.19414 -49.865166 -133.35606 8419442
6.3015847 -49.102203 -133.68378 8617079
7.1996636 -48.95966 -133.68703 9866886
8.0655041 -48.7691 -133.70955 11907239
7.1175294 -48.077488 -134.01422 10459278
8.1349316 -47.937214 -134.01015 10394515
8.9419384 -47.674755 -134.06223 11907239
7.3437791 -47.346943 -134.2691 8684155
8.0557117 -47.050438 -134.33887 11052188
9.039259 -46.89489 -134.34225 11972775
8.2509518 -46.114021 -134.67084 11446945
8.9774609 -46.032375 -134.66119 11052187
9.8394642 -45.924877 -134.65367 10064779
8.9951534 -45.30183 -134.95737 10065036
9.8826885 -45.06649 -135.13802 8156787
10.810873 -44.763092 -135.38448 9012093
11.739202 -44.634182 -135.44675 10262156
10.908884 -44.166294 -135.96449 9998728
11.725031 -44.06805 -136.03528 9340798
12.62464 -43.955296 -136.08377 8748405
13.334047 -43.693569 -136.2151 7563619
12.730108 -43.494926 -136.8102 7563619
13.55718 -43.401333 -136.83298 8879735
14.513174 -43.132397 -137.18207 11775139
15.510031 -42.887611 -137.45665 8156786
16.11727 -42.707272 -137.5304 9143422
17.518141 -42.547966 -138.06958 10262415
19.082064 -42.729988 -139.72223 11906725
19.400686 -42.694618 -139.5632 10591124
20.681597 -42.553894 -140.18417 8814715
21.158998 -42.500977 -139.9386 12433069
21.815966 -42.429443 -140.88464 9341822
22.453356 -42.358723 -140.54926 8420464
23.44206 -42.250412 -141.32773 9736068
24.60269 -42.123035 -142.02206 9998216
25.776472 -41.994236 -142.71658 8090995
-107.53014 -77.886482 -80.448273 9339515
-107.05191 -77.819473 -80.897926 8617075
-106.33514 -77.721733 -81.570572 9340286
-105.61929 -77.62764 -82.240891 9209468
-107.91061 -77.114952 -80.441635 9537405
-107.26964 -77.09404 -81.060486 8682868
-106.56771 -77.046295 -81.696075 9471872
-105.92157 -77.165283 -82.201965 8617331
-108.86942 -75.97934 -80.051277 9339769
-108.20861 -76.098518 -80.747688 9668733
-107.41624 -76.241982 -81.372269 9406079
-111.4719 -74.707848 -78.664619 9010806
-110.70282 -74.830505 -79.356064 10326661
-109.91571 -75.147469 -79.771957 9602941
-109.23769 -75.270096 -80.433662 9076599
-108.67442 -75.478867 -80.8881 9734526
-122.27356 -73.828682 -73.693054 10326408
-121.74013 -73.925667 -74.308273 10918289
-121.10265 -74.141678 -74.85807 7827308
-119.86357 -74.289444 -74.967323 9143678
-118.96568 -74.289368 -75.610077 7960177
-118.15499 -74.289108 -76.100662 7565675
-117.26054 -74.288368 -76.331154 8946300
-116.36163 -74.288239 -76.951683 8945785
-115.37984 -74.287575 -77.309708 9735555
-114.40329 -74.286896 -77.662292 10525071
-113.51746 -74.336006 -78.187729 8814710
-112.55962 -74.449409 -78.615891 8748917
-111.79312 -74.546272 -79.088745 10195589
-111.40343 -74.538879 -79.620468 9931905
-123.18994 -72.611565 -73.168091 8681835
-122.64481 -73.002357 -73.691452 12168352
-122.00365 -73.208923 -74.46727 11378582
-123.35722 -72.044212 -73.266357 9208180
-122.71959 -72.201599 -74.092888 9932934
-122.2093 -72.553528 -74.591492 8681843
-124.04587 -70.999306 -72.767281 8222060
-123.61473 -71.107689 -73.498009 7958889
-123.05347 -71.459351 -74.090942 8419696
-22.218636 -71.006607 -121.35591 9011577
-21.221931 -70.839516 -121.31809 8550768
-20.478004 -70.575508 -121.34103 9143419
-124.36426 -69.973709 -72.972244 9537920
-123.9391 -70.085373 -73.708832 7433063
-22.013597 -70.445107 -121.54192 9011577
-21.278568 -70.015114 -121.62689 8287598
-20.305883 -69.889404 -121.57623 8681583
-125.00533 -69.011772 -72.419312 9406335
-124.66577 -69.161964 -73.026726 9208957
-21.280512 -69.240273 -121.91203 8748405
-20.430433 -68.993881 -121.91796 8878963
-19.571117 -68.914436 -121.8616 8615534
-125.26004 -68.039551 -72.71611 8946555
-124.88274 -68.479042 -73.152359 8156529
-20.226526 -68.017845 -122.25658 8483691
-19.357294 -68.118195 -122.1331 8352104
-18.681742 -67.708206 -122.21661 8681835
-125.64812 -67.039062 -72.747406 8289395
-19.539946 -67.151695 -122.5067 9010806
-18.540438 -66.961349 -122.47716 9010802
-125.96864 -66.217049 -72.769592 7039331
-19.323946 -66.358902 -122.77675 9537150
-18.516237 -66.076912 -122.79997 9668735
-17.674452 -65.843452 -122.80199 9273975
-18.578596 -65.180832 -123.1357 9142649
-17.622622 -64.966263 -123.11938 9800066
-16.873323 -64.722443 -123.13443 9734527
-17.672979 -64.074394 -123.45238 8879479
-16.748713 -63.954453 -123.4044 9603457
-17.561647 -63.329479 -123.71525 9537409
-16.737337 -63.000118 -123.75423 9142651
-15.843824 -63.044994 -123.64876 8945271
-16.603918 -62.147938 -124.05434 8813686
-15.920042 -62.053097 -124.02106 8945527
-15.106428 -62.028091 -123.9492 9275003
-15.724932 -61.118263 -124.34755 9866883
-14.860434 -61.116287 -124.26001 10392969
-14.328016 -60.744366 -124.34378 11379607
-14.939539 -60.24395 -124.70706 10524556
-13.995295 -59.997662 -124.80399 9472126
-13.0884 -59.602844 -125.11369 9274493
-13.268084 -59.406513 -125.64195 9734788
-12.237543 -59.350121 -125.75017 9208699
-11.337019 -59.266121 -126.08546 9275004
-10.299059 -59.233727 -126.38295 10327692
-9.6260624 -59.234035 -127.09534 11775395
-8.5435276 -59.233093 -127.34208 10985879
-7.7227912 -59.232914 -127.89533 10393742
-6.7630744 -59.232334 -128.28528 10261899
-5.7975554 -59.231728 -128.67155 9341054
-4.957643 -59.23151 -129.21214 8485745
-4.0380721 -59.230808 -129.45961 10919830
-3.2827852 -59.2309 -130.11763 9275261
-2.3144624 -58.956196 -130.46724 9669762
-1.2656456 -58.82164 -130.54001 8946039
-2.2085474 -58.269962 -130.7932 10525071
-1.3850647 -57.968315 -130.85867 8288109
-0.43650594 -57.863361 -130.84544 11380381
-1.4108826 -57.149467 -131.15964 8682868
-0.44985357 -56.953186 -131.17915 11117209
0.39607081 -56.743511 -131.20979 9011833
-0.54876482 -56.069042 -131.50797 10459279
0.44698939 -55.907074 -131.51302 10129802
1.2333053 -55.627232 -131.5726 10853012
-0.34177938 -55.331276 -131.7666 9011833
0.40252146 -55.015228 -131.84171 8748408
1.3913063 -54.883251 -131.83615 9537667
0.49708781 -54.214664 -132.12944 7564651
1.3491195 -54.008595 -132.15846 8748409
2.2350867 -53.85376 -132.16687 11379868
1.3405136 -53.101288 -132.49084 8354166
2.300276 -53.005489 -132.47363 11840932
3.1366026 -52.716873 -132.53366 12169897
2.2280791 -52.031273 -132.83398 11577760
3.2044432 -51.976402 -132.80089 12433069
3.9370062 -51.638878 -132.88451 12433069
2.5087035 -51.32848 -133.07582 10261900
3.0830901 -50.992035 -133.16762 11314588
4.0620179 -50.939415 -133.13358 11643809
4.7409539 -50.645325 -133.20416 8486256
3.3100111 -50.331924 -133.39676 10327949
3.993933 -49.965847 -133.49347 9012344
4.9760842 -49.939556 -133.44958 8157547
4.1170259 -49.140305 -133.78879 8880758
4.9615846 -48.971516 -133.80453 10788242
5.79814 -48.913319 -133.78027 10392972
4.9496408 -48.15691 -134.1032 9012347
5.9341149 -47.979641 -134.11446 8551287
6.6964746 -47.67733 -134.1835 10787729
5.0959306 -47.358017 -134.38747 9012606
5.8486352 -47.097633 -134.44177 10459279
6.8684106 -46.954319 -134.43869 10459279
5.9670701 -46.257416 -134.74271 9604485
6.7219529 -46.034977 -134.78297 10393230
7.6491342 -45.991428 -134.74844 9341059
6.7996583 -45.251938 -135.08496 10064010
7.7122369 -45.081795 -135.1972 8287859
8.5807209 -44.992912 -135.2543 9011836
9.4663372 -44.618717 -135.55971 8091760
8.5559406 -44.422031 -135.76419 8814713
9.5515537 -44.159035 -136.03355 8091760
10.38975 -43.918396 -136.32602 9275519
11.408136 -43.631016 -136.76134 8682612
11.456041 -43.266876 -137.36769 8419440
12.164228 -43.360554 -137.13797 9340030
13.123289 -43.164337 -137.4996 8814198
13.781988 -42.983044 -137.45427 7563619
15.189947 -42.882061 -138.19824 7564651
16.855837 -42.975559 -139.55469 7301991
17.568567 -42.897217 -139.83881 7039331
18.442682 -42.800861 -140.03851 8618105
19.56222 -42.678062 -140.75269 7630443
20.448698 -42.580448 -140.94783 7893615
21.015676 -42.518208 -141.30127 8814715
21.33637 -42.48262 -141.13504 7564643
22.321398 -42.374741 -141.92612 8420464
23.31925 -42.265392 -142.72163 9341822
23.801737 -42.211891 -142.46024 11709090
24.973463 -42.083328 -143.16422 9537665
26.001398 -41.977234 -143.98119 8090995
-106.41961 -76.603584 -82.040565 8617075
-105.56801 -76.963684 -82.608505 8617331
-104.8913 -77.160774 -83.103073 8683124
-104.09418 -77.102333 -83.826988 7893352
-103.38726 -77.107635 -84.441162 7695978
-107.48259 -75.770676 -81.726143 9011577
-106.65205 -75.994308 -82.257935 9274493
-105.83759 -76.17157 -82.81678 9077882
-105.14013 -76.135185 -83.451447 8683383
-104.47346 -76.245186 -83.936333 9998730
-110.1071 -74.684349 -80.514404 8813428
-109.4037 -74.759331 -81.133102 8945013
-108.53042 -75.11647 -81.457672 9208184
-107.77586 -75.145454 -82.116058 8550770
-106.94868 -75.222549 -82.749466 9932163
-106.18656 -75.545601 -83.086182 11511708
-121.01526 -73.824326 -75.475281 9273979
-120.40569 -74.007286 -76.107124 10392972
-119.59741 -74.291611 -76.475616 8090737
-118.59705 -74.291161 -76.985672 8025456
-117.42456 -74.290077 -77.240143 9406080
-116.69771 -74.290138 -77.841934 8748663
-115.79634 -74.28952 -78.189026 9340797
-114.89976 -74.288971 -78.531235 9340797
-114.07445 -74.28907 -79.252213 9341054
-113.01697 -74.28788 -79.334007 9735812
-112.18968 -74.344627 -79.850052 9471869
-111.22049 -74.451912 -80.299225 9734527
-110.42178 -74.52327 -80.944237 9668734
-121.72596 -73.035339 -74.969894 13023917
-121.2489 -73.075043 -75.619476 9405308
-120.77174 -73.116486 -76.268005 10524301
-122.64084 -71.816254 -74.448402 7169373
-122.0908 -72.082588 -75.057449 9471101
-121.50726 -72.246498 -75.778839 9668736
-123.38754 -70.717918 -74.088165 9735812
-122.86583 -71.021034 -74.633911 8419696
-122.29457 -71.085892 -75.400635 9997956
-24.316103 -71.210892 -121.4897 9405049
-23.447157 -71.009377 -121.47725 9470842
-22.808098 -70.775566 -121.49958 9735812
-123.72551 -69.901588 -74.127296 7959147
-123.12103 -70.106323 -74.852409 8748917
-122.61678 -70.296509 -75.445023 8419696
-23.544344 -70.028633 -121.84762 8221290
-22.556198 -70.018593 -121.75287 9011833
-124.45544 -68.874054 -73.709641 7564651
-123.91225 -69.134331 -74.349213 7959405
-123.35949 -69.274254 -75.042206 9735557
-23.329416 -69.290398 -122.09769 7563619
-22.572428 -69.088799 -122.09641 8419184
-21.682037 -68.929062 -122.06645 9406335
-124.76469 -68.07885 -73.739166 7893615
-124.22066 -68.156708 -74.532318 8946299
-22.471563 -68.344688 -122.35998 8551023
-21.719238 -68.081627 -122.38179 8616305
-20.839405 -67.903908 -122.35951 8944756
-125.44499 -66.863106 -73.343399 9012601
-124.98186 -67.092117 -74.085785 9275005
-21.702581 -67.211159 -122.70024 9274234
-20.781008 -66.939537 -122.70835 9011066
-20.118425 -66.727066 -122.72047 8945273
-126.08685 -65.845901 -72.837234 8090984
-125.72589 -66.056221 -73.438438 7038809
-125.42352 -66.082039 -74.073715 8090984
-20.811871 -66.061363 -123.03436 8682359
-19.829193 -65.969467 -122.97027 9340030
-126.31493 -65.014282 -73.068817 8485485
-125.98712 -65.234406 -73.589386 8551022
-20.628628 -65.199051 -123.33318 9405824
-19.837202 -65.006882 -123.32503 9076859
-19.06415 -64.930115 -123.27625 9274236
-126.61292 -64.003426 -73.340729 8945780
-126.25661 -64.38662 -73.745087 9734526
-19.754492 -63.977798 -123.69521 8550513
-18.897776 -64.126755 -123.55512 8024169
-18.143789 -63.880486 -123.57059 8287341
-127.05177 -63.319447 -73.388336 10064262
-19.068792 -63.207024 -123.91038 8879478
-18.081388 -63.029762 -123.8772 8287342
-17.292578 -62.650894 -123.93795 9537409
-18.841722 -62.489433 -124.15166 9537408
-18.093855 -62.084747 -124.22598 8418927
-17.112253 -61.936863 -124.18259 8813686
-18.085733 -61.325779 -124.50426 9143163
-17.228312 -61.02235 -124.53043 8616819
-16.264334 -60.819889 -124.51051 10458508
-17.125196 -60.320515 -124.87019 9143163
-16.290541 -60.0382 -124.99376 9274492
-15.324286 -59.839111 -125.04568 8945527
-15.545313 -59.506157 -125.5766 8616307
-14.420073 -59.3894 -125.81789 9340286
-13.474092 -59.2621 -126.12112 9603201
-12.778952 -59.237534 -126.76054 9734786
-11.737436 -59.236717 -127.07155 10854036
-10.691885 -59.235878 -127.37668 9998727
-9.9813671 -59.236088 -128.0594 11051672
-8.9092884 -59.234879 -128.14386 13090998
-8.2192326 -59.23518 -128.86293 11314587
-7.1197104 -59.234097 -129.10104 10590864
-6.3704581 -59.233952 -129.5666 9143675
-5.4603324 -59.233528 -130.03461 8354159
-4.5466857 -58.989243 -130.55888 9209468
-3.4549501 -58.889175 -130.63449 10459279
-4.5085883 -58.319317 -130.90033 9341054
-3.6222894 -58.067368 -130.94424 11380380
-2.6298578 -57.924633 -130.94244 11183001
-3.6027734 -57.140415 -131.28233 10656400
-2.6913621 -57.045147 -131.26753 10459278
-1.8024575 -56.798523 -131.30936 11775139
-2.7007577 -56.137043 -131.60028 10130056
-1.7133766 -55.995975 -131.59811 9669762
-0.9705292 -55.67622 -131.67467 10459279
-2.5504167 -55.389767 -131.86549 10261641
-1.8157822 -55.1124 -131.92693 8682867
-0.81672442 -54.947266 -131.93295 8814453
-1.7168137 -54.267094 -132.23077 8682867
-0.91624224 -54.060013 -132.26297 9077624
0.048406929 -53.881298 -132.27583 7696236
-0.79431689 -53.101929 -132.60683 10525069
0.030226082 -53.050457 -132.58078 8288116
0.85448682 -52.803268 -132.62634 7564651
0.054956764 -52.076797 -132.93562 9340802
0.98120725 -52.044338 -132.89709 9077374
1.6595596 -51.780094 -132.9568 5920074
0.28060374 -51.367207 -133.18298 15195086
0.91747892 -51.026089 -133.27306 8025197
1.8732208 -51.009575 -133.22707 6841176
2.5114806 -50.671066 -133.31612 10261900
1.0768989 -50.365559 -133.50598 7038298
1.8116935 -50.024578 -133.59076 6446418
2.7937186 -49.969002 -133.55763 6512211
1.8773063 -49.284046 -133.85812 7433056
2.7220175 -48.995556 -133.91766 7104606
3.6068022 -48.948666 -133.88664 8223086
2.628897 -48.150452 -134.23193 7630953
3.6453383 -48.028564 -134.22118 8683641
4.556273 -47.800392 -134.25505 8486262
3.5315993 -47.08522 -134.57248 7565418
4.5737176 -47.004028 -134.54544 9472900
5.424933 -46.698662 -134.61075 9933193
3.8196013 -46.219551 -134.87349 9933193
4.4657197 -46.049107 -134.90068 9670021
5.4696183 -45.96843 -134.87553 9670278
4.6333985 -45.390377 -135.13257 10393486
5.4118791 -45.12429 -135.29514 9275777
6.3135285 -44.982025 -135.32864 9538180
7.0769868 -44.79557 -135.4762 7038307
6.2783303 -44.519161 -135.79099 8486007
7.3468118 -44.328205 -136.01067 8879995
8.0996838 -44.0812 -136.35272 9998217
8.9678631 -43.826115 -136.78865 7828588
9.9188099 -43.595974 -137.10565 8814970
10.776251 -43.542629 -137.11375 10261132
10.99135 -43.383793 -137.77551 9340286
12.727327 -43.325207 -138.65112 8288109
14.478537 -43.23782 -139.42744 6972249
15.569429 -43.118206 -140.16298 8617330
16.213842 -43.046726 -139.85985 6446418
17.156958 -42.943508 -140.66528 8090991
18.273516 -42.821011 -141.395 6446425
18.919313 -42.749416 -141.075 8618105
19.888044 -42.643303 -141.87885 6774618
20.869371 -42.535877 -142.68729 9405566
21.193216 -42.499889 -142.51901 7564643
21.516489 -42.463989 -142.35034 7564643
22.511026 -42.355114 -143.15457 9539202
23.680914 -42.226727 -143.87515 8089963
24.434015 -42.14386 -144.14772 8089963
25.350725 -42.043392 -144.32529 8551029
26.24 -41.976032 -145.3221 8090995
-103.25354 -76.719978 -84.74633 7564651
-102.577 -77.080093 -85.161499 7630441
-101.80351 -76.972084 -85.888916 7367263
-101.01587 -76.981239 -86.571632 9077881
-104.94882 -75.73967 -83.96933 7762796
-104.23795 -75.901367 -84.43615 8419701
-103.56561 -75.929649 -84.99939 8024945
-102.69765 -76.212532 -85.525009 8024941
-101.87509 -76.305466 -86.163383 7959401
-101.30447 -76.392639 -86.606026 10262156
-108.79726 -74.652054 -82.199234 8485238
-108.04439 -74.650375 -82.864113 8353135
-107.18924 -74.782158 -83.211632 10063492
-106.24537 -75.030945 -83.633896 10261899
-105.40965 -75.109711 -84.208992 9209727
-104.64182 -75.226562 -84.758881 8420214
-103.96444 -75.322327 -85.2528 8419702
-103.19693 -75.571327 -85.669449 9340289
-120.28987 -73.601944 -76.642029 7564651
-119.74092 -74.01062 -77.106575 7827566
-119.11739 -74.117195 -77.928596 9077372
-118.13068 -74.292404 -78.10379 9471873
-117.21399 -74.292244 -78.723648 8683126
-116.21419 -74.291527 -79.076462 8880503
-115.21982 -74.290825 -79.423767 8814453
-114.47607 -74.291069 -80.138412 9275004
-113.40974 -74.289833 -80.215294 9735812
-112.66504 -74.290009 -80.917068 9011578
-111.67781 -74.289299 -81.236389 8485236
-110.82849 -74.347107 -81.483124 8879993
-109.9348 -74.434334 -82.017868 8353651
-109.10024 -74.487816 -82.630089 7761772
-107.49226 -74.571747 -83.679451 10590091
-120.49282 -72.946823 -76.769852 7564651
-119.89494 -73.166168 -77.476517 7696237
-119.41233 -73.443871 -77.983131 9143422
-121.22543 -72.030525 -76.314171 9010807
-120.75349 -72.105515 -76.934158 7893101
-120.25771 -72.162346 -77.599258 7761515
-26.70278 -71.788719 -121.51495 9011065
-25.779646 -71.649376 -121.47426 8287342
-122.20389 -70.654915 -75.801834 10129030
-121.63152 -70.973068 -76.409698 9274234
-121.02908 -71.108322 -77.17598 7827047
-26.577084 -71.432304 -121.63345 9011065
-25.790268 -71.008804 -121.71086 7497569
-24.879335 -70.988693 -121.62752 8023911
-122.35074 -70.056488 -75.973175 8090219
-121.78524 -70.069054 -76.764938 7169373
-25.572243 -70.006454 -122.05775 6379601
-24.756136 -70.090172 -121.94569 8221034
-24.112997 -69.843269 -121.97238 7958118
-123.14473 -69.092743 -75.460892 9208959
-122.64154 -69.125175 -76.151901 7498600
-122.12973 -69.391617 -76.706924 5919050
-24.803019 -69.160782 -122.29214 6116429
-23.858503 -68.999504 -122.25735 6116429
-23.07205 -68.590256 -122.32951 6972503
-123.95757 -67.842522 -75.103416 10130058
-123.44392 -68.106064 -75.662758 8945788
-122.93965 -68.138474 -76.355362 8419702
-24.634863 -68.469994 -122.52934 5392706
-23.97971 -68.080917 -122.60725 5656390
-23.021175 -67.882622 -122.58466 6578002
-124.87908 -66.632317 -74.566833 9406590
-124.36322 -66.982162 -75.074684 9998727
-123.7354 -67.17646 -75.839462 8288115
-23.896681 -67.261345 -122.90035 5920074
-23.000502 -66.973572 -122.91688 6840918
-22.160549 -66.924805 -122.85116 8090469
-125.10675 -66.040306 -74.619858 10130313
-124.45172 -66.13726 -75.484711 9538176
-123.88175 -66.580017 -76.010208 7564651
-22.947727 -66.055878 -123.24909 6512209
-22.128033 -66.060303 -123.16583 7432802
-21.307981 -65.828918 -123.16924 8813945
-125.78517 -65.057991 -74.183151 9734526
-125.34831 -65.147118 -74.844017 10918801
-124.86866 -65.215698 -75.478851 9538176
-22.140181 -65.163002 -123.49701 7761769
-21.195995 -65.006897 -123.46039 9011323
-20.561932 -64.644119 -123.53058 8813945
-126.16772 -63.959625 -74.304489 9734526
-125.65303 -64.182625 -75.024033 9734785
-21.925726 -64.369148 -123.76758 7038817
-21.220608 -64.065971 -123.80885 8616821
-20.338118 -63.92194 -123.77392 9406080
-127.09374 -62.931339 -73.955643 9537661
-126.50208 -63.208096 -74.621567 9274236
-21.175823 -63.186779 -124.12766 9603969
