# .PCD v0.7 - Point Cloud Data file format
VERSION 0.7
FIELDS x y z rgb
SIZE 4 4 4 4
TYPE F F F U
COUNT 1 1 1 1
WIDTH 1182
HEIGHT 1
VIEWPOINT 0 0 0 1 0 0 0
POINTS 1182
DATA ascii
-128.86774 -59.743881 -100.9749 7236454
-128.51944 -59.635666 -101.9565 5921618
-128.51028 -59.573219 -102.70537 6316376
-167.54056 -58.849445 29.177639 8682867
-167.68225 -58.933838 28.439816 6972505
-167.68324 -59.04134 27.539848 6511954
-166.51067 -59.042671 26.316257 8089963
-166.63622 -59.044155 25.513401 8089963
-166.78844 -59.046013 24.509174 8353135
-165.6132 -59.047287 23.316216 7037274
-165.72438 -59.048748 22.517769 7366495
-165.85855 -59.050583 21.519047 7563874
-164.92151 -59.146164 20.588394 8682867
-165.15666 -59.196335 19.809998 8089962
-127.98878 -59.504055 -103.04837 6579035
-128.0882 -59.379086 -104.40291 7565675
-127.49769 -59.28083 -104.69051 6841951
-127.58938 -59.155827 -106.0554 6512986
-127.0369 -59.07795 -106.3745 7368038
-126.98033 -58.948067 -107.89409 8354418
-126.28123 -58.865578 -108.35166 8814454
-126.41811 -58.770172 -109.79379 8815477
-125.70975 -58.687439 -110.24548 9210491
-125.8336 -58.590458 -111.69778 8156012
-167.86389 -57.353119 29.857449 8089963
-167.89729 -57.86562 29.394627 8880503
-168.10876 -58.305599 28.650436 7959144
-125.11597 -58.507591 -112.14281 8156012
-125.23215 -58.411476 -113.61017 8024169
-124.52467 -58.337387 -114.06655 8089963
-124.66193 -58.255463 -115.57628 8879479
-123.94734 -58.182411 -116.02878 8616307
-124.25248 -58.117332 -117.43842 7958376
-123.5285 -58.044014 -117.88556 9273972
-123.45834 -57.940678 -119.53058 11181969
-122.90806 -57.885479 -119.86099 11181969
-123.00026 -57.795525 -121.40002 10327693
-122.41922 -57.729057 -121.70259 7564643
-122.46732 -57.62233 -123.22119 9011833
-167.91704 -56.766354 30.213856 10130058
-168.28514 -56.768612 29.513382 9012347
-121.87887 -57.555244 -123.51825 10459279
-121.72043 -57.426281 -125.14896 9142651
-120.95113 -57.348278 -125.56227 10261132
-121.05178 -57.276028 -127.18588 7037274
-120.4741 -57.220528 -127.49787 7563619
-120.56298 -57.146687 -129.1358 9340798
-119.978 -57.090874 -129.44319 8419440
-120.25233 -57.034267 -130.99451 9340798
-119.65997 -56.978138 -131.29774 7826791
-119.72713 -56.901344 -132.96588 9734529
-119.12728 -56.844902 -133.26424 8879478
-119.18214 -56.766518 -134.94722 8089963
-118.3724 -56.690941 -135.3378 7958633
-167.92844 -55.575771 31.120155 9866630
-168.2243 -55.859192 30.337563 10458767
-118.47714 -56.563324 -136.77711 8287342
-118.01934 -56.443459 -137.35794 7563619
-117.65776 -56.084999 -138.36592 8484464
-117.19047 -55.838158 -138.96413 9011321
-168.27652 -54.82642 31.043713 8418928
-168.53673 -55.027203 30.392921 8089963
-117.9448 -55.221252 -138.83841 9143675
-117.31323 -55.256706 -139.31314 9011321
-116.96133 -54.986301 -139.71202 9011321
-168.25414 -53.633572 32.017166 9472126
-168.4982 -53.903084 31.343342 9143161
-117.5751 -54.218662 -139.59023 9011577
-116.93652 -54.036732 -140.17114 7958377
-168.56514 -52.80265 32.07502 9406333
-168.86383 -53.081509 31.290085 10261641
-117.2551 -52.995407 -140.40565 9801349
-116.56171 -52.988052 -140.94836 8945783
-168.49899 -51.902302 32.903419 11905692
-168.87077 -51.895901 32.202255 10984849
-117.28902 -52.108601 -140.79012 7762539
-116.65356 -52.146618 -141.26677 8486003
-116.29845 -51.877354 -141.66776 9932675
-168.66354 -50.381432 33.777931 9735302
-168.88275 -50.806999 33.029438 11314074
-168.9207 -51.312725 32.562733 14076861
-116.97457 -51.217937 -141.44743 8091503
-116.27869 -51.211857 -141.99158 8486003
-168.89575 -49.757908 33.823586 9735302
-169.18025 -49.80661 33.245079 8617080
-116.95533 -50.551785 -141.77112 8486003
-116.61024 -50.104889 -142.24667 8814456
-115.95065 -49.989086 -142.8134 9997958
-169.18311 -48.878017 33.96452 8419701
-169.31812 -49.166092 33.483261 7564651
-116.74117 -49.217453 -142.55615 8616822
-116.20864 -48.947075 -143.0957 8156014
-115.61994 -48.766026 -143.63741 9011065
-169.20291 -47.711575 34.837349 10261386
-169.49785 -47.869446 34.153896 9143163
-116.39294 -48.148045 -143.32263 7958635
-115.673 -48.025513 -143.93942 8747893
-169.52892 -46.697971 35.009212 11445914
-169.71236 -47.020847 34.408825 9932419
-116.62715 -47.437519 -143.46974 9734788
-115.97672 -47.211517 -144.0804 9011064
-115.32566 -46.986355 -144.69119 10128771
-169.54147 -45.82552 35.792404 9866885
-169.87241 -45.84058 35.186069 10130057
-116.15974 -46.434956 -144.30768 9734784
-115.6133 -45.991299 -145.05173 10391943
-115.03761 -45.693619 -145.76237 10851980
-169.9832 -44.654095 36.941303 8748659
-170.0228 -45.047882 36.107201 10064007
-115.93731 -45.285702 -145.45737 10851980
-115.38048 -45.120113 -146.05133 10260357
-114.89635 -44.87315 -146.66747 9471358
-173.01927 -43.471111 47.199863 7958632
-173.23532 -43.805836 46.736565 11708829
-172.0558 -44.014767 44.494373 9735297
-172.26903 -44.016361 43.664688 10064260
-171.05811 -44.020641 40.732212 10392972
-171.30191 -44.022606 39.701157 12629416
-170.36792 -44.196602 38.619095 8089963
-170.67406 -44.229252 37.824802 9735297
-115.22076 -44.579777 -147.4447 8682867
-173.19797 -42.772984 47.382019 8090218
-173.43446 -41.871281 47.610123 8682611
-173.40668 -40.746696 48.296848 7234909
-173.64008 -39.757915 48.579369 7038049
-173.61819 -38.805706 49.158737 9011578
-174.04088 -38.861271 48.599987 7038307
-173.87741 -37.890442 49.366512 8617078
-173.8718 -36.57983 50.13343 7893611
-174.1026 -36.946861 49.633091 7498856
-174.13043 -35.662907 50.342911 7433062
-174.18272 -34.58535 50.902706 6511962
-174.34386 -34.9426 50.494587 6972512
-174.28671 -33.920071 51.160011 7038049
-174.63077 -34.184624 50.576862 7564392
-174.43358 -32.3564 51.886303 8287859
-174.50766 -32.944656 51.451717 7367270
-174.53693 -31.690125 52.144943 8287859
-174.96501 -31.734442 51.585033 7038307
-174.64209 -30.581543 52.863117 7562586
-174.91942 -30.829712 52.258041 7301479
-175.40858 -29.36002 54.018337 9735558
-174.93707 -29.906553 53.319965 8483945
-175.24171 -30.199339 52.583881 7038307
-175.52383 -28.997129 55.912411 9932419
-175.79736 -29.010132 55.300339 9801092
-162.48146 -70.473434 9.0440226 9866371
-162.53595 -70.471977 7.8688397 9142651
-162.45256 -70.41787 6.8836598 10260875
-162.37579 -70.375145 6.2921758 8089963
-163.03831 -69.641342 10.783441 10129542
-163.11607 -69.870636 9.9174051 10195335
-163.0999 -70.257492 8.8818216 9340283
-162.32356 -70.346794 5.8982625 8089963
-161.22121 -70.336823 5.2732015 7826791
-161.08562 -70.266678 4.2970815 7563619
-160.91632 -70.182892 3.1281402 7563619
-160.76978 -70.113449 2.1560028 9011320
-160.61781 -70.044281 1.1858718 9800837
-160.46111 -69.975471 0.21754903 7761509
-160.29897 -69.90696 -0.74875194 7039331
-159.16766 -69.887421 -1.512275 8682872
-158.99893 -69.819901 -2.4691269 7038307
-158.82475 -69.752678 -3.4239304 9011323
-158.63014 -69.678825 -4.3763919 9932163
-158.37531 -69.581352 -5.3248363 10590091
-158.06366 -69.46492 -6.4592509 9011833
-163.20203 -68.621819 11.583032 9208443
-163.37865 -68.853325 10.729428 10655629
-163.56444 -69.045883 9.8942423 7038298
-157.79898 -69.368324 -7.401504 12433332
-157.52942 -69.272263 -8.3406858 15790062
-157.25307 -69.175423 -9.2769651 10855060
-156.97023 -69.078354 -10.209966 8288627
-156.68326 -68.981682 -11.140151 9538947
-156.39151 -68.885544 -12.067168 9800320
-156.03586 -68.770729 -13.17571 10062979
-155.73477 -68.675522 -14.096223 9406076
-155.42902 -68.580849 -15.013492 8814710
-155.11932 -68.486549 -15.927846 8616819
-154.93143 -68.430222 -16.475079 9340030
-163.41144 -67.846603 11.860589 8813939
-163.63716 -67.993454 10.952874 9735041
-154.75711 -68.380753 -17.022612 8419444
-154.4769 -68.304855 -17.934587 9735302
-154.19226 -68.229141 -18.844006 9735302
-153.90254 -68.153664 -19.750614 8617336
-153.60841 -68.078392 -20.654602 9669762
-153.30928 -68.003464 -21.555662 9143418
-152.94438 -67.913834 -22.633419 9669504
-152.63519 -67.839439 -23.528576 10064262
-152.32126 -67.765312 -24.420721 8090987
-152.43274 -67.667717 -25.570301 7960176
-152.53433 -67.570068 -26.721327 8551545
-152.20187 -67.496368 -27.609417 14077894
-151.9325 -67.437569 -28.31776 10524816
-163.61436 -66.766045 12.534524 9208440
-163.75079 -66.937523 11.884053 8353646
-163.8573 -67.29718 11.098981 8287854
-151.71397 -67.387093 -28.845114 7037274
-151.39606 -67.309486 -29.541477 8682093
-150.99547 -67.212769 -30.409178 8287084
-150.5907 -67.116524 -31.273117 8090472
-150.09988 -67.001572 -32.305222 6511954
-149.97632 -66.890182 -33.288517 8879986
-150.218 -66.78167 -34.228283 8484973
-149.70752 -66.667709 -35.252689 10391943
-149.27805 -66.573257 -36.102451 9931648
-148.84454 -66.479172 -36.948353 9734788
-163.74298 -65.667664 13.469468 8813939
-163.88943 -65.880104 12.736531 9274233
-164.10095 -65.999336 11.908399 10063235
-148.31956 -66.366898 -37.958714 8485238
-148.81439 -66.24086 -39.04063 9011066
-148.36485 -66.147652 -39.8797 10458250
-147.82549 -66.038559 -40.883137 8089963
-147.31493 -65.945297 -41.890858 7959148
-146.8894 -65.869774 -42.728149 8288622
-147.11038 -65.786011 -43.754929 8288622
-146.9106 -65.691284 -44.852612 9472385
-146.46782 -65.616081 -45.683964 8814971
-146.01228 -65.537354 -46.508907 7960176
-145.61578 -65.461319 -47.15704 7565675
-163.97592 -64.783173 13.805646 9208698
-164.21141 -64.894699 12.90965 8419182
-145.78993 -65.392197 -47.796116 7828589
-145.75482 -65.283607 -48.75745 7697259
-145.2373 -65.185341 -49.55941 8617847
-144.71623 -65.087524 -50.356998 11510936
-144.92763 -64.928299 -51.803276 8879475
-144.50072 -64.850304 -52.437561 7300957
-143.96397 -64.753189 -53.226456 6643287
-143.94301 -64.620499 -54.404377 9735046
-143.70901 -64.515411 -55.30621 6511962
-164.12286 -63.89146 14.427747 8156267
-164.39771 -63.815941 13.634736 8287597
-164.38585 -64.264511 13.121808 8090218
-143.15688 -64.419136 -56.086216 8946041
-143.11372 -64.285858 -57.265671 9406590
-142.86243 -64.18087 -58.164589 9537408
-142.29521 -64.085373 -58.935379 7498593
-142.25146 -63.961246 -60.125156 10656914
-142.02406 -63.874649 -61.038433 8288365
-141.47887 -63.796665 -61.816242 8353135
-141.14485 -63.700546 -62.88937 9932167
-141.23878 -63.617096 -63.951206 8879479
-140.67653 -63.53915 -64.720451 9932935
-164.2917 -62.434898 15.504994 6511954
-164.40434 -62.917545 14.717229 9143418
-164.70015 -62.771103 13.943963 8879990
-140.11102 -63.461403 -65.485741 9537665
-140.39447 -63.357925 -66.856544 8813686
-139.80669 -63.276196 -67.612534 13287348
-139.53886 -63.154263 -68.732216 11380380
-139.38518 -63.049694 -69.700417 9012606
-138.72314 -62.941879 -70.417099 10393743
-138.92485 -62.817429 -71.784592 8682867
-138.25037 -62.709587 -72.494705 8617077
-138.07101 -62.603451 -73.464462 8879993
-138.02299 -62.518711 -74.29203 11380380
-164.56029 -61.721264 15.529225 6906718
-164.74608 -61.997231 14.746663 9603970
-137.61003 -62.454117 -74.712402 10261643
-137.19632 -62.389606 -75.131096 10261643
-137.35561 -62.261555 -76.51123 8814200
-136.65421 -62.154049 -77.20285 7761772
-136.79628 -62.024311 -78.59021 9209215
-136.08249 -61.916901 -79.273964 9143678
-136.35219 -61.806995 -80.532455 8289140
-135.6292 -61.700768 -81.211044 9473156
-135.79774 -61.594448 -82.648544 12039594
-135.39328 -61.547215 -83.074112 13289144
-164.79114 -60.556564 16.351196 7038307
-164.93568 -60.87413 15.613843 7498601
-165.0119 -61.281372 14.769589 8617337
-134.98782 -61.499981 -83.498222 10656654
-134.58115 -61.452888 -83.920456 11643548
-135.02046 -61.385738 -85.097672 8682867
-134.33151 -61.306973 -85.79789 8748662
-134.13065 -61.225616 -86.810699 9932937
-133.92163 -61.144016 -87.821762 9932937
-133.21761 -61.065407 -88.511856 8090995
-133.48674 -60.979622 -89.850952 8222064
-132.77051 -60.900978 -90.535324 9735299
-132.87175 -60.793621 -92.014954 9735299
-132.23187 -60.704708 -92.517563 9998983
-132.30072 -60.588329 -93.993927 8879991
-165.03838 -59.643215 17.479919 11576218
-165.2261 -59.946442 16.527695 7367015
-131.64505 -60.496391 -94.485802 7564643
-131.86314 -60.401264 -95.84758 8419696
-131.19795 -60.309086 -96.333252 8814453
-131.23497 -60.18898 -97.825012 7762021
-130.5603 -60.096653 -98.303719 7762021
-130.58017 -59.974674 -99.802406 5921106
-129.89586 -59.882168 -100.27412 6644317
-129.89845 -59.758255 -101.77957 6644317
-129.37833 -59.688755 -102.12837 6842208
-129.54129 -59.58625 -103.52596 7170917
-129.19005 -59.53981 -103.75617 7170917
-168.38083 -58.546619 27.946072 10525071
-168.3293 -58.926308 27.16082 7959145
-167.91115 -59.043961 26.124687 8089963
-168.03648 -59.04546 25.315186 9142651
-166.87683 -59.047119 23.906136 8616563
-166.96286 -59.048229 23.302834 7563874
-167.10132 -59.050076 22.296547 7695716
-165.98631 -59.052414 20.519478 8945528
-165.93188 -59.099556 19.295624 8616306
-165.56378 -59.285904 18.443985 10261132
-165.79428 -59.337963 17.661537 11708831
-128.66048 -59.469097 -104.09766 7170917
-128.74387 -59.335258 -105.451 6512986
-128.15169 -59.238564 -105.74202 6512986
-128.07539 -59.094223 -107.24059 7039331
-127.51678 -59.0159 -107.55914 7039331
-127.47903 -58.894672 -109.1095 7893096
-127.08739 -58.736076 -110.90958 8815477
-126.37142 -58.652744 -111.36163 8091498
-126.678 -58.575607 -112.71678 7563619
-168.34444 -57.681042 28.68969 9012347
-168.66454 -57.796383 27.992241 12169123
-126.13412 -58.51302 -113.05178 8287084
-125.90962 -58.383705 -114.775 9010806
-125.19712 -58.310387 -115.23457 8616307
-125.33633 -58.227638 -116.76035 8878963
-124.79481 -58.172459 -117.10057 9339257
-124.92298 -58.08828 -118.63922 7958376
-124.19121 -58.014412 -119.08689 11181969
-124.12078 -57.910053 -120.74854 8616307
-123.56454 -57.854553 -121.07915 8089963
-123.64378 -57.75684 -122.6204 10196106
-123.05561 -57.689514 -122.92206 9011833
-123.30311 -57.604282 -124.35744 8485494
-168.56535 -56.828041 28.935146 9012347
-168.88203 -56.971207 28.22242 7039331
-122.90657 -57.559155 -124.55593 8485494
-122.51003 -57.514236 -124.75348 8485494
-122.58968 -57.424606 -126.3428 7564134
-121.82118 -57.35022 -126.76637 8089962
-121.92639 -57.277306 -128.40994 11379609
-121.34238 -57.221302 -128.7226 9735557
-121.43579 -57.146805 -130.38081 9340798
-120.84427 -57.090538 -130.68872 9801349
-120.92545 -57.014511 -132.36177 7038307
-120.32652 -56.957932 -132.66495 7564135
-120.39558 -56.880314 -134.35295 8089963
-119.78905 -56.823368 -134.65118 8089963
-119.59179 -56.624752 -136.06714 8090987
-119.21999 -56.604015 -136.30463 8090987
-168.67685 -55.727966 29.580711 7039331
-168.89565 -55.837582 29.08007 7039331
-169.08221 -56.262802 28.394539 7039331
-119.30354 -56.268269 -136.89586 8550770
-118.76066 -56.037216 -137.63712 8550514
-168.87868 -54.808376 29.914413 9341056
-169.25714 -54.724911 29.260952 7696485
-119.0775 -55.313583 -137.91472 8550770
-118.46243 -55.229252 -138.43207 8354159
-168.89601 -53.533852 30.875927 11905951
-169.19443 -53.815823 30.08897 12103588
-119.13856 -54.574966 -138.20926 9143675
-118.72539 -54.124397 -138.73932 8748917
-118.08907 -54.026161 -139.27966 8485745
-169.18382 -52.875111 30.843342 10919313
-169.5081 -52.982246 30.143795 11380380
-118.7626 -53.237202 -139.12122 10261899
-118.29523 -53.008636 -139.59061 10130570
-117.82729 -52.780502 -140.06023 11906725
-169.22105 -51.5895 31.776066 8090987
-169.4783 -51.915737 31.032833 8354159
-118.50457 -52.123444 -139.83777 9143418
-117.80995 -52.114594 -140.3821 10064262
-169.53316 -50.756615 31.833332 9340539
-169.83463 -51.034199 31.044056 7564643
-118.48785 -51.456921 -140.15956 10261641
-118.13322 -51.185982 -140.56102 10195849
-117.49648 -51.223129 -141.03908 9209211
-169.46512 -49.855968 32.665581 8617080
-169.79173 -49.95792 31.965569 9340539
-118.22697 -50.342747 -140.87888 11050900
-117.67132 -50.050945 -141.44635 8288624
-117.16187 -49.665264 -142.02136 8616822
-169.62869 -48.333099 33.543503 7564651
-169.85017 -48.757977 32.791153 8222321
-169.98445 -49.28056 32.128193 9340539
-117.93559 -49.050053 -141.70462 8156528
-117.21755 -48.924824 -142.32115 8222321
-169.86176 -47.707882 33.588806 8682867
-170.14859 -47.755238 33.006992 9998470
-117.52378 -48.11182 -142.45979 7564392
-116.87486 -47.88419 -143.07002 7564392
-170.15015 -46.825726 33.729561 10129798
-170.28659 -47.113361 33.245861 11182228
-117.59666 -47.296078 -142.78113 7169891
-117.05497 -47.106495 -143.29039 8616822
-170.31036 -45.655315 34.599339 9932419
-170.44344 -46.077747 33.786785 10129798
-117.28033 -46.241455 -143.56595 9406848
-116.74857 -45.801487 -144.32639 9274490
-170.5925 -44.705532 35.58432 11116435
-170.79887 -44.876511 34.912422 9998212
-117.17851 -45.153522 -144.6199 8090987
-116.47862 -45.040916 -145.2738 10128771
-173.74002 -43.803917 46.050587 7300958
-173.85675 -44.014797 45.186039 8354159
-172.58179 -44.018749 42.418327 8682867
-172.83569 -44.020733 41.378059 8616823
-171.53912 -44.02454 38.668507 8682611
-171.77049 -44.026527 37.634609 8090987
-171.05444 -44.270885 36.829426 8617074
-171.35735 -44.304844 36.031666 9735297
-116.46128 -44.58073 -146.47333 9933702
-115.75285 -44.579967 -147.0289 9012344
-115.97682 -44.311829 -148.0423 9472895
-173.96555 -42.932407 46.333267 7695460
-174.01791 -41.713589 46.974739 8813941
-174.37883 -41.856831 46.442051 6510930
-174.22855 -40.699715 47.300159 7169116
-174.20955 -39.714352 47.895168 7038307
-174.55856 -39.837635 47.388783 9734270
-174.46465 -38.91748 48.039433 8617078
-174.80663 -39.190289 47.455193 11378324
-174.46718 -37.482929 48.868027 7564393
-174.66945 -37.992107 48.320827 8617078
-174.72183 -36.684414 49.013828 7564648
-175.06557 -36.954166 48.429169 7367269
-174.70689 -35.550621 49.689777 7367269
-174.94975 -35.85146 49.212822 7367269
-174.88629 -34.817295 49.891541 7367269
-175.23901 -34.934067 49.384308 7367269
-174.95996 -33.316986 50.670822 8616822
-175.16214 -33.792187 50.142475 7630184
-175.13942 -32.582382 50.874271 7827565
-175.49332 -32.696125 50.366589 8287600
-175.46373 -31.832018 50.906162 9274496
-175.34129 -30.871607 51.694778 8287859
-175.67723 -30.979914 51.181267 9537667
-175.85915 -29.534672 52.922798 7564133
-175.82019 -30.033888 52.065384 7761771
-177.58276 -28.992435 59.414165 10261132
-177.86775 -28.994125 58.557678 9537149
-176.15845 -29.03775 54.715214 9735558
-176.51938 -29.06567 54.12862 9735558
-163.51723 -69.493446 9.496644 9340283
-163.5117 -69.813286 8.6498575 8024425
-163.55438 -70.027664 7.6551557 7629412
-163.24849 -70.279526 6.7212338 8879222
-162.9543 -70.29612 5.6601605 7563619
-162.18924 -70.27597 4.9148259 7563619
-162.04964 -70.205566 3.9332817 7892584
-161.90526 -70.135445 2.9534233 8222064
-161.75545 -70.065643 1.9756439 8485237
-161.60075 -69.996147 0.99963063 9011320
-161.44066 -69.92704 0.02571553 6644055
-161.24205 -69.844467 -1.1404259 9538691
-160.13216 -69.838768 -1.7131608 7039331
-159.9599 -69.77092 -2.6754792 9538691
-159.74692 -69.689949 -3.8276818 9734784
-159.53511 -69.610207 -4.7849498 9997699
-159.27538 -69.512329 -5.7381282 8748403
-159.01128 -69.414818 -6.688621 7696485
-163.78738 -68.77285 9.5113306 8748402
-163.92456 -69.051109 8.7273264 9076857
-158.74225 -69.317841 -7.6360126 8288622
-158.46831 -69.220886 -8.5806189 7959660
-158.186 -69.122948 -9.5217924 7433064
-157.89935 -69.025383 -10.460198 8946555
-157.60789 -68.928307 -11.395328 8880504
-157.31241 -68.831627 -12.3276 10656657
-157.01215 -68.735474 -13.256652 10063494
-156.64621 -68.620659 -14.367505 8222572
-156.33665 -68.525475 -15.289968 9735812
-156.05312 -68.44416 -16.212196 8814710
-163.89224 -67.76796 10.40791 9274492
-164.10187 -67.893654 9.578084 7630180
-164.19534 -68.329926 8.7409334 9011065
-155.77509 -68.367439 -17.132919 8089963
-155.49188 -68.291054 -18.050772 8288116
-155.14595 -68.199661 -19.148651 12629418
-154.85258 -68.123772 -20.060659 8288365
-154.55408 -68.048134 -20.9697 9143418
-154.25122 -67.972717 -21.876131 9341053
-153.94333 -67.897568 -22.7796 10853777
-153.56795 -67.807755 -23.860071 10722191
-153.25015 -67.733154 -24.757492 8090987
-153.42645 -67.649887 -25.735857 8879991
-153.52998 -67.55159 -26.893976 9406080
-153.1264 -67.462616 -27.96604 9011835
-164.11024 -66.459076 11.313581 9011321
-164.16266 -66.857353 10.655465 8024938
-164.42259 -66.863121 9.810853 8024938
-152.76636 -67.38047 -28.852615 8484714
-152.36548 -67.282776 -29.728977 8484714
-151.96091 -67.185471 -30.601902 7037274
-151.55209 -67.088684 -31.471016 7827301
-151.05643 -66.97303 -32.509327 8879986
-151.19594 -66.838303 -33.684834 8353643
-151.09122 -66.732567 -34.617165 9208694
-150.66119 -66.637115 -35.475494 8484973
-150.22766 -66.542015 -36.330368 9142648
-149.8779 -66.466301 -37.011494 7761766
-164.32318 -65.792336 11.446683 8813941
-164.55757 -65.909676 10.547265 8616819
-149.61411 -66.40966 -37.520878 7169629
-149.45282 -66.316887 -38.342964 9405823
-149.6701 -66.188774 -39.4561 9011837
-149.23068 -66.1017 -40.303604 10260871
-148.8102 -66.025169 -41.153553 9011063
-148.30016 -65.933662 -42.169079 8748406
-147.8707 -65.857635 -43.011612 7894380
-148.095 -65.773293 -44.045803 8420210
-147.89397 -65.677956 -45.150806 9209472
-147.44704 -65.602188 -45.987377 8814971
-146.97995 -65.51976 -46.815174 8814971
-164.37491 -64.941742 12.325082 8419182
-164.66396 -64.85601 11.499028 9011062
-164.73381 -65.27668 10.757104 8287854
-146.69368 -65.395233 -47.895161 9867655
-146.82207 -65.282509 -48.915878 8091760
-146.30016 -65.183563 -49.723236 8749689
-145.66948 -65.065414 -50.686695 8486258
-145.61923 -64.955818 -51.65472 6511954
-145.56148 -64.846169 -52.62196 6643284
-144.91199 -64.728897 -53.574905 7037274
-144.84341 -64.618965 -54.543465 9931907
-144.76727 -64.508965 -55.511189 11642782
-164.69102 -63.445183 13.145173 9735299
-164.76277 -63.861553 12.402471 8748148
-164.84479 -64.168999 11.760228 8616048
-144.09915 -64.392586 -56.453308 7433056
-143.6514 -64.315369 -57.078201 7959144
-143.91795 -64.172066 -58.390079 9472640
-143.23148 -64.056625 -59.321068 9472639
-142.78111 -63.984264 -59.942425 10064777
-143.12157 -63.883392 -61.3036 8025709
-142.4619 -63.789085 -62.243519 8814969
-141.90814 -63.710777 -63.022305 8418928
-142.22221 -63.608238 -64.394226 8420720
-141.65485 -63.52977 -65.168198 8092011
-164.86494 -62.815681 13.358064 7695460
-165.10237 -62.926525 12.456922 7629667
-140.96941 -63.43594 -66.091568 8091243
-141.37299 -63.347305 -67.320122 10722449
-140.78896 -63.269093 -68.085236 12629933
-140.17578 -63.179527 -68.833679 8815227
-140.39926 -63.055817 -70.205048 7828333
-139.73062 -62.947247 -70.925957 9209211
-139.93712 -62.821861 -72.305328 9735555
-139.39223 -62.734985 -72.876801 9340797
-138.70891 -62.626656 -73.586998 8156015
-139.16772 -62.542736 -74.689438 10261643
-165.02557 -61.733376 14.170373 10261903
-165.20085 -61.843941 13.469754 9077628
-165.3353 -62.041275 12.793962 6510930
-138.75117 -62.477642 -75.113083 10261643
-138.19405 -62.390972 -75.674698 8813685
-138.49927 -62.283672 -76.927368 11248027
-137.7914 -62.175327 -77.623711 8682872
-137.58163 -62.066822 -78.600578 7038307
-137.36382 -61.958069 -79.575073 8814201
-136.78641 -61.871632 -80.123589 8814201
-136.91113 -61.739193 -81.528534 8025969
-136.2009 -61.64183 -82.220924 10722965
-136.38895 -61.543854 -83.682312 8289396
-165.36539 -60.493958 15.202138 7038307
-165.36603 -60.874409 14.349133 9801609
-165.5513 -60.972603 13.411267 7038307
-135.70613 -61.464664 -84.392303 8682867
-135.5994 -61.333614 -86.14576 7565675
-134.9025 -61.254406 -86.847687 8749178
-135.05264 -61.153587 -88.328323 9011838
-134.34254 -61.074364 -89.023361 9275009
-134.47571 -60.972054 -90.514 9735302
-133.89746 -60.908653 -91.064819 8616564
-133.3177 -60.845379 -91.612976 8616563
-133.42252 -60.739452 -93.108284 8814201
-132.79172 -60.657417 -93.622726 8419696
-133.02423 -60.563053 -94.987877 7959401
-165.96588 -59.377506 17.073383 9340801
-166.10263 -59.507889 16.076965 9011323
-165.78917 -59.950535 15.24067 8879994
-165.85316 -60.181217 14.441255 8617337
-132.36118 -60.470467 -95.480515 7564643
-132.4131 -60.351154 -96.977242 8287336
-131.7403 -60.258446 -97.463058 7104091
-131.77512 -60.137142 -98.966934 7762021
-131.09267 -60.044205 -99.44574 7103579
-131.11018 -59.921001 -100.95663 7367528
-130.41812 -59.8279 -101.42828 6644317
-130.7688 -59.749519 -102.71239 6842208
-130.06766 -59.656105 -103.17865 7105636
-130.23216 -59.552677 -104.5898 7170917
-169.00111 -58.619137 26.712109 8879479
-169.24623 -58.864998 26.055172 10589840
-168.09753 -59.046204 24.910259 9142651
-168.21625 -59.047699 24.099819 9142645
-168.35992 -59.049561 23.086071 6906711
-167.25972 -59.052292 21.088074 8616306
-167.38519 -59.054134 20.080093 7037274
-167.45767 -59.055237 19.474998 8089962
-166.39401 -59.101021 18.131409 9997959
-166.62532 -59.153481 17.34465 7038307
-129.87709 -59.505836 -104.82011 6841951
-129.33199 -59.430248 -105.15409 6841951
-129.40694 -59.291096 -106.51231 6776159
-128.6337 -59.172745 -106.91995 7039331
-128.94083 -59.0844 -108.226 7039331
-128.18787 -58.979156 -108.65119 8814969
-128.15985 -58.861382 -110.22462 13552317
-127.76403 -58.701374 -112.03972 6643028
-127.04028 -58.617466 -112.49217 9210491
-168.98344 -57.595623 27.543282 10985364
-169.27859 -57.888287 26.754929 8092011
-126.98515 -58.4981 -114.08685 9471356
-126.59766 -58.356873 -115.95799 8024170
-125.87743 -58.283012 -116.4182 9339257
-126.01868 -58.199448 -117.96034 10260100
-125.4712 -58.143814 -118.30109 10260100
-125.41651 -58.040115 -119.96842 7630176
-124.67649 -57.965755 -120.41589 8089963
-124.79105 -57.879017 -121.98298 8089963
-124.2288 -57.823059 -122.31394 9142907
-124.29385 -57.717186 -123.85638 10459278
-123.69953 -57.649406 -124.15787 9932937
-169.3313 -56.67746 27.598499 7631467
-169.50195 -57.031727 26.998512 8092011
-123.7497 -57.540497 -125.70869 7761772
-123.16549 -57.480392 -126.02249 7038307
-123.0928 -57.389702 -127.77748 7038307
-122.50982 -57.333454 -128.09473 11379609
-122.61729 -57.259724 -129.75757 13550517
-122.02668 -57.20327 -130.07028 13550517
-122.12215 -57.127956 -131.74808 13550517
-121.52406 -57.071236 -132.05605 11379609
-121.60738 -56.994392 -133.74911 9208958
-121.00167 -56.937252 -134.05212 8616564
-120.88843 -56.696777 -135.22748 8090987
-120.14819 -56.655605 -135.70868 8354159
-169.31865 -55.637104 28.433346 7039331
-169.57957 -55.842854 27.777668 7894639
-120.68439 -56.172279 -136.11491 8946296
-119.99032 -56.044159 -136.73944 9341054
-169.53972 -54.782997 28.679256 7696485
-169.85924 -54.924625 27.962437 8157036
-120.65229 -55.492413 -136.60709 9143675
-120.24146 -55.039528 -137.13631 8419952
-119.57298 -55.174595 -137.59369 8419696
-169.65027 -53.682266 29.327427 9538432
-169.87985 -53.921162 28.705326 9012088
-120.28207 -54.151741 -137.51596 8617075
-119.8525 -54.080189 -137.88318 8880247
-119.2971 -53.911751 -138.39316 10261899
-169.85234 -52.761604 29.662205 9275260
-170.1546 -52.885029 28.991638 8880759
-120.02865 -53.035969 -138.22983 9012345
-119.33523 -53.024158 -138.7746 10525071
-169.96272 -51.504398 30.433796 8682867
-170.19135 -51.816147 29.756195 8551538
-119.72018 -52.141659 -138.88391 10788756
-119.02552 -52.130768 -139.42917 10788242
-170.15686 -50.826027 30.594501 9669504
-170.48384 -50.931553 29.891006 9340796
-119.75801 -51.252758 -139.2662 10525072
-119.06216 -51.242462 -139.81226 9866883
-170.28207 -49.481136 31.406372 9340539
-170.45079 -49.936016 30.730896 10853264
-119.44284 -50.191486 -140.00319 10853521
-118.74117 -50.015343 -140.63065 11905951
-170.50563 -48.704319 31.588047 8748403
-170.80988 -48.980598 30.794495 11182228
-119.06441 -49.018139 -140.84135 9011577
-118.41753 -48.788025 -141.45117 6511962
-170.4357 -47.8032 32.424198 10130313
-170.76508 -47.903618 31.720242 9932934
-119.14027 -48.202415 -141.1604 7169891
-118.51461 -48.076675 -141.70532 7564392
-170.83121 -46.814621 32.444569 9998727
-171.05446 -47.240807 31.687927 9406590
-118.78311 -47.232807 -141.88759 8813944
-118.08158 -47.22591 -142.43646 6511962
-170.99707 -45.579441 33.382446 11050900
-171.08075 -45.915783 32.757732 10656657
-118.99886 -46.345329 -142.14531 9734788
-118.40558 -46.182247 -142.73944 9274750
-118.02877 -45.706543 -143.42216 10064777
-171.65886 -44.339344 35.232079 9537918
-171.43951 -44.617191 34.498787 9209210
-171.45496 -44.944523 33.557198 10787470
-118.75632 -45.300777 -143.24905 9932166
-118.20255 -45.132107 -143.84399 10064777
-117.72257 -44.882187 -144.46033 9077882
-174.48402 -43.687267 45.124619 7827306
-174.3165 -43.946278 44.186165 8617075
-174.39116 -44.018814 43.088352 9208953
-173.08293 -44.022717 40.33622 8090736
-173.32436 -44.0247 39.292927 9669253
-171.90639 -44.027706 37.013557 8090987
-172.1738 -44.052174 36.203846 10129798
-171.5083 -44.322044 35.632133 9537918
-118.05121 -44.584629 -145.2178 8090987
-117.52175 -44.583004 -145.63721 9077882
-117.25986 -44.401115 -146.62999 10590348
-116.68679 -44.31134 -147.48137 9472895
-174.61783 -42.498287 45.756588 6971481
-174.7816 -42.970257 45.125706 7893356
-174.86819 -41.699379 45.896049 7234653
-175.11432 -41.955082 45.285313 8485494
-174.87585 -40.563675 46.572605 8090216
-175.09499 -40.866173 46.089497 7432287
-174.98318 -39.896259 46.825851 7300957
-175.40871 -39.955433 46.261444 6511954
-175.05493 -38.542038 47.521744 9734270
-175.33659 -38.898109 46.964344 7761251
-175.24423 -37.658043 47.798428 9997699
-175.67155 -37.713558 47.23391 8222060
-175.23096 -36.521004 48.474297 7367269
-175.57593 -36.791359 47.88768 7893354
-175.47931 -35.870449 48.542015 7367269
-175.83282 -35.989712 48.032505 6840668
-175.78851 -34.836819 48.756207 8880507
-175.65242 -33.847702 49.499233 10459024
-176.09026 -33.746418 49.012478 12103849
-175.993 -32.796307 49.685085 9537408
-175.90729 -31.606556 50.483906 9537667
-176.25575 -31.870571 49.895588 8879478
-176.32716 -30.673534 50.679764 10195082
-176.36124 -31.19994 50.154087 8287341
-176.36423 -29.436127 52.457474 8682867
-176.51984 -29.794683 51.579666 9603970
-178.21889 -28.996231 57.485413 9208182
-178.49501 -28.997915 56.625984 9998214
-177.00052 -29.103266 53.344425 9209212
-177.36119 -29.131889 52.754822 11380639
-164.00897 -69.656822 7.3463178 9011065
-164.08401 -69.864868 6.4388852 9076858
-163.76961 -70.124306 5.458714 7958377
-163.57872 -70.151649 4.5639882 9734531
-163.02217 -70.143845 3.5649765 9077116
-162.87372 -70.07341 2.5796783 8353651
-162.71976 -70.003357 1.596482 8156529
-162.56102 -69.933609 0.61502522 7893358
-162.39682 -69.864189 -0.36423045 8946296
-162.22791 -69.795052 -1.3416817 8288883
-161.07115 -69.776009 -2.1101258 10196363
-160.89485 -69.707924 -3.0777237 10064009
-160.71387 -69.640129 -4.0433726 8814457
-160.49922 -69.560417 -5.0059466 8748919
-160.23605 -69.462196 -5.9648128 11380380
-160.07573 -69.403343 -6.5386767 7696485
-164.27109 -68.665825 8.0840197 9734788
-164.37097 -68.922813 7.4465833 9011065
-164.49843 -69.212883 6.6399617 9142651
-159.9136 -69.344673 -7.1114268 7696485
-159.6949 -69.266747 -7.8734317 9538432
-159.41432 -69.168396 -8.8230009 5524549
-159.12796 -69.069862 -9.7696943 6182738
-158.83691 -68.97187 -10.713065 8485494
-158.54166 -68.874245 -11.653575 10656657
-158.24164 -68.777199 -12.590783 9209467
-157.87595 -68.661285 -13.711486 8090219
-157.57938 -68.570793 -14.64325 7893608
-157.30684 -68.493179 -15.57459 9077882
-157.08566 -68.431229 -16.317907 8814710
-164.39687 -67.470268 9.1477709 8287854
-164.50194 -67.836555 8.3591433 8682100
-164.76062 -67.902817 7.4441838 8024170
-156.97369 -68.400299 -16.688934 9011320
-156.74725 -68.338631 -17.429352 9603713
-156.46037 -68.261749 -18.35277 9932678
-156.16838 -68.185112 -19.27319 11116694
-155.81184 -68.093498 -20.374117 8288365
-155.50957 -68.017403 -21.288628 7038298
-155.2023 -67.94162 -22.200108 10722450
-154.89069 -67.866058 -23.10894 9998727
-154.57399 -67.790749 -24.014708 8748660
-154.18806 -67.700745 -25.097931 8288367
-154.46785 -67.598808 -26.291092 8485749
-154.46927 -67.517937 -27.248772 7039331
-154.19757 -67.458252 -27.967951 7892581
-164.61821 -66.772484 9.2918558 8287342
-164.84479 -66.924156 8.3753633 7629412
-153.99109 -67.413246 -28.506006 8813680
-153.75017 -67.354057 -29.036749 8089958
-153.34518 -67.255806 -29.918407 7760994
-152.85425 -67.138397 -30.971739 8090218
-152.44083 -67.041069 -31.845619 9143419
-152.02322 -66.944183 -32.715668 8287850
-152.16466 -66.808571 -33.898922 9406074
-152.0592 -66.702148 -34.837231 7761763
-151.625 -66.606133 -35.70071 8551022
-151.09915 -66.49144 -36.732063 9405821
-164.72034 -65.96051 9.960206 9011321
-165.0146 -65.823891 9.1799212 9208444
-165.077 -66.306046 8.3865595 7563619
-150.65678 -66.3964 -37.587589 8419440
-150.53009 -66.290672 -38.521088 8288113
-150.65593 -66.16832 -39.714157 10787731
-150.23599 -66.091003 -40.573162 11379609
-149.81142 -66.013962 -41.428486 7893355
-149.29662 -65.921867 -42.450447 8419955
-148.86304 -65.845375 -43.298275 9800063
-148.92374 -65.762527 -44.291046 8616822
-148.88843 -65.664413 -45.452465 7368040
-148.43735 -65.588196 -46.294312 8814971
-147.95772 -65.501633 -47.124611 9932938
-165.0293 -64.851982 10.326604 9339772
-165.30214 -64.840851 9.461133 9734530
-147.44366 -65.401787 -47.941368 11051932
-147.79691 -65.261482 -49.238655 12170154
-147.27003 -65.161919 -50.050915 7696492
-146.63336 -65.042976 -51.020123 7038307
-146.58354 -64.932663 -51.994701 8946555
-146.52612 -64.822296 -52.968594 8287853
-145.87047 -64.704292 -53.927219 9931907
-145.43098 -64.625893 -54.563118 9931907
-145.83835 -64.502388 -55.718441 9143679
-165.20055 -63.704117 11.185205 9142135
-165.38757 -63.919567 10.317788 9734014
-165.52287 -64.143921 9.6062403 9734014
-145.50223 -64.443695 -56.193695 7564651
-145.05196 -64.365784 -56.824524 7433056
-144.48659 -64.268669 -57.609585 8682867
-144.87093 -64.143723 -58.774647 9012089
-144.20921 -64.04129 -59.723801 9209468
-143.66742 -63.962265 -60.515896 8288365
-144.01193 -63.860546 -61.888218 7894382
-143.45659 -63.781487 -62.675785 7302502
-142.89784 -63.702614 -63.459522 8354675
-142.99855 -63.617985 -64.537529 9603970
-142.75975 -63.536079 -65.465981 8420720
-142.4151 -63.488754 -65.931946 8092011
-165.32603 -62.717525 11.99302 7563619
-165.54044 -62.835735 11.156922 9734014
-165.68875 -63.050072 10.415708 10260101
-142.06894 -63.441525 -66.396202 9538689
-141.72166 -63.394394 -66.858963 8815222
-142.00998 -63.289249 -68.251656 10261899
-141.3 -63.194969 -69.172028 9209985
-141.17999 -63.102592 -70.170197 7828333
-141.02133 -62.996422 -71.151726 8090992
-140.34447 -62.887238 -71.874283 9209211
-140.54961 -62.76075 -73.264015 7038307
-139.85986 -62.651524 -73.979118 9537667
-140.04778 -62.523289 -75.376694 10853012
-165.56448 -61.426556 12.810887 7038307
-165.6227 -61.82991 12.127851 8287341
-165.79774 -61.943741 11.42394 9273721
-139.48599 -62.435986 -75.943237 9932678
-138.92282 -62.348785 -76.507027 11905701
-139.08701 -62.218746 -77.910095 9340542
-138.37077 -62.109875 -78.607758 8485494
-138.51753 -61.978085 -80.018219 11511194
-137.78877 -61.869236 -80.70784 8814201
-137.91798 -61.73579 -82.125565 7563619
-137.34337 -61.656864 -82.682213 7039331
-136.7972 -61.591488 -83.254074 7039331
-137.25995 -61.524578 -84.44175 7039331
-165.83672 -60.719387 13.13263 7433064
-166.01553 -60.920609 12.121156 10721678
-136.84642 -61.476688 -84.870392 7039331
-136.29343 -61.413006 -85.439255 8091503
-136.60429 -61.328705 -86.781601 7565675
-136.04156 -61.264908 -87.346588 7565675
-135.47733 -61.201199 -87.908966 7565675
-135.62627 -61.0994 -89.401833 10458767
-134.90802 -61.019775 -90.09845 11905953
-135.03996 -60.916534 -91.601395 7564651
-134.30849 -60.83683 -92.290833 10459278
-134.12556 -60.700321 -94.077133 9406336
-133.52075 -60.632645 -94.615929 12432037
-133.92294 -60.560711 -95.870247 9340286
-166.44844 -59.482822 15.099053 8617337
-166.36977 -59.756783 14.082112 8617337
-166.29453 -60.117386 13.188523 8617337
-166.36452 -60.309807 12.468659 10458507
-133.42027 -60.490715 -96.241295 9734779
-132.91711 -60.42091 -96.610519 9734779
-132.96693 -60.300343 -98.119553 6708564
-132.28632 -60.206959 -98.605431 6511954
-132.49141 -60.107933 -100.00168 7761253
-131.80121 -60.014347 -100.48109 7761253
-131.81866 -59.890011 -102.0056 6183250
-131.29399 -59.819618 -102.36024 6644317
-131.29604 -59.693489 -103.89226 5526860
-130.5871 -59.599518 -104.35838 7040355
-169.59492 -58.792927 25.412056 9537152
-169.63094 -58.968838 24.721588 7958886
-169.66304 -59.049416 23.683235 8287592
-168.44312 -59.050674 22.477406 6511954
-168.55026 -59.052166 21.665333 7037786
-168.67928 -59.054024 20.649574 9010808
-167.52759 -59.056339 18.869568 9142651
-167.63942 -59.058178 17.859993 7038307
-167.10663 -59.148735 16.85302 7762029
-166.99539 -59.236401 15.960992 7038307
-167.11182 -59.258274 15.36308 7564643
-130.75101 -59.494961 -105.78234 6841951
-130.21147 -59.423939 -106.12659 6315608
-130.08365 -59.24931 -107.59253 7039331
-130.00804 -59.100918 -109.1186 8091242
-129.24944 -58.995911 -109.54712 10591632
-128.84818 -58.827522 -111.35408 7367007
-128.81393 -58.708393 -112.95707 8681843
-128.08257 -58.623913 -113.41135 8681843
-169.8772 -57.854485 25.644936 9407871
-127.6762 -58.467953 -115.26089 8418670
-127.29396 -58.329571 -117.15691 8287342
-126.5657 -58.255173 -117.61769 9011065
-126.70915 -58.170738 -119.17661 9339257
-126.15562 -58.1147 -119.51769 9339257
-126.10092 -58.010033 -121.20213 8879471
-125.35276 -57.93507 -121.64998 8089963
-125.46927 -57.847408 -123.23421 9538175
-124.88808 -57.785164 -123.55276 10985620
-124.95161 -57.676868 -125.10901 13880253
-124.35071 -57.608635 -125.41014 9932937
-169.94753 -56.753044 26.36982 9868166
-170.23962 -56.970093 25.646175 10262924
-124.45108 -57.521069 -127.02743 8682867
-123.6753 -57.445942 -127.45749 8682867
-123.797 -57.373035 -129.12494 7038307
-123.20734 -57.316383 -129.44235 8090736
-123.3171 -57.24189 -131.12491 10590097
-122.71989 -57.184925 -131.43758 11510943
-122.75762 -57.081097 -133.07115 11379609
-122.19974 -57.045589 -133.42963 10261387
-122.18301 -56.770615 -134.37993 9537666
-121.44335 -56.728119 -134.86525 9143163
-169.9626 -55.548553 27.27993 12434093
-170.20705 -55.873245 26.562912 9802373
-122.07516 -56.378536 -134.91179 9734788
-121.65061 -56.161705 -135.42159 8222573
-121.22791 -55.946835 -135.93451 9143675
-170.16383 -54.838387 27.45137 9209467
-170.42619 -55.044949 26.792336 7695716
-121.83869 -55.371418 -135.74039 8222573
-121.36708 -55.000217 -136.2791 9538177
-120.81309 -54.829189 -136.78915 8617331
-170.29688 -53.588173 28.173145 6775383
-170.55356 -53.92297 27.425045 6708309
-121.54692 -53.9557 -136.623 9209212
-120.85458 -53.940933 -137.1683 8485233
-170.51839 -52.732761 28.41959 8617330
-170.84059 -52.872746 27.698643 7959144
-121.24233 -53.059277 -137.27505 8155756
-120.54874 -53.045456 -137.82088 9407615
-170.54929 -51.840302 29.057426 7893608
-170.87633 -51.949303 28.351234 8485745
-121.32348 -52.244816 -137.5892 8617075
-120.70354 -52.114246 -138.13181 9012345
-170.84889 -50.776455 29.318745 8880502
-171.14363 -50.944935 28.627445 8090987
-120.97254 -51.106403 -138.38936 9999498
-120.33315 -51.039547 -138.91769 10196879
-170.9191 -49.595772 30.10696 13156018
-171.13921 -49.84491 29.494431 9538176
-120.5265 -50.025063 -139.23741 9604743
-119.95419 -49.698055 -139.83415 12433069
-171.13441 -48.770546 30.342033 10590606
-171.46419 -48.87447 29.63448 10393227
-120.6778 -49.114979 -139.54146 10196879
-120.05367 -48.986767 -140.0864 11183002
-171.18581 -47.708519 31.073383 9011832
-171.45392 -47.90379 30.411701 10195849
-120.32487 -48.143616 -140.26616 8354421
-119.62458 -48.13409 -140.81537 7564392
-171.44792 -46.806221 31.279728 8748660
-171.79001 -46.92001 30.541283 11905692
-120.53699 -47.254135 -140.51346 7894383
-119.8354 -47.244896 -141.06343 9340287
-171.58569 -45.705997 32.069283 9143418
-171.78592 -45.918571 31.393635 9735555
-120.14402 -46.289265 -141.31168 8945786
-119.54829 -45.99828 -141.98972 9011579
-172.10858 -44.392345 34.029907 9537918
-172.14008 -44.590633 33.175163 8945269
-171.99742 -45.090801 32.288818 8155499
-119.99746 -45.174461 -142.40634 9274748
-119.38554 -45.100075 -142.95485 9669250
-118.95773 -44.890442 -143.49152 9932166
-175.33923 -43.517628 43.63681 9011837
-175.01535 -43.913403 42.796509 8814202
-174.69963 -44.021175 41.826721 9143166
-174.85059 -44.02243 41.195103 8090736
-173.46622 -44.02589 38.666286 10261132
-173.60545 -44.027081 38.039108 9143422
-173.7428 -44.028267 37.411472 10261132
-172.62854 -44.104244 34.998459 9011831
-172.93024 -44.139622 34.19297 10984849
-119.284 -44.589714 -144.23602 9011576
-118.57988 -44.586609 -144.79761 11051672
-118.62484 -44.309948 -145.92122 9405816
-117.92262 -44.310459 -146.49173 10129798
-117.83035 -44.315273 -149.28947 9012344
-117.2916 -44.315643 -149.71443 8814198
-175.18938 -42.753815 44.518696 7038307
-175.57883 -42.686188 43.830151 10656658
-175.27141 -41.521221 45.32531 8485494
-175.56938 -41.735207 44.591042 11380380
-175.71535 -42.023178 44.088291 11380380
-175.50722 -40.869827 45.385292 8089963
-175.80853 -40.902855 44.78598 9340286
-175.84323 -39.776615 45.599705 9010806
-175.94441 -40.239365 45.045483 8089963
-175.78604 -38.753025 46.472462 8090216
-176.19392 -38.683292 45.786232 8089961
-176.19044 -37.777393 46.464226 7629666
-176.00458 -36.845684 47.322189 7761766
-176.40613 -36.894814 46.747307 7169373
-176.42178 -35.758686 47.432655 8682868
-176.54176 -36.229847 47.009987 7169373
-176.2641 -34.600708 48.300571 10985625
-176.61687 -34.779213 47.757553 7367008
-176.67203 -33.691837 48.319302 8090474
-176.43768 -32.572449 49.260349 9537408
-176.78726 -32.838867 48.670288 8550513
-176.81229 -31.854361 49.210686 10853012
-177.03798 -32.182819 48.738358 10195082
-176.90904 -30.360943 50.308956 8486003
-177.1107 -30.883709 49.503189 8616563
-177.08032 -29.494667 51.280476 8682867
-177.32066 -29.779678 50.517818 8486261
-180.0433 -28.603891 59.853672 8879736
-180.29752 -28.905787 59.360619 9734529
-178.69936 -28.999182 55.980583 12433842
-178.96785 -29.000868 55.118843 15329253
-177.72211 -29.160864 52.163818 11380639
-178.08305 -29.190142 51.571613 8682867
-180.27252 -27.734276 60.073505 8748407
-180.53049 -26.896646 60.238808 9406336
-180.71127 -26.129751 60.459335 10064779
-164.58653 -69.399399 5.9817586 8089963
-164.61476 -69.640533 5.1888509 9011321
-164.55814 -69.845215 4.1954846 10590352
-164.35036 -69.990288 3.3973396 8156013
-163.88147 -70.024887 2.3995063 7038307
-163.72476 -69.954475 1.4102523 7893358
-163.56258 -69.884384 0.42315358 10525074
-163.36137 -69.800751 -0.75882655 11380895
-163.18823 -69.731346 -1.7416489 11380895
-162.0535 -69.726326 -2.3169587 7697004
-161.8744 -69.657845 -3.2903016 8354163
-161.68993 -69.589767 -4.2614779 9077372
-161.47383 -69.510452 -5.2298656 8814198
-161.25992 -69.431259 -6.0014453 8288109
-164.73259 -68.515999 6.7810445 9734788
-164.81575 -68.78038 6.1882367 8089963
-165.04684 -68.912254 5.281487 8616563
-161.09773 -69.372101 -6.5789828 11380380
-160.93359 -69.313087 -7.1553035 6775383
-160.65524 -69.214577 -8.1133718 5524804
-160.36958 -69.115295 -9.0684156 5392706
-160.0788 -69.016296 -10.020171 6840671
-159.78375 -68.917809 -10.969037 9735043
-159.48399 -68.819763 -11.914531 9406846
-159.12209 -68.704224 -13.045493 9998728
-158.84538 -68.621216 -13.987153 9406335
-158.57378 -68.542915 -14.926747 10919829
-158.29747 -68.464813 -15.86378 8814198
-158.12938 -68.418121 -16.424706 9932678
-164.95598 -67.8153 6.9220433 8287342
-165.1814 -67.973297 6.0016332 8089963
-157.95924 -68.371483 -16.984547 9932678
-157.72984 -68.309418 -17.729548 9011320
-157.43855 -68.232063 -18.658113 9274748
-157.08279 -68.139633 -19.768887 8091761
-156.78119 -68.062836 -20.691534 7630435
-156.47455 -67.986397 -21.611135 9143418
-156.16351 -67.91011 -22.528067 9998727
-155.84734 -67.83419 -23.441919 9801348
-155.52682 -67.758453 -24.353058 9538176
-155.20135 -67.682983 -25.261108 9406080
-155.31412 -67.583435 -26.434023 8354163
-155.41786 -67.483894 -27.60746 7893096
-165.24677 -66.827583 7.1987233 7760998
-165.45116 -67.01503 6.3097653 9142909
-155.06541 -67.405388 -28.509848 9734779
-154.66298 -67.307564 -29.400429 8221544
-154.25346 -67.208786 -30.286991 7366238
-153.83963 -67.110428 -31.169651 8090218
-153.33798 -66.993011 -32.224133 8090218
-152.9157 -66.895622 -33.098942 8287595
-153.1438 -66.778473 -34.115253 8485487
-152.95016 -66.652084 -35.233551 8485229
-152.5112 -66.555573 -36.101711 8813680
-152.15724 -66.478638 -36.793423 9274229
-165.38458 -65.812218 8.0020075 8155756
-165.64536 -65.877228 7.08178 7563876
-151.89015 -66.421143 -37.310692 7037274
-151.62169 -66.363815 -37.826508 7761766
-151.26157 -66.287666 -38.512203 7630184
-151.67673 -66.15799 -39.981277 10261388
-151.25273 -66.080231 -40.845779 8090995
-150.82411 -66.002716 -41.706535 9471870
-150.30431 -65.90995 -42.735012 9340027
-149.86665 -65.832954 -43.588211 8419955
-149.51332 -65.7715 -44.268139 7301991
-149.89429 -65.65081 -45.75753 7038307
-149.43896 -65.574074 -46.604637 7301991
-149.04701 -65.502121 -47.27187 11051932
-165.49904 -64.749458 8.9390421 9208701
-165.72768 -64.899857 8.0174341 9734788
-165.86812 -65.177605 7.2239041 7563619
-148.73647 -65.441711 -47.765903 7039331
-148.32008 -65.361473 -48.421978 9736329
-148.78273 -65.240181 -49.565083 11972520
-148.25082 -65.140045 -50.382168 7630443
-147.60809 -65.020363 -51.357224 8288627
-147.55865 -64.909279 -52.338596 11841189
-147.50153 -64.798149 -53.319157 10853524
-146.83978 -64.679367 -54.283508 7958375
-146.28477 -64.580887 -55.082474 11379095
-146.92207 -64.495888 -55.927692 7564651
-165.67702 -63.732708 9.6146822 9734014
-165.87782 -63.794853 8.891263 9734272
-165.98283 -64.058304 8.2292337 8879479
-146.5831 -64.436798 -56.406017 8617336
-146.12932 -64.358192 -57.041603 9735558
-145.5592 -64.260483 -57.831841 7433056
-145.8716 -64.131248 -59.178356 8748917
-145.32928 -64.051323 -59.980473 9735812
-144.78299 -63.971687 -60.778156 7367523
-144.73949 -63.88871 -61.787685 8354419
-144.68797 -63.805538 -62.796764 8814969
-144.0123 -63.710159 -63.744488 11775908
-143.55916 -63.646713 -64.373108 11709345
-143.87833 -63.542461 -65.766846 8814453
-165.92888 -62.828056 9.9146433 9865344
-166.17014 -62.874817 9.0799189 10588809
-143.18198 -63.44722 -66.703865 8618099
-142.5979 -63.368076 -67.48011 9143419
-143.00891 -63.278034 -68.729385 8748405
-142.41232 -63.198868 -69.501694 9340799
-141.93242 -63.135761 -70.116287 9077886
-142.05557 -63.001534 -71.671028 8419957
-141.37363 -62.892254 -72.398773 10262156
-141.20331 -62.784611 -73.388603 8748407
-141.0265 -62.676811 -74.37645 9537667
-140.46782 -62.589024 -74.949234 9537667
-166.03998 -61.785675 10.837911 8616048
-166.26067 -61.849834 10.047978 8221292
-166.40413 -62.120834 9.2527056 9536894
-140.65419 -62.459656 -76.357254 7564643
-139.94336 -62.349957 -77.066193 8880247
-140.11232 -62.218842 -78.481956 10590353
-139.53366 -62.131092 -79.043365 8287853
-138.9537 -62.043507 -79.601913 7038307
-139.09871 -61.91061 -81.023003 9998215
-138.36148 -61.801228 -81.713737 9997700
-138.64439 -61.691132 -83.008331 8221549
-137.80934 -61.588478 -83.867134 10328978
-138.2802 -61.521065 -85.066666 12433325
-166.42563 -60.544788 11.667272 10458507
-166.50906 -60.789677 10.86723 8024944
-166.59377 -61.111916 9.9331179 8353392
-138.00214 -61.488876 -85.354462 8092011
-137.44431 -61.424721 -85.927429 8092011
-136.88481 -61.360706 -86.497757 7565675
-137.1963 -61.275475 -87.85215 10459537
-136.48444 -61.19532 -88.559494 9209984
-136.6389 -61.092754 -90.066635 9735812
-136.05896 -61.028568 -90.627335 10458767
-135.47739 -60.964508 -91.185341 7564651
-135.60803 -60.860268 -92.700897 8024936
-134.8683 -60.780178 -93.391769 7038307
-135.28195 -60.706696 -94.64257 7893358
-134.53004 -60.626408 -95.328033 8814201
-166.80893 -59.661625 12.804646 10327437
-166.84981 -59.910458 11.938821 10458507
-166.95569 -60.026543 11.300042 7564651
-134.62987 -60.519428 -96.864594 7959144
-133.98564 -60.440655 -97.383728 7760993
-133.69661 -60.272308 -99.153076 6313806
-133.00838 -60.178253 -99.639664 7761253
-133.041 -60.054642 -101.16969 7761253
-132.34293 -59.960499 -101.64905 9011576
-132.35806 -59.834888 -103.18617 4473145
-132.0062 -59.660347 -104.96887 4408123
-131.28925 -59.565773 -105.43541 5921618
-170.33835 -58.590263 24.196167 7432286
-170.32983 -58.788849 23.428478 7235164
