# .PCD v0.7 - Point Cloud Data file format
VERSION 0.7
FIELDS x y z rgb
SIZE 4 4 4 4
TYPE F F F U
COUNT 1 1 1 1
WIDTH 1217
HEIGHT 1
VIEWPOINT 0 0 0 1 0 0 0
POINTS 1217
DATA ascii
183.19705 -25.719694 34.715904 9735297
183.07516 -25.776606 35.743057 10064005
183.06992 -25.520903 36.749172 10129542
165.21022 -24.842718 -98.951859 10195078
165.80849 -24.736935 -98.554817 10655625
168.24905 -25.354023 -77.108788 9932416
168.09756 -25.276546 -76.068474 10788247
169.79271 -24.663967 -69.360458 7564651
169.62128 -24.591864 -68.345802 12433069
169.40379 -24.502247 -67.083191 9670022
169.2715 -24.448879 -66.328987 6972768
176.93687 -24.688709 -8.57864 9735555
177.13043 -24.857504 -7.6636982 8616819
177.3918 -24.740162 -6.8916607 9867142
177.6768 -24.773668 -5.8333607 10327693
177.9623 -24.808027 -4.7721844 11709346
178.19121 -24.836283 -3.9209096 9471869
178.42053 -24.865108 -3.0675828 7300957
178.70769 -24.902246 -1.9978101 7169886
183.50691 -25.04224 34.089973 8814195
183.51852 -24.825924 34.777821 9472125
183.42648 -24.836128 35.675293 8090987
183.30424 -24.893337 36.705116 9537662
183.25864 -24.749039 37.706024 9011575
183.20589 -24.648874 38.614937 10129542
164.93535 -23.752102 -99.650047 8155754
165.52675 -23.784487 -99.195572 7563618
170.80344 -23.917 -60.631683 5920074
170.48035 -23.822433 -59.371964 6972762
176.55707 -23.331583 -11.752602 9142649
176.76268 -23.570864 -10.70014 8682867
176.95427 -23.72204 -9.8156929 9538176
177.19595 -23.835356 -8.8039207 9603969
177.48094 -23.866035 -7.7492371 8617331
177.78876 -23.678772 -6.9062099 9143675
178.01764 -23.704319 -6.057991 9997957
178.23558 -23.840364 -5.1003208 10656144
178.45369 -23.977234 -4.1406307 10985623
183.71408 -24.015549 35.808613 8419438
183.70009 -23.816071 36.693718 11576217
183.60687 -23.794767 37.721146 10984337
183.53806 -23.688158 38.817833 9997961
183.49236 -23.54085 39.830765 7564650
183.50288 -23.325005 40.527306 7038307
165.04686 -22.82233 -99.988045 12892588
165.63914 -22.853266 -99.533592 11708316
171.61009 -23.272959 -53.606018 9208446
171.32323 -23.200363 -52.618309 8090480
172.49188 -22.71314 -47.591866 7301213
172.17938 -22.643084 -46.620461 9209214
171.94414 -22.590797 -45.895012 6511962
176.32596 -22.581341 -13.582574 8222063
176.50826 -22.670343 -12.814582 9537666
176.79279 -22.696491 -11.767796 8945528
177.07768 -22.723381 -10.718498 9209211
177.30597 -22.745535 -9.8770905 9735555
177.55293 -22.814255 -8.9064484 9275004
177.85939 -22.757221 -7.8933468 7762022
178.02751 -23.040474 -6.9149704 9735555
178.19955 -23.059084 -6.278204 10261129
183.96739 -22.837069 37.623337 10129542
183.92526 -22.669344 38.676384 7498601
183.84581 -22.592764 39.769638 7038307
183.72203 -22.651623 40.80838 8945786
183.66299 -22.587786 41.646408 12300453
164.7635 -21.871433 -100.62931 9866883
165.3559 -21.90082 -100.17545 13024943
173.19591 -22.161953 -41.58588 8090737
172.85893 -22.094389 -40.631287 9735046
174.03586 -21.678911 -36.52478 8813941
173.78653 -21.632111 -35.821602 8681843
176.22954 -21.725094 -14.62629 9405561
176.59419 -21.803455 -13.673787 6774618
176.82224 -21.822966 -12.836739 9406081
177.10764 -21.848072 -11.788074 9011580
177.39342 -21.873951 -10.736982 8288883
177.57692 -21.964411 -9.9630108 8749176
177.77231 -22.130171 -9.0454903 9209211
184.17508 -21.948542 38.822262 7038307
184.12242 -21.846516 39.737617 11116183
184.07631 -21.700819 40.748745 13550520
183.95207 -21.759758 41.790405 12432296
183.89223 -21.695629 42.630901 8682867
183.86681 -21.555126 43.402885 6511954
164.87433 -20.939438 -100.96888 8091242
165.46751 -20.967398 -100.51501 11315356
175.82755 -20.647249 -17.233664 7563619
176.07942 -20.668951 -16.617373 7563619
176.25319 -20.900234 -15.779613 11050383
176.60742 -20.975393 -14.827392 10392454
177.0087 -20.923265 -13.833005 8287598
177.05818 -21.186106 -12.853351 7038307
177.28702 -21.205509 -12.013608 9669253
177.51605 -21.225462 -11.172176 8288883
184.35324 -20.952305 40.717888 10853521
184.30605 -20.805992 41.731995 10853521
184.18083 -20.864943 42.776573 7301729
184.08571 -20.877285 43.689316 5262660
184.07126 -20.662781 44.623032 11379348
164.58958 -19.988169 -101.6113 7301470
165.18297 -20.014603 -101.15801 7696484
174.91515 -19.749725 -23.529902 7039331
175.08885 -19.75617 -22.69772 8089963
175.30525 -19.764755 -21.656559 10787988
175.81723 -19.588358 -20.861553 10919830
175.98917 -19.638519 -19.897032 10459534
175.89198 -20.010614 -18.732838 6907486
176.18195 -20.032625 -17.907701 9932935
176.47758 -20.098549 -16.952766 8485488
176.74187 -20.292833 -15.82162 9340030
176.99539 -20.314728 -15.201061 11379348
184.54239 -20.168865 41.692852 10853521
184.52881 -19.952625 42.624573 7893865
184.52469 -19.672956 43.694328 5723211
184.39592 -19.751392 44.702805 9735810
184.33755 -19.67201 45.582249 10064519
184.32072 -19.471323 46.489471 9735296
164.79167 -18.979364 -101.91834 10262667
165.29434 -19.078934 -101.49954 10526095
184.81651 -18.826565 43.865089 7565157
184.8027 -18.609278 44.802727 9670019
184.70715 -18.621067 45.721992 10788243
184.6113 -18.633276 46.642517 10261898
184.5152 -18.64596 47.564285 10787469
184.52443 -18.4263 48.278084 9011574
164.49179 -17.870033 -102.64503 7564651
165.01602 -17.984577 -102.20341 10262669
185.02357 -17.925056 45.092804 9932934
184.99841 -17.781477 45.873856 10854036
184.93785 -17.715605 46.726063 9735555
184.84178 -17.727615 47.649586 11116691
184.74548 -17.740046 48.574409 8617073
184.73065 -17.522627 49.522858 8090473
164.7863 -16.781906 -102.9204 7629925
165.19806 -16.954451 -102.53596 7564651
185.18333 -17.025833 46.788879 9538432
185.16925 -16.80687 47.735054 11379864
185.07303 -16.8186 48.66161 9143417
184.97647 -16.830727 49.589569 8616560
184.91507 -16.765156 50.449047 10062978
184.88887 -16.621735 51.239914 7564643
164.39587 -15.67413 -103.86869 7695456
164.94887 -15.846738 -103.29751 7695200
185.39143 -16.11751 48.031174 10459019
185.40167 -15.89467 48.749107 9998727
185.30521 -15.906073 49.678795 10130056
185.20848 -15.917873 50.609894 8879475
185.17426 -15.792876 51.60836 8813684
185.23087 -15.482352 52.538895 9142393
185.28412 -15.267809 53.519997 7563619
164.44885 -14.713373 -104.82313 5919050
164.74812 -15.067753 -104.18259 5919050
185.60574 -15.215303 49.760468 9669507
185.619 -15.077432 50.803837 8945782
185.65196 -14.936501 51.614979 8418926
185.7908 -14.650218 52.780899 7563619
185.78688 -14.587608 53.667473 7170403
185.71043 -14.601323 54.615799 8486003
185.69244 -14.538067 55.502769 10853262
185.62759 -14.389649 56.295677 11905692
162.76486 -13.70885 -115.64968 8550513
163.35039 -13.721877 -115.18333 9734527
164.16129 -14.173644 -106.86486 9274237
186.43103 -13.865091 57.525864 9143161
186.23833 -13.703446 58.54818 9011577
186.08102 -13.521528 59.633015 8616306
163.06323 -12.745091 -115.86181 9274748
186.60896 -12.927696 58.567463 9668993
186.38071 -12.763211 59.581619 8287341
186.21219 -12.574929 60.418274 7037274
162.73488 -11.685611 -116.61102 9274748
163.2068 -11.856513 -116.16084 9603713
186.713 -11.981767 59.59005 7300446
186.50073 -11.817904 60.612213 6708309
186.30888 -11.627728 61.44355 7564904
162.59209 -10.871962 -117.10038 8353391
187.11235 -11.171278 60.714325 6510930
186.99649 -11.015673 61.507343 7037789
186.75259 -10.935795 62.341347 7564904
186.94966 -10.474552 63.41111 9209213
186.88675 -10.243018 64.395432 9011835
187.50546 -9.7883139 64.86467 9011835
187.21155 -9.7851 65.52018 8551283
187.39702 -9.4366579 66.34742 8682867
187.19006 -9.3190269 67.290329 10459278
187.60669 -8.8490286 67.697502 12696240
187.33078 -8.8473377 68.363014 10261899
180.24767 -28.46694 8.249279 7497825
180.36729 -28.490808 8.9794312 7564651
180.50677 -28.367954 9.9293461 7564651
180.58615 -28.387817 10.804962 7564651
180.68513 -28.413559 11.901379 6249042
180.76422 -28.434851 12.779858 7564386
179.80037 -27.321165 5.1251583 8090987
179.99655 -27.506029 6.0697536 9998471
180.18173 -27.613754 6.8718033 11380380
180.35297 -27.780947 7.7040997 7300446
180.63902 -27.695292 8.8485718 8287858
180.74509 -27.719589 9.9430504 7564651
180.82539 -27.739126 10.819876 7433065
180.90091 -27.805616 11.828726 7104098
181.0282 -27.743975 12.886738 8353647
181.10332 -27.812075 13.899191 8023911
181.18253 -27.834354 14.782228 9010805
181.25734 -27.90431 15.798058 10787214
181.44087 -27.669329 16.78219 6905944
181.53957 -27.699675 17.892872 11247764
181.69934 -27.506483 18.791861 11379607
181.77829 -27.531931 19.684378 10196106
181.95802 -27.346066 20.812069 9472126
182.05666 -27.379549 21.933378 8682099
182.13548 -27.407038 22.832531 8089963
182.19464 -27.428116 23.508114 8089963
166.47151 -26.641029 -97.065636 9076596
166.92987 -26.881052 -96.26342 9537150
167.41336 -26.793259 -94.152771 9405304
167.3452 -26.728863 -93.325859 8681839
167.25146 -26.64352 -92.227478 8353643
167.15465 -26.558683 -91.134026 10524300
167.08011 -26.495401 -90.317078 9537667
179.37518 -26.345795 2.3077624 14076861
179.54832 -26.372091 2.9580119 13156016
179.69817 -26.622068 3.8251631 9933191
179.98753 -26.667894 4.9145889 8683124
180.27762 -26.714691 6.0076504 9932678
180.51024 -26.752926 6.885149 8682099
180.74327 -26.791885 7.765255 9076854
180.96056 -26.830702 8.8651333 8222580
181.06287 -26.853642 9.9613247 7564651
181.14386 -26.872599 10.839727 7301479
181.22466 -26.892157 11.719461 7301479
181.32486 -26.917376 12.821051 9603203
181.50485 -26.725927 13.931059 8879221
181.58456 -26.747309 14.816029 9142393
181.66414 -26.769344 15.702545 7892582
181.73842 -26.850893 16.755335 6774358
181.87741 -26.762268 17.832382 6379600
182.02315 -26.632891 18.826248 7564385
182.10257 -26.657536 19.72039 9735039
182.18195 -26.682802 20.616295 9998470
182.28104 -26.715324 21.73876 8484720
182.38002 -26.74877 22.863928 8682099
182.4592 -26.776255 23.766235 8945531
182.53827 -26.804396 24.670448 9077375
182.61284 -26.881683 25.710472 9537924
182.74049 -26.829004 26.80578 8946044
182.89719 -26.687103 27.863956 8156787
183.05878 -26.496561 28.791122 7433065
183.13795 -26.527781 29.707703 8616823
183.23819 -26.483011 30.554562 9866631
183.29881 -26.353365 31.320724 8287859
166.1814 -25.617542 -97.878769 9339765
166.60472 -25.955547 -97.410873 8879215
168.97258 -25.750528 -82.385902 8089963
168.83344 -25.670164 -81.320702 7498598
168.69141 -25.590302 -80.260406 10458508
168.58327 -25.530777 -79.468231 12432037
179.12231 -25.406769 0.15092677 8486262
179.31139 -25.613651 1.0999129 8485489
179.56084 -25.694757 2.0948374 8682867
179.7923 -25.728775 2.9626429 9538175
180.02426 -25.763496 3.8328841 10262156
180.27507 -25.847364 4.8363304 9077882
180.5874 -25.80463 5.8884125 9603200
180.83943 -25.890251 6.89855 9997699
180.99081 -26.144215 7.7765236 9340027
181.17958 -26.176414 8.6580925 8090737
181.28127 -26.198536 9.7554417 7893615
181.38289 -26.221506 10.854645 7038307
181.52409 -26.097212 11.812647 9997961
181.62125 -26.089197 12.754946 9668995
181.80649 -25.850044 13.73525 8353135
181.90688 -25.875828 14.843195 11379356
182.06772 -25.678692 15.738482 8813169
182.14777 -25.70039 16.628561 8024166
182.24779 -25.72846 17.743395 6511442
182.34769 -25.757372 18.86068 7038041
182.42754 -25.781216 19.756489 11379349
182.50737 -25.805653 20.654041 11050644
182.5827 -25.87854 21.68642 8945529
182.71106 -25.821548 22.77244 9011577
182.78635 -25.896055 23.809752 10064011
182.86594 -25.92326 24.715656 8814203
183.02769 -25.730192 25.63534 10063753
183.09238 -25.824745 26.639837 8879479
183.23254 -25.741186 27.746967 8156271
183.38916 -25.610119 28.844038 7959151
183.46887 -25.640289 29.762363 7827565
183.54863 -25.671129 30.682882 7038307
183.51688 -25.687269 31.585846 7958895
183.46021 -25.620739 32.409714 10853012
166.40157 -24.771345 -98.098167 8681835
166.91757 -25.036428 -97.59436 8681835
170.29105 -24.883512 -72.432945 10261132
170.16861 -24.828222 -71.66111 11905696
170.00307 -24.754971 -70.63575 10524559
169.87741 -24.700285 -69.869682 9537923
178.86839 -24.475159 -1.9992368 6644055
179.07608 -24.726246 -0.92512876 8091761
179.30696 -24.756977 -0.063857853 8486262
179.53818 -24.788326 0.79969424 8024940
179.8279 -24.828436 1.8825362 7760998
180.11821 -24.869461 2.9688227 9208697
180.35101 -24.903028 3.8406394 9734785
180.53743 -25.006289 4.6412029 9341054
180.7357 -25.188013 5.5890942 9340540
182.67169 -25.122782 19.783573 11905693
182.75189 -25.146618 20.682339 10261132
182.83194 -25.171001 21.582937 7565161
182.93213 -25.202429 22.711313 9143935
183.11853 -24.9659 23.719606 9406337
183.19429 -25.040203 24.76099 8156531
183.3567 -24.845865 25.682341 8089963
183.49867 -24.727545 26.678715 10984599
183.59981 -24.678997 27.521206 8813430
183.67555 -24.756054 28.573078 8814203
183.80511 -24.701895 29.681759 7695980
183.88084 -24.780504 30.739412 7038307
183.83844 -24.79463 31.642159 8879995
183.74736 -24.802914 32.537205 9866375
183.65836 -24.768343 33.570419 8945782
166.11955 -23.817219 -98.739876 10655625
166.62189 -23.923523 -98.318123 10655625
171.45659 -24.132298 -63.648705 9405559
171.25728 -24.062298 -62.644073 8681835
171.05106 -23.992111 -61.642452 8089959
172.39005 -23.475464 -56.348915 9209467
172.17859 -23.419876 -55.597023 7827814
171.96628 -23.364492 -54.84774 6511954
178.44164 -23.530529 -4.783926 10787472
178.63724 -23.701849 -3.8581846 10261642
178.82149 -23.798304 -3.0735281 8090216
179.10983 -23.833612 -2.0013769 8485231
179.39885 -23.869862 -0.92604619 7762796
179.63055 -23.899517 -0.063218892 9209727
179.8627 -23.929817 0.80191821 8287340
180.15349 -23.968555 1.8867171 9471868
180.36314 -24.223747 2.9734251 9340025
180.53816 -24.248184 3.6279089 9536635
184.06999 -24.089443 30.088886 7564651
184.12926 -24.111101 30.781654 6511954
184.12627 -23.975298 31.768597 7038307
184.0696 -23.907999 32.59523 7301479
183.94832 -23.962618 33.624191 8419694
183.87057 -23.883921 34.708099 9143160
183.94456 -23.415432 35.701107 8090473
183.92149 -23.274004 36.462448 10261132
166.23312 -22.884647 -99.077583 8419955
166.75026 -23.147354 -98.574013 9406078
171.82419 -23.327837 -54.350037 6511954
173.34337 -22.908482 -50.289673 6971994
173.11224 -22.854876 -49.550144 8090728
172.8028 -22.783756 -48.568405 6511954
174.11574 -22.350283 -44.237171 8813942
178.18687 -22.614281 -6.9208126 8617331
178.38261 -22.782997 -5.9981174 9866372
178.62445 -22.883587 -5.0031071 10063750
178.91251 -22.915993 -3.9351442 9012604
179.20343 -22.815271 -3.0360963 5920848
179.45731 -22.819378 -2.1277997 7696744
179.71843 -22.861303 -1.1429346 8091245
179.90846 -23.10943 -0.13475972 8946556
180.10651 -23.284683 0.80356807 10459017
184.31169 -23.235548 32.638824 10327180
184.34511 -22.884733 33.606297 11313814
184.25742 -22.868162 34.559292 9537917
184.25624 -22.589544 35.609222 8090473
184.14088 -22.601603 36.736961 9011320
184.12918 -22.386534 37.656944 8814197
165.94972 -21.930502 -99.72036 9539206
166.54532 -21.960606 -99.263779 9539206
173.86592 -22.298557 -43.510384 7563619
173.53152 -22.229975 -42.54554 8814458
174.77972 -21.820646 -38.650002 9932934
174.44986 -21.75736 -37.702789 9669250
177.75905 -21.687765 -9.6873074 8288883
177.93112 -21.704077 -9.0532188 8748920
178.18944 -21.85524 -7.931633 7433059
178.50633 -21.760199 -6.9325314 9537664
178.73695 -21.783693 -6.0808868 9208443
179.02576 -21.81378 -5.0134315 9866372
179.31508 -21.844652 -3.9430749 6578520
179.4738 -22.011089 -3.1551206 5197381
179.72112 -21.889446 -2.4389303 4342073
184.59119 -21.90505 34.754326 8814195
184.60329 -21.686029 35.44696 9011320
184.48799 -21.697489 36.576572 7301214
184.3723 -21.709627 37.707405 8222058
184.31422 -21.643682 38.543365 6643543
184.29066 -21.501949 39.310486 14075837
166.06258 -20.99575 -100.05966 9078912
166.659 -21.024456 -99.603081 10460049
175.43005 -21.309387 -32.87656 11511449
177.16457 -20.329458 -14.786572 11379348
177.42908 -20.350979 -13.950005 8616820
177.50731 -20.572031 -12.884442 7564393
177.69385 -20.58602 -12.039848 8879994
177.8923 -20.694979 -10.919041 10459279
178.06554 -20.834652 -9.9176674 8288883
178.28081 -20.85371 -9.070179 7564906
178.55679 -20.823486 -8.0623226 8617079
178.90654 -20.690067 -6.9471645 11117466
179.09204 -20.781986 -6.1640205 9538694
179.28955 -20.950014 -5.2359657 10787472
184.80107 -20.867544 36.485565 8551026
184.72023 -20.802893 37.548176 6906456
184.60422 -20.815119 38.682152 8682608
184.51102 -20.825392 39.59037 12168609
184.52193 -20.606667 40.290028 8682867
165.77768 -20.041388 -100.70363 9210239
166.37433 -20.068464 -100.24769 9999755
176.45895 -19.418116 -19.433687 11380121
176.60594 -19.426203 -18.805998 6775642
176.8857 -19.44632 -17.976429 12433069
177.16949 -19.574564 -16.823402 8748404
177.37993 -19.69805 -15.876248 8879479
177.67201 -19.721247 -15.041759 12102823
177.90204 -19.781527 -14.071545 9208187
177.97676 -19.957737 -12.916834 7564393
178.16414 -19.971226 -12.070054 9143166
178.3983 -19.988791 -11.009615 8288883
178.63243 -20.007034 -9.9472885 7631211
178.8197 -20.022118 -9.0958557 9208958
184.94115 -20.125591 37.825508 7564385
184.95978 -19.861216 38.618332 8682608
184.83568 -19.917784 39.661022 9340025
184.74161 -19.928001 40.571705 7761253
184.76561 -19.619436 41.463715 9208698
184.79622 -19.266424 42.452858 7565157
165.97723 -18.966413 -101.0431 9275774
166.48805 -19.129995 -100.58907 8618359
177.31761 -19.055931 -18.663628 6511954
177.44693 -19.062283 -18.031166 10459278
177.65147 -19.074356 -17.189955 9472383
185.19658 -19.223909 38.575478 8682608
185.15851 -19.051966 39.591583 7366751
185.18138 -18.723289 40.569542 8024425
185.13503 -18.57132 41.594536 8156011
185.04042 -18.581661 42.509789 8091244
184.98067 -18.51524 43.356152 9670018
184.95578 -18.371965 44.133751 7565157
165.62248 -17.796278 -101.83819 9406594
166.1814 -17.936472 -101.35911 9406850
185.45047 -17.878613 40.963593 9932678
185.4613 -17.656883 41.668858 8222316
185.36674 -17.666647 42.585762 9209211
185.27191 -17.676834 43.503769 12893358
185.17677 -17.687368 44.422924 11643294
185.16316 -17.468908 45.363525 9932934
165.87364 -16.743004 -102.12988 10721681
166.39452 -16.999006 -101.62647 11182231
185.65875 -16.826572 42.732224 8682867
185.59911 -16.758848 43.581635 11841185
185.50401 -16.768831 44.502487 10064779
185.40874 -16.779215 45.424507 10788243
185.34216 -16.676218 46.473785 9472639
165.57874 -15.713166 -102.95566 8616816
166.14073 -15.887331 -102.3861 8156530
185.8213 -16.071196 43.870586 9867657
185.83244 -15.847784 44.582314 10788244
185.73718 -15.857617 45.506004 10656915
185.64163 -15.867746 46.431007 9735811
185.54585 -15.878202 47.357239 11050899
185.5563 -15.655211 48.074348 9209467
165.43132 -14.779605 -103.96703 6248014
165.97115 -14.950809 -103.38287 8089957
185.98616 -15.164919 45.567795 10788244
186.0359 -14.947897 46.53101 8748405
186.04649 -14.823653 47.534744 10853264
186.03941 -14.744272 48.440681 9011320
186.03188 -14.665082 49.348793 9537921
186.04973 -14.542087 50.362053 9669507
186.16566 -14.329744 51.357693 11576729
186.09602 -14.342831 52.30418 8090475
163.93701 -13.735106 -114.71609 8287852
164.43436 -13.827518 -114.28226 7564643
165.09547 -14.19703 -106.06879 7761254
165.65714 -14.21132 -105.58924 7169117
187.06187 -13.950973 53.554298 8354163
187.11497 -13.731396 54.546432 9801091
187.04681 -13.745018 55.505409 8222575
186.85248 -13.750046 56.427689 9208953
186.79343 -13.518093 57.14687 8682867
163.9514 -12.844471 -115.11757 9011318
187.34212 -13.039247 55.5942 8880760
187.2852 -12.759588 56.412292 9932675
186.97382 -12.807899 57.448948 8945782
186.86111 -12.571538 58.153534 10590353
163.67911 -12.027884 -115.71011 9011320
187.41513 -12.095695 56.845886 8682867
187.21936 -12.096065 57.52523 9735296
187.23842 -11.819963 58.371277 9997960
187.10567 -11.632753 59.220825 7563619
187.56396 -11.172902 59.368065 7563619
187.70284 -10.868507 60.242847 6840666
187.74123 -10.560475 61.255119 6972765
187.76459 -10.253826 62.432785 7695719
188.19144 -9.7962151 63.333275 9931907
188.09062 -9.5597248 64.309639 10129029
188.0152 -9.3249483 65.29731 8551283
167.56683 -26.479122 -96.361313 9011063
167.42374 -26.88566 -95.481285 9537150
167.45782 -26.836363 -94.70565 9405304
167.35602 -25.532562 -97.043633 9076596
167.83427 -25.914732 -96.514961 8813428
169.46967 -26.05678 -86.424461 10459278
169.37335 -25.994921 -85.611305 10459278
169.24257 -25.912931 -84.531181 6511954
169.10899 -25.831451 -83.456032 7564386
181.15607 -25.7117 7.7840195 10590091
181.41835 -25.525351 8.6700726 9143167
181.5204 -25.546894 9.7688923 8617080
181.62233 -25.569288 10.86956 7564649
181.72365 -25.51375 11.67993 7038307
181.86525 -25.389187 12.640894 9537667
181.967 -25.413849 13.74777 9668738
182.06833 -25.439257 14.856787 10721426
167.48878 -24.788273 -97.281883 9339766
168.11092 -25.107876 -96.674438 8089963
170.80418 -25.126297 -75.808731 9011574
170.64931 -25.051064 -74.764832 9274750
170.49167 -24.976294 -73.725609 9011320
170.37187 -24.920542 -72.94912 10261132
180.80682 -24.514137 4.9387932 10063749
181.02255 -24.643774 5.8788567 8879735
181.25204 -24.808979 6.9153099 8879477
181.4872 -24.845133 7.7991123 9340286
181.73727 -24.655655 8.6860943 7827566
181.81564 -24.718361 9.6977901 9932424
181.94594 -24.651913 10.758076 9143678
182.02405 -24.716091 11.773186 7038307
182.10585 -24.734589 12.658215 8419443
182.18372 -24.800392 13.676561 8024170
182.31386 -24.736715 14.745081 8550514
182.39131 -24.803925 15.767321 8549481
182.47188 -24.824945 16.658989 8747116
182.55235 -24.846489 17.552242 7629152
182.65282 -24.874292 18.671181 8287851
182.83472 -24.683155 19.801702 11905693
182.91515 -24.706545 20.701292 8091248
183.07733 -24.510036 21.612583 8354163
183.15779 -24.534422 22.516207 9932680
183.34041 -24.344736 23.659351 8813685
183.44106 -24.376656 24.795033 8419187
183.52151 -24.40283 25.705915 9537153
183.58189 -24.422848 26.390314 12432045
167.18994 -23.641937 -98.023163 9735043
167.66933 -24.022009 -97.494514 8945523
172.04051 -24.34528 -66.6903 9274230
171.84822 -24.273865 -65.671768 9274230
171.65356 -24.202854 -64.657913 8681835
173.01828 -23.644199 -58.622822 10983567
172.74019 -23.568865 -57.608948 8812398
172.53044 -23.512722 -56.851837 7366751
180.39812 -23.322399 1.8898489 9471868
180.60849 -23.576759 2.9781229 8813425
180.80508 -23.739786 3.8948691 8023655
181.01613 -23.769089 4.6838284 9273463
181.31223 -23.674067 5.6083603 9143675
181.60683 -23.716276 6.711235 8814710
181.90208 -23.759375 7.8179722 9734788
182.05688 -23.784084 8.7021732 8090737
182.1393 -23.800034 9.5841141 9143167
182.24222 -23.820747 10.688461 9472642
182.34502 -23.842312 11.794741 8617335
182.42723 -23.860184 12.681374 8879993
182.50929 -23.878605 13.569445 8484978
182.61191 -23.902395 14.681684 8352620
182.71442 -23.927042 15.796101 8286310
182.87726 -23.727589 16.697048 9602681
182.95891 -23.748247 17.592419 10985107
183.02541 -23.834686 18.583117 8419694
183.16663 -23.743042 19.671427 9209211
183.24229 -23.82481 20.739187 8946300
183.40512 -23.627087 21.652151 8880250
183.48605 -23.650591 22.557497 9143164
183.56697 -23.674646 23.464666 8879479
183.66803 -23.70553 24.601524 9142651
183.76915 -23.73731 25.741316 9800582
183.84999 -23.763355 26.655504 10984599
183.93085 -23.78998 27.571814 9866633
184.01169 -23.817196 28.490234 8814203
184.09254 -23.845011 29.410892 9406339
184.27432 -23.656961 30.578562 8090730
184.26407 -23.674276 31.488457 6511954
167.32211 -22.895817 -98.262634 9537664
167.9456 -23.212601 -97.655495 9406078
173.80272 -23.016842 -51.778374 7038307
173.49695 -22.944521 -50.784477 7038307
174.6958 -22.47216 -45.945152 8090992
174.36485 -22.402311 -44.9673 8813942
179.96594 -22.366522 -0.92765409 7564643
180.16403 -22.540243 0.010000408 9012090
180.35083 -22.638296 0.80524844 11314324
180.5847 -22.667517 1.6751025 7563619
180.87769 -22.704878 2.7658312 9141878
181.1713 -22.743078 3.8601496 9536635
181.40683 -22.774313 4.7384834 7037530
181.64279 -22.806168 5.6194096 7367264
181.86739 -22.951572 6.6119881 8814710
182.48306 -23.164755 10.703125 9143678
182.5656 -23.181536 11.589302 8419956
182.66872 -23.20306 12.69883 8814200
182.7511 -23.221006 13.588017 8814200
182.89429 -23.094498 14.557503 9603713
183.01736 -23.043335 15.601477 8813167
183.20148 -22.847582 16.727472 9931646
183.28389 -22.867571 17.624517 11972517
183.42749 -22.7425 18.603849 7695972
183.52989 -22.688005 19.4324 7038556
183.63177 -22.714663 20.560816 8814969
183.7336 -22.742109 21.691833 8222834
183.815 -22.764715 22.598831 9142907
183.89645 -22.78784 23.507742 9142907
183.97783 -22.811516 24.418604 9406079
184.07956 -22.841942 25.560059 9603717
184.18132 -22.873192 26.704479 9340290
184.26274 -22.898813 27.622501 9143165
184.3441 -22.925026 28.542648 8814203
184.50893 -22.728056 29.478628 10064011
184.59058 -22.755133 30.403683 7235677
184.58734 -22.777071 31.544708 7235677
184.55428 -22.5618 32.682499 11774880
184.56673 -22.342932 33.372116 14077894
167.22087 -21.759378 -98.852417 10129545
167.50217 -22.127489 -98.476601 9932166
175.57069 -21.965197 -40.590523 9932934
175.26239 -21.909273 -39.857647 9538432
174.95384 -21.853647 -39.127769 10656657
176.13158 -21.432663 -34.756298 10654859
175.7814 -21.370771 -33.813961 9931651
179.70872 -21.440247 -3.0867231 4342073
179.90677 -21.611217 -2.1527326 9341055
180.15161 -21.713608 -1.1445501 9143675
180.44344 -21.747189 -0.061580479 9538175
180.67747 -21.774731 0.80751818 9537662
180.912 -21.802799 1.6789191 7563619
181.20607 -21.838737 2.7716677 9471096
181.45364 -21.945381 3.7940505 9405304
181.65451 -22.122969 4.7455635 10524300
184.06227 -22.098946 22.629959 9866887
184.14406 -22.121422 23.540113 9142907
184.22585 -22.144394 24.452175 9603459
184.30763 -22.167965 25.366266 10064011
184.493 -21.974831 26.524109 9208960
184.59538 -22.00552 27.673319 7301470
184.67734 -22.030704 28.595257 7827816
184.90549 -21.684805 29.61924 8551026
185.00879 -21.633638 30.473812 8814709
185.01515 -21.651182 31.390057 9998727
184.90121 -21.659906 32.515652 9932678
184.78699 -21.669357 33.642174 11050904
184.72993 -21.601625 34.47419 9142904
167.25726 -21.05348 -99.144989 10064778
167.77797 -21.315338 -98.63916 9406078
177.05801 -20.985535 -29.888891 10261385
176.81052 -20.948298 -29.412334 8089960
179.27654 -20.503262 -5.8824081 9538694
179.4507 -20.520266 -5.2402763 12039082
179.66063 -20.764357 -4.1657791 11906979
179.95178 -20.794344 -3.0903451 7039071
180.18509 -20.818895 -2.2275617 10262157
180.43767 -20.891071 -1.232538 9275004
180.75145 -20.835485 -0.19121915 10853777
181.00516 -20.90904 0.80973834 9998212
181.15828 -21.152962 1.6817515 7563619
181.3349 -21.173695 2.3376849 9208435
185.23602 -20.976784 31.657394 11183001
185.21423 -20.83182 32.418522 8747893
185.13467 -20.764921 33.476517 9405823
185.02003 -20.774485 34.605942 8813940
184.92812 -20.782709 35.51033 9142905
184.94023 -20.562988 36.205238 9011320
167.05099 -19.863413 -99.837585 14077885
167.38814 -20.067671 -99.494316 11315355
178.27248 -19.550011 -13.582814 9405566
178.40343 -19.558609 -12.946227 10129289
178.55356 -19.567776 -12.095044 8155754
178.71378 -19.576971 -11.02803 8288883
178.94862 -19.594797 -9.9637833 8288883
179.13647 -19.609579 -9.1107616 10261387
179.16197 -19.874882 -8.1201382 11774366
179.45015 -19.81131 -7.0959702 8354164
179.63292 -19.87137 -6.1088753 9538694
179.81921 -19.88817 -5.2498951 10788760
180.06004 -19.910713 -4.1739178 10459531
180.3206 -19.936018 -3.095762 5920074
180.53053 -19.956993 -2.2310026 10064265
180.74605 -19.978983 -1.3642843 9275005
180.95715 -20.226564 -0.27788717 9538431
185.40169 -20.08486 33.29528 8089963
185.36861 -19.867462 34.441429 8813940
185.25368 -19.877182 35.573811 10261383
185.16144 -19.885378 36.480618 11840158
185.10385 -19.817766 37.318153 10655885
167.10309 -18.852652 -100.25793 9736579
177.8718 -19.090731 -16.56422 7563619
178.33919 -18.910015 -15.958309 7563619
178.62271 -18.931166 -15.118417 8879479
178.87279 -18.94742 -14.057951 10326668
179.00102 -19.026796 -13.059298 7958120
179.03722 -19.172441 -12.125782 7432287
179.21211 -19.184435 -11.272753 8419181
179.42323 -19.199247 -10.2043 10129541
179.54083 -19.204859 -9.1298714 9208958
179.64275 -19.210714 -8.2698917 11379609
179.87836 -19.229918 -7.1978436 8485237
180.11397 -19.249802 -6.1235561 7038307
180.30244 -19.266222 -5.2621899 8156783
180.44385 -19.278797 -4.6152401 12762028
185.61336 -19.187235 34.487572 8090987
185.61496 -18.892836 35.567265 9274746
185.56931 -18.749632 36.562218 9603456
185.47629 -18.757746 37.471809 9405822
185.42004 -18.674742 38.343521 8945781
185.40546 -18.470652 39.240871 6643284
166.85219 -17.647942 -100.99157 8815223
167.46785 -17.830486 -100.45104 8223597
185.87227 -17.840456 36.855141 9142651
185.88394 -17.617855 37.555347 9932167
185.79039 -17.625847 38.467838 8353134
185.69672 -17.634186 39.381195 7761255
185.60272 -17.642975 40.295498 10261643
185.61377 -17.421024 41.000214 8484976
166.96959 -16.736233 -101.31835 7564649
167.59756 -17.044754 -100.71152 7565667
186.10576 -16.933968 37.833969 9142651
186.08241 -16.787701 38.607079 7695979
186.0238 -16.71858 39.451553 8879479
185.92984 -16.726868 40.367584 10326409
185.80511 -16.782766 41.418449 9143418
185.8231 -16.514967 42.221474 8682867
166.76994 -15.75342 -102.03876 7564651
167.33929 -15.92898 -101.46961 7564651
186.26964 -16.030317 39.504463 8879479
186.25806 -15.808331 40.439823 8287600
186.16391 -15.816467 41.358482 7433063
186.03886 -15.872365 42.412418 8682867
185.99239 -15.720959 43.43914 9801606
166.6058 -14.815199 -103.03954 8748147
167.1604 -14.988397 -102.46064 7366754
186.48335 -15.119862 40.724415 7038307
186.47116 -14.973436 41.50626 7038307
186.42439 -14.904807 42.359989 8880250
186.33856 -14.913779 43.284683 11380121
186.21347 -14.970057 44.343246 8749691
186.4071 -14.52547 45.33976 9670278
186.51749 -14.265793 46.415062 10064521
186.45229 -14.277364 47.353157 8616563
166.2196 -14.225757 -105.10845 7432289
166.78293 -14.240392 -104.62637 7893096
186.75249 -14.232335 43.382492 12499115
186.67517 -14.241895 44.312687 8947070
187.38268 -13.866735 47.59404 8616563
187.34602 -13.87627 48.305733 8288365
187.38982 -13.736888 49.361496 8222060
187.38763 -13.67182 50.246651 9142649
187.33078 -13.684711 51.199673 10853263
187.24066 -13.746487 52.291145 8682867
187.31952 -13.481893 53.385223 8814200
187.69547 -12.970942 50.330368 8288108
187.71573 -12.747012 51.306267 10129798
187.65189 -12.758833 52.261314 9011831
187.58775 -12.770927 53.218254 7630187
187.52341 -12.783294 54.177193 9537667
187.49228 -12.716072 55.066422 8551029
188.02023 -12.072915 53.342773 7038307
187.91246 -12.081934 54.291168 7038307
188.05321 -11.863465 55.31559 8616565
187.89418 -11.869769 56.252968 10656143
187.82204 -11.638739 57.218414 10787726
188.3683 -11.183548 57.387444 12235178
188.34068 -10.952906 58.372025 12893108
188.3112 -10.722713 59.358727 7563619
188.74002 -10.267111 60.246716 6446935
188.34984 -10.26159 61.121937 8682867
189.06015 -9.8066788 61.355995 7564901
188.6814 -9.8022747 62.23774 7696488
188.65686 -9.3302126 63.745354 9931907
168.69109 -26.545326 -95.398148 9010805
169.37807 -26.580235 -94.717033 10851980
168.35143 -25.593752 -96.275696 8089963
168.97127 -25.915276 -95.66333 9142391
169.92552 -26.370937 -90.534286 7695716
169.80803 -26.286362 -89.431381 10459276
169.6875 -26.202398 -88.333549 8090987
169.59529 -26.13973 -87.513428 8485488
169.53276 -26.098154 -86.96833 10459278
171.3804 -25.416 -79.774574 10130057
168.68581 -24.859636 -96.359322 9602937
171.30016 -25.376047 -79.23922 8682867
171.181 -25.316927 -78.439964 9406334
171.03142 -25.240177 -77.383507 11181970
170.91859 -25.183109 -76.594688 10458505
172.60254 -24.562679 -69.77401 11905692
172.41759 -24.489691 -68.741386 9735555
172.23027 -24.417257 -67.713478 9144449
168.18689 -23.697878 -97.256355 9931646
168.81232 -24.016956 -96.646797 9931646
173.7263 -23.847677 -61.421951 7563619
173.55881 -23.794989 -60.663109 12496032
173.29448 -23.719988 -59.642036 12956841
168.5211 -22.96088 -97.34153 9734528
169.14769 -23.279341 -96.731308 9208435
174.71112 -23.236805 -54.790306 10064009
174.48535 -23.181376 -54.032822 8287853
174.18307 -23.107876 -53.027378 6511954
175.35361 -22.613316 -47.916595 8814715
175.02533 -22.542459 -46.928211 7893615
182.02145 -22.629114 6.7273483 8814710
182.21602 -22.839767 7.7006321 8616563
182.37721 -22.910509 8.7182617 8879479
182.46002 -22.925861 9.6018085 8813943
182.62315 -22.72263 10.491556 9143678
182.80716 -22.523806 11.605238 9143678
182.91068 -22.54479 12.716225 7564651
182.99342 -22.562206 13.606653 8485236
183.09613 -22.505232 14.426462 9603713
183.26044 -22.38303 15.622839 9077884
183.36386 -22.40671 16.74276 8088931
183.44653 -22.426298 17.640627 10985622
183.50851 -22.441275 18.314964 10985622
168.02022 -21.800108 -98.23954 10129545
168.64682 -22.116327 -97.630348 9800578
176.30586 -22.105612 -42.541561 9340545
176.04195 -22.054096 -41.810165 7564651
175.77608 -22.002684 -41.081135 8617080
177.00169 -21.589367 -37.1334 9932166
176.56752 -21.510696 -35.941288 8353648
181.64238 -21.665672 4.089756 9536635
181.81992 -21.688053 4.750309 10524300
181.97411 -21.936142 5.6304207 6643541
182.29475 -21.749054 6.5187931 8814710
182.55679 -21.841192 7.5729942 9011065
182.79282 -21.751472 8.6447392 8484464
182.86198 -21.830204 9.6239548 9339771
182.97331 -21.75672 10.468338 9077111
183.10541 -21.687559 11.53648 10063237
183.23758 -21.618837 12.606983 8090994
183.31702 -21.681946 13.631573 9406335
183.40012 -21.699162 14.525124 9406591
183.48323 -21.716852 15.420166 9275262
183.58704 -21.73975 16.54126 8617077
183.69081 -21.76334 17.664742 9603969
183.7738 -21.782825 18.565474 7038298
183.85678 -21.802832 19.467894 7038814
183.9397 -21.823311 20.372089 10590607
184.0424 -21.849657 21.504889 10130057
184.22743 -21.654366 22.650673 9537667
184.30943 -21.67639 23.561697 8090479
184.39145 -21.698912 24.474646 7827307
184.55653 -21.498716 25.401281 9077375
184.72194 -21.298521 26.330759 8156531
184.82477 -21.328156 27.48119 8091242
184.9278 -21.358551 28.634727 7301470
184.98955 -21.377211 29.328571 8091242
168.44485 -20.953955 -98.306885 9932422
168.98195 -21.375772 -97.716438 10262156
177.78947 -21.105978 -31.765614 10853012
177.52528 -21.061689 -31.061359 10261385
177.26051 -21.017704 -30.359449 8617078
178.43553 -20.637711 -27.042782 9736836
181.32275 -20.719051 1.683697 8550512
181.60364 -20.660477 2.6038458 9208435
181.85469 -20.780779 3.6577895 11839387
182.15146 -20.816345 4.7597752 12367021
182.38948 -20.845428 5.6443329 7498855
182.71147 -20.656368 6.5347576 7301476
182.90294 -20.75679 7.3494625 8813941
183.0798 -20.934221 8.5330696 10853012
183.26514 -20.731524 9.6461277 9734527
183.34883 -20.745817 10.534933 9537405
183.43245 -20.760611 11.425062 10063236
183.53702 -20.779791 12.539743 9209473
183.64146 -20.799665 13.656504 10721935
183.72501 -20.816153 14.551661 9472641
183.80852 -20.833115 15.448341 8814713
183.892 -20.850548 16.346552 7893614
183.99637 -20.873091 17.471735 8551281
184.10069 -20.89633 18.599333 7827814
184.18414 -20.915508 19.503408 10590607
184.26761 -20.935162 20.409296 10590607
184.41869 -20.798462 21.42128 9275007
184.56314 -20.703835 22.523926 8551031
184.64081 -20.784534 23.604961 7038307
184.72337 -20.806105 24.519615 6708567
184.88908 -20.604555 25.447948 8024686
184.97182 -20.626921 26.367134 7301476
185.05457 -20.649782 27.288345 9341309
185.15799 -20.67909 28.443115 7828070
185.26152 -20.709156 29.60108 9603201
185.34438 -20.733812 30.530107 13091511
185.37479 -20.673626 31.375702 11840931
185.35304 -20.528496 32.136833 8089963
168.09164 -19.59511 -99.185982 8420208
168.46294 -20.022854 -98.715721 9208956
180.77321 -19.309042 -3.1019113 5920074
180.95972 -19.326811 -2.2348402 8879991
181.14633 -19.344975 -1.3659608 8419696
181.25038 -19.580553 -0.27753812 10195848
181.42685 -19.824877 0.8126604 11182740
181.65245 -19.8493 1.6875613 8879477
181.97209 -19.657385 2.566313 9208435
182.20973 -19.683668 3.446583 9208435
182.50746 -19.717192 4.5505714 8090733
182.7226 -19.970699 5.6554909 8156787
182.90219 -19.991871 6.3217716 9341060
183.88524 -20.136637 13.675217 11380380
183.96912 -20.152525 14.571609 9867397
184.05295 -20.168961 15.469481 9275262
184.13676 -20.185793 16.369009 9406335
184.2825 -20.096516 17.499647 9537918
184.43214 -19.960489 18.499321 9537918
184.51228 -20.025988 19.539064 9932932
184.59619 -20.044786 20.446558 11774621
184.82451 -19.69363 21.448143 10129803
184.92917 -19.636904 22.287447 9208703
185.00945 -19.704556 23.336578 7498601
185.14328 -19.639378 24.440601 5919050
185.22253 -19.708143 25.494799 8880502
185.30577 -19.729527 26.415648 8090730
185.38907 -19.751362 27.338663 8354158
185.47235 -19.773699 28.263817 10526095
185.55136 -19.845095 29.32781 10261899
185.68513 -19.783024 30.449583 10130058
185.6658 -19.845425 31.502342 9340541
185.57462 -19.851696 32.405933 9208700
185.56474 -19.631975 33.325035 10064009
168.24928 -18.732693 -99.460526 9078138
179.64613 -18.494715 -12.95935 6971481
179.73064 -18.571873 -12.169989 7892838
179.90668 -18.58346 -11.313683 7169115
180.12648 -18.598545 -10.241493 8813683
180.34601 -18.614178 -9.1674385 9339514
180.52147 -18.627161 -8.3066635 11904668
180.64252 -18.679544 -7.3123512 10853780
180.8996 -18.61076 -6.277689 7761770
180.9886 -18.660955 -5.2795067 8156783
180.94061 -18.878077 -4.263916 8748914
181.27147 -18.683956 -3.3263509 7893607
181.44891 -18.699646 -2.2390535 8156780
181.63852 -18.717459 -1.3679044 7959401
181.75684 -18.803989 -0.56783277 8682867
181.89748 -18.968838 0.59785289 12300452
182.13187 -18.992868 1.6935294 9274750
182.31941 -19.012571 2.5723212 9208435
182.50717 -19.032827 3.4530509 9208435
185.49402 -19.039442 25.760307 8090730
185.55676 -19.055 26.452147 7563619
185.6404 -19.076061 27.376432 8418927
185.72417 -19.097618 28.302904 11381404
185.87106 -18.97081 29.318172 9208443
185.97615 -18.915905 30.17646 10788244
186.00797 -18.937099 31.331276 10393486
185.98294 -18.718027 32.478409 10196106
185.89151 -18.724323 33.38467 9143162
185.83708 -18.639793 34.252415 9471611
185.82463 -18.43442 35.144623 9998212
168.04268 -17.53713 -100.15704 8092011
168.40685 -17.868515 -99.735924 9736579
186.27861 -17.958986 32.300224 9867141
186.30098 -17.586813 33.459389 9208696
186.20911 -17.593029 34.368393 9603195
186.11665 -17.599649 35.278008 8485487
186.02609 -17.562088 36.328278 8945528
168.17627 -16.78157 -100.40088 8486515
186.52397 -16.903908 33.731754 9734782
186.50143 -16.756508 34.500557 9734782
186.44374 -16.686028 35.340939 9471608
186.35078 -16.692566 36.252937 9537407
186.26001 -16.654842 37.306145 9537409
186.22273 -16.479673 38.32502 10261132
167.99347 -15.639127 -101.22358 10853780
168.2751 -15.961909 -100.75228 9209727
186.68959 -15.999218 35.388302 9734782
186.67903 -15.776088 36.31778 9471355
186.58588 -15.782651 37.232231 9997699
186.46199 -15.836566 38.281418 10589324
186.45781 -15.568877 39.310577 9997186
167.84029 -14.698117 -102.23148 6379600
168.19568 -15.060749 -101.61987 8024939
186.9046 -15.088824 36.595772 9010806
186.88245 -14.94065 37.37027 9602941
186.82462 -14.86988 38.21645 10063495
186.7003 -14.923807 39.268551 8287600
186.66037 -14.770768 40.293289 7038307
186.6263 -14.66433 41.227028 7038307
167.34717 -14.255175 -104.1428 8353647
167.91217 -14.270155 -103.65791 7761509
187.15303 -14.187592 38.519524 9011320
187.09628 -14.193463 39.212265 8616564
187.0204 -14.201576 40.136917 7630185
186.92514 -14.212111 41.294388 7959407
187.10081 -14.082884 42.437416 9406594
187.60855 -13.810534 43.109718 9276034
187.6429 -13.711572 44.30854 11051928
187.68279 -13.609584 45.273224 9867398
187.65509 -13.576288 46.31982 8418927
187.61423 -13.55787 47.333473 7169373
187.65477 -13.417745 48.386642 10064777
187.60721 -13.426341 49.097569 8288365
188.02629 -12.914521 45.357483 9735812
187.97945 -12.922121 46.06514 7037786
188.02663 -12.749587 47.18222 7300703
187.97923 -12.667903 48.326622 9341054
187.85545 -12.72515 49.405136 8288365
187.86337 -12.500135 50.375908 8682867
188.52933 -12.037655 49.100273 9143675
188.39384 -12.043566 50.034534 8222058
188.26105 -12.053664 51.214165 10327176
188.46667 -11.838766 52.247017 10195850
188.64699 -11.618469 53.032921 8879995
188.4528 -11.625636 54.204086 8287859
189.20172 -11.182469 54.423054 9537667
189.08153 -11.18659 55.128448 8353135
189.12888 -11.042073 56.215363 8089963
189.07442 -10.888461 57.026051 8616822
189.40924 -10.431358 58.125668 8485751
189.22789 -10.274339 59.151428 7564135
189.79121 -9.814826 59.581402 7170146
189.51704 -9.8116331 60.247231 5394762
189.24295 -9.8086405 60.912643 5394762
169.66771 -26.589489 -94.345566 10261124
170.07854 -26.600134 -93.774681 10261124
170.15147 -26.54171 -92.7556 8879479
170.03999 -26.456072 -91.642342 8813680
169.55217 -25.668888 -95.348602 9011318
170.14226 -25.987219 -94.714973 9997953
171.92404 -25.699003 -83.557823 8616819
171.81023 -25.637756 -82.741989 10261383
171.65633 -25.556639 -81.658577 9340539
171.49963 -25.476028 -80.580147 10656142
169.72891 -24.922703 -95.55497 9405562
170.11505 -25.230732 -95.128357 10261124
173.14209 -24.784492 -72.900475 7564642
172.96475 -24.71003 -71.853523 7564642
172.78488 -24.636076 -70.811333 8617331
169.38965 -23.766514 -96.330826 10654857
169.91331 -24.03371 -95.820358 10063232
174.36954 -24.059072 -64.479668 9341571
174.21054 -24.005817 -63.711369 9933707
173.99672 -23.935219 -62.690929 10064007
173.83492 -23.882572 -61.928612 7563619
175.3085 -23.386234 -56.825359 7366751
169.67036 -22.953127 -96.490242 10457734
169.95287 -23.324759 -96.111946 11378324
175.08522 -23.329945 -56.059837 7827302
174.8611 -23.273958 -55.297031 10064009
176.24887 -22.810863 -50.66201 7039331
176.00574 -22.756607 -49.909378 11380121
175.68044 -22.684685 -48.91029 9209726
169.22476 -21.862343 -97.315491 11378324
169.75731 -21.985029 -96.863876 9340542
176.91881 -22.226919 -44.260384 11511705
176.56895 -22.157434 -43.276279 9340545
177.69215 -21.716854 -39.057461 8616566
177.34752 -21.652884 -38.092915 8617081
169.50475 -20.848225 -97.566696 10327949
178.33768 -21.197788 -33.186947 9866629
177.97009 -21.136171 -32.237595 10129545
179.07851 -20.730019 -28.236799 10723217
178.69266 -20.674532 -27.51911 9736836
183.09459 -20.474373 7.6516418 6511954
183.24107 -20.494394 8.5410061 9932166
169.13884 -19.722195 -98.349922 9867142
169.74541 -19.750332 -97.886292 9537921
182.88968 -19.532333 5.6610737 11709349
183.0937 -19.708792 6.6227818 8485746
183.28613 -19.808126 7.4394493 7696228
183.4588 -19.876427 8.4632473 8617074
183.59206 -19.803928 9.5313988 10194821
183.67264 -19.863716 10.554354 9011575
183.75667 -19.87788 11.44606 8748407
183.84068 -19.892494 12.339165 8880508
183.97585 -19.798744 13.348852 9933194
184.13214 -19.709402 14.584942 10064774
184.27774 -19.578682 15.563389 9209469
184.38213 -19.519686 16.39142 11051156
184.48653 -19.460888 17.221106 10458763
184.65353 -19.335398 18.432451 9735040
184.75885 -19.357399 19.565817 8682867
184.84314 -19.375626 20.474621 11182998
184.90639 -19.38954 21.157269 11182998
169.46019 -18.785376 -98.536537 9406335
182.0392 -18.530294 -0.27606755 9011579
182.22916 -18.548817 0.60020083 9669251
182.4649 -18.572393 1.6978819 9274750
182.6532 -18.591747 2.5782435 8090987
182.84164 -18.611496 3.4605925 8814454
182.86868 -18.889046 4.472496 8814458
183.18246 -18.831917 5.5387707 10722711
183.3997 -18.902332 6.5611 8946296
183.62234 -18.92774 7.4539356 6906712
183.89577 -18.729288 8.3516064 9275004
183.95151 -18.796879 9.4068375 8946552
184.09271 -18.693275 10.48435 8880503
184.16306 -18.771208 11.472395 9932423
184.24762 -18.784948 12.367496 8617337
184.31787 -18.864145 13.358429 9867400
184.46347 -18.762917 14.444693 10393482
184.57193 -18.74674 15.469822 13090993
184.70984 -18.629618 16.421408 10063750
184.79446 -18.645575 17.325367 11576728
184.8791 -18.661999 18.23097 9866882
184.98483 -18.683147 19.365555 9932932
185.09064 -18.70496 20.502666 9932932
185.17535 -18.722929 21.41452 11380380
185.25999 -18.741373 22.328243 7696235
185.34474 -18.760241 23.243872 8616823
185.42555 -18.82745 24.297115 6116429
185.57707 -18.691851 25.317249 6708822
185.7244 -18.604519 26.476557 7563619
185.80829 -18.625076 27.401709 8418927
185.89235 -18.646133 28.329008 7563619
185.95541 -18.662188 29.025957 9208443
168.97171 -17.812332 -99.34153 10196362
169.57916 -17.837423 -98.878647 9801605
181.0479 -18.008484 -9.2003212 9734015
181.22452 -18.021067 -8.3362217 11904668
181.40103 -18.034044 -7.4707451 8287856
181.62148 -18.050785 -6.3868351 8287856
182.07906 -17.864315 -5.3068142 12168866
182.16147 -17.94528 -4.5063305 8089963
182.19362 -18.097181 -3.5582063 9341051
182.34189 -18.109264 -2.4652841 9340286
182.41028 -18.114172 -1.3705308 7564643
182.46428 -18.118553 -0.49412137 7038307
182.53096 -18.124529 0.38291758 9998215
182.74869 -18.145653 1.4820578 9143165
182.98763 -18.16942 2.5842192 8814454
183.3506 -17.977224 3.4721434 8419952
183.36655 -18.208515 4.3542118 9341307
183.60333 -18.23381 5.4647655 10920087
183.84041 -18.259769 6.5784454 8946039
184.03018 -18.28101 7.4719238 6511954
184.48103 -17.879324 10.825462 8091760
184.49986 -17.884647 11.494253 9274494
184.57449 -17.896744 12.390263 8814457
184.72267 -17.762985 13.367605 8419953
184.82645 -17.7012 14.194574 7564643
184.93245 -17.718931 15.321898 9604224
185.03847 -17.737249 16.4515 9866115
185.12349 -17.752426 17.357065 10721678
185.20859 -17.768051 18.264349 9998214
185.2937 -17.784023 19.173342 12235687
185.40007 -17.804653 20.312202 13222580
185.50655 -17.825924 21.453714 9275264
185.59175 -17.843439 22.369127 6906719
185.67699 -17.861357 23.286457 9077628
185.76221 -17.879719 24.205811 6972766
185.84364 -17.946581 25.263235 6313808
185.97951 -17.879475 26.376699 8616305
186.11526 -17.812624 27.493658 11181972
186.22945 -17.741142 28.381374 9143417
186.31407 -17.761543 29.312689 8815222
186.39877 -17.78241 30.246286 11249819
186.44341 -17.800001 31.175278 10459278
186.46774 -17.464924 32.218002 9735555
169.29266 -16.871933 -99.530045 8025453
185.37207 -17.081163 17.38098 10063750
185.45697 -17.096087 18.289499 9669508
185.5419 -17.11141 19.199724 13024949
185.62726 -17.12723 20.111662 14933196
185.8094 -16.969124 21.3538 8419700
185.92436 -16.943132 22.410131 9275264
186.01007 -16.960096 23.329142 8946041
186.09587 -16.977505 24.250193 8419955
186.2363 -16.860441 25.226437 7367782
186.35144 -16.787014 26.110401 8419443
186.44678 -16.807432 27.137678 8221548
186.65488 -16.558441 28.309608 7564387
186.73721 -16.625843 29.38048 7959657
186.82274 -16.645336 30.316311 9209980
186.85802 -16.660887 31.245773 8287598
186.76675 -16.665855 32.15477 9867141
186.67757 -16.626301 33.203777 9208953
186.64149 -16.449717 34.217285 10853012
169.03596 -15.831962 -100.29124 7038307
169.33067 -16.15732 -99.826408 7038307
186.99084 -15.942408 29.42111 7564643
187.07765 -15.961199 30.358431 8222317
187.15245 -15.823162 31.373055 8682356
187.09567 -15.751057 32.212311 9933190
187.00348 -15.756023 33.123417 9932421
186.88786 -15.762688 34.26326 10063749
186.85432 -15.540629 35.420006 10063749
169.04019 -14.736201 -101.30082 8024944
169.11368 -15.208383 -100.79458 9011838
187.32152 -15.064674 32.483856 10855060
187.33565 -14.838547 33.18322 9932678
187.24319 -14.843511 34.096596 10064007
187.1273 -14.850163 35.239437 10392714
187.04668 -14.780168 36.312565 9010806
187.02461 -14.631825 37.08712 9931905
168.28944 -14.280174 -103.33392 6840151
169.04515 -14.300643 -102.68379 6182222
187.50832 -14.154709 34.145748 9932678
187.43399 -14.161024 35.06469 10392713
187.34076 -14.169415 36.21479 8353134
187.57507 -13.961638 37.198269 9208184
187.68343 -13.863412 38.160606 8353646
187.94829 -13.619746 39.315994 10261132
188.01863 -13.509735 40.213676 9142651
187.91203 -13.565222 41.279839 9538180
187.92972 -13.499369 42.154198 8814971
187.99931 -13.360072 43.201233 8092019
187.95268 -13.367323 43.905479 10460049
188.36952 -12.877074 41.144615 11181972
188.24155 -12.884671 42.30452 8288628
188.36133 -12.744787 43.206108 8092019
188.40063 -12.631933 44.107506 9012863
188.30173 -12.607973 45.105537 8880759
188.3197 -12.464162 46.149975 6511954
189.03529 -12.024337 46.087574 7564642
188.84143 -12.029083 47.24543 9274747
188.94868 -11.886846 48.15992 8353903
189.31816 -11.598166 49.066254 9012092
