# .PCD v0.7 - Point Cloud Data file format
VERSION 0.7
FIELDS x y z rgb
SIZE 4 4 4 4
TYPE F F F U
COUNT 1 1 1 1
WIDTH 1171
HEIGHT 1
VIEWPOINT 0 0 0 1 0 0 0
POINTS 1171
DATA ascii
-22.100773 -50.163212 -134.85522 8747377
-21.280506 -49.902985 -134.90527 9208186
-21.990932 -49.247631 -135.18427 8088931
-21.167046 -49.022327 -135.22131 8550255
-20.353638 -48.631756 -135.31943 9010806
-21.307747 -48.301311 -135.57364 9866113
-20.383892 -47.983368 -135.74619 9405562
-19.617939 -47.669262 -135.92844 9010806
-20.323181 -47.416817 -136.18642 9208183
-19.519634 -47.252346 -136.38338 7826789
-18.806019 -46.820641 -137.05228 9274234
-18.154613 -46.56406 -137.34782 8155756
-16.659401 -46.584461 -138.7554 8813686
-17.648014 -46.529041 -137.3129 7563619
-16.131561 -46.501156 -138.57008 8813686
-15.431592 -46.492729 -139.78799 9011065
-14.737992 -46.417419 -139.6391 9734788
-13.651711 -46.303734 -140.58144 8090220
-12.376737 -46.169529 -141.48091 8683125
-11.261289 -46.052704 -142.41893 9208443
-10.736112 -45.99559 -142.28618 9208443
-9.7801294 -45.896107 -143.26274 9208443
-8.9874544 -45.814354 -144.29092 9736836
-8.2822466 -45.737656 -144.09615 9736836
-7.2979822 -45.63512 -145.0722 9472641
-6.4777117 -45.550396 -146.10486 11378583
-5.7679415 -45.473137 -145.8916 11904670
-4.7546434 -45.367443 -146.86749 12498862
-3.3706713 -45.221397 -147.73041 11182488
-2.3288317 -45.112637 -148.70784 9143161
-1.6133089 -45.03466 -148.46597 10129798
-0.9136858 -44.963181 -149.56319 10919828
0.33776379 -44.831566 -150.47736 9933193
0.87742901 -44.772724 -150.28192 9933193
-116.87522 -77.769646 -68.618538 7038307
-116.39906 -78.074318 -69.143318 7498342
-115.81721 -78.059769 -69.888268 8879994
-115.2345 -78.047585 -70.630692 10130057
-114.68614 -78.198753 -71.233368 9735299
-117.25794 -76.985474 -68.509575 7301478
-116.7309 -76.982605 -69.366676 7235686
-116.13274 -77.066017 -70.076462 8813945
-115.65356 -77.286781 -70.550766 8287859
-118.65099 -75.637878 -67.368629 11708063
-118.13696 -75.826584 -68.048576 11050134
-117.55963 -76.039818 -68.825829 7235686
-116.88786 -76.194931 -69.667778 8287859
-121.04127 -74.577766 -65.664619 8089963
-120.54417 -74.611824 -66.376213 9143163
-119.812 -74.774467 -66.989708 9537921
-119.08482 -75.032135 -67.61142 8945528
-118.50264 -75.215164 -68.342812 7038307
-118.0751 -75.348251 -68.933296 7038307
-128.45537 -73.933907 -60.572762 8485489
-128.09959 -73.99865 -61.287983 8287854
-127.43317 -74.168549 -61.791786 8748149
-126.68073 -74.272873 -62.501369 10851980
-125.54575 -74.272011 -62.891205 9471355
-124.7188 -74.272141 -63.612122 8550772
-123.96389 -74.27211 -64.174301 8090736
-123.21054 -74.272026 -64.73159 9669253
-122.2271 -74.329216 -65.237762 10984593
-121.72345 -74.358566 -65.952843 8353134
-121.10373 -74.41748 -66.641457 9603202
-44.656216 -74.262276 -120.55582 9734788
-44.079151 -74.261978 -120.77197 8090731
-43.066856 -74.261261 -121.14379 8617075
-42.081718 -74.244812 -121.77844 9472127
-41.399647 -73.961876 -122.13449 9603457
-40.686504 -73.578835 -122.27687 9405822
-129.25069 -72.686844 -59.933411 9867401
-128.81905 -72.977791 -60.61628 7630183
-128.37262 -73.170029 -61.417183 8550513
-41.389278 -73.06218 -122.53732 9735043
-40.634701 -72.938637 -122.5071 9800836
-129.90959 -71.568245 -59.478008 7564651
-129.52687 -71.940086 -59.984375 9341057
-129.03654 -72.153671 -60.862034 7498338
-41.194935 -72.279694 -122.80563 10129801
-40.580471 -72.082184 -122.81666 10327436
-39.896099 -71.853142 -122.83233 9471871
-130.16731 -71.009567 -59.405415 6775128
-129.74268 -71.147392 -60.206493 8354159
-129.38977 -71.287216 -60.850208 7695973
-40.564529 -71.16111 -123.15382 9076857
-39.768322 -70.960022 -123.14796 9340541
-130.92891 -69.693253 -58.800529 12432037
-130.53226 -70.041702 -59.456467 8682866
-130.0985 -70.200592 -60.258999 9341053
-40.421253 -70.388718 -123.42352 8090987
-39.788048 -70.038971 -123.48871 8617075
-39.017685 -69.896637 -123.46383 9011576
-131.14366 -68.95356 -59.004322 10459019
-130.79878 -69.015434 -59.771935 10459276
-39.63868 -69.204102 -123.78078 9406846
-38.867573 -68.987488 -123.78316 13222580
-131.73325 -67.908218 -58.271835 8682868
-131.47206 -68.097023 -58.987717 9471872
-131.16676 -68.220016 -59.666142 10459276
-39.640137 -68.513702 -124.03485 8090987
-38.97266 -68.092484 -124.12289 12367273
-38.275562 -67.92601 -124.11425 11051418
-132.08434 -66.955223 -58.299042 8288110
-131.74358 -67.313545 -59.086372 8748405
-38.883793 -67.088493 -124.48324 8617335
-38.059006 -67.065178 -124.40913 8222579
-132.57817 -66.007523 -57.754314 9340802
-132.39175 -66.028084 -58.496605 8879991
-38.134674 -66.188095 -124.7393 8814715
-37.360489 -65.943375 -124.75173 9012093
-141.93658 -64.822838 -51.922047 8090216
-141.08269 -64.794075 -52.065559 7038046
-140.29298 -64.713623 -52.675976 10064780
-139.77065 -64.619301 -53.444859 9012606
-138.66617 -64.60659 -53.413292 8289140
-133.52702 -64.879402 -57.272778 9932940
-133.12186 -65.160187 -57.86084 10985627
-132.85222 -65.250282 -58.506359 7038307
-38.10144 -65.384956 -125.03138 8880250
-37.288548 -65.022377 -125.08326 8945528
-36.731945 -64.590919 -125.18618 8419440
-139.45564 -64.562851 -53.904335 9012606
-138.35326 -64.550636 -53.869129 7038307
-138.14394 -64.513367 -54.172138 7038307
-135.69881 -63.74229 -55.504227 7564651
-135.35269 -63.864609 -56.050251 9867145
-134.73677 -64.095558 -56.73148 12169895
-133.99283 -64.448662 -57.164612 9801610
-37.370983 -64.063583 -125.44412 10260874
-36.555958 -64.029022 -125.37515 8748664
-37.216618 -63.310516 -125.70567 10261132
-36.498718 -63.094898 -125.71299 8880507
-35.763813 -62.743267 -125.76865 8091248
-36.459824 -62.242657 -126.02255 9143422
-35.718086 -62.018749 -126.03054 7828590
-36.409317 -61.491146 -126.29383 10261132
-35.712326 -61.082027 -126.37448 9735815
-34.972572 -60.770962 -126.41748 8355191
-35.675297 -60.301224 -126.77501 10788244
-34.835396 -60.030983 -126.8946 9275778
-34.021503 -59.687389 -127.10444 8223347
-34.175556 -59.462772 -127.66503 9866627
-33.294704 -59.32914 -128.04732 9011832
-32.445789 -59.259697 -128.56145 11182998
-31.546482 -59.259502 -129.15442 8813939
-30.806252 -59.259789 -129.88223 9931648
-29.873558 -59.258907 -130.10542 10063494
-29.285744 -59.259602 -130.97475 9537665
-28.247364 -59.127708 -131.63763 9866374
-27.503624 -58.892776 -131.92639 8024938
-26.681374 -58.595955 -132.02177 9340030
-27.502094 -58.071442 -132.25885 7959145
-26.73933 -57.853172 -132.29669 9340286
-27.464584 -57.140747 -132.59735 9800581
-26.682724 -57.019543 -132.59862 9340286
-25.817253 -56.81493 -132.62579 9011321
-26.588112 -56.207592 -132.89044 8090219
-25.875202 -56.04509 -132.91066 9208700
-26.597279 -55.359764 -133.20119 7563619
-25.87484 -55.15881 -133.23492 10722195
-25.184147 -54.838051 -133.31427 9471872
-25.814224 -54.170921 -133.59305 9275005
-25.019444 -54.034481 -133.59924 8748405
-24.377766 -53.64225 -133.7074 8485747
-25.735569 -53.419098 -133.86383 8617075
-25.092274 -53.026283 -133.97218 8682612
-24.296513 -52.892719 -133.97725 9340030
-24.973537 -52.340336 -134.21669 8418928
-24.285782 -51.916111 -134.33405 9340030
-23.494976 -51.883987 -134.30226 8418928
-24.225433 -51.02607 -134.65646 8418928
-23.496132 -51.041553 -134.61063 8484463
-24.278622 -50.258984 -134.94006 7563619
-23.397621 -50.161194 -134.9274 8615792
-22.62701 -49.797844 -135.01797 8615534
-23.389328 -49.292828 -135.24474 9142393
-22.563828 -49.04575 -135.28969 8154982
-22.558094 -48.301773 -135.71454 8945271
-21.749252 -47.89661 -135.97403 11181973
-21.674446 -47.523354 -136.28067 10853012
-21.042011 -47.290852 -136.6586 10129286
-20.164387 -46.930138 -137.17555 9273975
-19.508217 -46.6595 -137.4382 10261132
-17.712841 -46.73312 -139.06589 8616307
-16.649715 -46.624905 -140.04166 9537409
-16.301136 -46.587128 -139.97008 9537409
-15.952966 -46.549248 -139.89786 8813686
-15.22162 -46.474224 -140.93121 9011065
-14.522641 -46.398289 -140.77762 9340030
-13.601392 -46.302597 -141.76985 7629927
-12.666944 -46.205482 -142.76573 7367271
-11.963094 -46.128975 -142.59375 8814711
-11.012948 -46.030159 -143.58403 9208443
-10.226674 -45.949146 -144.62529 9208443
-9.6948786 -45.891357 -144.48297 11708833
-8.5389948 -45.7701 -145.4256 10460816
-7.1898851 -45.627918 -146.31494 10787472
-6.5410585 -45.561981 -147.4158 8089963
-6.0036669 -45.503448 -147.25308 8879222
-5.4673891 -45.445114 -147.08897 13022893
-4.6233644 -45.357883 -148.1326 9800836
-3.7666445 -45.269295 -149.18411 9208443
-3.2263231 -45.210438 -149.00671 8945527
-1.9938402 -45.080952 -149.93594 8682867
-1.2897615 -45.009079 -151.05525 9209467
-0.56500721 -44.930061 -150.79987 8683639
0.33572674 -44.836788 -151.85675 11380380
0.8804884 -44.777336 -151.65765 9933193
-115.142 -77.613754 -71.003426 9735299
-114.55144 -77.872246 -71.595963 9340541
-113.83116 -78.085732 -72.378822 9340288
-113.18951 -78.005539 -73.235695 8287853
-112.70903 -78.030495 -73.827171 6511954
-115.92634 -76.748436 -70.524216 8287859
-115.3149 -77.065346 -71.108711 8945784
-114.65229 -77.144875 -71.897873 9143164
-114.06793 -77.140755 -72.637527 8551542
-113.4376 -77.36982 -73.297722 9603458
-117.55557 -75.667236 -69.392906 7038307
-117.05543 -75.756958 -69.937782 9274496
-116.34261 -75.962669 -70.621216 8616822
-115.63228 -76.171936 -71.302086 8814200
-115.02112 -76.217194 -72.023354 9997960
-114.39506 -76.419144 -72.650528 8880507
-119.93944 -74.584839 -67.708992 9340286
-119.46886 -74.629135 -68.300484 7827817
-118.84784 -74.726593 -68.995827 7367015
-118.04966 -75.018265 -69.553307 7498857
-117.33063 -75.184555 -70.296677 9405823
-116.53412 -75.36396 -71.080589 8946039
-116.00824 -75.536987 -71.530678 8485232
-127.55435 -73.913391 -62.544876 10195082
-127.03029 -74.071686 -63.336311 10589065
-126.24551 -74.258781 -63.805576 8551024
-125.43391 -74.274658 -64.540962 8090734
-124.55914 -74.274002 -64.856819 8090736
-123.89712 -74.274292 -65.529327 8813944
-122.95699 -74.274017 -66.114792 9142649
-122.02021 -74.273781 -66.692986 8353135
-121.22989 -74.310226 -67.279594 9208700
-120.58168 -74.392677 -67.83683 9537665
-119.99005 -74.427299 -68.689552 7564643
-48.380463 -74.264809 -119.08167 7761509
-47.81039 -74.26445 -119.31579 10261643
-46.95343 -74.263901 -119.66223 9735299
-45.950413 -74.263245 -120.05829 10524816
-45.332256 -74.263626 -120.76991 9208444
-44.48019 -74.22612 -121.4938 9471615
-43.67334 -73.976006 -122.02797 9932166
-42.698418 -73.912277 -122.28915 9735043
-128.2495 -72.81665 -61.991909 9537408
-127.84709 -73.108452 -62.610722 10458254
-127.45872 -73.154007 -63.413456 9931650
-43.669315 -73.339874 -122.34615 8946040
-42.899372 -72.983421 -122.65749 8353903
-42.027676 -73.058388 -122.60268 10656401
-128.61584 -71.907143 -61.989159 7563618
-128.1815 -72.07473 -62.785381 10195082
-42.652847 -72.216873 -122.97095 8353905
-41.904125 -72.069832 -122.95387 9669250
-41.284298 -71.598541 -123.06509 8681843
-129.2327 -71.070824 -61.379303 6182222
-128.8465 -71.074661 -62.213673 7169117
-41.992958 -71.082008 -123.32607 7300703
-41.231766 -70.960693 -123.2944 7958377
-129.90869 -70.001831 -60.843803 9801603
-129.53624 -70.077751 -61.58556 7103580
-129.11586 -70.329102 -62.278545 8880759
-41.819054 -70.132645 -123.6578 6445394
-41.144501 -70.062317 -123.61608 6905945
-40.486298 -69.880379 -123.61706 8090987
-130.69185 -68.775215 -60.21299 10459276
-130.32338 -68.92337 -60.883251 12498600
-129.85983 -69.184715 -61.66114 10591889
-41.094948 -69.127037 -123.95512 6971994
-40.308983 -68.938232 -123.94576 8090987
-130.98848 -68.006256 -60.239094 9406845
-130.51886 -68.069 -61.203129 10722448
-41.01545 -68.419006 -124.2075 8090987
-40.390823 -67.959343 -124.314 8090987
-39.599651 -67.93174 -124.2448 8090987
-131.6714 -66.982483 -59.638493 8945784
-131.24586 -67.104912 -60.46553 8419952
-130.89317 -67.289513 -61.069859 8682867
-40.330566 -67.085991 -124.62915 8090986
-39.522545 -67.071846 -124.55337 8090987
-132.32651 -65.727516 -59.166725 8682868
-131.9756 -65.993874 -59.838814 9800838
-131.58148 -66.240135 -60.490715 10985366
-40.227062 -66.550888 -124.81562 9735550
-39.529968 -66.119713 -124.9043 9209210
-38.787968 -65.786118 -124.95264 8945785
-142.75865 -64.779755 -52.411663 9735046
-141.87532 -64.715096 -52.869717 8090736
-140.9933 -64.651268 -53.321178 11906725
-140.57089 -64.575371 -53.939034 11906725
-133.26868 -64.712418 -58.559574 7762030
-132.85419 -64.957405 -59.271576 7893611
-132.39175 -65.180878 -59.960911 7564651
-39.463943 -65.131035 -125.26132 9274233
-38.681511 -64.951088 -125.24909 9142392
-140.25255 -64.51873 -54.40036 10459537
-139.1394 -64.506645 -54.362114 9604230
-138.6097 -64.413246 -55.12178 10787478
-137.97003 -64.301659 -56.028267 10393486
-136.83701 -63.932671 -56.53738 7630443
-136.01192 -63.67561 -56.970131 9735558
-135.02391 -63.773014 -57.328651 12433066
-134.42897 -63.962109 -58.036339 7038307
-133.74783 -64.214127 -58.703224 7235686
-133.30893 -64.3162 -59.4716 8419958
-38.647015 -64.138977 -125.54432 9405307
-37.989731 -63.94558 -125.54958 11049616
-135.28865 -63.498417 -57.631317 8814714
-38.589821 -63.192066 -125.88686 8747891
-37.803959 -63.034328 -125.86609 9405822
-37.938019 -62.116066 -126.21726 7565160
-37.132591 -61.941113 -126.20089 7894126
-37.80175 -61.198238 -126.54115 9931905
-37.016838 -61.031437 -126.52451 8682357
-37.009975 -60.279469 -126.92776 9010806
-36.341305 -60.00808 -127.07635 10524042
-35.594833 -59.718887 -127.25567 11116436
-35.251392 -59.472519 -127.74786 10063751
-34.483047 -59.307648 -128.30667 9866885
-33.902992 -59.262535 -129.08971 9209468
-32.975975 -59.261692 -129.33527 8748917
-32.156269 -59.261753 -130.00681 9471612
-31.329624 -59.261772 -130.67274 10589839
-30.391235 -59.260952 -130.89975 9471613
-29.797775 -59.051998 -132.00407 8287853
-28.926739 -58.958878 -132.01259 9274492
-28.895233 -58.1357 -132.31204 8419439
-28.07584 -57.882107 -132.3597 7564643
-28.941162 -57.184238 -132.66266 7959144
-28.080963 -56.996651 -132.68396 9471872
-28.110062 -56.087425 -133.01823 9537665
-27.28957 -55.820301 -133.07077 9011577
-28.068298 -55.213547 -133.33566 9208955
-27.264847 -54.949657 -133.388 8945783
-27.27359 -54.087852 -133.70383 8880247
-26.452808 -54.111141 -133.65012 8287854
-27.088425 -53.368084 -133.95708 8617075
-26.500187 -53.112911 -134.01805 7827303
-25.773064 -52.914661 -134.05052 9735812
-26.407448 -52.170696 -134.35777 7234909
-25.545082 -52.00742 -134.37001 7300446
-25.694065 -51.078129 -134.71831 8221291
-24.824352 -50.892612 -134.73831 7563619
-25.629368 -50.281128 -135.00642 9273464
-24.810932 -49.895432 -135.10251 7300962
-23.989265 -49.562305 -135.17917 9010550
-24.846066 -49.102631 -135.41174 8287086
-24.049305 -48.809929 -135.50278 8813171
-23.958996 -48.233841 -135.92207 8550256
-23.201981 -47.899857 -136.14795 7760997
-22.524055 -47.596039 -136.35013 7563619
-22.395733 -47.268124 -137.00928 9274234
-21.473789 -47.021145 -137.45593 10326666
-20.915619 -46.863663 -137.83487 10129286
-19.106785 -46.887211 -139.33713 8616307
-18.049034 -46.776714 -140.3205 9537409
-17.348614 -46.70076 -140.18231 10261132
-16.625183 -46.626568 -141.22974 9537409
-16.097958 -46.569286 -141.11923 8813686
-15.747041 -46.531204 -141.04465 8287342
-15.008195 -46.455383 -142.08957 9011065
-14.080659 -46.359001 -143.10115 8748406
-13.372838 -46.282146 -142.93481 7762027
-12.606942 -46.203403 -143.98494 9011579
-11.773988 -46.115158 -144.40279 9341312
-10.937917 -46.026505 -144.81219 9208443
-10.144441 -45.944771 -145.86737 13551549
-9.4294748 -45.867062 -145.67288 16777207
-8.4416933 -45.76416 -146.67625 10065287
-7.6199694 -45.679436 -147.73651 9734782
-7.0799608 -45.620609 -147.57686 9734782
-5.8828402 -45.495014 -148.52698 9340023
-4.4894075 -45.348076 -149.41785 6511954
-3.4427004 -45.238884 -150.42372 8288365
-2.7168245 -45.15979 -150.18143 8090987
-2.0173616 -45.088459 -151.30757 9143417
-0.94070148 -44.976032 -152.31578 10656657
-0.39268208 -44.916237 -152.12003 10985622
0.51696301 -44.822083 -153.19217 11315100
-112.48277 -77.889046 -74.196114 7563874
-112.00189 -77.917458 -74.786026 8089963
-111.35883 -77.848938 -75.63784 10853266
-110.78503 -77.93412 -76.311546 8879473
-113.50123 -76.869957 -73.512299 8945784
-112.8492 -77.007507 -74.253838 8090474
-112.1455 -77.029655 -75.128654 7892841
-111.46043 -77.175201 -75.907127 8024170
-115.02553 -75.784157 -72.466011 9012093
-114.3455 -75.980576 -73.101669 8420212
-113.69176 -76.055595 -73.866791 8287853
-113.05301 -76.072365 -74.6418 9274492
-112.40636 -76.269341 -75.248077 7367011
-118.81599 -74.599678 -69.741882 7038307
-118.4771 -74.596931 -70.312714 9537664
-117.81178 -74.675072 -70.767563 8682355
-116.86812 -74.868507 -71.425987 8090474
-116.1089 -75.075851 -72.0541 8287854
-115.40962 -75.13504 -72.782097 9406594
-114.74014 -75.280533 -73.447441 7960176
-114.14975 -75.401306 -74.043503 8287853
-126.63905 -73.993927 -64.460136 9734270
-126.22011 -74.046944 -65.322655 9077369
-125.08067 -74.276138 -65.697388 8616307
-124.23364 -74.276207 -66.405891 9142651
-123.4621 -74.276115 -66.956032 8089963
-122.69238 -74.275993 -67.501335 9010808
-121.92026 -74.275887 -68.039574 10655633
-121.14981 -74.275787 -68.573036 9340286
-120.18544 -74.306717 -69.221268 9735044
-119.53896 -74.395531 -69.774673 9997961
-118.92369 -74.435684 -70.573586 9866630
-117.74754 -74.563293 -71.422981 7037274
-117.56334 -74.554909 -71.699303 7761253
-53.177692 -74.267586 -116.97964 8617333
-52.617756 -74.267281 -117.23692 7893355
-51.634914 -74.266708 -117.68076 7563874
-50.64859 -74.266167 -118.1167 7169116
-49.858852 -74.266228 -118.77811 6971994
-49.091232 -74.265907 -119.18298 6511187
-48.374821 -74.266129 -119.87826 9077369
-47.392033 -74.259315 -120.425 8748148
-46.67857 -74.111633 -121.06759 8024425
-45.791279 -73.940788 -121.54587 7169629
-44.866356 -73.884506 -121.81551 7630180
-127.30003 -72.935944 -63.947525 10589323
-126.85706 -73.131966 -64.737663 9405564
-126.40256 -73.485092 -65.416008 9932678
-46.674702 -73.486282 -121.48396 6510930
-45.924263 -73.128143 -121.82301 5920074
-44.916454 -73.046539 -122.12467 6972506
-44.070171 -72.907982 -122.40493 8156524
-43.457714 -72.632256 -122.67533 7564643
-127.99054 -71.880928 -63.368397 9866372
-127.61723 -71.96463 -64.105156 10787986
-127.25919 -72.068138 -64.791626 10130057
-45.912472 -72.395531 -122.10822 5920338
-45.077034 -72.083443 -122.45233 6051667
-44.149006 -71.964035 -122.74717 6577496
-43.287918 -71.884651 -123.0086 7235683
-128.71053 -70.829216 -62.722271 9537408
-128.35866 -71.021156 -63.318348 9471608
-127.9388 -71.06842 -64.187927 10064002
-44.30685 -71.003342 -123.07465 6248273
-43.354435 -71.060753 -123.30793 6182223
-42.636944 -71.076813 -123.39254 7234910
-129.0699 -69.924019 -62.730934 8617330
-128.56651 -70.166008 -63.612099 9142643
-43.420467 -70.238335 -123.6068 6313810
-42.511845 -70.091606 -123.74236 6511187
-41.886471 -69.62326 -123.85192 6445394
-129.75111 -68.839638 -62.197414 8682867
-129.32158 -68.96859 -63.016865 8682867
-128.96858 -69.159706 -63.616074 7564642
-43.247845 -69.494698 -123.93938 5919050
-42.601002 -69.106491 -124.1136 6313808
-41.833149 -68.987404 -124.08045 6445394
-130.41774 -67.846695 -61.616043 11183254
-130.06477 -68.034416 -62.218098 8748915
-129.69971 -68.038689 -63.00634 7564642
-42.425152 -68.160156 -124.44401 6248786
-41.676197 -68.09066 -124.39454 6511700
-41.102634 -67.742958 -124.46494 8090987
-131.07719 -66.733307 -61.154854 8682867
-130.69633 -67.058449 -61.698277 11775391
-130.26701 -67.200371 -62.506416 9077624
-41.694439 -67.158974 -124.73899 6512469
-40.95631 -66.976349 -124.73219 8090984
-131.4449 -65.939697 -61.04974 8156783
-131.03067 -65.993378 -61.902588 9472638
-130.61557 -66.365608 -62.478794 16249822
-41.635868 -66.284286 -125.05485 6511954
-40.912472 -66.017815 -125.08036 7301469
-40.311825 -65.877831 -125.07169 8090984
-143.80159 -64.774956 -52.591084 7301221
-143.26917 -64.678284 -53.379044 7564392
-142.01852 -64.645508 -53.506374 8879995
-141.69939 -64.588219 -53.973106 9012606
-132.81689 -64.646774 -60.022491 8814715
-132.34279 -64.863884 -60.57938 8419958
-131.85759 -64.981392 -61.32177 8288373
-131.35094 -65.253593 -61.85918 8682867
-40.901997 -65.017998 -125.44701 8090984
-40.108002 -65.112762 -125.33259 9209207
-141.37889 -64.531075 -54.438213 8289140
-140.84224 -64.436226 -55.210064 9735302
-139.71944 -64.424606 -55.1661 9144191
-139.07564 -64.312195 -56.079777 8683128
-138.53581 -64.218956 -56.83675 10196107
-134.41676 -63.780636 -58.799438 7038307
-134.05463 -63.85046 -59.413033 8419958
-133.4333 -64.047447 -60.103851 9604228
-132.79398 -64.236977 -60.782936 9406851
-40.115303 -64.162575 -125.68277 9800831
-39.366989 -63.831688 -125.72948 8879221
-134.9128 -63.517227 -58.626945 7169893
-134.50629 -63.525074 -59.609985 9341057
-40.101208 -63.167625 -126.04731 9076854
-39.301281 -62.9674 -126.04076 8089706
-39.297623 -62.057766 -126.37495 7695205
-38.561836 -61.996555 -126.32372 7695205
-39.186993 -61.075672 -126.72507 7563619
-38.429775 -61.092777 -126.6429 8747634
-38.520382 -60.283947 -127.07763 9866112
-37.655418 -59.957405 -127.25571 8550256
-37.514359 -59.537292 -127.78153 8089963
-36.869362 -59.423195 -128.075 7827048
-36.067543 -59.336121 -128.28972 8485235
-35.118656 -59.263962 -128.98831 8945785
-34.445255 -59.264523 -129.86743 9209468
-33.512592 -59.263645 -130.11691 9012089
-32.756702 -59.263603 -130.62456 9012089
-32.016548 -59.263958 -131.43198 9405560
-31.058224 -59.015038 -132.01678 8945008
-30.248619 -58.732994 -132.16798 8287853
-31.193893 -58.263054 -132.39203 9405560
-30.305611 -57.971073 -132.44991 8287853
-30.249168 -57.121143 -132.75778 7498082
-29.494312 -57.035198 -132.7477 7235165
-30.242561 -56.222527 -133.0862 8419440
-29.401569 -56.138222 -133.07077 8813942
-28.590324 -55.717407 -133.18007 9208955
-29.555683 -55.178352 -133.43048 9603714
-28.615108 -54.963085 -133.45746 9603457
-29.37624 -54.430008 -133.6944 9735043
-28.729996 -54.028046 -133.80594 9406334
-27.927349 -53.88546 -133.8139 8946039
-28.605259 -53.063515 -134.1521 10261132
-27.839882 -52.968513 -134.14468 9274749
-27.82618 -52.075687 -134.47067 8616303
-27.050747 -52.109711 -134.41553 7563874
-27.701046 -51.329044 -134.73708 8681835
-26.991589 -51.121399 -134.77397 8550250
-26.272182 -50.75629 -134.86798 10128513
-26.991703 -50.235161 -135.09831 8681835
-26.188816 -49.927505 -135.1667 9865599
-27.050884 -49.465176 -135.38336 8681835
-26.22966 -49.137402 -135.48853 8813424
-25.419308 -48.7742 -135.64734 9010550
-26.157536 -48.460091 -135.97256 10260100
-25.381947 -48.214954 -136.10638 9931136
-24.491344 -47.852741 -136.37796 9471099
-24.485806 -47.53994 -136.95776 8287084
-23.666927 -47.348911 -137.1077 8089962
-23.018078 -47.172428 -137.26508 9142649
-22.168148 -47.069454 -138.24968 9800321
-20.331203 -47.01997 -139.55707 8682094
-19.455521 -46.92931 -140.58746 9208955
-18.751476 -46.852928 -140.45525 9537409
-18.036373 -46.779705 -141.51651 9405560
-17.329861 -46.702988 -141.37463 9537409
-16.599998 -46.628193 -142.43562 9405560
-15.891118 -46.55127 -142.28403 9734788
-15.324201 -46.494076 -143.38522 8813939
-14.790578 -46.436165 -143.26447 8813939
-13.853932 -46.338852 -144.28677 10853012
-13.318685 -46.280731 -144.15866 10853012
-12.366395 -46.181786 -145.17802 8682616
-11.400701 -46.081333 -146.2011 9538950
-10.861573 -46.022789 -146.05911 9538950
-9.6998491 -45.90102 -147.02937 8880760
-8.3422365 -45.758041 -147.94659 12235684
-7.149457 -45.632942 -148.91287 11906725
-6.6056185 -45.5737 -148.74863 9734782
-5.759778 -45.48642 -149.82066 10195332
-4.9010439 -45.39777 -150.90109 8814451
-4.3530016 -45.338097 -150.72331 8814451
-3.1131029 -45.207893 -151.68143 9735297
-1.6737566 -45.055969 -152.5743 9538175
-0.77010822 -44.962517 -153.66107 11380380
-0.21751118 -44.902203 -153.46124 11380380
0.70169353 -44.807072 -154.54939 11316124
-110.50056 -77.763634 -76.771103 9668990
-110.01889 -77.800598 -77.356895 7563617
-109.42294 -77.772842 -78.125282 7366239
-108.84889 -77.841507 -78.809021 9405823
-108.37417 -77.916283 -79.364006 9142651
-111.52097 -76.677826 -76.124191 7235170
-110.83557 -77.102142 -76.738625 9931906
-110.23883 -77.071266 -77.509727 7037274
-109.6416 -77.043709 -78.279556 7037274
-108.91706 -77.444489 -78.957245 9537408
-113.16597 -75.659805 -74.966309 10261132
-112.48083 -75.821625 -75.63945 7827048
-111.82815 -75.908127 -76.364212 7300962
-111.1478 -76.119492 -77.023872 9273977
-110.4586 -76.343224 -77.662392 7563617
-109.90514 -76.501854 -78.266708 7037274
-116.19921 -74.675369 -72.806129 10261132
-115.82732 -74.660637 -73.352394 9012093
-115.05549 -74.722557 -74.035988 8420470
-114.24165 -74.9636 -74.557045 9603715
-113.49667 -75.081314 -75.299889 9800581
-112.79264 -75.193031 -76.013199 9471358
-112.18095 -75.288513 -76.66729 9405307
-125.929 -74.059662 -65.943054 8616307
-125.63721 -74.073997 -66.563408 9011065
-125.06897 -74.154251 -67.360527 9405823
-124.0502 -74.278 -67.655449 9931910
-123.3781 -74.278511 -68.452065 9997702
-122.41179 -74.277962 -68.888329 9734531
-121.5511 -74.277939 -69.568672 9603201
-120.77003 -74.27784 -70.093834 9537152
-119.99104 -74.277893 -70.614449 10261132
-119.04704 -74.31308 -71.128853 9735043
-118.44495 -74.34037 -71.83947 9471871
-117.49596 -74.443611 -72.356766 7892839
-116.8364 -74.487556 -72.965172 8946039
-116.16985 -74.496742 -73.761383 9800838
-58.842247 -74.270355 -114.1864 9142907
-58.021801 -74.269974 -114.61222 9538177
-57.061092 -74.269547 -115.10205 9011833
-56.234241 -74.269142 -115.51532 8288116
-55.404476 -74.268715 -115.92264 8946044
-54.53791 -74.268745 -116.61121 8090992
-53.803898 -74.268822 -117.22803 8617333
-52.923004 -74.268806 -117.90488 8090734
-52.076057 -74.268333 -118.28817 8090474
-51.288555 -74.268417 -118.96178 7300702
-50.606853 -74.268288 -119.42008 6313808
-49.702892 -74.113823 -120.29475 6445393
-48.840313 -73.923302 -120.71091 6840151
-47.92189 -73.967239 -120.96313 6774102
-126.37512 -73.071266 -65.835838 8353135
-125.93983 -73.137894 -66.722008 8353135
-125.52625 -73.52758 -67.279877 8616307
-49.000988 -73.15493 -120.98772 5788235
-47.972584 -73.131256 -121.27259 6905944
-47.067318 -73.113464 -121.52215 6248272
-46.468525 -72.774178 -121.81339 5393738
-127.09901 -71.858658 -65.321388 9274749
-126.64452 -72.07386 -66.119911 8419184
-126.18166 -72.389816 -66.84874 8089963
-48.131985 -72.297806 -121.55067 7038043
-47.232845 -72.080475 -121.87543 6051151
-46.304729 -72.022377 -122.14668 5722703
-45.58746 -71.797279 -122.42564 5920338
-127.6989 -70.977081 -64.787834 9932416
-127.33749 -71.051247 -65.507133 8879477
-126.97556 -71.127106 -66.226189 8353391
-47.29047 -71.219757 -122.19134 6051151
-46.401871 -71.023628 -122.5051 5920594
-45.493496 -70.979294 -122.76575 6052180
-44.817486 -70.716141 -123.04829 6577496
-128.49385 -69.724327 -64.154373 9208435
-128.07974 -70.104866 -64.72113 9340021
-127.64357 -70.165581 -65.614349 9998211
-46.425365 -70.095795 -122.85596 6249559
-45.631107 -69.94175 -123.12823 5854031
-44.665981 -70.028885 -123.35348 6050636
-43.962364 -69.869179 -123.60363 5919050
-128.84052 -68.885971 -64.132278 9932418
-128.34636 -69.065483 -65.048203 9340280
-45.535099 -69.126808 -123.4677 5787981
-44.778057 -69.166008 -123.65561 6314325
-43.837933 -69.170982 -123.90576 5787722
-43.182571 -68.799797 -124.2244 5985614
-129.40723 -68.043716 -63.636749 10853780
-129.04111 -68.052086 -64.424751 12235433
-128.68698 -68.245743 -65.024704 8682867
-44.828259 -68.28756 -123.98031 5788240
-44.030411 -68.140068 -124.25105 5261896
-43.04623 -68.048225 -124.49929 5723469
-130.13939 -66.924843 -63.024345 7564642
-129.78537 -67.115089 -63.62709 11314331
-129.35367 -67.247078 -64.449554 10261899
-43.929054 -67.329857 -124.59005 5196870
-43.239357 -67.065979 -124.85464 4539195
-42.41404 -66.94397 -124.89024 6117970
-130.54247 -65.923904 -63.023842 9867396
-130.03587 -66.16346 -63.914864 9209211
-43.134212 -66.256813 -125.19062 6710106
-42.284191 -66.035927 -125.21116 6512727
-145.33647 -64.75782 -52.943531 8484462
-144.42749 -64.692192 -53.407082 9735046
-143.88841 -64.595215 -54.197483 6511962
-142.84116 -64.601265 -54.006756 8090736
-131.87119 -64.61161 -61.907219 10064779
-131.34674 -64.88588 -62.485096 9341053
-130.86899 -64.961563 -63.325077 9933446
-130.39468 -65.263145 -63.922646 10262667
-42.371334 -65.206818 -125.52483 8091500
-41.553951 -65.013657 -125.51395 7367262
-142.86678 -64.541534 -54.540268 8485492
-142.08662 -64.46711 -55.098419 8287341
-141.5439 -64.371834 -55.873039 10392461
-140.3026 -64.341743 -55.978016 8287341
-139.75964 -64.247704 -56.741566 7038307
-138.8806 -64.142357 -57.56163 9209471
-137.77454 -64.089127 -57.889259 8288371
-137.06708 -63.922737 -58.568935 6511954
-136.37216 -63.69841 -58.860207 6511954
-133.52419 -63.763287 -60.724274 10064779
-133.00427 -63.840561 -61.342159 9801607
-132.34926 -64.05442 -61.999008 10261903
-131.79752 -64.170959 -62.777515 9472897
-42.23917 -64.321053 -125.83737 8088931
-41.454414 -64.044579 -125.86037 8023908
-40.946388 -63.583187 -125.97912 9536633
-135.94704 -63.566593 -59.068344 6511954
-135.30916 -63.369026 -59.376705 8419958
-134.60046 -63.329464 -60.1353 9801606
-134.05829 -63.369404 -60.963234 9604228
-133.44981 -63.470612 -61.661297 10525074
-41.498741 -63.059105 -126.22729 8944240
-40.771423 -63.015251 -126.17052 9405047
-40.60767 -62.157089 -126.46974 9799806
-39.971107 -61.711792 -126.56969 9142135
-40.690887 -61.213825 -126.82497 9997442
-39.820904 -60.972698 -126.82789 8813426
-39.92812 -60.178719 -127.3007 10260101
-39.039879 -59.895905 -127.43445 10457735
-38.15543 -59.585098 -127.69782 9010806
-38.956581 -59.477966 -128.12207 10853004
-38.273396 -59.38903 -128.3562 10655370
-37.527161 -59.308174 -128.71707 8418927
-36.614262 -59.266354 -129.25922 9142907
-35.721447 -59.266212 -129.88937 9471871
-34.994118 -59.266594 -130.65305 7169888
-34.05579 -59.265781 -130.90646 7762022
-33.387241 -59.265968 -131.55423 8617076
-32.601521 -58.990982 -132.20232 8945265
-31.713181 -58.777428 -132.23236 8681835
-32.442078 -58.268711 -132.45865 9010802
-31.644836 -57.935974 -132.53653 9800322
-32.515057 -57.490646 -132.74733 9208182
-31.700882 -57.059528 -132.86026 9537407
-30.76453 -56.73238 -132.92842 8419440
-31.701359 -56.116291 -133.20543 10261644
-30.880093 -55.945683 -133.22261 8353391
-30.915462 -55.0368 -133.55717 8485233
-30.177082 -55.019978 -133.52264 8879991
-30.774174 -54.053852 -133.9091 9340286
-30.013664 -54.150528 -133.83186 9208955
-29.433296 -53.7537 -133.94514 9208955
-30.12286 -53.179886 -134.19307 9668995
-29.252598 -53.006668 -134.20856 9011064
-29.901741 -52.263622 -134.51627 9011065
-29.236603 -52.032127 -134.56433 9076858
-28.480515 -51.878883 -134.57874 9142651
-29.236259 -51.215 -134.86336 8682100
-28.420929 -50.863281 -134.94717 8879477
-28.490746 -50.000698 -135.26671 9339514
-27.59856 -50.104153 -135.17966 9207667
-28.255852 -49.398582 -135.48447 10851980
-27.619747 -49.035595 -135.67831 9471097
-26.792477 -48.815781 -135.76767 9405046
-27.570236 -48.272209 -136.25107 9735297
-26.776508 -48.256313 -136.24471 9536890
-25.986073 -47.781601 -136.82034 10391685
-25.170486 -47.5952 -136.99275 9602429
-25.244686 -47.348656 -137.38397 9734011
-24.386261 -47.279751 -137.33966 7563619
-23.425152 -47.267479 -138.63023 9931902
-21.737202 -47.17239 -139.79698 8945784
-20.951199 -47.089333 -140.26065 9143163
-20.161598 -47.005894 -140.71629 9011576
-19.454918 -46.933582 -141.79143 10261132
-18.744678 -46.856525 -141.65546 8682867
-17.666706 -46.743965 -142.6579 9866113
-16.752831 -46.649174 -143.69882 9405560
-16.216259 -46.590977 -143.58246 9076853
-15.680654 -46.532776 -143.46471 7564643
-15.286756 -46.494503 -144.62067 8156523
-14.569314 -46.416626 -144.45517 10063235
-13.623364 -46.318363 -145.48843 8551031
-12.844602 -46.238358 -146.5717 7038307
-12.121774 -46.159798 -146.3876 8683386
-11.146264 -46.058346 -147.42215 8881277
-10.421773 -45.979576 -147.22742 7565675
-9.6114626 -45.896114 -148.30774 8682867
-8.7885103 -45.811359 -149.39648 8682867
-8.0587969 -45.731941 -149.18309 10195846
-7.0371981 -45.625534 -150.21548 9010801
-5.6341677 -45.477631 -151.13524 8814451
-4.5826235 -45.36808 -152.17078 8814451
-4.030385 -45.307846 -151.98849 12366500
-2.9626131 -45.196499 -153.02036 11050898
-1.6945543 -45.063339 -153.99086 9603712
-0.41047382 -44.928425 -154.96027 11116696
0.14648724 -44.867699 -154.75563 11380380
0.88969707 -44.791786 -155.92862 10855060
-107.97603 -77.903419 -79.874092 9142651
-107.34529 -77.863037 -80.613731 8879477
-106.63116 -77.765968 -81.289742 9143163
-105.91447 -77.670044 -81.960762 9077626
-105.31785 -77.592751 -82.518295 9735812
-109.29753 -76.844902 -78.830986 8089962
-108.84436 -77.012077 -79.304062 8747893
-108.22089 -77.212105 -79.972832 9405820
-107.56242 -77.136269 -80.774834 9142905
-106.84801 -77.040939 -81.453026 9011577
-106.07593 -77.126732 -82.084167 8880247
-105.21913 -77.29866 -82.747223 8814710
-104.48348 -77.488869 -83.295845 8025194
-110.40999 -75.920486 -78.123886 8616304
-109.73973 -76.10405 -78.796394 9537148
-109.15082 -76.127289 -79.524612 8945270
-108.53391 -76.202377 -80.224098 9602941
-107.8679 -76.329147 -80.90033 9537405
-107.30479 -76.349083 -81.391258 9734788
-114.51347 -74.613899 -75.254898 9537409
-113.9446 -74.596214 -76.065475 8813686
-113.17211 -74.71006 -76.570229 10260873
-112.32464 -74.88903 -77.110268 8813428
-111.56926 -75.116188 -77.715622 8945013
-110.87331 -75.199493 -78.427589 9076854
-110.20148 -75.363449 -79.073494 9273977
-109.60851 -75.50074 -79.652756 9339770
-125.11235 -73.919258 -67.836555 9142651
-124.69417 -74.024323 -68.584953 9010808
-124.20799 -74.202744 -69.295433 8681843
-122.98883 -74.279922 -69.596886 9471359
-122.21533 -74.280212 -70.397263 9208187
-121.33173 -74.27977 -70.804207 9734531
-120.64166 -74.280159 -71.576797 9471871
-119.75667 -74.279434 -71.839058 8814453
-119.01906 -74.279854 -72.670654 9997957
-118.00739 -74.279305 -73.135841 9537919
-117.28236 -74.308174 -73.788139 10458250
-116.35728 -74.370651 -74.172249 9800838
-115.70648 -74.378761 -74.953941 8946300
-114.94432 -74.453537 -75.533875 9471873
-114.46876 -74.43866 -76.21199 8813686
-69.861702 -74.283577 -107.7092 9209467
-69.337105 -74.273834 -108.03268 6972767
-68.561058 -74.273651 -108.53479 6249303
-67.650932 -74.27343 -109.11324 7762796
-66.736206 -74.273186 -109.68443 9802117
-65.948257 -74.272957 -110.1677 7301727
-65.156853 -74.27272 -110.64529 6972762
-64.22908 -74.272415 -111.19499 6905943
-63.296947 -74.272102 -111.7373 7826787
-62.494225 -74.27182 -112.19568 6313551
-61.553551 -74.271416 -112.72295 9142651
-60.886913 -74.271965 -113.56876 8550513
-59.968372 -74.271515 -114.00538 8748149
-59.303005 -74.271599 -114.56635 9669507
-58.495846 -74.271553 -115.19433 9011833
-57.530029 -74.271141 -115.6878 9538177
-56.642479 -74.271072 -116.33948 8353909
-55.990868 -74.271187 -116.92466 8024944
-55.197544 -74.271049 -117.45467 8090737
-54.362221 -74.27095 -118.05505 7893614
-53.514244 -74.270493 -118.44874 9012089
-52.709637 -74.216873 -119.22372 8617075
-51.916447 -74.033234 -119.8026 8222316
-50.871189 -73.92614 -120.18935 6182222
-50.174828 -73.818733 -120.41745 5919050
-125.76768 -72.779106 -67.407906 8616307
-125.38273 -73.168663 -67.903625 9866630
-124.97636 -73.26741 -68.699059 9998215
-52.121815 -73.346497 -120.07716 7564386
-51.153015 -73.064346 -120.44556 6051405
-50.092915 -72.991295 -120.75793 4209462
-49.298679 -72.675858 -121.09233 5064770
-126.56995 -71.635605 -66.66317 9011320
-126.15236 -71.978065 -67.270798 8419184
-125.71779 -72.094025 -68.112396 8682356
-125.29958 -72.440186 -68.718117 9340286
-51.118473 -72.269493 -120.7608 6249041
-50.306797 -71.951012 -121.10104 4801598
-49.310734 -72.062302 -121.32526 4209205
-48.611927 -71.961052 -121.55164 6840664
-126.82016 -71.011551 -66.663826 10261643
-126.38337 -71.094498 -67.539093 8747893
-125.95487 -71.301331 -68.288383 8089963
-50.162006 -71.123001 -121.45861 4998977
-49.435795 -71.194046 -121.62605 4603705
-48.52457 -71.139282 -121.89141 5392706
-47.7038 -70.882988 -122.21017 5458757
-127.54121 -69.755852 -66.193443 10524815
-127.09532 -70.175842 -66.795197 9998472
-126.69145 -70.253822 -67.604042 8616307
-49.494633 -70.358109 -121.93202 5261377
-48.671513 -70.099876 -122.25211 5524292
-47.758446 -70.048836 -122.5166 5853771
-46.963161 -69.890839 -122.79067 6446938
-128.27202 -68.626656 -65.593254 8682867
-127.8568 -69.0093 -66.160576 9471871
-127.43998 -69.079369 -67.004707 9537664
-48.582108 -69.281296 -122.59124 5919050
-47.902309 -69.012115 -122.87712 5656394
-46.987297 -68.964729 -123.14071 5722702
-46.16013 -68.924438 -123.378 5393738
-128.58351 -68.028625 -65.439224 8879990
-128.10852 -68.108772 -66.400993 9077625
-47.69236 -68.305801 -123.20528 5393738
-47.083988 -67.971611 -123.49707 5393738
-46.056595 -68.182701 -123.69133 5459275
-45.337852 -67.986061 -123.95975 5196103
-129.24167 -66.906914 -64.990234 9735555
-128.77383 -67.178307 -65.769211 9471871
-128.33174 -67.401962 -66.534081 9011576
-46.915508 -67.226944 -123.82891 5393738
-46.303043 -67.198494 -124.0041 5722701
-45.269695 -67.184624 -124.28651 4472379
-44.355381 -66.968208 -124.61502 4406843
-129.98709 -65.761528 -64.372261 9735555
-129.5623 -66.016884 -65.071785 10196106
-129.18398 -66.101379 -65.819786 9735555
-46.0881 -66.497192 -124.33168 7038307
-45.475857 -66.169014 -124.62221 5854289
-44.484341 -66.117622 -124.90786 5327945
-43.566441 -65.903732 -125.23315 8420210
-146.7865 -64.720848 -53.461651 9931907
-146.08411 -64.693871 -53.609077 12826540
-145.16577 -64.628151 -54.072212 11642782
-130.83987 -64.584755 -63.94313 9999239
-130.32501 -64.912285 -64.47274 9603969
-129.82378 -65.129189 -65.279938 10985623
-45.302341 -65.429001 -124.95359 7039331
-44.687725 -65.10379 -125.24358 8026222
-43.743443 -65.060432 -125.51236 12565162
-43.046062 -64.807327 -125.73704 10525837
-144.51065 -64.511276 -55.023605 7959144
-143.23705 -64.479393 -55.14027 9406590
-142.69054 -64.383324 -55.921108 10327180
-142.03069 -64.268616 -56.852737 9537408
-140.88846 -64.258026 -56.797302 7826790
-140.22847 -64.14489 -57.715466 7169634
-139.67516 -64.051018 -58.476109 7563874
-138.44392 -64.023666 -58.557495 6511186
-137.7795 -63.91259 -59.456383 8551026
-137.22253 -63.820477 -60.201149 10261132
-136.47537 -63.642197 -60.859722 6511954
-132.40575 -63.686993 -62.737885 11971751
-131.81262 -63.857388 -63.368637 10328461
-131.31877 -63.984253 -64.027473 10328460
-130.70099 -64.256012 -64.753601 9735811
-130.11998 -64.572174 -65.348633 10788244
-43.821354 -64.1129 -125.85737 9210491
-42.904388 -64.020065 -126.00603 10789009
-136.09946 -63.535683 -61.087608 7564651
-135.53534 -63.375957 -61.426655 9867657
-134.48454 -63.179363 -61.804653 9670279
-133.66737 -63.123604 -62.345867 10393489
-132.95192 -63.323059 -62.875519 11379870
-132.41156 -63.403522 -63.52169 10591122
-42.880825 -63.223438 -126.29844 12432806
-42.123974 -62.981876 -126.31834 9734012
-42.847172 -62.359364 -126.61978 10984335
-42.012939 -62.047348 -126.65096 10260356
-41.202007 -61.570408 -126.74505 10984335
-42.100189 -61.101353 -127.00762 8616048
-41.385838 -60.917423 -127.00673 9405562
-41.165176 -60.184269 -127.42234 8682097
-40.50478 -59.788536 -127.69658 9142389
-40.411816 -59.420441 -128.45799 9010803
-39.682999 -59.448902 -128.29082 9340027
-38.776306 -59.290279 -128.90115 11575960
-38.108196 -59.269188 -129.75945 10392457
-37.176281 -59.26836 -130.03545 9076857
-36.366608 -59.268501 -130.74374 9340030
-35.549728 -59.268658 -131.4467 8287600
-34.631214 -59.132809 -132.00893 7564392
-33.870934 -58.878033 -132.2762 8616822
-33.90472 -58.024593 -132.62851 9340030
-33.075878 -57.89669 -132.62967 9997702
-33.923267 -57.130054 -132.95683 8616822
-33.106686 -57.0397 -132.94493 9076595
-33.021885 -56.213585 -133.24254 8747628
-32.257038 -55.97456 -133.28787 9273975
-33.047798 -55.485924 -133.51031 9010550
-32.271393 -55.092419 -133.6115 9405307
-31.578178 -54.647373 -133.73619 8616563
-32.281418 -54.102043 -133.97452 9076600
-31.469433 -53.951824 -133.98477 8682100
-31.460758 -53.095505 -134.2977 8945272
-30.755325 -52.970043 -134.30472 9011065
-31.365685 -52.231178 -134.60875 9668995
-30.597519 -52.158215 -134.59314 8879479
-29.945026 -51.756248 -134.7043 7563619
-31.340668 -51.544937 -134.85858 10261132
-30.639709 -51.180691 -134.95323 9208444
-29.785027 -50.946415 -134.99188 8616307
-30.573933 -50.449333 -135.21725 9472127
-29.874706 -50.01466 -135.33781 9471616
-29.078526 -49.805576 -135.37048 8287342
-29.827847 -49.299271 -135.67715 9537409
-29.022083 -48.942654 -135.88184 8353135
-28.206379 -48.630604 -136.04425 7564643
-29.114819 -48.403233 -136.30324 8287342
-28.205265 -48.17157 -136.57384 9340540
-27.440865 -47.884048 -136.94327 12761259
-26.715466 -47.722454 -137.06758 10128513
-27.312428 -47.518894 -137.48442 11905951
-26.449478 -47.447067 -137.4437 9405046
-24.85976 -47.472797 -138.99026 9405302
-24.321075 -47.396816 -138.86023 9405558
-23.327377 -47.344681 -140.05208 10129281
-22.366348 -47.242695 -140.49908 8879991
-21.578922 -47.159534 -140.96529 8945784
-20.88084 -47.088253 -142.05438 9471871
-20.167015 -47.010845 -141.92438 9735043
-19.095638 -46.899033 -142.94391 8814453
-18.284691 -46.813293 -143.40164 10458253
-17.470284 -46.727077 -143.85092 9405560
-16.727707 -46.651031 -144.94284 8747887
-16.186356 -46.592224 -144.82343 7564643
-15.826138 -46.553112 -144.74292 7564643
-14.88643 -46.455631 -145.79044 8813939
-13.569917 -46.317146 -146.75249 8682616
-12.601335 -46.216599 -147.80379 8287859
-12.054624 -46.157146 -147.66199 9538950
-10.887212 -46.034889 -148.66061 8223089
-9.5210085 -45.891083 -149.60661 8880247
-8.3217897 -45.765369 -150.60182 11050643
-7.7702074 -45.705368 -150.43741 8681835
-6.9224901 -45.61795 -151.53911 11905692
-6.3693285 -45.557686 -151.36725 9734782
-6.0622377 -45.529228 -152.64886 9405566
-5.3214006 -45.448555 -152.41092 8221547
-4.4446688 -45.358067 -153.52068 7958120
-3.8874483 -45.297318 -153.33455 11905692
-2.8090563 -45.184853 -154.38127 8484719
-1.3419924 -45.030071 -155.29802 10326666
-0.41961384 -44.934685 -156.41763 10458253
0.32954693 -44.852932 -156.13919 10263179
0.89290905 -44.796761 -157.40236 9210491
-106.35697 -76.599365 -82.095528 9143163
-105.41217 -76.854019 -82.795189 9012089
-104.64238 -76.946503 -83.420998 8288366
-103.87409 -77.042274 -84.043961 8090474
-103.17615 -77.009148 -84.668282 7630442
-102.33289 -77.029976 -85.392952 7893610
-101.5031 -76.99662 -86.132278 7564642
-100.72987 -76.8937 -86.856148 9406590
-100.01748 -76.826874 -87.509392 8090736
-99.342957 -76.80349 -88.108604 8485750
-98.662567 -76.892754 -88.658073 9341313
-108.52203 -75.783241 -80.675972 9537148
-107.84668 -75.865074 -81.309486 9340284
-107.09156 -75.9412 -81.907204 9143163
-106.34113 -76.00589 -82.51339 9208956
-105.57858 -76.145454 -83.060799 9472640
-104.83209 -76.062218 -83.775932 8420468
-104.04102 -76.01313 -84.507629 8682873
-103.13737 -76.183327 -85.154633 8419702
-102.45242 -76.201149 -85.736794 7761768
-101.65742 -76.251396 -86.381233 8551538
-100.88216 -76.353859 -86.985802 8551538
-100.40646 -76.309029 -87.422188 8288371
-111.6039 -74.707115 -78.456512 7564643
-111.21632 -74.699394 -78.986916 10195076
-110.381 -74.850197 -79.659012 10195076
-109.64808 -75.018745 -80.321274 9208185
-108.90102 -75.169533 -80.953865 9273977
-108.23831 -75.219833 -81.623772 9142649
-107.48829 -75.236389 -82.260818 8485233
-106.5569 -75.34481 -82.962616 11247763
-105.87771 -75.434311 -83.463707 10985623
-105.18739 -75.443718 -84.055984 8486262
-82.627075 -75.104477 -99.961517 8089960
-82.072281 -75.0354 -100.26875 7892581
-81.240738 -74.933968 -100.72733 7563615
-80.410179 -74.835472 -101.18298 7563615
-79.60833 -74.765877 -101.67104 5920074
-78.697517 -74.71122 -102.26835 6643285
-77.784439 -74.658394 -102.86051 7432289
-76.999893 -74.614655 -103.36345 7366239
-76.34481 -74.579269 -103.77961 7695205
-124.1968 -73.844048 -69.811485 8945014
-123.72614 -73.978416 -70.59684 8681843
-122.79456 -74.28241 -71.249916 8813429
-121.89766 -74.281715 -71.521767 9339773
-121.38373 -74.282524 -72.404282 8945530
-120.22139 -74.281502 -72.702766 9405822
-119.43207 -74.281975 -73.609032 10523531
-118.54272 -74.281219 -73.856308 9143678
-118.01212 -74.281967 -74.714577 8420726
-117.12662 -74.281158 -74.951782 9537923
-116.32233 -74.281609 -75.828133 9800838
-115.35741 -74.285385 -76.197624 9866374
-114.51868 -74.318459 -76.840355 9866374
-113.85858 -74.371956 -77.397308 10129801
-112.91165 -74.48259 -77.956192 8879990
-112.32243 -74.511566 -78.552681 9012089
-111.53638 -74.537888 -79.41198 10129540
-76.363274 -74.459091 -104.19251 7366239
-75.435852 -74.451553 -104.63269 7169116
-74.512306 -74.405762 -105.20535 8419183
-73.718796 -74.368065 -105.69164 8551026
-72.932335 -74.34053 -106.18644 7301214
-72.152397 -74.323006 -106.68977 7433057
-71.238945 -74.303429 -107.27074 8024938
-70.41394 -74.284966 -107.87285 10788244
-69.738312 -74.275398 -108.64791 11314847
-68.957726 -74.275215 -109.15288 6249303
-68.04245 -74.274963 -109.73466 7762796
-67.122452 -74.274742 -110.30914 10855061
-66.329971 -74.274521 -110.79518 8090986
-65.534012 -74.274246 -111.27547 7301727
-64.600945 -74.273972 -111.82838 6905943
-63.757336 -74.274254 -112.66167 7366237
-63.038712 -74.274117 -113.15708 6116172
-62.225742 -74.273834 -113.61358 8813686
-61.587414 -74.2743 -114.3891 7563618
-60.765678 -74.273941 -114.83504 9472128
-59.80275 -74.273544 -115.34765 10524815
-58.835781 -74.27314 -115.85246 8090475
-58.172565 -74.273529 -116.61176 7563619
-57.423969 -74.273331 -117.07214 8222063
-56.658333 -74.273514 -117.78384 7564651
-55.687202 -74.246696 -118.36889 8288113
-54.960697 -74.032661 -118.96083 8353904
-53.980293 -73.935631 -119.31123 9472128
-53.237545 -73.809959 -119.59958 9471616
-124.89371 -72.955452 -69.149902 11445402
-124.45502 -73.048164 -70.020775 10853009
-124.02505 -73.264145 -70.765282 8681843
-54.952091 -73.360832 -119.31276 9340286
-54.234898 -73.017532 -119.63722 8748405
-53.094608 -73.164803 -119.88627 9077370
-52.330421 -72.885551 -120.19867 7038042
-125.61343 -71.688202 -68.692253 9340286
-125.1537 -72.084213 -69.344734 10853780
-124.68962 -72.239227 -70.216927 10589838
-54.023815 -72.398956 -119.93193 7564643
-53.349506 -72.169418 -120.20111 6709333
-52.374378 -72.095604 -120.49101 6577747
-51.580185 -71.920883 -120.7712 7104092
-50.905048 -71.639633 -121.06045 6840922
-125.84998 -71.088356 -68.702408 9340286
-125.48741 -71.011497 -69.557167 9406079
-53.211002 -71.336365 -120.55895 8945784
-52.533867 -71.051773 -120.85007 7695973
-51.618084 -70.986694 -121.12068 6709335
-50.790543 -70.930504 -121.36422 7103837
-126.54659 -70.096916 -68.055931 8287342
-126.15025 -70.156616 -68.864708 9208700
-125.87183 -70.210419 -69.422493 9011323
-52.333923 -70.335014 -121.17954 7037274
-51.729599 -69.986473 -121.47581 9076857
-50.776863 -70.129158 -121.67634 7630180
-49.911846 -70.024445 -121.9486 5854026
-127.29873 -68.789688 -67.564873 9142907
-126.86699 -69.089172 -68.240875 8353648
-126.3986 -69.326157 -69.051216 9143931
-51.571835 -69.232071 -121.80851 6511954
-50.914379 -69.232971 -121.98446 7103835
-50.040852 -69.134583 -122.25654 6972250
-49.100574 -69.001389 -122.55997 5919050
-127.92464 -67.906914 -66.976883 9735043
-127.56877 -68.106194 -67.575783 9077371
-127.14212 -68.164497 -68.451607 7762283
-50.754253 -68.481049 -122.31688 8090730
-50.146343 -68.139099 -122.61149 7235166
-49.204895 -68.075432 -122.88843 6511443
-48.208576 -67.916481 -123.21676 5656394
-47.481113 -67.601074 -123.53324 5393738
-128.30461 -67.037117 -66.911911 8748660
-127.86964 -67.178268 -67.733452 9077114
-127.51297 -67.378357 -68.333359 7367527
-49.299252 -67.119568 -123.23109 7893351
-48.430187 -66.991516 -123.5134 7959402
-47.498833 -66.909309 -123.79478 6972766
-129.01993 -65.887177 -66.363411 9406078
-128.57013 -66.084206 -67.168221 8353135
-128.17026 -66.251114 -67.890938 9340030
-48.549992 -66.131691 -123.81231 7433064
-47.504253 -66.179108 -124.07446 8090991
-46.55328 -66.096046 -124.3614 8288625
-45.871929 -65.797447 -124.65904 7039331
-147.5472 -64.656113 -54.135735 9735558
-146.23978 -64.622284 -54.264683 9143679
