# .PCD v0.7 - Point Cloud Data file format
VERSION 0.7
FIELDS x y z rgb
SIZE 4 4 4 4
TYPE F F F U
COUNT 1 1 1 1
WIDTH 1180
HEIGHT 1
VIEWPOINT 0 0 0 1 0 0 0
POINTS 1180
DATA ascii
0.70713276 -58.908413 -130.42796 10721679
1.7554975 -58.921486 -130.37726 10459278
2.6513581 -58.8699 -130.3609 10656401
3.5481343 -58.652622 -130.39749 7761509
4.2496057 -58.561932 -130.39397 5920074
-78.347664 -57.944138 -119.95949 10260617
-77.639671 -58.168346 -120.22313 7893357
-76.743721 -58.23016 -120.64429 8024684
-75.904129 -58.313763 -121.02879 7630435
-0.35174137 -58.228142 -130.7567 11906725
0.68121189 -58.067501 -130.76135 8879735
1.6951413 -57.904797 -130.76781 10130057
2.6947103 -57.921471 -130.70938 9142907
3.631392 -57.908833 -130.66501 9011315
4.630074 -57.898243 -130.61664 7038296
5.6319127 -57.626602 -130.66356 9208435
-105.59283 -56.684307 -117.03276 7038307
-79.329056 -56.906818 -119.87872 9537918
-78.598557 -57.192268 -120.12976 8156527
-77.667503 -57.187981 -120.59415 8813688
-76.898521 -57.424 -120.88367 8945528
1.8374581 -57.192764 -131.02063 8353393
2.738297 -56.97234 -131.05406 8221547
3.6385674 -56.91925 -131.02635 8945263
4.577477 -56.909332 -130.98088 7958883
5.6725163 -56.901028 -130.92664 8813934
6.7289414 -56.854935 -130.88821 8155750
7.632071 -56.647346 -130.91685 7169117
-105.06033 -56.624268 -117.29132 7038307
-104.70525 -56.584339 -117.46246 8287859
-103.37291 -56.529514 -116.82562 8946043
-102.49252 -56.430923 -117.24434 9406334
-101.44698 -56.319565 -117.75304 8748660
-99.971107 -56.245171 -117.18774 9011318
-99.463997 -56.196724 -117.44878 8286824
-98.61776 -56.116154 -117.87957 9340027
-97.770416 -56.035736 -118.30513 8089963
-96.332581 -55.963558 -117.72614 10195081
-95.484192 -55.880291 -118.13142 8616307
-94.625992 -55.792122 -118.52061 7563619
-93.90625 -55.702595 -118.78703 8681835
-80.394699 -55.995625 -119.70661 8090987
-79.62542 -56.197483 -120.0097 7893608
-78.698784 -56.151707 -120.48819 7761767
-77.932404 -56.356583 -120.78867 9142652
3.800137 -56.258102 -131.2596 9208435
4.6311994 -56.014442 -131.30518 8682349
5.5284886 -55.913429 -131.29517 8879471
6.6263452 -55.908154 -131.23964 7432029
7.7240663 -55.906124 -131.18294 7959661
8.6649475 -55.907135 -131.13335 8881020
9.5479031 -55.71273 -131.15825 11051930
10.241768 -55.584888 -131.16869 11380380
-92.225159 -55.548336 -118.12762 8287592
-91.510986 -55.459148 -118.38271 9208698
-90.618256 -55.347809 -118.69681 8419440
-89.725563 -55.236797 -119.00462 6906713
-88.654404 -55.103889 -119.36645 6511954
-87.589294 -54.886581 -119.42944 7498850
-86.726303 -54.70483 -119.45651 9209467
-82.5364 -54.728729 -119.49635 9274233
-81.523071 -54.98595 -119.71603 7037274
-80.699799 -55.187206 -119.94874 7367007
-79.811844 -55.178932 -120.36375 6840919
-79.06897 -55.325466 -120.62863 6511954
5.6938672 -55.253819 -131.52756 7826786
6.5280328 -55.014782 -131.57133 8550507
7.5852342 -54.918594 -131.55121 7894125
8.6859627 -54.91943 -131.49327 8354933
9.6295185 -54.922886 -131.44269 9735815
10.573233 -54.928795 -131.39117 8946041
11.459953 -54.738979 -131.41414 9340797
12.156776 -54.614811 -131.42307 8617078
-85.687027 -54.500759 -119.53291 7498853
-84.490326 -54.400005 -119.37939 6775126
-83.65081 -54.319683 -119.71245 7104091
-82.69384 -54.312237 -120.0256 8813683
-81.716423 -54.479385 -120.11864 7695204
-80.750046 -54.534851 -120.43323 7695973
7.7547765 -54.260349 -131.7829 7565675
8.6658421 -54.014557 -131.8251 9012606
9.65312 -53.935749 -131.80225 9472131
10.599405 -53.941559 -131.75063 9340545
11.545938 -53.949783 -131.69814 10853267
12.55591 -53.961266 -131.6411 9669250
13.575521 -53.71217 -131.67882 7038307
9.8267422 -53.278709 -132.03336 10261133
10.668283 -53.049114 -132.07324 8880252
11.57465 -52.962933 -132.05736 9340287
12.524107 -52.9734 -132.00383 7630181
13.5361 -53.020123 -131.93379 6643803
14.58515 -52.938484 -131.90878 7433064
15.6229 -52.777008 -131.9135 9143166
11.752361 -52.306767 -132.2879 9208699
12.597851 -52.081295 -132.3261 6840920
13.507891 -51.999435 -132.30838 6380113
14.460783 -52.014408 -132.2531 6840667
15.573238 -52.034954 -132.18738 7498600
16.6486 -52.016506 -132.13791 9340801
17.573368 -51.832439 -132.15686 8617592
13.689531 -51.344006 -132.53848 6971994
14.539398 -51.122364 -132.57504 6643029
15.453382 -51.044685 -132.55565 6709079
16.524836 -51.096539 -132.48068 8551798
17.624512 -51.059063 -132.43695 9143678
18.607548 -51.076061 -132.37936 8419696
19.537579 -50.895954 -132.39662 8617075
15.639185 -50.389721 -132.78542 6511954
16.493626 -50.171825 -132.8204 8287854
17.411949 -50.098179 -132.79935 9472130
18.48793 -50.154819 -132.72243 8682612
19.592928 -50.122086 -132.67665 8419952
20.600708 -49.921051 -132.69748 9209211
21.548239 -49.687153 -132.73349 8090987
22.264637 -49.57917 -132.73558 9011576
17.601894 -49.443558 -133.02876 9208435
18.458075 -49.176052 -133.08185 8879989
19.446922 -49.194077 -133.02357 10524560
20.429821 -48.892315 -133.08253 11380124
21.541574 -48.863869 -133.03485 8288366
22.626259 -48.930428 -132.95383 9538177
23.544008 -48.764919 -132.96635 9012348
24.265066 -48.659641 -132.96722 9012606
19.502148 -48.420208 -133.30365 10787732
20.473589 -48.0681 -133.38161 10393229
21.389479 -47.897675 -133.39606 8617331
22.42355 -47.964382 -133.31763 8353646
23.495363 -47.968739 -133.26003 7958888
24.569063 -47.975735 -133.20134 8156526
25.54302 -47.798752 -133.21516 9472641
21.7502 -47.247993 -133.61476 9011576
22.47175 -47.139099 -133.61682 6510930
23.393463 -46.971928 -133.62981 8287597
24.369995 -47.007195 -133.56589 7761509
25.410999 -47.08036 -133.48474 7761510
26.438944 -47.052151 -133.44131 8617335
27.213947 -46.898392 -133.45007 9143422
23.759571 -46.322456 -133.84814 9209467
24.488411 -46.221256 -133.86407 8617330
25.458307 -46.106785 -133.87732 7300958
26.402254 -46.102196 -133.82784 7038557
27.439528 -46.067417 -133.72644 9406337
28.18079 -45.763325 -133.57947 9932934
26.464674 -45.468876 -134.15398 7564642
27.520975 -45.227066 -134.15987 8682868
28.451532 -45.073784 -133.92157 10393485
29.323423 -44.730072 -133.98312 9275004
30.428679 -44.538929 -133.92247 14867922
30.386372 -44.341755 -134.48727 11841444
31.447393 -44.071373 -134.44786 10262412
32.370857 -43.799328 -134.2925 9143418
31.645348 -43.226582 -134.81941 9209467
32.391609 -43.053535 -134.5793 8945783
33.274128 -42.870399 -134.28674 8090731
32.568001 -42.257626 -134.89078 8813942
33.382648 -42.044323 -134.68898 8550770
34.224998 -41.790775 -134.50497 10327435
33.745514 -41.396729 -135.05443 11380380
34.461411 -41.254665 -134.90186 10064264
35.291927 -40.990444 -134.83781 9998727
36.231094 -40.731384 -134.69943 9143675
35.538662 -40.492264 -135.34802 10459022
36.446445 -40.357975 -135.07649 10130055
37.380234 -40.194172 -134.79608 11840415
40.562309 -40.255894 -135.82892 5920082
42.371861 -40.057796 -135.94922 9868169
42.946121 -39.986179 -135.50717 13486007
44.334717 -39.840321 -135.93764 8092011
45.594337 -39.710789 -136.47775 14077894
46.164524 -39.639229 -136.01752 14077894
47.43705 -39.508099 -136.54768 14077894
47.862648 -39.454536 -136.19543 14077894
49.289421 -39.303986 -136.59805 9998471
50.589249 -39.169628 -137.11703 9209467
51.152718 -39.098339 -136.62921 9472381
52.324986 -38.98016 -137.26218 10855060
52.88591 -38.908985 -136.76518 7959656
54.212223 -38.771336 -137.26596 9078395
55.553257 -38.632065 -137.7653 10261644
55.970787 -38.578762 -137.37898 8092019
57.325451 -38.437813 -137.87016 7958120
57.74102 -38.384655 -137.47678 7958120
59.109406 -38.241989 -137.95976 8879222
60.493134 -38.097668 -138.44122 7564651
60.905483 -38.044556 -138.0343 8814715
62.303284 -37.898468 -138.50729 12433069
62.713463 -37.845543 -138.09337 9932934
64.125443 -37.69772 -138.55803 8682867
65.553329 -37.548183 -139.02106 9142393
65.959961 -37.495338 -138.59329 11575962
67.346123 -37.405182 -139.35573 8682867
67.749245 -37.351376 -138.91646 9735043
69.448242 -37.236698 -139.42896 9931910
69.847893 -37.182636 -138.98062 9340030
71.433762 -37.083958 -139.63301 8813686
71.83075 -37.029678 -139.17578 9537409
73.305969 -36.947063 -139.97681 10459019
73.700668 -36.892685 -139.51071 9209467
-43.747265 -65.726547 -125.30418 9735812
-43.262566 -65.673485 -125.36297 9735812
-46.029396 -64.780022 -125.05005 7039331
-45.030872 -64.986519 -125.24119 8420723
-44.14053 -65.052345 -125.45715 12762541
-43.220142 -65.017136 -125.5996 9802116
-42.236774 -64.88694 -125.55196 7696226
-41.485661 -64.670006 -125.55843 6511954
-48.637169 -63.862965 -124.69625 9538947
-47.93795 -63.967812 -124.84539 7499113
-47.04525 -64.134392 -125.02322 7762796
-46.119652 -64.09539 -125.28908 7039331
-45.086693 -64.024055 -125.59654 8618358
-44.019802 -64.051804 -125.87502 9210491
-42.997643 -64.071503 -125.92567 11051667
-42.024807 -64.075378 -125.82943 8220774
-41.076935 -64.011269 -125.76063 8748656
-40.221722 -63.768925 -125.7663 9142392
-51.783829 -62.648846 -124.31204 12827314
-51.037235 -62.814335 -124.45039 10458766
-49.943016 -63.140457 -124.62094 8156267
-49.042393 -63.193554 -124.84437 9670532
-48.112354 -63.149315 -125.11324 8288370
-47.125874 -63.071205 -125.41064 9472900
-46.054016 -63.092838 -125.69285 7894383
-45.049934 -63.121719 -125.95384 9933957
-44.136497 -63.249256 -126.15236 9210491
-42.945602 -63.258244 -126.21942 12366500
-42.042885 -63.047073 -126.20905 8878447
-40.995651 -63.099575 -126.08768 9405304
-39.968552 -63.043381 -126.00818 8155755
-39.094856 -62.900627 -125.97552 8089963
-53.879314 -61.822987 -124.06297 14802896
-52.94635 -61.982338 -124.25417 14408652
-52.040928 -61.972855 -124.50297 14472908
-51.024132 -62.162979 -124.70499 12366763
-50.119656 -62.213928 -124.93024 9340285
-49.128395 -62.130333 -125.2308 9406846
-48.05106 -62.146072 -125.51647 9538176
-47.045395 -62.277344 -125.73819 10129802
-46.190037 -62.380066 -125.9303 7563619
-41.959633 -62.346451 -126.45833 10260356
-41.071884 -62.156643 -126.44151 9931392
-40.092804 -62.039684 -126.38908 8352877
-39.054974 -62.099785 -126.26586 7695205
-38.082932 -62.016541 -126.20168 7368038
-37.270561 -61.818981 -126.19507 7697004
-57.662682 -60.610676 -123.52946 9537918
-56.649773 -60.878536 -123.67679 9537918
-55.93362 -60.968651 -123.83602 8091762
-55.019115 -61.116436 -124.02668 8814970
-54.0756 -61.056919 -124.30509 12039594
-53.076607 -60.963306 -124.61416 14671567
-52.102463 -61.0284 -124.85291 15722974
-51.046928 -61.228748 -125.0589 15722462
-50.052399 -61.306755 -125.29809 14801357
-49.059631 -61.387585 -125.53574 10327947
-40.101204 -61.273968 -126.67123 8616048
-39.125164 -61.161774 -126.6173 8089705
-38.153767 -61.05275 -126.56267 8879476
-37.12513 -61.120541 -126.43842 9077371
-36.172195 -60.992203 -126.39178 10064780
-35.323372 -60.627747 -126.44884 8092019
-64.593651 -59.617287 -122.63422 10591377
-62.505547 -59.715851 -122.9369 9735299
-61.769615 -59.745651 -123.13152 9735299
-60.882454 -59.771458 -123.38852 8551025
-59.883942 -59.934391 -123.49457 8353902
-58.86132 -60.039715 -123.66132 7104091
-57.916206 -60.048416 -123.90965 9011830
-56.950165 -60.113503 -124.12695 9406334
-55.982224 -60.206005 -124.30617 7697261
-55.018398 -60.265232 -124.51925 8223348
-54.002708 -60.278439 -124.78313 9539464
-52.965027 -60.346008 -125.00993 15723486
-51.782284 -60.589504 -125.13604 15722462
-51.31488 -60.567638 -125.27977 15722462
-38.918293 -60.511082 -126.8849 9931905
-38.254082 -60.421665 -126.88692 8682098
-37.139755 -60.322926 -126.85177 9273977
-36.271347 -60.160625 -126.88865 11313815
-35.190437 -60.049084 -126.86652 9472900
-34.14539 -59.900467 -126.90293 10328206
-33.131592 -59.912693 -126.76586 11972514
-32.03141 -59.646332 -126.89451 8551282
-31.242994 -59.58992 -126.97001 7630953
-74.544907 -58.97913 -121.44043 6840925
-73.821701 -59.011791 -121.78714 8881019
-72.859428 -59.029186 -122.17667 10262925
-71.990593 -59.193062 -122.33822 10722964
-70.753799 -59.324734 -122.4086 7499369
-69.742958 -59.323132 -122.2428 6644055
-68.78112 -59.352814 -122.59993 6906455
-68.001244 -59.389774 -122.58981 7301213
-66.833984 -59.405579 -122.73634 7039322
-65.916603 -59.409389 -122.97923 8223083
-64.853912 -59.44949 -123.12052 12301994
-63.951172 -59.499088 -123.19781 14012612
-63.115326 -59.507607 -123.39326 8090987
-61.971527 -59.504417 -123.70987 8814710
-61.199486 -59.473156 -124.0201 10065036
-59.8769 -59.59811 -123.96011 7959144
-59.260719 -59.574837 -124.20198 6775126
-33.106434 -59.551998 -127.27959 10327690
-32.158295 -59.488064 -127.3845 8551282
-31.100845 -59.458755 -127.36858 7302246
-30.20355 -59.441113 -127.33207 7828331
-29.260195 -59.381248 -127.42462 7762027
-28.247103 -59.329102 -127.60593 8354163
-27.166319 -59.274956 -128.1012 7629926
-26.247042 -59.274082 -128.29813 8682100
-25.197523 -59.272469 -128.16614 8550257
-24.322626 -59.271393 -128.25313 9273721
-23.303648 -59.270267 -128.38574 9536380
-22.09865 -59.268425 -128.23407 9340021
-21.17857 -59.267433 -128.39438 8682351
-20.257376 -59.266468 -128.54807 8616043
-19.335089 -59.265484 -128.69504 9208182
-18.257736 -59.264263 -128.85789 9142646
-17.17915 -59.263077 -129.01216 8616301
-16.253597 -59.261997 -129.13692 9011057
-15.327121 -59.260937 -129.25497 8682351
-14.399862 -59.259865 -129.36636 10261129
-13.317083 -59.258614 -129.48764 9997445
-12.233344 -59.257324 -129.60022 8089963
-11.303679 -59.256218 -129.6893 8221805
-10.373383 -59.2551 -129.77158 9472130
-9.4425116 -59.254002 -129.84723 9472130
-8.3138504 -59.251381 -130.2925 9866887
-7.2602029 -59.142357 -130.5038 8287853
-6.4048162 -59.066895 -130.60132 8814453
-5.4340634 -58.967537 -130.7523 8090987
-4.4933209 -58.931953 -130.71606 10196107
-3.3971 -58.893925 -130.67265 10393485
-2.3649373 -58.828091 -130.64275 9932934
-1.6781898 -58.675663 -130.66246 8682867
-75.665695 -57.942768 -121.29291 7630435
-74.851723 -58.114548 -121.62996 6906971
-73.886505 -58.114311 -122.10976 9999497
-73.093224 -58.302483 -122.43017 10855060
-6.309236 -58.42252 -130.99731 9274236
-5.4024425 -58.23243 -131.01938 8945527
-4.506187 -58.104393 -131.01929 11051416
-3.4074121 -58.066776 -130.97556 11051415
-2.3098512 -58.032536 -130.93063 10064520
-1.3700442 -58.006104 -130.89113 8617074
-0.49439389 -57.785553 -130.92595 11906725
0.35043758 -57.634018 -130.93709 7564643
-106.41655 -56.680466 -117.93405 8617847
-76.563309 -57.018124 -121.20955 8288366
-75.72142 -57.103374 -121.5945 7038298
-74.80072 -57.067451 -122.06618 7959401
-74.040955 -57.279587 -122.36048 9999497
-4.3590884 -57.437157 -131.25545 10524558
-3.4848351 -57.266022 -131.27226 10327692
-2.4337916 -57.014683 -131.30917 10393486
-1.3767333 -57.015224 -131.25369 9932935
-0.43505627 -56.991699 -131.21301 11051416
0.50593036 -56.97073 -131.17143 7762026
1.4857202 -56.827969 -131.17239 7038307
2.3874574 -56.606544 -131.20612 7038307
-105.69982 -56.599903 -118.27949 7630187
-104.34998 -56.544498 -117.63268 8287859
-103.64103 -56.465912 -117.97221 10129801
-102.60219 -56.362179 -118.50406 8682867
-101.9146 -56.29641 -118.86097 8682867
-100.59464 -56.238022 -118.19395 9735812
-99.741058 -56.156712 -118.62892 9472383
-98.71524 -56.059376 -119.14385 8089963
-97.261475 -55.987614 -118.55784 8089963
-96.576889 -55.920574 -118.88496 10392460
-95.720184 -55.836807 -119.28905 9734531
-95.034096 -55.769951 -119.60821 8616307
-77.693466 -55.984497 -121.05345 9274233
-76.848328 -56.068001 -121.44071 8287854
-75.924316 -56.030045 -121.91479 6972505
-75.16156 -56.240635 -122.21126 8288365
-2.1678891 -56.376389 -131.52856 11446174
-1.3377528 -56.118294 -131.5795 10459279
-0.43913609 -56.00201 -131.57498 10130314
0.50444454 -55.981331 -131.53317 9537667
1.5101628 -55.995026 -131.47554 7367271
2.5897794 -55.914616 -131.44846 8024941
3.6016431 -55.836945 -131.42392 8551023
4.4335027 -55.592758 -131.46967 8616556
-93.365189 -55.63485 -118.98311 7761248
-92.643776 -55.544758 -119.24065 8353127
-91.742081 -55.432316 -119.55775 7234910
-90.840279 -55.320221 -119.86847 6577492
-89.758339 -55.185974 -120.23376 5919820
-89.037109 -55.096725 -120.47285 6117199
-79.353012 -54.776623 -120.84686 6511954
-78.643204 -54.976154 -121.03049 6511954
-77.788383 -55.034836 -121.41032 7103834
-76.83902 -55.070118 -121.85208 7038041
-76.059502 -55.314671 -122.12831 6511954
-0.12664944 -55.335423 -131.80232 9011833
0.56632656 -55.189072 -131.81955 9800582
1.4485688 -54.974789 -131.85175 9537667
2.507935 -54.987629 -131.79161 10130058
3.5901685 -54.910458 -131.76318 9735555
4.5970311 -54.932919 -131.7023 10195591
5.4971395 -54.831951 -131.69209 8484715
6.3320355 -54.592419 -131.73596 9208435
-82.638252 -54.1096 -120.40516 7037274
-81.681107 -54.103664 -120.71304 8353132
-80.730003 -54.102108 -121.02425 8090987
-79.80426 -54.221344 -121.20996 7367263
-78.856422 -54.302757 -121.47998 7564384
-77.912933 -54.376148 -121.81346 6511954
1.7650266 -54.310703 -132.07791 10853012
2.4597516 -54.168327 -132.09361 11906725
3.5451818 -53.986622 -132.10324 11643553
4.6068044 -53.94574 -132.06265 11511966
5.5532002 -53.938625 -132.01575 9471609
6.4994092 -53.933918 -131.96794 9866623
7.4021897 -53.837734 -131.95589 10459537
8.3983345 -53.60289 -131.98955 10459537
4.5617642 -53.178879 -132.34531 11709345
5.5655618 -52.952133 -132.37569 11117207
6.5143876 -52.947453 -132.32774 11642779
7.4630723 -52.945198 -132.27895 11576985
8.4742126 -52.978306 -132.21394 11380380
9.5035458 -52.838844 -132.21104 10458511
10.475933 -52.624889 -132.23842 9735046
5.8906713 -52.292778 -132.5997 11906725
6.5897527 -52.158367 -132.61218 11905693
7.4805818 -51.959187 -132.63844 10063491
8.4318237 -51.959282 -132.58864 8090217
9.3831253 -51.961716 -132.53796 8748149
10.493124 -51.967606 -132.47777 8090993
11.560894 -51.882172 -132.45312 8222060
12.407034 -51.656086 -132.49152 8353647
7.8099465 -51.301704 -132.86153 7037274
8.5114555 -51.170765 -132.87273 5721414
9.4446316 -51.017143 -132.88005 7629923
10.359787 -50.980637 -132.84549 8682612
11.428795 -51.018578 -132.77573 8156523
12.524097 -50.966965 -132.73727 8682611
13.499571 -50.91835 -132.70401 6182478
14.350025 -50.69611 -132.74074 6971994
10.45846 -50.241867 -133.11041 11577503
11.380611 -50.043221 -133.13475 9209211
12.414042 -50.042168 -133.08105 8946040
13.512905 -49.992962 -133.04161 6182478
14.533817 -50.041122 -132.97061 7301215
15.450617 -49.963036 -132.95125 6906457
16.305672 -49.744469 -132.98648 9142907
12.401785 -49.2724 -133.36311 13550777
13.393719 -49.110764 -133.37038 9932420
14.454941 -49.023048 -133.34697 8024938
15.531652 -49.071102 -133.27315 8879734
16.49361 -49.089802 -133.21603 9603202
17.414724 -49.015629 -133.19505 9405818
18.113941 -48.796581 -133.23856 9208435
14.357075 -48.311207 -133.61235 8814710
15.407516 -48.147377 -133.61736 9734788
16.47238 -48.068565 -133.59055 9800580
17.500662 -48.123238 -133.51683 9997439
18.466831 -48.145977 -133.45798 9471607
19.447783 -47.896347 -133.49803 10129800
20.351671 -47.618862 -133.55228 10525071
16.325008 -47.357647 -133.85817 9603199
17.338306 -47.161167 -133.87703 10194562
18.450737 -47.123489 -133.83266 9668732
19.491905 -47.017601 -133.817 8749178
20.471678 -46.87936 -133.81635 9538179
21.406179 -46.865532 -133.77255 7300702
22.35149 -46.688641 -133.78781 6510930
17.574583 -46.477028 -134.11485 11378324
18.292473 -46.361279 -134.11963 10260613
19.246822 -46.149757 -134.14708 9209215
20.41827 -45.93404 -134.19926 7630954
21.397768 -45.930069 -134.16551 6510930
22.421135 -45.930946 -134.12 6708565
23.424061 -45.954933 -134.05621 8682867
24.381294 -45.79142 -134.09975 8288109
25.124237 -45.738491 -134.08954 7366751
21.400303 -45.311806 -134.53806 6510930
22.228312 -45.175945 -134.56142 6642516
23.285912 -45.083202 -134.56148 7958888
24.31279 -45.081573 -134.49681 7959144
25.36956 -45.026775 -134.52379 7762021
26.382912 -44.863064 -134.59776 7235677
27.308065 -44.733223 -134.71249 7432800
28.238337 -44.629818 -134.67043 9735300
27.711008 -44.448589 -135.38211 9142907
28.344343 -44.426342 -135.1851 9866886
29.406612 -44.097469 -135.24316 10393485
30.345577 -43.959816 -135.06609 9604225
30.981964 -43.759445 -134.88243 9209467
29.760637 -43.49263 -135.49315 9406078
30.349144 -43.127777 -135.39429 9012088
31.262465 -43.032349 -135.05446 9209467
30.479864 -42.477039 -135.68129 8682867
31.308935 -42.229008 -135.50005 9340797
32.198082 -41.894016 -135.37271 9537921
32.435745 -41.392426 -135.77826 10064265
33.285576 -41.127636 -135.66666 9603714
34.189545 -40.803699 -135.63545 10590608
35.073349 -40.516468 -135.55167 10459022
36.276802 -40.222137 -135.52338 9537664
39.545677 -40.382156 -136.58238 8222317
40.12764 -40.309925 -136.15233 7301218
41.214931 -40.201942 -136.82932 6840925
41.795105 -40.129654 -136.39011 8092019
43.185158 -39.984043 -136.83769 8947325
44.444828 -39.854759 -137.39444 9670533
45.021091 -39.7826 -136.93675 14077894
46.2938 -39.651733 -137.48367 14077894
46.866913 -39.579815 -137.0163 14077894
47.723846 -39.501244 -137.91049 14077894
48.295746 -39.429276 -137.43423 12564399
49.595863 -39.295139 -137.96796 9209467
50.022739 -39.241211 -137.60374 9209467
51.336388 -39.105465 -138.12958 10327435
51.761375 -39.051579 -137.75826 10855060
53.229446 -38.896286 -138.15004 9407358
54.430603 -38.775101 -138.79277 10261644
54.993233 -38.70343 -138.27946 8813942
56.34914 -38.562649 -138.78583 10261644
56.768768 -38.508991 -138.39372 9077114
58.277695 -38.348686 -138.75902 8879222
59.939949 -38.168774 -138.98294 7564651
61.339375 -38.022808 -139.47151 12630445
61.753708 -37.969376 -139.05858 12827569
63.167519 -37.821678 -139.53886 9275004
63.579468 -37.768444 -139.1188 9932934
65.007805 -37.618942 -139.59067 9142393
66.669388 -37.495312 -140.08627 10786703
67.076118 -37.441154 -139.64819 8682867
68.911682 -37.308956 -140.02568 11051411
70.767456 -37.174614 -140.39389 9800837
72.377243 -37.074627 -141.06245 11708572
72.776642 -37.019894 -140.59744 11050899
74.672318 -36.881222 -140.94327 11116692
-44.907433 -62.675499 -126.16418 10065543
-44.055473 -62.783756 -126.35349 9210491
-43.355583 -62.811672 -126.42345 12038562
-46.967369 -61.810726 -125.93913 7563619
-46.048359 -61.933632 -126.14064 7563619
-45.149727 -61.998543 -126.35916 8945783
-44.220253 -61.96706 -126.62319 8090730
-43.21682 -62.099392 -126.67159 9931905
-42.235214 -61.951458 -126.63029 10128770
-41.534477 -61.590878 -126.69439 10984335
-49.845592 -60.823505 -125.54037 16248798
-48.98336 -60.920128 -125.73657 9670017
-48.081997 -61.085743 -125.91676 9340797
-47.147621 -61.046337 -126.18493 7563619
-46.214012 -61.009701 -126.45187 9537665
-45.28186 -60.976715 -126.71942 10393230
-44.350616 -60.946918 -126.98672 8287341
-43.298771 -61.153107 -127.02725 8353135
-42.30505 -61.032368 -126.97508 8945013
-41.251545 -61.089798 -126.85321 9536891
-40.309593 -60.847111 -126.84832 8813426
-39.584446 -60.602154 -126.88261 9734014
-56.104729 -59.638779 -124.83512 9932938
-55.104927 -59.727604 -125.01006 9472644
-53.988087 -59.869793 -125.11359 9934221
-53.102631 -59.900253 -125.32822 13157818
-52.11792 -60.003242 -125.51221 14406603
-51.120903 -60.068333 -125.73519 14669775
-50.20417 -60.073437 -125.99232 14077633
-49.220329 -60.177162 -126.15658 9998984
-48.314217 -60.17942 -126.39975 8353904
-47.31041 -60.255188 -126.61088 7826791
-46.435116 -60.300133 -126.81175 10261388
-45.560539 -60.346954 -127.01101 11051416
-43.268631 -60.522636 -127.30673 9340030
-42.421104 -60.401562 -127.31464 8287342
-41.248787 -60.199326 -127.35194 8813425
-40.286903 -60.103817 -127.32912 10128515
-39.281387 -60.029522 -127.29522 10326149
-38.351746 -59.892769 -127.33732 9010806
-37.319454 -59.808048 -127.26611 9076599
-36.262817 -59.609371 -127.42287 9471871
-71.800766 -58.884399 -122.84413 10855061
-71.000153 -58.980652 -123.14923 7433064
-70.089745 -59.040806 -123.52077 7629150
-69.174469 -59.212563 -123.84023 6839893
-68.044456 -59.322781 -123.585 6644311
-67.097984 -59.321766 -123.73706 10393993
-66.209244 -59.321243 -124.22234 10130822
-65.010544 -59.319046 -123.76867 8683124
-63.973312 -59.318447 -124.31682 11709601
-63.035194 -59.340019 -124.3261 7433057
-62.066002 -59.330078 -124.26232 8222572
-60.989433 -59.371078 -124.49062 12629933
-60.142662 -59.381012 -124.72623 9012862
-58.975441 -59.432491 -124.75007 7630693
-58.143524 -59.446587 -124.92596 9537918
-57.178238 -59.465759 -125.1207 9275262
-56.020195 -59.46244 -125.44162 10459025
-55.122581 -59.491848 -125.58442 9012350
-54.256721 -59.58091 -125.52131 8092019
-53.177116 -59.549622 -125.91393 11775910
-37.850891 -59.559471 -127.74374 8089963
-37.209927 -59.512379 -127.82699 9471357
-36.133522 -59.475803 -127.83205 9932421
-35.219337 -59.452087 -127.81303 9800579
-34.26321 -59.385292 -127.92619 9340797
-33.320126 -59.340569 -128.08005 9867396
-32.383209 -59.308102 -128.25337 9538176
-31.473989 -59.283558 -128.20656 8551283
-30.270433 -59.27935 -128.27258 8945784
-29.196337 -59.278316 -128.52798 7169891
-28.273979 -59.277359 -128.7395 8222321
-27.350107 -59.276394 -128.94443 7827049
-26.424772 -59.275482 -129.14261 8418928
-25.498045 -59.274555 -129.33408 9207929
-24.415089 -59.273396 -129.54889 10128515
-23.214062 -59.271793 -129.55708 9142134
-22.323763 -59.270569 -129.49931 9208179
-21.394554 -59.269581 -129.66118 9931902
-20.512583 -59.268478 -129.72104 9076595
-19.466419 -59.266853 -129.53848 10063752
-18.381958 -59.265598 -129.70241 9405820
-17.296223 -59.264431 -129.85765 9011057
-16.364557 -59.263371 -129.98323 8221545
-15.432003 -59.262302 -130.1021 7038298
-14.498625 -59.261192 -130.21423 7958886
-13.331575 -59.186672 -130.7222 8748148
-12.361994 -59.071106 -130.89145 9537665
-11.415682 -59.034039 -130.90155 8814199
-10.47024 -58.998775 -130.9088 8156529
-9.5256138 -58.965324 -130.91316 9603460
-8.4800148 -58.82021 -130.95636 10261132
-7.5378671 -58.669067 -130.97148 9406079
-72.743721 -57.859215 -122.77781 10723475
-71.903824 -58.084835 -123.10667 9604741
-70.963303 -58.067005 -123.5811 7761769
-70.259529 -58.362671 -123.8149 6839893
-12.084991 -58.459637 -131.28592 9734788
-11.391127 -58.287098 -131.3127 8616822
-10.509451 -58.039577 -131.35704 7104100
-9.5588188 -57.990536 -131.32521 8682615
-8.609621 -57.94413 -131.29254 9800837
-7.5021167 -57.97628 -131.22284 8551025
-6.4602551 -57.981178 -131.16653 9274492
-5.6124759 -57.814522 -131.18312 8287341
-107.43254 -56.69698 -118.76056 11379348
-73.800476 -56.911358 -122.6245 8288627
-72.961105 -57.00341 -123.00553 9604740
-72.067474 -57.07864 -123.42014 8025456
-71.365845 -57.315037 -123.67605 7038307
-9.5015831 -57.240276 -131.59647 7367266
-8.5885954 -57.042366 -131.62103 8748404
-7.4901013 -56.949162 -131.59763 7564386
-6.4138474 -57.184093 -131.45547 8089962
-5.4671588 -57.14682 -131.41954 8813685
-4.5680337 -57.01931 -131.41913 9537664
-3.5812926 -56.749653 -131.46608 10261641
-106.71615 -56.619404 -119.11591 8353389
-104.81501 -56.505718 -118.71912 8682616
-103.77535 -56.405579 -119.26569 8682867
-103.08168 -56.339138 -119.62617 8682867
-101.39827 -56.247101 -119.1259 9735812
-100.70914 -56.18148 -119.4762 8616303
-99.846687 -56.099682 -119.9088 7957860
-97.685867 -55.961296 -119.64838 11445143
-96.822067 -55.877007 -120.057 10853012
-95.956879 -55.792713 -120.45919 9339773
-94.51915 -55.719906 -119.8453 8681835
-94.159966 -55.677414 -119.98249 8681835
-74.920807 -55.871719 -122.47564 7367007
-74.045471 -56.140556 -122.80519 7695720
-73.123848 -56.110264 -123.27512 8024170
-72.291847 -56.443996 -123.55764 8024429
-7.307652 -56.144928 -131.88208 7432544
-6.4345231 -56.191719 -131.81931 7037274
-5.4852166 -56.154991 -131.78305 8418927
-4.5369945 -56.120811 -131.74594 8551281
-3.5898461 -56.089176 -131.70795 9735297
-2.5496917 -55.991394 -131.68929 9143161
-1.5432029 -55.699417 -131.74336 9538177
-93.613434 -55.609173 -120.17648 7761248
-92.702446 -55.495644 -120.49504 6380368
-91.791504 -55.382393 -120.80793 6445906
-90.880692 -55.269478 -121.11446 6445906
-90.152107 -55.179253 -121.35583 5722700
-88.496216 -55.029858 -120.64941 6117199
-87.775223 -54.940929 -120.88157 6510930
-86.8741 -54.830006 -121.16633 7301989
-85.793106 -54.697247 -121.50066 7630181
-76.526245 -54.627514 -122.21862 6511954
-75.729813 -55.085953 -122.3819 7630179
-74.859596 -55.090038 -122.81278 8287853
-73.990311 -55.319927 -123.15459 9340286
-73.221375 -55.574459 -123.43686 7563619
-6.1311069 -55.518028 -132.04964 8287341
-5.4361796 -55.35968 -132.07123 9274236
-4.5524135 -55.13018 -132.10889 9011831
-3.6026235 -55.098984 -132.07057 9340796
-2.6538148 -55.070316 -132.03143 9735297
-1.5479789 -55.040066 -131.98462 8682867
-0.48275715 -54.97279 -131.95348 8748663
0.42380947 -54.747231 -131.98848 8879995
-84.892563 -54.586922 -121.773 8616819
-83.992317 -54.476952 -122.03917 8222317
-83.27243 -54.389091 -122.24837 7564642
-81.929688 -54.085865 -122.16657 7564642
-80.803154 -53.825672 -122.07246 7301470
-79.832848 -53.737228 -121.98673 7367263
-78.901321 -53.840389 -122.0548 8287850
-77.994896 -53.923405 -122.25946 9735039
-77.014374 -54.021347 -122.55528 6511954
-75.976837 -54.247921 -122.77486 6906712
-75.022675 -54.396976 -123.07575 8485233
-74.342003 -54.532932 -123.28862 10787988
-3.5328784 -54.354374 -132.33914 10656398
-2.6238389 -54.121304 -132.37674 11775134
-1.5980868 -54.082451 -132.33728 9011831
-0.51073605 -53.993351 -132.31299 8090991
0.50152248 -54.004719 -132.25587 7630443
1.410275 -53.946602 -132.22957 9669253
2.3193097 -53.726181 -132.26259 11906725
3.0307126 -53.633884 -132.25906 11906725
-79.461014 -53.613174 -122.27046 8287850
-78.806694 -53.566574 -122.54793 10064003
-78.152702 -53.520622 -122.82397 10064003
-1.7184291 -53.396545 -132.59428 9998725
-0.54616123 -53.10511 -132.6395 9143423
0.50005573 -53.017277 -132.6169 7564651
1.4508328 -52.999889 -132.57349 10261903
2.4010339 -52.984886 -132.52925 12169897
3.3508077 -52.972263 -132.48421 11577760
4.3549638 -52.742405 -132.51567 11906725
0.5784573 -52.275486 -132.8839 8814459
1.4916806 -52.053604 -132.91725 8748919
2.4047837 -51.99836 -132.88968 12433069
3.3571324 -51.985947 -132.84438 12235690
4.3090863 -51.975834 -132.79823 12038311
5.3764882 -51.937523 -132.75644 11577759
6.4537511 -51.715282 -132.78131 11050385
2.4072709 -51.34087 -133.12984 10985623
3.4083467 -51.093307 -133.168 12433069
4.3179955 -50.989979 -133.15816 11117208
5.2722135 -50.982353 -133.11104 9998983
6.3852525 -50.976437 -133.05496 8090218
7.4591012 -50.93251 -133.01486 7629410
8.3774452 -50.727077 -133.0419 8419439
9.0951233 -50.64624 -133.03394 7169373
4.4832959 -50.331413 -133.39027 8486256
5.3282342 -50.09037 -133.43419 8486003
6.2403035 -49.991554 -133.42258 7827565
7.3561902 -49.988361 -133.36536 8616562
8.4719963 -49.988117 -133.30707 9406334
9.4284534 -49.990421 -133.25618 9011576
10.326342 -49.797474 -133.27974 11774882
11.031889 -49.670635 -133.28917 10130057
6.4093671 -49.333973 -133.65408 9932679
7.2575612 -49.096985 -133.69632 8617336
8.288044 -49.032471 -133.66597 11511967
9.3878899 -48.971981 -133.63057 8946040
10.410307 -49.009457 -133.5634 10459022
11.36973 -49.016174 -133.51076 10393229
12.271534 -48.827274 -133.53264 10853779
12.980108 -48.703609 -133.54083 11511708
8.3453598 -48.345623 -133.91405 13551549
9.3288803 -48.128681 -133.94193 8552312
10.372236 -47.990788 -133.93777 8748661
11.397572 -48.03054 -133.86961 9932678
12.359852 -48.039303 -133.81615 11972002
13.322559 -48.05027 -133.76186 10985620
14.228611 -47.865173 -133.78214 9078139
14.940563 -47.744461 -133.78911 8814971
10.613001 -47.367809 -134.15291 8090991
11.468761 -47.139057 -134.19182 10722194
12.390322 -47.053406 -134.17503 10196105
13.355606 -47.064106 -134.12065 9209467
14.32135 -47.077019 -134.06544 8289139
15.287659 -47.092068 -134.00946 8486006
16.198305 -46.910652 -134.02821 9406078
12.571756 -46.397572 -134.40533 9209467
13.431652 -46.172268 -134.44273 10130057
14.357016 -46.090389 -134.42433 9932681
15.325932 -46.105129 -134.36829 8814971
16.295511 -46.122013 -134.31145 10195333
17.276329 -45.984802 -134.33862 10260611
18.218357 -45.757683 -134.41142 9800320
19.262245 -45.576168 -134.52289 9340801
19.911791 -45.590752 -134.47745 9340801
14.711887 -45.461376 -134.71722 10064267
15.360949 -45.475819 -134.69295 9603973
16.348886 -45.353748 -134.77341 10853004
17.29471 -45.13118 -134.8689 9997951
18.372665 -44.974503 -134.92188 9734784
19.311636 -44.955856 -134.88254 8880764
20.288439 -44.976788 -134.81071 7696232
21.227583 -44.910225 -134.79401 6774102
22.374714 -44.639706 -135.05927 7432032
23.341358 -44.53891 -135.28307 8879990
24.324966 -44.563309 -135.19356 7827302
24.981043 -44.580254 -135.13223 8288109
21.212324 -44.490597 -135.46567 8090474
22.030844 -44.508339 -135.39748 7563874
23.263027 -44.329838 -135.80797 9406334
24.085773 -44.349823 -135.73402 7432288
25.162159 -44.183968 -135.86667 8617078
26.215376 -44.105766 -135.87503 7498850
27.182623 -43.986809 -135.96471 8814198
28.164389 -43.908039 -135.95598 8550514
28.926521 -43.805264 -135.71156 9800836
26.19002 -43.502003 -136.23079 9143681
27.391756 -43.227901 -136.32849 9142907
28.343187 -43.021786 -136.28326 9472128
29.192335 -42.867966 -136.01389 9208700
29.83428 -42.669014 -135.83846 9011576
29.278902 -42.250256 -136.4269 9274493
30.205175 -41.954689 -136.26657 9471871
31.180832 -41.66909 -136.07396 9668993
31.229189 -41.226021 -136.59409 10129543
32.193619 -40.94965 -136.45607 10392714
33.029804 -40.695961 -136.35403 10590608
36.415413 -40.742954 -137.36618 10063753
38.372841 -40.52766 -137.43797 10063753
38.960724 -40.454727 -137.01096 9998215
40.046158 -40.347298 -137.70375 8090989
40.632317 -40.274433 -137.26741 6840925
42.023613 -40.128948 -137.73228 8486777
43.429207 -39.981731 -138.1922 13552573
43.865555 -39.927269 -137.85081 11710372
45.138306 -39.796631 -138.41446 12433586
45.717644 -39.724003 -137.94969 13222844
47.148216 -39.573677 -138.38519 14077894
48.44883 -39.439831 -138.93596 12959157
49.023663 -39.367317 -138.45251 11906469
50.194542 -39.249874 -139.11652 11840676
50.767021 -39.177521 -138.62364 10064520
52.23748 -39.022182 -139.03099 9736327
53.864128 -38.847115 -139.30484 9670274
55.221085 -38.70652 -139.82874 10261644
55.786488 -38.634434 -139.30774 11709090
57.016647 -38.510063 -139.95392 12433069
57.438965 -38.456097 -139.55615 6511954
57.719448 -38.420147 -139.29065 6511954
58.964165 -38.294048 -139.92891 8485234
60.225159 -38.166233 -140.57034 7564651
60.783684 -38.094391 -140.02127 9209473
62.199272 -37.946747 -140.51726 6511954
62.615425 -37.893009 -140.09822 8682867
63.907112 -37.761578 -140.72789 10853780
64.459427 -37.690044 -140.15974 9142393
65.986877 -37.585781 -140.81512 10063493
67.555199 -37.49065 -141.51343 8682867
68.100395 -37.417797 -140.91913 10459275
69.960419 -37.283909 -141.30501 10788244
71.84095 -37.14798 -141.68152 9735555
74.009064 -36.973019 -141.73282 10853521
75.66478 -36.869473 -142.40561 11511449
-43.776955 -60.594002 -127.29667 9734788
-49.733322 -59.631653 -126.56398 8617590
-49.116203 -59.617664 -126.77558 8091503
-48.248779 -59.678181 -126.94014 7564133
-47.276863 -59.805305 -126.97768 8353135
-46.145592 -59.917377 -127.19439 9866886
-45.143272 -59.99884 -127.40058 9603714
-44.238934 -60.010929 -127.63548 7432032
-43.260994 -59.926006 -127.77664 8879479
-42.269379 -59.874046 -127.72457 8879479
-41.232143 -59.651619 -127.81214 9208440
-40.584488 -59.59882 -127.90032 9010803
-69.580452 -58.699532 -124.00275 6839893
-68.920975 -58.74604 -124.22154 6642773
-68.140137 -59.108112 -124.3602 7038307
-67.234802 -59.086426 -124.68936 8682873
-66.178955 -59.069637 -124.97974 7696229
-65.238586 -59.126926 -125.18388 7104091
-64.25206 -59.268147 -125.39632 7959401
-63.175507 -59.318996 -125.45538 8814710
-62.184193 -59.317341 -125.23588 7301470
-61.284775 -59.316792 -125.68565 10065036
-60.34309 -59.315723 -125.79375 7565675
-59.214256 -59.313976 -125.63133 6775384
-58.161438 -59.313274 -126.13065 6511954
-57.213684 -59.316662 -126.06308 7761768
-56.259438 -59.310459 -125.96822 11379614
-55.211891 -59.338306 -126.25662 9275522
-54.305557 -59.357307 -126.45159 8092019
-53.234688 -59.378788 -126.46416 7697005
-52.200432 -59.436729 -126.54904 8946046
-51.271347 -59.412785 -126.87704 9406597
-50.368881 -59.433563 -127.04965 7828332
-49.312096 -59.452034 -127.27148 8091503
-48.256977 -59.47176 -127.48853 10326924
-47.2631 -59.578831 -127.40005 14865098
-46.335014 -59.561398 -127.70625 10260616
-45.406281 -59.545227 -128.00839 10787988
-42.21093 -59.556698 -128.20081 9011065
-41.399315 -59.492863 -128.3195 9208440
-40.296051 -59.475048 -128.26236 9076597
-39.374504 -59.421764 -128.33632 10786958
-38.412865 -59.359859 -128.48946 9931649
-37.508209 -59.329971 -128.60117 8090220
-36.402973 -59.295029 -128.47531 7827306
-35.476181 -59.286911 -128.72318 9142907
-34.398003 -59.285858 -129.02199 9341054
-33.317459 -59.284855 -129.31218 8748917
-32.389317 -59.283966 -129.55345 8748143
-31.353127 -59.282333 -129.35988 9668734
-30.450731 -59.281143 -129.35379 10260358
-29.394466 -59.279781 -129.37772 7169891
-28.465937 -59.278751 -129.59067 6840926
-27.535915 -59.277878 -129.79691 8418928
-26.604467 -59.276955 -129.99643 9011065
-25.515863 -59.275806 -130.2205 9734271
-24.425539 -59.274689 -130.43584 9931137
-23.489511 -59.273697 -130.61288 11181201
-22.552248 -59.272701 -130.78314 9734523
-21.613764 -59.271687 -130.94669 10392453
-20.561165 -59.270226 -130.9008 9340028
-19.586195 -59.268929 -130.89766 9011065
-18.486158 -59.139713 -131.06396 8945014
-17.476351 -59.07708 -131.15643 8550255
-16.522062 -59.030499 -131.1819 7695204
-15.568853 -58.985695 -131.20448 8616559
-14.616693 -58.942787 -131.22426 8945267
-13.789729 -58.896358 -131.21544 8222059
-70.690849 -57.655926 -123.87779 8681835
-69.985397 -57.951283 -124.1087 7760736
-69.031479 -58.123409 -124.41719 6577238
-68.034729 -58.240086 -124.73048 7959407
-67.070869 -58.181511 -125.09783 10722451
-66.142227 -58.395348 -125.34669 8090986
-17.457222 -58.392086 -131.59166 7498337
-16.535303 -58.171005 -131.62424 7498596
-15.623211 -58.013027 -131.63426 9077114
-14.662443 -57.949924 -131.60706 10523528
-13.637025 -58.09774 -131.49939 9668737
-12.57716 -58.088543 -131.4473 8813686
-11.549817 -57.846535 -131.48206 7893100
-108.29091 -56.698341 -119.69756 11379348
-71.03685 -57.090996 -123.9275 7695718
-70.173569 -57.105247 -124.35048 8023907
-69.189354 -57.234261 -124.69658 7498081
-68.249672 -57.278301 -125.01686 8025200
-67.515228 -57.490288 -125.20005 8485494
-15.493713 -57.335735 -131.87502 9209215
-14.633475 -57.146702 -131.89914 11051158
-13.740355 -57.002388 -131.90518 9406080
-12.612707 -57.157776 -131.7894 8879479
-11.496558 -57.094883 -131.754 8813943
-10.541679 -57.043911 -131.72266 8156271
-9.6577339 -56.799755 -131.76567 8156526
-8.8041382 -56.625893 -131.78456 8156778
-107.76309 -56.647243 -119.98169 9471355
-105.84066 -56.533726 -119.57845 11511704
-104.96683 -56.449749 -120.03812 9406074
-104.0918 -56.365952 -120.49252 7432031
-102.56078 -56.289474 -119.89378 7892581
-101.86561 -56.223259 -120.24755 8089958
-100.99554 -56.140709 -120.68444 7234652
-100.2988 -56.074837 -121.03043 7037274
-98.810066 -56.001732 -120.42049 8550513
-97.940773 -55.917835 -120.83574 10260871
-97.067917 -55.832783 -121.24187 8682867
-96.369049 -55.764885 -121.56313 7761253
-94.917404 -55.691803 -120.93455 7037785
-72.02272 -56.103062 -123.82516 8682101
-71.096786 -56.231956 -124.23478 8024425
-70.167244 -56.252872 -124.6839 7366749
-69.331406 -56.434288 -124.94792 7892838
-13.43811 -56.539722 -132.05846 7039331
-12.584139 -56.224049 -132.12918 7958634
-11.531456 -56.099289 -132.11974 9932163
-10.573881 -56.049038 -132.08798 8616820
-9.6178646 -56.001381 -132.0554 7564644
-8.6633558 -55.956287 -132.02196 8288108
-7.7578588 -55.821251 -132.02396 9340539
-7.0829415 -55.556042 -132.08553 9340286
-93.860229 -55.581596 -121.38078 7761248
-92.942131 -55.468533 -121.69958 7366493
-92.021965 -55.354385 -122.00899 7169117
-89.787895 -55.134235 -121.4749 6511954
-89.059494 -55.044407 -121.70997 5985614
-87.967194 -54.909882 -122.05591 6708823
-87.05722 -54.798138 -122.33785 6972766
-86.147537 -54.686691 -122.61356 6709591
-73.659592 -54.870018 -123.49544 10787988
-72.948326 -55.162312 -123.73426 8418928
-72.055565 -55.181622 -124.17039 8550514
-71.163422 -55.203159 -124.60529 9010548
-70.455276 -55.49958 -124.84087 7761250
-11.394669 -55.427341 -132.35817 9932163
-10.557261 -55.147221 -132.41678 8879735
-9.6473827 -55.007893 -132.42009 11445656
-8.690197 -54.963501 -132.38628 9340795
-7.7344108 -54.921574 -132.35159 12366503
-6.6705241 -55.043285 -132.25145 8813942
-5.5870109 -54.919106 -132.24017 8616562
-85.056389 -54.553295 -122.93689 8616819
-82.912636 -54.345264 -122.35153 7038298
-76.010185 -53.666328 -123.35034 9866373
-75.014587 -53.839954 -123.55649 10327437
-74.006073 -54.154713 -123.7335 11972518
-73.107262 -54.161453 -124.13955 10326668
-72.22258 -54.294952 -124.45323 8089963
-71.567116 -54.451847 -124.69951 9010808
-9.3472195 -54.330841 -132.6519 14076861
-8.6477003 -54.166809 -132.67523 8419693
-7.758594 -53.930012 -132.7153 10195593
-6.6272635 -54.011581 -132.62628 8419184
-5.5212312 -54.173386 -132.50928 10656914
-4.5677762 -54.140221 -132.47153 9209211
-3.681375 -53.913567 -132.50797 11577242
-2.9846625 -53.760635 -132.52747 14604230
-77.825775 -53.497986 -122.96146 6511954
-77.175941 -53.455856 -123.2406 6511954
-76.209724 -53.399513 -123.66938 9866373
-75.101784 -53.448612 -123.99618 12433069
-74.085991 -53.559982 -124.19868 10787988
-73.449112 -53.529041 -124.48548 10787988
-6.7376761 -53.145256 -132.94876 8682356
-5.6987348 -53.189236 -132.87834 8682612
-4.5831647 -53.150787 -132.834 8156780
-3.6281276 -53.120502 -132.7951 9669762
-2.6741033 -53.092674 -132.75539 9998726
-1.7222266 -52.902592 -132.77505 9011831
-0.92905766 -52.718651 -132.80078 9340799
-5.5512795 -52.523766 -133.11388 7564643
-4.5513921 -52.254475 -133.15997 7762022
-3.6408877 -52.131969 -133.15709 8485233
-2.6842151 -52.104553 -133.11711 9932678
-1.7284446 -52.079506 -133.07626 8353390
-0.77352291 -52.05685 -133.03458 8946045
0.22025722 -51.912476 -133.03535 10064268
1.1343846 -51.689636 -133.06894 5920074
-3.4895453 -51.468376 -133.39175 8813942
-2.6476998 -51.20961 -133.44232 10590865
-1.7359977 -51.092121 -133.43758 8551284
-0.77844959 -51.06979 -133.39566 7894383
0.24213642 -51.081486 -133.33797 10459280
1.3372235 -50.998856 -133.31087 6446419
2.4091096 -50.847836 -133.31001 10261900
3.2062802 -50.673115 -133.33215 11314588
-1.421165 -50.42627 -133.66451 9143934
-0.71838909 -50.2789 -133.68158 9143934
0.17603344 -50.063267 -133.71361 8814969
1.2508626 -50.073872 -133.65349 6578004
2.3484139 -49.994263 -133.62517 6446418
3.369761 -50.014156 -133.56448 9078137
4.2821927 -49.910908 -133.55449 8157547
5.1279321 -49.669395 -133.59854 8486256
0.49477047 -49.399609 -133.93958 8814709
1.199059 -49.255894 -133.95523 7696228
2.2556634 -49.108368 -133.95386 7104348
3.3121972 -48.996391 -133.93953 7960171
4.3357797 -49.018829 -133.87778 9538688
5.2951989 -49.011417 -133.83029 11116951
6.2100797 -48.912586 -133.81854 9603715
7.0590291 -48.675106 -133.86093 10787729
3.3275399 -48.262539 -134.20695 9407106
4.3446584 -48.033329 -134.23755 8815225
5.3066583 -48.025997 -134.1899 8419701
6.2684312 -48.020889 -134.14143 10064008
7.2300706 -48.017944 -134.09221 9933449
8.1477146 -47.923317 -134.07881 10723223
9.0000801 -47.689705 -134.11961 10262929
4.6718965 -47.37352 -134.46158 9012606
5.3801103 -47.237217 -134.47433 9801607
6.2824883 -47.035427 -134.50093 10393229
7.2467351 -47.032532 -134.45154 10460051
8.2108955 -47.031765 -134.40135 12762291
9.1750565 -47.033146 -134.35048 10656918
10.100248 -46.995445 -134.31586 8025201
11.030247 -46.795422 -134.34039 8814715
6.6138501 -46.377113 -134.72417 9537667
7.3244958 -46.24395 -134.73576 9670280
8.2301254 -46.046139 -134.76068 11315359
9.1968975 -46.047508 -134.70967 10327951
10.163778 -46.050941 -134.65787 9932937
11.13088 -46.056541 -134.60532 8156528
12.135204 -46.028049 -134.56325 8682611
13.076736 -45.745205 -134.61742 10722449
8.5657177 -45.389095 -134.98338 10262929
9.2114258 -45.390263 -134.94922 9604229
10.25239 -45.282513 -135.00195 8288372
11.160225 -45.263317 -134.99019 7563877
12.142664 -45.134468 -135.08138 8682868
13.126291 -45.002773 -135.15776 9537920
14.100048 -45.017071 -135.11063 10327182
15.148968 -44.916836 -135.14914 10392975
16.162216 -44.768169 -135.18227 11708313
17.062265 -44.618206 -135.26714 11181969
17.876152 -44.63168 -135.20992 10721162
16.144245 -44.399391 -135.84056 12497829
17.139446 -44.269661 -135.89969 13155759
18.135986 -44.138767 -135.94907 10457990
19.135109 -44.009872 -135.99835 10918029
20.125097 -44.041885 -135.96431 9735298
21.139641 -43.939892 -136.08252 9143419
22.134809 -43.97802 -136.05305 8287853
23.091772 -43.924736 -136.07053 9143162
24.146811 -43.90509 -136.08752 7234653
24.993658 -43.778099 -136.13216 9143681
20.356409 -43.266953 -136.42039 9735811
21.263615 -43.172981 -136.46577 9077625
22.195185 -43.171219 -136.43944 9011832
23.100052 -43.051796 -136.51309 9866885
24.100016 -43.089066 -136.46977 8024427
25.16247 -43.046371 -136.47942 8090995
26.112511 -42.920223 -136.54048 8617338
27.078241 -42.806709 -136.58395 9011320
27.956406 -42.692673 -136.61142 10261643
24.12118 -42.481724 -136.91948 9275007
24.788401 -42.503174 -136.87683 8354166
26.007742 -42.252499 -137.06941 8617337
27.099632 -42.17086 -137.09543 9143419
28.100107 -42.056335 -137.11613 9340798
28.989006 -41.892925 -136.90439 9077113
29.705482 -41.647888 -136.8307 10129545
29.143467 -41.409168 -137.4131 9866885
30.035986 -41.196266 -137.23155 9998215
31.125988 -40.927357 -137.05305 10721426
31.796339 -40.698029 -136.9742 10984596
35.224285 -40.890011 -138.19531 10787732
35.821053 -40.816364 -137.78146 9208699
37.188225 -40.674286 -138.28766 8155756
37.781975 -40.6008 -137.86359 8813686
38.568596 -40.530617 -138.78868 11379356
39.161747 -40.457111 -138.35574 10591374
40.850006 -40.275108 -138.62131 9012345
42.256824 -40.128067 -139.09883 9868427
42.844231 -40.05481 -138.64612 9868427
44.117043 -39.924511 -139.22475 10919576
44.701988 -39.851345 -138.76231 12433586
45.988258 -39.719345 -139.33121 13552582
46.929581 -39.61602 -139.37903 13552581
47.725342 -39.530838 -139.53856 13223101
48.160049 -39.476151 -139.17723 12959157
49.185135 -39.377331 -139.97633 14603214
49.618843 -39.322582 -139.60825 13682368
51.091515 -39.167347 -140.03363 10393229
51.666389 -39.094612 -139.53291 9144449
52.865383 -38.974018 -140.19858 9538950
54.651978 -38.779045 -140.34862 9537665
56.166512 -38.61866 -140.74789 8090219
56.592567 -38.56424 -140.35117 10459278
57.978786 -38.420372 -140.87224 6511954
59.662849 -38.238487 -141.11839 8353909
61.079964 -38.091003 -141.63235 10064011
61.641033 -38.018738 -141.07521 8419696
62.93306 -37.887524 -141.72049 9735555
63.352024 -37.833416 -141.29535 10853780
65.022148 -37.713112 -141.83273 8682867
65.43718 -37.658398 -141.39716 8682867
66.867958 -37.582111 -142.25476 8946295
67.281021 -37.527237 -141.8102 8090987
69.008408 -37.412235 -142.3653 14077885
69.417976 -37.357147 -141.91136 10788244
70.894028 -37.276844 -142.76282 8682867
71.301437 -37.221497 -142.29973 9735555
72.936012 -37.12072 -142.99362 9735297
73.340225 -37.065216 -142.52122 8880246
74.997231 -36.962288 -143.20865 11907239
75.398544 -36.906582 -142.72699 11511449
-65.023346 -58.777241 -125.59296 6511954
-64.295578 -58.879887 -125.81011 8683123
-63.327728 -58.932617 -126.10648 8946296
-62.398548 -58.986591 -126.41045 7893866
-61.482773 -59.054008 -126.73669 7828589
-60.454147 -59.154907 -126.91854 7894639
-59.421169 -59.299198 -126.7619 8420464
-58.263443 -59.314869 -127.13789 7894119
-57.319626 -59.313709 -127.22324 7695204
-56.346783 -59.312016 -126.9656 11248795
-55.435028 -59.311447 -127.37318 7893607
-54.350403 -59.310272 -127.59045 8420210
-53.232838 -59.308399 -127.29946 7697005
-52.318726 -59.307762 -127.68458 9932940
-51.401817 -59.307053 -128.06305 9998731
-50.462242 -59.306145 -127.94135 9012346
-49.372025 -59.3041 -127.87064 7828332
-48.300613 -59.303257 -128.28697 9734530
-47.415508 -59.357857 -128.2673 14010046
-46.580994 -59.372231 -128.3705 9405564
-45.431797 -59.376953 -128.55856 8813683
-44.409508 -59.445091 -128.60657 9142650
-43.454243 -59.401508 -128.83514 9340030
-42.495934 -59.354759 -129.05013 9076858
