# .PCD v0.7 - Point Cloud Data file format
VERSION 0.7
FIELDS x y z rgb
SIZE 4 4 4 4
TYPE F F F U
COUNT 1 1 1 1
WIDTH 1200
HEIGHT 1
VIEWPOINT 0 0 0 1 0 0 0
POINTS 1200
DATA ascii
-176.45766 -49.876431 18.89876 8155754
-176.66724 -49.834957 18.132708 10194824
-176.88136 -49.916775 17.165434 9536894
-177.15268 -49.872971 16.158869 7300963
-177.36655 -49.957661 15.188528 8024169
-177.67549 -49.785896 14.223772 10524044
-178.05414 -49.398014 13.304636 10458508
-166.21288 -48.603626 39.743748 6314581
-166.73097 -48.795334 38.702606 7103323
-167.16994 -48.690338 37.941711 8813680
-167.56149 -48.812962 37.092468 7563872
-168.04619 -48.764065 36.200176 8353902
-168.57405 -48.754677 35.192978 8682867
-168.94933 -48.816025 34.423172 9208956
-169.41922 -48.894485 33.45797 8617080
-169.96797 -48.766308 32.504375 7564651
-170.34549 -48.831589 31.72706 8748403
-170.73624 -48.811123 30.992193 8617073
-171.27623 -48.773724 29.983683 10787728
-171.75117 -48.860039 29.002584 10393227
-172.13194 -48.930416 28.21504 11050900
-172.5547 -49.055004 27.304018 8156524
-173.03142 -48.988178 26.4405 6511699
-173.55087 -48.975838 25.451712 7630180
-173.93523 -49.051533 24.653128 8090987
-174.32028 -49.128445 23.852049 8090987
-176.95346 -49.199715 17.945757 10261132
-177.1731 -49.084538 17.249712 8089962
-177.46704 -48.961147 16.27207 6380369
-177.76393 -48.817551 15.313036 8551282
-177.98483 -48.83168 14.419561 9275005
-178.25694 -48.791107 13.405107 9405822
-178.53311 -48.68317 12.474947 10129801
-178.77339 -48.615273 11.626795 9735043
-165.98135 -47.68272 40.574833 5064766
-166.52745 -47.782436 39.817364 5327682
-166.93251 -47.845501 39.065449 7564132
-167.47568 -47.707798 38.130272 8813680
-167.94373 -47.778202 37.175117 8024424
-168.31898 -47.835896 36.408855 9274748
-168.84842 -47.824814 35.399876 8419184
-169.33621 -47.777008 34.500072 9669506
-169.71336 -47.838409 33.72657 9866885
-170.14865 -47.836792 32.891117 9077369
-170.65878 -47.997055 31.783888 9735555
-171.03812 -48.062466 31.003069 10130313
-171.51317 -48.146027 30.023962 10195849
-171.98911 -48.231335 29.041582 10261641
-172.27527 -48.28339 28.450487 10261641
-178.08006 -48.022243 15.246344 9077882
-178.36047 -47.842991 14.40513 9735812
-178.5614 -47.880165 13.556219 8089963
-178.81247 -47.928192 12.493147 9405823
-179.06351 -47.977806 11.428122 9735043
-179.36662 -47.713905 10.623297 10129801
-179.63586 -47.552292 9.7999821 9735043
-179.85712 -47.443344 9.088171 9537409
-165.14525 -46.65905 42.228008 5920082
-165.53842 -46.72813 41.692112 6512218
-166.18283 -46.788071 40.84502 6577492
-166.91739 -46.75388 39.908623 6050891
-167.31197 -46.812431 39.152248 8222060
-167.78053 -46.880169 38.198082 8682867
-168.24986 -46.949501 37.241314 9011832
-168.56908 -47.070667 36.532341 9142907
-168.9256 -47.271839 35.688278 8089963
-178.87047 -47.092335 13.506159 8089963
-179.1398 -46.927261 12.687788 9668995
-179.38101 -46.938938 11.717764 10590352
-179.73169 -46.67157 10.730078 8156780
-179.94757 -46.761845 9.7433224 9735043
-180.16333 -46.853703 8.7547436 9340030
-180.4317 -46.630016 8.027235 9537409
-164.23827 -45.644119 44.107449 9736067
-164.79721 -45.666973 43.407681 7432547
-165.37314 -45.773071 42.587589 6313810
-165.99998 -45.723835 41.806381 7695460
-166.42776 -45.868111 41.134014 8090218
-166.91234 -46.09605 40.33128 6510930
-179.73419 -46.022018 11.684958 7564643
-179.9364 -46.061306 10.828154 9340541
-180.311 -45.859509 9.8921528 9340286
-180.50993 -45.945843 8.9007816 9340030
-180.83186 -45.847679 7.9503422 8550514
-181.10638 -45.761551 7.0365963 9669506
-181.47462 -45.569176 6.1024532 9867398
-181.78778 -45.52169 5.0176449 9735297
-163.103 -44.28125 48.038502 9735812
-163.40326 -44.406544 47.16679 10591634
-163.7377 -44.542381 46.303917 10131083
-164.05713 -44.840576 45.383228 9998728
-164.70805 -44.828026 44.535694 7694693
-165.20395 -44.965149 43.726032 7760742
-165.69998 -45.04459 43.004673 8090218
-180.93912 -45.341106 8.9209118 8813686
-181.62993 -45.020443 7.2017193 11182228
-181.93941 -44.930614 6.2632961 9603970
-182.1617 -44.947758 5.3343945 9867397
-182.45093 -44.918148 4.2877407 9275001
-182.95041 -44.749416 3.3294427 9472380
-183.23969 -44.674305 2.407995 10787214
-183.45859 -44.646706 1.6007594 5919050
-183.7541 -44.558537 0.64449871 5393217
-185.07143 -44.401917 -2.4704688 9341059
-149.26071 -43.598412 78.210442 7169628
-150.04668 -43.748062 77.566582 6511954
-150.51204 -43.918125 76.571861 7959144
-150.96977 -43.920147 75.664314 7169373
-151.42239 -43.922161 74.754181 8550512
-151.8692 -43.924175 73.841194 10260872
-152.31076 -43.926193 72.925697 9734531
-152.74654 -43.928196 72.007431 8221549
-153.17714 -43.930199 71.086624 8616819
-153.60179 -43.932198 70.163177 14077894
-154.02127 -43.934189 69.237358 10459278
-154.35265 -43.935783 68.494743 9735046
-154.76175 -43.937771 67.564255 9011581
-155.16557 -43.939754 66.631485 9077886
-155.56339 -43.941734 65.696114 9407106
-155.95593 -43.943714 64.758545 10656658
-156.34248 -43.945686 63.818447 10787988
-156.72374 -43.947651 62.87619 9142907
-157.09895 -43.949608 61.93153 7366240
-157.46881 -43.951569 60.984791 9537920
-157.83266 -43.953491 60.035694 9142906
-158.19116 -43.955421 59.084564 10064265
-158.54349 -43.957417 58.131115 9603714
-158.89047 -43.959354 57.175751 10787988
-159.16385 -43.960903 56.409935 9340286
-159.50006 -43.962799 55.450695 9340286
-159.8309 -43.964706 54.489567 7959405
-160.15552 -43.966675 53.526432 8025201
-160.58823 -43.999538 52.598564 7564651
-161.09418 -44.053947 51.692616 8616306
-161.5986 -44.109318 50.783855 8089963
-162.10155 -44.165665 49.871689 9143419
-162.60304 -44.223007 48.956707 10590863
-162.90309 -44.257812 48.406208 10590863
-184.66675 -44.296848 0.42493999 6510930
-184.76169 -44.320499 -0.24212088 5656389
-184.88695 -44.352619 -1.132578 5920078
-185.45642 -44.249382 -2.0297415 8485492
-186.0251 -44.146748 -2.9316199 11183001
-186.09966 -44.169624 -3.8291113 9341059
-186.12103 -44.180866 -4.7262821 9866371
-187.76852 -44.096638 -6.578455 9997959
-187.7346 -44.097965 -7.482584 8617075
-187.70648 -44.098957 -8.1605015 8090987
-189.67892 -44.106373 -11.222773 7170141
-189.62265 -44.107689 -12.136003 8420208
-191.53833 -44.115841 -15.73604 9274234
-191.46075 -44.117138 -16.658182 11379356
-193.26463 -44.069153 -18.692293 8420470
-193.38347 -43.860531 -19.409342 9340801
-193.4176 -43.891171 -20.353945 8156268
-193.55713 -43.694256 -21.311747 8813939
-148.89864 -42.631626 78.858284 8484973
-149.65341 -42.684715 78.36805 7892581
-150.06276 -43.083221 77.940063 6511954
-193.65182 -43.169884 -19.67267 10261132
-193.77086 -42.960995 -20.39242 9537406
-193.81496 -42.994278 -21.341105 11773340
-193.88387 -42.947712 -22.215448 12759978
-149.00354 -41.663662 79.217712 8813680
-149.687 -41.971497 78.659889 9734779
-194.03979 -42.268929 -20.657839 8617328
-194.16968 -42.008274 -21.239573 9077623
-194.17088 -42.168598 -22.249254 9866882
-148.42888 -40.658752 80.013748 9273980
-149.19611 -40.637501 79.548424 8945269
-194.40633 -41.350117 -21.171572 8617328
-194.42863 -41.366478 -21.647799 7039322
-148.07062 -39.575775 80.709923 7892584
-148.83926 -39.789696 80.140221 7760998
-148.19862 -38.666405 81.028053 7892584
-148.95523 -38.991962 80.416992 8616307
-147.77878 -37.671074 81.723152 8814196
-148.64833 -37.6922 81.175117 7695205
-147.22812 -36.541611 82.557861 9537662
-147.99657 -36.745548 81.992653 9208698
-146.9447 -35.534687 83.173462 10260870
-147.52075 -35.684891 82.750908 10787730
-148.10895 -35.949322 82.270882 9208700
-146.92883 -34.646858 83.571266 8617330
-147.7159 -34.787762 83.022034 9998728
-146.37444 -33.527275 84.404053 8682867
-147.23344 -33.689781 83.800774 9472383
-146.08746 -32.526474 85.019257 9537918
-146.66335 -32.669594 84.599815 10919829
-147.25182 -32.926464 84.122925 9077625
-146.13152 -31.639952 85.379272 9800833
-146.85478 -31.772537 84.873161 11182228
-145.59834 -30.548603 86.301414 8682867
-146.32184 -30.724556 85.717949 9866626
-145.19289 -29.222658 88.276855 8813686
-145.33484 -29.664213 87.329353 8945272
-145.94077 -29.913328 86.661133 8616819
-146.45895 -30.094027 86.176247 9537918
-139.22021 -28.418409 100.5969 9536635
-139.82924 -28.469683 100.27029 9668735
-140.35956 -28.723934 99.885818 8089963
-141.39452 -28.87681 95.332703 9011320
-141.85178 -28.878489 94.650696 8024169
-142.41856 -28.880581 93.795029 8550768
-142.98061 -28.882673 92.936165 9735296
-143.53702 -28.884762 92.073769 9735296
-144.08868 -28.886852 91.208199 9866371
-144.526 -28.888519 90.513306 8945271
-144.38773 -29.16601 88.981979 9800579
-139.18629 -27.534588 100.97842 8814196
-139.90407 -27.634995 100.57712 9340027
-138.62479 -26.483253 101.69366 9735043
-139.368 -26.751093 101.21053 9800836
-138.22591 -25.195179 102.42507 8090987
-138.96826 -25.617392 101.87872 9471871
-139.64494 -25.931311 101.40987 9932166
-138.31892 -24.502682 102.66418 6643541
-139.04129 -24.624258 102.25185 7762022
-137.96176 -23.498442 103.25758 8090987
-138.50252 -23.745317 102.88461 5920074
-139.1133 -23.787462 102.56104 5920074
-137.96426 -22.598526 103.6276 10459279
-138.70949 -22.812574 103.16566 7499106
-137.42503 -21.36404 104.40737 9341054
-138.17001 -21.620108 103.92815 10196107
-137.7238 -20.709011 104.52777 9341054
-138.37485 -21.000664 104.08105 9341054
-137.08739 -19.556999 105.32214 8748917
-137.83325 -19.764128 104.86272 11643293
-136.74797 -18.380995 105.97752 8486256
-137.29041 -18.619997 105.60693 7235676
-137.90182 -18.652313 105.28703 10261383
-136.74719 -17.748697 106.23874 8749172
-137.49356 -17.680443 105.89268 8748660
-136.20192 -16.246275 107.13202 9537921
-136.8812 -16.699772 106.60432 10064777
-136.55959 -15.590289 107.30503 9669507
-137.15125 -15.866186 106.81287 10064777
-134.9776 -14.145656 109.89513 7038307
-135.67831 -14.266742 109.24938 8419442
-135.97316 -14.778657 108.27909 8221805
-136.66568 -14.87573 107.84867 8550770
-130.62894 -13.515521 120.11687 9931904
-131.44051 -13.541287 119.70074 8484461
-132.62018 -13.834075 115.3397 8353134
-133.17406 -13.835821 114.69978 9603202
-133.8618 -13.837973 113.89609 10129803
-134.40891 -13.839753 113.25048 10260875
-130.13037 -12.419407 120.81716 8484461
-130.8129 -12.709898 120.35659 10063490
-130.38004 -11.559889 121.04618 10458761
-131.13033 -11.797523 120.57348 9931904
-129.81732 -10.677335 121.69059 5921106
-130.53627 -10.738795 121.30614 10195590
-129.37823 -9.363163 122.45098 9406591
-130.01271 -9.5946989 122.0386 7302243
-130.41077 -10.039565 121.65661 7894122
-129.42331 -8.4927387 122.78667 9208443
-130.14867 -8.5800505 122.38831 7761508
-129.06149 -7.6128798 123.32966 8681843
-129.67197 -7.6238027 123.02011 7826791
-130.22112 -7.8526812 122.65151 7563619
-129.10597 -6.7388015 123.6672 9142907
-129.83246 -6.8236632 123.26925 8747893
-128.66313 -5.4167905 124.43259 9075827
-129.2392 -5.7904015 123.99093 9273720
-128.707 -4.5378833 124.77247 10851980
-129.4614 -4.7669039 124.30128 9207155
-128.29514 -3.5787086 125.37301 11114896
-128.92392 -3.7685931 124.98071 9930622
-127.63134 -2.5431595 126.13091 10787215
-128.41254 -2.6749413 125.68671 9405306
-129.14174 -2.9969022 125.18988 9207155
-127.85167 -1.5112008 126.44686 9668992
-128.38228 -1.8098164 126.05882 8616305
-127.32557 -0.47313356 127.24438 7563875
-128.13695 -0.59420437 126.74685 7826791
-127.00912 0.41936088 128.15379 8354158
-127.60651 0.2695781 127.72794 7564643
-122.17488 1.5243706 139.20494 9340286
-122.81715 1.5248424 138.92171 8419696
-126.24989 1.0221173 129.96788 11183001
-126.86723 1.0220915 129.6633 10064262
-121.70197 2.7498291 139.90306 9142907
-122.3008 2.3788168 139.49065 9011577
-122.93484 1.9849795 139.05354 8419696
-121.72833 3.6418459 140.24837 10261643
-122.48897 3.5990374 139.89589 9077115
-121.31318 4.5958953 140.81398 9142907
-121.98931 4.445406 140.45564 9406336
-121.33971 5.4932842 141.16222 9275516
-122.04259 5.2194023 140.7426 9011579
-120.92343 6.4517713 141.73018 8420463
-121.60071 6.302413 141.37178 9866624
-120.94959 7.3547301 142.08083 9866624
-121.65371 7.0812464 141.66078 9866624
-120.53215 8.3180227 142.65117 8682866
-121.21062 8.1696949 142.29265 9866624
-120.20492 9.8814573 143.42249 11906725
-120.64193 9.4165125 143.04341 10196363
-121.26333 8.9537001 142.58385 11905692
-120.16533 10.589421 143.72391 9933191
-120.81272 10.59949 143.44264 9341054
-119.81109 11.768226 144.35286 8091246
-120.25904 11.491171 144.04433 10064521
-119.77114 12.480971 144.65636 7302245
-120.41972 12.492811 144.37529 8091246
-119.41593 13.667006 145.28864 9143417
-119.86477 13.389268 144.97942 8880247
-119.30253 14.435761 145.71941 9011831
-119.96639 14.157168 145.24263 10261124
-118.48886 15.603638 147.01848 8682867
-119.01757 15.367543 146.58842 9275003
-119.54589 15.13115 146.15836 9537918
-116.16309 16.842148 152.9713 11510684
-117.74386 16.170605 149.00633 9735812
-118.20466 16.183826 148.85182 9735812
-115.4763 17.569458 153.5946 8814198
-116.23379 17.533983 153.21545 10721425
-115.69872 18.563095 153.88701 9735044
-116.49833 18.330551 153.40828 10261132
-115.23243 19.631292 154.55061 9341054
-115.89794 19.437017 154.14922 9537665
-115.30839 20.549946 154.9088 9735812
-116.10859 20.316446 154.42677 8814198
-114.90282 21.545864 155.53026 9933191
-115.54868 21.560352 155.2285 10591121
-114.34107 22.795124 156.33519 9735555
-115.00167 22.507015 155.89629 9998727
-114.40331 23.608326 156.65508 8222316
-115.16822 23.575932 156.27632 10525072
-113.98931 24.651157 157.30077 7235421
-114.66922 24.497713 156.91058 8486261
-113.5488 25.834904 158.01964 11182231
-114.13743 25.593319 157.63509 7170146
-114.7261 25.351686 157.25043 7565675
-113.6164 26.696856 158.37886 10392973
-114.28861 26.540533 157.97432 7631210
-113.3493 27.812031 159.34901 9670019
-113.83666 27.419765 158.81813 10590607
-112.73864 28.47003 160.11537 9210491
-113.38181 28.485098 159.79959 7893871
-112.93432 29.014576 160.39122 8552053
-175.38423 -49.346706 21.635885 8814713
-175.67555 -49.407936 21.027956 7630437
-176.06477 -49.490711 20.215136 9208435
-176.42644 -49.566818 19.396383 7367005
-172.46628 -48.318455 28.05562 10261641
-172.75313 -48.371758 27.462152 7169629
-173.23212 -48.462074 26.470152 6577236
-173.71213 -48.554173 25.474588 7630180
-174.09711 -48.629276 24.675352 8090987
-174.52515 -48.866077 23.665552 8025196
-175.01097 -48.754875 22.819773 7630443
-175.46463 -48.813168 21.902189 8946299
-175.92245 -48.770412 21.056383 8090987
-176.31261 -48.852242 20.242426 8747885
-176.72298 -48.934715 19.212526 7958628
-177.06096 -48.762367 18.171167 9142651
-177.35014 -48.506313 17.40962 9142651
-177.57011 -48.391247 16.711977 7037274
-170.53111 -47.531441 32.397018 9932419
-170.81554 -47.57943 31.812323 9735555
-171.19537 -47.644402 31.030851 9406590
-171.57591 -47.710522 30.247236 9472126
-172.13188 -47.585159 29.277582 9143676
-172.60982 -47.670967 28.291071 9406847
-172.99304 -47.741005 27.499189 6248271
-173.4185 -47.865204 26.58309 7169629
-173.91263 -47.868187 25.631063 7498850
-174.42122 -47.784176 24.719767 8485745
-174.80815 -47.859356 23.916533 8090987
-175.27759 -47.723843 23.121134 8354163
-175.76404 -47.820812 22.109648 8946298
-176.25192 -47.919685 21.094305 8748659
-176.72606 -47.787041 20.288038 8090470
-177.07158 -47.855862 19.464357 7958884
-177.33305 -47.839867 18.46723 8089962
-177.65642 -47.721176 17.366411 9405823
-177.8577 -47.754669 16.521879 8222060
-178.12367 -47.685978 15.573423 6841176
-168.47969 -46.327473 37.290939 8682867
-168.83673 -46.526741 36.447502 9142907
-169.19798 -46.698971 35.617031 8945527
-169.68224 -46.686356 34.696136 11116693
-170.10199 -46.797077 33.80183 11182228
-170.48112 -46.858418 33.024681 10524555
-171.03851 -46.783924 32.012012 10130056
-171.51035 -46.807487 31.08639 9406590
-171.89198 -46.872574 30.301439 9998212
-172.39517 -46.781136 29.406412 9603969
-172.88712 -46.778061 28.463137 7039331
-173.31314 -46.899181 27.548513 7169629
-173.76584 -46.846279 26.720171 7498850
-174.21713 -46.895767 25.813532 12170664
-174.78473 -46.673435 24.898058 10196363
-175.21521 -46.800358 23.970304 8090987
-175.6046 -46.875282 23.16276 9275262
-175.99474 -46.951439 22.352606 9275262
-176.3936 -47.145168 21.433031 8090475
-177.43938 -47.005245 19.287176 8287592
-177.66028 -46.887482 18.58983 9142651
-177.92216 -46.852791 17.607153 9142651
-178.17447 -46.89381 16.549841 9011833
-178.37619 -46.927784 15.702581 5920074
-178.62825 -46.971809 14.641691 8485489
-179.04951 -46.510555 13.663237 8089963
-179.27103 -46.397438 12.95664 10064009
-166.76544 -45.640484 40.933121 6510930
-167.37454 -45.621151 40.167896 7761253
-167.76022 -45.796509 39.255173 8222060
-168.12517 -45.846443 38.487637 8880246
-168.61356 -45.791847 37.593239 11576735
-169.14328 -45.775421 36.583202 10261643
-169.51236 -45.829521 35.809502 9669507
-170.03268 -45.815998 34.851418 9801092
-170.56885 -45.713959 33.984112 9735040
-170.93695 -45.831833 33.11105 10721934
-171.36266 -45.825012 32.266747 10393227
-171.93736 -45.728664 31.290079 9538176
-172.33643 -45.837002 30.377836 8617332
-172.70935 -45.899181 29.586824 10261641
-173.17621 -45.978371 28.594831 7039331
-173.64377 -46.059185 27.599524 8090986
-174.0155 -46.049583 26.871511 9012344
-178.20996 -46.215065 17.418005 10261132
-178.51021 -46.036888 16.579512 8156012
-178.70717 -46.068977 15.730215 7695715
-179.02554 -45.962524 14.796694 8813683
-179.3343 -45.767864 13.915422 8353390
-179.62895 -45.730167 12.894423 9932419
-179.85461 -45.741104 11.982164 9208956
-180.15535 -45.645657 11.058466 9143163
-165.8856 -44.28635 44.546841 8418672
-165.84344 -44.459461 43.894207 7760742
-166.24666 -44.640518 43.017826 8090218
-166.74802 -44.746674 42.152943 8484976
-167.25562 -44.877262 41.265282 8353390
-167.73929 -44.955811 40.528774 8353647
-168.21593 -45.020744 39.573853 7629667
-168.66824 -45.080475 38.610413 9406334
-169.02939 -45.129208 37.83744 10129801
-169.48073 -45.191429 36.868595 10919829
-169.93225 -45.25502 35.897034 9669507
-170.20326 -45.293938 35.312778 10261643
-179.8447 -45.138153 13.866816 9866624
-180.03593 -45.171356 13.009768 9866624
-180.43185 -44.970615 12.077726 8485229
-180.62015 -45.050495 11.086012 8682608
-180.97667 -44.95665 10.13954 11379351
-181.33913 -44.777813 9.2461452 9537146
-181.61011 -44.738625 8.2080593 9273975
-181.94394 -44.621109 7.2134342 9406078
-182.50813 -44.513054 6.355093 9735043
-183.03246 -44.396099 5.4912395 10655885
-183.16753 -44.424221 4.6125088 11248019
-183.26772 -44.445724 3.9528482 8090987
-150.67117 -43.597687 77.338188 6511954
-151.32472 -43.483486 76.983917 9406590
-151.82303 -43.771893 76.549179 6511954
-161.47543 -43.966202 55.049824 8089963
-161.73846 -43.967754 54.271557 9734529
-162.06181 -43.969688 53.296921 10919059
-162.37971 -43.971619 52.320454 7761772
-162.69125 -43.973545 51.341953 9406850
-162.99727 -43.975464 50.36174 11445915
-163.31996 -43.983501 49.386425 10590863
-163.7863 -44.031471 48.453381 10590863
-164.18811 -44.078709 47.713711 10657426
-164.68909 -44.138607 46.786091 7959663
-165.1886 -44.19944 45.855419 6445398
-165.58725 -44.248875 45.108372 5918026
-182.72255 -44.334915 7.4641209 8682867
-182.82678 -44.355011 6.8070507 10129545
-184.14378 -44.17638 3.9712579 10195590
-184.31017 -44.212982 2.865072 10261124
-184.44128 -44.242962 1.9788264 6643539
-184.57071 -44.273495 1.0913752 5920074
-185.80151 -44.083565 0.20355783 7103067
-185.8002 -44.084923 -0.69111073 6510930
-185.84 -44.097046 -1.5861913 8221804
-187.8342 -44.093285 -4.3175373 9340030
-187.8045 -44.094963 -5.4481144 9011065
-189.80038 -44.103069 -8.9385471 10853012
-189.74286 -44.104725 -10.08082 7893352
-191.71399 -44.112576 -13.429117 8287342
-191.62984 -44.114212 -14.582865 8287597
-193.20248 -43.832882 -16.185534 8681843
-193.27219 -43.782543 -17.050837 8681843
-193.3407 -43.771194 -18.136545 8682868
-150.66798 -42.695572 77.735611 6840662
-151.4465 -42.650665 77.273682 7235421
-193.58957 -42.932205 -17.158388 8681843
-193.65945 -42.882114 -18.026491 9011320
-193.70422 -42.912941 -18.971865 8024681
-193.8235 -42.703556 -19.690783 10261132
-150.26237 -41.524937 78.499748 9011058
-150.95149 -41.835091 77.937408 6643284
-193.97763 -42.030098 -18.135843 9011320
-194.04759 -41.980179 -19.006792 8024681
-194.09241 -42.011353 -19.955194 9932164
-149.76767 -40.716091 79.160088 8813680
-150.56635 -40.735954 78.656616 7563874
-151.22391 -41.130825 78.076637 7037274
-194.39134 -41.046028 -19.041758 7761509
-194.43652 -41.076611 -19.991816 9800832
-194.50638 -41.027428 -20.867151 9669246
-149.46362 -39.409508 79.919556 9734531
-149.96048 -39.686623 79.490547 7826789
-150.53543 -39.763969 79.100494 7366755
-194.7571 -40.182808 -19.883982 9077366
-194.72882 -40.397903 -20.733782 8617328
-149.47871 -38.52681 80.295891 9208700
-150.2549 -38.740135 79.721695 8485234
-149.00331 -37.456482 81.058189 8089963
-149.69225 -37.753387 80.501549 8682355
-150.38301 -38.052311 79.942825 8089963
-148.54295 -36.560005 81.735077 8813942
-149.11563 -36.629341 81.350006 9011321
-149.74776 -36.811943 80.878502 8748149
-148.64046 -35.592705 82.097374 8550770
-149.40562 -35.682808 81.583893 9998472
-148.1507 -34.418461 82.913963 10064265
-148.83986 -34.706268 82.361198 7958377
-149.53084 -34.995972 81.806541 11380380
-148.26791 -33.677345 83.165207 10985623
-148.95668 -33.753448 82.705193 9801093
-147.78116 -32.564655 83.953041 8880246
-148.46378 -32.776497 83.437508 10590607
-147.28767 -31.399229 84.768105 12433069
-147.9769 -31.678257 84.219109 8682867
-148.66792 -31.959129 83.668243 9932163
-146.91301 -30.537294 85.494812 10458505
-147.56396 -30.600279 85.060112 10655372
-148.1368 -30.928036 84.46595 9077368
-146.16281 -29.292206 87.4272 8616307
-146.70946 -29.484352 86.702904 9273978
-147.21509 -29.842798 85.953804 10391686
-147.85208 -29.819302 85.563606 9405051
-140.49519 -28.313879 99.981285 8089963
-140.98773 -28.560623 99.567177 9011063
-141.65149 -28.680767 99.102211 9274747
-144.85199 -28.889771 89.99086 9866371
-145.21858 -28.899488 89.493332 9800579
-146.01767 -28.953512 88.777451 9734788
-146.66673 -28.999119 88.208 8287342
-140.50546 -27.683193 100.24181 9340027
-141.26089 -27.738533 99.757996 9011063
-141.75525 -27.985607 99.342537 10590091
-139.98355 -26.167994 101.14259 9011576
-140.65126 -26.64052 100.59858 9340027
-141.27821 -27.107504 100.02386 8089963
-140.22772 -25.44869 101.31686 9011576
-140.73456 -25.80349 100.91254 9340539
-139.65308 -24.668282 101.92696 9011576
-140.37619 -24.763195 101.52523 8617074
-139.32036 -23.169468 102.71209 5920074
-139.7957 -23.623749 102.28637 8024938
-140.45471 -23.951647 101.82068 8748660
-139.32341 -22.536777 102.97163 6051660
-140.05174 -22.655258 102.55755 6511954
-139.39542 -21.696739 103.28211 6775126
-140.14685 -21.956091 102.79836 6511954
-138.78479 -20.518526 104.0744 11248023
-139.55847 -20.790354 103.57436 7695716
-138.44586 -19.527187 104.65334 11511449
-139.16995 -19.610283 104.25601 9472124
-138.5155 -18.685009 104.96589 10261383
-139.24498 -18.794954 104.55476 6511954
-138.10678 -17.520672 105.65118 11248537
-138.7903 -17.724617 105.22434 7959143
-138.17549 -16.548979 106.01759 8880502
-138.9285 -16.797211 105.53764 9011573
-137.57368 -15.606281 106.78683 10064777
-138.38461 -15.753655 106.28207 8748919
-136.87701 -14.210317 108.72814 9011577
-137.38109 -14.631221 107.78806 8616563
-137.87837 -14.925277 107.19904 10064777
-132.11482 -13.345969 119.44426 8418927
-132.72748 -13.365454 119.13013 9340286
-134.68115 -13.840527 112.92652 8089963
-135.22296 -13.842371 112.27658 7695720
-135.89642 -13.844505 111.46081 9011579
-136.4315 -13.846299 110.80523 8024943
-136.83083 -13.847508 110.31196 9011579
-131.41173 -12.239707 120.25093 9931904
-132.07928 -12.569398 119.78163 8682355
-131.6329 -11.485235 120.4509 9077370
-132.26137 -11.683859 120.05513 7564651
-131.10031 -10.491737 121.12597 11905692
-131.76004 -10.769835 120.68188 10788245
-130.66147 -9.1731625 121.88799 7760994
-131.25412 -9.5602837 121.43252 11445400
-131.814 -9.9272223 121.00175 13156275
-130.73471 -8.4461298 122.15066 7760994
-131.46416 -8.5337915 121.75008 9208182
-130.34641 -7.4169784 122.76827 7563619
-130.89734 -7.6460605 122.3987 7760994
-131.51233 -7.6572938 122.08681 4866361
-130.41928 -6.68681 123.0324 8747893
-131.06029 -6.843792 122.64747 8813684
-129.95026 -5.2135892 123.87307 9340286
-130.4752 -5.7159629 123.40404 10721938
-131.13402 -6.1113572 122.9121 13024949
-130.02795 -4.5087647 124.1244 9602943
-130.75443 -4.5611644 123.73983 12103591
-129.42633 -3.4418962 124.86407 9207155
-130.1848 -3.6701422 124.3915 9339256
-128.98181 -2.109298 125.63599 10654345
-129.74474 -2.5025532 125.09304 10194309
-130.37402 -3.0069656 124.57079 8089963
-129.05356 -1.3691529 125.90578 9077114
-129.78667 -1.4467908 125.50794 10853012
-128.7683 -0.32867301 126.63689 7038307
-129.36908 -0.59808373 126.1303 9143680
-128.2395 0.41800779 127.53974 7367013
-128.95128 0.34245884 127.12055 7433065
-129.43968 0.11726254 126.68449 7038307
-123.46098 1.5253611 138.63782 10327434
-124.10622 1.525877 138.35336 12235172
-127.48621 1.0221124 129.35812 11314072
-128.31375 1.0221354 128.95009 9143422
-123.17113 2.9080539 139.3181 8682867
-123.60623 2.4476876 138.94228 9932676
-124.22553 1.9871112 138.485 12235172
-123.13448 3.6019294 139.61259 7827819
-123.78133 3.6048191 139.32869 8682867
-122.56998 4.7582803 140.32521 9011579
-123.2317 4.4838133 139.92348 7827564
-122.63072 5.5030808 140.59721 10590095
-123.39605 5.4624524 140.24358 9998215
-122.18226 6.6189709 141.24245 9866624
-122.84513 6.344913 140.84035 10984852
-122.24268 7.3685055 141.51643 8287850
-123.00932 7.329946 141.16313 6446422
-121.79299 8.4899712 142.16443 11905692
-122.45715 8.2161999 141.76195 7498591
-121.88328 9.4927979 142.5269 10787727
-122.56126 8.9710274 142.01875 9142643
-121.46172 10.609754 143.16069 8420208
-122.11207 10.620115 142.87828 7039322
-121.10851 11.790758 143.79013 11906725
-121.55776 11.513399 143.48085 7959912
-121.06985 12.504924 144.09361 10787988
-121.72129 12.517236 143.81148 8881014
-120.71555 13.693235 144.72633 9537923
-121.16578 13.415135 144.41637 9932424
-120.60882 14.464031 145.16335 9340801
-121.26945 14.184691 144.67934 9537923
-120.22385 15.445071 146.12277 9538180
-120.85957 15.161276 145.60582 8092019
-117.23141 16.861486 152.46439 13221042
-118.08826 16.87747 152.058 10064007
-118.89844 16.204004 148.62001 9340798
-119.59416 16.22438 148.38853 9010808
-116.81422 17.841375 153.05939 10261132
-117.51794 17.558264 152.60655 11445145
-117.0115 18.713066 153.3149 10195339
-117.5704 18.351879 152.90044 9800837
-116.41827 19.822567 154.0668 8814198
-117.12109 19.537867 153.60928 9800580
-116.69855 20.630701 154.28052 9866629
-117.40247 20.345219 153.82219 10853012
-116.14394 21.65802 154.9866 9275002
-116.81313 21.46348 154.58388 9274230
-116.22262 22.586527 155.34822 9340279
-115.81687 23.591864 155.97385 11248026
-116.46642 23.608147 155.67108 10063747
-115.28628 24.683491 156.69615 8683897
-116.06062 24.618273 156.29884 9801606
-114.84719 25.868168 157.41475 9341313
-115.43703 25.627007 157.0298 9538691
-116.02703 25.385746 156.64479 10262156
-114.90498 26.728411 157.75694 10787985
-115.58842 26.574959 157.36511 10262156
-114.47736 27.434639 158.50008 10590607
-115.11909 27.449957 158.18187 12432037
-114.02573 28.500669 159.48372 8814969
-114.57152 28.24494 159.03082 9670020
-115.11692 27.989265 158.57812 12432037
-114.22384 29.045845 159.7589 8683383
-176.339 -46.332504 22.179625 8089963
-176.64865 -46.622494 21.355303 8024423
-177.09758 -46.665985 20.458315 7827045
-177.47704 -46.708755 19.579016 7498081
-177.69803 -46.590519 18.881784 9142651
-173.22276 -45.331367 29.459146 8617078
-173.4955 -45.37616 28.861227 8617078
-173.95053 -45.452213 27.861807 8354418
-174.40587 -45.529728 26.859236 7039331
-174.62912 -45.788647 26.033773 10065035
-175.03807 -45.906929 25.104799 9341059
-175.60001 -45.816418 24.164774 8419702
-176.08749 -45.768406 23.316961 9537921
-176.48685 -45.816425 22.456167 8813941
-176.94803 -45.767826 21.60618 8221805
-177.36052 -45.892803 20.660505 8024170
-177.80353 -45.884644 19.67137 7563619
-178.17378 -45.700459 18.806883 8616307
-178.3894 -45.706264 17.911753 9076858
-178.69972 -45.545956 17.102682 9076857
-179.0578 -45.454605 15.977343 7826533
-168.39429 -44.445831 40.686039 7893868
-168.72702 -44.522274 39.77903 9274749
-169.24684 -44.509689 38.87051 9998214
-169.56979 -44.586056 37.957367 9077114
-169.91241 -44.669071 37.047398 10458507
-170.38579 -44.6479 36.120396 8748659
-170.73991 -44.736427 35.208649 11379607
-171.12737 -44.83511 34.301781 9209210
-171.62308 -44.823257 33.370682 10392969
-172.01094 -44.924511 32.45866 10655115
-172.51135 -44.932613 31.550383 7760741
-173.00946 -44.86739 30.709654 9273978
-173.48604 -44.797039 29.861223 9406335
-173.9552 -44.799862 28.936575 8617078
-174.32083 -44.859966 28.135485 9077882
-174.77835 -44.936569 27.13085 7105124
-175.23621 -45.01466 26.12285 8025199
-175.60283 -45.0783 25.313803 7564651
-175.99139 -45.073067 24.577204 8156530
-176.49411 -45.015041 23.709227 9143164
-176.95428 -45.098419 22.687517 8353391
-177.41507 -45.183338 21.662184 8682356
-177.78412 -45.25256 20.838884 8418928
-178.12537 -45.315651 20.009901 7563619
-178.73685 -44.965488 18.771627 9142651
-178.93053 -44.993404 17.921343 9537409
-179.27722 -44.824284 17.084261 8352877
-179.46844 -44.898067 16.100214 9536635
-179.76108 -44.855686 15.079741 8747376
-180.28555 -44.683575 14.161924 7498591
-180.59103 -44.601383 13.267473 6906711
-181.03371 -44.459312 12.423456 8287850
-181.21762 -44.488678 11.340502 8682608
-152.38159 -43.600849 76.278648 7300703
-153.03471 -43.797287 75.625801 8879477
-153.43181 -43.925205 74.600426 8287085
-153.87794 -43.927238 73.675476 9471359
-154.31819 -43.929264 72.747772 11709089
-154.75323 -43.93124 71.817558 10591380
-155.18225 -43.933308 70.88459 8881278
-155.60605 -43.935326 69.949226 11906725
-155.94089 -43.936932 69.199005 9933196
-156.35411 -43.938938 68.258934 8617337
-156.76208 -43.940945 67.316612 8025456
-157.16402 -43.942913 66.37159 8486262
-157.56061 -43.944939 65.424324 9933193
-157.95116 -43.94693 64.474648 11314332
-158.33629 -43.948917 63.522697 9142907
-158.64021 -43.950504 62.75946 7300446
-159.0146 -43.952454 61.803268 7037274
-159.38374 -43.954456 60.844978 7629667
-159.74666 -43.956425 59.88435 8683383
-160.10422 -43.958393 58.921726 7366752
-160.45551 -43.960354 57.95676 6642517
-160.80145 -43.962307 56.989925 8418928
-161.14114 -43.964256 56.020821 8287342
-165.28993 -43.980892 48.897861 8814457
-165.52338 -43.98243 48.101288 7038307
-165.75291 -43.983967 47.303589 7038307
-166.03421 -43.985878 46.304939 6247762
-166.38957 -44.008766 45.326336 8418672
-166.88989 -44.071434 44.385235 8221292
-167.38892 -44.135132 43.441036 7300446
-167.78712 -44.186794 42.683075 9735299
-168.28355 -44.25235 41.732395 9144448
-182.07678 -44.221729 11.39393 8682608
-182.18677 -44.239727 10.74029 8682608
-182.36792 -44.270557 9.649847 9602940
-182.5466 -44.302254 8.5579243 10129286
-183.12199 -44.195225 7.9219608 9734784
-183.66931 -44.08025 7.0594234 9603457
-183.8378 -44.112865 5.9578457 9011576
-183.97488 -44.140747 5.0757275 9932675
-185.77591 -44.079102 3.1113183 10261124
-185.78574 -44.080143 2.4403741 8090470
-185.79675 -44.08186 1.3219279 7037785
-187.87271 -44.089893 -2.0560858 9275004
-187.85661 -44.091595 -3.1868384 9208955
-189.89432 -44.09972 -6.6530018 7234397
-189.85054 -44.101398 -7.7959156 10326668
-191.88838 -44.108601 -10.658266 9011576
-191.84854 -44.1096 -11.351198 9932166
-191.79158 -44.110928 -12.27492 10392461
-192.99371 -43.895588 -13.052233 9537409
-193.10313 -43.733936 -13.90082 8484721
-193.19205 -43.673897 -15.029978 9997959
-193.3013 -43.513531 -15.881784 8681843
-151.98717 -42.659435 76.935364 8880502
-152.6969 -42.764713 76.449791 7104096
-193.38071 -42.993797 -14.015512 8089963
-193.4903 -42.832169 -14.866892 10063495
-193.57932 -42.772511 -15.999529 10063238
-193.68874 -42.612148 -16.854189 8681843
-151.45309 -41.588367 77.734657 6511954
-152.22598 -41.699287 77.207314 7827563
-193.76854 -42.09071 -14.983133 8681843
-193.88853 -41.878284 -15.697382 12234148
-193.94568 -41.913391 -16.877657 10852753
-194.07698 -41.709274 -17.83127 9011320
-151.14983 -40.271584 78.497955 5920082
-151.64256 -40.679649 78.014366 8550772
-152.33453 -40.719784 77.568077 10984340
-194.15703 -41.186131 -15.955385 14075837
-194.27737 -40.97356 -16.672129 9142649
-194.31276 -41.052929 -17.759562 8484976
-194.44328 -40.790062 -18.338411 10261132
-151.19034 -39.640579 78.748642 7564392
-151.96368 -39.745514 78.223602 7958893
-194.5961 -40.119663 -16.779398 8287854
-194.66701 -40.067249 -17.651537 8551026
-194.71283 -40.095879 -18.601419 8550769
-194.93091 -39.656906 -19.570566 9406331
-150.61382 -38.505051 79.602097 7564392
-151.39684 -38.728474 79.019264 7761771
-152.00439 -39.112808 78.474869 5920082
-194.98653 -39.211536 -17.760614 7827815
-195.1438 -38.924782 -18.644167 9274493
-195.09198 -39.180851 -19.350061 9932678
-150.79909 -37.597836 79.883659 7300963
-151.43301 -37.848228 79.381454 5920082
-150.33572 -36.694332 80.56559 10854036
-151.11572 -36.663548 80.095741 9143420
-151.61964 -36.938255 79.663506 5920082
-149.76309 -35.444218 81.466774 9932678
-150.45746 -35.737556 80.908264 9866629
-151.15381 -36.03286 80.347786 11379356
-149.97173 -34.625412 81.695221 9866629
-150.661 -34.845947 81.171745 8616307
-149.54343 -33.629211 82.39592 8419695
-150.17242 -33.720081 81.966484 10459278
-150.76093 -33.870705 81.535995 8089963
-148.90146 -32.403473 83.329262 9932163
-149.59599 -32.687706 82.774757 8551537
-150.36867 -32.770958 82.259598 8288365
-149.30658 -31.675068 83.396599 9077368
-150.00288 -31.958387 82.841331 6511954
-148.30777 -30.265285 84.877762 12431013
-148.77002 -30.614891 84.313057 8682867
-149.38095 -30.844231 83.751129 8617074
-147.78294 -29.411043 85.998383 10851980
-148.47093 -29.633429 85.34951 10852239
-149.18956 -29.807581 84.746635 10326665
-142.19829 -28.581579 98.806023 8682867
-142.77914 -28.685486 98.278267 9538176
-143.21078 -28.876301 97.310875 9143162
-143.79385 -28.878414 96.447212 9011320
-144.37146 -28.880592 95.579803 8748151
-144.83014 -28.882191 94.883675 9734782
-146.99164 -29.022108 87.922142 9011065
-147.64186 -29.068689 87.348473 9010807
-148.29268 -29.115677 86.772575 8681843
-142.3772 -27.608755 99.121422 8945783
-143.05783 -27.941362 98.552811 9143677
-141.83076 -26.603476 99.901665 10853008
-142.54602 -26.774498 99.38237 9274492
-141.27841 -25.560003 100.70231 10195334
-142.13545 -25.68778 100.11388 9866373
-140.95316 -24.551468 101.3233 8617331
-141.5349 -24.590073 100.96825 9208955
-142.16168 -24.73624 100.51478 9011320
-141.00662 -23.56698 101.70269 8222573
-141.79175 -23.617905 101.2349 8222573
-140.41884 -22.397255 102.48003 6511954
-141.17299 -22.659149 101.99244 7564642
-141.89439 -22.917044 101.47849 8617331
-140.81334 -21.645136 102.59251 7103835
-141.4557 -21.827988 102.19496 8090986
-140.10876 -20.399427 103.45971 6511954
-140.77266 -20.722252 102.99369 7432800
-139.74632 -19.388308 104.0586 6511954
-140.29575 -19.631748 103.6827 7235421
-140.9164 -19.667311 103.35686 6511954
-139.84044 -18.685635 104.30128 6511954
-140.57579 -18.668686 103.93961 7367007
-139.20255 -17.235678 105.21935 6511954
-139.88977 -17.695541 104.68507 6840925
-139.50665 -16.569515 105.34173 10591124
-140.23775 -16.647142 104.94319 7893615
-138.99976 -15.528227 106.1171 8617080
-139.61542 -15.808723 105.63314 9867145
-138.21362 -14.256856 107.90341 8879736
-138.69919 -14.600977 107.15936 9735046
-139.21289 -14.910873 106.54362 10261133
-139.68611 -15.140097 106.10874 10853012
-133.29506 -13.311143 118.86892 9406591
-133.92581 -13.513081 118.4706 7761253
-137.26028 -13.852021 109.84264 9537921
-138.00099 -13.875057 109.34962 9340027
-133.39381 -12.515756 119.14693 7103323
-134.15186 -12.757144 118.66875 7761253
-132.82887 -11.627029 119.79491 7564651
-133.55595 -11.691209 119.40525 6971738
-132.32759 -10.522404 120.50019 10261902
-133.01602 -10.714689 120.07702 8617337
-133.63858 -10.993677 119.65104 7037790
-132.44406 -9.5626106 120.837 15722454
-133.13362 -9.7540197 120.41366 14603975
-132.07974 -8.5464277 121.43726 13550517
-132.69716 -8.5591927 121.12356 14603717
-133.25157 -8.7907085 120.75117 15722454
-132.1291 -7.668757 121.77391 7037271
-132.86356 -7.7559886 121.37103 9867657
-131.68776 -6.3400955 122.54128 9537919
-132.26854 -6.7167678 122.09604 6973023
-131.73645 -5.4577966 122.88011 12039079
-132.4982 -5.6896353 122.40406 11380633
-131.32484 -4.4939189 123.48267 13881283
-131.95984 -4.6860428 123.0864 11841700
-131.42111 -3.6820817 123.76962 9867654
-130.88718 -2.4179339 124.5579 8681843
-131.46982 -2.7933438 124.11216 9932935
-130.40509 -1.4498512 125.19802 9010808
-131.13681 -1.4981995 124.813 8813429
-130.00433 -0.33194053 126.01858 8814715
-130.50687 -0.55691206 125.59534 9471359
-131.217 -0.78318179 125.06814 9010808
-129.70081 0.56608576 126.93882 7038307
-130.19095 0.34093553 126.50181 8814715
-130.68095 0.11518511 126.06446 9931910
-124.75313 1.5264894 138.06815 11774880
-125.40145 1.5270987 137.78227 10459278
-129.35222 1.0222225 128.4382 7367272
-124.46524 2.9123809 138.74947 10459019
-124.90112 2.4510114 138.37247 10787985
-125.52218 1.9894308 137.91367 10459278
-124.42982 3.60783 139.04408 9077625
-125.07968 3.6108882 138.7589 8354159
-124.08142 4.7682114 139.66301 8682867
-124.5293 4.4917955 139.35478 8683124
-124.04562 5.4675636 139.95934 9406334
-124.69649 5.4727211 139.67455 8814195
-123.69608 6.6336493 140.58113 8813936
-124.14487 6.3570538 140.27235 9537403
-123.6599 7.3371053 140.87923 6906713
-124.31178 7.3443623 140.59482 7367005
-123.30936 8.5092974 141.50386 8089955
-123.75895 8.232358 141.19466 7564126
-123.09555 9.3721848 141.94421 9668987
-123.92579 9.2263622 141.51982 9668987
-122.764 10.630725 142.59517 9208694
-123.50703 10.310433 142.13921 9537401
-122.78727 11.582643 142.96674 9472638
-123.59913 11.358544 142.51901 11379348
-122.37431 12.529741 143.52861 10196362
-123.02868 12.542397 143.24532 10854036
-122.39732 13.488282 143.90294 9341309
-121.92109 14.493227 144.60529 9669252
-122.57833 14.213102 144.11395 9538688
-121.54194 15.476346 145.56926 9537923
-122.17942 15.192489 145.05147 9537923
-118.73208 16.889708 151.75276 10853012
-119.37717 16.902193 151.44707 8813942
-118.10094 17.86655 152.44975 10129545
-118.82937 17.683205 152.02504 9208955
-119.27683 17.394855 151.69356 9406078
-118.14817 18.695091 152.76109 9603457
-118.91991 18.628681 152.36475 9011576
-117.71198 19.850939 153.46202 9537664
-118.4166 19.566414 153.00377 9866373
-117.92701 20.734262 153.73924 9208699
-118.48405 20.37014 153.31709 8287853
-117.33735 21.854349 154.50189 9537664
-118.04363 21.5686 154.04225 9274492
-117.52198 22.618492 154.74232 9405815
-118.32839 22.385094 154.25745 9537664
-117.11719 23.624826 155.3679 10261127
-117.8932 23.560087 154.97002 9932419
-116.77318 24.892838 156.07707 10063747
-117.22128 24.597855 155.73657 10261128
-116.62246 25.710354 156.50032 9670021
-117.39409 25.680338 156.1194 10261644
-116.20953 26.764397 157.15034 9735813
-116.89472 26.611507 156.75783 9866885
-115.76169 27.465677 157.8636 10590607
-116.40533 27.481792 157.54509 9735299
-117.15919 27.232729 156.97946 10524303
-115.31643 28.532904 158.85139 8814969
-116.01255 28.335587 158.36253 8879733
-116.40894 28.022598 157.94585 9735299
-115.58442 29.261721 159.21765 10984850
-116.165 29.096003 158.80908 9340027
-171.97 -44.323444 34.598869 9537918
-172.26599 -44.358734 33.79623 9537918
-172.63431 -44.403744 32.790516 9011062
-172.92798 -44.44051 31.984537 7563619
-174.84846 -44.331059 29.084276 8617078
-175.13782 -44.37085 28.266367 8486003
-175.4259 -44.411156 27.446802 8814967
-175.78391 -44.462536 26.419825 10459019
-176.14011 -44.514885 25.390116 11182231
-176.44234 -44.562164 24.567179 7564651
-177.18326 -44.485958 23.800837 8748149
-177.49864 -44.581364 22.843473 9143162
-177.92751 -44.613777 21.941423 10459022
-178.32446 -44.639141 21.03182 7892584
-178.61371 -44.731701 20.063749 7958377
-178.8322 -44.687351 19.28911 10261132
-179.18835 -44.590885 18.164351 8813686
-180.31021 -44.356316 16.524717 9536635
-180.50435 -44.382114 15.447596 9536635
-180.61963 -44.398014 14.800573 5920074
-153.53247 -43.605087 75.564789 8485747
-154.3131 -43.49942 75.027504 8682869
-154.88467 -43.535934 74.156296 9800836
-155.40523 -43.559616 73.25901 11051159
-155.85698 -43.791401 72.329102 8092019
-156.27328 -43.81263 71.609818 8092019
-162.1219 -43.961761 58.558224 10262156
-162.40147 -43.963345 57.776676 9734788
-162.74628 -43.965309 56.79813 9537409
-163.08478 -43.967278 55.817314 10721423
-163.41779 -43.969238 54.834637 10524044
-163.67982 -43.970806 54.047054 8089963
-164.00177 -43.972755 53.060715 7959407
-164.31821 -43.974705 52.072559 8485494
-164.62823 -43.976646 51.082447 11445914
-164.93269 -43.97858 50.090572 12432037
-165.11253 -43.979736 49.494564 12432037
-168.48541 -43.992569 44.158382 7827564
-168.74782 -43.99448 43.143314 9143164
-169.03004 -44.003017 42.13319 12432036
-169.46758 -44.053444 41.160301 10787986
-169.85648 -44.092705 40.173763 9735814
-170.16324 -44.123989 39.382004 8089963
-170.5446 -44.164066 38.390194 8089963
-170.92325 -44.204773 37.396076 9735297
-171.22404 -44.237953 36.598812 8090987
-171.59805 -44.280285 35.600006 9077624
-173.08788 -44.106628 33.956856 10261383
-173.38452 -44.142475 33.148815 10523786
-173.75346 -44.188164 32.136402 9207928
-174.12038 -44.234795 31.121752 8879734
-174.41243 -44.272781 30.307894 10261385
-174.63058 -44.30167 29.696642 10261385
-177.34467 -44.312813 24.474615 7564651
-179.95418 -44.312164 18.460306 9866374
-180.11353 -44.33144 17.600653 9866115
-181.47397 -44.131229 14.869951 7564129
-181.66534 -44.15847 13.785345 9866624
-181.85385 -44.186699 12.69919 8287850
-182.00294 -44.209862 11.829313 8682608
-183.48233 -44.065182 10.151564 9405560
-183.54034 -44.066944 9.0468845 9405560
-183.57178 -44.068001 8.3839741 8681835
-185.72517 -44.075623 5.3476162 8090987
-185.74304 -44.076672 4.6767406 8090987
-185.76337 -44.078068 3.7822778 10392967
-187.88397 -44.086468 0.20579325 9011064
-187.8815 -44.088188 -0.92515767 10985111
-189.96075 -44.096333 -4.3665714 9340030
-189.93076 -44.098034 -5.509882 9142651
-191.97131 -44.106255 -9.0408192 8551281
-191.92555 -44.107601 -9.9652271 9011576
-192.88942 -43.839539 -10.947268 9011576
-192.93588 -43.863876 -11.882227 8551281
-193.09189 -43.577896 -12.748095 9537409
-153.23236 -42.273483 76.332855 9209467
-153.65779 -42.765408 75.854256 7959405
-154.49881 -42.774487 75.231224 8485747
-155.09009 -42.916103 74.25325 10458766
-193.05943 -43.376247 -10.957598 9011576
-193.27148 -42.933968 -11.80414 9735043
-193.40825 -42.729305 -12.848093 8747894
-193.47916 -42.675335 -13.710955 8813686
-153.27625 -41.637447 76.583542 9077627
-154.05803 -41.751202 76.049492 9209467
-193.6953 -41.910133 -12.634172 8616822
-193.80632 -41.774887 -13.672876 9274494
-193.86719 -41.771481 -14.678263 9076601
-152.90541 -40.657749 77.241425 8353651
-153.68164 -40.710037 76.737633 8222321
-154.1022 -41.11335 76.300819 8485747
-194.08386 -41.004314 -13.599703 8879737
-194.1951 -40.869221 -14.641657 10194823
-194.25607 -40.866169 -15.650148 11444374
-153.01489 -39.675831 77.602661 7038307
-153.7173 -39.986549 77.031647 8024687
-194.47983 -40.053932 -14.413233 10326409
-194.5629 -40.006153 -15.518953 10589323
-194.69525 -39.799068 -16.473536 8089963
-152.42575 -38.657913 78.412514 7104098
-153.21468 -38.634575 77.933884 7038307
-194.77374 -39.279816 -14.593195 10589323
-194.89485 -39.064926 -15.310595 9931651
-194.9314 -39.141624 -16.399958 7827303
-195.13564 -38.729446 -17.301271 7827815
-195.28159 -38.435028 -17.946512 8419696
-152.0596 -37.560368 79.118996 6117459
-152.74823 -37.719742 78.622665 7235682
-153.25606 -37.999096 78.185944 7038307
-195.16467 -38.369347 -15.569193 8089963
-195.34018 -38.014725 -16.341249 8090475
-195.45142 -37.850533 -17.20405 8025194
-195.51955 -37.813896 -18.127489 8419696
-152.26865 -36.664993 79.380714 5985100
-152.97153 -36.966274 78.813576 6643287
-195.75287 -37.000305 -17.041689 8090736
-151.57253 -35.574539 80.288589 10918805
-152.28188 -35.744793 79.774666 5919050
-151.20264 -34.485451 80.993675 9142651
-151.89064 -34.635857 80.50164 9405823
-152.39856 -34.907925 80.068001 5919050
-151.31969 -33.679722 81.273209 8287342
-152.1105 -33.882301 80.694672 8747893
-151.036 -32.716373 81.869957 9735300
-151.73763 -32.793034 81.401718 9340030
-150.33516 -31.430346 82.866173 7104091
-151.0294 -31.784452 82.281288 9735555
-149.98729 -30.424379 83.695107 8485488
-150.60622 -30.688936 83.092613 7827815
-151.27007 -30.824236 82.590378 9537406
-149.60045 -29.212265 85.614967 12431013
-149.93925 -29.35869 85.012383 8419695
-150.23824 -29.837389 84.070816 8024937
-150.84407 -30.098587 83.459503 9537406
-143.50255 -28.540173 98.014015 9012091
-144.18163 -28.450901 97.631279 7564391
-144.71237 -28.421175 97.314644 6117203
-145.05815 -28.883141 94.534706 9734782
-145.39841 -28.884361 94.010139 9997955
-145.96127 -28.886503 93.133125 9537402
-146.51926 -28.888657 92.252998 10654857
-147.07147 -28.890738 91.36927 10129025
-147.61882 -28.892836 90.482468 9734788
-148.05266 -28.894577 89.770638 8616307
-148.48312 -28.896265 89.056641 8616307
-148.61861 -29.139471 86.483681 9405051
-149.10942 -29.175718 86.049873 10851980
-143.57611 -27.555922 98.399895 8288371
-144.25758 -27.74826 97.89225 7696235
-143.06287 -26.3873 99.231071 8288371
-143.75269 -26.648493 98.688065 8025200
-144.44382 -26.911085 98.143608 7564651
-143.08186 -25.75197 99.497864 8353648
-143.84222 -25.804239 99.002586 8288371
-142.73549 -24.582485 100.22581 9668994
-143.49168 -24.777586 99.670509 9208700
-142.34286 -23.510256 100.93982 7695972
-143.01656 -23.622643 100.47204 7958888
-143.51839 -23.867081 100.05317 9405822
-142.43265 -22.693993 101.24194 8354159
-143.20781 -22.853708 100.6904 7827306
-141.86247 -21.533854 102.09875 7696229
-142.62347 -21.736511 101.54321 7761766
-141.46442 -20.551502 102.71726 9405822
-142.26817 -20.597975 102.25808 7959145
-141.53932 -19.703279 103.02968 9405822
-142.26886 -19.816181 102.60354 10064521
-141.19934 -18.510595 103.69221 7958888
-141.82306 -18.736925 103.28608 8485232
-142.37288 -19.109615 102.85067 6511954
-141.2045 -17.54965 104.08608 9406336
-141.96794 -17.803209 103.59863 7958888
-140.65303 -16.667152 104.72668 7038307
-141.38895 -16.74585 104.32526 9735558
-140.27512 -15.304817 105.67181 7038307
-140.99663 -15.670546 105.04565 7433065
-139.94768 -14.421929 106.70464 9143167
-140.62569 -14.621004 106.11111 8288372
-134.43434 -13.202633 118.34428 6510930
-135.19537 -13.44581 117.86393 9867401
-138.57846 -13.894653 108.99508 10590091
-139.15717 -13.914353 108.63912 9340027
-139.73703 -13.934357 108.28204 9735046
-134.66206 -12.445072 118.5423 8024681
-135.29715 -12.646913 118.14191 9735812
-134.12805 -11.444867 119.22081 6510930
-134.89024 -11.685447 118.74099 9340285
-134.36221 -10.427783 119.52244 8946041
-134.85309 -10.879975 119.09109 9670019
-133.74872 -9.5708952 120.18168 11972517
-134.50594 -9.4787207 119.84127 13749440
-133.38052 -8.3534126 120.86681 9406334
-133.93677 -8.5851326 120.49348 13025461
-134.55902 -8.5983086 120.17713 15197142
-133.45778 -7.6202512 121.12997 8946298
-134.10559 -7.7797489 120.74061 9406334
-132.9906 -6.1394792 121.97289 11380633
-133.51915 -6.6453629 121.50054 9275776
-134.1839 -7.0442228 121.00431 6510930
-133.07272 -5.4318719 122.22321 12367013
-133.80765 -5.486382 121.83389 13024941
-132.47006 -4.3593369 122.96662 10262412
-133.13982 -4.6336532 122.51919 13024941
-132.66393 -3.6942859 123.14443 9143931
-133.43074 -3.9248345 122.66657 13024941
-132.08412 -2.4635603 123.94176 10788756
-132.85013 -2.6446331 123.48483 8616817
-131.71115 -1.2327304 124.63595 9931910
-132.38242 -1.5045292 124.18882 11642266
-131.2466 -0.33522165 125.39703 8089963
-131.86008 -0.48635375 124.97549 9011835
-132.4747 -0.63792175 124.55331 9537406
-130.94518 0.56510317 126.3182 12433069
-131.43694 0.33939874 125.87991 8945786
-132.15674 0.26319826 125.45614 8617334
-126.05148 1.5277047 137.49571 9143677
-126.92061 1.5285575 137.11256 9407363
