# .PCD v0.7 - Point Cloud Data file format
VERSION 0.7
FIELDS x y z rgb
SIZE 4 4 4 4
TYPE F F F U
COUNT 1 1 1 1
WIDTH 1216
HEIGHT 1
VIEWPOINT 0 0 0 1 0 0 0
POINTS 1216
DATA ascii
71.424881 -63.82901 116.77725 8092019
34.506527 -63.732544 122.07031 7563619
33.683453 -63.606422 121.76359 8880246
32.993351 -63.409813 121.54219 10854036
75.608597 -62.247509 115.35275 12433069
74.965569 -62.468456 115.58067 8617331
74.109367 -62.563431 115.96416 8551538
73.197655 -62.530121 116.4267 10327434
72.510231 -62.810341 116.65255 9537918
33.518299 -62.609249 122.08492 8682867
32.582932 -62.594841 121.68556 10393485
76.861313 -61.24789 115.13809 10262155
76.01786 -61.513588 115.44659 11314844
75.154213 -61.513664 115.87197 10591121
74.291512 -61.516243 116.29586 9604226
73.601067 -61.79467 116.52394 10591121
33.310406 -61.755352 122.33134 8880246
32.492386 -61.638714 122.02305 10196106
31.720547 -61.427349 121.77209 9800838
77.982162 -60.353638 115.07105 9340797
77.083015 -60.570427 115.37074 9275260
76.178314 -60.560825 115.81738 10196106
75.317749 -60.728573 116.12456 11248795
74.697601 -60.781803 116.3914 9341054
32.513165 -60.865986 122.34259 9340799
31.547462 -60.559361 122.12416 9735302
30.661728 -60.315609 121.91137 9537923
82.634102 -59.097347 114.3186 9209467
82.198929 -59.081768 114.58519 12432038
80.865547 -59.225578 114.75319 10393484
79.976067 -59.385971 114.99497 9932678
79.065178 -59.619675 115.17918 10392973
78.148895 -59.669746 115.55743 9077881
77.234093 -59.861336 115.84867 9143675
31.38061 -59.850758 122.5919 9340801
30.661991 -59.722473 122.38428 8749178
29.64098 -59.431614 122.26447 8617337
28.703291 -59.141163 122.51288 11183004
104.72162 -58.454685 111.24236 9538949
103.80026 -58.402882 111.76202 9012089
102.88131 -58.572849 111.93652 9209467
102.06182 -58.75198 112.30337 9077886
100.91555 -58.754841 111.84779 8288371
100.24022 -58.754116 112.45193 8288371
98.840347 -58.75668 112.23097 8814969
98.162811 -58.755993 112.82248 7039331
96.914993 -58.758694 112.47423 7038819
96.099876 -58.757912 113.16994 8881019
94.868935 -58.760616 112.8136 9538692
94.188194 -58.759995 113.38148 12433069
92.973518 -58.762695 113.0189 9670024
92.291252 -58.762115 113.57519 8157299
90.956238 -58.764694 113.31575 9276035
90.134972 -58.764038 113.96797 11183772
88.953163 -58.766727 113.59036 10590352
88.129951 -58.766117 114.22816 11643553
86.964272 -58.76881 113.8432 9670020
86.139267 -58.768242 114.46663 11840158
85.040962 -58.806332 114.14403 11709343
84.000618 -58.862736 114.46209 10656913
83.121208 -58.880795 114.84826 9603968
82.074554 -58.950119 115.09338 11511450
81.18177 -59.046665 115.20351 10393484
28.55477 -59.006958 122.87907 12103848
27.663044 -58.939137 122.7205 9406080
26.66555 -58.85807 122.81821 8747893
25.498482 -58.829273 123.02232 10195083
24.652205 -58.830215 123.11066 9011581
23.687565 -58.830883 123.35683 8945789
22.647337 -58.832119 123.43272 8946300
21.679821 -58.832836 123.66336 8880507
20.827282 -58.834198 123.60327 9341057
19.678116 -58.83585 123.58449 8617080
18.635504 -58.836864 123.74436 8288116
17.740814 -58.837757 123.87423 9340286
16.626081 -58.835602 124.18359 10919573
15.694365 -58.63092 124.512 9867143
14.845426 -58.496178 124.3186 8749691
105.56207 -57.528938 111.16676 8486520
104.80124 -57.531719 111.57726 9275521
103.96783 -57.74152 111.94221 7564901
15.53301 -57.901718 124.85847 9867399
14.76603 -57.591167 124.64861 9275777
14.02916 -57.627766 124.31491 9999241
105.80201 -56.465256 111.47258 10261387
104.98952 -56.619404 111.84899 10787732
14.602838 -56.619511 124.96073 9736070
13.803721 -56.614437 124.6165 9209728
12.946557 -56.203575 124.40701 8814203
105.91478 -55.699772 111.72506 10392973
13.667339 -55.716221 124.91133 8683129
12.698687 -55.483982 124.58319 9735047
106.35657 -54.965706 111.78667 12432813
13.472386 -55.044804 125.09142 8156531
12.758554 -54.58923 124.96104 8879996
11.987502 -54.439796 124.68513 10721683
12.623059 -53.722462 125.24216 9406339
11.781228 -53.614597 124.9192 11379613
11.051793 -53.425205 124.67704 8813685
11.698714 -52.617886 125.27426 10129546
10.835755 -52.585163 124.9127 7826790
11.528253 -51.841213 125.50484 8814965
10.835888 -51.747082 125.2414 6840151
9.9638386 -51.470417 124.97153 6182222
10.692162 -50.830032 125.5386 6182990
9.8334484 -50.601246 125.25575 5787464
9.058321 -50.311264 125.03316 5919050
9.7372608 -49.719067 125.55997 5392706
8.8002558 -49.594208 125.2024 5853257
9.4136353 -48.816422 125.77351 5392706
8.7601728 -48.614513 125.56916 5590597
7.9896045 -48.558804 125.25671 5064764
8.6034517 -47.802456 125.81959 7169628
7.8780169 -47.633797 125.57101 6182989
7.1784616 -47.599743 125.28085 5196094
7.7655015 -46.709461 125.88464 9011832
6.8885064 -46.628117 125.53606 6840407
6.7363772 -45.76656 125.84128 7696229
5.9296899 -45.494564 125.67916 5919562
5.1423182 -45.272308 125.50741 5919050
5.7297702 -44.882484 126.08292 6709590
4.8237252 -44.644829 125.92446 8551281
3.9074283 -44.301907 126.02125 8814453
2.7872424 -44.036671 126.37366 8156526
1.8832678 -43.933193 126.35606 7564651
0.90988863 -43.853867 126.53748 8485751
-0.15729389 -43.855354 126.53893 11313047
-1.2244269 -43.856861 126.5318 10326152
-2.1461091 -43.857246 126.85906 9405566
-3.0796742 -43.856724 127.52026 7827822
-4.0013585 -43.858086 127.49342 8683128
-5.0763879 -43.859699 127.45346 9275006
-6.1510701 -43.861332 127.40487 9340798
-7.0718617 -43.862747 127.35584 11511199
-8.0373259 -43.862347 127.99016 9142649
-8.9860544 -43.862892 128.27242 12431781
-9.9130545 -43.864376 128.20288 9340542
-10.993857 -43.866138 128.11307 7434088
-12.018418 -43.720139 128.52391 8618361
-12.979529 -43.536148 128.59933 10656655
-13.985017 -43.525894 128.37961 14143424
-14.603545 -43.34864 128.30753 10985620
-12.163384 -43.111797 128.93744 8618361
-12.984218 -42.795681 128.87161 9669762
-14.017779 -42.733673 128.66472 13617080
-14.900657 -42.667805 128.49277 11446171
-15.563884 -42.372467 128.45433 10656913
-13.121667 -42.12862 129.08728 8682867
-13.962274 -41.848904 129.00363 11117206
-14.97893 -41.755791 128.812 11709857
-15.862977 -41.692326 128.6389 13354938
-16.527689 -41.398815 128.59943 10656913
-14.391397 -41.13916 129.17023 10656913
-15.057485 -40.843319 129.13133 10854292
-15.943645 -40.78043 128.95755 10656913
-16.828939 -40.719376 128.78328 10459535
-17.495274 -40.427467 128.74286 8486262
-15.357007 -40.162102 129.31618 8682867
-16.058117 -39.792343 129.2968 8814711
-16.919788 -39.648853 129.1582 9275521
-17.872833 -39.716358 128.92143 8946556
-17.072121 -38.642197 129.49593 10130572
-17.892317 -38.677864 129.30038 10262157
-18.845623 -38.607018 129.11464 10327948
-19.459621 -38.174011 129.13792 8090987
-18.047417 -37.671032 129.63754 12564652
-18.877279 -37.550068 129.4977 13683130
-19.905256 -37.559677 129.26564 8090987
-20.748369 -37.204014 129.20944 8090987
-19.02652 -36.701542 129.77771 12696236
-19.857937 -36.582489 129.63686 8090987
-20.900181 -36.539043 129.42117 8551538
-21.732979 -36.24041 129.34627 7038298
-20.009573 -35.733543 129.9165 8156780
-20.842606 -35.616249 129.7746 9209468
-21.886744 -35.575069 129.55766 8025194
-22.721727 -35.278015 129.48169 7695970
-20.996639 -34.766777 130.05388 9406847
-21.831375 -34.651173 129.911 9077882
-22.877502 -34.612171 129.69284 9011572
-23.714806 -34.316429 129.61581 7695970
-21.987837 -33.801064 130.18999 8419693
-22.824362 -33.687027 130.04608 9537659
-23.872738 -33.650391 129.82782 9537659
-24.717951 -33.363274 129.7787 6511954
-22.983246 -32.836113 130.32484 7695970
-23.821615 -32.723614 130.18001 10129539
-24.825869 -32.726738 129.99617 7630178
-25.734695 -32.420696 129.98361 9735555
-23.982971 -31.871737 130.45857 7301470
-24.82955 -31.768448 130.3452 7564642
-25.842108 -31.814907 130.18987 10064520
-26.684082 -31.604191 130.15166 10656658
-24.946762 -31.002161 130.60869 9406590
-25.896679 -30.769905 130.61668 10327692
-26.832018 -30.693306 130.54288 10590865
-27.766436 -30.615349 130.45625 8288366
-28.725986 -30.389606 130.47514 9275264
-29.448799 -30.283699 130.45848 7038307
-27.100229 -29.946522 131.03728 8090987
-27.982964 -29.840919 130.99863 9801349
-28.896193 -29.763355 130.94022 11116694
-29.814013 -29.664797 130.89339 10459022
-30.841513 -29.477728 130.97057 10721937
-31.685429 -29.300232 131.19308 9274233
-32.805855 -29.230762 131.24551 9997699
-33.60957 -29.243843 131.09763 13024949
-33.130138 -29.023258 131.86327 8813683
-33.776333 -29.033855 131.74416 11183004
-34.745892 -29.050512 131.56323 9341059
-35.665581 -28.97719 131.82039 11578017
-36.732136 -28.891399 131.96724 12960181
-37.685482 -28.893476 131.69777 11906981
-39.921436 -28.893486 132.82368 7038307
-40.720898 -28.895277 132.57968 7630185
-41.678547 -28.897438 132.28148 10524555
-43.978466 -28.897614 133.38016 12434093
-44.620712 -28.899103 133.16589 8092011
-45.422348 -28.900974 132.89423 8092011
-47.784107 -28.9013 133.97005 14076870
-48.590191 -28.903231 133.67863 12433069
-49.394863 -28.90517 133.38345 14077894
-51.821377 -28.905659 134.43221 7564651
-52.630409 -28.907661 134.11684 9603460
-55.604832 -28.909506 134.95215 9735300
-56.57584 -28.661816 134.99167 7958377
-57.588306 -28.526443 135.11504 8353135
-58.595474 -28.612837 134.94586 8617075
-59.412342 -28.530642 134.86407 8617075
-56.94466 -27.963614 135.4081 7037274
-57.56403 -27.87546 135.35558 8484721
-58.444447 -27.681915 135.30571 8485489
-59.534794 -27.736303 135.13676 8748404
-60.525867 -27.667904 135.02618 9076856
-58.732922 -26.98465 135.52031 8617075
-59.437511 -26.662123 135.54146 8748661
-60.429592 -26.710623 135.38817 9274235
-61.49115 -26.718836 135.24004 8747890
-62.322994 -26.447226 135.22533 9208435
-59.807362 -25.965578 135.74474 8617075
-60.51606 -25.760544 135.72258 9273977
-61.384151 -25.63777 135.64864 8550256
-62.437752 -25.734043 135.46953 8287597
-63.340225 -25.538748 135.41734 7564643
-61.540043 -24.827644 135.92259 9142648
-62.42458 -24.653158 135.86523 10392972
-63.406147 -24.654715 135.7305 8682612
-64.365303 -24.625711 135.60995 8485489
-62.620441 -23.820004 136.14207 9932679
-63.473545 -23.663198 136.08263 8089963
-64.461121 -23.663851 135.94737 7629927
-65.415382 -23.605072 135.83836 7169885
-66.211082 -23.382933 135.81052 9406590
-63.64439 -22.90069 136.33717 9011321
-64.491646 -22.620523 136.32347 8024686
-65.463211 -22.671001 136.17226 6840926
-66.388649 -22.615757 136.06586 8879991
-67.25798 -22.457956 136.00453 12235689
-65.423286 -21.74128 136.51651 7827308
-66.487404 -21.751627 136.36728 8814458
-67.466873 -21.61211 136.28424 12498606
-68.381149 -21.432693 136.22466 11248538
-65.822105 -21.173414 136.66896 10984340
-66.477196 -20.908089 136.6761 7827821
-67.432999 -20.691919 136.62422 9143678
-68.49543 -20.774832 136.44876 8090987
-69.28054 -20.587585 136.40865 7959401
-67.526657 -20.143597 136.81126 9143678
-68.394554 -19.856922 136.79709 8354416
-69.286041 -19.77352 136.70024 7301474
-69.41568 -18.863382 137.00517 7433056
-69.812019 -18.009012 137.2356 6511954
60.166561 -73.157692 118.57294 8288112
59.420925 -73.333717 118.86969 10524043
58.416828 -73.518066 119.21826 10985367
57.534313 -73.530914 119.64917 10327437
56.56316 -73.740143 119.77924 8157039
55.595463 -73.796585 119.66101 8684152
54.492794 -73.797188 119.99668 8092016
53.470379 -73.798508 120.03777 10064011
52.450199 -73.799843 120.07036 7959152
51.570492 -73.696953 120.57979 9339516
50.607258 -73.650696 120.56573 9141881
49.660877 -73.541992 120.74539 8418672
48.73753 -73.525963 120.85436 10985622
47.646763 -73.560135 120.7729 11775394
46.736485 -73.498947 120.90811 9406590
45.623562 -73.437881 120.97041 6510930
44.546612 -73.424377 121.00227 7037274
43.442738 -73.311172 121.07454 6972505
42.486423 -73.173523 121.15278 7959656
61.05917 -72.093727 118.56074 6315092
60.339916 -72.445496 118.77381 8485234
59.449184 -72.486977 119.19617 9735045
58.586739 -72.487259 119.62114 9011321
57.926754 -72.800873 119.82029 10459023
49.142666 -72.791603 121.14107 7563618
48.532379 -72.834152 121.13911 7958376
47.573433 -72.742752 121.19907 9209211
46.450626 -72.674835 121.25372 7893095
45.514862 -72.576637 121.3158 7037274
44.5243 -72.602982 121.32968 8090474
43.537952 -72.632568 121.34219 7301470
42.579391 -72.495911 121.42014 9407358
41.601345 -72.531868 121.42994 10065544
40.840462 -72.325363 121.42781 9736323
62.04018 -71.390923 118.35976 9208699
61.368908 -71.587685 118.61147 7235680
60.427082 -71.555695 119.08853 7301474
59.54401 -71.671501 119.47723 8616820
46.586777 -72.042931 121.50182 8814457
45.61462 -71.897018 121.58378 7300702
44.530354 -71.795624 121.65082 8946295
43.680599 -71.616005 121.74323 6972505
42.752834 -71.52861 121.80084 8288621
41.714542 -71.686882 121.76338 9604737
40.754539 -71.535858 121.69858 7498849
39.994514 -71.242409 121.48811 6511954
63.141346 -70.427185 118.20447 9208699
62.302959 -70.682533 118.515 9077369
61.437366 -70.673691 118.9452 7038301
60.596272 -70.769508 119.32124 5723212
59.936844 -71.020523 119.54527 4342073
42.467464 -70.929703 122.04614 8683379
41.739521 -70.806633 122.11304 10657425
40.731876 -70.650902 122.03467 6972505
39.835041 -70.506645 121.70893 5985870
64.140343 -69.525703 118.07446 10459535
63.348759 -69.630722 118.42239 9143421
62.480934 -69.618958 118.85486 9011834
61.689857 -69.729042 119.20047 7630440
40.373569 -69.725296 122.24998 6511954
39.598888 -69.553566 121.98219 5393738
38.930771 -69.533478 121.70078 5393738
65.911438 -68.261055 117.7099 9210491
65.193108 -68.481361 117.97541 9210491
64.399086 -68.583717 118.32562 10393999
63.528896 -68.569016 118.76041 8814715
62.686699 -68.823418 119.07325 9341057
39.508705 -68.699158 122.27979 6380886
38.645802 -68.482864 121.99127 5393738
66.971611 -67.223869 117.60477 9341310
66.298203 -67.516655 117.81871 10525584
65.454094 -67.541237 118.22476 11512223
64.523285 -67.522705 118.69093 11051673
63.794163 -67.864372 118.91296 8814715
39.34544 -67.969017 122.4967 6249301
38.587505 -67.690163 122.27837 5591116
37.822521 -67.495033 122.02398 5656395
68.18277 -66.195274 117.4221 10327692
67.360779 -66.481346 117.71189 9802117
66.413567 -66.468628 118.18361 11117721
65.48748 -66.631355 118.57432 13682624
38.49419 -66.916443 122.54275 6445910
37.667683 -66.607399 122.30662 5919566
36.8461 -66.302284 122.07106 5196101
69.183022 -65.282349 117.29673 10459278
68.356186 -65.459969 117.63258 10722193
67.338448 -65.498192 118.11852 9801605
66.485344 -65.558975 118.51429 11841444
37.510773 -65.721916 122.58755 7037789
36.750134 -65.535995 122.33142 6643288
36.00462 -65.272545 122.1123 10063238
70.097244 -64.274864 117.25182 10590864
69.288094 -64.495033 117.56182 11117208
68.383972 -64.475449 118.01507 10985364
67.628433 -64.645416 118.31884 10525070
36.686054 -64.753036 122.61212 7300705
35.837166 -64.559151 122.32088 8945015
71.85276 -63.137329 116.84485 8090987
71.16803 -63.420368 117.06824 9406590
70.341393 -63.478226 117.45214 10327948
69.39698 -63.578773 117.87688 11314586
68.556046 -63.729458 118.23051 12235172
36.548611 -63.936222 122.87439 7564648
35.817829 -63.625233 122.68046 8287598
34.895985 -63.514812 122.32478 7563619
72.940659 -62.119953 116.71829 9537918
72.253105 -62.401089 116.94389 8419951
71.361755 -62.587017 117.30814 9011831
70.419647 -62.628426 117.75555 9801089
69.578331 -62.913124 118.0554 10064518
35.536362 -62.684818 122.92912 7893355
34.60215 -62.585835 122.56352 7037787
74.034264 -61.105488 116.58786 10591121
73.372398 -61.430302 116.78316 10853521
72.368935 -61.539974 117.23334 9932419
71.420776 -61.744511 117.61809 9143417
70.72142 -62.033142 117.84647 10261382
35.318844 -62.095249 123.06721 7564648
34.605984 -61.608768 122.95015 8222317
33.696068 -61.534958 122.58517 8682867
75.813538 -60.188267 116.27615 10853012
75.111229 -60.283005 116.54239 9669250
74.213623 -60.43787 116.871 11248538
73.275795 -60.565769 117.25543 10656141
72.348724 -60.786461 117.56228 9735040
71.658806 -61.007263 117.79755 9537918
34.382126 -60.849518 123.15229 9932166
33.693768 -60.679729 122.96695 9603457
32.791416 -60.411282 122.75889 9603715
78.97908 -59.165276 115.88367 9932678
78.251663 -59.143887 116.31338 9406590
77.254097 -59.315933 116.43591 9998727
76.268036 -59.584709 116.56539 10525071
75.36792 -59.62368 116.97276 9471871
74.454109 -59.818775 117.25073 10853012
33.474346 -60.049583 123.33555 10853012
32.69096 -59.821808 123.17904 10590609
31.775949 -59.514435 123.13186 9603715
30.792274 -59.284676 123.00487 8749178
29.923941 -59.133724 123.05029 9341059
102.62543 -58.226398 112.46992 6511954
101.95438 -58.414387 112.72869 7038302
101.11309 -58.53688 113.15889 6906720
100.08289 -58.619057 113.31492 8025198
99.015114 -58.752853 113.52856 7039331
97.754494 -58.755585 113.17555 7039331
97.070793 -58.754925 113.75995 7301991
95.690422 -58.75753 113.51548 9538947
95.142151 -58.757027 113.97353 9933449
94.049202 -58.758606 113.95647 10788247
93.09108 -58.759045 114.28085 8090994
92.008484 -58.760635 114.25375 9210496
91.054573 -58.761101 114.5657 10920854
90.043358 -58.762142 114.70076 11907236
89.032608 -58.763195 114.82846 9932934
88.478577 -58.762794 115.25489 9932934
87.163567 -58.765434 114.96458 9670277
86.330666 -58.76487 115.58976 10262156
85.170898 -58.767601 115.18628 13814719
84.336464 -58.767086 115.79707 13552061
83.05381 -58.76973 115.48663 9867397
82.110924 -58.796165 115.93156 9735812
81.208641 -58.857513 115.83385 9735812
80.235069 -58.934582 116.04955 9275260
79.141808 -58.981972 116.42425 10130057
78.557518 -58.96487 116.76922 10261899
30.681158 -59.069588 123.57397 7565163
29.616959 -59.002579 123.3401 9341059
28.781593 -58.846573 123.52518 12367276
27.876968 -58.824142 123.67912 11182233
26.833244 -58.824966 123.90768 8353650
25.787689 -58.825817 124.12782 6314580
24.890049 -58.826569 124.3093 8419696
23.841089 -58.827473 124.51264 10064011
22.79052 -58.828403 124.70758 7565675
21.8888 -58.82922 124.86744 9340801
20.872465 -58.831078 124.7081 9472387
19.86751 -58.832264 124.78739 9340030
18.814796 -58.833286 124.94883 8155757
17.875008 -58.775475 125.13447 8814199
16.881586 -58.557083 125.1011 9274749
103.88604 -57.185478 112.21417 7564643
103.01535 -57.55492 112.53399 7564643
101.96565 -57.603271 113.08208 10130054
101.17685 -57.837425 113.4129 8287595
16.852411 -57.679249 125.51778 9340541
15.902964 -57.584972 125.1436 9538435
104.65427 -56.355011 112.13873 14077894
103.88529 -56.559402 112.47102 9209210
102.97875 -56.538342 112.9701 10524555
102.20515 -56.806061 113.27902 14077373
16.560881 -56.840698 125.72184 9932166
15.812819 -56.630852 125.48046 8946554
15.039656 -56.566383 125.17089 8881277
105.67767 -55.418556 111.96851 9208443
104.89957 -55.555443 112.3334 9997959
104.01516 -55.570744 112.80566 10590605
103.27821 -55.841854 113.09334 9537918
15.601491 -55.662621 125.7704 8880503
14.890311 -55.645447 125.46908 9012346
14.155574 -55.286072 125.29236 8222835
106.50294 -54.397327 111.94022 14077894
105.84736 -54.48151 112.26046 10392973
105.02722 -54.509785 112.6926 9800580
104.3041 -54.646912 113.02767 11511449
14.893094 -54.73251 125.82997 8485747
13.97622 -54.511421 125.51963 8485490
13.340299 -54.386776 125.29282 8814203
106.68848 -53.347332 112.26984 9867146
106.0363 -53.57835 112.52811 10261900
105.32736 -53.707684 112.85875 10261900
14.64359 -54.008282 126.00669 8485747
13.975975 -53.600922 125.87677 8682867
13.192695 -53.546093 125.55843 8682867
106.82504 -52.486717 112.54848 8880507
106.23006 -52.820766 112.73356 7564643
13.836333 -52.795933 126.13183 9406333
12.946246 -52.611546 125.81796 8814453
12.142432 -52.425201 125.54231 8814965
107.1377 -51.932842 112.60616 11907495
12.730888 -51.668407 126.09435 9604225
11.896404 -51.555286 125.7767 8486000
11.234961 -51.161335 125.64421 6511954
12.519464 -50.921349 126.29556 9999239
11.889829 -50.651161 126.12834 8551793
11.09878 -50.510712 125.8402 6841175
11.682634 -49.751347 126.3913 7038554
10.93898 -49.606316 126.12552 5787976
10.233459 -49.526627 125.85069 5392706
10.894704 -48.701836 126.46098 8090987
10.024097 -48.633064 126.11023 5655878
9.8692217 -47.645725 126.43019 9143930
8.924427 -47.543896 126.06021 7301214
9.7865124 -46.852722 126.70526 10855060
8.9991951 -46.726948 126.41303 10788244
8.1160746 -46.380741 126.16565 11117208
8.8201199 -45.860016 126.6917 10722450
7.9622493 -45.596718 126.4876 11840931
7.0802493 -45.321419 126.30507 9340542
7.7500014 -44.976978 126.87899 10919573
7.0296874 -44.699169 126.79466 9866630
6.037004 -44.449173 126.68346 7235422
5.0310998 -44.249611 126.59543 8419696
5.0525393 -44.08979 127.1525 8682868
3.9813628 -43.934212 127.24548 9603969
3.1219077 -43.892246 127.245 10064520
2.1451411 -43.849354 127.54672 9538436
1.0694326 -43.850822 127.55849 9340802
-0.0063177049 -43.852322 127.56174 10457996
-0.92841399 -43.853615 127.55708 11575961
-1.8504721 -43.854935 127.54572 9931395
-2.9512105 -43.853668 128.56113 8880507
-3.8804612 -43.855042 128.53479 9998985
-4.9642873 -43.856659 128.49626 10656399
-5.8929753 -43.85807 128.45575 8682867
-6.8213391 -43.859489 128.4086 8682867
-7.5947976 -43.860699 128.36429 8353647
-8.8299322 -43.78228 129.37367 9734529
-9.8433256 -43.518024 129.30324 8551023
-10.882117 -43.516087 129.07301 9472384
-11.537286 -43.451481 128.95116 8618361
-9.9169779 -42.773998 129.56145 7959144
-10.832692 -42.575382 129.43123 9011832
-11.846215 -42.604458 129.19518 9143676
-12.494201 -42.466499 129.10208 8682867
-10.97655 -41.806877 129.68291 7038298
-11.800498 -41.510326 129.60918 6643800
-12.805554 -41.620369 129.34517 6578008
-13.561301 -41.375294 129.26758 7827816
-12.000796 -40.770473 129.83772 6117714
-12.813296 -40.521542 129.74898 7367011
-13.8243 -40.637264 129.48152 9208957
-14.628325 -40.393143 129.3929 10656657
-13.10872 -39.803413 129.94839 9077115
-13.83954 -39.569935 129.87209 9800839
-14.767482 -39.543877 129.67543 10195339
-15.596068 -39.416485 129.53825 8814454
-14.076388 -38.822491 130.09531 9340545
-14.808543 -38.590912 130.01805 9735046
-15.79794 -38.597538 129.79565 9537922
-16.612709 -38.356419 129.70349 10590864
-15.047544 -37.843781 130.24068 8617080
-15.781129 -37.61396 130.16245 8287852
-16.822491 -37.619186 129.929 11050899
-17.652384 -37.335052 129.84937 10064521
-16.022287 -36.867012 130.38454 6511954
-16.757299 -36.638905 130.30531 6906712
-17.800014 -36.646687 130.0706 10524812
-18.631811 -36.364353 129.98993 14143424
-17.000748 -35.892048 130.52689 6511954
-17.737255 -35.665508 130.44678 7564386
-18.781363 -35.675793 130.2108 10327179
-19.615089 -35.395138 130.12907 8419696
-17.982882 -34.918694 130.66824 7695973
-18.721033 -34.693607 130.58701 7893352
-19.76664 -34.706249 130.34966 8485233
-20.602371 -34.427139 130.26689 8880247
-18.968973 -33.946644 130.80836 7104092
-19.708757 -33.722935 130.72604 6642772
-20.755932 -33.737816 130.4872 6840152
-21.593765 -33.460159 130.40341 7432800
-19.959023 -32.97567 130.9472 9405822
-20.700497 -32.753269 130.86395 9142650
-21.749336 -32.770298 130.62363 8484976
-22.589302 -32.493977 130.53873 6314576
-20.953085 -32.005547 131.08479 10129545
-21.696383 -31.784369 131.0007 9405822
-22.746946 -31.803463 130.75893 8156011
-23.589144 -31.528303 130.67291 7893350
-21.951321 -31.036026 131.22128 7563619
-22.739691 -30.761717 131.19644 13352885
-23.745304 -30.707918 131.01201 11379608
-24.710297 -30.435553 130.99075 10919572
-25.618132 -30.223421 131.02559 10788243
-23.914337 -29.915873 131.54533 11379609
-24.726545 -29.767191 131.50262 10261387
-25.713018 -29.635857 131.50275 8748918
-26.638695 -29.610495 131.39409 8617331
-27.599821 -29.484303 131.36925 9801605
-28.695009 -29.313095 131.52588 10984852
-29.752712 -29.186445 131.78947 10984852
-30.556055 -29.197206 131.64925 9011579
-27.824875 -29.163149 132.11804 12433069
-28.467457 -29.170544 132.0097 9669251
-29.900143 -28.97646 132.43852 9011579
-30.546007 -28.985004 132.32593 7827307
-31.676418 -29.001001 132.1259 8484719
-32.783909 -28.971624 132.28033 8813683
-33.701138 -28.884933 132.77629 9341059
-34.660397 -28.886957 132.52835 7564651
-35.298885 -28.888315 132.35945 13024949
-37.674858 -28.888538 133.47978 11511452
-38.638996 -28.89065 133.20314 8814713
-39.440998 -28.892418 132.96747 8354163
-41.721893 -28.892464 134.10471 10129545
-42.528996 -28.894293 133.84985 10853268
-43.495762 -28.896503 133.53856 12434093
-45.679379 -28.896336 134.70346 12696241
-46.490189 -28.898235 134.42506 9734787
-47.299404 -28.900148 134.14217 9208443
-49.709232 -28.900509 135.22894 8092019
-50.360222 -28.902088 134.98709 7564643
-51.172787 -28.904068 134.68086 9340289
-52.678921 -28.822065 135.67851 10261132
-53.312435 -28.640074 135.65822 8484976
-54.439617 -28.680082 135.47121 7235421
-55.429451 -28.421404 135.44847 7827046
-56.172867 -28.280264 135.39825 7892584
-53.562786 -28.041895 135.84196 9800837
-54.390873 -27.80022 135.8168 9011320
-55.453297 -27.751795 135.68918 8156011
-56.326687 -27.53595 135.64841 8747890
-57.317013 -27.414343 135.55731 7037274
-54.528206 -27.144905 136.03679 9011320
-55.335331 -26.871321 136.02612 9208698
-56.403408 -26.697994 135.94325 10590091
-57.499996 -26.67214 135.80275 7827303
-58.319271 -26.490099 135.75703 8814197
-59.022442 -26.285608 135.73543 8617075
-55.757744 -26.13727 136.23582 9340027
-56.428547 -26.024784 136.18506 10853006
-57.27166 -25.747149 136.17097 8879733
-58.437534 -25.64677 136.04814 11181972
-59.391617 -25.588461 135.93896 9735043
-60.100292 -25.263338 135.96054 9471355
-57.621128 -25.03286 136.38348 8682867
-58.324646 -24.82543 136.36287 10129797
-59.265736 -24.688145 136.2843 9471869
-60.431202 -24.663555 136.13393 8484463
-61.291348 -24.36039 136.12688 9931905
-58.614086 -24.122505 136.57959 8682867
-59.385746 -23.899473 136.5553 8550769
-60.249619 -23.78289 136.47972 8353135
-61.271233 -23.699205 136.37054 9668991
-62.348549 -23.494396 136.29794 9537921
-60.406704 -22.880848 136.78699 8945272
-61.358395 -22.846033 136.66957 9537664
-62.235027 -22.717894 136.59645 9669507
-63.231438 -22.664642 136.47961 10130058
-61.419472 -21.959564 136.98427 8946296
-62.325539 -21.755209 136.93489 9670019
-63.391888 -21.845255 136.7563 11511196
-64.277748 -21.716089 136.68231 10655375
-65.006828 -21.504198 136.65984 7038307
-62.43993 -21.033474 137.18224 9735812
-63.285954 -20.748634 137.17046 10064008
-64.318771 -20.790495 137.01402 9537410
-65.243546 -20.730579 136.90942 9011323
-66.050041 -20.572144 136.85692 7696235
-64.386147 -19.894075 137.33151 9077629
-65.307884 -19.685759 137.2814 7564906
-66.390953 -19.774847 137.10091 7301478
-67.292191 -19.642427 137.02596 8419956
-68.034683 -19.426577 137.00314 7762277
-65.428474 -18.955576 137.53105 7564651
-66.289886 -18.665697 137.51891 7301479
-67.339424 -18.705915 137.36076 8090989
-68.280029 -18.643278 137.25505 8420463
-69.101143 -18.481112 137.20192 7762277
-67.2388 -17.767591 137.71651 9472896
-68.33358 -17.691282 137.59467 8420463
-69.242226 -17.56567 137.5162 7762277
-69.905525 -17.452642 137.41628 7958888
-67.64566 -17.18873 137.87181 9012600
-68.286247 -16.839365 137.91159 9604994
-69.283997 -16.688313 137.83026 8419951
-70.030472 -16.709299 137.6577 7564130
-69.275383 -16.003242 138.08592 8748916
-70.047829 -15.853003 138.0159 7629923
57.296513 -73.160812 119.9862 9142907
56.559795 -73.28624 120.29893 9276031
55.590252 -73.457146 120.61442 9013116
54.636326 -73.544807 120.70097 7631211
53.634594 -73.370155 120.80029 10261390
52.742558 -73.56913 120.74247 9603717
51.845264 -73.32708 120.86147 9865860
51.115654 -73.115639 120.96355 8615280
58.326122 -72.087578 119.91026 9011321
57.561771 -72.37616 120.17093 9011321
56.594975 -72.491135 120.60121 7893615
55.698475 -72.499123 121.01054 8486007
54.62289 -72.65554 121.06034 9604230
53.651226 -72.530785 121.13389 10721683
52.556683 -72.653015 121.11217 8945788
51.594677 -72.534973 121.18282 8746865
50.560375 -72.627602 121.17142 8746865
49.634571 -72.520638 121.23674 9339260
48.541969 -72.34584 121.3332 8221549
47.562542 -72.192535 121.41828 7563618
59.303135 -71.374947 119.7152 7563619
58.554035 -71.553902 120.01243 9011321
57.544445 -71.55883 120.50806 9011321
56.730762 -71.601456 120.89193 8814971
56.073925 -71.751083 121.15562 8814971
54.744579 -71.966675 121.33149 10854295
53.637268 -71.864601 121.39931 9341314
52.702465 -71.794815 121.45012 8484980
51.712608 -71.571487 121.56332 9141623
50.679695 -71.6371 121.56261 8746866
49.723381 -71.527306 121.62984 8747380
48.648766 -71.663681 121.60201 9734788
47.666943 -71.511536 121.6867 7629669
46.663319 -71.532944 121.70289 7893356
45.689346 -71.387787 121.78461 4735551
44.92606 -71.333755 121.82488 7564645
60.484684 -70.312431 119.55995 5328454
59.572079 -70.594193 119.89648 6511958
58.601536 -70.701836 120.33156 8090219
57.707546 -70.772125 120.74391 10459023
57.048897 -71.03054 120.96467 11381404
51.455418 -71.060715 121.77293 9733502
50.791256 -70.953499 121.83189 10457223
49.696995 -70.721573 121.95113 7037274
48.808796 -70.641647 122.00478 8155755
47.823341 -70.491173 122.08891 6379602
46.790718 -70.683739 122.03767 6709082
45.813797 -70.539932 122.11894 4340793
44.80814 -70.625336 122.1097 7695975
43.823025 -70.601044 122.14359 8419695
42.949345 -70.479889 122.21333 6511954
41.735371 -70.315811 122.30846 11381404
61.366993 -69.342346 119.51508 7038307
60.554874 -69.635979 119.79733 6380632
59.585873 -69.601669 120.28867 6906203
58.794582 -69.720795 120.63081 8682356
46.917973 -69.835442 122.37209 9275007
45.848526 -69.655579 122.47 7301474
44.726517 -69.655228 122.49773 8880502
43.701824 -69.585762 122.55059 8353902
42.643677 -69.636681 122.55637 8287853
41.664791 -69.620995 122.58668 9998983
40.923748 -69.492371 122.58001 8485744
63.008144 -68.207298 119.16247 9538435
62.343765 -68.452736 119.3913 9406849
61.497646 -68.546516 119.7706 7433065
60.626629 -68.541916 120.20174 7038307
59.78548 -68.805412 120.51036 7037790
44.709316 -69.001907 122.75816 7433056
43.735851 -68.868484 122.8352 8880246
42.731182 -68.691017 122.93053 7168860
41.798885 -68.611885 122.98495 8155755
40.763058 -68.639427 122.83767 9406847
40.045307 -68.358932 122.64617 8617332
64.059799 -67.16069 119.06492 9538435
63.388927 -67.460449 119.27505 8354166
62.544811 -67.494568 119.67734 9077886
61.700787 -67.531372 120.07858 9011838
60.954052 -67.718384 120.37143 9011838
40.667027 -67.771431 123.14687 9406079
39.826916 -67.554153 122.86867 10195852
39.078331 -67.208885 122.68056 6249301
65.193298 -66.23793 118.87752 11117721
64.471809 -66.46048 119.14339 9603972
63.59647 -66.447128 119.58012 10327950
62.750187 -66.481125 119.98356 11182745
62.079086 -66.783638 120.19263 13024949
39.78429 -66.693207 123.18938 9471871
38.913799 -66.482933 122.89529 7301472
66.254631 -65.200157 118.77232 11315100
65.500107 -65.596291 118.9846 11315100
64.622734 -65.580093 119.42329 9866629
63.657452 -65.590919 119.89442 11709089
39.627964 -66.024765 123.38504 8287853
38.880825 -65.630028 123.21706 7696233
38.047199 -65.480644 122.91491 13617337
67.258263 -64.517899 118.55249 9735812
66.563393 -64.559914 118.87787 11315100
65.60038 -64.680641 119.30367 10196363
64.67765 -64.831535 119.69749 9866629
38.687416 -64.663994 123.51389 7564651
37.889935 -64.662781 123.169 10130572
37.106308 -64.376579 122.94244 7564651
68.328613 -63.487347 118.43996 13550517
67.49894 -63.6684 118.7758 10393484
66.476707 -63.71146 119.26201 10328205
65.564514 -63.869026 119.64793 9735812
38.406815 -63.976997 123.66304 7564651
37.707943 -63.606194 123.5065 8683130
36.909622 -63.542023 123.18604 6709598
69.917534 -62.358932 118.1113 9209467
69.242348 -62.478909 118.39564 10261641
68.430656 -62.702282 118.70561 12103847
67.493332 -62.642437 119.19137 9603969
66.764259 -62.860199 119.46291 9538176
37.435574 -62.860302 123.68242 9867401
36.726345 -62.602558 123.47681 8288369
35.895096 -62.367386 123.2095 6972768
71.000069 -61.336552 117.98953 9735296
70.313835 -61.622021 118.21268 9669503
69.454979 -61.638813 118.62894 9472125
68.567543 -61.613297 119.07635 10722450
67.835869 -61.828949 119.35004 10590608
36.556549 -61.780525 123.72719 9209214
35.754978 -61.556976 123.46812 7696234
35.046535 -61.360554 123.23874 9932166
73.14473 -60.081028 117.67592 10458510
72.283699 -60.361855 117.86545 10261383
71.417915 -60.616695 118.12074 10458505
70.507248 -60.597904 118.58765 10195589
69.618851 -60.765888 118.90951 9735039
68.990181 -60.920464 119.14704 8682867
35.757034 -60.69384 123.85217 7235940
34.884861 -60.577053 123.55112 9932166
33.987823 -60.168716 123.46215 10853012
76.354942 -59.092449 117.41814 8880503
75.330429 -59.190281 117.58752 9406078
74.366776 -59.365307 117.73927 10129545
73.454758 -59.51516 118.04918 10261131
72.422318 -59.775673 118.28428 9274748
71.472382 -59.9006 118.64701 10787475
70.772682 -60.003746 118.90488 10655889
34.776325 -59.924492 123.99534 9932166
33.950733 -59.59515 123.91379 10392717
32.941284 -59.316303 123.87875 10721938
32.273949 -59.264091 123.61072 9538176
99.93029 -58.360149 113.8399 8946040
99.145042 -58.347061 114.23188 9998215
98.205933 -58.467045 114.53387 8157042
97.374565 -58.650551 114.95597 9078399
96.108337 -58.754028 114.5721 8683384
95.416763 -58.753403 115.14716 8683386
94.039551 -58.756062 114.88214 9670024
93.346092 -58.755474 115.4448 8354678
92.12426 -58.758244 115.05936 8815739
91.290085 -58.757584 115.7197 9999755
90.085564 -58.760349 115.327 11775139
89.389191 -58.759834 115.86561 9472383
88.317604 -58.761478 115.8131 9735555
87.36367 -58.76202 116.09914 9012089
86.358025 -58.763123 116.20879 9341054
85.352989 -58.764244 116.31101 10854036
84.406609 -58.764816 116.58095 9406590
83.357117 -58.766506 116.50153 10130569
82.513031 -58.766033 117.0988 9209467
81.376007 -58.768799 116.67092 9538433
80.38932 -58.768299 117.3503 9538176
79.452591 -58.802704 116.88303 9669762
78.325409 -58.834808 117.33768 9670019
77.468033 -58.89196 117.5782 9670019
76.506203 -58.909706 117.96252 8814453
75.183601 -59.063389 118.08825 9406078
74.74366 -59.053162 118.3377 10129545
31.753506 -58.979729 124.31225 9538176
30.878193 -58.873112 124.37502 8880249
29.994354 -58.825111 124.39346 7564651
28.956114 -58.820972 124.2812 9341059
27.907288 -58.821781 124.51878 9077373
26.856554 -58.822613 124.74795 9011323
25.954378 -58.823349 124.93716 9077371
25.05085 -58.824112 125.11986 9341051
23.99511 -58.82502 125.32452 14472645
22.937721 -58.825951 125.52074 8617593
22.030085 -58.826775 125.68162 8683385
21.121294 -58.827618 125.83594 9932424
19.977556 -58.779518 126.08065 8353135
19.034143 -58.538994 126.12421 8287342
18.071369 -58.363922 125.7761 9340029
100.94566 -57.432178 113.70275 7366494
100.08878 -57.430473 114.13544 10064006
99.253227 -57.628166 114.46756 11642780
98.376038 -57.698261 114.87144 10722193
18.831284 -57.820225 126.31957 9537409
18.050953 -57.586311 126.07366 9669250
17.409357 -57.287582 125.91341 9471871
101.94138 -56.262985 113.64411 13288115
101.21609 -56.559067 113.91523 9208696
100.2669 -56.53484 114.40758 6643031
99.386238 -56.898911 114.69513 10590351
18.010399 -56.657955 126.42185 10195082
17.085466 -56.559479 126.05992 10326668
103.63097 -55.101589 113.20561 7564643
103.03222 -55.357166 113.42488 9537918
102.18369 -55.552898 113.80382 12235171
101.15969 -55.657017 114.31187 9208696
100.40543 -55.971645 114.56561 6510930
17.816051 -55.927753 126.62534 9932166
16.978891 -55.673702 126.36276 9735043
16.06525 -55.502106 126.03457 9209467
103.89819 -54.482155 113.31474 8880244
103.05106 -54.55513 113.74321 8090987
102.18378 -54.591179 114.19762 9340794
101.50872 -54.918934 114.42862 6511954
16.718863 -54.9002 126.55487 9340797
15.983162 -54.560173 126.37011 7893612
15.278892 -54.292397 126.17052 7038307
104.91979 -53.542439 113.14688 9340798
104.06292 -53.547985 113.60818 7433056
103.26693 -53.656452 113.99445 8419952
102.60364 -53.857182 114.2711 9735812
15.997117 -53.709042 126.71107 7367271
15.027545 -53.60688 126.33061 7433063
14.351624 -53.316891 126.15111 8682867
105.92414 -52.470715 113.04242 8419952
105.11978 -52.529362 113.45358 7433056
104.2673 -52.566483 113.89959 6775126
103.54108 -52.780659 114.20479 7564642
15.671409 -52.936558 126.8728 9341059
14.993471 -52.69978 126.67157 8551284
14.170581 -52.542931 126.37605 9011832
106.93017 -51.415535 112.93028 13157305
106.1282 -51.511478 113.32488 10591121
105.25021 -51.612942 113.75829 7893351
14.826079 -51.820969 126.94353 8946042
14.100629 -51.685123 126.68206 10788241
13.333169 -51.479702 126.42968 11709085
107.14588 -50.575603 113.15765 14078662
106.11357 -50.616192 113.69948 11512221
14.029866 -50.827934 126.9875 10130316
13.062139 -50.518196 126.68908 12433579
107.72447 -49.655293 113.22169 13091248
107.23616 -49.691177 113.47112 13091507
106.62365 -49.949451 113.6966 14605262
13.846456 -50.05616 127.21049 10261132
13.01028 -49.620213 127.01868 10130313
12.14214 -49.596127 126.6515 8420207
107.96915 -48.705372 113.47847 15196110
12.758738 -48.91695 127.18534 10459022
12.072977 -48.58881 127.01648 8879990
11.222451 -48.444118 126.70418 10855060
11.860432 -47.6852 127.2786 9340799
11.035304 -47.681953 126.92191 10855060
10.410067 -47.266048 126.81371 10855060
11.066664 -46.747459 127.30193 9407106
10.153285 -46.560764 126.97889 10723474
9.4885845 -46.181862 126.83907 10459278
10.8778 -45.986145 127.51851 9933705
10.144693 -45.677567 127.37394 10065544
9.1623077 -45.43187 127.12289 10130826
9.8605938 -45.076641 127.70953 8092011
9.0003233 -44.787796 127.57465 9276029
8.0916214 -44.512737 127.44629 9867654
7.0671582 -44.237621 127.50018 9866630
6.2907262 -44.180012 127.36835 8879991
7.0974479 -44.076687 128.06479 10130057
6.1618676 -44.007633 127.90462 9866630
5.0737853 -43.928387 127.71264 8222573
4.1746421 -43.843788 128.5368 9669762
3.0905452 -43.845219 128.56612 9209468
2.1611114 -43.846466 128.5838 10262156
1.2316107 -43.847736 128.59476 9735812
0.14708462 -43.849239 128.59883 10261129
-0.9373976 -43.850765 128.59419 9471102
-1.8669382 -43.852093 128.58279 9405566
-2.8133759 -43.851532 129.26604 9012093
-3.7575498 -43.851948 129.59171 9341057
-4.6941342 -43.853344 129.55992 9209211
-5.7865853 -43.855 129.51404 8682867
-6.7929978 -43.652489 129.80573 8880246
-7.7689328 -43.556725 129.68295 8155756
-8.7056303 -43.37561 129.60875 8418671
-6.9170175 -43.011444 130.14072 9932166
-7.7430863 -42.683914 130.078 9405822
-8.7878103 -42.609058 129.87337 9011064
-9.6169767 -42.468548 129.74092 8814453
-7.8721128 -42.012444 130.2973 9932166
-8.6994314 -41.687519 130.23326 11182488
-9.7449083 -41.615837 130.02719 9932677
-10.574965 -41.477863 129.8936 6511954
-9.0407991 -40.901993 130.44789 11051159
-9.7728376 -40.660831 130.37383 7893615
-10.70511 -40.625626 130.17926 7893352
-11.536126 -40.490055 130.04454 7959147
-10.002469 -39.909847 130.60091 8090995
-10.735621 -39.670761 130.52573 8551030
-11.668612 -39.638191 130.32961 8682613
-12.637197 -39.535961 130.15193 8287856
-10.91191 -39.028404 130.72455 10261130
-11.739242 -38.721859 130.65331 9208443
-12.635427 -38.653294 130.47853 9142651
-13.605079 -38.553646 130.29935 8682873
-12.035659 -38.036247 130.84137 9208443
-12.708472 -37.736938 130.80196 9734787
-13.666549 -37.700855 130.60121 8946044
-14.621675 -37.523811 130.45361 8222323
-13.006951 -37.051895 130.98933 10261132
-13.681117 -36.754196 130.94904 8616823
-14.640216 -36.72057 130.74713 7564651
-15.596786 -36.545856 130.59814 6511954
-13.981687 -36.069443 131.1358 8090736
-14.657279 -35.77338 131.09462 7301475
-15.668605 -35.73811 130.88165 8419693
-16.632015 -35.55143 130.73555 7630177
-14.959863 -35.088909 131.28082 7564643
-15.636952 -34.794254 131.23882 9735555
-16.649561 -34.761444 131.02463 9866627
-17.614639 -34.576897 130.87733 8485232
-15.941682 -34.109978 131.42448 9735555
-16.620304 -33.816612 131.38162 11840158
-17.634245 -33.786175 131.16624 10655889
-18.60107 -33.603657 131.01785 8485232
-16.927109 -33.132362 131.56685 12432037
-17.607365 -32.840248 131.52309 9734529
-18.622734 -32.81205 131.30656 9537408
-19.591423 -32.631454 131.15706 9274492
-17.916378 -32.155853 131.70784 9537150
-18.63283 -31.788839 131.68384 10654858
-19.598677 -31.695829 131.50244 10063494
-20.585775 -31.660089 131.29506 8682099
-19.629198 -30.72665 131.87886 8616049
-20.603188 -30.734276 131.68983 8945014
-21.566595 -30.557346 131.5773 8682099
-22.455416 -30.220591 131.62207 7563619
-20.914589 -29.93574 132.17618 10458249
-21.624964 -29.810965 132.12044 9273978
-22.633013 -29.695341 132.01508 7695462
-23.577145 -29.55335 131.94337 9735044
-24.492327 -29.342482 132.00154 9208958
-25.130337 -29.345909 131.89186 7038307
-24.77298 -29.134459 132.61729 8090736
-25.575752 -29.14069 132.48642 8814713
-26.656906 -29.066381 132.5802 11972262
-27.521084 -29.033049 132.57236 13485243
-28.60854 -28.960577 132.65936 9669251
-29.415838 -28.970352 132.52196 8024943
-30.6523 -28.878635 133.51575 9011577
-31.456305 -28.880276 133.32777 11907749
-32.419441 -28.882261 133.09608 9867141
-35.417721 -28.883678 134.09818 7892843
-36.386471 -28.885752 133.83781 11906209
-37.031345 -28.88714 133.66061 16775143
-39.615925 -28.88776 134.7433 9472127
-40.427052 -28.889561 134.50139 9340798
-41.236736 -28.891371 134.25493 9405566
-43.563847 -28.891447 135.40408 8092019
-44.378597 -28.893318 135.13809 8092019
-45.192207 -28.895201 134.86813 14605262
-47.584492 -28.895437 135.99234 9997959
-48.40303 -28.897379 135.70245 13353404
-49.354191 -28.644119 135.99355 10327954
-50.399982 -28.548079 136.08995 9275008
-51.385494 -28.624985 135.92717 9405823
-52.181938 -28.53697 135.8504 9537667
-50.203636 -27.87541 136.36188 9143165
-51.222668 -27.706982 136.28394 9405822
-52.288345 -27.751854 136.12189 9208701
-53.254467 -27.676365 136.0173 9208699
-51.567837 -26.90204 136.53003 11182745
-52.321735 -26.748594 136.48288 9800580
-53.263916 -26.737549 136.35809 8879478
-54.233051 -26.677906 136.24727 9142906
-54.98679 -26.457922 136.22441 8089963
-52.525387 -26.0019 136.72711 9931910
-53.32822 -25.725218 136.71812 8418671
-54.315556 -25.765797 136.56834 8419184
-55.27335 -25.717447 136.45503 9011064
-56.221081 -25.447258 136.42386 8879477
-54.25819 -24.774086 136.93753 8090480
-55.237141 -24.695158 136.83244 9208957
-56.323475 -24.739893 136.66763 9076855
-57.205559 -24.705753 136.55952 9077112
-57.830219 -24.44684 136.56853 8682867
-55.337585 -23.987789 137.07649 10261385
-56.217625 -23.666063 137.07344 9932677
-57.205784 -23.705832 136.9239 9537918
-58.262539 -23.704584 136.77988 8880245
-59.088001 -23.425341 136.76878 9142651
-56.580143 -22.965731 137.2791 9735555
-57.283936 -22.754364 137.25993 9801091
-58.146999 -22.623875 137.18953 8945782
-59.196301 -22.710846 137.01439 8945272
-60.092464 -22.50736 136.96605 9142651
-58.29546 -21.811747 137.46516 7893355
-59.174274 -21.629345 137.41154 9734789
-60.150723 -21.622246 137.28067 9537409
-61.104469 -21.584644 137.16399 8617075
-59.362247 -20.793703 137.69037 8090480
-60.209614 -20.629295 137.63448 7893096
-61.191799 -20.621233 137.50313 7959400
-62.140202 -20.553902 137.39804 8880503
-62.929394 -20.324524 137.37376 8617331
-60.373268 -19.864429 137.89079 7038307
-61.145897 -19.710775 137.84123 7959401
-62.278996 -19.674417 137.69958 9143419
-63.233158 -19.605877 137.59413 8814971
-64.134392 -19.420391 137.5385 8617849
-61.416813 -19.174133 137.99976 8617331
-62.22245 -18.837572 138.01228 8683383
-63.190685 -18.689322 137.93396 9537923
-64.240845 -18.764198 137.76312 9077886
-65.182938 -18.516867 137.7245 8090993
-65.930038 -18.237345 137.7242 9537923
-63.171741 -18.016193 138.18185 8814971
-64.092346 -17.803015 138.1337 9537923
-65.193169 -17.736277 138.00758 7827822
-66.212532 -17.693472 137.88379 9998473
-66.816399 -17.5301 137.86076 11511452
-64.40036 -17.07666 138.35637 9866631
-65.139183 -16.731665 138.38104 9537923
-66.175018 -16.766428 138.22679 8156530
-67.132439 -16.799143 138.08397 9406078
-67.878975 -16.577026 138.06288 9406591
-65.532463 -16.003584 138.59265 7564651
-66.197899 -15.90255 138.55556 7564136
-67.129189 -15.793067 138.49557 9208700
-68.123459 -15.721342 138.41502 10788244
-69.066895 -15.530584 138.38792 9011577
-69.969139 -15.414237 138.35396 6510930
-68.358818 -15.000511 138.88882 9011321
-69.196075 -14.843789 138.89462 8024169
-70.188805 -14.794725 138.78467 6510930
-70.785484 -14.348335 139.12863 7234909
56.416599 -71.391968 121.13108 8814971
55.698963 -71.628281 121.3654 8354421
54.835705 -71.450485 121.53469 11249052
53.886456 -71.323471 121.60856 9538949
52.789833 -71.280388 121.65268 8157040
57.592022 -70.31723 120.98376 7563619
56.729237 -70.600876 121.29494 10065291
55.792995 -70.682709 121.70111 8814971
54.761814 -70.552582 121.89383 9933450
53.812004 -70.686844 121.86376 9012606
52.906231 -70.595024 121.92254 7959661
51.933876 -70.536354 121.96981 10392457
50.874844 -70.441254 122.03369 10655372
50.109547 -70.261993 122.12384 6313807
58.560184 -69.367683 120.88823 7695461
57.74588 -69.576218 121.20577 7563875
56.738106 -69.653091 121.67156 9933192
55.889549 -69.741898 122.04227 8617336
54.799793 -69.674957 122.24211 8289140
53.754837 -69.678131 122.26655 10262415
52.74432 -69.513443 122.35696 8024940
51.730465 -69.65786 122.3244 10721421
50.791771 -69.553444 122.38904 9208698
49.822865 -69.577446 122.40332 7761765
48.85841 -69.604309 122.41635 6774614
47.884342 -69.544838 122.464 9209213
46.666618 -69.27935 122.59964 11511968
45.849247 -69.16198 122.66637 7038047
59.64732 -68.304756 120.77977 8353392
58.693085 -68.574631 121.14157 8616563
57.719769 -68.548294 121.63185 8945527
56.879021 -68.821091 121.93656 8747892
52.522869 -68.775879 122.65585 7563619
51.822819 -68.840553 122.64735 7563619
50.81889 -68.684166 122.73427 10656401
49.757374 -68.652626 122.77294 10919829
48.796879 -68.552025 122.83662 8288366
47.771236 -68.632065 122.82998 9866886
46.767479 -68.602234 122.86654 10722195
45.768414 -68.575455 122.90178 7893609
44.781429 -68.495613 122.95782 7959144
43.806267 -68.362968 123.03462 9406590
43.181011 -68.107956 123.15145 8484976
61.438129 -67.13224 120.36845 9011838
60.600971 -67.349533 120.69373 10196110
59.685307 -67.516289 121.07802 9669251
58.787689 -67.527321 121.51595 9406335
58.041134 -67.722488 121.80541 10656658
49.900074 -68.021599 123.02055 12235433
48.902386 -67.873337 123.10408 8419695
47.814102 -67.715034 123.19387 8813941
46.918613 -67.587471 123.26665 7432032
45.916042 -67.562172 123.30137 7826790
44.901562 -67.652481 123.29038 7893351
43.923512 -67.521072 123.36674 8946039
42.918461 -67.617111 123.35326 8484976
41.932827 -67.60408 123.38268 7300702
41.160709 -67.428024 123.44634 8156011
62.48756 -66.081551 120.27364 13551549
61.612034 -66.578979 120.50519 11248797
60.648746 -66.600082 120.97147 12301483
59.772572 -66.599472 121.40354 9406335
59.160542 -66.776833 121.63391 7037274
45.677383 -66.898552 123.57136 12234661
45.021595 -66.810028 123.62266 11050388
44.003983 -66.601822 123.73057 7300959
43.005383 -66.673897 123.72643 8353646
42.006245 -66.555908 123.79799 7432032
41.012581 -66.604408 123.72276 8353390
40.220272 -66.318291 123.52594 8287853
63.189667 -65.383652 120.20825 11182489
62.520782 -65.628777 120.43924 12827826
61.668369 -65.723297 120.8214 10262929
60.820042 -65.763863 121.22318 10262929
60.070168 -65.953613 121.51651 9603971
42.968853 -66.029091 123.98398 9275261
41.783829 -65.744873 124.12618 9077625
40.833347 -65.61129 124.05935 8222060
40.011131 -65.57695 123.72743 8287853
39.357868 -65.267639 123.5664 6511954
64.324745 -64.458847 120.02132 9932166
63.600681 -64.684044 120.28734 10458510
62.720837 -64.674759 120.72449 11840933
61.870289 -64.712471 121.12829 9473414
61.197079 -65.017006 121.33763 8684155
40.689747 -64.877068 124.29704 9407615
39.832561 -64.621475 124.02654 9143675
39.10976 -64.35144 123.81994 7564651
65.514221 -63.392658 119.86442 9735812
64.660126 -63.642475 120.1846 10195338
63.777981 -63.630505 120.62397 9340029
62.974327 -63.739155 120.97608 9669765
62.249592 -63.967594 121.24116 8684155
39.72794 -63.758335 124.3213 8814968
38.885929 -63.557449 124.0358 8683129
38.134708 -63.228088 123.84026 9867401
66.531075 -62.503181 119.72145 10919829
65.724243 -62.604786 120.07799 9538176
64.737877 -62.556778 120.5832 10326925
63.910812 -62.841187 120.87617 8550771
38.837608 -62.704563 124.35091 10130057
37.965282 -62.511147 124.04936 10985879
67.538002 -61.436417 119.65472 9406334
