# .PCD v0.7 - Point Cloud Data file format
VERSION 0.7
FIELDS x y z rgb
SIZE 4 4 4 4
TYPE F F F U
COUNT 1 1 1 1
WIDTH 1203
HEIGHT 1
VIEWPOINT 0 0 0 1 0 0 0
POINTS 1203
DATA ascii
157.27678 -50.831367 7.1184087 8091248
157.52989 -50.776665 8.1607094 9866370
157.74779 -50.748508 9.0896339 10590092
157.91594 -50.931164 10.147659 9405822
158.19418 -50.72805 11.054688 9668993
158.37959 -50.631111 11.757095 10787217
127.51461 -49.672832 -62.731018 9602429
127.97373 -49.977314 -62.070385 9470843
128.72845 -49.902046 -61.296631 9471612
129.24963 -50.037605 -60.660576 9867139
157.56721 -50.28812 7.5120053 9537150
157.86067 -49.965588 8.2877922 9537150
158.05284 -49.867203 8.9844933 10458507
158.32562 -49.713867 9.9503822 10920086
158.50111 -49.843674 10.952885 9209471
158.6792 -49.805645 11.890053 10853780
158.78304 -49.632156 12.684273 9406334
127.29316 -48.680984 -63.508007 9668221
127.87032 -48.877579 -62.778419 9536893
128.49953 -48.962814 -62.05315 8484975
128.87251 -49.25629 -61.491352 9471613
158.52211 -49.129395 9.8544807 10656658
158.85522 -48.822868 10.834835 7762796
159.06013 -48.747211 11.858372 7366753
159.10124 -48.785713 12.919319 6050636
159.24966 -48.476101 13.751007 6774359
126.8366 -47.902889 -64.422752 9208441
127.54671 -47.79784 -63.71328 8353902
128.18474 -47.880474 -62.979805 9143416
128.57382 -48.248386 -62.360348 5920074
159.2771 -48.109737 11.634811 6708566
159.46181 -47.758686 12.612553 6445394
159.49716 -47.79858 13.773346 7893097
159.54781 -47.766582 14.67979 9735812
126.09653 -46.515095 -66.086388 10260611
126.51886 -46.79364 -65.409027 11050644
127.08127 -46.977173 -64.673981 9406590
127.71317 -46.993908 -63.971283 7959144
128.23494 -47.119743 -63.338284 9143416
159.72903 -47.057476 12.892216 8616818
159.84439 -46.886364 13.694008 8288113
159.91162 -46.815769 14.6339 9341055
160.01994 -46.638634 15.501289 7893614
125.28688 -45.441422 -68.167061 8418927
125.73976 -45.651512 -67.440941 8945265
126.30456 -45.874958 -66.57975 10852492
126.92207 -45.982075 -65.792305 11115922
127.43079 -46.245903 -64.946724 9011832
160.33344 -46.131561 14.62598 9406848
160.61945 -45.807735 15.543701 7235682
160.63573 -45.839638 16.492413 7893607
160.85318 -45.605774 17.409542 7433056
123.3074 -44.451626 -72.742981 10262156
123.71847 -44.47477 -72.189148 9472386
124.33344 -44.510468 -71.355827 10064522
124.76869 -44.626488 -70.341774 8617336
125.14591 -44.761269 -69.453964 8879476
125.50383 -44.970009 -68.478645 8155756
126.17135 -45.033756 -67.670753 8945265
126.62547 -45.245426 -66.941307 10260611
161.17584 -45.129169 16.466648 6511954
161.29965 -45.018093 17.381565 7498849
161.48357 -44.910889 18.33239 8157810
161.81485 -44.697361 19.173508 8289397
162.36514 -44.488857 20.153133 9670278
162.69722 -44.397243 21.190166 10261132
162.66573 -44.417381 21.981903 16775151
120.00343 -43.705978 -81.187592 9340540
120.6526 -43.811646 -80.481079 10721934
120.84355 -44.073154 -79.724823 9603969
121.26991 -44.1189 -78.763382 8682611
121.82866 -44.117668 -77.888657 6512978
122.38103 -44.116444 -77.009926 8090474
122.83666 -44.115421 -76.274704 8616048
122.59888 -44.191414 -74.716537 10786445
123.22287 -44.223873 -73.888435 8156786
123.8447 -44.257542 -73.05706 9604228
124.46431 -44.292469 -72.222549 10327693
163.41824 -44.178341 21.88802 10261132
163.37691 -44.204247 22.882973 9735300
163.92044 -44.052742 23.766685 8616562
164.0372 -44.022602 24.994205 7169375
165.34552 -43.988777 26.627602 10525324
165.17651 -43.987995 27.619507 13879738
166.57086 -43.985195 29.511829 13550517
166.42207 -43.984577 30.311157 8682867
167.81796 -43.981735 32.245785 7892581
167.65602 -43.981125 33.051212 9734779
167.49078 -43.980515 33.855892 9734779
168.97739 -43.776508 35.862041 8616819
168.85446 -43.722389 36.827461 8945784
119.61897 -42.974812 -81.930237 8288365
120.29163 -42.867916 -81.381927 7696485
120.84441 -42.904861 -80.870277 9668991
169.29843 -42.951984 35.931458 8419440
169.25662 -42.75956 36.77467 11446430
119.18153 -41.715416 -82.929573 7103836
119.72057 -41.999615 -82.315605 7959657
120.42844 -42.060474 -81.654655 6578004
169.62686 -41.718987 36.856483 9077114
169.56879 -41.726849 37.271259 8089963
118.77096 -40.666355 -83.774391 8616048
119.2449 -40.883865 -83.256241 7563361
119.98767 -40.990536 -82.552017 7170141
120.45686 -41.345367 -81.974953 7170141
169.8653 -40.893166 37.337631 10064265
118.83703 -39.776497 -84.125465 9076342
119.55106 -39.832619 -83.46981 10589322
120.09756 -40.116184 -82.857277 7366750
118.42829 -38.910797 -84.884239 9669509
119.12176 -38.992622 -84.234856 9800064
119.75524 -39.131104 -83.612419 10063235
118.06465 -37.811047 -85.697914 9472387
118.73987 -37.97961 -85.035645 12630188
119.35402 -38.096409 -84.442215 10392200
117.68276 -36.592571 -86.57325 9406591
118.23836 -36.869213 -85.967941 8880246
118.94762 -36.970776 -85.307579 11117205
93.075928 -35.58873 -145.8134 9734788
93.44957 -35.531868 -145.24709 9734788
117.74357 -35.864849 -86.845482 9275004
118.48787 -35.857227 -86.203545 8682867
118.96906 -36.203957 -85.631493 8090987
93.697159 -35.49403 -144.86945 8419440
94.066513 -35.437584 -144.30309 7432289
94.676849 -35.343739 -143.35916 6839895
95.281128 -35.250423 -142.41513 8617075
95.759659 -35.17622 -141.65996 8550772
97.636169 -34.676582 -134.84839 9537918
98.158005 -34.576859 -133.87735 9735812
98.468109 -34.517391 -133.29517 9143419
117.24996 -34.897808 -87.705368 12761777
117.90771 -35.013752 -87.083321 10853780
118.51224 -34.918751 -86.601524 10130057
98.673431 -34.477875 -132.90738 9143419
98.979492 -34.418713 -132.32585 8616563
99.484604 -34.32074 -131.35765 7827822
99.983864 -34.223324 -130.39047 8419702
100.37871 -34.145908 -129.61757 9735552
100.8665 -34.049633 -128.6524 10721676
101.34854 -33.954002 -127.68834 8682867
101.72962 -33.877956 -126.91798 8682867
102.20042 -33.783451 -125.95615 9340796
102.66556 -33.689529 -124.99541 9735046
102.94175 -33.633545 -124.41949 8617080
116.84357 -33.832443 -88.533546 9143422
117.42001 -33.95594 -87.9786 11577503
118.10042 -34.116867 -87.316795 9866885
116.54436 -32.600712 -89.372643 8091248
117.05034 -32.864735 -88.80011 8617335
117.78638 -33.059109 -88.064468 8748404
112.312 -31.567642 -101.77801 9536635
112.57069 -31.504498 -101.03757 10720651
112.82671 -31.44169 -100.29795 9536635
116.16589 -31.753218 -90.117149 8090995
116.71719 -31.825603 -89.597389 8288370
117.40349 -31.867867 -88.973267 6973280
112.95332 -31.410358 -99.92852 7694946
113.20384 -31.348122 -99.190437 8089961
113.57405 -31.255329 -98.085152 9932934
114.58397 -30.466618 -93.818581 8288883
115.02707 -30.465176 -93.265785 8683640
115.58841 -30.531607 -92.354378 7565163
116.03696 -30.599192 -91.581337 9406337
116.22216 -31.016771 -90.550819 9867144
116.9227 -30.984915 -89.874062 8814969
117.44036 -31.108009 -89.31768 5393738
115.71013 -30.205332 -93.359436 9538691
115.91304 -30.199909 -93.066383 8617080
133.11203 -58.636005 -51.82869 9735043
133.67723 -58.794037 -51.081707 10722194
134.03018 -58.819088 -50.266399 9801605
134.36472 -58.730183 -49.50877 9275260
134.65967 -58.76395 -48.567142 8089963
135.09933 -58.600422 -47.631203 9405823
135.43044 -58.598198 -46.656715 9735302
135.76067 -58.598549 -45.681831 7893615
136.09 -58.601604 -44.706547 8551544
136.48042 -58.428345 -43.750526 9012350
136.80824 -58.436668 -42.77375 9012350
132.7991 -57.563171 -52.74828 9735043
133.25629 -57.907124 -52.068241 9077370
133.95416 -57.939541 -51.285194 10393230
134.39946 -57.90554 -50.4823 10130059
134.67818 -57.897381 -49.669067 9932679
135.01178 -57.889896 -48.693146 8155755
135.34445 -57.885036 -47.717049 8813428
135.67616 -57.88279 -46.740738 9011577
136.00699 -57.883183 -45.76408 8288370
136.33696 -57.886143 -44.787098 8353907
136.66611 -57.891747 -43.809563 8683129
136.99437 -57.900002 -42.831509 9012350
137.38412 -57.73193 -41.871582 10721676
137.71306 -57.700001 -40.93708 10392712
138.04546 -57.579514 -40.092529 8287851
138.30782 -57.557449 -39.343323 6709333
138.70496 -57.435833 -38.308868 8551025
138.92159 -57.450729 -37.65295 5393730
132.35881 -56.723595 -53.678772 9931906
132.88118 -56.88744 -53.026176 9208699
133.64716 -56.849598 -52.219975 8550513
134.18384 -57.239502 -51.412205 8616565
134.58203 -57.368958 -50.550419 9735046
134.86111 -57.36087 -49.736122 10458511
135.25621 -57.174675 -48.780743 8221547
135.58948 -57.169872 -47.802898 8616048
135.98322 -56.988861 -46.845772 8617073
136.31477 -56.989227 -45.86692 8551537
136.64552 -56.992153 -44.88768 8090989
136.97543 -56.997662 -43.907967 7433064
137.30455 -57.005772 -42.927704 9012094
137.69504 -56.837616 -41.965569 9406074
137.96822 -56.848362 -41.147202 11379348
138.24091 -56.861088 -40.328278 7827300
138.56749 -56.878632 -39.34481 6511954
138.93582 -56.823044 -38.32077 8090474
139.28163 -56.742432 -37.391632 5393730
139.60641 -56.767673 -36.404613 8748912
139.99399 -56.616295 -35.43222 9800832
140.30898 -56.608688 -34.511387 7563619
140.70482 -56.500271 -33.465889 8155755
140.92026 -56.523567 -32.803955 8089963
147.17894 -56.666672 -17.669598 8353647
147.53012 -56.49382 -17.052536 8682098
147.92769 -56.466511 -16.138611 10524040
148.32394 -56.575626 -15.100864 9406077
148.65524 -56.668941 -14.23296 9537666
149.05707 -56.580677 -13.367901 9406079
149.45819 -56.59586 -12.408539 9340539
149.86011 -56.613266 -11.445141 9932675
150.27763 -56.57552 -10.49622 9537920
150.66701 -56.655087 -9.5047531 7827815
151.00409 -56.69239 -8.6758804 8551282
151.48029 -56.602142 -7.637424 9143163
151.81985 -56.608444 -6.8313632 9997959
152.13649 -56.671192 -6.002563 10392461
152.39389 -56.585815 -5.2059855 8681843
131.98456 -55.590767 -54.697098 8419952
132.50319 -55.87479 -53.983318 9077881
133.19112 -55.958462 -53.195457 9932678
133.67284 -56.098637 -52.59956 10854036
136.67152 -56.274857 -45.622189 7039322
136.8923 -56.277184 -44.968124 7038813
137.28127 -56.193813 -43.914558 8354165
137.61455 -56.111847 -43.023819 7038307
137.94618 -56.062084 -42.101627 8222058
138.25426 -55.907856 -41.36702 10261125
138.55312 -55.966721 -40.41856 8090472
138.88054 -55.984013 -39.432869 6774870
139.2094 -55.958214 -38.491619 7761509
139.59636 -55.847221 -37.475258 5393730
139.92207 -55.872101 -36.486061 8288106
140.30824 -55.766369 -35.466156 11182225
140.60585 -55.79385 -34.556839 8813683
140.90051 -55.723606 -33.766804 7695205
141.1754 -55.805912 -32.862583 8089963
141.49883 -55.842693 -31.866539 8089963
141.84309 -55.777512 -30.924255 7958889
142.20004 -55.705475 -29.952204 9143160
142.59558 -55.608868 -28.894136 9603712
142.81039 -55.639828 -28.225145 9735812
144.04489 -55.486225 -25.249176 9341316
144.47888 -55.585445 -24.253807 10064778
144.84099 -55.670269 -23.421478 9538176
145.27139 -55.576527 -22.596622 9209211
145.70753 -55.683231 -21.590332 8618105
146.10159 -55.821747 -20.645618 11117467
146.53072 -55.759094 -19.797199 8748661
146.9437 -55.800392 -18.89513 8682867
147.34775 -55.958385 -17.913467 10130054
147.77757 -55.782066 -17.128231 9010806
148.20363 -55.784424 -16.122784 9931905
148.56784 -55.883411 -15.169945 9077369
148.92517 -55.873882 -14.335209 9537921
149.33661 -55.844852 -13.39201 9537664
149.74915 -55.817951 -12.444809 10326668
150.1095 -55.813965 -11.599228 10260874
150.49875 -55.864239 -10.635342 8814456
150.94046 -55.786354 -9.6666756 7827820
151.29243 -55.812645 -8.8128395 8880249
151.65898 -55.92841 -7.8415179 9735043
152.13351 -55.732334 -6.9052844 9997959
152.47095 -55.824436 -5.9871669 9734787
152.70724 -55.845802 -5.0320888 9800580
152.95844 -55.714939 -4.1204906 9932166
153.20961 -55.585609 -3.206264 9538176
131.60031 -54.712631 -55.5881 10590091
132.12302 -54.868626 -54.939308 9077882
132.84267 -54.860043 -54.16724 9341054
133.3492 -55.157669 -53.459076 10854036
138.91232 -55.256741 -40.16172 6511954
139.13097 -55.268436 -39.503315 6906456
139.5304 -55.146271 -38.462677 7958889
139.84816 -55.131191 -37.542202 5393730
140.23767 -54.976742 -36.567497 6314831
140.5486 -54.940929 -35.690483 10919310
140.87856 -54.810188 -34.864769 11379348
141.16943 -54.875225 -33.932613 7563619
141.55806 -54.729534 -32.950562 9866628
141.8826 -54.765686 -31.951857 9010807
142.20673 -54.804398 -30.951548 7958888
142.53043 -54.845634 -29.94952 11511449
142.82417 -54.932552 -28.984379 10722191
143.11835 -54.87315 -28.183277 12696492
143.39195 -54.968208 -27.26844 10591120
143.81305 -54.851414 -26.276983 12499632
144.31245 -54.766293 -25.295208 10920346
144.68698 -54.906418 -24.390118 9933193
145.07326 -54.890507 -23.59219 9538176
145.59233 -54.78093 -22.594337 9472384
146.01271 -54.818741 -21.679375 8947070
146.40166 -54.808174 -20.871323 8881277
146.77858 -54.909618 -19.994171 9143676
147.31859 -54.812862 -18.942108 9801346
147.71442 -54.744518 -18.168839 10130054
148.08188 -54.898003 -17.234425 9471356
148.50156 -54.892338 -16.250732 9537148
148.9521 -54.723866 -15.343372 9603457
149.2854 -54.814072 -14.47184 9011576
149.65195 -54.96632 -13.464531 9932166
150.06517 -54.787338 -12.656506 11181977
150.49799 -54.747829 -11.673279 9274236
150.84348 -54.907757 -10.710659 9735812
151.21288 -54.841209 -9.9018364 9012091
151.68002 -54.805523 -8.8340607 9274749
152.05157 -54.742077 -8.0173912 9603713
152.40134 -54.859104 -7.0845027 9669250
152.80807 -54.831631 -6.1370044 9537664
153.07825 -54.757095 -5.1808047 9668994
153.30563 -54.774643 -4.1286159 9603713
153.4837 -54.891575 -3.1320338 9932423
153.7399 -54.704239 -2.2922511 9735299
153.99191 -54.577229 -1.3705517 8681843
131.20596 -53.702518 -56.561485 9340027
131.74008 -53.869122 -55.89468 9734784
132.42784 -53.943619 -55.111977 9670019
132.90973 -54.076675 -54.519703 9341054
141.03433 -54.306461 -34.974537 8681835
141.4191 -54.250412 -33.902317 11445142
141.81311 -54.012035 -33.00919 10591121
142.20238 -53.868298 -32.022926 9143675
142.57047 -53.831333 -30.978479 9077625
142.86719 -53.814693 -30.121525 9866884
143.16255 -53.752621 -29.320091 11051158
143.45723 -53.840492 -28.350992 10065036
143.78123 -53.88776 -27.341286 9867658
144.14421 -53.952198 -26.336445 9077114
144.60437 -53.895966 -25.417 12497830
145.04019 -53.70924 -24.659344 10195080
145.44289 -53.848476 -23.695797 8221292
145.87999 -53.900105 -22.734074 9537406
146.31525 -53.854916 -21.857887 8879475
146.68216 -53.943161 -21.012867 8156524
147.12331 -54.051678 -19.995106 10196106
147.48999 -54.077396 -19.203499 10261642
147.92982 -54.056854 -18.29744 9735296
148.35818 -54.167179 -17.265701 9602941
148.69101 -54.252296 -16.399994 9471355
148.8909 -54.304371 -15.879128 9931905
149.63116 -54.097534 -14.323105 9735043
149.89914 -54.170586 -13.622009 9932166
150.23476 -54.263832 -12.742783 10392461
151.52432 -54.22633 -9.7386169 7893615
151.72783 -54.287289 -9.2024612 7564651
153.0784 -54.28849 -5.9629092 9405822
153.31735 -54.081108 -5.234077 10129801
153.61621 -53.822948 -4.3205256 10656399
153.83977 -53.802395 -3.3490748 9538175
154.08878 -53.761978 -2.2961955 9669762
154.26732 -53.881889 -1.2926289 8946043
154.4944 -53.777294 -0.4455601 9208958
154.77737 -53.571487 0.48393285 8157299
130.7453 -52.682293 -57.611969 9405822
131.35504 -52.875702 -56.849037 9340027
132.07405 -52.858498 -56.08231 9603199
132.5784 -53.271111 -55.314198 9341054
143.44501 -53.083725 -29.242767 11379867
143.71597 -53.120792 -28.401354 9670535
144.10564 -52.987408 -27.402016 8091761
144.47701 -53.053459 -26.396193 10655886
144.84154 -53.130486 -25.565392 13023917
145.27367 -53.029385 -24.743023 9866115
145.71263 -53.126499 -23.738884 8221292
146.07899 -53.209454 -22.899185 11510169
154.07787 -53.126686 -3.4062991 9472639
154.401 -52.807671 -2.4852481 11708572
154.62523 -52.789665 -1.506435 9866888
154.87512 -52.751854 -0.445274 8354677
155.05862 -52.814999 0.48583639 7565675
155.2504 -52.829472 1.3729099 10196366
155.56653 -52.567913 2.357842 9933708
130.38707 -51.673409 -58.545769 9274237
130.96733 -51.888554 -57.802856 9274236
131.65495 -51.954315 -57.025043 9603455
132.13712 -52.080532 -56.436192 10590091
154.84125 -52.175137 -1.5608364 10458768
155.18898 -51.794743 -0.63146555 10721683
155.37332 -51.856632 0.30141103 7960176
155.63849 -51.788071 1.3776401 10985881
155.85474 -51.749966 2.2829862 8289396
156.04373 -51.826649 3.257504 8092011
156.30266 -51.689034 4.1874623 8092011
129.96713 -50.722206 -59.514938 9537406
130.63727 -50.837791 -58.728954 9932163
131.29601 -50.881626 -57.99424 10327176
131.80203 -51.285213 -57.229172 9801604
155.63829 -51.20071 0.3964237 8157555
155.97098 -50.851528 1.3037494 9670536
156.16805 -50.848652 2.1815877 9012861
156.42055 -50.785027 3.2061887 9144442
156.63791 -50.748817 4.119206 9012856
156.84229 -50.825512 5.1626859 9276034
157.10258 -50.689468 6.1013227 10788759
129.60402 -49.724583 -60.447868 9406591
130.18507 -49.931595 -59.708462 8222572
130.87268 -49.988976 -58.935249 10064261
131.35518 -50.108681 -58.349548 10590347
156.38097 -50.279705 2.185349 8749945
156.72656 -49.863811 3.0388608 12499369
156.96756 -49.842136 4.0819554 10591630
157.2258 -49.720051 5.0347447 8618106
157.41257 -49.790169 5.9882932 9144449
157.59927 -49.861954 6.944386 8814456
157.85754 -49.700253 7.831326 8945014
128.91875 -48.657677 -61.766144 9143416
129.38469 -48.722206 -61.228222 9669507
129.8654 -48.835491 -60.647968 8617075
130.50868 -48.927986 -59.903503 8090987
130.89903 -49.305481 -59.277431 8090987
157.14429 -49.25795 3.8982549 11907232
157.47472 -48.944344 4.8545308 7631468
157.7421 -48.868881 5.9260755 8092019
158.01506 -48.709621 6.8827939 9274492
158.19153 -48.832085 7.8776326 8813428
158.41138 -48.800674 8.8097649 8747892
158.66672 -48.701096 9.7872162 9604485
128.58109 -47.52573 -62.744495 9143416
128.97115 -47.894287 -62.123581 6709333
129.61319 -47.981369 -61.383366 9406335
130.27336 -47.936337 -60.695309 8090987
130.56413 -48.159637 -60.260403 8090987
157.98695 -48.263474 6.0121617 8815227
158.22673 -48.025501 6.6888356 8946299
158.53421 -47.769405 7.6382031 8353134
158.76227 -47.806293 8.7213135 8156270
158.99719 -47.709221 9.6114616 9406849
159.18172 -47.84602 10.666233 7960175
159.44014 -47.656723 11.583103 7563874
128.18555 -46.527161 -63.823467 7433056
128.65871 -46.77409 -63.116039 11577243
129.30357 -46.90007 -62.330574 7367006
129.87712 -47.094746 -61.587303 8419696
158.79709 -47.255672 7.9577832 8089963
158.9946 -47.037975 8.479435 7958634
159.32161 -46.796127 9.5225868 9208701
159.61778 -46.686947 10.504421 9011836
159.78122 -46.75452 11.480583 9340541
159.8652 -46.714062 12.414104 6576979
160.03468 -46.435074 13.047195 7563874
127.41982 -45.661449 -65.614159 7959144
127.93473 -45.717525 -64.995171 7498849
128.47992 -45.845177 -64.262756 7630179
129.045 -46.044559 -63.428596 14405571
129.45216 -46.2271 -62.783859 12432295
160.27072 -46.039192 11.517979 8814710
160.39661 -45.92244 12.380444 7630436
160.57799 -45.738991 13.353073 7827561
160.75922 -45.557438 14.355209 8156784
160.88054 -45.438271 15.068531 7038307
126.03448 -44.501167 -69.548859 8813683
126.44063 -44.527527 -68.985062 8550512
126.85806 -44.612896 -68.133659 8813681
127.13566 -44.891541 -66.959175 10063489
127.67363 -45.031429 -66.130386 9011058
128.19926 -45.161346 -65.335068 7959144
161.12082 -45.036396 13.530945 7563874
161.20895 -44.972687 14.31958 7563874
161.31619 -44.874249 15.18972 6577493
161.62216 -44.740803 16.187702 7499108
162.09143 -44.536938 17.156116 10262156
162.56419 -44.396622 17.867657 8092019
162.78156 -44.340157 18.817806 8092019
162.75539 -44.358589 19.608078 10262414
121.63885 -43.752598 -79.746368 8418926
122.35979 -43.858879 -79.050728 9011320
122.95237 -43.97831 -78.463203 8288109
123.10793 -44.114807 -75.832344 8616048
123.46675 -44.113987 -75.240662 9142135
123.99996 -44.11277 -74.350166 9933192
124.52676 -44.111546 -73.455856 9341057
125.04704 -44.110325 -72.557777 9603972
125.35557 -44.230793 -71.539642 7696237
125.78314 -44.31385 -70.69091 10130057
126.106 -44.391361 -69.981392 10261124
163.49901 -44.124691 19.701996 10985366
163.45656 -44.153503 20.893929 10261132
164.41585 -43.994064 21.625198 11313820
164.27689 -43.993271 22.611565 9340285
165.69609 -43.990501 24.441917 7037274
165.57172 -43.989876 25.237259 13551541
165.44408 -43.989243 26.032032 7564643
166.85603 -43.986443 27.910671 11446178
166.67958 -43.985661 28.911606 14076865
168.09151 -43.982773 30.834316 15196110
167.93661 -43.982204 31.641182 10853780
169.2843 -43.81472 33.664284 8155752
169.17526 -43.761154 34.630627 6511699
121.24623 -42.779854 -80.572685 8418926
121.85191 -42.908123 -79.969139 8418925
122.51358 -43.091507 -79.288681 8682611
169.51198 -43.125076 33.851738 6511954
169.54056 -42.780266 34.585354 6774870
169.48911 -42.597073 35.475815 6906713
120.87317 -41.740536 -81.414024 5920074
121.41582 -41.833347 -80.884178 7695203
122.13705 -41.898598 -80.208313 9603199
169.84161 -41.891186 34.769547 6511954
169.79727 -41.737106 35.527218 6774870
169.72888 -41.639565 36.309155 8089963
120.39983 -40.620762 -82.358559 5920074
120.86976 -40.976082 -81.780182 7762278
121.60799 -40.982792 -81.12458 7498337
122.14192 -41.133297 -80.57827 9011320
170.09171 -40.930893 35.533104 6643284
169.98143 -40.878086 36.506893 8024169
120.18081 -39.523964 -83.056305 10063235
120.63579 -39.818039 -82.519661 5525316
121.2888 -40.055882 -81.834175 7367264
121.82594 -40.383018 -81.209885 6511954
170.31981 -40.238247 35.724232 7037274
170.3479 -39.892509 36.464481 8484976
170.28935 -39.763096 37.260658 9669250
120.16766 -38.759491 -83.419533 9800319
120.91621 -38.863846 -82.711235 6248783
121.46602 -39.149101 -82.094963 5393730
170.64977 -38.999245 36.653076 8484976
170.63702 -38.800892 37.295128 10261643
119.75668 -37.965069 -84.147545 11444117
120.37823 -37.922318 -83.618874 8879474
121.00111 -37.880417 -83.088722 6577748
170.95734 -37.860535 37.474251 13025202
119.35481 -36.769577 -85.04438 9275003
119.83797 -36.984257 -84.526192 8616559
120.58881 -37.084381 -83.818573 7367006
93.725273 -35.655983 -148.38655 7302245
94.230591 -35.578941 -147.61813 8222832
94.606903 -35.521423 -147.04179 7169629
118.89954 -35.482063 -86.014244 8090987
119.38171 -35.829247 -85.441032 8090987
120.14023 -35.928047 -84.739182 7169884
120.57408 -36.31921 -84.183594 6511954
96.234062 -35.102322 -140.90482 6511962
96.821083 -35.010452 -139.96092 8879992
97.398758 -34.917843 -139.01241 8419696
97.835533 -34.836933 -138.22485 9735812
98.264938 -34.755333 -137.43338 12169381
98.795685 -34.653858 -136.44508 10327434
99.320396 -34.553066 -135.45782 12037794
99.632111 -34.492832 -134.866 10262415
118.97031 -34.841354 -86.238976 9012088
119.63403 -34.814171 -85.675598 8814709
120.19463 -35.092506 -85.065231 7564643
99.838516 -34.452919 -134.47171 11906725
103.12466 -33.596249 -124.03593 8617080
103.48724 -33.522137 -123.26922 9143166
118.56389 -33.757866 -87.07531 8353903
119.15714 -34.024582 -86.441719 8354159
119.95592 -33.997124 -85.761429 8222573
103.93576 -33.429955 -122.31194 9800581
104.37802 -33.338402 -121.35596 9340030
104.81482 -33.247433 -120.40121 8089963
105.16 -33.175068 -119.63831 8089963
105.58601 -33.08527 -118.68597 8024680
106.00662 -32.995926 -117.73476 9734527
106.42126 -32.907322 -116.78501 10458249
106.8306 -32.819206 -115.83656 10851980
107.15381 -32.749218 -115.07873 9404792
107.55269 -32.662193 -114.13274 9404792
107.94636 -32.575733 -113.1881 6510930
108.3341 -32.489899 -112.24487 7826276
118.22752 -32.693562 -87.849236 7563619
118.7854 -32.965096 -87.237923 8287341
119.5013 -33.0606 -86.573875 9406591
108.71674 -32.404663 -111.30296 6182734
109.09358 -32.319962 -110.36256 10261382
109.46529 -32.235867 -109.42345 10261382
109.83131 -32.152378 -108.48588 9472125
110.19235 -32.069347 -107.54967 9932419
110.54767 -31.987017 -106.61498 10129798
110.89799 -31.905195 -105.68166 7564651
111.2428 -31.823914 -104.74991 9669508
111.58269 -31.743217 -103.81952 9537665
111.91708 -31.66313 -102.89073 9998216
112.1813 -31.59938 -102.14867 8089963
117.81272 -31.660769 -88.713837 8618102
118.29351 -31.865133 -88.191368 7958889
119.04819 -31.952177 -87.485649 9800837
119.52412 -32.292702 -86.902451 13024949
117.0122 -30.4646 -90.770927 11051415
117.56104 -30.466263 -90.075653 6183253
117.93345 -30.747824 -89.191887 7367781
118.58498 -30.859438 -88.463707 8880503
119.04044 -31.192656 -87.864639 9340286
116.2193 -30.192776 -92.628632 8617077
116.76549 -30.190948 -91.927399 10459278
117.42793 -30.191843 -91.091454 12827827
117.97882 -30.193434 -90.39373 5393738
134.40408 -56.808804 -51.403824 8748408
134.7431 -56.797958 -50.721035 8814459
135.04393 -56.824528 -49.803123 9011581
135.43953 -56.63842 -48.846416 7563619
135.77321 -56.633591 -47.867207 10851980
134.0836 -55.753696 -52.343208 9011320
134.62698 -55.907505 -51.67334 8353393
135.0125 -55.940681 -50.895596 8222579
135.34866 -55.93084 -49.914799 8024944
135.68385 -55.923553 -48.93396 8747377
136.01814 -55.918797 -47.952999 9602428
136.3515 -55.916553 -46.971775 8879988
136.68555 -55.872162 -46.036289 8091498
137.07735 -55.741051 -45.028465 7630949
137.39865 -55.710258 -44.115097 8814715
137.80057 -55.575626 -43.081528 7038307
138.0204 -55.582188 -42.425331 7038298
133.25095 -54.513462 -53.914627 9341054
133.71342 -54.85017 -53.232796 10854036
134.44212 -54.783985 -52.482162 8879734
134.97047 -54.914009 -51.841469 8287600
135.35852 -54.970001 -50.972385 8682616
135.71419 -54.858669 -50.048771 8682872
136.05026 -54.851505 -49.065262 10326151
136.38542 -54.84679 -48.081627 9076599
136.7197 -54.844593 -47.097744 9208699
137.0531 -54.844902 -46.11356 10195339
137.3857 -54.847675 -45.129021 8617076
137.71747 -54.852985 -44.143974 11183003
137.99928 -54.91095 -43.246864 8748665
138.29803 -54.823132 -42.464672 8090730
138.5986 -54.879292 -41.51432 10392710
138.92958 -54.848404 -40.572487 9077108
139.31871 -54.731873 -39.556103 6511954
139.65073 -54.660122 -38.657471 9603458
140.03696 -54.594261 -37.592361 5393730
133.34015 -53.780243 -54.215954 8551538
133.9799 -53.897064 -53.46207 10393486
134.63222 -53.955444 -52.726364 9406848
136.35052 -54.13588 -48.988533 9340286
136.63026 -54.132252 -48.167358 9340286
137.03647 -53.98708 -47.132698 9143166
137.36066 -53.951721 -46.216301 9866631
137.75414 -53.820641 -45.203419 8485491
138.03905 -53.831421 -44.350449 9867141
138.33908 -53.741486 -43.566906 9472383
138.64128 -53.795082 -42.614563 9865858
138.97206 -53.806812 -41.625225 11773084
139.30215 -53.820988 -40.635105 10524043
139.63161 -53.837685 -39.644127 9340795
139.96045 -53.856792 -38.652222 13287346
140.28865 -53.878387 -37.659264 7565157
140.58687 -53.946178 -36.702576 6117969
140.88358 -53.871304 -35.911602 8353901
141.22449 -53.768929 -35.021179 9273972
141.54192 -53.761555 -34.092815 10392454
141.94061 -53.653263 -33.038528 10591121
142.66568 -53.361088 -31.229176 8880503
146.88728 -53.399265 -21.041584 8616303
147.32948 -53.506763 -20.022442 10787986
147.69858 -53.598549 -19.169956 10064265
148.14024 -53.610794 -18.232502 9406078
148.56477 -53.618744 -17.289047 9405821
148.89839 -53.703083 -16.422176 8747891
149.23248 -53.789562 -15.552185 9669249
149.67694 -53.704998 -14.580971 9997960
150.08279 -53.571087 -13.747009 9866373
150.4454 -53.711117 -12.759926 10524047
150.80922 -53.854092 -11.76923 9274492
151.23047 -53.728596 -10.893097 9472641
151.61995 -53.724285 -9.979229 8354164
152.00984 -53.751202 -9.0353394 8551285
152.40092 -53.780193 -8.0868301 9537920
152.76404 -53.772568 -7.238132 9011576
153.09995 -53.824589 -6.3777575 9932422
153.44905 -53.668655 -5.3303943 10129801
132.48022 -52.509716 -55.833096 9340027
132.89308 -52.846962 -55.204571 8814454
133.59392 -52.889957 -54.424877 8287853
134.24574 -52.944283 -53.691936 9603713
138.61287 -53.072441 -43.515656 8485488
138.88959 -53.080269 -42.690277 9011063
139.29291 -52.94973 -41.647781 8945014
139.6142 -52.927109 -40.725327 9340027
140.00706 -52.76469 -39.749733 9340795
140.33688 -52.783443 -38.755192 9340795
140.61682 -52.853607 -37.849716 7565157
140.91475 -52.776337 -37.057819 11841183
141.21362 -52.845352 -36.097698 8485487
141.54144 -52.873074 -35.098858 9734523
141.8688 -52.903214 -34.098751 9734523
142.19565 -52.935802 -33.097137 8682867
142.52213 -52.970905 -32.094021 9012089
142.85802 -52.82238 -31.270765 9735298
143.12965 -52.855167 -30.432009 12300197
143.54131 -52.65699 -29.441185 9538177
143.90999 -52.580971 -28.439125 8618105
144.30035 -52.44714 -27.438421 7039331
144.60378 -52.49902 -26.598223 9471871
144.96902 -52.575165 -25.76672 12234402
145.40791 -52.668911 -24.765518 9866115
145.91501 -52.584877 -23.771233 8221292
146.28229 -52.667126 -22.930428 12496807
146.58211 -52.932514 -22.076542 8484716
147.14293 -52.782463 -21.025841 8747889
147.53041 -52.762131 -20.229465 9208700
147.90062 -52.85252 -19.375851 9340286
148.3446 -52.913288 -18.392525 9735043
148.82806 -52.764389 -17.463631 10064006
149.17711 -52.770859 -16.633068 8089963
149.57953 -52.872746 -15.587204 9274748
149.92987 -52.882748 -14.750168 9932422
150.37112 -52.791153 -13.79311 10327180
150.76233 -52.831276 -12.831341 9274492
151.12624 -52.821945 -11.980671 8813429
151.49573 -52.866673 -11.067883 10459535
151.94221 -52.782578 -10.093658 8354162
152.29848 -52.803352 -9.2348595 11182488
152.64058 -52.904011 -8.3351822 10261131
153.05539 -52.820721 -7.4349895 9077625
153.49423 -52.797539 -6.3929095 9076857
153.74626 -52.759579 -5.5114055 9998215
153.92657 -52.871532 -4.5130229 10261642
154.23344 -52.65033 -3.5018344 9472639
132.56563 -51.781239 -56.135998 10064776
133.20534 -51.889404 -55.38694 8682355
133.81433 -52.056522 -54.638981 8814197
140.69786 -52.074448 -38.491539 7038298
140.86285 -52.085064 -37.992752 7565157
141.19643 -52.016533 -37.085815 14209472
141.52969 -51.949871 -36.177628 8551280
141.91966 -51.843937 -35.146484 9931902
142.25024 -51.827549 -34.189354 9340280
142.57825 -51.85955 -33.18512 8419952
142.85641 -51.94186 -32.27121 9275261
143.15373 -51.87495 -31.469465 10129799
143.45107 -51.956768 -30.499409 14930890
143.79904 -51.892937 -29.544603 8157038
144.16876 -51.86113 -28.489473 7039331
144.53011 -51.76981 -27.526358 7170660
144.8597 -51.723171 -26.721487 8616564
145.23627 -51.855217 -25.813339 10129543
145.67647 -51.947872 -24.810387 9866115
146.1113 -51.846573 -23.982552 8024169
146.5473 -51.746727 -23.151104 10194566
146.99048 -51.846134 -22.136738 8090216
147.39218 -51.938393 -21.215446 8353131
147.84309 -51.806999 -20.379738 7958376
148.31465 -51.760841 -19.428726 9077114
148.69939 -51.911427 -18.493729 10524814
149.08855 -51.835667 -17.710964 10919313
149.57153 -51.781452 -16.623737 8616306
149.9287 -51.755234 -15.804386 9406078
150.26614 -51.840351 -14.927711 9997959
150.67236 -51.894539 -13.917435 11182489
151.08066 -51.849983 -12.994408 9537664
151.49008 -51.80719 -12.066925 8682099
151.84012 -51.910172 -11.144394 9472640
152.21342 -51.838387 -10.330986 10064521
152.65527 -51.875324 -9.2552643 12169380
152.9989 -51.974442 -8.353508 9866883
153.41458 -51.941044 -7.4049487 9472126
153.83244 -51.805523 -6.5445895 9471871
154.0919 -51.790073 -5.5753856 9537920
154.31651 -51.787167 -4.5695262 9800836
154.53218 -51.738747 -3.6800838 9866885
154.71298 -51.8536 -2.6749034 10524813
155.00363 -51.692234 -1.6364323 9801352
131.70009 -50.530663 -57.748394 9209467
132.1143 -50.860527 -57.122425 10788243
132.8147 -50.894871 -56.347908 11051415
133.46609 -50.940914 -55.6199 8814197
142.77858 -51.136505 -33.411583 11181974
143.11165 -51.077438 -32.495369 10195080
143.4445 -51.020348 -31.577543 9866628
143.83444 -50.925041 -30.5347 14012094
144.16469 -50.918659 -29.567287 9735300
144.4624 -51.004398 -28.591652 6709597
144.81009 -50.777851 -27.821741 8090991
145.18204 -50.794746 -26.831213 10459279
145.63724 -50.775024 -25.883362 9670018
146.04416 -50.907207 -24.916943 9800836
146.43607 -50.885391 -24.112164 7892584
146.88606 -50.842613 -23.203545 8287085
147.3309 -50.940479 -22.186913 8550512
147.70227 -51.024025 -21.336651 9142392
148.07434 -51.10965 -20.483166 8682098
148.51602 -51.015053 -19.635765 9406335
149.6626 -51.28944 -16.867516 10064006
154.36591 -51.125935 -5.451858 9735043
154.64252 -50.857399 -4.6554294 9340801
154.83913 -50.844524 -3.7925448 9472130
155.10492 -50.766487 -2.7269359 7828333
155.32133 -50.72015 -1.8306538 9668994
155.50273 -50.837791 -0.81831324 10064009
155.75893 -50.709202 0.11640203 8157555
155.97847 -50.569572 0.86666524 7565675
131.7596 -49.757191 -58.103683 8814453
132.42152 -49.906467 -57.308289 11577759
133.03081 -50.065132 -56.564651 10459278
144.69635 -50.23394 -28.772423 9209214
145.02963 -50.184162 -27.845102 8485749
145.38141 -50.106377 -26.991144 11709346
145.90463 -50.05463 -25.930031 10327949
155.08517 -50.290005 -3.611465 8420470
155.37367 -49.956409 -2.8707194 7565675
155.6301 -49.823441 -1.9399296 12037024
155.86546 -49.82579 -0.88141596 9865858
156.10149 -49.70686 -0.022678018 9471359
156.29881 -49.824436 1.0573963 8222063
156.55663 -49.697689 2.0002904 8222574
156.77725 -49.55928 2.7573056 10591118
130.91089 -48.574924 -59.661007 9340539
131.30234 -48.953014 -59.033367 8814453
132.10263 -48.797287 -58.254078 8814453
132.67746 -48.961849 -57.544388 9143675
155.87828 -49.268093 -1.754974 12300195
156.1097 -49.057892 -1.0693737 10589580
156.42752 -48.804733 -0.068473458 9142651
156.6237 -48.909798 0.98548162 9734531
156.90117 -48.692036 1.8645672 8813941
157.07216 -48.856609 2.9051404 10129545
157.35016 -48.641235 3.7906003 6775126
157.58018 -48.54982 4.6684041 7039331
130.57407 -47.43148 -60.644512 9866886
130.98911 -47.854763 -59.967094 9143419
131.62883 -47.946682 -59.226734 8419952
132.16052 -48.024429 -58.610706 9603456
156.71481 -48.259972 0.30868566 9734531
156.89865 -48.106087 0.87507665 8353135
157.22913 -47.786995 1.8225101 8419440
157.41779 -47.848907 2.7708936 7301214
157.6778 -47.722229 3.7239614 7367264
157.86223 -47.847576 4.7591672 8025968
158.09622 -47.745235 5.6363835 8815227
158.38788 -47.540577 6.6007771 10261643
130.23764 -46.780582 -61.37595 8419952
130.84984 -46.74696 -60.771866 11248796
131.43179 -46.825352 -60.087139 11117208
131.87868 -47.103024 -59.4146 8617075
157.64824 -47.176937 2.6812482 6511954
158.00322 -46.866131 3.7328 7170400
158.2177 -46.7882 4.5754972 8420726
158.48477 -46.760296 5.6040311 8815227
158.71532 -46.725086 6.5337949 9932422
158.89464 -46.79874 7.5326772 9406079
159.23076 -46.539795 8.5569191 9669251
129.44701 -45.636795 -63.451706 13089711
129.95805 -45.907516 -62.595844 10853263
130.58113 -46.024914 -61.790989 10065294
131.26143 -46.109253 -60.961418 8092019
158.5952 -46.307835 4.8932576 10591380
159.00186 -46.00901 5.6724019 12433069
159.13649 -46.05677 6.4438596 10261643
159.44841 -45.902016 7.3022618 8879735
159.70335 -45.872795 8.3441277 9800837
159.9384 -45.840771 9.2867966 9537410
160.10385 -45.894379 10.2169 8222064
160.54028 -45.609287 11.215736 8025194
160.73067 -45.466534 12.07114 8222572
127.42801 -44.478012 -68.142601 9208435
127.9335 -44.512794 -67.430893 8221803
128.53816 -44.555645 -66.573906 8813680
128.85724 -44.696419 -65.570595 8616306
129.23619 -44.915771 -64.64785 9076856
129.78191 -45.084949 -63.710724 9076598
130.39555 -45.189453 -62.929722 11116178
130.80539 -45.373405 -62.279652 9868171
160.43167 -45.185383 9.2073784 10261132
160.65237 -45.155502 10.093178 7433061
160.90807 -45.063652 10.919441 8156780
161.23854 -44.863792 12.059952 8946296
161.28061 -44.852242 12.959949 9735812
161.80396 -44.584496 13.788048 7563874
162.14973 -44.488243 14.80138 6643287
162.13217 -44.503841 15.585827 7039331
162.8343 -44.300625 17.041176 10262671
123.38308 -43.776299 -78.150047 7301726
123.91756 -43.81675 -77.556183 7038554
124.42509 -43.952274 -76.773338 10720909
124.7479 -44.113346 -75.606361 9931908
125.28372 -44.112114 -74.706635 8683129
125.72544 -44.111084 -73.953972 9341057
126.16232 -44.110058 -73.19854 8353909
126.59494 -44.109032 -72.440681 7038307
126.35072 -44.176636 -70.709152 10524812
126.86414 -44.208832 -70.002243 8682096
127.47828 -44.248608 -69.151108 7695714
128.09035 -44.289562 -68.296616 8221803
128.59886 -44.32465 -67.582008 9208435
162.86906 -44.271877 15.660942 7039331
163.21637 -44.175304 16.687302 10262671
163.56662 -44.075272 17.519669 7038307
163.53748 -44.09726 18.511204 8683128
164.70016 -43.995834 19.452183 10984852
164.59988 -43.99519 20.242821 10458254
164.49634 -43.994545 21.032944 12432301
165.90393 -43.991619 23.048748 8879990
165.78651 -43.990978 23.845123 7037274
167.15891 -43.987865 26.106342 9538430
167.02675 -43.987228 26.908585 9670277
168.46164 -43.984386 28.814266 13419197
168.31657 -43.983757 29.622845 8092011
168.2052 -43.983288 30.228813 10460044
169.56892 -43.785656 31.606544 8157040
169.45767 -43.76976 32.486061 7038307
169.44962 -43.530861 33.203568 7038307
122.88776 -42.766315 -79.113678 8617075
123.40812 -43.013157 -78.528305 7301982
124.21034 -42.99387 -77.821495 9932676
169.81996 -42.826488 32.359463 7038307
169.73364 -42.701824 33.351227 6840926
169.80824 -42.294193 33.912102 6511954
122.55743 -41.531361 -80.012466 10261132
122.97289 -41.931065 -79.446106 9471613
123.7172 -42.04734 -78.724693 10721423
124.17996 -42.409893 -78.134132 11181972
170.11874 -41.701241 33.209858 6775132
169.99956 -41.633804 34.291462 8090216
122.3043 -40.60627 -80.685257 7761509
122.75992 -40.782661 -80.196671 9011320
123.45935 -40.97205 -79.480812 10063749
123.98936 -41.303291 -78.845619 10458252
170.33902 -41.037121 33.381313 8945011
170.33069 -40.797379 34.103649 8747632
170.21802 -40.783024 34.990368 8616303
121.76965 -39.655815 -81.594116 6972506
122.22632 -39.95343 -81.054314 6643540
123.07042 -39.873005 -80.346764 7367007
123.52839 -40.173733 -79.804482 9011320
170.63457 -39.882595 34.336605 8418924
170.54257 -39.812439 35.221355 7827045
170.61693 -39.403358 35.787727 7037274
121.83602 -38.818977 -81.920509 6446162
122.51149 -38.996239 -81.243126 8879735
123.0452 -39.042103 -80.751221 6906456
170.92914 -38.806831 35.082264 8024425
170.80859 -38.740086 36.172188 7563874
121.40676 -37.750027 -82.790855 8287854
122.02559 -37.871464 -82.189148 6117197
122.70267 -38.04739 -81.510956 8222061
171.12125 -38.142666 35.465744 9209467
171.19585 -37.732174 36.034332 8024681
171.103 -37.662491 36.924553 8551026
121.00381 -36.710564 -83.624451 6511954
121.54572 -36.854317 -83.080345 9603199
122.29231 -36.854027 -82.42186 7563619
171.48178 -36.895336 36.187984 8090474
171.47253 -36.65469 36.919308 9208955
171.35278 -36.708927 37.670467 11182742
120.98938 -35.944492 -83.989388 6511954
121.72413 -35.998291 -83.316734 10457736
122.27987 -36.08522 -82.786552 11511193
171.74139 -35.898632 36.978359 10326920
171.6515 -35.868591 37.737312 11905692
94.476654 -35.487995 -149.57478 8091760
94.980591 -35.464012 -146.4655 7169629
95.475227 -35.387882 -145.69719 6249298
95.965675 -35.312103 -144.92877 8418408
96.451828 -35.236629 -144.1606 9800317
96.933823 -35.161457 -143.39235 10261124
97.530075 -35.068073 -142.43225 8222321
120.27174 -34.498028 -85.263908 7564643
120.73915 -34.787781 -84.729202 8616559
121.42958 -34.939999 -84.061333 6643540
121.89736 -35.214149 -83.524605 8418923
172.01888 -34.897953 37.646076 9602942
100.14626 -34.393139 -133.88066 10262415
100.65392 -34.294056 -132.89655 8617077
101.1557 -34.195564 -131.91351 8287598
101.55247 -34.117294 -131.12799 9011577
102.04263 -34.019974 -130.14732 9537918
102.52693 -33.923302 -129.16777 9537918
102.90984 -33.846439 -128.38506 9077624
103.28882 -33.769993 -127.60316 8682867
103.75682 -33.674976 -126.62707 8682867
104.21918 -33.580597 -125.65215 9472128
104.58456 -33.50555 -124.87322 9209467
120.38405 -33.713715 -85.516823 7564643
121.01245 -33.828213 -84.920822 9208183
121.57647 -34.108047 -84.306847 7958629
172.32512 -33.973236 37.888073 9340027
105.03574 -33.4123 -123.90081 9537922
105.48129 -33.319633 -122.92966 9143167
105.8334 -33.246002 -122.15379 9143167
106.26802 -33.154499 -121.1852 9406074
106.69717 -33.063568 -120.21795 10853262
107.12009 -32.973309 -119.25211 11313301
107.53764 -32.88356 -118.28765 9734527
107.86743 -32.812298 -117.51713 9010806
108.27435 -32.723694 -116.55532 6510930
108.67596 -32.635674 -115.59492 7234395
109.07149 -32.548325 -114.63604 10062977
109.38445 -32.478851 -113.86997 8484461
119.91185 -32.855362 -86.309608 10525584
120.39218 -32.963184 -85.844955 8090987
121.20011 -32.975006 -85.139137 7893351
109.53938 -32.444183 -113.48727 8484461
109.77005 -32.392483 -112.9137 7037274
110.15008 -32.306782 -111.95896 6248783
110.52497 -32.221603 -111.00569 7695714
110.89399 -32.1371 -110.05399 9405820
111.25804 -32.053055 -109.10378 9144190
111.61626 -31.969711 -108.15514 7039331
111.96945 -31.886873 -107.20797 7564651
112.317 -31.804674 -106.26249 8617079
112.65962 -31.722965 -105.31843 10787729
112.99658 -31.641893 -104.37603 9998216
113.32872 -31.561329 -103.4351 8089963
113.65526 -31.481401 -102.49586 11247253
119.46817 -31.573809 -87.29969 13024949
119.94518 -31.914907 -86.715485 12499117
120.70576 -32.005779 -86.00621 9407360
121.14429 -32.393829 -85.447105 7564643
113.9771 -31.401968 -101.55818 8615790
114.29332 -31.323133 -100.62215 6510930
114.60487 -31.244873 -99.68766 8287597
114.91103 -31.16712 -98.754868 10195850
115.21243 -31.089952 -97.823586 9011323
115.5085 -31.013323 -96.894028 11642780
119.02217 -30.484058 -88.291672 7563619
119.46617 -30.81459 -87.682549 10261387
120.2217 -30.90094 -86.969856 12169639
120.77545 -31.171833 -86.346802 10854297
117.85992 -29.920885 -91.424706 11051415
118.45925 -29.988243 -90.423912 5788495
118.95963 -30.059797 -89.573387 9144445
119.4573 -30.132317 -88.723351 9669763
120.06229 -30.206718 -87.732384 11379605
120.49906 -30.210901 -87.170135 11905692
135.27031 -54.517521 -51.732868 9011320
135.44247 -54.512791 -51.241879 8550513
135.05717 -53.720692 -52.39502 9143934
135.40552 -53.784718 -51.970234 10196106
135.74182 -53.79631 -51.168892 8879735
136.07964 -53.786755 -50.182732 9801092
136.43547 -53.677849 -49.255955 9603458
136.81383 -53.596397 -48.231636 8090987
137.15195 -53.504982 -47.337379 8485235
137.54517 -53.415848 -46.277939 8090736
137.76779 -53.417309 -45.619297 8090736
134.61238 -52.634853 -53.464046 10787985
135.03445 -53.009533 -52.805241 10985107
135.66664 -52.849472 -52.181709 11116950
136.04564 -52.902966 -51.282757 9603713
136.38422 -52.893551 -50.294357 9735299
136.72185 -52.886528 -49.305927 9800581
137.05867 -52.881927 -48.317383 8288110
137.39456 -52.879765 -47.328606 8551028
137.72966 -52.880001 -46.339584 8616823
138.02934 -52.918121 -45.412128 7301476
138.32094 -52.850422 -44.628269 7301214
138.62263 -52.802509 -43.792179 8485488
139.07249 -52.634422 -42.654854 9076856
139.41127 -52.465279 -41.846554 8878965
139.80145 -52.3908 -40.779465 8156011
134.16171 -51.680771 -54.467842 9011576
134.75613 -51.784767 -53.769897 9077884
135.35225 -51.890747 -53.069035 8880762
135.8609 -52.086906 -52.384075 9933191
136.28867 -52.188313 -51.373833 9735299
136.68869 -52.00034 -50.405956 10196106
137.02713 -51.993412 -49.415302 9340286
137.36464 -51.988861 -48.424526 9011577
137.70128 -51.986698 -47.433548 9800581
138.03716 -51.986904 -46.442276 9603460
138.31644 -51.988846 -45.615959 7367271
138.59514 -51.992565 -44.789299 7169628
138.92896 -51.999149 -43.796848 9340797
139.26375 -51.963013 -42.849888 10392458
139.65674 -51.840714 -41.828552 8747379
139.98863 -51.854378 -40.833572 9339771
140.31987 -51.870468 -39.837761 7762021
140.59547 -51.885647 -39.007187 7038298
141.00584 -51.581825 -38.139606 11249047
141.31712 -51.529579 -37.280098 15196110
141.71933 -51.412556 -36.225555 8748915
141.93893 -51.43021 -35.557587 11181969
151.49564 -51.350769 -12.479336 9537664
153.14507 -51.396702 -8.5452652 9208954
153.42104 -51.47633 -7.8210177 10261641
133.83075 -50.629517 -55.395214 9011576
134.29999 -50.957253 -54.710979 9208955
135.07973 -50.904106 -53.898239 9144447
135.61633 -51.060299 -53.234467 8420468
137.60944 -51.274357 -48.510269 9142650
137.94673 -51.272221 -47.517509 9603457
138.30992 -51.129364 -46.607162 9734788
138.60332 -51.059639 -45.820305 9274493
138.96571 -50.920628 -44.908157 7564651
139.30049 -50.927048 -43.913036 8683383
139.63452 -50.935829 -42.917336 11051156
139.9679 -50.946926 -41.920921 9208442
140.30063 -50.960373 -40.923767 9603456
140.60327 -51.020203 -39.962975 8420207
140.90327 -50.938656 -39.169693 7367775
141.20518 -50.904491 -38.317436 11906980
141.57866 -50.850826 -37.275867 14801873
141.90898 -50.875175 -36.273533 11578016
142.30011 -50.768642 -35.239647 9537665
142.60214 -50.795292 -34.318192 8813685
142.94963 -50.559246 -33.559532 12761004
143.23489 -50.587677 -32.685459 10787216
143.63687 -50.481472 -31.619322 11314328
143.85599 -50.506119 -30.944834 12432807
147.46086 -50.380474 -22.387085 9142651
147.83298 -50.462997 -21.536053 8616307
148.28038 -50.564449 -20.511024 8616819
148.68275 -50.790096 -19.4758 9143162
149.06438 -50.698532 -18.751926 12695723
149.46312 -50.843235 -17.754215 11051667
149.86989 -50.739925 -16.890171 9604480
150.20807 -50.821442 -16.015083 9340285
150.68431 -50.737892 -14.967838 10129545
151.0239 -50.823189 -14.085968 10524559
151.36412 -50.91053 -13.200741 10130057
151.80223 -50.862873 -12.210041 9077113
152.22702 -50.731483 -11.328873 8748917
152.59927 -50.832359 -10.355789 10854293
152.94337 -50.927429 -9.4561768 10261642
153.36008 -50.838718 -8.5565376 9472126
153.77806 -50.751141 -7.65274 10261385
154.12013 -50.850163 -6.7411304 9866630
154.38104 -50.840343 -5.8606372 9735043
154.64828 -50.582287 -5.0892406 9537922
133.37596 -49.688095 -56.396641 9209467
133.97015 -49.78421 -55.703133 10196618
134.68553 -49.902142 -54.86713 10526095
135.15746 -50.230717 -54.179573 10131082
139.88289 -50.220795 -42.99305 11051156
140.27585 -50.143383 -41.920853 8484721
140.61269 -50.066174 -41.013988 8616563
140.93886 -49.972111 -40.157761 7960168
141.23003 -49.914425 -39.363739 7565410
141.56224 -49.933758 -38.361427 12959669
141.89392 -49.955433 -37.358055 11907493
142.22516 -49.979401 -36.353477 9340798
142.57639 -49.901985 -35.404419 9801093
142.89474 -49.85001 -34.523598 9735044
143.16989 -49.875336 -33.682972 11510939
143.56364 -49.728218 -32.687225 9603201
143.89336 -49.762913 -31.675049 11445657
144.22269 -49.799923 -30.661196 10458764
144.52188 -49.882595 -29.684669 14012094
144.8705 -49.653671 -28.914846 9735557
145.15549 -49.691025 -28.031305 8090991
145.59541 -49.607876 -26.958 10656658
146.03833 -49.694351 -25.953426 10656658
146.39586 -49.710514 -25.188889 9800837
146.77924 -49.84446 -24.270798 8418928
147.22493 -49.93808 -23.255993 8945015
147.66504 -49.836899 -22.417442 8879479
148.10646 -49.737125 -21.574997 8682100
148.5553 -49.837273 -20.548153 10195849
148.93001 -49.922699 -19.689178 8682867
149.37489 -49.827801 -18.835438 15129549
149.84227 -49.787369 -17.843647 9210491
150.20613 -49.764618 -17.005192 9210491
150.55507 -49.903908 -16.050915 10129289
150.96481 -49.802052 -15.177849 9931910
151.37531 -49.751774 -14.254845 10918801
151.78589 -49.804031 -13.23608 9537150
152.1283 -49.891468 -12.345444 8550514
152.49236 -49.869987 -11.505386 9735044
152.94289 -49.779236 -10.52557 9537664
153.30273 -49.794189 -9.6617966 9735042
153.65833 -49.950451 -8.6780319 9340540
154.06848 -49.799503 -7.8515239 9998214
154.50876 -49.834984 -6.7568049 10064009
154.78011 -49.731419 -5.9170184 9735043
154.96324 -49.83968 -4.9122462 9537922
155.18559 -49.832397 -3.9240985 9340801
155.47595 -49.568165 -3.0589137 10524815
133.04028 -48.648422 -57.322769 9143163
133.5106 -48.968269 -56.64167 10261643
134.28914 -48.90633 -55.835014 11907490
134.82289 -49.178761 -55.111176 12433576
141.86929 -49.220943 -38.261517 10986391
142.14618 -49.238926 -37.423752 9999752
142.54135 -49.083389 -36.433437 9143419
142.81778 -49.104748 -35.593548 9340286
143.15747 -48.948364 -34.76786 10459023
143.48862 -48.977978 -33.757072 9208443
143.88339 -48.830265 -32.759098 9208443
144.214 -48.864384 -31.744715 10985107
144.54745 -48.838718 -30.789663 9142906
144.85878 -48.703049 -30.024366 9406334
145.159 -48.786541 -29.0439 8880250
145.48885 -48.829006 -28.022377 8288113
145.86133 -48.888062 -27.006422 10459279
146.23181 -48.959034 -26.168194 10656658
146.6701 -48.851528 -25.338585 8813942
147.18411 -48.760269 -24.33646 9537409
147.55714 -48.836544 -23.488964 9537409
147.93079 -48.914768 -22.638374 8287085
148.44844 -48.829346 -21.623737 9537152
