# .PCD v0.7 - Point Cloud Data file format
VERSION 0.7
FIELDS x y z rgb
SIZE 4 4 4 4
TYPE F F F U
COUNT 1 1 1 1
WIDTH 1200
HEIGHT 1
VIEWPOINT 0 0 0 1 0 0 0
POINTS 1200
DATA ascii
-87.874496 -62.347893 84.601578 7038307
-88.743805 -62.706818 84.064957 7038307
-89.756218 -62.503937 83.691261 7169636
-90.727135 -62.654621 83.193176 8748921
-91.54425 -62.641964 82.830421 8353651
-92.309013 -62.951283 82.360909 9011065
-85.641464 -61.124733 86.101898 9209467
-86.383522 -61.363243 85.67131 9800837
-87.279518 -61.631824 85.159195 8485494
-88.101761 -61.559231 84.818398 7630443
-88.974228 -61.652672 84.38781 7433064
-89.897064 -61.591366 83.997124 7761772
-90.703049 -61.844448 83.531837 7038307
-83.759888 -60.220886 87.516197 8419440
-84.814056 -60.2761 86.995674 7104091
-85.599716 -60.490849 86.473404 9603454
-86.454559 -60.565804 86.042824 9866370
-87.349075 -60.619537 85.609657 9275008
-88.290573 -60.656338 85.151802 7761772
-89.11174 -60.879642 84.638718 7038307
-78.427094 -59.107983 91.370384 11707548
-79.029373 -59.149513 90.958466 9406593
-79.750557 -59.200504 90.460892 9538176
-80.747101 -59.191212 90.049828 9406847
-81.595512 -59.260273 89.467949 9341055
-82.385132 -59.475842 88.819649 10130313
-83.243301 -59.551529 88.327072 7892840
-84.060585 -59.689297 87.828827 7892840
-84.895378 -59.775784 87.381226 6774614
-85.915794 -59.790806 86.910095 8813683
-86.57093 -59.956688 86.475952 8221546
-57.420677 -58.294918 106.64439 5920074
-58.159668 -58.394978 106.47658 7695970
-59.101498 -58.530693 106.1878 8485229
-59.801189 -58.721687 105.67393 6578004
-60.690346 -58.756516 105.02237 8682867
-61.538376 -58.758228 104.30632 8682867
-62.228939 -58.759613 103.7366 11445659
-63.025681 -58.761166 103.12624 9472387
-63.777718 -58.762554 102.63666 8089964
-64.525787 -58.764244 101.80692 8024426
-65.38076 -58.76582 101.25925 8419695
-66.23085 -58.767387 100.70404 9472382
-67.076462 -58.768967 100.14205 10787726
-67.917107 -58.770542 99.572586 12104104
-68.75312 -58.772118 98.996422 9932934
-69.584045 -58.773689 98.412895 8617075
-70.410286 -58.775265 97.822716 9406847
-71.11438 -58.776611 97.311172 7629667
-71.930954 -58.778187 96.70784 7629924
-72.742722 -58.779758 96.097946 8419182
-73.549095 -58.78133 95.480957 8419184
-74.350487 -58.782902 94.857498 9274237
-75.146347 -58.784477 94.226974 10064009
-75.943794 -58.791149 93.598221 10656402
-76.790062 -58.839458 93.028275 10196106
-77.825684 -58.852234 92.590126 10194824
-78.377571 -58.923027 92.037186 12299685
-79.369202 -58.929123 91.570671 8091762
-80.060646 -59.059521 90.811523 10261899
-56.704803 -57.246853 107.15771 9933193
-57.323624 -57.539352 106.94023 6446419
-58.289848 -57.504429 106.78189 8551022
-59.136341 -57.78297 106.52916 9866624
-56.500721 -56.51651 107.46321 8617846
-57.417854 -56.501961 107.30605 8353900
-58.238506 -56.599148 107.12478 8814194
-55.621597 -55.424667 108.02164 7696487
-56.582596 -55.598843 107.7871 8222573
-57.516731 -55.553337 107.6384 9011830
-54.897484 -54.394634 108.52984 8419951
-55.790546 -54.518349 108.32601 7696229
-56.651886 -54.676319 108.11514 8156778
-54.254608 -53.171463 109.09496 6971994
-54.881962 -53.555462 108.84215 7629923
-55.894234 -53.614815 108.64095 6972506
-53.376171 -52.138615 109.63152 7037274
-54.108589 -52.50135 109.36802 7629667
-55.100624 -52.639065 109.14149 8946039
-55.668037 -52.859879 108.9595 7696485
-52.642586 -51.128136 110.13434 10590604
-53.226288 -51.460495 109.9083 8090217
-54.219673 -51.604057 109.67934 6905688
-55.026173 -51.899662 109.42741 7169629
-52.425659 -50.415901 110.43546 10064517
-53.400261 -50.551678 110.21271 9472125
-54.136204 -50.84586 109.97385 6708565
-51.676003 -49.378281 110.95104 8682867
-52.485138 -49.58741 110.73057 8814453
-53.444847 -49.692501 110.52175 9603711
-50.900909 -48.27578 111.49505 13353394
-51.707878 -48.555691 111.24883 9538175
-52.703697 -48.688061 111.02358 9538175
-53.292183 -49.016575 110.79816 10459275
-50.15588 -47.284889 111.99255 9932423
-50.815346 -47.547813 111.77877 11445145
-51.80941 -47.664875 111.55948 8748661
-52.549015 -48.014381 111.29956 10459275
-49.226013 -46.181629 112.56426 7038307
-49.964676 -46.522194 112.30781 9932422
-51.048584 -46.586216 112.09216 9537666
-51.65416 -47.004272 111.83068 9011579
-48.525879 -45.249092 113.1785 7564651
-49.295639 -45.478146 112.89044 8748407
-50.206715 -45.60001 112.65545 7235428
-50.929184 -45.860859 112.3809 7498857
-46.023289 -44.091091 114.8937 10262156
-46.741344 -44.118446 114.68204 10459023
-47.596615 -44.35392 114.1105 8353908
-48.50573 -44.599945 113.70844 8288116
-49.366707 -44.804142 113.37404 9471871
-32.339378 -43.056171 124.8305 7563619
-33.029282 -43.319534 124.60851 8484721
-34.022736 -43.437519 124.35746 9537409
-34.927074 -43.640495 124.00718 8813430
-35.440216 -43.708694 122.71339 8287853
-36.324863 -43.710045 122.45348 7301470
-37.354794 -43.711636 122.14281 7760998
-37.932201 -43.713238 121.16102 9406332
-38.800476 -43.714825 120.61671 9143161
-39.670082 -43.716183 120.33293 11379865
-40.429146 -43.71769 119.72499 11708574
-41.073097 -43.719334 118.79436 10655630
-42.071899 -43.720913 118.44341 9208443
-43.06794 -43.7225 118.0845 7761515
-43.571404 -43.724243 116.83923 9077884
-44.413574 -43.725601 116.52109 8222577
-45.25592 -43.800316 115.96757 6577748
-46.082397 -43.891388 115.52254 9538177
-47.081779 -43.962803 115.11986 9011321
-32.203609 -42.31485 125.1281 8288109
-33.164333 -42.444782 124.91 8945272
-34.012638 -42.679272 124.67331 9537153
-31.448063 -41.390667 125.60316 9932422
-32.332794 -41.474277 125.41556 9143163
-33.295673 -41.603878 125.19716 9143165
-30.643784 -40.277668 126.15651 9340286
-31.457699 -40.476376 125.93897 9340542
-32.413258 -40.605591 125.72202 10721681
-29.913174 -39.209843 126.68018 8089963
-30.617523 -39.510189 126.44452 9077114
-31.627487 -39.629372 126.22161 9471871
-32.324905 -39.890907 126.00154 9735043
-29.06876 -38.250008 127.19579 9012086
-29.767097 -38.504082 126.96661 8353135
-30.779613 -38.620914 126.74407 9077114
-31.49892 -38.764362 126.56376 11906725
-28.257759 -36.991562 127.88181 9012086
-29.001907 -37.48317 127.50328 8025197
-29.982906 -37.554623 127.27889 7498342
-30.738468 -37.719826 127.08408 8682356
-27.415409 -36.049786 128.45746 7038298
-28.160458 -36.295834 128.16832 8880246
-29.122204 -36.555893 127.82181 7959149
-29.896061 -36.675209 127.61893 7432807
-26.567616 -35.108093 129.03447 9735812
-27.355076 -35.387455 128.72163 8025194
-28.384266 -35.406071 128.44267 8353903
-29.193314 -35.506046 128.19464 9143164
-26.022709 -34.161957 129.53311 9735812
-26.615128 -34.472275 129.26021 9077882
-27.538105 -34.461903 129.02022 9011830
-28.349434 -34.559959 128.76909 8287850
-25.16507 -33.219349 130.11394 6510930
-25.801769 -33.488846 129.84383 6510930
-26.686497 -33.517517 129.59924 7235422
-27.500854 -33.614563 129.3477 8945780
-24.302109 -32.276432 130.69815 8682099
-24.941814 -32.545589 130.4269 8945271
-25.893848 -32.540234 130.17621 8879478
-26.826294 -32.680096 129.87634 8090218
-23.454426 -31.012432 131.39934 8089963
-24.128647 -31.401075 131.07394 10391687
-25.095524 -31.503271 130.77873 9800579
-26.022068 -31.75041 130.43968 9866629
-22.601532 -30.096773 132.11977 11445144
-23.40588 -30.351927 131.73207 9668222
-24.333344 -30.44084 131.43709 10128259
-25.270523 -30.667965 131.06206 8221549
-19.950047 -29.013657 134.00819 9998725
-21.039143 -29.078465 133.58994 13485748
-21.787502 -29.424564 132.90729 9734779
-22.67947 -29.501719 132.56926 9471609
-23.536861 -29.668131 132.21698 8616049
-3.1407404 -28.646776 146.18451 8420470
-4.0200815 -28.647919 146.16252 9340801
-5.7031031 -28.651781 144.21858 9734787
-6.3971567 -28.652691 144.18895 8616307
-7.2644587 -28.65383 144.14769 9734787
-8.7117548 -28.657379 142.22343 8945784
-9.738183 -28.658743 142.15651 9538177
-11.302941 -28.662432 140.23918 8486262
-12.146352 -28.663568 140.16785 9933193
-12.989347 -28.664709 140.09245 11380380
-14.490525 -28.668312 138.18233 6051666
-15.48771 -28.669678 138.07379 7433061
-16.936012 -28.673199 136.17928 7037274
-17.75481 -28.674334 136.07413 7300958
-18.591526 -28.772121 135.29573 9603969
-19.405247 -28.811066 134.7971 6511954
-20.208847 -28.802336 134.63144 8814710
-128.91663 -74.35688 56.049988 8156011
-129.83321 -74.469505 55.521553 6972250
-130.68369 -74.67144 54.956829 6116429
-131.49991 -74.774132 54.450123 7563875
-132.38881 -74.730141 53.992653 7761512
-133.32314 -74.709343 53.545883 8221806
-134.12473 -74.695175 52.965157 8418928
-134.78633 -74.588356 52.197094 9734531
-135.4507 -74.540466 51.359978 8221292
-111.26015 -73.336922 68.740891 7038307
-112.03508 -73.470207 68.291061 8156786
-112.79892 -73.596733 67.828621 8156270
-113.69524 -73.488365 67.438309 9209212
-114.62408 -73.561539 66.874519 8617847
-115.58987 -73.603767 66.38485 13157044
-116.26757 -73.639168 65.846588 14340546
-117.17847 -73.734146 65.371712 8024685
-117.80447 -73.833801 64.609673 8485490
-118.62463 -73.841873 63.949028 7564650
-119.34982 -73.838097 63.415356 7235685
-120.14218 -73.831161 62.727436 7630699
-121.23856 -73.83757 62.373333 8223091
-121.65335 -73.819588 61.479519 10459536
-122.7524 -73.825668 61.109436 10919316
-123.56245 -73.848427 60.292198 7892840
-124.27536 -73.822311 59.82653 6510930
-125.08904 -73.892227 59.182655 7433058
-125.68593 -73.907387 58.651768 7236195
-126.62526 -73.922668 58.164326 6710109
-127.52402 -73.935669 57.58754 9800838
-128.31041 -74.018837 56.891926 8089963
-129.37682 -74.01416 56.323708 7497826
-130.18164 -74.038002 55.855099 7103068
-131.02776 -74.043907 55.348026 6642517
-131.69504 -74.110519 54.821938 6248015
-132.99127 -74.13279 54.050613 6511962
-134.38942 -74.173798 53.1157 8089963
-135.2621 -73.994308 52.333504 10853012
-135.79411 -73.95459 51.71357 6510930
-136.42522 -73.925682 50.965458 9734530
-137.34576 -73.687668 50.556404 10590094
-137.97452 -73.656433 49.703388 8748148
-138.43031 -73.561081 49.008369 9405822
-109.70523 -72.386963 69.926933 7564130
-110.41313 -72.526199 69.508743 7300962
-111.26131 -72.635773 69.031441 7038307
-112.06061 -72.624634 68.629112 9012093
-112.98573 -72.705742 68.124443 9143420
-113.96588 -72.66185 67.643631 9078397
-114.76643 -72.622627 67.252373 9736070
-115.45549 -72.867218 66.800171 9736070
-137.70006 -73.036224 50.622948 10853012
-138.17946 -72.710617 50.044411 6775126
-138.69398 -72.745506 49.147263 7235421
-139.17976 -72.474075 48.518814 7959144
-108.00166 -71.385468 71.21006 10129545
-108.85594 -71.573929 70.696899 9735043
-109.63068 -71.743042 70.232277 9077114
-110.4808 -71.561081 69.874977 10261388
-111.40218 -71.618164 69.382217 7695979
-112.31892 -71.707268 68.878471 9735814
-113.23336 -71.867096 68.346527 10065035
-113.8244 -71.811142 68.068947 9736070
-138.53317 -71.9617 49.9828 6511954
-138.99742 -71.685173 49.394543 6840919
-139.48726 -71.666641 48.577648 6840919
-139.93135 -71.388863 48.024506 6511954
-105.4771 -70.252884 72.965599 9932424
-106.4557 -70.448318 72.386238 8551025
-107.20735 -70.709282 71.895195 8814197
-108.09898 -70.632858 71.472992 7893095
-108.88185 -70.606979 71.085182 10392718
-109.7885 -70.669189 70.59774 11840420
-110.72224 -70.660767 70.125862 12301227
-111.58855 -70.888763 69.590126 8287600
-112.29338 -70.993446 69.187813 7038307
-139.35545 -70.752823 49.457298 6577491
-139.78467 -70.757019 48.72691 6906203
-140.26991 -70.580032 48.031624 7039331
-104.07729 -69.350571 74.05291 10195081
-104.79102 -69.530991 73.614586 7630444
-105.65895 -69.616791 73.137123 8287859
-106.4355 -69.563354 72.763954 7564394
-107.27289 -69.625008 72.312004 7564643
-108.22736 -69.631599 71.823334 7038042
-109.06361 -69.731537 71.356087 8616307
-110.03337 -69.99308 70.753754 12695985
-139.97246 -70.048615 48.917362 7103067
-140.53737 -69.672928 48.22979 7039331
-101.41585 -68.163391 75.900726 7038298
-102.23308 -68.448036 75.366554 8945527
-103.0623 -68.559509 74.898094 8090221
-103.91243 -68.588181 74.453331 8550771
-104.7911 -68.626053 73.990273 7893357
-105.73049 -68.620483 73.514351 7432808
-106.61523 -68.678658 73.039726 7038307
-107.56847 -68.78685 72.509483 6972508
-108.09354 -69.106506 72.109528 8419184
-140.82808 -68.95517 48.252598 6973024
-141.18407 -68.369804 48.070122 7039331
-100.03802 -67.311501 76.955956 7760997
-100.59738 -67.439919 76.617821 7629667
-101.51564 -67.520302 76.116959 6643540
-102.34067 -67.670357 75.634605 8419697
-103.30308 -67.542862 75.197571 7498342
-104.19696 -67.639122 74.702515 8814457
-105.08345 -67.661041 74.242073 7433064
-105.89877 -67.907906 73.724495 7630187
-106.57962 -67.987885 73.344643 7038307
-97.697388 -66.266441 78.58149 7564651
-98.250549 -66.386368 78.250023 8288374
-99.131012 -66.536156 77.739609 10459284
-99.95504 -66.646774 77.274147 8880250
-100.86729 -66.618248 76.821556 9341054
-101.78528 -66.592644 76.364807 7433056
-102.67183 -66.680153 75.877113 8025193
-103.58205 -66.716019 75.398811 7301220
-104.24147 -67.052002 74.92363 9670021
-96.481903 -65.295654 79.533577 6511186
-97.412216 -65.583534 78.996223 7432544
-98.320435 -65.70401 78.497772 8025199
-99.213425 -65.548058 78.10788 11249055
-100.06425 -65.695389 77.613525 8222317
-101.00266 -65.591499 77.178917 7564642
-101.80345 -65.771553 76.696434 7696228
-102.6075 -65.954887 76.211067 8617331
-94.977646 -64.274399 80.624084 9208954
-95.853882 -64.508041 80.135048 7564642
-96.688324 -64.649284 79.702187 7432544
-97.602989 -64.575958 79.317574 6905944
-98.493347 -64.696854 78.827881 7893096
-99.365417 -64.633522 78.41021 10459279
-100.15758 -64.913879 77.890472 8485744
-93.338509 -63.245613 81.778366 8155754
-94.23172 -63.516666 81.266541 7761766
-95.132202 -63.587406 80.832489 8617074
-96.102791 -63.600872 80.390068 7104602
-96.997635 -63.680725 79.954872 7695716
-97.844864 -63.728317 79.551483 7629923
-98.700836 -64.046089 78.992455 8353903
-91.847015 -62.268169 82.845322 9734788
-92.626083 -62.479237 82.409203 8550512
-93.393593 -62.577686 82.023834 11181972
-94.275589 -62.644798 81.599594 9800578
-95.195389 -62.608406 81.200203 11050642
-96.030212 -62.741165 80.770638 7828324
-96.915405 -62.973309 80.278191 6709845
-91.01181 -61.434361 83.558784 7959407
-91.85173 -61.562351 83.128868 8024428
-92.790329 -61.610928 82.686623 7958375
-93.687073 -61.61998 82.279266 11971487
-94.516182 -61.74453 81.85556 13155760
-95.349106 -61.872379 81.428833 12169121
-88.781799 -60.296028 85.195374 7630186
-89.430458 -60.350208 84.857994 7630186
-90.224747 -60.574825 84.341293 7038307
-91.052452 -60.583714 83.968155 8616822
-91.984833 -60.663696 83.489098 10195334
-92.92997 -60.693874 83.032013 7892582
-93.882523 -60.98209 82.449379 10918801
-94.451691 -61.095154 82.147423 12235172
-82.907524 -59.106804 89.381325 9340798
-83.629005 -59.163754 88.863029 8221805
-84.611984 -59.201107 88.296204 7958633
-85.354599 -59.220375 87.899086 7563618
-86.149033 -59.319134 87.324638 8024168
-87.154617 -59.381451 86.874496 7497824
-87.92041 -59.54686 86.285042 7827048
-88.699936 -59.655293 85.801353 8222065
-89.651703 -59.676506 85.327377 10458509
-90.523712 -59.906773 84.741463 7498599
-91.451263 -59.939224 84.297096 9734784
-60.409698 -58.424557 106.06693 7761253
-61.320065 -58.497356 105.81524 8551025
-62.061241 -58.72908 105.2196 11379865
-62.97192 -58.759823 104.56603 16247262
-63.724937 -58.761189 104.10806 13550517
-64.545967 -58.762955 103.298 8353135
-65.262726 -58.7644 102.6944 8945271
-66.102295 -58.765888 102.22024 9340540
-66.882729 -58.767448 101.57903 9077368
-67.713951 -58.768932 101.0921 9011831
-68.34594 -58.770527 100.2002 9603969
-69.187263 -58.772118 99.62043 10064521
-70.023392 -58.773701 99.033203 8616563
-70.854774 -58.77528 98.439301 9735812
-71.563332 -58.776638 97.924545 8485489
-72.385147 -58.778221 97.317406 7432289
-73.202019 -58.779804 96.703674 6248015
-74.013466 -58.781387 96.082756 6511187
-75.056992 -58.783005 95.757355 8748405
-75.777008 -58.784492 95.117363 8880247
-76.628029 -58.786057 94.573334 10459278
-77.338432 -58.787537 93.92141 10130313
-78.134018 -58.78899 93.426353 8946297
-79.158134 -58.79076 92.895905 7762797
-79.826408 -58.792118 92.321281 7039331
-80.502693 -58.846848 91.438744 8683382
-81.256386 -58.898891 90.835777 10130314
-82.103622 -58.961784 90.24115 8485234
-82.969856 -58.986053 89.771652 10459538
-83.835678 -59.011974 89.296936 8748405
-84.559296 -59.069984 88.773903 8090475
-86.821899 -59.088417 87.703491 7037274
-59.493267 -57.512341 106.56573 9998210
-60.420517 -57.519192 106.39886 9998468
-61.290615 -57.764812 106.15414 7892840
-58.773506 -56.457485 107.08227 8353900
-59.654137 -56.565666 106.88633 9406332
-60.413982 -56.657722 106.71772 10787983
-57.97525 -55.267845 107.66249 9274745
-58.714527 -55.629921 107.39797 7827557
-59.629398 -55.641407 107.23163 8353646
-57.145306 -54.241428 108.18816 10064517
-57.953697 -54.552063 107.93035 10064261
-58.956947 -54.718449 107.69125 7564643
-56.416687 -53.208385 108.69827 7696485
-57.076099 -53.496471 108.47522 8880759
-58.07737 -53.646461 108.24253 12498345
-58.816502 -54.025917 107.97155 7564643
-55.504463 -52.056934 109.28466 7696485
-56.241631 -52.425713 109.01805 7696485
-57.242352 -52.570148 108.78747 8090987
-57.904709 -52.859028 108.56355 10985624
-55.424431 -51.351818 109.55898 8222060
-56.394722 -51.557587 109.31118 6709590
-57.171268 -51.826908 109.07423 7696485
-54.636971 -50.43359 110.03718 5393730
-55.622131 -50.503536 109.83685 8222060
-56.432648 -50.670036 109.63188 8682611
-53.964901 -49.394501 110.53957 8485748
-54.733009 -49.472485 110.37475 5985611
-55.653198 -49.637764 110.15074 9208443
-53.029022 -48.163052 111.1596 9472384
-53.841396 -48.4487 110.91035 10591124
-54.845306 -48.587242 110.6814 8222319
-55.437237 -48.920509 110.4536 9011320
-52.283447 -47.163925 111.6603 9406334
-53.09642 -47.445576 111.41236 8354163
-54.100388 -47.57972 111.18501 11512225
-54.693047 -47.909718 110.95832 7564651
-51.626328 -46.229279 112.12149 7038307
-52.199097 -46.434326 111.94433 9537922
-53.246685 -46.529053 111.72385 7696237
-53.946083 -46.904415 111.46146 9538438
-50.672585 -45.12701 112.8935 8353651
-51.452797 -45.433689 112.53197 7235685
-52.368652 -45.538792 112.30409 7498858
-53.158203 -45.778374 112.02113 7564651
-49.075718 -44.110439 114.30242 8813941
-49.848698 -44.249329 113.88519 8813683
-50.699318 -44.577328 113.31494 7958376
-51.6091 -44.735981 113.03075 9735045
-52.242496 -44.968216 112.73875 7564651
-35.237991 -43.244858 124.24776 9537153
-36.147102 -43.482334 123.88492 9800581
-37.025272 -43.661007 123.44944 7563619
-37.954872 -43.711597 123.04332 8024170
-38.528557 -43.713455 121.77689 10129798
-39.406563 -43.714821 121.49508 8682867
-40.282486 -43.71619 121.20692 9472383
-40.935505 -43.71785 120.26767 11774366
-41.691002 -43.719364 119.64649 10129543
-42.69696 -43.720959 119.29034 8814457
-43.700016 -43.722561 118.92606 7368040
-44.060677 -43.724091 117.71672 8354163
-45.050461 -43.725681 117.34103 7301478
-45.89624 -43.727047 117.01228 9537921
-46.666378 -43.746532 116.33362 8682356
-47.42551 -43.806587 115.56128 7563619
-48.240242 -43.935497 115.00634 7892841
-49.018253 -43.86964 115.08218 8813683
-34.42659 -42.34436 124.72357 9274237
-35.351715 -42.537354 124.48859 9142395
-36.275223 -42.6446 124.28556 9998218
-33.633484 -41.295982 125.25098 8814201
-34.484943 -41.530972 125.0134 8616307
-35.449348 -41.665543 124.79292 8221550
-32.89743 -40.379543 125.71969 11511194
-33.653168 -40.557133 125.52026 8814201
-34.690372 -40.625023 125.31146 7432550
-35.318447 -40.921032 125.09091 8089963
-32.074177 -39.251652 126.28185 9340286
-32.823219 -39.522221 126.04936 10721937
-33.834152 -39.64222 125.82598 7893358
-34.486477 -39.945019 125.5986 7038307
-32.035225 -38.546551 126.54915 9801094
-32.990944 -38.558853 126.3753 8419444
-33.763687 -38.868336 126.12421 7630186
-31.223011 -37.332325 127.14132 10985108
-32.140484 -37.554329 126.89684 9603714
-32.952946 -37.579315 126.74366 8485493
-30.399517 -36.247005 127.68787 8024942
-31.335506 -36.413963 127.4604 9537664
-32.141891 -36.461067 127.30019 9866628
-29.692272 -35.212231 128.19653 11576728
-30.484013 -35.446358 127.96848 10459021
-31.371532 -35.535507 127.77835 9867141
-28.844448 -34.259441 128.75092 8024935
-29.629253 -34.481079 128.48134 9340541
-30.588604 -34.501999 128.29858 9077367
-31.228745 -34.790871 128.07851 10854036
-27.996727 -33.312809 129.32976 9142902
-28.780457 -33.528809 129.04172 10261125
-29.7733 -33.49556 128.81606 7893350
-30.372673 -33.822227 128.58774 6511954
-27.289665 -32.343029 129.88019 7563619
-27.994839 -32.548607 129.61674 6511954
-28.921677 -32.54089 129.37471 9340280
-29.626125 -32.750175 129.11803 10261382
-26.431969 -31.395718 130.46443 8879478
-27.139927 -31.600492 130.19936 8813685
-28.184631 -31.561354 129.93694 7827302
-28.878601 -31.797405 129.66476 5920074
-24.796818 -30.067381 131.5771 9931137
-25.57814 -30.229288 131.25676 9273721
-26.424736 -30.492283 130.87669 9273979
-27.366447 -30.707558 130.49306 9273979
-28.231617 -30.844946 130.19417 12365991
-22.344784 -28.990602 133.5034 9208435
-23.193401 -29.036839 133.15834 6446162
-23.985149 -29.250717 132.51373 8221547
-24.815983 -29.504572 132.02226 9470843
-25.767803 -29.549486 131.74155 9997441
-26.563576 -29.753113 131.37059 10458250
-1.9495858 -28.268124 149.16426 9406339
-2.2999201 -28.430735 148.6115 9997962
-3.0047083 -28.64489 148.12193 10458254
-4.7234964 -28.648832 146.14157 9340801
-5.4267511 -28.649748 146.11659 8945786
-6.1298456 -28.650667 146.08881 11379868
-7.9581003 -28.654747 144.11092 8880507
-8.8248758 -28.655895 144.05994 8419184
-10.422276 -28.659657 142.10799 9143419
-11.10603 -28.660574 142.05565 9670020
-11.789578 -28.661493 142.00063 7039331
-13.494927 -28.665396 140.04437 6183248
-14.337209 -28.666542 139.96022 5722702
-16.649944 -28.671278 137.93781 7038302
-17.645279 -28.672655 137.81401 7037274
-19.063774 -28.676157 135.89682 6511954
-20.044205 -28.677532 135.75491 8090987
-20.690594 -28.797337 134.53114 10262156
-21.492813 -28.789705 134.36229 11182481
-22.614769 -28.779947 134.12312 8155753
-24.096394 -28.97732 133.12254 9931137
-117.46136 -73.264587 65.528366 8354165
-118.1794 -73.468346 64.999413 8617335
-118.96764 -73.500305 64.502754 8814713
-119.8476 -73.560104 63.937729 8814713
-120.68544 -73.603951 63.380127 9933447
-121.57484 -73.478928 62.915691 8355190
-122.37189 -73.63076 62.273632 12892845
-123.19534 -73.567055 61.884834 12037794
-124.01898 -73.599884 61.28656 8748405
-124.9726 -73.603661 60.691376 6840663
-125.78464 -73.622337 60.178715 9077625
-126.6097 -73.62487 59.559769 7039073
-127.52388 -73.682602 59.134113 8090991
-128.07039 -73.794609 58.453552 9998217
-128.94933 -73.838715 57.732719 7761254
-129.85579 -73.836456 57.077496 7168605
-130.45866 -73.825455 56.345737 7760998
-131.36502 -73.849815 55.98777 6774103
-132.22572 -73.884705 55.228874 6576980
-132.86908 -73.925415 54.672718 6708567
-133.87558 -73.936111 54.108833 8616307
-134.49998 -73.966606 53.533749 10064009
-135.38077 -73.911552 53.055073 11314076
-136.23378 -73.545471 52.582466 8616049
-136.85774 -73.46804 51.740463 8353134
-137.22151 -73.363205 51.19912 7563619
-115.19437 -72.213997 67.204674 9736070
-115.85107 -72.506042 66.749146 10130571
-116.67118 -72.703484 66.242928 11446429
-117.51036 -72.571602 65.80201 9012093
-118.29989 -72.7286 65.249779 7959408
-119.24831 -72.658279 64.699875 8880506
-120.0439 -72.61454 64.231895 9275262
-120.89693 -72.69294 63.675217 9406847
-121.82292 -72.700912 63.104698 8947070
-122.55052 -72.670662 62.672421 12761259
-123.48973 -72.715446 62.07774 10788500
-124.28905 -72.666046 61.609932 7169628
-125.07378 -72.901169 61.02644 8090729
-125.95023 -73.006966 60.443466 10524555
-126.40755 -73.146446 60.102257 9208952
-136.64912 -72.742157 52.615391 9537406
-137.07469 -72.738525 51.896713 9208441
-137.65509 -72.576599 51.02932 7695460
-113.19684 -71.250961 68.621086 9670278
-114.22845 -71.48558 67.998787 9275776
-115.06378 -71.665932 67.49894 8617846
-115.96539 -71.731651 67.012978 9341054
-116.84156 -71.599564 66.616768 9932935
-117.6781 -71.737 66.064995 9603973
-118.55081 -71.641388 65.572525 8946301
-119.34335 -71.668541 65.07534 8419956
-120.17439 -71.86319 64.481178 9669763
-121.11528 -71.845047 63.913052 10262156
-121.78185 -71.931854 63.466843 8485233
-122.78742 -72.065926 62.792389 12892845
-137.35234 -71.93882 52.00053 9142648
-137.8185 -71.648506 51.418961 7563619
-138.31795 -71.685822 50.545555 6511954
-138.88701 -71.213463 49.92038 6511954
-111.07277 -70.277725 70.106438 10064009
-111.66998 -70.443214 69.733612 8089963
-112.49893 -70.568329 69.259903 9736071
-113.47452 -70.62204 68.741409 9275777
-114.35783 -70.718803 68.251877 9078142
-115.21172 -70.639137 67.850655 8749175
-116.16014 -70.586967 67.389961 8419695
-116.96203 -70.81971 66.880089 9406590
-117.8143 -71.055145 66.28035 10064779
-138.16353 -70.832893 51.420013 7563619
-138.67207 -70.777565 50.597839 6577235
-139.16762 -70.588173 49.894039 6379857
-109.62433 -69.327271 71.238426 8419184
-110.14522 -69.504211 70.899803 12498862
-110.952 -69.561768 70.46534 10656403
-111.77026 -69.723503 69.981865 7695979
-112.7989 -69.633408 69.496147 7828334
-113.67595 -69.716545 69.01545 8091761
-114.50024 -69.685501 68.609093 8420470
-115.32166 -69.870636 68.114334 8485492
-138.91006 -69.745407 50.935791 6774102
-139.42049 -69.691177 50.109615 6379601
-139.93159 -69.639175 49.280781 8023913
-107.7457 -68.284439 72.627838 7564393
-108.59148 -68.60778 72.062988 8419184
-109.31648 -68.640137 71.680557 7300703
-110.22517 -68.563911 71.249954 9076858
-111.16118 -68.68985 70.721497 9669509
-112.14459 -68.707054 70.214134 7762029
-113.041 -68.801605 69.718864 9340801
-113.64185 -68.866455 69.386314 7565675
-139.72018 -68.8358 50.216007 6116429
-140.24217 -68.667747 49.452072 7168604
-140.74336 -68.457611 48.753632 6840409
-105.53635 -67.366554 74.133751 8090992
-106.2195 -67.390739 73.77594 7498601
-106.98708 -67.72757 73.245285 7038307
-107.82043 -67.619759 72.865837 7630443
-108.66634 -67.606972 72.440781 7827305
-109.57642 -67.658012 71.95665 7958633
-110.55588 -67.649818 71.461861 9997700
-111.38037 -67.908585 70.934868 12300710
-112.0918 -67.949165 70.556213 7564651
-139.95308 -68.170975 50.298737 5919050
-140.4604 -67.78286 49.717739 7103068
-141.03352 -67.74102 48.777 7498341
-141.45348 -67.609039 48.160652 7038307
-103.7493 -66.220291 75.519463 6840669
-104.55412 -66.589645 74.956398 9538434
-105.33131 -66.597092 74.557632 8748920
-106.14934 -66.615311 74.133621 7367015
-107.04483 -66.654366 73.661674 6840928
-108.00261 -66.649971 73.176323 7433065
-108.90491 -66.709343 72.69268 6380118
-109.81722 -66.986633 72.11338 6709078
-110.41323 -67.139679 71.746544 8090216
-141.2213 -66.856773 49.094532 7564393
-141.70151 -66.644241 48.434032 7038307
-102.09013 -65.365318 76.719193 8222573
-102.83792 -65.609314 76.23716 8353646
-103.70721 -65.542961 75.822136 6248016
-104.54746 -65.694244 75.331535 8419957
-105.52769 -65.56778 74.885185 9275263
-106.43869 -65.665291 74.381256 8946553
-107.33551 -65.821999 73.859917 7433065
-107.92319 -65.965508 73.50135 6643549
-141.63707 -66.031776 48.983192 7564392
-142.03746 -65.694786 48.547394 7104099
-99.680565 -64.25251 78.407928 10130313
-100.49628 -64.427612 77.91993 8222316
-101.23068 -64.587578 77.47963 7630179
-102.11802 -64.666252 76.995201 6709078
-103.04649 -64.638847 76.533852 6905945
-103.98119 -64.614365 76.068352 7892583
-104.88422 -64.703117 75.572029 8287857
-105.71046 -64.805916 75.109016 8814454
-106.4838 -65.077347 74.602837 9538688
-142.3951 -64.949898 48.477165 7761509
-98.111557 -63.317924 79.590843 9142904
-98.918602 -63.496944 79.109596 9012090
-99.749939 -63.571182 78.655487 9998727
-100.63103 -63.641308 78.177788 9077625
-101.55219 -63.605892 77.723503 8814198
-102.46124 -63.627861 77.251709 7629669
-103.30305 -63.73793 76.777611 5984843
-104.01057 -63.912422 76.3452 8681843
-96.399658 -62.176445 80.832848 8683120
-97.129623 -62.577026 80.342087 8025191
-98.033951 -62.559006 79.937897 10261128
-98.939682 -62.671982 79.44133 10393485
-99.875877 -62.555897 79.012901 9209726
-100.73598 -62.695698 78.516968 9209212
-101.67741 -62.758472 78.011795 8616822
-102.24832 -62.880234 77.670769 8090479
-94.879906 -61.181145 81.919815 13156016
-95.613045 -61.466351 81.474297 13221296
-96.40947 -61.562328 81.076904 7367774
-97.325333 -61.685509 80.614731 8946293
-98.296738 -61.54607 80.228722 9275261
-99.144028 -61.715904 79.734215 8223090
-99.94574 -61.79092 79.29496 8617847
-100.69872 -62.031258 78.811974 9735301
-92.531792 -60.118664 83.659805 10590091
-93.073776 -60.210403 83.338577 8550512
-94.050026 -60.453789 82.695335 8419182
-94.950951 -60.510647 82.259041 10787984
-95.857346 -60.648224 81.760117 10327432
-96.774933 -60.535595 81.421608 7762021
-97.582924 -60.882423 80.82621 7893611
-98.50209 -60.900295 80.394852 7565160
-89.335167 -59.13802 86.413719 9406080
-90.056236 -59.204926 85.861069 8814201
-90.84285 -59.327499 85.285172 8287342
-91.703613 -59.412251 84.732719 9537406
-92.510986 -59.603275 84.14666 9800577
-93.414902 -59.669014 83.642525 9274491
-94.221016 -59.768463 83.196434 8682867
-95.069267 -59.832085 82.761414 9011831
-95.740143 -60.070839 82.258018 9538175
-62.574375 -58.418324 105.68563 11182230
-63.494125 -58.498447 105.43047 12234406
-64.231171 -58.732639 104.82081 13813178
-65.135689 -58.762947 104.14643 8682099
-65.885574 -58.764324 103.67279 9669251
-66.756035 -58.765926 103.11322 10590607
-67.621925 -58.767529 102.54671 10458761
-68.360161 -58.768906 102.05523 9340795
-68.998016 -58.770515 101.15458 9669505
-69.847343 -58.77211 100.56924 11643553
-70.69146 -58.773712 99.976456 9735044
-71.530807 -58.775314 99.37693 9274749
-72.246117 -58.776684 98.857254 9537920
-73.075714 -58.778282 98.244308 10064264
-73.900352 -58.779881 97.624725 6642516
-74.719543 -58.781475 96.99791 7103324
-75.773232 -58.783112 96.669647 9669761
-76.468819 -58.784485 96.119469 8880246
-77.275261 -58.786083 95.471039 9603969
-78.076416 -58.787685 94.81617 9077368
-78.758644 -58.789055 94.249397 9931907
-79.54921 -58.790649 93.581757 8091762
-80.334366 -58.792252 92.907845 12827827
-81.113556 -58.793842 92.226974 11183260
-82.140869 -58.795582 91.733765 10591124
-82.809357 -58.796879 91.235718 14144973
-83.582474 -58.804134 90.542747 11314847
-84.383286 -58.834568 89.878876 9011833
-85.114288 -58.879108 89.232803 8287598
-85.981308 -58.918911 88.66468 8353390
-86.867058 -58.94894 88.170937 8813682
-87.820496 -58.914917 87.860504 8813680
-88.590149 -58.995274 87.239639 7366238
-89.567856 -58.983143 86.846809 8813942
-90.412949 -59.061184 86.200493 8550772
-61.652851 -57.495255 106.18932 8748147
-62.615776 -57.543934 106.00077 10327180
-63.468777 -57.761154 105.76952 11905442
-60.931263 -56.430305 106.70998 11577754
-61.867592 -56.534389 106.50574 11971999
-62.563694 -56.767597 106.29639 11576731
-60.206856 -55.372612 107.22849 10327433
-60.991394 -55.584713 107.01128 10787983
-61.81271 -55.697453 106.82419 10261384
-59.29837 -54.192787 107.82468 9537918
-60.11338 -54.510078 107.56322 11182484
-61.126274 -54.683693 107.31976 11576986
-61.717827 -55.043293 107.08231 10064006
-58.65892 -53.214123 108.29897 10524812
-59.232635 -53.44381 108.1126 9735297
-60.243343 -53.600777 107.87567 11643035
-60.988174 -53.986801 107.60132 9538686
-58.435043 -52.453629 108.61916 8814459
-59.466228 -52.521481 108.41145 9472126
-60.104313 -52.91814 108.15208 9537918
-57.739548 -51.510876 109.09017 8419959
-58.670101 -51.4762 108.93808 8617337
-59.336693 -51.634666 108.76157 9143681
-56.862682 -50.576332 109.59022 8156269
-57.72197 -50.510967 109.46213 9275010
-58.720009 -50.640236 109.23766 9143681
-56.167866 -49.413914 110.14214 9603201
-56.914574 -49.510139 109.97437 8353391
-57.8507 -49.609783 109.77175 9932681
-55.424828 -48.398857 110.6482 9011320
-56.138939 -48.566982 110.45969 10327181
-57.073483 -48.535587 110.30571 7892584
-54.49588 -47.267818 111.23 9538438
-55.297554 -47.538136 110.98828 9077631
-56.220573 -47.542656 110.82311 11709346
-56.857346 -47.816479 110.60928 7563619
-54.443985 -46.485229 111.52789 8551544
-55.373768 -46.538342 111.34358 9077631
-56.109066 -46.80238 111.11585 13024949
-53.089279 -45.172462 112.43163 7564651
-53.700237 -45.395294 112.16883 7564651
-54.57843 -45.548187 111.91508 7564651
-55.509743 -45.808243 111.58881 9341059
-50.542534 -44.105076 114.06503 7037274
-51.119286 -44.130604 113.88346 9405819
-52.115753 -44.324722 113.35502 10459282
-52.914177 -44.585373 112.93632 8419959
-53.801331 -44.700645 112.67043 7893615
-54.422028 -44.86166 112.43598 7564651
-37.449833 -43.352074 123.81664 8879479
-38.458302 -43.413689 123.61539 8616307
-39.067444 -43.62001 123.03582 9274748
-40.021706 -43.714817 122.38536 8682867
-40.904026 -43.716194 122.09273 10327692
-41.447075 -43.718021 120.81286 11313816
-42.318012 -43.719402 120.50999 9735044
-43.331242 -43.721008 120.14852 9801865
-44.197491 -43.722389 119.83236 7565675
-44.699867 -43.724159 118.553 7433064
-45.69669 -43.725765 118.17191 8617847
-46.548447 -43.72715 117.83839 9670020
-47.271141 -43.728642 117.18765 9077113
-47.860302 -43.730251 116.22141 7563619
-48.837204 -43.731853 115.81336 9998213
-49.705933 -43.815029 115.15508 10261127
-50.493839 -43.862816 114.84785 8418926
-51.480061 -43.974926 114.31744 8090477
-52.204388 -44.007572 114.08755 9209216
-36.721504 -42.315865 124.32777 8879995
-37.505501 -42.611126 124.0801 9076858
-38.431221 -42.723267 123.87484 9340030
-35.789799 -41.358776 124.84583 8090994
-36.6422 -41.598446 124.60646 8090994
-37.680077 -41.674404 124.3947 8616823
-38.306679 -41.975849 124.17254 9011065
-35.073288 -40.278965 125.37139 7038307
-35.859035 -40.591301 125.11691 8090738
-36.844486 -40.556362 124.95522 8682617
-37.481781 -40.991344 124.68175 8419702
-35.064007 -39.485008 125.66615 7498084
-36.049652 -39.557217 125.46488 8287858
-36.686226 -39.692684 125.30218 7564651
-33.430775 -38.013676 126.49863 9011579
-34.225582 -38.3773 126.22363 9998215
-35.195087 -38.440094 126.02871 7761255
-35.868988 -38.554543 125.86706 9735044
-33.424381 -37.259159 126.77834 9537665
-34.359055 -37.432571 126.54876 9866373
-35.129852 -37.632713 126.33835 7563619
-32.707767 -36.30312 127.25828 10195336
-33.515869 -36.458473 127.05774 9208444
-34.402687 -36.553551 126.86556 9536894
-31.876614 -35.247871 127.79505 10261899
-32.668564 -35.485962 127.56688 9603458
-33.577835 -35.518749 127.39368 9865859
-31.128059 -34.152569 128.33202 7959144
-31.819923 -34.482941 128.08749 9801348
-32.778996 -34.540821 127.89625 9011833
-33.418602 -34.832718 127.67517 10457481
-30.426895 -33.185802 128.81314 6511954
-30.964188 -33.512791 128.59724 7038298
-31.96806 -33.52953 128.41324 7630179
-32.68103 -33.755207 128.20363 8485746
-29.565437 -32.217846 129.32567 8090986
-30.209641 -32.505013 129.10295 7104091
-31.175816 -32.527256 128.92361 9143418
-31.825024 -32.782536 128.71436 7959144
-29.4006 -31.535442 129.62505 7498849
-30.313568 -31.556433 129.43477 8222572
-31.113605 -31.791622 129.20619 10393485
-27.677979 -30.114111 130.79839 9010807
-28.627956 -30.333017 130.40091 14076863
-29.490669 -30.504927 130.06564 9603711
-30.315228 -30.788919 129.7178 9143674
-26.192108 -29.171803 131.97881 9142390
-27.017784 -29.383245 131.57492 9339771
-27.90871 -29.515381 131.23344 7695462
-28.84433 -29.662523 130.85503 11379609
-2.6633997 -28.033655 148.9151 10853012
-3.3709803 -28.154167 148.52557 9800837
-4.1429453 -28.478754 148.01176 9340801
-5.126565 -28.367975 147.59358 7828078
-6.1738138 -28.286777 147.12186 7564651
-6.9137201 -28.364111 146.50874 10195595
-7.7174578 -28.549324 146.12437 7169633
-10.037854 -28.657511 143.97981 9143419
-10.90381 -28.658669 143.91702 8681843
-12.302033 -28.662184 141.95688 8486262
-13.326451 -28.66357 141.86359 8222831
-15.01061 -28.667463 139.8896 5393738
-15.683637 -28.668385 139.8152 6051666
-16.524548 -28.66954 139.71825 7564651
-18.142681 -28.673342 137.74937 7037274
-18.970917 -28.674496 137.63695 8879733
-19.798576 -28.675653 137.52051 8089963
-21.186878 -28.67914 135.58104 8814710
-22.32793 -28.680754 135.39713 8156010
-23.575176 -28.772587 133.91516 6840664
-24.654072 -28.834839 133.45171 8813428
-25.399281 -28.917311 133.00261 8089704
-26.320778 -28.964794 132.62444 8484461
-1.9554452 -27.380049 149.52 9800837
-2.6692133 -27.324385 149.19865 9603457
-3.5557795 -27.432903 148.72775 9735043
-4.4367151 -27.541777 148.25945 10459021
-5.3913965 -27.419041 147.84912 9209216
-6.1160746 -27.625435 147.41669 7564651
-6.8792963 -27.708498 147.0155 7564651
-2.1053705 -26.372028 149.85475 9077113
-2.8553934 -26.422552 149.47302 8090731
-3.7428064 -26.533747 149.0007 8814197
-4.6251078 -26.645315 148.53062 9537665
-5.1509638 -26.783031 148.22174 11511452
-2.1832285 -25.510071 150.16524 9537152
-2.921731 -25.646599 149.75441 9143163
-3.7511835 -25.823809 149.28331 9735043
-1.9720467 -24.881746 150.52065 9208187
-128.39946 -73.359215 58.789379 8222321
-129.2505 -73.422821 58.240417 9077626
-130.08272 -73.5495 57.675308 7761254
-130.97011 -73.558914 57.127796 7168605
-131.77434 -73.610405 56.611473 7366240
-132.6924 -73.557899 56.04911 7695716
-133.51091 -73.550926 55.575581 6840151
-134.27657 -73.651939 55.010841 8484977
-135.18657 -73.658203 54.372318 13946052
-135.70891 -73.540619 53.635326 12564399
-124.72752 -72.241356 61.527512 9208952
-125.33333 -72.422096 61.077419 10064261
-126.16542 -72.472824 60.545692 10524555
-126.93065 -72.704918 59.975422 8090989
-127.72739 -72.690369 59.493958 7564648
-128.63692 -72.674904 58.94384 7564392
-129.54568 -72.567947 58.434223 8880248
-130.2504 -72.719498 57.936314 7365984
-131.21144 -72.663643 57.372349 6642263
-131.98396 -72.773933 56.850948 7103583
-132.84709 -72.718872 56.346619 7432288
-133.83009 -72.619072 55.787773 6971737
-134.54668 -72.765259 55.284153 7695460
-135.43275 -72.746407 54.611912 11314075
-135.97115 -72.77935 53.73772 10721937
-136.46233 -72.582077 53.046955 9537406
-119.83459 -71.225586 64.968666 8090987
-120.42084 -71.389503 64.537849 9735812
-121.19753 -71.349281 64.079887 9735812
-122.14079 -71.389877 63.484509 8682869
-122.92085 -71.555122 62.93449 11511964
-123.74863 -71.558952 62.42593 10591632
-124.48006 -71.772629 61.884491 8748916
-125.36896 -71.588921 61.420681 10195590
-126.26106 -71.70401 60.823982 13550775
-127.09293 -71.696106 60.318123 9209468
-127.99879 -71.675171 59.772606 7827307
-128.90359 -71.563309 59.267616 7169891
-129.60597 -71.709595 58.773441 7169891
-130.46718 -71.770981 58.219219 6708054
-131.33409 -71.834869 57.660362 6709084
-132.20702 -71.902092 57.09642 7103841
-133.0854 -71.971581 56.527557 6840151
-133.56883 -72.123459 56.164478 6510930
-136.20476 -71.749741 54.081249 8353135
-136.73259 -71.729546 53.201168 12761002
-137.21077 -71.558197 52.51384 11971744
-117.28778 -70.340622 66.91584 10854036
-117.86511 -70.495079 66.494652 11183001
-118.82029 -70.609528 65.859634 11117208
-119.59164 -70.772484 65.315933 8748917
-120.44824 -70.574539 64.878174 8287854
-121.34705 -70.678871 64.282082 9340798
-122.15636 -70.711601 63.772194 8814454
-123.05997 -70.625633 63.256588 9801860
-123.86357 -70.740471 62.714222 10526095
-124.73984 -70.615425 62.232456 9802116
-125.69736 -70.659676 61.626747 11182741
-126.44841 -70.633224 61.178474 13880256
-127.34477 -70.830154 60.543327 9670275
-128.19157 -70.881317 60.002419 7564392
-128.8145 -71.067322 59.539486 7564392
-136.62555 -70.879173 53.993279 8089963
-137.03902 -70.736893 53.394756 12563624
-137.58876 -70.665024 52.514675 10261128
-138.07445 -70.386398 51.891647 7563619
-115.63593 -69.448051 68.130211 9209215
-116.45958 -69.656906 67.624428 7433056
-117.21266 -69.635849 67.246063 7696228
-118.18983 -69.627159 66.67614 11841187
-119.03564 -69.688629 66.13131 10656657
-119.83272 -69.635857 65.666382 10130313
-120.75735 -69.659592 65.089806 10393485
-121.49134 -69.694855 64.624924 9208955
-122.4156 -69.617249 64.092995 8813685
-123.23721 -69.780769 63.51825 9011064
-124.05997 -69.842598 62.98737 9012344
-124.96436 -69.941887 62.39011 9275772
-125.5734 -70.115967 61.940838 9012344
-137.2356 -70.167511 53.470512 9866371
-137.73769 -69.7733 52.902645 7300445
-138.30553 -69.721764 51.97736 6510930
-138.86772 -69.338974 51.299438 6510930
-113.15141 -68.233803 69.898819 9537923
-114.03519 -68.474533 69.349205 8091506
-114.83186 -68.694054 68.85273 8946046
-115.77939 -68.634079 68.395729 8946045
-116.61168 -68.62339 67.97683 7761767
-117.51486 -68.734123 67.464737 8683383
-118.37088 -68.532425 67.04496 8222835
-119.14314 -68.686554 66.504555 9735812
-120.10976 -68.798767 65.863525 9406847
-120.82049 -68.924667 65.373116 12432812
-121.65634 -69.021988 64.818726 10984852
-138.13885 -68.967781 52.80127 6510930
-138.59688 -68.817345 52.133114 6510930
-139.13957 -68.647537 51.33532 6774102
-139.55672 -68.510292 50.726788 7760741
-111.01183 -67.294762 71.377548 10260614
-111.46234 -67.412537 71.099495 11905437
-112.29462 -67.526299 70.62886 7827822
-113.20918 -67.627937 70.121414 10195852
-114.1447 -67.708473 69.612061 8090738
-115.01517 -67.563065 69.22982 7564651
-115.92262 -67.613335 68.747353 8090738
-116.7854 -67.876175 68.199242 7432807
-117.68059 -67.972664 67.699883 7762028
-118.12547 -68.089348 67.389397 7038307
-138.89885 -68.014648 52.19772 6510930
-139.38237 -67.686333 51.61412 7760997
-139.90477 -67.713898 50.70895 8484720
-140.39528 -67.438934 50.075161 6839895
-109.46178 -66.165489 72.635574 5919050
-109.92593 -66.501869 72.259644 5919818
-110.73563 -66.549232 71.82811 7695715
-111.55743 -66.69944 71.347664 7695973
-112.58822 -66.597839 70.865616 7433065
-113.46828 -66.669434 70.388206 8748666
-114.29453 -66.628593 69.98494 7498857
-115.11938 -66.801598 69.493439 7564651
-115.78412 -67.074013 69.042076 9143425
-139.64653 -66.92823 51.7108 7760997
-140.13728 -66.65139 51.078075 8550513
-140.66176 -66.680283 50.168842 8616822
-141.14891 -66.355431 49.577251 6511962
-107.50986 -65.322914 73.978806 7104100
-108.42392 -65.605507 73.396355 6709598
-109.08833 -65.656723 73.037132 5919566
-109.99916 -65.570602 72.609642 5919562
-110.93881 -65.684044 72.084511 5920074
-111.92511 -65.689293 71.580696 6840663
-112.74565 -65.714645 71.152794 7235428
-113.3559 -65.87191 70.777031 7038307
-140.55904 -65.73407 51.022831 9340030
-140.99471 -65.73246 50.286148 8813944
-141.54294 -65.616615 49.441086 7564392
-141.90517 -65.272842 49.07473 7564392
-105.9948 -64.389771 75.137444 8024425
-106.73215 -64.633987 74.660858 10591632
-107.54553 -64.611229 74.256599 8354418
-108.42862 -64.641907 73.794678 7301221
-109.34181 -64.681732 73.313629 6182222
-110.35825 -64.566467 72.844582 5919306
-111.1528 -64.908325 72.298256 5920074
-112.01814 -64.977997 71.829117 8024168
-141.24977 -64.873344 50.471649 8616822
-141.69597 -64.726715 49.821461 7301477
-142.26195 -64.688431 48.890472 8156271
-103.6291 -63.356495 76.770378 6445394
-104.40863 -63.530025 76.301735 8681843
-105.07545 -63.680283 75.900047 7169885
-105.93885 -63.565331 75.508743 8090474
-106.79523 -63.717686 75.009781 8814453
-107.7943 -63.591747 74.553993 8946297
-108.66138 -63.750553 74.046951 9011833
-109.56578 -63.866573 73.538734 6643029
-141.98347 -63.98634 49.866646 7038307
-142.50024 -63.765678 49.150169 8156528
-142.86522 -63.622101 48.635143 7103835
-101.69515 -62.238659 78.218903 8945786
-102.63112 -62.495262 77.636139 8090479
-103.41602 -62.605881 77.19091 7169375
-104.33807 -62.630848 76.71154 8222060
-105.26552 -62.659054 76.228081 6249039
-106.21775 -62.63522 75.753639 6775127
-107.08674 -62.757748 75.260719 7300702
-108.02538 -62.928181 74.71241 9143678
-142.79778 -62.852432 49.302578 7038307
-143.1895 -62.572735 48.840225 6643542
-99.632622 -61.123684 79.731636 7039331
-100.21399 -61.3783 79.330032 8551797
-101.07028 -61.587132 78.807648 9866631
-101.90857 -61.586349 78.381599 8616822
-102.80547 -61.65752 77.895828 9734788
-103.74344 -61.622913 77.433159 8221805
-104.63277 -61.637798 76.974602 8354158
-105.54457 -61.83609 76.428375 6643540
-106.07437 -62.129856 76.036812 5920074
-143.53636 -61.726913 48.860786 9538686
-97.899368 -60.308262 81.086784 6643546
-98.726006 -60.458916 80.576416 7038304
-99.553421 -60.569157 80.096489 7302246
-100.45396 -60.615734 79.596825 8090736
-101.31027 -60.6161 79.169235 9471874
-102.2352 -60.595802 78.708893 7104098
-102.9918 -60.828533 78.165611 8813943
-103.96159 -60.967987 77.594521 9207928
-104.54294 -61.091034 77.247704 9209467
-93.06739 -59.137974 84.753616 8089963
-93.789719 -59.210754 84.180077 9209467
-94.820068 -59.22485 83.672852 9603968
-95.558884 -59.375622 83.047623 10919570
-96.246559 -59.559597 82.490158 7958888
-97.061111 -59.697369 81.979958 5853773
-98.020996 -59.629402 81.624222 5591117
-98.816277 -59.795296 81.102547 5722702
-99.607979 -59.920883 80.597656 8090732
-100.53487 -60.004883 80.054207 8748665
-101.07866 -60.100555 79.695061 8090736
-64.763702 -58.426872 105.29456 11576477
-65.646057 -58.472393 104.96006 8682872
-66.551369 -58.490837 104.51552 11840677
-67.346344 -58.646935 103.95458 11117210
-68.054008 -58.767502 103.20089 10787726
-68.920319 -58.769115 102.62307 9998213
-69.782036 -58.770733 102.03835 9208955
-70.516579 -58.772114 101.53123 9471872
-71.368805 -58.773727 100.93277 10064265
-72.216179 -58.775341 100.32751 10788244
-72.938309 -58.776722 99.802872 11380380
-73.775833 -58.778339 99.184006 10261643
-74.608437 -58.779957 98.558525 7497825
-75.317741 -58.781338 98.016663 8090987
-76.14016 -58.782951 97.377914 9275003
-76.95742 -58.784561 96.732574 10459276
-77.768959 -58.786175 96.079994 11774882
-78.575256 -58.787781 95.421013 9471357
-79.261749 -58.789162 94.850548 9471357
-80.057396 -58.790768 94.178665 9077885
-81.106842 -58.792442 93.799828 11643552
-81.781647 -58.793819 93.211166 11051672
-82.460419 -58.795124 92.716431 12697012
-83.494865 -58.796886 92.212372 13684165
-84.268364 -58.7985 91.505249 9932936
-85.035622 -58.800106 90.791298 8024682
-85.797081 -58.801712 90.071243 9011833
-86.710861 -58.803261 89.636993 8156268
-87.368484 -58.804565 89.107315 8353389
-88.398224 -58.806278 88.650558 8089959
-89.141571 -58.807896 87.902245 8155752
-89.803154 -58.82848 87.284264 8484978
-90.759506 -58.886562 86.696617 8813943
-91.640755 -58.898052 86.23391 8484721
-92.406952 -58.982296 85.586823 8682098
-93.16481 -59.011253 85.149353 8156271
-94.043579 -59.053547 84.611847 8683125
-94.526756 -59.102604 84.226738 9209467
-63.836681 -57.492588 105.80343 11313562
-64.810181 -57.547771 105.61007 10326924
-65.793411 -57.620186 105.27321 8156528
-66.602867 -57.901539 104.79684 9933195
-63.112759 -56.417198 106.32837 10984597
-64.059143 -56.527981 106.11984 10195339
-64.761963 -56.76701 105.90717 9669250
-62.386093 -55.349216 106.85105 8419695
-63.178207 -55.56749 106.63022 8748660
-64.008202 -55.686111 106.43945 10261387
-61.565491 -54.222912 107.41193 12037025
-62.296364 -54.481594 107.18701 12891820
-63.319542 -54.66251 106.93904 10064006
-63.915798 -55.027836 106.69867 10064006
-60.803696 -53.325226 107.87801 8092011
-61.399971 -53.466503 107.72031 8618098
-62.432785 -53.568306 107.49976 11774110
-63.183781 -53.961033 107.22187 10064006
-60.069473 -52.278633 108.39416 9537918
-60.705669 -52.570145 108.17393 8552305
-61.697712 -52.513371 108.01912 9801601
-62.449078 -52.901337 107.74294 9538686
-59.927452 -51.587349 108.67436 8683638
-60.805218 -51.532604 108.53901 8486512
-61.649803 -51.628395 108.35408 12432037
-59.080093 -50.366226 109.27493 8617337
-59.964035 -50.590542 109.03561 8223605
-60.909447 -50.583225 108.8708 8092015
-58.338058 -49.33609 109.78637 10787989
-59.176502 -49.561951 109.55453 9802122
-60.053463 -49.662975 109.36192 9670536
-57.593445 -48.311989 110.2961 7563619
-58.265656 -48.594051 110.07294 8879992
-59.245579 -48.645046 109.88053 9933964
-56.661919 -47.170486 110.88216 12433069
-57.413311 -47.532688 110.61546 9142907
-58.443649 -47.607197 110.40545 10590866
-59.015251 -47.889038 110.20023 11907239
-56.628288 -46.479282 111.14314 11775140
-57.660229 -46.617687 110.90927 8946299
-58.265751 -46.865677 110.71046 8684155
-55.225628 -45.206741 112.02794 7564651
-55.803963 -45.458412 111.74483 9867146
-56.796619 -45.587864 111.49554 9998988
-57.666504 -45.863346 111.1864 8880763
