# .PCD v0.7 - Point Cloud Data file format
VERSION 0.7
FIELDS x y z rgb
SIZE 4 4 4 4
TYPE F F F U
COUNT 1 1 1 1
WIDTH 1190
HEIGHT 1
VIEWPOINT 0 0 0 1 0 0 0
POINTS 1190
DATA ascii
92.319061 -66.313049 -78.057739 8024943
93.112869 -65.967827 -77.553581 7367271
93.918762 -65.824379 -76.941696 8484717
94.683136 -65.9114 -76.253616 10787211
95.480087 -65.895363 -75.587769 9602939
96.159393 -65.646423 -75.133858 8879479
96.735382 -65.497078 -74.719162 11379868
9.5792027 -64.901459 -120.5408 11249822
10.603842 -64.890533 -120.44688 8749947
11.475489 -65.038368 -120.30933 8420469
94.182175 -65.110748 -77.063774 8353647
94.854294 -64.938499 -76.578911 10195078
95.627518 -64.945694 -75.921875 8550513
96.451767 -64.763504 -75.313232 9471615
97.131622 -64.840248 -74.70153 9932166
97.905853 -64.649117 -74.139496 9866371
8.7232189 -63.847599 -121.00943 9275521
9.6031628 -64.003136 -120.86828 10263184
10.603441 -64.037125 -120.76019 12565938
95.260742 -64.324188 -76.532089 9142651
95.779022 -64.108818 -76.198082 8616307
96.585236 -63.851662 -75.640884 10787219
97.362869 -63.883907 -74.968071 8879478
98.140244 -63.946804 -74.280594 9997953
98.845596 -63.731506 -73.788429 8353648
99.514816 -63.529762 -73.320251 8156787
7.808012 -62.937138 -121.43109 8945782
8.722086 -63.029957 -121.30968 9340797
9.7645168 -63.08918 -121.18835 10460306
96.961166 -63.201889 -75.637009 10260875
97.547058 -63.066486 -75.207191 8747888
98.324997 -62.873745 -74.642784 9142645
99.117783 -62.776756 -74.019562 9537661
99.866592 -62.910034 -73.321899 8551543
100.46301 -62.649994 -72.913315 8419443
6.9568005 -61.999695 -121.85652 9735297
7.874239 -62.08963 -121.73586 9866883
8.8525448 -62.115505 -121.63287 9603713
9.4617176 -62.386227 -121.47534 11380380
98.421944 -62.167469 -74.902046 9274230
99.312561 -61.904789 -74.276138 10261124
100.08047 -61.905754 -73.62661 10261644
100.82803 -61.960934 -72.894409 9011321
101.4686 -61.544674 -72.428497 8945271
5.4276829 -60.559494 -122.54465 9932934
6.0707455 -60.893448 -122.35289 8880246
6.9496861 -61.076309 -122.19783 9340796
7.9414272 -61.208183 -122.05297 9208954
8.6144695 -61.444756 -121.90182 9537664
100.23124 -61.182949 -73.84845 10458766
101.04367 -60.968346 -73.261116 9800836
101.77289 -60.778721 -72.645622 9669507
102.39902 -60.766735 -71.968811 9209467
102.93765 -60.597115 -71.5625 9209467
3.5483418 -59.558945 -123.61414 7565675
4.3404217 -59.628479 -123.42843 7959918
5.1527424 -59.915165 -123.04149 10459279
6.1736164 -60.043274 -122.83165 9143418
7.0892429 -60.342545 -122.53488 8748660
7.7634983 -60.518204 -122.34898 9209211
102.13403 -60.252529 -72.828758 10261643
102.80585 -60.083183 -72.293053 9669760
103.52492 -59.948719 -71.69455 10787726
104.34079 -59.706795 -71.198532 9077624
105.19287 -59.490238 -70.728058 12563882
105.87653 -59.464787 -70.090134 12958383
-10.650572 -58.81802 -131.09602 7696236
-9.8404102 -58.945122 -130.95805 9537923
-8.8760586 -59.067642 -130.89638 10261132
-8.1088734 -59.26466 -129.99805 9932935
-7.1518002 -59.263191 -129.63562 8617331
-6.2004337 -59.261738 -129.26537 8617331
-5.399374 -59.260181 -128.67772 9341054
-4.4608021 -59.258667 -128.30173 9208694
-3.6740894 -59.257164 -127.70941 9932419
-2.7482014 -59.25568 -127.32785 10524816
-1.8281078 -59.254242 -126.93874 7695205
-1.0624714 -59.252693 -126.34395 9142393
-0.0052204728 -59.251335 -126.15003 9537408
0.59672731 -59.249725 -125.35037 7629411
1.6414623 -59.26598 -124.98668 7037274
2.5869122 -59.327904 -124.39758 7894125
3.3568287 -59.345978 -124.26495 7565675
4.3000889 -59.39262 -124.02583 7565675
5.3177776 -59.53458 -123.51074 8682867
105.82348 -59.290855 -70.966194 12958383
106.38503 -59.283131 -70.387512 10326920
107.0276 -59.245758 -69.859871 9142648
107.94514 -59.152473 -69.326805 13024174
108.88045 -59.087238 -68.785919 10590609
109.7496 -59.064159 -68.563736 10985110
110.59596 -59.062572 -67.992859 8617337
111.43909 -59.060974 -67.412842 7433064
112.57209 -59.059464 -67.178452 8090478
113.23405 -59.057922 -66.475891 8551025
114.18765 -59.056461 -66.118057 10525071
115.14772 -59.054985 -65.754959 9208699
115.80338 -59.053429 -65.031296 8551025
116.96049 -59.051842 -64.760162 8353646
117.73539 -59.050423 -64.270409 9735555
118.50771 -59.049004 -63.773209 7893349
119.68283 -59.047375 -63.481346 10524553
120.35236 -59.045914 -62.854519 11905692
121.09183 -59.044979 -62.74736 8287850
-11.527506 -57.92215 -131.46747 7038307
-10.772715 -58.018059 -131.39435 7104100
-9.7229824 -58.068516 -131.32301 9142909
-12.524866 -56.812469 -131.92302 8813686
-11.718019 -57.034313 -131.80127 8485235
-10.664362 -57.078545 -131.73206 8024942
-9.9562969 -57.341568 -131.60022 8485235
-13.202936 -55.852253 -132.30791 8091248
-12.511419 -56.104736 -132.18079 8024683
-11.590979 -56.096573 -132.13741 10063749
-10.839144 -56.278946 -132.03285 8485235
-14.22117 -54.579475 -132.82411 9143422
-13.460379 -55.153904 -132.5759 7630954
-12.471521 -55.116497 -132.53972 9011833
-11.616892 -55.350384 -132.41124 9800577
-14.39163 -53.828514 -133.10693 9077629
-13.383989 -54.22961 -132.90964 7696231
-12.493177 -54.217308 -132.86922 6775126
-15.172869 -52.922691 -133.47714 7827820
-14.255697 -52.984219 -133.40845 8617332
-13.397535 -53.250168 -133.26807 7893352
-16.044588 -51.938999 -133.88034 7564649
-15.190882 -51.942348 -133.83611 8222576
-14.185556 -52.106091 -133.7256 9077625
-16.888483 -50.850441 -134.32051 9340028
-16.122869 -51.057766 -134.20616 8748407
-15.117147 -51.017368 -134.17023 8551540
-17.035906 -50.081146 -134.60901 8550511
-16.051676 -50.023907 -134.58028 8550514
-15.381853 -50.319019 -134.43869 8287342
-17.422617 -48.936314 -135.04672 8089955
-16.819868 -49.101547 -134.95599 8484721
-16.082422 -49.359341 -134.82463 8287342
-17.467409 -48.112896 -135.37643 8353127
-17.013014 -48.301083 -135.25818 8550768
15.401915 -68.787277 -118.558 10261903
16.254194 -68.800667 -118.47164 7564646
17.248816 -68.819672 -118.36964 8880246
86.429726 -68.42659 -82.014748 10130056
87.18074 -68.480583 -81.353745 12169122
87.932022 -68.53891 -80.690567 11511193
88.468826 -68.582817 -80.215668 10853262
14.633421 -67.919449 -118.94994 10261903
15.393263 -68.113914 -118.80599 11051417
16.368586 -68.190376 -118.68474 10393485
17.08069 -68.386208 -118.54479 11380380
85.850479 -68.279083 -82.576012 10261384
86.544312 -67.99984 -82.123856 8616305
87.283981 -67.805695 -81.592453 8616305
88.069946 -67.925087 -80.870491 11840158
88.826263 -67.924461 -80.231537 12761002
89.58075 -67.749283 -79.678459 7432799
90.224274 -67.424416 -79.291481 7037274
13.8174 -66.949089 -119.38415 8681843
14.527075 -66.971581 -119.30809 10064523
15.477957 -67.088295 -119.17438 10064777
16.272608 -67.405853 -118.98191 10261899
87.603317 -67.12532 -81.651199 7563619
88.277885 -66.97271 -81.154785 10787215
89.017464 -66.991394 -80.520653 11314070
89.810486 -66.850746 -79.918335 8616302
90.598495 -66.772858 -79.289902 8484716
91.293625 -66.649506 -78.761978 9208439
12.818048 -65.637108 -119.96126 10262156
13.580709 -66.040192 -119.74041 9669506
14.631216 -65.91732 -119.68517 9603970
15.373732 -66.216362 -119.50445 8090986
88.652481 -66.309204 -81.1586 11511193
89.21611 -66.137115 -80.765427 7564641
89.998154 -65.849152 -80.243469 8419179
90.78006 -65.836357 -79.588783 8089959
91.540512 -65.907448 -78.911728 8418925
92.296524 -65.887878 -78.282143 8880249
93.107529 -65.516937 -77.775833 7038307
11.893545 -64.705162 -120.39171 9406848
12.700583 -64.918457 -120.23629 9735299
13.809511 -64.952049 -120.11801 9932935
14.554949 -65.247849 -119.93819 10262156
90.987389 -64.997169 -79.818909 9142645
91.70195 -64.940033 -79.242577 8616563
92.5047 -64.96711 -78.55098 10064265
93.28125 -64.833549 -77.959152 7038307
94.040039 -64.724617 -77.370445 7564392
11.060507 -63.751747 -120.8213 12894646
11.870543 -63.961941 -120.66675 9604483
12.879118 -63.962498 -120.57019 9867398
13.543276 -64.177261 -120.4279 10064521
91.958878 -64.228645 -79.369049 10787988
92.668182 -63.98555 -78.886948 9669251
93.486282 -63.804737 -78.282829 9603459
94.254776 -63.884331 -77.594856 8617336
95.002686 -63.935696 -76.937874 8748150
95.900764 -63.53965 -76.370087 10260875
10.222208 -62.802864 -121.24969 12039594
10.949617 -62.978695 -121.11567 12828596
11.94087 -63.03653 -120.99973 9275004
12.713602 -63.219643 -120.8587 9801348
93.636642 -63.083206 -78.504257 10721683
94.442612 -62.949642 -77.887581 10919062
95.233475 -62.938313 -77.224609 9669252
95.943413 -62.84362 -76.670303 10326668
96.742455 -62.77972 -76.025764 9274237
97.483841 -62.603638 -75.484283 8353389
9.3786297 -61.858486 -121.67696 10722450
10.049898 -62.063824 -121.53747 9866886
11.064623 -62.057693 -121.44276 8814711
11.878851 -62.266655 -121.28827 9801348
94.715057 -62.292862 -77.974564 9143936
95.404099 -62.078854 -77.495529 9406851
96.229034 -61.799461 -76.933258 8879736
96.930382 -61.911621 -76.286301 8287599
97.712921 -61.940628 -75.610855 6774360
98.545258 -61.646915 -75.049225 8813680
99.092819 -61.478634 -74.667664 10261124
8.33811 -60.815254 -122.15929 9537664
9.0986423 -61.09367 -121.98445 10327436
10.221659 -61.112015 -121.87044 9406078
11.038908 -61.318077 -121.71667 8092019
96.526871 -61.175777 -76.982849 7893098
97.198029 -61.024223 -76.518524 8616563
97.947052 -60.994202 -75.928284 6117202
98.735672 -60.827892 -75.378464 8287594
99.521317 -60.859966 -74.692436 8945784
100.37697 -60.600967 -74.193527 9537665
100.9796 -60.556263 -73.718681 8418928
6.6244564 -59.703545 -123.03291 9735555
7.424017 -59.862923 -122.83998 8880246
8.3660717 -60.073334 -122.60168 9472127
9.2936115 -60.221447 -122.40698 9274236
10.096033 -60.493664 -122.14217 10130057
99.112305 -60.25415 -75.614105 6511954
99.744781 -60.175964 -75.157745 7564386
100.57616 -59.974903 -74.658821 8879735
101.37242 -59.938763 -73.99324 8550514
102.18976 -59.755371 -73.438408 9867138
102.97475 -59.581554 -72.871078 12038047
103.93018 -59.411896 -72.46933 10853262
104.49342 -59.401604 -71.901054 8090987
-8.4398899 -58.708073 -131.02473 10261132
-7.7377186 -58.939041 -130.90497 8682355
-6.6382504 -59.090256 -130.65331 8814454
-5.7779408 -59.262211 -130.13223 8090987
-5.0284443 -59.260815 -129.60306 9735812
-4.0010166 -59.259178 -129.19386 11116951
-3.2404842 -59.257591 -128.54979 11445659
-2.2506847 -59.256184 -128.24425 8747893
-1.3851604 -59.254715 -127.76392 7563619
-0.52678496 -59.253178 -127.28313 8945271
0.4466266 -59.251705 -126.96004 9537408
1.1708164 -59.250225 -126.31087 8287341
2.2521076 -59.248608 -125.93849 8420213
2.9920483 -59.247063 -125.32505 7565675
3.9713879 -59.24662 -124.98683 8683898
4.7868557 -59.272228 -124.3855 8222577
5.6558056 -59.359673 -124.02311 8879990
6.5692997 -59.45396 -123.62297 9077625
7.527071 -59.511467 -123.36059 8682867
8.1156025 -59.506535 -123.31679 8682867
103.37428 -59.356827 -73.336884 11775388
104.42871 -59.230236 -72.777763 10590347
105.0948 -59.189991 -72.237793 8090987
105.6566 -59.197472 -71.587631 9406333
106.69325 -59.108562 -71.176643 9866370
107.47507 -59.069 -70.588524 8221548
108.43767 -59.067642 -70.330498 10392715
109.35938 -59.065929 -69.719315 9669765
110.22125 -59.064617 -69.404892 9604226
111.11665 -59.06308 -68.931778 8880507
111.92918 -59.061413 -68.254456 9143680
112.8076 -59.060207 -68.049225 11051418
113.66331 -59.058578 -67.456329 8024425
114.62744 -59.057117 -67.102226 11183001
115.58737 -59.055496 -66.613831 8682867
116.34065 -59.053814 -65.878532 8353646
117.43231 -59.052471 -65.752609 9471871
118.29378 -59.050797 -65.122559 9735296
119.07516 -59.049362 -64.625931 8551022
119.96878 -59.047943 -64.24366 9208695
120.64214 -59.046471 -63.616341 11905692
121.91891 -58.945816 -63.466709 11314586
122.38008 -58.470127 -63.408592 13550517
-9.3125896 -57.642303 -131.45799 9011320
-8.556654 -57.908695 -131.32259 9537665
-7.4654827 -58.122318 -131.18954 8616562
-6.7663746 -58.357899 -131.06828 9274236
122.49707 -58.12677 -63.469101 13550517
-9.4921665 -56.92075 -131.73055 8090731
-8.4429569 -56.971493 -131.65913 8879734
-7.6338482 -57.234131 -131.52242 6511954
-10.96356 -55.731819 -132.23898 8485235
-10.276583 -55.98798 -132.11078 7630440
-9.2971821 -55.949516 -132.07547 7498592
-8.612154 -56.172279 -131.95956 9340795
-11.202497 -54.969368 -132.52948 9274492
-10.230795 -55.001934 -132.4686 10459021
-9.3811512 -55.240597 -132.33859 9340795
-11.985979 -53.991474 -132.92615 7367007
-11.133852 -54.111328 -132.83937 8551282
-10.160151 -54.144463 -132.77823 11839903
-12.829046 -53.006081 -133.32854 8682867
-12.079935 -53.166523 -133.23215 9077625
-11.0898 -53.125423 -133.19725 9603457
-13.791513 -51.894573 -133.78302 9471357
-13.022261 -52.186031 -133.63776 9537150
-12.052107 -52.13641 -133.60696 9866884
-11.395006 -52.435616 -133.46458 9406590
-14.600691 -50.719547 -134.25298 9998726
-13.934156 -51.053036 -134.09753 10129286
-12.852716 -51.211494 -133.98515 9208186
-12.07572 -51.474007 -133.85007 8681843
-15.404058 -49.820961 -134.62172 8287342
-14.742609 -49.951302 -134.5408 9076856
-13.754339 -50.120602 -134.42908 10063493
-12.981585 -50.41317 -134.28323 9076600
-15.663332 -48.929203 -134.96057 8155756
-14.621313 -48.947308 -134.9014 8813171
-13.783148 -49.402336 -134.69292 9273977
-17.158827 -47.774834 -135.52722 8484970
-16.480532 -47.960083 -135.37659 8090217
-15.550337 -48.033104 -135.28705 7958120
-14.708891 -48.175781 -135.18767 7892583
-17.274931 -47.176823 -136.09839 8090470
-16.495703 -47.255913 -135.92717 7958884
-15.700216 -47.398792 -135.71318 7563619
17.817339 -68.832283 -118.3107 9406078
18.537046 -68.689064 -118.29448 8682867
19.616043 -68.696747 -118.18857 9011572
20.235748 -68.901031 -118.05435 11379348
16.927958 -67.631897 -118.8363 11380380
17.602465 -67.977684 -118.6449 9275004
18.58079 -67.884193 -118.58576 8485486
19.377043 -68.120827 -118.42282 8616815
82.667984 -68.110023 -85.35144 11051158
83.402374 -67.926987 -84.817635 10459279
84.15387 -67.96402 -84.163612 9341054
84.905243 -68.004868 -83.507919 9275003
85.677597 -67.834663 -82.936531 8814196
86.504707 -67.536018 -82.381439 7563619
15.931597 -66.544434 -119.33073 6511954
16.671736 -66.848511 -119.14836 10590864
17.775023 -66.899895 -119.02406 8617331
18.573839 -67.132927 -118.86217 8222573
83.781853 -67.298256 -84.79837 9341054
84.302353 -67.093407 -84.456772 8090987
85.104248 -66.951859 -83.847267 9275005
85.884827 -66.854683 -83.234451 8353390
86.680489 -66.787544 -82.59436 7892583
87.392334 -66.773117 -81.999687 7563619
88.024879 -66.586853 -81.555023 7563619
15.115225 -65.573235 -119.76522 7367005
15.858171 -65.873856 -119.5839 6643540
16.880026 -65.887596 -119.4812 8222572
17.614122 -66.126236 -119.32346 9472383
85.381134 -66.19799 -83.977371 7827564
86.148849 -65.904358 -83.470345 11774365
86.862213 -65.886177 -82.876183 10392714
87.622383 -65.875656 -82.238754 7563619
88.393372 -65.934639 -81.558617 7367008
89.206741 -65.701988 -80.983536 7038298
89.782883 -65.423157 -80.631226 7038298
14.293966 -64.607132 -120.19832 9208443
14.954462 -64.861656 -120.04179 9406330
15.899446 -64.973335 -119.91051 6182989
16.76668 -65.0644 -119.79422 8156521
87.037086 -65.140388 -83.088631 9537406
87.828445 -64.980034 -82.497223 7827306
88.566864 -65.003136 -81.861954 8090984
89.3582 -64.868736 -81.258018 7827813
90.17672 -64.80484 -80.597038 9603708
90.842361 -64.617355 -80.124985 9537659
13.467634 -63.646145 -120.63013 9538176
14.069349 -63.928303 -120.469 9735041
15.040449 -63.976727 -120.35846 8682350
15.948298 -64.093971 -120.22867 6380368
88.086899 -64.32148 -82.596786 7038307
88.766907 -64.167618 -82.09642 8222572
89.567688 -63.782192 -81.605766 9670014
90.331963 -63.84267 -80.930565 10656142
91.096748 -63.906853 -80.253174 8945528
91.813782 -63.848316 -79.675415 9142907
92.699333 -63.40033 -79.143303 9142907
13.173315 -62.938427 -120.91798 9406590
14.17618 -62.985443 -120.80492 9735042
15.054937 -63.158203 -120.65752 9800830
89.960617 -63.164745 -81.571854 10261132
90.49231 -62.975384 -81.213989 10063753
91.25325 -62.945419 -80.585312 8616563
92.08905 -62.98867 -79.857986 8221805
92.879791 -62.765274 -79.297585 9142907
93.660446 -62.644375 -78.696121 11379356
94.181793 -62.565521 -78.293541 11379356
12.300581 -61.936089 -121.36931 9867141
13.179361 -62.088238 -121.22948 9209211
14.137239 -62.131783 -121.12201 8879991
91.469849 -62.250069 -80.738098 9142907
92.289474 -61.913429 -80.207985 8616307
93.039688 -61.803455 -79.627014 8813686
93.812332 -61.876274 -78.938805 10590097
94.569626 -61.910263 -78.282303 10261646
95.316101 -61.635525 -77.784081 8289141
95.878059 -61.433029 -77.406952 8092011
11.409632 -60.970028 -121.80905 9537923
12.295324 -61.133106 -121.66454 10393229
13.303499 -61.176418 -121.55231 10129801
93.302612 -61.099426 -79.755783 8879479
94.014999 -60.973175 -79.253609 9932681
94.782661 -60.938374 -78.646255 10130316
95.577164 -60.805767 -78.079742 8420977
96.322342 -60.812084 -77.433174 7301730
97.138397 -60.633358 -76.901711 7629926
97.960007 -60.425827 -76.415886 6182996
9.6250324 -59.733341 -122.72105 9274748
10.538942 -59.957615 -122.47337 9603716
11.461969 -60.144272 -122.25389 9143422
12.34194 -60.299679 -122.06055 9603716
13.009768 -60.486183 -121.86778 10261132
95.780388 -60.220528 -78.467888 8815478
96.666473 -60.10918 -77.830475 7762791
97.480461 -59.976566 -77.285515 7235426
98.27626 -59.85154 -76.737556 7498339
99.112015 -59.812347 -76.145218 7498593
100.02417 -59.622578 -75.648422 6906456
100.82559 -59.477135 -75.32399 8616819
101.75049 -59.460342 -74.589249 7761765
-6.1272297 -58.829315 -130.86383 8090987
-5.4964504 -58.970596 -130.78047 8485745
-4.4360332 -59.020668 -130.58887 10590865
-3.4449406 -59.2598 -130.22386 9143418
-2.801012 -59.258137 -129.39719 9998216
-1.7152805 -59.256729 -129.21173 9011321
-0.93641859 -59.255157 -128.59592 8550256
-0.013116896 -59.2537 -128.19002 10918802
0.90434831 -59.252213 -127.77673 10195082
1.6617641 -59.250618 -127.15897 8287856
2.7213116 -59.249226 -126.93989 9538435
3.3095493 -59.247627 -126.1189 9473156
4.5145397 -59.246292 -126.08585 11248537
5.0872326 -59.244717 -125.26508 9208443
6.2716045 -59.243034 -124.95131 9537665
6.9898853 -59.241573 -124.38696 9866885
7.7781811 -59.305702 -124.03098 9275004
8.8057194 -59.412861 -123.52248 10327436
9.7106724 -59.465324 -123.28011 8946040
10.468786 -59.492928 -123.12466 10261132
101.94461 -59.298954 -75.104805 8090728
102.81928 -59.253559 -74.429756 7038298
103.55775 -59.202549 -73.912117 9472637
104.33669 -59.12228 -73.455437 9801088
105.34993 -59.079472 -73.042374 7630180
106.20016 -59.072624 -72.508308 9471615
107.14996 -59.071247 -72.219147 10853264
107.92104 -59.069489 -71.432465 9537406
108.96727 -59.068272 -71.374344 10787470
109.73702 -59.066502 -70.572868 7959401
110.6957 -59.065079 -70.254913 9341054
111.65536 -59.063503 -69.804764 8419952
112.42229 -59.061855 -69.105118 9406852
113.49654 -59.060574 -69.015793 9010807
114.26567 -59.058899 -68.302284 9472127
115.14973 -59.057529 -67.959274 9932934
115.93755 -59.056122 -67.491013 8682867
116.80284 -59.054459 -66.875458 8814197
117.98531 -59.052864 -66.614761 11511191
118.67121 -59.051403 -66.005882 10064260
119.66454 -58.997391 -65.683655 9800832
120.37978 -58.826324 -65.203064 6511954
121.21021 -58.836872 -64.468452 10063491
121.84824 -58.535458 -63.949299 10195850
-6.2993488 -58.090385 -131.14244 9011064
-5.3106899 -58.165356 -131.0652 9406335
-4.4605923 -58.325329 -130.96397 11906725
120.84224 -57.960861 -65.353004 5393730
121.3936 -57.966621 -64.75235 7300956
122.17165 -57.718868 -64.044296 8288109
122.67249 -57.611935 -63.55986 9867657
-7.270834 -56.970264 -131.60048 6971993
-6.274004 -57.208542 -131.4632 8616306
-5.4017925 -57.211376 -131.4182 9274236
121.65358 -57.19614 -64.890984 5919817
122.2975 -56.761333 -64.430359 6314318
122.85373 -56.738037 -63.840275 8091762
-8.0499363 -55.88533 -132.03601 8946037
-7.1317844 -56.108982 -131.90804 7498082
-6.2688961 -56.232391 -131.81946 7563618
122.58409 -56.160557 -64.447449 8813939
123.20393 -55.709122 -64.022034 9142904
-8.9660664 -54.862789 -132.45566 7762021
-7.9982624 -54.901196 -132.39284 12103331
-7.0322971 -55.222549 -132.22676 8747893
123.54913 -55.038944 -64.013557 8288109
-9.8497334 -53.798649 -132.88889 12628647
-8.9812336 -53.950424 -132.78964 8288108
-7.9978237 -54.080299 -132.69261 9800836
-10.57905 -52.728142 -133.31656 8616566
-9.881525 -53.057499 -133.16116 9208444
-8.8425007 -53.022884 -133.12141 9537151
-8.1546078 -53.283401 -132.99158 9340286
-11.411837 -51.939091 -133.64677 8616566
-10.761213 -52.074051 -133.56465 7695979
-9.7305088 -52.027325 -133.52977 9274237
-9.1422443 -52.332546 -133.38864 11904668
-11.658236 -51.04858 -133.98444 8616051
-10.586401 -51.102455 -133.91071 8090480
-9.8143101 -51.368931 -133.77444 8616566
-12.533804 -50.045361 -134.395 8484464
-11.537249 -50.155258 -134.30457 7958377
-10.709787 -50.305016 -134.20819 8747893
-13.423929 -49.028297 -134.81143 8287341
-12.484201 -49.172092 -134.71152 8484464
-11.611895 -49.241661 -134.64211 8747893
-14.317636 -47.791698 -135.30826 7563619
-13.340902 -48.151459 -135.12755 8944756
-12.375315 -48.313957 -135.01952 9340542
-17.672773 -46.761791 -136.90712 7038298
-17.000582 -46.713657 -136.85315 8484970
-16.01034 -46.786636 -136.45192 7958884
-15.147612 -46.963963 -136.04523 8550509
-14.232061 -47.102791 -135.80348 8155498
-13.274805 -47.431335 -135.43196 9076342
-17.556009 -46.504093 -137.28194 7761506
-16.714933 -46.448238 -137.22479 8945264
20.731705 -68.724167 -118.0719 9735038
21.67071 -68.791428 -117.95746 7630437
22.666523 -68.823189 -117.83163 11116954
23.607828 -68.891258 -117.42584 12432297
19.837406 -67.848351 -118.47883 9340281
20.827631 -67.923325 -118.3567 8485230
21.765396 -68.058876 -118.21735 8222573
22.416098 -68.336029 -118.05338 9538433
79.024063 -68.11129 -88.435829 9537918
79.578384 -67.907669 -88.064377 8551281
80.28598 -67.816528 -87.509071 10524555
81.038841 -67.836868 -86.861916 8946039
81.791237 -67.861382 -86.213165 8880246
82.549095 -67.696266 -85.650864 9998471
83.054642 -67.588104 -85.274849 11906725
18.947355 -66.790886 -118.95206 7827814
19.81551 -66.982658 -118.79872 10064003
20.883072 -67.017235 -118.68403 9538432
21.620214 -67.33622 -118.49648 7564643
80.443832 -67.178612 -87.681915 10261384
81.197227 -66.942337 -87.157555 9275003
81.995773 -66.932617 -86.48616 8880246
82.751877 -66.899139 -85.862144 9669250
83.519234 -66.934509 -85.195801 9077882
84.270432 -66.676842 -84.684837 8090987
18.069315 -65.837234 -119.38606 8946040
18.972471 -65.96637 -119.25236 8156524
20.034834 -65.996452 -119.1398 9472129
20.676212 -66.337692 -118.9532 13551549
81.652863 -66.250465 -87.104141 8682867
82.160446 -66.138741 -86.728416 9077369
82.922539 -65.974342 -86.163437 9800580
83.714478 -66.039391 -85.462692 9603970
84.526283 -65.921684 -84.833374 8617333
85.219131 -65.795013 -84.30899 8156786
85.934731 -65.557312 -83.819 10064009
17.256407 -64.860336 -119.82233 9143161
18.124395 -64.956024 -119.70428 9603457
19.069529 -65.079124 -119.56878 9340541
19.726912 -65.345955 -119.40798 9735043
83.301651 -65.348045 -86.145622 10129545
83.892067 -65.087936 -85.772148 11905699
84.642151 -64.899414 -85.229279 9669511
85.455406 -64.777229 -84.600883 7169893
86.249344 -64.879761 -83.880325 8879992
86.994583 -64.680466 -83.346733 8748149
87.566238 -64.609505 -82.897758 7038307
16.404264 -63.803196 -120.29181 7103834
17.14353 -64.038956 -120.13463 8551023
18.17156 -64.056946 -120.02982 10524300
18.916548 -64.364548 -119.84576 10853012
84.932053 -64.138138 -85.35199 10261391
85.694794 -63.919971 -84.812683 7630443
86.430008 -63.895714 -84.202957 7564393
87.192337 -63.94096 -83.536774 7367014
87.938293 -63.948444 -82.902695 8353651
88.78183 -63.631847 -82.342621 8354161
15.427977 -62.813896 -120.74828 10261124
16.237864 -63.036686 -120.5891 7038298
17.353777 -63.084141 -120.46507 9274489
18.101366 -63.388454 -120.28191 11905692
86.589333 -63.155659 -84.425804 9472387
87.336914 -62.985023 -83.876312 9998217
88.157463 -62.944653 -83.202316 9471874
88.913948 -62.829865 -82.618347 8945787
89.697372 -62.792419 -81.974304 9932677
90.463982 -62.556942 -81.440063 10261132
14.599771 -61.853035 -121.18009 8748405
15.412352 -62.072704 -121.02184 10261129
16.427172 -62.08588 -120.92007 10129540
17.093531 -62.308266 -120.77473 10458505
87.615234 -62.359665 -83.943237 9143166
88.233627 -62.130447 -83.53125 9340288
89.101013 -61.812592 -82.951637 8485237
89.904953 -61.901371 -82.229248 7893353
90.676773 -61.897953 -81.578537 9800837
91.417511 -61.792305 -81.003532 9537921
92.091965 -61.557224 -80.546997 9208700
13.766546 -60.89679 -121.61072 10261132
14.543531 -61.084301 -121.46767 8551282
15.539946 -61.154331 -121.34676 8682612
16.26811 -61.34304 -121.20794 10261132
89.492424 -61.196171 -82.918518 8287859
90.152527 -61.022873 -82.478584 7038301
90.890976 -60.965466 -81.914543 9340285
91.650734 -60.89959 -81.327904 10918802
92.409866 -60.835182 -80.736725 9668993
93.138535 -60.777416 -80.15329 8682100
94.057251 -60.550228 -79.593323 9603202
94.745331 -60.417084 -79.145439 11379356
12.044188 -59.652279 -122.54624 9537923
12.795202 -59.89415 -122.30049 9472384
13.709108 -60.030666 -122.11744 9669506
14.628706 -60.270096 -121.86163 9471872
15.484892 -60.500328 -121.62067 9340286
92.132492 -60.217342 -81.558289 10984335
92.730194 -60.16573 -81.104721 10589837
93.556534 -60.038349 -80.534416 8879479
94.346527 -59.963676 -79.966789 9866630
95.19442 -59.870216 -79.358994 9604482
96.050697 -59.697674 -78.880615 8684148
96.844872 -59.590172 -78.37648 11315100
97.800072 -59.455658 -77.994522 12498604
98.638901 -59.445133 -77.322525 8287597
99.045609 -59.468136 -76.880051 8287597
-3.2143307 -58.867584 -130.70303 9932934
-2.2058735 -58.995575 -130.52612 9209212
-1.4231319 -59.194466 -130.34291 9011321
-0.63646513 -59.255772 -129.43419 9537150
0.44607729 -59.254375 -129.23047 10589836
1.2143879 -59.252804 -128.60164 9866628
2.1307545 -59.251312 -128.18024 7959407
3.0410862 -59.249813 -127.75151 8880507
3.7880001 -59.248264 -127.12115 10525071
4.8437405 -59.246803 -126.88426 11709351
5.5768032 -59.245262 -126.24976 11709351
6.6222935 -59.243847 -126.00009 10656662
7.4589863 -59.242161 -125.31488 9406334
8.5133762 -59.240517 -124.89257 11906468
9.1983776 -59.239174 -124.4093 11577503
10.178526 -59.278301 -123.94831 9077881
10.976263 -59.381645 -123.43574 8814970
11.959028 -59.411232 -123.21634 10129546
12.819059 -59.488457 -122.90604 10787729
97.310211 -59.374115 -78.751083 12433325
98.40419 -59.262371 -78.281616 13024949
98.813835 -59.284668 -77.839661 8287597
99.64917 -59.25816 -77.237015 6576980
100.48892 -59.2355 -76.631523 6380368
101.40341 -59.165298 -76.130165 7893349
102.37682 -59.126888 -75.609505 6972504
103.11935 -59.096214 -75.24614 6906712
104.11096 -59.07756 -74.79203 7893606
104.9794 -59.076015 -74.279091 8617074
105.93391 -59.07465 -74.005951 6709334
106.71812 -59.072891 -73.232437 9932166
107.85228 -59.071445 -73.062904 7300959
108.37027 -59.069984 -72.285797 10195335
109.51224 -59.068512 -72.101761 7104091
110.38658 -59.06691 -71.546188 7301471
111.1738 -59.065548 -71.114594 7564643
111.96405 -59.064175 -70.678802 9341054
112.83588 -59.062546 -70.100586 9932421
114.00431 -59.061012 -69.881454 8681843
114.49919 -59.059517 -69.060043 8681843
115.67549 -59.057957 -68.825676 9998214
116.47231 -59.056538 -68.358337 10656657
117.38846 -59.028545 -67.915573 7894382
118.26646 -58.842541 -67.518288 10130055
119.06506 -58.716133 -66.844742 10393225
119.75691 -58.598801 -66.181252 11248019
-4.0771923 -57.949829 -131.08173 11248795
-3.1132374 -58.090862 -130.98161 10788243
-2.293642 -58.119099 -130.92993 8682867
118.64496 -58.191624 -67.608475 8880761
119.23698 -57.808556 -67.175842 9143418
119.96436 -57.770363 -66.408371 11314841
120.55919 -57.707413 -65.798088 7104347
-4.9008198 -56.994934 -131.47198 9208442
-4.068037 -57.129036 -131.38103 10327691
-3.1139927 -57.178974 -131.31467 9669762
119.47627 -57.172531 -67.263504 9934219
120.20901 -56.77795 -66.684677 8684155
120.85679 -56.818871 -65.960342 7894124
121.48392 -56.784595 -65.299362 7563872
-5.7078533 -55.99865 -131.87654 8879478
-4.9772968 -56.17099 -131.77678 8485232
-4.0063076 -56.146675 -131.73668 9274747
121.05623 -55.927921 -66.230293 8354932
121.75389 -55.867661 -65.507042 9471355
122.4537 -55.80949 -64.780342 10063235
-6.6266041 -54.986084 -132.29266 8484721
-5.8815975 -55.178581 -132.18481 9340029
-4.8668499 -55.175854 -132.13463 8814453
121.42865 -55.11079 -66.272446 9342083
122.00131 -54.873508 -65.781319 10063749
122.65604 -54.916119 -65.048508 11050130
123.36046 -54.807453 -64.344315 10655885
-7.6112804 -53.702229 -132.8112 8089963
-6.8009434 -54.041203 -132.64655 8484977
-5.740015 -54.248348 -132.51741 10525328
-4.941309 -54.48468 -132.39081 10261641
122.85783 -54.023254 -65.31691 9669248
123.49364 -53.910076 -64.68956 9735041
123.95802 -53.838593 -64.225204 9209467
-8.3313389 -52.62928 -133.23935 8681843
-7.5867558 -52.930031 -133.09201 8945528
-6.5604 -53.055981 -132.99425 8748149
-5.8084316 -53.414066 -132.82558 9012089
123.81285 -52.967529 -64.856506 10590093
124.24925 -52.980862 -64.375923 10985109
-9.1605549 -51.671646 -133.63089 8681843
-8.5087109 -51.975311 -133.48717 8879221
-7.5457287 -51.937008 -133.45261 8945014
-6.7930088 -52.12878 -133.34464 9340027
124.44563 -52.170307 -64.603546 11905954
-9.4622402 -50.981552 -133.89822 8221807
-8.4179592 -50.949883 -133.8571 9800321
-7.6706715 -51.170872 -133.73871 9010807
-10.32007 -49.925243 -134.32727 8089962
-9.3229427 -50.054832 -134.22963 9076599
-8.4771099 -50.073185 -134.18028 9734528
-11.123259 -48.910324 -134.73848 9537409
-10.270842 -49.105038 -134.62436 7892584
-9.3386478 -49.143341 -134.56332 8945011
-11.983694 -47.932636 -135.13907 9735300
-11.150343 -48.083351 -135.04196 9471872
-10.151915 -48.198044 -134.94969 8089962
-17.948858 -46.70269 -138.97607 8813686
-17.418791 -46.6199 -138.79604 8813686
-13.706659 -46.795464 -136.00574 8221547
-12.926363 -46.863503 -135.86893 7827559
-12.080633 -47.09494 -135.5891 9012089
-11.04133 -47.252041 -135.37285 9406847
-16.889959 -46.536808 -138.61337 8813686
-16.538294 -46.481174 -138.48993 8484970
-15.708002 -46.382751 -137.15414 8682349
-14.67737 -46.427719 -136.84738 9734779
-13.736792 -46.384579 -136.71082 9142390
-12.816271 -46.402634 -136.41315 8288366
23.227041 -68.621864 -117.71491 10261646
23.765512 -68.553131 -117.48765 11709088
24.547178 -68.772949 -117.02865 9341054
25.482954 -68.659256 -116.63131 11643038
26.415571 -68.549667 -116.2338 8090987
22.172302 -67.680107 -118.31752 11512223
22.899174 -67.979126 -118.08416 9933191
23.81196 -67.912247 -117.72442 9406847
24.668203 -68.044212 -117.26555 10985879
25.610598 -68.041916 -116.82011 11446173
26.523075 -67.872726 -116.45618 9669763
27.371498 -68.12542 -115.95231 12037539
28.298681 -68.024811 -115.55377 9209216
29.222691 -67.928612 -115.15488 9604230
30.107388 -67.87941 -114.75574 11973030
31.04718 -67.907516 -114.29921 10195594
31.962532 -67.823509 -113.89957 10525071
32.875225 -67.743813 -113.49942 8617331
33.730293 -67.703949 -113.11051 8946296
34.676472 -67.755013 -112.64169 8354418
35.581753 -67.687279 -112.24023 7696236
36.484745 -67.623802 -111.83816 8090736
75.680588 -68.095802 -91.273918 9143419
76.389069 -67.837669 -90.798058 10327438
77.12484 -67.741974 -90.221138 9867399
77.916061 -67.778061 -89.533943 9144191
78.67086 -67.785973 -88.891106 8419441
79.320969 -67.603767 -88.428253 9209210
21.374033 -66.683304 -118.7597 9538433
22.111917 -67.003914 -118.57148 9670019
23.06604 -67.045067 -118.40549 8682613
23.981838 -66.911644 -118.04797 9143419
24.867111 -67.09156 -117.55597 9998984
25.741579 -67.045784 -117.16026 9998728
26.678034 -66.939018 -116.7598 8814455
27.570169 -67.041397 -116.29588 11708574
28.513924 -67.055794 -115.84305 8156785
29.394367 -67.055565 -115.42609 7893095
30.358675 -67.080826 -114.95913 11314844
31.161814 -67.289627 -114.4944 11709602
32.024818 -67.188789 -114.12636 10064522
32.923225 -67.268082 -113.66879 8222573
33.823826 -67.298355 -113.22997 9275261
34.710297 -67.438164 -112.75364 9077626
35.357861 -67.389458 -112.4666 9143166
77.301178 -67.030418 -90.413666 11379865
78.108963 -66.851097 -89.815903 9735301
78.866959 -66.797897 -89.199783 8418671
79.658905 -66.84211 -88.508064 9011831
80.406372 -66.766045 -87.911774 8880246
81.033417 -66.552948 -87.483292 10984849
20.57118 -65.692184 -119.20023 9143422
21.16514 -65.993095 -119.03301 11972518
22.133465 -66.068794 -118.91274 8748918
23.160383 -66.159264 -118.7116 9011066
24.040604 -66.237129 -118.29247 9142907
25.052919 -66.305092 -117.78554 8814710
25.925652 -66.393105 -117.33661 8748660
26.596041 -66.317085 -117.04977 9011576
27.904634 -66.489647 -116.3602 11905953
78.406563 -66.187248 -89.882866 8286829
79.092545 -65.947075 -89.417496 8286829
79.819496 -65.919075 -88.815483 8945782
80.578751 -65.873337 -88.194702 8090987
81.343102 -65.921577 -87.524529 8814196
82.099754 -65.688591 -86.996918 9142906
19.475393 -64.69883 -119.66962 8617075
20.218363 -65.011444 -119.48388 8748664
21.330328 -65.076736 -119.35362 9735045
22.236841 -65.216484 -119.21571 9143420
80.012848 -65.173721 -89.010025 8221548
80.800079 -64.979843 -88.437813 8222060
81.537918 -64.969261 -87.819275 8419439
82.297874 -64.992119 -87.165901 8879990
83.040504 -64.977997 -86.545059 9668994
83.925873 -64.541351 -86.007652 13681594
18.662462 -63.719936 -120.1066 10853012
19.408087 -64.029152 -119.92188 8551542
20.43792 -64.055702 -119.81373 8354420
21.310251 -64.235641 -119.66431 8880250
81.043579 -64.320015 -88.550728 8287853
81.718956 -64.138283 -88.067657 9866373
82.526604 -64.016129 -87.444046 9143162
83.289642 -63.863857 -86.872643 9406589
84.068436 -63.85997 -86.216278 10656143
84.854736 -63.694523 -85.631607 9801095
85.532845 -63.526936 -85.139389 8617081
17.844946 -62.746338 -120.54214 9011574
18.507704 -63.008331 -120.38264 9735040
19.458624 -63.131516 -120.24656 7301990
20.462673 -63.20166 -120.12488 7828333
82.737946 -63.253387 -87.633781 8880249
83.514267 -62.984253 -87.107681 9209467
84.242645 -62.798153 -86.581917 10261642
85.042969 -62.864254 -85.87355 9735300
85.807587 -62.900677 -85.209702 10195853
86.555153 -62.726425 -84.66201 11117208
17.022676 -61.777641 -120.97633 10458505
17.625643 -62.066525 -120.81267 9143160
18.603151 -62.12677 -120.69711 9472385
19.572821 -62.241219 -120.56247 7762029
20.18202 -62.485027 -120.4147 8814715
84.515739 -62.124306 -86.67662 9209467
85.196457 -61.954002 -86.183533 8880505
85.946259 -61.949059 -85.552139 9077629
86.748726 -62.022148 -84.838623 9340801
87.563919 -61.832237 -84.241318 9275008
88.339661 -61.570198 -83.712219 8879994
16.733603 -61.068233 -121.26433 9471871
17.762098 -60.968281 -121.2075 9866884
18.62599 -61.31036 -120.99466 11840675
86.193695 -61.186474 -85.711411 7235685
86.980927 -61.055515 -85.147682 8288115
87.729553 -60.923931 -84.624695 8090734
88.565598 -60.817764 -83.992424 7827564
89.275787 -60.847897 -83.363876 9208703
89.986359 -60.709152 -82.878067 7630187
90.88678 -60.415535 -82.412537 9866630
14.994955 -59.715984 -122.21426 10063753
15.893328 -60.053696 -121.89082 9143163
16.85607 -60.120556 -121.75179 9800581
17.696421 -60.249302 -121.58169 8025452
88.800545 -60.225479 -84.370377 7301477
89.585587 -60.151901 -83.780624 8682616
90.440453 -59.995098 -83.229179 10195339
91.229836 -59.906612 -82.643845 9339769
92.074829 -59.781696 -82.142509 9602426
92.931259 -59.641621 -81.622993 9668219
93.871925 -59.52673 -81.116806 8616307
94.635765 -59.455101 -80.696487 9668994
95.39772 -59.448044 -80.075722 12301226
-0.93663603 -58.841919 -130.57446 8945271
0.020414293 -58.983807 -130.45468 10458250
0.91182131 -59.179764 -130.11879 11511193
1.6830921 -59.253239 -129.43356 9866885
2.6667538 -59.251755 -129.08649 7695979
3.5185909 -59.250187 -128.56776 8288371
4.3632221 -59.248722 -128.04887 11511452
5.3296871 -59.247173 -127.68483 13156533
6.1613827 -59.245659 -127.15929 14736859
7.1163692 -59.244209 -126.78515 9077882
7.9352055 -59.242668 -126.25307 8485745
8.8786831 -59.241245 -125.86906 12038054
9.6847286 -59.239719 -125.33067 12169638
10.616636 -59.238258 -124.93694 9998983
11.40988 -59.23674 -124.39242 10459022
12.496572 -59.254604 -123.8567 10195849
13.269445 -59.325836 -123.43313 11839903
14.105745 -59.400837 -123.03513 11050644
15.001459 -59.461281 -122.77032 9537921
15.900038 -59.49633 -122.57939 7564643
93.529884 -59.368816 -81.998306 10984335
93.842659 -59.381252 -81.679794 9668735
95.140442 -59.271858 -81.026917 12301226
95.763306 -59.299522 -80.380592 12301226
96.568695 -59.253849 -79.883217 9210236
97.486053 -59.194405 -79.406097 9275519
98.184204 -59.167328 -78.874817 12104103
99.280449 -59.115082 -78.3965 7103323
100.12381 -59.085758 -78.094345 5919050
100.97534 -59.084156 -77.522713 8551282
101.88116 -59.082722 -77.138641 9800575
102.73098 -59.081108 -76.551834 8090471
103.63869 -59.079651 -76.153381 6643540
104.55032 -59.078175 -75.748886 7235164
105.396 -59.07655 -75.138237 6510930
106.27274 -59.075268 -74.870331 6708565
107.06462 -59.07365 -74.221375 8090474
108.03357 -59.072262 -73.938438 6380368
108.82204 -59.070484 -73.148094 6775126
109.88879 -59.069256 -73.100983 8354158
110.68007 -59.067604 -72.423386 8156779
111.65471 -59.066021 -71.983551 9012089
112.63486 -59.06443 -71.53714 8419440
113.33531 -59.063004 -70.971146 9011833
114.23425 -59.061642 -70.646965 8681843
115.01655 -59.059959 -69.931473 9405308
116.17183 -58.790112 -69.933983 10590095
116.83585 -58.741455 -69.195999 9275520
117.62307 -58.654797 -68.463196 9933193
-1.7991314 -57.912704 -130.98042 7893608
-0.92059141 -58.030586 -130.89307 11248795
0.027463853 -58.088852 -130.82404 9274493
116.57533 -58.059135 -69.923798 9340801
117.134 -57.815475 -69.451157 9801351
117.77415 -57.847435 -68.739983 9736070
118.38235 -57.871346 -68.06778 9472899
-2.6350574 -56.856476 -131.40834 11183001
-1.8159122 -57.065228 -131.2908 9801349
-0.90106779 -57.056316 -131.24792 11248795
117.55981 -57.115517 -69.37146 9933193
118.07622 -56.924286 -68.916283 8683384
118.73225 -56.866959 -68.236534 12498602
119.38737 -56.865349 -67.527435 9802633
120.08882 -56.362148 -67.041771 8092019
-3.4441891 -55.867558 -131.81027 10261641
-2.7684841 -56.100868 -131.69099 9340797
-1.7997456 -56.082615 -131.64885 10196107
-1.1290874 -56.354477 -131.51581 10459279
118.92795 -55.914989 -68.5438 14011582
119.57387 -55.978271 -67.809341 10722708
120.31474 -55.781624 -67.113632 8092019
120.90715 -55.518356 -66.61525 8881533
-4.2995777 -54.958832 -132.18529 8682867
-3.66432 -55.104053 -132.10025 10064262
-2.6005344 -55.103115 -132.04694 8946039
-1.76544 -55.380619 -131.90347 8682867
119.3249 -55.204674 -68.501137 8681843
119.84647 -55.014427 -68.039726 8682357
120.49352 -54.913483 -67.393539 8486776
121.25752 -54.73283 -66.664101 9604483
121.76871 -54.442059 -66.268753 9735812
-5.2699146 -53.835533 -132.64449 8288366
-4.5242481 -54.067684 -132.52211 9538175
-3.4745541 -54.138607 -132.44328 12235172
-2.7221737 -54.416733 -132.30377 12630442
120.69626 -54.071247 -67.633331 10262156
121.40257 -53.802956 -67.014206 10196619
122.10928 -53.773224 -66.26458 9538176
122.70726 -53.612259 -65.704338 10129542
-5.3630619 -53.054947 -132.93427 7827815
-4.3888454 -53.179939 -132.83952 9012089
-3.5805187 -53.342152 -132.73953 12630186
121.66812 -53.006973 -67.160782 10262412
122.30356 -52.729794 -66.622894 9735812
123.01314 -52.819035 -65.804779 9340540
123.57748 -52.53426 -65.347427 10261132
-6.9114819 -51.582783 -133.55 11905692
-6.261034 -52.030994 -133.35352 8551281
-5.3613377 -52.22176 -133.23849 7696229
-4.4447765 -52.269188 -133.17496 8025194
122.64454 -51.94149 -66.681656 9669763
123.2453 -51.778282 -66.118744 9997960
123.92114 -51.863571 -65.339211 12432553
124.52536 -51.702984 -64.771095 11313818
-7.1563396 -50.884216 -133.81746 10195078
-6.221941 -51.048126 -133.71051 9800064
-5.3132305 -51.291786 -133.5757 8880246
123.47481 -51.093903 -66.241913 10261132
124.07538 -50.847298 -65.724472 11905954
124.76389 -50.853661 -64.974144 10655889
-8.0449734 -49.907742 -134.21892 9273978
-7.1080608 -49.939228 -134.1602 9339515
-6.0683231 -50.138691 -134.03488 8550256
124.46209 -50.026459 -65.751266 10261132
125.06966 -49.863571 -65.180725 10919315
-8.8499355 -48.815254 -134.65854 10458248
-8.0019932 -49.014217 -134.54308 9076598
-7.059412 -48.994148 -134.50291 9207672
125.30206 -49.177116 -65.301903 10853521
125.58854 -49.033531 -65.069099 8682867
-9.7009449 -47.834763 -135.05963 7037274
-8.9359722 -48.025162 -134.95152 8484461
-8.0015354 -48.031296 -134.90215 7563618
-7.3058949 -48.295227 -134.77065 8089963
-18.114027 -46.7332 -140.21397 10261132
-17.589319 -46.676453 -140.11099 9866374
-11.460791 -46.579269 -135.95953 8617331
-10.780523 -46.831081 -135.66359 9538433
-9.8801327 -47.054333 -135.41133 8353132
-8.7990971 -47.100498 -135.30321 8747632
-7.9777241 -47.328312 -135.15779 8089963
-16.012014 -46.397629 -138.30215 8813934
-15.308828 -46.274673 -138.01457 9603193
-14.430971 -46.110577 -137.61865 11575959
-13.324957 -46.084679 -137.20618 9274233
-12.376532 -46.095512 -136.98018 8682868
-11.510359 -46.210022 -136.52293 8748917
-10.649191 -46.395016 -136.03838 9209468
-9.7402515 -46.421406 -135.91528 9341054
37.514339 -67.556122 -111.37779 8485493
38.413136 -67.501106 -110.97428 8419952
71.881577 -68.1717 -94.453712 7563619
72.503395 -68.0168 -94.001694 10195333
73.223114 -67.784729 -93.503822 9011575
74.020271 -67.799332 -92.821938 9011575
74.779938 -67.786919 -92.184784 8090219
75.509995 -67.715218 -91.601128 9143163
76.154373 -67.456017 -91.180153 11379356
29.601173 -66.630295 -115.49985 6511954
30.393141 -66.553429 -115.15574 11578016
31.284443 -66.784149 -114.64041 10788244
32.274601 -66.758469 -114.18177 9274752
33.101818 -66.781982 -113.78043 8419952
34.023289 -66.759377 -113.3531 9341054
34.797588 -66.921516 -112.92087 9866371
35.787327 -66.982109 -112.42759 8156272
36.629734 -67.017845 -112.01412 8682872
37.587322 -66.924309 -111.59834 9669252
38.487858 -66.86969 -111.19381 8616819
39.337875 -67.009918 -110.7346 9669506
40.24435 -67.08783 -110.27377 10129801
41.138718 -67.04512 -109.86734 10129542
42.03159 -67.006195 -109.46015 9076856
42.922947 -66.971397 -109.05196 9866371
43.940037 -66.936333 -108.58434 10129544
44.828682 -66.909775 -108.17419 8353903
45.716099 -66.887314 -107.76292 9077369
46.602497 -66.868561 -107.35061 11051415
47.487877 -66.853905 -106.93714 10130567
48.427704 -66.811058 -106.5093 10985361
49.286297 -66.86451 -106.08103 8552050
50.265388 -66.83297 -105.63009 7038563
51.097622 -66.924065 -105.19926 7695980
52.004562 -66.997078 -104.74041 8222323
52.885712 -67.006302 -104.3195 8222834
53.67387 -67.07061 -103.92041 7302245
54.746296 -67.196976 -103.36176 8091760
55.626362 -67.218498 -102.9364 8748406
56.506405 -67.244179 -102.50935 8879479
73.512299 -67.17527 -93.551765 10458505
74.183731 -66.963326 -93.085144 9735042
74.927505 -66.80352 -92.532227 7565159
75.760757 -66.823067 -91.817421 9143419
76.520515 -66.818604 -91.176353 9735300
77.257416 -66.605972 -90.654625 12234660
23.430708 -65.743088 -118.78084 9668738
24.289953 -65.764572 -118.36516 7301478
25.044876 -65.706497 -118.03101 9735557
25.963221 -65.915878 -117.51151 9208955
26.926222 -65.926353 -117.05113 7893863
27.791111 -65.843979 -116.67471 8090991
28.630648 -66.128067 -116.16238 8485489
29.525923 -66.00927 -115.78627 7762021
30.451941 -65.919876 -115.38372 12762546
31.332077 -66.037888 -114.91917 11380638
32.264721 -66.069199 -114.46474 9208960
33.181953 -65.991531 -114.06167 9011836
34.096607 -65.91806 -113.65807 8879733
35.020374 -65.961372 -113.20301 9141877
35.859783 -66.051765 -112.76891 7300704
36.791595 -66.036209 -112.33382 7696236
37.696579 -65.978439 -111.92847 9668739
38.599724 -65.924393 -111.52251 10458255
39.524677 -65.921341 -111.08564 9735299
40.424984 -65.947441 -110.64864 10260872
41.258427 -66.100571 -110.19203 9997699
42.281651 -66.056999 -109.72494 9800578
43.175453 -66.022903 -109.31535 10129288
44.008354 -66.057358 -108.90693 10524047
44.937344 -66.123611 -108.44013 8748404
45.826954 -66.101341 -108.02773 8222317
46.692936 -66.239731 -107.56168 11512479
47.580082 -66.225151 -107.14735 11248792
48.339832 -66.215591 -106.79135 9538686
75.21933 -66.067802 -92.638618 8090991
75.909782 -65.902046 -92.133698 10327180
76.672134 -65.836838 -91.519577 9340541
77.505554 -65.864929 -90.800507 10919574
78.248192 -65.828316 -90.189369 10261388
78.823257 -65.660904 -89.782944 8286829
22.644636 -64.884827 -119.29849 9011066
23.372313 -65.140549 -119.03598 8287858
24.291756 -65.007309 -118.67006 7893101
25.240326 -64.896217 -118.2656 7827563
26.104149 -65.144226 -117.7563 9471872
27.02359 -64.980179 -117.38704 7367775
27.939531 -64.942917 -116.96822 8945780
28.798746 -65.026009 -116.52767 10459277
29.744078 -65.046791 -116.0715 8419951
30.672455 -64.958801 -115.66728 11183258
31.60342 -64.922691 -115.24089 9011838
32.420734 -65.087944 -114.78703 8485495
33.376225 -65.008614 -114.36649 9603460
34.270481 -64.997688 -113.9473 9536636
35.135406 -64.936256 -113.56241 9273463
36.066357 -65.147736 -113.03609 7037274
36.861088 -65.133308 -112.66545 7037789
37.787453 -65.191856 -112.20303 9405823
38.618824 -65.220528 -111.79765 11313564
39.577053 -65.245857 -111.33354 12563372
40.221119 -65.212563 -111.04193 11904668
41.466381 -65.466293 -110.34964 9340283
42.10722 -65.439003 -110.0571 9734784
76.239319 -65.234383 -92.175423 11379356
76.912888 -65.033211 -91.701782 9472127
77.62236 -64.913605 -91.158638 8814453
78.384903 -64.916458 -90.511673 9208444
79.218857 -64.952698 -89.788284 7628643
79.95974 -64.72245 -89.2724 8024171
80.529816 -64.626801 -88.836784 8287853
21.740889 -63.917294 -119.74004 8223089
22.584921 -64.033897 -119.61662 8486513
23.526583 -64.039124 -119.42342 10524043
24.462727 -64.013802 -118.99023 8485236
25.391939 -63.96682 -118.56906 8814713
26.220335 -64.042717 -118.14603 9669508
27.179379 -64.053192 -117.68752 9011576
28.073845 -64.049263 -117.2654 9602685
29.002914 -64.101173 -116.80439 10063748
29.870485 -64.274086 -116.32362 7827814
30.68996 -64.206245 -115.96287 7762029
31.658529 -64.244392 -115.48868 8485495
32.683853 -64.468819 -114.91238 8617080
33.341808 -64.414963 -114.62254 10063753
77.943039 -64.175453 -91.241737 10722451
78.635429 -63.996628 -90.742416 10326924
79.377022 -63.974464 -90.126259 7037021
80.140846 -63.985161 -89.475449 7301478
80.886703 -63.959347 -88.857536 8090474
81.562691 -63.77644 -88.374512 9866373
20.930651 -62.932426 -120.17896 9537666
21.690434 -62.965229 -120.09436 8815223
22.623087 -63.012405 -119.98792 9473151
23.673464 -63.270214 -119.66425 9406845
24.544426 -63.403946 -119.19772 8682358
26.556467 -63.492565 -118.2089 8814713
79.519646 -63.237965 -90.361473 8222577
80.299896 -63.069195 -89.78347 8485749
81.11544 -62.894066 -89.178772 7301474
81.885254 -62.957066 -88.497711 9208955
82.629051 -62.773567 -87.957657 9077884
83.409744 -62.560184 -87.400902 9077883
20.028234 -61.791473 -120.68407 9077887
20.791454 -62.025692 -120.52513 10064266
21.778416 -61.927128 -120.46701 8618099
22.527601 -62.242886 -120.27951 8618099
80.528091 -62.4086 -89.909706 8814713
81.290421 -62.061295 -89.433121 7827820
82.109642 -61.808372 -88.862915 8485749
82.877411 -61.829193 -88.203873 8419957
83.644913 -61.853546 -87.543442 8748919
84.360374 -61.760445 -86.983711 9209467
85.041618 -61.58894 -86.490662 7038307
18.99148 -60.731895 -121.17802 10854039
19.819197 -61.008263 -120.99219 9998988
20.962553 -60.94696 -120.90479 9932423
21.714123 -61.259388 -120.71827 9208443
82.376793 -61.18235 -88.939537 9012091
83.010452 -61.078865 -88.473038 8419956
83.825966 -60.956284 -87.886139 8748920
84.648293 -60.933281 -87.219795 8419699
85.44059 -60.816177 -86.648346 8288371
86.239502 -60.650333 -86.108627 8222578
87.04464 -60.542595 -85.535881 7564650
17.311174 -59.684822 -122.01093 9340286
18.135607 -59.872086 -121.80031 8552055
19.076235 -60.019901 -121.6076 11117467
19.954664 -60.106617 -121.46349 10591124
20.616693 -60.309223 -121.26027 10064009
84.772308 -60.333817 -87.670364 9340544
85.739807 -60.0923 -87.096825 9209214
86.525406 -60.007175 -86.51828 9340800
87.300362 -59.919525 -85.951279 7695974
88.128983 -59.902409 -85.334091 7433056
