# .PCD v0.7 - Point Cloud Data file format
VERSION 0.7
FIELDS x y z rgb
SIZE 4 4 4 4
TYPE F F F U
COUNT 1 1 1 1
WIDTH 1171
HEIGHT 1
VIEWPOINT 0 0 0 1 0 0 0
POINTS 1171
DATA ascii
-71.61734 -29.376806 -184.31999 9931646
-70.732437 -29.376463 -184.66444 9208435
-171.07437 -65.542 -44.393932 9012088
-170.69316 -65.706047 -44.955025 8550513
-170.4109 -65.757317 -45.686996 10984599
-169.78148 -65.795212 -46.69133 10130061
-169.27225 -65.708382 -47.651398 11775400
-168.85704 -65.637459 -48.415043 8682355
-168.51408 -65.572922 -48.977528 7958888
-171.62889 -64.818298 -43.362198 9405304
-171.43558 -65.066193 -44.120049 9405306
-171.31281 -65.176826 -44.896069 8089963
-168.28546 -65.530334 -49.35183 10853012
-165.18628 -65.218536 -52.149769 10064779
-164.75052 -65.146759 -52.887714 9406851
-164.2016 -65.057182 -53.805904 8354164
-163.64862 -64.967857 -54.719872 9209985
-163.20297 -64.896599 -55.447762 9209985
-162.64186 -64.80777 -56.353306 9209985
-162.07671 -64.719139 -57.254631 10525844
-161.62134 -64.648438 -57.972363 8157555
-161.16344 -64.577858 -58.687183 8157555
-172.07913 -63.740891 -42.448494 6511954
-171.93118 -64.010094 -43.291916 7235163
-171.86148 -64.062263 -44.155655 8089704
-160.81828 -64.525108 -59.221378 7565675
-160.47134 -64.472412 -59.753784 8815227
-160.00671 -64.402245 -60.461292 7827819
-159.42195 -64.314804 -61.341324 8486519
-158.8335 -64.227646 -62.217022 10459537
-158.24066 -64.140739 -63.087883 9670020
-157.64406 -64.054092 -63.954445 14076861
-157.16382 -63.984982 -64.64415 9735297
-156.55988 -63.898838 -65.502045 9340540
-155.95222 -63.812962 -66.355568 7827046
-155.46323 -63.744415 -67.034866 10788244
-154.84827 -63.658978 -67.879669 8683385
-154.35358 -63.590717 -68.552322 9011576
-172.33786 -63.037987 -42.424438 6906457
-172.20676 -63.246033 -43.361294 6840662
-154.10526 -63.556637 -68.887489 8090987
-153.60663 -63.488697 -69.555168 8682867
-152.98039 -63.403984 -70.386116 8682867
-152.35017 -63.319569 -71.21196 9011320
-151.71652 -63.235401 -72.033401 9011320
-151.20692 -63.168289 -72.687065 10261132
-150.56654 -63.084671 -73.499687 9537664
-149.92287 -63.001289 -74.307922 8616307
-149.27539 -62.918255 -75.111099 9603201
-148.62476 -62.835487 -75.909798 8879991
-148.1015 -62.769485 -76.545189 7958633
-147.444 -62.687073 -77.334862 7630179
-172.73529 -62.084515 -41.581955 7038307
-172.69284 -62.046932 -42.544895 8090736
-172.48247 -62.481819 -43.430649 7958629
-146.80736 -62.426674 -79.724358 8682867
-146.2059 -62.334919 -80.313057 8419953
-145.45204 -62.22057 -81.044434 8814457
-144.84712 -62.129433 -81.625298 9274494
-144.08875 -62.015823 -82.346199 7958634
-143.4805 -61.92527 -82.919342 11905692
-143.33595 -61.741482 -84.684113 7039331
-142.91327 -61.691463 -85.132828 7038819
-142.20732 -61.608719 -85.877342 7038307
-173.60489 -60.624355 -40.171398 6511954
-173.42523 -60.782272 -40.864368 9801090
-173.16211 -61.089249 -41.705566 9274751
-173.0224 -61.121994 -42.681362 7038307
-141.49843 -61.52623 -86.617142 7038307
-140.78622 -61.444031 -87.351517 11182490
-140.07106 -61.362003 -88.081123 8288115
-139.35263 -61.280224 -88.805275 7169890
-138.8029 -61.094421 -91.05761 9735299
-138.21536 -61.029175 -91.627968 9998470
-137.47812 -60.947784 -92.336151 6972505
-136.73822 -60.866653 -93.03949 9143160
-135.99533 -60.785851 -93.73732 7630186
-135.3992 -60.721302 -94.29229 8814201
-135.51569 -60.614597 -95.828751 7959144
-174.61494 -59.6768 -39.51749 7038307
-174.25473 -59.943748 -40.054905 7433059
-173.93697 -60.184464 -41.020771 7367264
-135.21277 -60.582253 -96.10408 7959144
-134.57741 -60.505291 -96.631813 7760993
-133.73602 -60.389023 -97.254547 6839893
-133.05952 -60.295357 -97.746712 6643027
-132.93553 -60.149521 -99.385849 7761253
-132.24893 -60.055729 -99.869675 7761253
-131.38943 -59.938805 -100.46964 6973026
-130.87302 -59.86882 -100.82673 6644317
-130.70923 -59.720287 -102.46146 7040355
-130.01094 -59.626904 -102.92962 7170917
-179.83334 -58.814323 -31.752537 8814457
-179.69641 -58.878052 -32.75666 8091247
-178.91408 -59.171696 -33.507263 8682867
-178.17065 -59.229969 -34.26086 8222316
-177.96465 -59.231606 -35.334766 7761765
-176.13013 -59.232101 -36.744919 6510930
-175.98038 -59.242298 -37.599907 7234397
-175.33795 -59.426502 -38.496162 9011578
-174.98364 -59.524067 -39.156822 7038307
-129.48679 -59.557003 -103.2783 7170917
-128.94278 -59.47855 -103.60938 7368296
-128.81993 -59.304661 -105.04548 6512986
-128.07372 -59.194149 -105.46903 6644572
-127.34052 -59.090115 -105.89938 7434088
-127.13684 -58.947914 -107.54905 8814454
-126.44057 -58.865269 -108.00919 7629667
-125.56888 -58.762283 -108.57966 9735300
-125.34807 -58.624878 -110.24171 8813942
-180.24554 -57.881161 -31.139034 8485749
-180.1227 -57.969612 -31.938171 7894126
-180.04382 -57.981972 -32.596008 7894126
-124.81781 -58.562996 -110.57764 9406335
-123.93275 -58.460255 -111.13268 8155755
-123.22387 -58.378227 -111.5729 11181972
-123.18591 -58.278942 -113.16092 7563619
-122.48876 -58.206886 -113.61296 8287853
-121.61585 -58.116982 -114.17326 8287853
-121.37419 -57.99823 -115.87834 7039331
-120.84288 -57.944138 -116.20825 7039331
-119.95076 -57.851727 -116.74814 10985106
-119.25492 -57.664307 -118.60655 9669508
-180.70769 -56.828789 -30.472008 7695973
-180.54854 -57.10487 -30.982571 7959146
-180.42603 -57.150635 -31.91737 7565418
-118.69236 -57.599224 -118.90321 10590351
-118.12953 -57.534336 -119.19735 8945527
-117.39316 -57.342381 -121.04176 7234396
-116.44382 -57.234322 -121.51847 7037786
-116.08174 -57.09499 -123.194 9340286
-115.5284 -57.041374 -123.49722 9800581
-114.78982 -56.970039 -123.89809 9011576
-114.46483 -56.861122 -125.64558 9341051
-113.90352 -56.807384 -125.93979 10591115
-112.96706 -56.718018 -126.4253 9143417
-181.00671 -56.109741 -30.16375 6578004
-180.87045 -56.170151 -31.172607 8616818
-180.71133 -56.40443 -31.81834 7695973
-112.04063 -56.55299 -128.45825 8617330
-111.09113 -56.463524 -128.9279 8091241
-110.31702 -56.314152 -130.85994 8485229
-109.54747 -56.242466 -131.22398 9932161
-109.32474 -56.144817 -132.88647 9932161
-108.54587 -56.072903 -133.24147 9669503
-107.76646 -56.001183 -133.59312 8419438
-107.51603 -55.901409 -135.25981 9339769
-106.72588 -55.828663 -135.60033 9406847
-105.84509 -55.66618 -137.51006 6709078
-181.51569 -54.962936 -29.388664 7630180
-181.37732 -55.040436 -30.360641 7367264
-181.138 -55.497051 -30.994167 9537664
-105.04048 -55.590691 -137.83226 6445650
-104.126 -55.425629 -139.73541 7761765
-103.31258 -55.35004 -140.04584 6510930
-102.982 -55.239685 -141.71788 7366751
-102.1599 -55.164032 -142.01836 8748921
-101.18663 -54.994843 -143.91722 7564643
-100.35583 -54.919212 -144.20555 7564643
-99.979271 -54.804829 -145.88878 9011833
-99.14006 -54.729019 -146.16751 9735556
-181.9883 -53.90036 -28.662132 7827302
-181.88437 -53.911503 -29.545074 6906719
-181.72557 -54.143986 -30.194046 11905692
-98.107727 -54.555901 -148.0602 8091247
-97.260132 -54.480064 -148.32652 11905692
-97.050911 -54.380863 -149.95552 9010806
-96.195114 -54.304901 -150.21275 8287084
-96.025307 -54.13332 -151.53914 8682612
-95.106728 -54.007618 -152.10258 8089963
-94.803894 -53.784325 -152.83807 8089963
-94.018501 -53.755142 -153.21138 8353391
-182.49522 -52.77322 -27.841316 9208435
-182.31032 -53.049805 -28.578087 8419440
-182.18866 -53.091209 -29.519608 7103841
-94.965126 -53.391846 -153.09593 9142651
-94.126518 -53.202667 -153.63263 8551026
-93.366638 -52.942532 -154.21605 8419696
-182.76913 -52.056469 -27.747993 8945007
-182.63373 -52.11232 -28.764297 8353390
-94.376541 -52.381744 -153.92763 9274493
-93.565208 -52.197121 -154.42224 9077368
-92.76384 -52.055672 -154.89378 9537403
-183.27917 -50.910404 -26.961067 9931390
-183.14154 -50.98373 -27.940376 9471095
-182.90199 -51.438541 -28.580879 8681835
-93.584328 -51.306797 -154.78096 9932165
-92.892281 -51.128948 -155.21132 9668991
-92.199883 -50.951965 -155.64139 9208435
-183.75011 -49.768246 -26.298492 9405560
-183.64963 -49.855461 -27.112862 9536888
-183.49097 -50.085754 -27.767677 10128769
-93.117134 -50.203285 -155.47862 9405817
-92.295792 -50.035057 -155.97154 9603196
-91.632858 -49.848759 -156.39035 9866371
-184.10226 -48.687435 -25.59523 8681835
-184.02548 -48.981922 -26.12722 9208181
-183.95534 -49.032864 -27.082672 9405562
-93.262711 -49.439533 -155.71973 9208435
-92.529831 -49.20734 -156.19359 9800575
-91.640083 -49.119556 -156.68849 10655116
-184.33804 -48.004795 -25.401993 9405560
-184.37517 -48.047268 -26.31295 9931906
-92.459839 -48.548981 -156.50223 10917773
-91.922165 -48.047291 -156.98724 9865597
-91.045486 -48.001373 -157.45796 9076594
-184.71445 -46.852161 -24.774261 8682867
-184.6449 -47.147156 -25.30867 9208439
-184.62305 -47.3666 -26.121506 9405560
-91.930305 -47.225597 -157.32393 9076593
-91.318481 -46.953606 -157.75192 8681835
-90.494293 -46.913342 -158.19307 9011315
-185.37805 -45.518242 -23.95414 8682867
-185.11963 -45.966095 -24.601608 9011832
-184.98241 -46.28672 -25.415466 8682867
-91.296402 -46.201935 -158.12029 10063235
-90.605606 -46.124706 -158.53218 9077107
-89.9151 -46.048592 -158.94496 8616557
-186.09134 -44.676182 -22.906136 7563619
-185.88518 -44.89922 -23.791176 11380124
-185.71701 -45.125267 -24.452469 10853780
-90.828033 -45.518139 -158.91803 9208435
-90.125015 -45.308529 -159.46071 7892580
-89.419769 -45.051113 -160.1512 8484715
-88.910156 -44.74958 -160.89574 8550257
-88.325241 -44.746593 -161.20703 8089963
-193.03848 -43.729313 -13.015222 9537409
-193.06261 -43.832653 -13.874093 9076601
-191.2709 -44.211426 -15.605813 9076595
-191.1965 -44.212948 -16.528297 8090987
-188.80585 -44.214439 -18.854515 9143419
-188.71545 -44.215919 -19.765022 8024425
-188.62141 -44.217403 -20.675179 6510930
-186.99828 -44.354958 -21.415558 7563619
-186.99362 -44.372993 -22.10009 9734015
-186.98814 -44.391327 -22.785133 7563619
-88.547989 -44.474075 -162.06847 9931910
-87.567215 -44.470215 -162.58684 9340030
-86.735069 -44.359043 -164.80405 8091248
-86.141769 -44.358952 -165.11751 7564649
-85.348923 -44.358829 -165.53221 7827308
-84.477539 -44.003178 -167.76796 7827298
-83.688782 -43.895618 -168.04059 8287852
-193.38878 -42.622574 -12.259233 8813686
-193.36118 -42.882111 -13.193543 10129287
-84.377777 -43.323299 -168.07019 7038298
-83.621223 -43.112522 -168.37492 8682868
-83.142868 -42.82346 -168.63017 10261132
-193.68787 -41.808601 -12.278611 9405566
-193.66507 -42.024586 -13.058381 8682100
-83.831772 -42.249405 -168.66052 8748661
-83.041122 -42.143772 -168.93294 10129801
-194.01424 -40.735477 -11.361047 8616822
-193.9873 -40.993626 -12.297982 9471359
-83.816765 -41.496761 -168.96735 9143163
-83.197342 -41.247608 -169.24763 9143163
-82.539124 -41.223335 -169.44884 9736323
-194.29407 -39.991974 -11.471742 7104098
-194.33009 -40.060829 -12.320016 9602944
-83.267319 -40.422302 -169.55884 8353901
-82.629883 -40.188408 -169.8383 9209210
-194.65515 -38.851505 -10.693498 8879479
-194.60272 -39.15163 -11.490502 7564392
-82.66832 -39.195198 -170.22624 9406590
-81.917221 -39.056622 -170.50038 10459278
-194.9539 -37.899826 -10.003419 8616307
-194.91287 -38.150299 -10.707971 9274237
-194.95763 -38.167427 -11.417428 9405823
-82.602951 -38.287609 -170.61 9538176
-81.980072 -38.040562 -170.89037 11117208
-81.319038 -38.019238 -171.0912 10919829
-195.21191 -37.197769 -10.016969 8616307
-195.30563 -37.072414 -10.68274 8945272
-82.047455 -37.211884 -171.20378 10130313
-81.251022 -37.111332 -171.47583 10524559
-195.75421 -35.536102 -9.0997553 9209467
-195.63391 -36.022793 -9.9042368 9406077
-81.528397 -36.257942 -171.73811 10524557
-80.740692 -36.188938 -171.99492 10393227
-196.0562 -34.713932 -9.1142359 9998211
-195.97246 -35.081432 -9.8202524 10524297
-81.517906 -35.530678 -172.0334 11248021
-80.811218 -35.237358 -172.3568 9736578
-196.38359 -33.636276 -8.1813364 9735812
-196.33527 -33.935638 -9.03267 9998467
-80.981491 -34.301529 -172.68092 9210491
-80.22139 -33.945686 -173.03764 11840670
-196.66661 -32.88409 -8.2885141 8419695
-196.6183 -33.183594 -9.1410685 9735296
-80.373779 -32.990662 -173.36287 9867651
-79.520058 -32.739498 -173.70345 9932419
-197.01424 -31.732145 -7.2573175 9932166
-196.88748 -32.217239 -7.9654093 10721680
-80.51902 -32.079159 -173.67329 9406078
-79.724113 -32.012878 -173.9257 9932166
-79.76458 -31.261875 -174.23198 10129545
-79.183594 -30.916283 -174.62105 9735043
-79.139679 -30.373402 -175.07932 8814197
-78.611938 -29.912498 -175.77983 9077369
-78.016838 -29.655745 -176.52654 9734788
-77.354645 -29.645473 -176.74803 9734788
-76.860138 -29.372314 -178.51665 9011057
-76.00312 -29.372047 -178.88649 10129798
-73.602386 -29.377548 -183.5295 9405822
-72.721115 -29.377224 -183.88313 9405822
-170.74252 -65.603073 -46.289532 9142651
-170.50615 -65.598801 -47.109039 10260876
-170.20734 -65.594299 -48.132526 6840925
-171.40323 -64.962502 -45.449265 8418670
-171.26375 -65.055534 -46.429451 8089963
-171.0318 -65.280327 -47.030735 8089963
-168.0717 -65.493759 -49.729763 10853012
-167.74966 -65.439056 -50.295372 9932161
-167.31781 -65.366241 -51.047085 8682867
-166.77376 -65.275375 -51.982555 10130057
-166.22545 -65.184822 -52.913769 9472386
-165.78352 -65.112473 -53.655361 8814715
-165.22696 -65.022377 -54.578186 7893096
-164.66623 -64.932487 -55.496735 7432289
-164.21445 -64.860771 -56.228127 11380639
-163.7598 -64.789215 -56.956573 11709860
-163.18758 -64.699997 -57.862946 8092019
-162.61128 -64.611031 -58.764946 9933707
-162.26349 -64.557793 -59.30397 11380380
-171.84094 -64.025009 -44.739334 9142134
-171.73289 -64.192581 -45.536659 8089704
-171.60576 -64.41777 -46.299965 8089963
-161.91403 -64.504601 -59.841167 11380380
-161.44586 -64.433838 -60.55489 10262415
-160.97501 -64.363327 -61.265709 10262415
-160.38257 -64.27533 -62.149853 11380638
-159.78638 -64.187614 -63.029663 11708831
-159.30635 -64.117668 -63.730042 13023917
-158.70261 -64.030426 -64.601143 9011575
-158.09515 -63.943501 -65.467819 10787728
-157.60625 -63.874123 -66.1577 8617074
-156.99149 -63.787689 -67.015671 13090483
-156.37305 -63.701485 -67.869171 8947070
-155.87515 -63.632584 -68.54837 8092019
-155.50017 -63.581112 -69.055923 8092019
-172.29028 -62.944099 -43.823795 6510930
-172.19623 -63.054264 -44.739651 8089704
-172.03297 -63.350571 -45.675198 7563360
-155.1237 -63.529636 -69.56144 10261128
-154.61972 -63.461216 -70.233017 11576217
-153.98627 -63.375961 -71.068146 9603455
-153.34937 -63.290951 -71.898743 10260872
-152.8371 -63.223209 -72.559662 6511954
-152.19342 -63.138729 -73.381416 8616049
-151.54633 -63.054573 -74.198647 9208187
-150.89546 -62.97068 -75.010811 10063496
-150.24138 -62.887043 -75.818459 8089963
-149.71541 -62.820404 -76.460991 7564130
-149.05478 -62.737385 -77.259796 6511954
-148.39091 -62.65461 -78.053978 7103835
-147.991 -62.605057 -78.528183 7761509
-172.83109 -61.583183 -43.076019 7038307
-172.64993 -61.945496 -43.915447 7827048
-172.54712 -62.11314 -44.627602 8089704
-147.55667 -62.541786 -78.982941 8682867
-147.10742 -62.472679 -79.428528 8682867
-147.01875 -62.289787 -81.215736 9735299
-146.56137 -62.220665 -81.65625 10787476
-145.79713 -62.105915 -82.386002 9077372
-145.03059 -61.99155 -83.110497 7564643
-144.26158 -61.877617 -83.828926 10130059
-143.64487 -61.786819 -84.400032 7039331
-143.29112 -61.605732 -86.525604 9341054
-173.3929 -60.723877 -42.329193 8814201
-173.22662 -60.860863 -43.17424 9668480
-172.99414 -61.099308 -44.00288 7958893
-143.00519 -61.572441 -86.823929 9341054
-142.43159 -61.506062 -87.417961 9341054
-141.71202 -61.423225 -88.156303 9406593
-140.98918 -61.340675 -88.88916 7827822
-140.2635 -61.25832 -89.617218 9537924
-139.68073 -61.192657 -90.195908 8617331
-139.2424 -61.143436 -90.627815 7564642
-138.9673 -60.988972 -92.602745 7563619
-138.37134 -60.923473 -93.171684 10787471
-137.62367 -60.841785 -93.878006 14602182
-136.8734 -60.760418 -94.579475 9800834
-136.27104 -60.695499 -95.136734 7959144
-135.81816 -60.646942 -95.552628 7959144
-174.76242 -59.563492 -40.658054 7762277
-174.38635 -59.748966 -41.458267 8025705
-174.02576 -60.028625 -42.334198 8748405
-173.65771 -60.377377 -43.058586 10851980
-135.62476 -60.506599 -97.377235 5392706
-134.98465 -60.430573 -97.906723 5392706
-134.13443 -60.314259 -98.529144 6116171
-133.44975 -60.220081 -99.02005 7761253
-133.31952 -60.072762 -100.67107 10262156
-132.62469 -59.97842 -101.15364 7564645
-131.75497 -59.860867 -101.75187 6644317
-131.23235 -59.790527 -102.10789 7040355
-131.06204 -59.640457 -103.75431 7105636
-179.69742 -58.668442 -33.428532 8682867
-179.53773 -58.905563 -34.070816 9077111
-179.39923 -58.973186 -35.075855 6972506
-177.75258 -59.233246 -36.40749 7498081
-177.53357 -59.234867 -37.478851 8155499
-175.80164 -59.275284 -38.892769 7958120
-175.6808 -59.298649 -39.755169 6643543
-175.55814 -59.322613 -40.617676 7762277
-130.17371 -59.520802 -104.33281 6841951
-129.41315 -59.402985 -104.75231 6512986
-129.1235 -59.211353 -106.32585 7039331
-128.38232 -59.106461 -106.7581 7039331
-127.65842 -59.010014 -107.201 8354418
-127.46392 -58.873459 -108.87587 8814454
-126.7595 -58.790405 -109.33474 9210491
-125.87778 -58.686855 -109.90333 9406335
-179.9646 -57.994976 -33.254116 9406332
-179.85858 -58.013435 -34.131893 11905694
-179.69856 -58.251083 -34.774933 7761765
-125.11398 -58.485928 -111.91268 7563619
-124.22948 -58.387463 -112.47528 7563619
-123.53401 -58.315022 -112.9334 7563619
-123.49316 -58.215355 -114.53677 7563619
-122.78781 -58.142822 -114.98743 7827558
-121.90481 -58.052372 -115.54599 9537664
-121.11922 -57.878033 -117.59367 7695971
-120.19191 -57.773067 -118.10728 8024938
-180.40932 -57.012714 -32.512699 8617332
-180.28577 -57.102669 -33.313644 10458762
-180.16177 -57.193665 -34.114571 10590092
-119.28993 -57.559715 -120.07018 7038307
-118.3419 -57.450821 -120.55925 6182222
-117.59377 -57.257183 -122.41444 8681584
-116.63833 -57.150509 -122.89241 9340286
-115.95909 -57.00473 -124.84917 8419182
-115.02555 -56.914909 -125.34872 8090987
-114.1255 -56.750614 -127.40387 10130310
-113.17856 -56.660679 -127.88681 10261384
-180.87213 -55.95805 -31.846733 7695973
-180.75571 -56.059959 -32.545475 7696486
-180.66061 -56.075031 -33.338058 8946039
-112.43005 -56.512028 -129.83916 12168864
-111.4702 -56.421921 -130.30679 7827300
-110.6864 -56.271065 -132.25481 9011574
-109.90852 -56.198868 -132.61717 9932161
-109.48529 -56.081985 -134.38533 10590091
-108.89487 -56.027718 -134.65025 7564643
-108.10713 -55.955486 -135.00002 8419438
-107.65338 -55.836475 -136.76935 8814710
-107.05121 -55.779865 -137.01906 8814710
-106.4482 -55.72295 -137.26584 8814710
-181.45982 -54.603893 -31.049404 9537664
-181.23141 -55.059788 -31.588646 9406335
-181.15224 -54.986523 -32.526939 8419952
-105.95558 -55.596325 -139.02303 6445650
-105.1426 -55.520367 -139.34232 6445650
-104.21507 -55.353668 -141.25865 8090730
-103.39304 -55.277657 -141.5659 7366751
-103.05572 -55.165928 -143.25362 7563619
-102.22503 -55.08979 -143.55084 8222573
-101.44801 -54.938061 -145.39073 7893608
-100.60866 -54.861835 -145.67702 9011833
-100.22696 -54.746277 -147.37749 7564651
-99.59111 -54.689003 -147.58493 9341312
-181.75941 -53.883732 -30.740211 10458507
-181.6226 -53.944359 -31.753712 8748661
-181.46304 -54.179043 -32.40229 7893608
-98.955307 -54.631836 -147.79045 7039331
-98.335007 -54.495152 -149.562 8617334
-97.692886 -54.437912 -149.76001 10458249
-97.414505 -54.129246 -151.10596 8090987
-96.709587 -53.956047 -151.67351 8617331
-95.969894 -53.822861 -152.25578 8418928
-182.17285 -52.950096 -30.118217 10064006
-182.04996 -53.036247 -30.924988 10590093
-181.97108 -53.04652 -31.588894 8616822
-96.773758 -53.239201 -152.30803 8617331
-96.06385 -53.259144 -152.6461 9208444
-95.28981 -52.987396 -153.20627 9274237
-182.63637 -51.896656 -29.441826 8287856
-182.47681 -52.172028 -29.957947 8287856
-182.35435 -52.215054 -30.901527 8616820
-96.303085 -52.429409 -152.91502 9537409
-95.498367 -52.171406 -153.43655 9208443
-94.753479 -51.770332 -153.98651 9471868
-183.22534 -50.543068 -28.631569 8681835
-182.99667 -50.997471 -29.177025 8813422
-182.85388 -51.098846 -30.110512 9011062
-182.64078 -51.466816 -30.799248 9734788
-95.78923 -51.10117 -153.72975 9011574
-94.902031 -51.007172 -154.22588 9340280
-94.129623 -50.989967 -154.63112 9734783
-183.52582 -49.822323 -28.316284 8681835
-183.38974 -49.878494 -29.337105 9734267
-183.23038 -50.110832 -29.991394 10128769
-95.18663 -50.209946 -154.40927 9208952
-94.298058 -50.117504 -154.90547 9208435
-93.566292 -49.883465 -155.37946 9208435
-183.94022 -48.888752 -27.684753 8945012
-183.81784 -48.971642 -28.497688 9405302
-183.73959 -48.978893 -29.16626 9405302
-95.199326 -49.479134 -154.70518 9208952
-94.466675 -49.244194 -155.1801 9537403
-93.576485 -49.153358 -155.6765 9208435
-184.40514 -47.834892 -26.997887 8681843
-184.24547 -48.108944 -27.519119 8813429
-184.12366 -48.148014 -28.469482 9208186
-94.593361 -48.588768 -155.38657 9932161
-93.901169 -48.136368 -155.93083 9603453
-92.985947 -48.031982 -156.44557 10129281
-184.69742 -47.110943 -26.677162 10129029
-184.57071 -47.166759 -27.704346 9536894
-184.41138 -47.397861 -28.362602 10457481
-94.069038 -47.261639 -156.20726 9932161
-93.332764 -47.028973 -156.68309 9077110
-92.438744 -46.941025 -157.18011 9536888
-185.26425 -45.88195 -25.908806 8748916
-185.0979 -46.135303 -26.826141 9800578
-184.84039 -46.490353 -27.517181 9536894
-93.262894 -46.369087 -156.99289 9011574
-92.681839 -46.111095 -157.47496 9602681
-91.860672 -46.072002 -157.9265 10457478
-186.07272 -44.720631 -24.498734 10853780
-185.90761 -44.948093 -25.161179 8090986
-185.88506 -45.052219 -25.994713 9078138
-92.776566 -45.542633 -157.89342 9340286
-92.075287 -45.33075 -158.43721 10261387
-91.485214 -45.059837 -159.08698 9142650
-90.833481 -44.878792 -159.66374 7234652
-90.273041 -44.757565 -160.16615 7760994
-193.10541 -43.854546 -14.579026 8681843
-193.13948 -43.92804 -15.424439 8616306
-191.09706 -44.21484 -17.680786 9932424
-190.99117 -44.216728 -18.832764 8090218
-188.57265 -44.21814 -21.130013 7563619
-188.47133 -44.219608 -22.03936 8484463
-186.98149 -44.410011 -23.470619 13485757
-186.97096 -44.435436 -24.385178 14867154
-90.505531 -44.4846 -161.02396 8484714
-89.527161 -44.478897 -161.54747 8287084
-88.704475 -44.359299 -163.74355 7564643
-88.114975 -44.359226 -164.06409 7827817
-87.327133 -44.359127 -164.48834 10261132
-86.40947 -44.311951 -167.08195 11904668
-85.791946 -44.059177 -167.36313 10195081
-85.134331 -44.030884 -167.56581 9734789
-193.45883 -42.875034 -14.512483 9734273
-193.40475 -43.179226 -15.305276 8681843
-85.867065 -43.235001 -167.67249 9537408
-84.951813 -43.076351 -168.00246 8287853
-193.7323 -41.965073 -13.688378 12234148
-193.76706 -42.036888 -14.535851 12563113
-85.855347 -42.481514 -167.9787 8287341
-85.235809 -42.230114 -168.2599 7629923
-84.44339 -42.123074 -168.5334 7367263
-194.07492 -41.03302 -13.71312 12036254
-194.04718 -41.293724 -14.651139 10457995
-85.176117 -41.32354 -168.64153 8090730
-84.515823 -41.297737 -168.84401 8353646
-83.895592 -41.048115 -169.12466 8090730
-194.39787 -39.99995 -12.951791 11444374
-194.37518 -40.216282 -13.734651 10918031
-84.654678 -40.262592 -169.21957 8813937
-83.892975 -40.053207 -169.52525 8682350
-194.70285 -39.139153 -12.815408 9931651
-194.67587 -39.398438 -13.756227 9339515
-84.154869 -39.066483 -169.84555 9011571
-83.368286 -38.993256 -170.10381 9011571
-195.00226 -38.185108 -12.127625 9734529
-195.02802 -38.285389 -12.994439 9076600
-84.101303 -38.187626 -170.21431 9011571
-83.304077 -38.084595 -170.48759 8814451
-82.680458 -37.836975 -170.76848 9538176
-195.49306 -36.680199 -11.291894 10195337
-195.40198 -37.078163 -12.05182 10787215
-195.30533 -37.500446 -12.855721 9931907
-83.460571 -37.182014 -170.80476 9209723
-82.662407 -37.080261 -171.07784 8946039
-195.84535 -35.566772 -10.523561 9209467
-195.80441 -35.81773 -11.231446 9274235
-195.84969 -35.834244 -11.944489 10524043
-83.356422 -36.496883 -171.11041 9734784
-82.871643 -36.208549 -171.36729 9734784
-82.105255 -36.00293 -171.67274 10786958
-196.12318 -34.779747 -10.380883 9932418
-196.15015 -34.877335 -11.251679 9472127
-82.886139 -35.344322 -171.71031 11313045
-82.085815 -35.244274 -171.98331 11904668
-196.47594 -33.664551 -9.6088266 10261382
-196.42722 -33.965038 -10.46074 9735297
-82.348312 -34.245785 -172.30775 9734784
-81.562386 -33.938004 -172.65756 9210491
-196.72038 -32.952419 -9.3834085 9472124
-196.67986 -33.202713 -10.09427 10261382
-82.565407 -33.280968 -172.62546 9734784
-81.710312 -33.027481 -172.96729 9866884
-81.839722 -32.229237 -173.23856 10261131
-81.126144 -32.01886 -173.52336 9143162
-81.969208 -31.429668 -173.51027 10129545
-81.130951 -31.18474 -173.89326 9866373
-80.295975 -30.94203 -174.28325 10261132
-81.333847 -30.532701 -174.32404 9406078
-80.588959 -30.341091 -174.69388 8880246
-79.946152 -29.939362 -175.36082 8682867
-79.341545 -29.67708 -176.08098 8945783
-78.782043 -29.372892 -177.66963 10853004
-78.142433 -29.372705 -177.95418 10524297
-77.501823 -29.372513 -178.23668 9209467
-74.920853 -29.378017 -182.99004 11116697
-74.042282 -29.377703 -183.35078 10129801
-169.86464 -65.575203 -49.142693 8682355
-171.32611 -64.894279 -47.111214 8089963
-171.09332 -65.119759 -47.713249 7301222
-170.972 -65.161636 -48.568279 7827565
-170.47595 -65.334511 -49.539719 8945529
-169.36545 -65.49839 -50.107033 9734530
-168.82213 -65.406509 -51.055748 9010806
-168.38405 -65.333206 -51.811344 10130057
-167.94308 -65.260048 -52.56403 8682867
-167.38757 -65.1688 -53.500584 8814195
-166.82793 -65.077843 -54.432842 9011316
-166.37685 -65.005249 -55.175262 8353647
-165.80891 -64.914742 -56.09898 9077882
-165.23688 -64.824432 -57.018364 12432037
-164.776 -64.752419 -57.750443 9868171
-164.31242 -64.680588 -58.479511 9868171
-171.7428 -63.957397 -46.836567 7827048
-171.60948 -64.16555 -47.811844 8485493
-172.20193 -62.820168 -46.105125 7760996
-172.10408 -62.927864 -47.102104 8550510
-154.23117 -63.244884 -72.760597 9471356
-153.71271 -63.176739 -73.424225 9931652
-153.19193 -63.10873 -74.084885 8352878
-152.53754 -63.024006 -74.906128 8616049
-151.87987 -62.939621 -75.722939 9734531
-151.35114 -62.872242 -76.372696 7563619
-150.68692 -62.788418 -77.180374 8879477
-150.01945 -62.704823 -77.983551 9011320
-149.34834 -62.62154 -78.78154 9800837
-172.57918 -61.929493 -45.227551 8089704
-172.50868 -61.983093 -46.098335 9405049
-172.35867 -62.256794 -46.948723 7037274
-148.67307 -62.53809 -79.574409 9932166
-147.93065 -62.428379 -80.327919 9340797
-147.32323 -62.335896 -80.920807 9735299
-147.22275 -62.151306 -82.717796 7959912
-146.7588 -62.082024 -83.156914 8682867
-146.13901 -61.989868 -83.739349 8682867
-145.36208 -61.875111 -84.462051 14404803
-144.58446 -61.761421 -85.180321 8157298
-143.86136 -61.672394 -85.926201 7893867
-173.17426 -60.830299 -44.492565 7038307
-172.94997 -61.074139 -45.324574 8747893
-172.72729 -61.339752 -46.379566 7037274
-143.23132 -61.468777 -88.378441 10591121
-142.79491 -61.418785 -88.823456 9341054
-142.06503 -61.33559 -89.560951 8222320
-141.33234 -61.252632 -90.293671 8354163
-140.59647 -61.169964 -91.02076 8091247
-139.85774 -61.087574 -91.743088 8616563
-139.41313 -61.0382 -92.173927 8616563
-138.6714 -60.832993 -94.58606 11314845
-137.91402 -60.750961 -95.291878 7039331
-137.15361 -60.669285 -95.992043 7432800
-136.54353 -60.604042 -96.548912 8682867
-174.43445 -59.623352 -42.803368 8681839
-174.01607 -59.949108 -43.636143 8747893
-173.79222 -60.128544 -44.50124 7432807
-173.43733 -60.485561 -45.228027 8287600
-136.23769 -60.571495 -96.825836 8682867
-135.93147 -60.539051 -97.102028 7959144
-135.72656 -60.397514 -98.937981 5919050
-135.22491 -60.333447 -99.322754 6379343
-134.35968 -60.214725 -99.939056 7300443
-133.66652 -60.120003 -100.42822 6510930
-133.35188 -59.947361 -102.21036 5920074
-132.82426 -59.87632 -102.57026 3749937
-131.94383 -59.758221 -103.1652 5197639
-179.43134 -58.717968 -35.621288 6840919
-179.27072 -58.957561 -36.263432 8090736
-179.16302 -58.980492 -37.14138 9406081
-177.30856 -59.236485 -38.548958 7958120
-177.07675 -59.238094 -39.61758 6511954
-176.88715 -59.239376 -40.471611 6511954
-175.4646 -59.341084 -41.264729 9012600
-175.33798 -59.366249 -42.127731 9012600
-175.24165 -59.385624 -42.775181 6511954
-131.05714 -59.512272 -105.29305 6710366
-130.28506 -59.392166 -105.71047 6644573
-129.68369 -59.29224 -106.00278 6315608
-129.43961 -59.123001 -107.62957 7039331
-128.52106 -58.999718 -108.18185 9406848
-127.81573 -58.915138 -108.64496 7037274
-127.79059 -58.798035 -110.21648 8091498
-127.07796 -58.7145 -110.67384 8288365
-126.36462 -58.631199 -111.12797 7563619
-179.85902 -57.80481 -34.806042 8682867
-179.69868 -58.043308 -35.449451 8880248
-179.55923 -58.112778 -36.457039 8090736
-125.82896 -58.568863 -111.4657 8156012
-125.42654 -58.415581 -113.2767 7826791
-124.54871 -58.324421 -113.85273 7892584
-123.8453 -58.251637 -114.30977 7563619
-123.44337 -58.114311 -116.15267 9931902
-122.90806 -58.059616 -116.48869 9273972
-122.0144 -57.968666 -117.04398 8353128
-121.37308 -57.800549 -118.97292 6511954
-120.4266 -57.690891 -119.4753 7235683
-180.14429 -57.057579 -34.71133 9143161
-180.01961 -57.150356 -35.512943 10326919
-179.93918 -57.166115 -36.173347 9011321
-119.51094 -57.475677 -121.44868 6578007
-118.55273 -57.366234 -121.93497 6510930
-117.82205 -57.184982 -123.8317 9734527
-116.89128 -57.094746 -124.34376 7300958
-116.20445 -56.94928 -126.3187 7366495
-115.07121 -56.840797 -126.91426 11446166
-114.34641 -56.692921 -128.88449 10787726
-113.77203 -56.638508 -129.17358 10787726
-180.66127 -55.885967 -33.946388 9406332
-180.52792 -56.013851 -34.710258 9340540
-180.39423 -56.142738 -35.474052 9208699
-113.19715 -56.584236 -129.46025 10261383
-112.62837 -56.452229 -131.33109 8485229
-111.65783 -56.361534 -131.79591 9142902
-110.86191 -56.20911 -133.75798 8682099
-110.07546 -56.136452 -134.1179 9340027
-109.24622 -55.981873 -136.07664 9339769
-108.25095 -55.890862 -136.51149 10260100
-107.37773 -55.729801 -138.45418 13023917
-106.56514 -55.6534 -138.78105 9012347
-181.19626 -54.64204 -33.256668 8814710
-181.0361 -54.92054 -33.768761 8090986
-180.9118 -54.969559 -34.708878 7761512
-106.26923 -55.544525 -140.47356 7564130
-105.44766 -55.468033 -140.79048 7564130
-104.5091 -55.299755 -142.72276 8155755
-103.67859 -55.223198 -143.02759 8813683
-102.70693 -55.052814 -144.95403 9735555
-101.71072 -54.880405 -146.8838 10525582
-100.86286 -54.803635 -147.16737 8157043
-100.63396 -54.675655 -148.73329 11381404
-100.22995 -54.650234 -148.90701 11381404
-181.49612 -53.920326 -32.950191 8025194
-181.35799 -53.984215 -33.964642 7893608
-181.19763 -54.221188 -34.613026 7563619
-99.615738 -54.607956 -149.15346 10260873
-99.167572 -54.399197 -149.90593 10260873
-98.714584 -54.067448 -150.68288 10064006
-97.915359 -53.892288 -151.27998 8090987
-181.89203 -53.057354 -32.252998 8025195
-181.78622 -53.072861 -33.138859 8354159
-181.62604 -53.308922 -33.788467 7038298
-98.71228 -53.303333 -151.31001 10129542
-98.130386 -53.283436 -151.61003 9998727
-97.355057 -53.257774 -152.00922 9735555
-182.40053 -51.924408 -31.437325 7038049
-182.21411 -52.204964 -32.174519 7959149
-182.09048 -52.250916 -33.118874 8353905
-98.232033 -52.483894 -151.8983 9341054
-97.487671 -52.232185 -152.38615 9077882
-96.74707 -51.885883 -152.91122 8748917
-182.99005 -50.56789 -30.631668 9931650
-182.73465 -51.02729 -31.397934 8748408
-182.59076 -51.131535 -32.331902 7761770
-97.72258 -51.15176 -152.71239 10064261
-96.834564 -51.054558 -153.21028 9472124
-96.10421 -50.816425 -153.68529 8682867
-183.2645 -49.848869 -30.541496 9603967
-183.1272 -49.908054 -31.563034 9012089
-97.122574 -50.257099 -153.39194 10458761
-96.233269 -50.161552 -153.88986 9208952
-95.501633 -49.924763 -154.36501 8682867
-183.66109 -48.986797 -29.83493 9668990
-183.55606 -48.998203 -30.726799 9472895
-183.39616 -49.231819 -31.381989 9736323
-97.13826 -49.52533 -153.68716 8682867
-96.474609 -49.333183 -154.10875 9472123
-95.651138 -49.160217 -154.60468 9208952
-184.17079 -47.854126 -29.007477 10457481
-183.98456 -48.132259 -29.751205 11314585
-183.86174 -48.174068 -30.702209 8814709
-96.535057 -48.631672 -154.36864 9208952
-95.843826 -48.176418 -154.91359 9603710
-94.927994 -48.068901 -155.42992 9537660
-184.44614 -47.133694 -28.91433 10062980
-184.29115 -47.264137 -29.861725 8484720
-96.015221 -47.301033 -155.18849 9340539
-95.279068 -47.065701 -155.66534 9537661
-94.384506 -46.974792 -156.1638 10195332
-185.36546 -45.630848 -27.366653 8881015
-184.99371 -46.059685 -28.126297 9010807
-184.83382 -46.154903 -29.066429 9537406
-184.57921 -46.512856 -29.756371 8089963
-95.211761 -46.404697 -155.97427 9603454
-94.628281 -46.142845 -156.4511 9603453
-93.80677 -46.101162 -156.90376 9932161
-185.98277 -44.932831 -26.617645 8683892
-185.83868 -45.009327 -27.435738 9078394
-185.60077 -45.222153 -28.086967 9341310
-94.725327 -45.57262 -156.86397 9011574
-94.025673 -45.358475 -157.40901 7367005
-93.431755 -45.082085 -158.04741 7958375
-92.778755 -44.897144 -158.61876 9340286
-92.216614 -44.77211 -159.11446 13024949
-193.27623 -43.667347 -15.998094 9011320
-193.25861 -43.881706 -16.841034 8486006
-193.18951 -44.180275 -17.397835 8420470
-190.87779 -44.218601 -19.983994 8879990
-190.78268 -44.2201 -20.904579 10854036
-188.33923 -44.221439 -23.175484 8090987
-188.19984 -44.223259 -24.310684 8090987
-186.96196 -44.454865 -25.071701 6511954
-186.95174 -44.474697 -25.75843 7433569
-186.94061 -44.494823 -26.445717 8420720
-92.458572 -44.498749 -159.96877 10261387
-91.677956 -44.492699 -160.39204 9471613
-91.091881 -44.48848 -160.70865 7760994
-90.661064 -44.359501 -162.65941 8089963
-90.075333 -44.359444 -162.98698 9143675
-89.292809 -44.359364 -163.42065 9933191
-87.877655 -44.216599 -166.63503 9866631
-86.985794 -44.06678 -167.01286 10787218
-193.55226 -42.886303 -15.864739 8879478
-193.57581 -42.992027 -16.727974 8682355
-87.27401 -43.220592 -167.26903 7958376
-86.480408 -43.110657 -167.54405 8682099
-193.90457 -41.774265 -15.110261 10457995
-193.87614 -42.036854 -16.048546 9011320
-87.176987 -42.537518 -167.57181 7037274
-86.556572 -42.28474 -167.85379 7629411
-85.936249 -42.032768 -168.13553 8287341
-194.2049 -40.957802 -15.134103 8484976
-194.18149 -41.176228 -15.917123 8551025
-86.629791 -41.268841 -168.24074 8484976
-85.877686 -41.125069 -168.51723 7629411
-194.53326 -39.879185 -14.217057 8089963
-194.50562 -40.140186 -15.157922 8287854
-86.079971 -39.999969 -168.91054 8814197
-85.286301 -40.082714 -169.10814 8747887
-194.81427 -39.133518 -14.332429 8090219
-194.84985 -39.20435 -15.185067 7564643
-86.020538 -39.089722 -169.29356 9735043
-85.356361 -39.064915 -169.49675 9538175
-84.732727 -38.815136 -169.77849 9011571
-195.26357 -37.753204 -13.562028 9603199
-195.1693 -38.164967 -14.343278 8024683
-85.517029 -38.162231 -169.81274 9471869
-84.717865 -38.057919 -170.08714 8747885
-195.65042 -36.561951 -12.878846 11181972
-195.58261 -36.858044 -13.44259 10655629
-195.56706 -37.068016 -14.293939 8090736
-85.415657 -37.476357 -170.11787 9736836
-84.790001 -37.226955 -170.40004 9341307
-84.124847 -37.204273 -170.60262 9736836
-195.89471 -35.851303 -12.65825 9273979
-195.92085 -35.951099 -13.529328 9076600
-84.862053 -36.39473 -170.7135 11051415
-84.061073 -36.292267 -170.98769 11380380
-196.19562 -34.893444 -11.966012 9537409
-196.1543 -35.14563 -12.675347 8681843
-84.342575 -35.227032 -171.33382 11117208
-83.499832 -35.021339 -171.66159 10786958
-196.425 -34.176193 -11.505212 10261132
-83.787811 -34.003147 -171.987 9800834
-82.935913 -33.749565 -172.33672 10786958
-83.782211 -33.164101 -172.32314 9274747
-83.068428 -32.951897 -172.60899 10524042
-83.102997 -32.195782 -172.89104 10261126
-82.342346 -31.898966 -173.22264 10853012
-83.088959 -31.460184 -173.17902 9998211
-82.498207 -31.10787 -173.54726 9406078
-82.674873 -30.565525 -173.91556 8682867
-81.959244 -30.286592 -174.3493 9208955
-81.551163 -29.715029 -175.33025 9208435
-80.666855 -29.699461 -175.63187 8945523
-80.906601 -29.373478 -176.70409 9208435
-80.270378 -29.373308 -176.99629 9471608
-79.420593 -29.373074 -177.38255 9735039
-76.891281 -29.378675 -182.16389 9998215
-76.016678 -29.378387 -182.5338 10787732
-171.25716 -64.680328 -48.983047 9143166
-170.94019 -64.786301 -49.896866 8748407
-170.48288 -64.963692 -50.752899 9602942
-169.83832 -65.199043 -51.582355 9339770
-169.30107 -65.237991 -52.536343 9734527
-168.98349 -65.214043 -53.332439 9340537
-168.45142 -65.134254 -54.283314 9734779
-163.96301 -64.626808 -59.024441 9868171
-163.61185 -64.573082 -59.567604 11709860
-171.70032 -63.822983 -48.402061 8748665
-171.55147 -63.930557 -49.178989 9932424
-171.29407 -63.986988 -50.134247 8156530
-163.14145 -64.501678 -60.289215 11906725
-162.54955 -64.412598 -61.186913 9670535
-161.95369 -64.32383 -62.080162 11051674
-161.47394 -64.252953 -62.791313 9472129
-160.87045 -64.164688 -63.67588 9602943
-160.26314 -64.076622 -64.555954 10852751
-159.77434 -64.006416 -65.256508 8681843
-159.15965 -63.918892 -66.127808 9011063
-158.54123 -63.831627 -66.994667 12695729
-158.04355 -63.761986 -67.684601 14077381
-157.41771 -63.675198 -68.54248 8683898
-156.78809 -63.58857 -69.39579 8353905
-172.01393 -62.999649 -48.192585 8287856
-171.86095 -63.050838 -49.267693 9143166
-171.6257 -63.278591 -49.872307 9932169
-156.28149 -63.519463 -70.074905 8616048
-155.64468 -63.433361 -70.919266 9603198
-155.00453 -63.347523 -71.759155 9406076
-154.61856 -63.296135 -72.260841 8682867
-152.74261 -62.891178 -76.607445 10327435
-152.20755 -62.82349 -77.259895 9537406
-151.67023 -62.755943 -77.909126 7563619
-150.99539 -62.67181 -78.716194 9734786
-150.4534 -62.604713 -79.358734 9537667
-172.41042 -62.027618 -47.498516 7497824
-172.31174 -62.137035 -48.499783 8879474
-172.14566 -62.388542 -49.124992 8485238
-150.18143 -62.571285 -79.678543 10853012
-149.77249 -62.521179 -80.156967 9537667
-149.06482 -62.428215 -80.937592 9998216
-148.30165 -62.313614 -81.684799 10787732
-147.68568 -62.220783 -82.276382 10261387
-146.94868 -61.941898 -84.668289 9866628
-146.32014 -61.849483 -85.248665 12234405
-145.54655 -61.740349 -85.977097 6380368
-144.82146 -61.653061 -86.730255 8813936
-144.38931 -61.602737 -87.182327 8813936
-173.15614 -60.712189 -46.628208 7366239
-172.81055 -61.116051 -47.519001 8089959
-172.56673 -61.464745 -48.347301 10853004
-144.10065 -61.569149 -87.482635 8813936
-143.66644 -61.518967 -87.931358 9933191
-142.86005 -61.297031 -90.537659 9734788
-142.41573 -61.246922 -90.979156 9274494
-141.67268 -61.163639 -91.71093 7565418
-140.92683 -61.08057 -92.437729 7563619
-140.17787 -60.997753 -93.159012 7892584
-139.42616 -60.915211 -93.875351 10261644
-138.96866 -60.741436 -96.013893 8618105
-138.201 -60.659122 -96.718369 7367780
-137.58507 -60.593418 -97.278625 7959144
-174.12534 -59.698467 -44.958294 7038307
-173.81516 -60.008518 -45.922249 9536635
-173.63264 -60.174583 -46.620884 8616048
-137.27644 -60.560669 -97.557259 7959144
-136.81252 -60.511593 -97.973671 7235421
-136.19258 -60.446342 -98.52594 6182734
-135.45671 -60.2332 -100.74767 7431772
-134.58084 -60.113846 -101.36158 6510930
-133.87892 -60.018642 -101.84804 5920074
-133.73135 -59.868137 -103.52093 6972762
-133.01941 -59.772911 -103.99869 4078902
-132.1283 -59.654186 -104.59093 5329481
-179.08194 -58.998474 -37.800232 10261132
-178.99397 -59.015049 -38.458 7301218
-178.76077 -59.132999 -39.423191 8814451
-176.79068 -59.240009 -40.898155 11182484
-176.59419 -59.24128 -41.75066 10591889
-176.3436 -59.242859 -42.815044 8946039
-175.14114 -59.404434 -43.421844 8090986
-175.00467 -59.42989 -44.284256 8681839
-174.86588 -59.455986 -45.146675 9734014
-131.59296 -59.583126 -104.94324 7170917
-131.37117 -59.414742 -106.58392 7039331
-130.38011 -59.25716 -107.08923 7039331
-129.75589 -59.033924 -108.94688 11907236
-128.85735 -58.923832 -109.52234 13552317
-128.14645 -58.839916 -109.98623 8091498
-127.75644 -58.679543 -111.7995 9210491
-127.39597 -58.637558 -112.02709 7563619
-179.59082 -57.858234 -37.00462 9143166
-179.42963 -58.099152 -37.648003 8090736
-179.28868 -58.172161 -38.657005 7038301
-127.03532 -58.595661 -112.25372 9010806
-126.31336 -58.512039 -112.70392 7563619
-125.75604 -58.352299 -114.67081 8616307
-124.86791 -58.260582 -115.24535 8813685
-123.97813 -58.16909 -115.81423 9076857
-123.7457 -58.048565 -117.55772 9931902
-123.20412 -57.993576 -117.89269 9931902
-122.3002 -57.9021 -118.44618 8024421
-121.61674 -57.717854 -120.35757 8288110
-121.04282 -57.651566 -120.65833 8420467
-179.8584 -57.182549 -36.834038 7564393
-179.78574 -57.060463 -37.873749 7827561
-179.58881 -57.44698 -38.359669 6511954
-120.46857 -57.585526 -120.95664 7499622
-119.73054 -57.390491 -122.8413 8024939
-118.76191 -57.280468 -123.3246 10852238
-118.08889 -57.130817 -125.30592 7563618
-117.14738 -57.039974 -125.81562 9471355
-116.25809 -56.874748 -127.90455 9998723
-115.49401 -56.801872 -128.29955 9143673
-114.92044 -56.747417 -128.59332 9143673
-114.75987 -56.652584 -130.28584 9735296
-180.39407 -55.955433 -36.084045 8156527
-180.25963 -56.065197 -36.916351 7498600
-180.09833 -56.305588 -37.562073 8287857
-114.37271 -56.616108 -130.4782 10787726
-113.79163 -56.561386 -130.76471 9735296
-113.21022 -56.506763 -131.04927 9735296
-112.82535 -56.391457 -132.84023 7563619
-112.04038 -56.318363 -133.21037 8616307
-111.45131 -56.263714 -133.48543 8089963
-111.03577 -56.146137 -135.27831 9340027
-110.24069 -56.073063 -135.63582 8089963
-109.39893 -55.916855 -137.60863 10392453
-108.39207 -55.824959 -138.03929 11905436
-107.70641 -55.678928 -139.90816 9998727
-180.89406 -54.833241 -35.308598 7959149
-180.76894 -54.926044 -36.113945 7367271
-180.64337 -55.01984 -36.919514 7498600
-107.09055 -55.621243 -140.15211 7039331
-106.67994 -55.582886 -140.31335 7564130
-106.37724 -55.472626 -142.02187 10854036
-105.75463 -55.414921 -142.25774 9209214
-105.13191 -55.357319 -142.49147 9209214
-104.59519 -55.2257 -144.28163 9471355
-103.756 -55.148727 -144.58315 8813683
-103.61869 -55.053795 -146.23065 8090987
-102.98272 -54.995853 -146.45067 8880246
-102.34673 -54.938 -146.66849 9735297
-101.84576 -54.75288 -148.20908 8814971
-101.03722 -54.701084 -148.55956 8814971
-181.35847 -53.773819 -34.643768 7563619
-181.19781 -54.011543 -35.292503 9142651
-181.09048 -54.031166 -36.178368 8419443
-101.25071 -54.426567 -149.25375 7564651
-100.69102 -54.162086 -149.74126 9274748
-99.865295 -54.098396 -150.17119 11642010
-181.65869 -53.05077 -34.338409 7695461
-181.51965 -53.116379 -35.355335 9340030
-181.35858 -53.354675 -36.00486 9734788
-100.59732 -53.586704 -150.22261 10129542
-100.19115 -53.132755 -150.61996 9077369
-99.336212 -53.104137 -151.07246 8880246
-98.846069 -52.649078 -151.51346 8682867
-182.07335 -52.112377 -33.720638 8879480
-181.99174 -52.068985 -34.583401 9274237
-181.86853 -52.215866 -35.196064 8287342
-100.09495 -52.249672 -151.03508 8682867
-99.559448 -52.012383 -151.40936 9406076
-98.678764 -51.941082 -151.89276 8880246
-182.66351 -50.752415 -32.920315 8945786
-182.44684 -51.127811 -33.616886 9932167
-182.37851 -51.077778 -34.38385 10721682
-99.658661 -51.209084 -151.69075 9800578
-98.838249 -51.154686 -152.13612 9537919
-98.23275 -50.873245 -152.56471 9208953
-183.12874 -49.693935 -32.245464 8616822
-182.9682 -49.971664 -32.763077 8419442
-182.84404 -50.017715 -33.711887 8287854
-99.061256 -50.310959 -152.37073 9537409
-98.170914 -50.212181 -152.87041 10064261
-97.439087 -49.972561 -153.34665 11905692
-183.42984 -48.970417 -31.934143 9407102
-183.29181 -49.031242 -32.957977 8946552
-183.13123 -49.267014 -33.612885 7695973
-99.079964 -49.578121 -152.66518 9143163
-98.5289 -49.21051 -153.10147 9735296
-97.673309 -49.044659 -153.61102 9077367
-183.84549 -48.032307 -31.307129 9341309
-183.72162 -48.118927 -32.122055 10855061
-183.56113 -48.353916 -32.778259 9736836
-97.901688 -48.049637 -153.90622 8814453
-96.974579 -48.055992 -154.38116 9932419
-184.33801 -46.970722 -30.401634 9340027
-184.22076 -47.045166 -31.197372 9341053
-184.0275 -47.29361 -32.099503 11052184
-97.963745 -47.346638 -154.16594 8617075
-97.227539 -47.10865 -154.64391 9208955
-96.33226 -47.014801 -155.14398 9340539
-185.09766 -45.650909 -29.610779 9932163
-184.72673 -46.082386 -30.36776 8747892
-184.56671 -46.084415 -31.354141 10590091
-97.357887 -46.450977 -154.84961 8617075
-96.641174 -46.223988 -155.36127 8682867
-95.753662 -46.135979 -155.87663 9340539
-185.72589 -44.97789 -28.655235 10064007
-185.57034 -45.02919 -29.685623 9932163
-185.3313 -45.243759 -30.335266 9340027
-96.869629 -45.611973 -155.72578 9340539
-96.077133 -45.434231 -156.28734 9537918
-95.376877 -45.109039 -157.0005 8616560
-94.721207 -44.919708 -157.56505 6511954
-94.155586 -44.790226 -158.05226 6511954
-193.31728 -43.972084 -18.114098 9998217
-193.28317 -44.067673 -18.972748 6511954
-190.73331 -44.220848 -21.364632 9406334
-190.63087 -44.222332 -22.284409 7235933
-188.05402 -44.225075 -25.445107 8288109
-187.93237 -44.226517 -26.351974 8420208
-186.85768 -44.498661 -27.123581 8881015
-186.74347 -44.503757 -28.027077 9341310
-94.407166 -44.516518 -158.90297 6906455
-93.628258 -44.50898 -159.33058 9340286
-93.043678 -44.503716 -159.65015 7563619
-92.797852 -44.359657 -161.43965 7037274
-92.022652 -44.359608 -161.8864 8089963
-91.245331 -44.359547 -162.32945 8813428
-89.90123 -44.363552 -165.46236 8354159
-89.200508 -44.164513 -166.06825 9011577
-88.479263 -44.087635 -166.48021 9471873
-193.61826 -43.015652 -17.43689 7761509
-193.66058 -43.039803 -18.146645 9866372
-89.170082 -43.512051 -166.48827 9142651
-88.448944 -43.31514 -166.87126 8879479
-87.976746 -43.025417 -167.14308 8089962
-193.9733 -42.032795 -17.375153 8484976
-193.90428 -42.331768 -17.934029 10261132
-88.669472 -42.448681 -167.15541 8747893
-87.834579 -42.188423 -167.52077 7695204
-194.2485 -41.117985 -16.551033 9603458
-194.2915 -41.140514 -17.262383 7761509
-87.97731 -41.21159 -167.87178 9076858
-87.263435 -41.090935 -168.12793 8813941
-194.59262 -40.182838 -16.580879 8551026
-88.032364 -40.305344 -168.21992 9011320
-87.408501 -40.052624 -168.50296 9997959
-86.743797 -40.02602 -168.70695 9471871
-195.0114 -38.895569 -15.859971 7696229
-194.8989 -39.319481 -16.449638 8682868
-87.485504 -39.222099 -168.81429 10261132
-86.685532 -39.11515 -169.08998 9603457
-195.43866 -37.556793 -14.994798 7959401
-195.30441 -38.043247 -15.600022 8222317
-87.474655 -38.462914 -169.12245 10261132
-86.848839 -38.211346 -169.40565 9866373
-86.182526 -38.186539 -169.60939 9997959
-195.68311 -36.845779 -14.776643 8616823
-86.789803 -37.29784 -169.7899 9406591
-86.122437 -37.273735 -169.99368 9406591
-85.496033 -37.023914 -170.27629 9538176
-195.91296 -36.128029 -14.319581 10261132
-86.264336 -36.229794 -170.37193 8617843
-85.545547 -36.113823 -170.62758 9735555
-85.682831 -35.129158 -170.98335 10393742
-84.966263 -34.953506 -171.26234 10919829
-85.708359 -34.138874 -171.37389 10130313
-84.902779 -34.037209 -171.64905 9538176
-85.188583 -33.175919 -171.91188 10721427
-84.391068 -33.105816 -172.17043 9208956
-84.955353 -32.433994 -172.27055 9735046
-84.462914 -32.143311 -172.52325 9603457
-83.685852 -31.936806 -172.82472 9537918
-84.48645 -31.273735 -172.88394 10195590
-83.682297 -31.1766 -173.16792 9537918
-84.056801 -30.491743 -173.5836 9537918
-83.297058 -30.152458 -174.14053 8946038
-82.656075 -29.735031 -174.95103 10261129
-82.2285 -29.392555 -176.22546 9734782
-81.561783 -29.38089 -176.4528 9208435
-78.852615 -29.379293 -181.31638 9210491
-78.199867 -29.379091 -181.60114 9011579
-77.546173 -29.378887 -181.88377 10984852
-170.67203 -64.597298 -51.384586 7563619
-170.37909 -64.731064 -52.043541 9010806
-170.04588 -64.799744 -52.989159 8352874
-169.65887 -64.849739 -53.917496 9602937
-169.18671 -64.944038 -54.742348 10984590
-168.23723 -65.004234 -55.260056 9208435
-167.42638 -64.969551 -55.966461 9011316
-166.85051 -64.878487 -56.894787 8617079
-166.27052 -64.787628 -57.818733 8353908
-165.80331 -64.715141 -58.55442 8683643
-165.33339 -64.642769 -59.287022 9603971
-164.97919 -64.588692 -59.834579 9340027
-171.26033 -63.730072 -50.662491 7038307
-171.02454 -63.959621 -51.26569 7432291
-170.75833 -63.976765 -52.309044 8616047
-170.46448 -64.210587 -53.118923 8681835
