# .PCD v0.7 - Point Cloud Data file format
VERSION 0.7
FIELDS x y z rgb
SIZE 4 4 4 4
TYPE F F F U
COUNT 1 1 1 1
WIDTH 1193
HEIGHT 1
VIEWPOINT 0 0 0 1 0 0 0
POINTS 1193
DATA ascii
-134.5759 -28.863148 96.336189 9734788
-135.06909 -28.871384 95.708679 9340024
-135.69868 -28.909 95.176544 9012089
-132.59163 -27.620951 104.25629 9538176
-133.18054 -27.930891 103.83363 8748916
-132.26025 -26.421618 104.916 9340797
-132.75191 -26.766235 104.52778 11248535
-132.3868 -25.556265 105.2088 9077625
-132.97818 -26.06188 104.70435 10788241
-131.85779 -24.542377 105.89121 9538945
-132.55217 -24.630301 105.50706 9275260
-132.19844 -23.652384 106.08716 9539201
-132.83755 -23.989059 105.62832 9736836
-131.71269 -22.473101 106.81654 7103835
-132.2392 -22.711603 106.45458 9473152
-131.90332 -21.617441 107.07379 8222061
-132.29935 -21.888882 106.76366 10261132
-131.43439 -20.495581 107.7711 9274493
-132.02762 -20.714663 107.38367 9866371
-131.51781 -19.527893 108.12823 8945523
-132.15213 -19.810043 107.69424 8681835
-131.15294 -18.515152 108.72833 8550513
-131.69463 -18.707779 108.37778 8813684
-131.27573 -17.63958 109.02784 9208700
-130.73776 -16.628927 109.71381 8089963
-131.43745 -16.701519 109.33357 8616562
-130.56235 -15.179214 110.63852 9932678
-131.11739 -15.609847 110.02957 9800836
-131.72147 -16.047447 109.46095 9011320
-130.28906 -14.353952 111.48711 9011320
-130.84183 -14.619234 110.98201 10656657
-127.73939 -13.423121 121.59282 8945272
-127.86423 -13.814291 120.54469 8879478
-128.58772 -13.816495 119.77301 7300189
-130.21497 -13.988893 112.78749 8813428
-130.77502 -14.006468 112.44882 8089963
-127.39504 -12.267004 122.24014 9405566
-127.87516 -12.710634 121.81805 9405565
-127.48378 -11.479885 122.51955 9801347
-126.92311 -10.603437 123.15976 8156778
-127.52564 -10.617763 122.85324 12301476
-127.2489 -9.6536837 123.38777 10130054
-126.66345 -8.6515198 124.09203 9866371
-127.26728 -8.6633282 123.7859 10787472
-126.96606 -7.5716643 124.38516 10589580
-126.4017 -6.6919079 125.02863 8681843
-127.0068 -6.7012105 124.72282 9010807
-126.01746 -5.1595993 125.85051 9340801
-126.5888 -5.6036468 125.38277 8813943
-126.98689 -6.0462437 125.0021 8681843
-126.19841 -4.5051308 126.02932 9800838
-126.80527 -4.5116844 125.72385 10261132
-126.44066 -3.6298711 126.26845 9209215
-125.87267 -2.7455878 126.91553 10261132
-126.48048 -2.7499671 126.6104 9077372
-125.48513 -1.1996624 127.74487 10656142
-126.05949 -1.6439878 127.2755 13616311
-126.45969 -2.0882192 126.89294 12432037
-125.62178 -0.46229726 128.08746 10064262
-126.22356 -0.61188555 127.67252 9209210
-125.30209 0.4275558 128.9958 8353902
-125.89688 0.27819544 128.5722 7564643
-122.7366 1.5322186 138.9482 8419696
-124.71338 1.0284033 130.67697 8682867
-125.34821 1.0285797 130.39601 9275004
-122.38671 2.6826277 139.56145 8814198
-122.92495 2.2692595 139.15933 8551281
-122.40772 3.6065109 139.92191 8748664
-122.08994 4.6086674 140.46336 9011579
-122.64417 4.5347257 140.1898 9011579
-122.11753 5.5074 140.81145 10590095
-122.82236 5.2332854 140.39134 9011579
-121.82487 6.3906574 141.29425 11905692
-122.38017 6.3178301 141.02065 10590348
-121.98721 7.3744307 141.61708 8682607
-122.43421 7.0979109 141.30951 7893349
-121.43451 8.2594395 142.215 10853262
-122.08281 8.2673969 141.93283 8879987
-121.67822 9.518527 142.61237 11248278
-122.04456 8.9729443 142.23254 9866624
-121.16102 10.614213 143.27913 8090987
-121.8111 10.624594 142.99715 7894375
-121.39845 11.567627 143.55673 8617842
-120.82725 12.748509 144.28143 9537923
-121.41919 12.521172 143.92978 9867397
-121.10431 13.519449 144.46849 9932424
-120.73629 14.672606 145.22955 10261132
-121.23676 14.316547 144.76561 9669509
-120.37131 15.65786 146.21431 9472387
-120.83797 15.295598 145.70648 8420727
-157.00938 -71.36055 21.771835 8092011
-157.2597 -71.428841 21.034941 9736578
-158.47685 -71.323082 17.710022 9736323
-158.56792 -71.336945 17.140581 9340801
-156.52554 -70.569923 23.820492 7893608
-156.93526 -70.692818 22.916992 8156780
-157.325 -70.808861 22.007471 8092011
-157.79961 -70.78611 21.057308 9472893
-158.18108 -70.846733 20.188166 11775135
-158.3779 -71.119537 19.245283 7828070
-158.63971 -71.187798 18.30871 8881014
-159.15227 -71.134415 17.397118 8288882
-159.14711 -71.202347 16.33057 8880507
-159.4561 -71.177246 15.295975 9340801
-159.39177 -71.110878 14.321814 12169122
-160.30943 -71.008728 13.431322 10524812
-160.21758 -70.935577 12.452581 8156527
-160.12292 -70.863594 11.475565 7038307
-161.03456 -70.763153 10.566416 8024686
-160.90547 -70.677109 9.3907642 8681843
-161.30156 -70.590645 8.4387798 9208185
-161.71526 -70.518433 7.6798911 8879479
-161.59053 -70.447197 6.6990752 9537152
-162.51218 -70.358879 5.9528556 9142651
-155.99344 -69.52713 25.663279 11379356
-156.37556 -69.803284 24.712191 8945785
-156.83037 -69.770157 23.86529 8353650
-157.30667 -69.817047 22.914129 7367014
-157.74678 -69.823105 22.064537 8616304
-158.00418 -70.052177 21.390003 8616304
-162.4585 -70.33046 5.5591178 8089963
-162.34833 -70.273651 4.7725654 7563619
-162.72191 -70.186516 3.8021371 8616307
-163.08846 -70.099419 2.8288171 9077116
-162.93434 -70.0289 1.8447626 8353651
-163.81078 -69.924423 0.86803979 8222065
-163.64421 -69.854172 -0.1183608 11380895
-164.02863 -69.780411 -0.90957862 9998985
-164.37213 -69.692711 -1.9007514 9933195
-164.71379 -69.604652 -2.8975699 7038307
-165.04811 -69.516594 -3.8971655 8419700
-164.85263 -69.447083 -4.886004 9143421
-165.78801 -69.367523 -5.5134759 11380380
-155.5419 -68.521904 27.321791 8419696
-155.76454 -68.714371 26.742825 6511954
-156.15543 -68.785187 25.936687 7367263
-156.631 -68.82505 24.99243 8353648
-157.12912 -68.802567 24.053949 8879737
-157.47162 -69.069908 23.185926 8090479
-165.66475 -69.325851 -6.1086526 8090987
-165.45372 -69.252144 -6.899157 9670019
-166.29945 -69.139069 -7.73733 9537151
-166.04021 -69.053787 -8.7274647 8681843
-166.92445 -68.96196 -9.7824841 11708316
-166.65686 -68.878876 -10.774046 10129286
-167.58994 -68.802414 -11.645617 7037274
-167.36598 -68.735825 -12.440363 8617586
-167.66058 -68.64711 -13.478746 7828074
-167.94685 -68.558258 -14.519358 7695717
-167.70905 -68.491776 -15.313292 8089963
-168.69168 -68.429291 -16.017763 9339769
-155.00377 -67.507515 29.153688 9340286
-155.22694 -67.69577 28.577084 7893352
-155.59677 -67.825844 27.764654 7893352
-156.09322 -67.794945 26.836124 6511954
-156.59088 -67.766457 25.903229 6906456
-156.9339 -68.027359 25.039223 7301218
-157.11067 -68.298553 24.486273 6511962
-168.50702 -68.379356 -16.614786 8089963
-168.81461 -68.285683 -17.261831 8089963
-169.13196 -68.215363 -18.323442 8287342
-169.44308 -68.058548 -19.321775 8682097
-169.60594 -68.004082 -20.237207 8484973
-169.83075 -67.890106 -21.094549 7761512
-170.20049 -67.723923 -22.181902 8551281
-170.4501 -67.622253 -23.050192 8617075
-170.48943 -67.573189 -24.101667 9406079
-154.62215 -66.638748 30.570002 8617335
-154.97493 -66.849716 29.72699 8880249
-155.46858 -66.75798 28.851919 9340286
-156.02881 -66.809647 27.735809 7827559
-156.39343 -66.999771 26.886131 6511954
-156.64612 -67.067764 26.347483 6511954
-170.9646 -67.212204 -23.120256 9734788
-171.06499 -67.18045 -24.078657 9340030
-171.25334 -67.03965 -25.094664 7958377
-171.30379 -67.007652 -25.903227 8287342
-171.50871 -66.905411 -26.991751 7958889
-171.6613 -66.784256 -28.076025 9209467
-171.78151 -66.552246 -28.875448 9209467
-154.15916 -65.492981 32.20697 7169373
-154.43275 -65.855148 31.553774 9209472
-154.92447 -65.757553 30.683348 8618105
-155.34503 -65.860313 29.796013 7894124
-155.77353 -65.874542 28.962269 9012089
-156.13416 -66.131721 28.067568 7827815
-171.83902 -66.244728 -26.196833 8287342
-171.95049 -66.16568 -26.920744 7366752
-172.09673 -66.031921 -27.86466 7893351
-172.17331 -65.747169 -28.885344 8090730
-172.07744 -65.823151 -29.85008 7826791
-172.10295 -65.629028 -30.495596 8616307
-153.75978 -64.512245 33.282825 8813683
-154.28632 -64.732811 32.490406 8221546
-154.85936 -64.753662 31.599789 10262415
-155.25325 -64.814201 30.795195 8815227
-155.5882 -65.128189 29.906023 7104866
-172.45439 -64.968552 -28.93371 8287596
-172.38983 -64.957703 -29.90555 8221549
-172.32452 -64.948746 -30.878485 8155756
-153.48849 -63.431477 34.255497 8682867
-153.8849 -63.75523 33.566952 9997955
-154.62527 -63.798401 32.608582 8550511
-155.00745 -64.059601 31.862148 9407364
-172.73402 -64.017838 -29.895304 8089702
-172.70999 -63.905193 -30.820162 8287083
-172.68527 -63.794083 -31.746695 9603454
-153.32175 -62.528732 34.992588 8682867
-153.60017 -62.81728 34.473309 8682867
-154.27011 -62.782818 33.648991 10590092
-154.74625 -62.912312 32.97324 12432037
-173.06853 -62.897614 -30.957296 7958116
-173.02963 -62.853146 -31.739386 8813171
-172.96315 -62.846169 -32.718552 8090985
-152.91696 -61.569344 36.062664 10655886
-153.40059 -61.747768 35.348995 12563113
-153.98293 -61.84684 34.557213 8682352
-154.47052 -61.832794 33.950916 9800836
-173.31007 -62.061691 -31.863935 9207928
-173.24434 -62.066238 -32.772728 8813171
-173.25172 -61.84536 -33.812889 7761254
-173.34279 -61.442043 -34.611698 9537406
-152.7292 -60.48114 37.183083 9143166
-153.11073 -60.726429 36.447323 9866371
-153.75214 -60.81638 35.532536 10918801
-154.17007 -61.039444 34.792683 8681835
-173.55867 -61.344757 -32.054577 8813171
-173.55963 -61.229118 -32.775948 10062979
-173.63982 -60.990265 -33.678898 7563619
-173.68842 -60.787224 -34.768654 10326920
-173.71886 -60.671814 -35.776764 13550517
-151.61923 -59.295692 40.801819 8090987
-151.95212 -59.351143 40.107536 8880503
-152.2625 -59.522675 39.145744 11051416
-152.61139 -59.739914 38.266998 9406338
-153.06903 -59.8778 37.498753 7433064
-153.59625 -59.981281 36.707966 9011320
-174.1463 -60.241264 -34.555832 9537406
-174.17418 -60.123562 -35.565197 11905951
-174.35196 -59.871117 -36.492016 9800832
-174.43513 -59.681374 -37.460735 7959142
-174.3979 -59.609573 -38.332516 10458505
-144.70035 -58.502731 64.93338 10261132
-145.01219 -58.727428 64.23642 9537406
-145.53136 -58.721062 63.29594 10787988
-145.88737 -58.80912 62.450825 11445918
-146.23305 -58.864082 61.539494 11577503
-146.53806 -58.938004 60.528721 10853780
-146.89937 -58.939934 59.645237 9801348
-147.32611 -58.942242 58.58226 9340797
-147.60666 -58.943783 57.872089 8682867
-147.63712 -58.949562 54.425053 7565675
-147.96169 -58.95145 53.535091 8089963
-148.28127 -58.953346 52.643272 8089963
-148.59511 -58.955231 51.749451 10327437
-148.9648 -58.957493 50.674496 9472900
-149.26715 -58.959373 49.776707 7565675
-149.56371 -58.961243 48.876995 11051414
-149.85524 -58.963116 47.975689 9209467
-150.14088 -58.964981 47.072468 12103843
-150.47684 -58.967216 45.986431 9340286
-150.75096 -58.969074 45.079636 9340286
-151.01923 -58.970924 44.17115 7629669
-151.33415 -58.973145 43.078842 8222576
-151.67517 -59.007706 42.190353 8814711
-151.93521 -59.123676 41.279079 8354159
-152.59889 -59.15815 40.277668 8880503
-175.15559 -59.376373 -38.499279 8287083
-174.99667 -59.403488 -39.570179 8748149
-175.46249 -59.241096 -40.342464 8090477
-175.487 -59.210663 -41.461853 6511954
-176.41335 -59.148727 -43.253819 10591889
-176.20341 -59.149872 -44.103081 11380380
-177.26695 -59.154697 -46.187958 6840919
-177.48703 -59.053093 -47.159306 7893608
-177.88322 -58.803387 -48.091305 8419952
-177.76538 -58.758224 -49.163681 8879990
-177.71642 -58.613075 -49.980446 9208955
-144.8168 -57.691235 65.193199 9471872
-145.34599 -57.748592 64.382027 8945784
-145.85486 -57.905453 63.410973 9406079
-146.16994 -58.220997 62.65382 12433069
-178.12634 -58.089115 -48.24995 7893608
-178.07788 -57.942631 -49.066544 9077369
-177.99594 -57.827042 -50.06015 8945783
-144.50999 -56.712021 65.849731 7893352
-145.17677 -56.723862 65.352989 8879991
-145.59479 -56.862358 64.595078 7959145
-178.39526 -57.071865 -49.093494 8814453
-178.27226 -57.081772 -50.046112 8879990
-178.18973 -56.966801 -51.043018 8354158
-144.73694 -55.716904 66.142921 8813941
-145.39282 -56.14325 65.448891 8419696
-178.58984 -56.209972 -50.074577 9340541
-178.54477 -56.013203 -51.012924 6446418
-178.49617 -55.746494 -51.830566 6183246
-144.20485 -54.573551 66.968102 9142390
-144.79242 -54.86351 66.48008 9339769
-178.94406 -54.897411 -51.106319 7893608
-178.75636 -54.888977 -52.047153 6512211
-178.68874 -54.615345 -52.588451 5393730
-144.34326 -53.652489 67.28363 9602685
-144.98903 -53.993286 66.737579 10851980
-179.08066 -54.01693 -52.08036 7301470
-178.83322 -53.891827 -53.00642 5919050
-144.10011 -52.641186 67.87336 8221547
-144.74623 -52.978363 67.328705 9734014
-179.29956 -53.263645 -52.301029 5920074
-179.17473 -53.03447 -52.967922 5920074
-178.95146 -52.956001 -53.762207 5919306
-143.66534 -51.459766 68.655174 10260359
-144.20815 -51.771729 68.185127 7958377
-179.44237 -52.205753 -53.126408 6511954
-179.21866 -52.127434 -53.921848 7301470
-179.09285 -51.899593 -54.590466 10261382
-143.69589 -50.605785 69.007896 10063237
-144.42696 -50.855919 68.448784 10983825
-179.62103 -51.061848 -53.943214 8814452
-179.38588 -50.904263 -54.869915 11577244
-143.26517 -49.5438 69.735245 9209467
-143.92361 -49.718166 69.25383 8616050
-179.80467 -49.863541 -54.80983 11051155
-179.53008 -49.862144 -55.672413 12696239
-142.99483 -48.272858 70.454636 8485232
-143.60992 -48.675362 69.900734 8880246
-144.2915 -48.917305 69.375694 8089963
-180.04234 -49.18388 -54.883072 10261382
-179.84637 -48.95599 -55.771587 9471608
-179.6498 -48.728939 -56.660698 9209467
-143.12422 -47.618683 70.659607 8682867
-143.76263 -47.800327 70.187416 8091503
-180.12343 -48.162277 -55.858448 8484714
-179.92651 -47.935154 -56.748871 8353902
-143.29651 -46.650391 70.974808 7433316
-143.88246 -47.006779 70.458847 7828589
-180.40067 -47.367897 -55.945438 5919050
-180.20346 -47.140644 -56.837177 6248015
-180.00575 -46.914165 -57.72958 5919050
-142.8726 -45.560467 71.818954 7038307
-143.55519 -45.776402 71.24086 7433573
-180.54562 -46.308777 -56.786812 5919562
-180.41597 -46.018467 -57.725277 5787720
-180.43623 -45.59264 -58.588612 5787978
-142.21324 -44.23914 73.932053 8222317
-142.80475 -44.557056 72.872887 8814201
-143.21609 -44.974705 72.134247 7038307
-180.951 -45.17247 -58.034744 7038307
-180.89516 -44.963718 -58.738281 6117200
-180.68988 -44.89587 -59.554787 6512215
-139.3947 -43.438618 84.396393 7892835
-139.70644 -43.811207 83.442001 7564393
-139.77023 -43.893066 82.342209 8814201
-140.26346 -43.895096 81.499336 9669251
-140.75119 -43.897118 80.653336 7038298
-141.23419 -43.899147 79.804581 8616819
-141.26054 -43.904705 76.487701 8616560
-141.62695 -43.906307 75.806381 7432800
-142.34492 -43.962242 74.872681 7959144
-142.90677 -44.026154 74.292068 7235421
-181.34019 -44.45393 -60.577248 8814968
-181.52364 -44.321648 -61.611668 8485747
-181.69305 -44.187588 -62.646503 8485491
-138.95848 -42.567081 85.047714 8089955
-139.58847 -42.691704 84.603844 8353128
-139.1528 -41.577312 85.361137 9405820
-139.69115 -41.918476 84.879089 8287335
-138.75153 -40.633896 86.02227 8288109
-139.31497 -40.785816 85.607567 10261132
-138.85434 -39.714355 86.361473 8353646
-139.50298 -39.996902 85.836929 7563619
-138.53656 -38.50169 87.088966 8485233
-139.09366 -38.864666 86.585724 8748661
-138.10732 -37.60284 87.747856 9405819
-138.73956 -37.71558 87.307838 9077369
-138.26961 -36.610542 88.082199 9997185
-138.86455 -36.777729 87.641342 9537149
-137.78061 -35.346043 88.938187 8682867
-138.35098 -35.695164 88.432831 9405819
-138.15538 -34.577263 89.04332 8945526
-138.70491 -34.836647 88.590195 8682867
-137.54828 -33.607388 89.843285 8879734
-138.13557 -33.685947 89.445938 9077369
-137.66817 -32.670769 90.179359 9076857
-138.30368 -32.772415 89.741837 9011576
-137.44612 -31.479099 90.837212 7498854
-137.93503 -31.861019 90.367935 9603202
-136.98982 -30.444094 91.722748 7564392
-137.57945 -30.689476 91.161324 7367013
-138.18973 -30.940767 90.612061 9340286
-136.86369 -29.388206 92.954086 7104097
-137.36279 -29.768169 92.130356 8616822
-137.77501 -30.123213 91.528549 8353651
-133.72723 -28.317371 103.40057 8419440
-134.34052 -28.504023 103.01643 10261132
-134.42957 -28.855684 100.70744 9405564
-135.15346 -28.858221 99.733749 9734528
-135.75154 -28.860289 98.918457 10194564
-136.20464 -28.944822 94.799469 8617331
-136.85193 -28.986963 94.275002 9012089
-133.79619 -27.525349 103.69207 9340541
-134.42801 -27.822338 103.25325 8813686
-133.46129 -26.647163 104.2213 10788241
-134.16307 -26.644335 103.87088 13090223
-133.56799 -25.639881 104.58249 10590862
-134.29324 -25.743628 104.17641 14076861
-133.30016 -24.43314 105.21361 9473151
-133.79591 -24.777166 104.82359 9998726
-133.42867 -23.562471 105.50824 9012346
-134.02486 -24.067909 105.00137 9209467
-132.89589 -22.545536 106.19417 9341310
-133.49028 -22.582413 105.88142 8420725
-133.15562 -21.732775 106.39921 9538948
-132.61964 -20.561291 107.1505 11576471
-133.21611 -20.781689 106.76102 11182486
-132.70541 -19.590532 107.50775 10655369
-133.34315 -19.874292 107.07145 13023917
-132.40579 -18.494169 108.10974 10392197
-133.06996 -18.694103 107.69473 10129025
-132.4642 -17.539652 108.47395 8747889
-133.1962 -17.783142 108.00697 8681835
-132.18947 -16.484882 109.04633 9011320
-132.69037 -16.820242 108.6573 8419184
-131.73889 -15.22535 110.01068 9932678
-132.29973 -15.65829 109.40306 9537920
-132.91695 -16.098997 108.84119 9406334
-131.46747 -14.397291 110.86076 10854036
-132.02219 -14.66382 110.3536 10130570
-128.94421 -13.459809 120.97655 6840669
-129.30632 -13.818699 118.99674 8615791
-130.02049 -13.820907 118.21644 6971481
-131.33638 -14.024197 112.10881 9077627
-131.89842 -14.042127 111.76786 10065291
-128.64706 -12.373648 121.57151 9011320
-129.14108 -12.775947 121.15952 8222318
-128.69115 -11.511291 121.90413 7959659
-128.28441 -10.563802 122.4968 13222322
-128.78183 -10.720255 122.18427 8551794
-128.43597 -9.555707 122.83571 13353653
-128.08878 -8.389699 123.48849 8681843
-128.58768 -8.544487 123.17592 10195337
-128.17862 -7.5927749 123.77139 10063494
-127.61324 -6.7105656 124.41634 10129030
-128.22134 -6.7201233 124.10901 9734273
-127.23028 -5.174356 125.23921 8681843
-127.85335 -5.6751838 124.72237 8879221
-127.56925 -4.4468017 125.3693 9799809
-128.07047 -4.5988593 125.05664 9010035
-127.65852 -3.6410024 125.65617 10063237
-127.08959 -2.7544494 126.30466 8353134
-127.70033 -2.7589595 125.99811 10326921
-126.70376 -1.2048236 127.13542 7564643
-127.33006 -1.7059581 126.61662 9932164
-126.99813 -0.42910796 127.42837 7564387
-127.43858 -0.76391232 126.95103 7563619
-126.68275 0.46326119 128.33966 8156779
-127.10532 0.1274458 127.84203 7564643
-124.02608 1.5333701 138.38049 12235172
-125.96825 1.0286458 130.09744 9932934
-126.5854 1.0286561 129.79337 11248537
-123.68446 2.547924 138.93608 10459019
-124.20466 2.2257574 138.57809 11314327
-123.3282 3.8423429 139.61127 8682867
-123.77483 3.5664437 139.30415 8682867
-123.2914 4.5387321 139.90656 7498857
-123.9399 4.5427871 139.62277 8682867
-122.94143 5.7002602 140.52609 9011579
-123.53063 5.471828 140.17528 9998215
-122.99622 6.4794049 140.81427 10326923
-123.6784 6.3298726 140.45409 9997954
-123.26168 7.2944455 141.02414 6906715
-122.73248 8.2754507 141.65024 6972246
-123.29116 8.2039003 141.37563 7366490
-122.28302 9.9211025 142.50751 9142643
-122.93595 9.3227816 141.98041 9931902
-122.62776 10.717013 142.6748 9274487
-123.08777 10.249613 142.28505 9142643
-122.60386 11.541244 143.01566 9472381
-122.23717 12.61653 143.60803 9998983
-122.77871 12.467581 143.30998 10854036
-122.31244 13.496454 143.92754 9341309
-122.05415 14.702862 144.67607 9537923
-122.42166 14.3838 144.28798 9209468
-121.69174 15.689765 145.66104 10261132
-122.15907 15.327174 145.15268 8880247
-120.7974 16.941231 150.75497 9735812
-158.82019 -70.608765 19.297935 7498853
-159.30568 -70.539062 18.38419 6643802
-159.6666 -70.652695 17.452385 8748916
-160.01831 -70.76458 16.516714 8222574
-160.4366 -70.727966 15.535065 8682611
-160.52831 -70.910133 14.618034 9998213
-160.8197 -70.887589 13.76605 10787986
-161.2997 -70.782059 12.666403 8616821
-161.45638 -70.742928 11.766081 8484979
-161.84563 -70.647079 10.815042 9208444
-162.06932 -70.597473 9.7518749 11839645
-162.22562 -70.525574 8.8793049 11774108
-162.65012 -70.451233 7.9202704 8287085
-162.61673 -70.416069 6.7413688 10984598
-158.32594 -69.66555 21.076895 9405819
-158.66737 -69.885307 20.248356 7827559
-159.16835 -69.819397 19.338705 7170145
-159.67079 -69.755241 18.424757 7301474
-160.04637 -69.924515 17.570486 9932160
-160.43268 -70.007576 16.753294 8090470
-160.65414 -70.307785 15.995106 5920074
-163.34312 -70.251167 6.7710776 8287342
-163.38255 -70.256363 5.984426 8813429
-163.39969 -70.25119 4.999929 7563619
-163.56613 -70.154007 4.1505599 9340030
-164.12857 -70.068314 3.2420824 9866375
-164.004 -70.009163 2.0542314 7301478
-164.84444 -69.884499 1.2702768 8813945
-164.72319 -69.83316 0.079118453 8682867
-165.22778 -69.727943 -0.84968406 8682867
-165.46095 -69.670532 -1.7143271 8682867
-165.31374 -69.614365 -2.5092947 7038307
-166.17798 -69.504372 -3.5235808 9143166
-165.94899 -69.423248 -4.7185884 9867142
-157.70085 -68.469917 23.218491 7564392
-158.04651 -68.795631 22.298458 9406077
-158.55138 -68.87429 21.267401 9997698
-159.01076 -68.810295 20.436035 8419439
-159.47267 -68.785767 19.568705 7893866
-159.84872 -68.950729 18.716883 6841181
-160.16133 -69.233406 17.894323 7367005
-166.81303 -69.315063 -5.748877 8090987
-166.63976 -69.256767 -6.5467744 9143675
-166.98427 -69.172531 -7.3668962 9537151
-167.28981 -69.078751 -8.3892536 11050387
-167.55086 -68.967163 -9.4150524 11050387
-167.90433 -68.896622 -10.448778 12497831
-168.24463 -68.738274 -11.42021 10918801
-168.44214 -68.683876 -12.316824 8354159
-168.6824 -68.564293 -13.151617 8354158
-168.9269 -68.455437 -14.194811 6445650
-168.82137 -68.450073 -15.209913 8879475
-157.16112 -67.429291 25.074276 8353648
-157.50739 -67.748138 24.158377 7169891
-157.93005 -67.86998 23.251068 7301220
-158.43021 -67.794312 22.350653 9142905
-158.8685 -67.835625 21.476742 10918798
-159.3078 -67.87928 20.599216 7958632
-159.62073 -68.155571 19.780897 5393738
-169.49533 -68.227005 -15.06547 8090730
-169.63098 -68.076538 -16.107637 8419438
-169.7951 -67.931023 -16.949041 8090219
-170.04338 -67.829826 -18.008814 8813428
-170.09552 -67.811745 -18.981627 8747892
-170.34998 -67.679222 -20.118628 8551027
-170.60753 -67.454498 -20.982988 8287856
-170.63348 -67.506416 -21.821066 8484973
-156.61855 -66.403572 26.923647 7563614
-157.01437 -66.685043 25.94212 8156264
-157.3882 -66.83136 25.109341 7761510
-157.88979 -66.805923 24.166506 7169633
-158.31192 -66.870514 23.305378 7038047
-158.76433 -66.823471 22.473982 7695719
-159.07762 -67.093552 21.659817 9537665
-170.50612 -67.280296 -18.058615 9931137
-170.63283 -67.174698 -18.987123 8879221
-170.85548 -66.91256 -19.929163 10064006
-170.98521 -66.858147 -20.821413 9143163
-171.04707 -66.934029 -21.874765 8287342
-171.22026 -66.81057 -22.9457 8419184
-171.3815 -66.673134 -23.808279 9537409
-171.55624 -66.541992 -24.675585 8484976
-156.0732 -65.392258 28.767103 8814710
-156.42081 -65.697815 27.859056 6249039
-156.80777 -65.754555 27.071539 7234906
-157.34465 -65.776184 26.023996 7168857
-157.76656 -65.835083 25.167759 6511444
-158.1602 -65.869705 24.384834 7564645
-158.53204 -66.047043 23.531385 7564645
-171.18419 -66.172546 -20.219301 11905692
-171.29707 -66.086067 -20.93033 8287856
-171.42757 -66.017754 -21.854837 8090220
-171.60353 -65.828537 -22.788191 8287342
-171.72643 -65.825851 -23.857412 9142651
-171.79137 -65.952805 -24.836992 8551281
-171.92464 -65.884758 -25.787066 8485231
-172.15314 -65.579514 -26.811762 8418923
-172.26476 -65.500511 -27.53784 7760994
-155.60918 -64.414856 30.427076 8618105
-155.84172 -64.614441 29.823978 7762280
-156.21162 -64.777084 28.98583 7827815
-156.69658 -64.768082 28.061998 7038299
-157.13365 -64.792549 27.203779 6971992
-157.57161 -64.818703 26.342508 6511185
-157.89885 -64.992683 25.577347 6839893
-171.87759 -65.094879 -22.825514 9011065
-172.02858 -64.951149 -23.68973 8748148
-172.16875 -64.915863 -24.808474 8156264
-172.25244 -64.969185 -25.716349 8090470
-172.43582 -64.778679 -26.715292 8484970
-172.52333 -64.87439 -27.793249 8813678
-172.58968 -64.692726 -28.444166 9208435
-155.23247 -63.57634 31.809929 8222833
-155.6611 -63.782394 30.825247 10525330
-156.14607 -63.767948 29.906433 9670020
-156.58298 -63.787094 29.052801 7630692
-157.02066 -63.80793 28.196215 7367264
-157.43333 -63.998348 27.25412 8945523
-172.30383 -64.343712 -24.151293 8287850
-172.43713 -64.182877 -24.80596 8090214
-172.64763 -63.903885 -25.756765 8287850
-172.73926 -63.900005 -26.550489 8945520
-172.82607 -63.993881 -27.629946 9076849
-172.80667 -64.050789 -28.694662 8945264
-172.92519 -63.571072 -29.500181 8286824
-155.00877 -62.696114 32.768608 8813683
-155.50214 -62.797527 31.905283 8485490
-156.02927 -62.795204 30.896191 9341054
-156.46704 -62.810951 30.044138 11511197
-156.8745 -62.886063 29.202864 11445407
-172.98 -63.255222 -26.588491 8484714
-173.12367 -63.168201 -27.593111 8484714
-173.22955 -62.91066 -28.605753 8089701
-173.20569 -62.780212 -29.620707 8746861
-173.16759 -62.733814 -30.401724 7037785
-154.91161 -61.663376 33.493793 12564142
-155.33089 -61.775555 32.899921 9340286
-155.80963 -61.836964 32.071236 8419439
-156.31792 -61.897263 31.049452 8419951
-173.50951 -62.104504 -28.81418 7366493
-173.54413 -61.867569 -29.550821 7695201
-173.42189 -61.990364 -30.648317 6511954
-173.45564 -61.755314 -31.38751 7563619
-154.45708 -60.287949 35.247112 9931905
-154.59785 -60.650032 34.653732 8681835
-155.08815 -60.803719 33.87225 9142650
-155.68591 -60.868057 33.038673 8747893
-156.02011 -61.083958 32.26012 8550768
-173.75237 -61.265709 -29.716333 7826530
-173.88046 -60.951859 -30.529467 7629410
-173.84799 -60.916912 -31.459661 7958120
-173.90723 -60.707981 -32.466557 9010550
-153.51265 -59.314026 38.351643 10261132
-153.84256 -59.372066 37.647854 8616823
-154.1396 -59.573952 36.660351 11445405
-154.52654 -59.847496 35.702446 9273974
-155.12587 -59.906857 34.87516 8681835
-155.39877 -60.109356 34.282185 7563619
-174.39436 -60.144054 -31.776423 8813171
-174.48529 -59.971909 -32.444946 8616049
-174.48444 -59.954823 -33.460155 8418670
-174.66759 -59.715248 -34.35387 8353133
-174.82852 -59.540916 -35.348885 8879477
-146.36115 -58.237999 62.319023 12433069
-146.7283 -58.433685 61.559513 11709089
-147.25008 -58.524181 60.614151 10590608
-147.72794 -58.571873 59.773464 10393485
-148.20598 -58.621643 58.93108 9998727
-148.13306 -58.902145 57.87318 10656913
-148.02031 -58.946083 56.803947 10525329
-148.42653 -58.948383 55.73296 7565675
-148.75928 -58.950294 54.838367 10459537
-149.08632 -58.952202 53.941647 10590865
-149.40833 -58.954109 53.04306 9142907
-149.72455 -58.956009 52.142437 10787987
-150.09706 -58.958286 51.059307 10920087
-150.4017 -58.960178 50.154716 9012606
-150.70053 -58.96207 49.248241 11314586
-151.05211 -58.964329 48.158077 9932933
-151.33928 -58.966209 47.247787 9209467
-151.62057 -58.968086 46.335705 8155756
-151.89677 -58.969955 45.422028 11182489
-152.16708 -58.971825 44.506584 11709345
-152.48442 -58.97406 43.406021 7235685
-152.74295 -58.975918 42.487183 7762027
-152.99562 -58.977768 41.566685 8485745
-153.24307 -58.979622 40.644878 9341054
-153.35742 -59.103367 39.610077 10459023
-153.88052 -59.146851 38.738247 9406081
-175.58095 -59.305264 -35.501225 7563619
-175.46198 -59.324806 -36.357853 8485229
-175.31061 -59.350075 -37.428482 8485229
-176.00824 -59.139866 -38.242882 7366494
-175.81163 -59.153545 -39.309952 7563362
-176.92113 -59.145828 -41.126579 6511954
-176.67067 -59.147282 -42.19099 8814451
-177.86307 -59.151535 -43.836086 8945527
-177.7567 -59.081177 -44.946808 6775126
-178.15627 -58.786716 -45.962257 7564387
-178.11276 -58.596722 -46.867317 7893608
-146.14833 -57.411045 63.268574 9142907
-146.46501 -57.640438 62.570267 11577760
-146.94374 -57.68351 61.731373 10393485
-147.51837 -57.737671 60.722797 11314331
-147.94296 -57.847218 59.927959 11248794
-148.21729 -58.010895 59.348007 10656913
-178.46664 -57.994293 -45.814304 8090219
-178.38872 -57.853542 -46.848991 8484977
-178.30832 -57.734711 -47.839211 8288109
-145.83768 -56.579334 64.387123 7564131
-146.30716 -56.732498 63.485104 7760998
-146.85774 -56.606052 62.64592 8813940
-147.28493 -56.752323 61.820351 9997957
-147.70512 -57.044861 60.902172 12629675
-178.70595 -56.984089 -46.872147 8089963
-178.58803 -56.949356 -47.915276 8484720
-178.54349 -56.760303 -48.826454 9406590
-145.68584 -55.648403 65.308609 8156267
-146.10175 -55.794727 64.501907 9800837
-146.5752 -55.781952 63.711597 9735553
-147.14496 -55.779015 62.751736 10722189
-178.93904 -56.04266 -47.779652 9471870
-178.78339 -56.086418 -48.892979 9603969
-178.787 -55.682106 -50.053162 7893608
-145.38629 -54.630131 66.215889 8156010
-145.94962 -54.77795 65.4851 7432032
-146.49077 -54.697472 64.628906 9800324
-146.83267 -54.945824 63.874233 10722189
-179.14803 -55.377407 -48.067459 7959144
-179.17651 -55.045345 -48.816368 9406590
-179.07635 -54.992977 -49.769859 9209211
-179.12437 -54.575417 -50.614326 8814710
-145.57228 -53.648521 66.527527 9602686
-146.23788 -53.844547 65.665192 8550513
-146.5334 -54.217812 64.899719 8287341
-179.50394 -54.06266 -49.092442 10854036
-179.49023 -53.86375 -49.786461 9341054
-179.32973 -53.950325 -50.813061 8946296
-179.31351 -53.709846 -51.602596 7893608
-145.257 -52.558838 67.196709 9010805
-145.98318 -52.815475 66.625023 9734014
-179.69926 -53.19685 -50.078316 7893608
-179.68524 -52.998192 -50.774799 8090987
-179.55267 -53.032864 -51.672318 8090987
-179.45805 -52.81192 -52.347824 7761765
-144.82738 -51.482498 67.92955 7563619
-145.51195 -51.735981 67.397736 8287084
-179.92586 -52.321655 -50.843601 9735812
-179.90843 -52.07959 -51.635124 8551538
-179.67691 -52.057899 -52.569168 7104091
-145.02037 -50.614429 68.188461 8484463
-145.59175 -50.807739 67.752411 8089705
-180.11134 -51.451843 -51.835022 8682867
-180.09555 -50.946472 -52.594849 7630180
-179.89876 -50.772961 -53.420292 8222316
-144.50278 -49.366108 69.050369 8089963
-145.07036 -49.766018 68.526756 9339514
-180.34209 -50.096813 -52.84478 7893612
-180.20457 -49.821873 -53.606655 9340540
-144.8945 -48.550625 69.16391 10852238
-145.31493 -48.970459 68.722282 10128516
-180.49034 -49.006142 -53.692757 9932423
-180.23961 -48.882339 -54.627617 9734781
-144.33009 -47.595982 69.926826 8353134
-144.92471 -47.723042 69.505341 8681584
-180.77211 -48.280704 -53.682671 9143166
-180.57643 -48.051151 -54.572433 9603201
-180.3802 -47.822369 -55.462727 8681835
-144.48584 -46.664288 70.236298 6709334
-145.12891 -46.818001 69.773415 8681584
-180.85439 -47.25658 -54.657398 8353651
-180.65779 -47.027763 -55.549015 6972512
-144.17661 -45.38356 71.173889 7038557
-144.64153 -45.853474 70.540009 6775127
-181.13263 -46.461319 -54.742428 8090736
-181.01781 -46.164764 -55.581242 7695716
-180.96626 -45.757725 -56.505074 5920074
-143.84605 -44.689842 72.017067 7038304
-144.52779 -44.795471 71.490105 6841177
-181.51666 -45.031551 -56.613888 8813682
-181.31317 -44.961796 -57.429779 5919818
-181.25771 -44.752525 -58.133556 7038307
-140.55621 -43.557343 83.626724 7235685
-141.32451 -43.790485 82.913879 7038307
-141.71169 -43.901169 78.952713 8616560
-142.27817 -43.903599 77.926895 9668734
-142.74478 -43.905621 77.069008 7564129
-143.20583 -43.907639 76.208122 7432800
-143.57133 -43.909252 75.517632 7959144
-143.32849 -44.074615 73.854988 8814201
-143.89204 -44.140301 73.270767 7893358
-144.31471 -44.190067 72.831055 7038307
-181.97694 -44.449371 -58.606133 5392706
-181.69511 -44.451027 -59.482517 5919309
-182.5063 -44.184608 -60.234947 7235169
-182.21437 -44.185696 -61.113159 7762027
-183.64041 -44.192001 -63.812542 7563619
-140.10294 -42.516014 84.362862 8813680
-140.78316 -42.724236 83.851379 7169892
-140.37097 -41.599983 84.598434 8682095
-140.81831 -41.931034 84.177063 8156268
-139.91705 -40.590984 85.320831 8418928
-140.64958 -40.792961 84.779755 8813942
-140.06526 -39.608864 85.659424 8221549
-140.65546 -39.936661 85.151199 7563619
-139.77267 -38.539425 86.30867 9340798
-140.31712 -38.774147 85.869392 9011321
-139.25409 -37.531322 87.070663 9143419
-139.91412 -37.658165 86.607208 8682356
-140.56189 -38.09024 86.017754 8089963
-139.41371 -36.656555 87.355118 9011833
-140.05971 -36.674889 86.947899 8419184
-139.59621 -35.655682 87.680717 9734528
-140.17052 -36.009014 87.171104 8089963
-139.25827 -34.633972 88.337036 9997185
-139.86038 -34.755089 87.911942 10851980
-138.7542 -33.626675 89.089691 9010550
-139.39284 -33.731792 88.648865 9339514
-138.94879 -32.531174 89.447937 8485233
-139.48859 -32.956192 88.928352 8353134
-138.61284 -31.519665 90.097458 9603202
-139.25587 -31.647484 89.6437 9143163
-138.76839 -30.598223 90.513443 9537665
-139.27887 -31.040447 89.894485 9011576
-137.98633 -29.370199 92.146713 7564392
-138.54964 -29.73457 91.402466 9208702
-134.91165 -28.412294 102.76807 9537409
-135.61694 -28.53853 102.36266 10063753
-136.34431 -28.862455 98.099396 9668730
-136.93246 -28.864571 97.276932 9537144
-137.39937 -28.866264 96.616379 9077110
-137.32678 -29.01664 93.872665 7564643
-137.96034 -29.056707 93.334015 7564392
-138.59428 -29.097244 92.793533 9208702
-134.55965 -27.419039 103.35325 10261132
-135.28697 -27.682882 102.88023 9866374
-134.75711 -26.502499 103.63159 10787474
-135.35342 -26.733957 103.2375 9340285
-134.84898 -25.535015 103.98392 12103330
-135.48622 -25.830297 103.54308 8682867
-134.51183 -24.653904 104.51595 13485237
-135.15343 -24.663643 104.19067 9735041
-134.62042 -23.640594 104.8793 10524556
-134.24101 -22.560061 105.51471 7565675
-134.72887 -22.729435 105.20062 7564133
-133.74825 -21.144817 106.34482 10065035
-134.34851 -21.648237 105.83677 7828847
-133.83333 -20.456289 106.58608 10920086
-134.45531 -20.630381 106.20291 9209984
-133.47336 -19.464983 107.17497 13023917
-134.20703 -19.712799 106.70547 10459020
-133.66716 -18.536751 107.46059 8681837
-134.26868 -18.755466 107.06925 8616304
-133.75446 -17.559322 107.81982 9076857
-134.39745 -17.841606 107.38151 10853524
-133.41023 -16.678766 108.35515 8879734
-134.05597 -16.673086 108.03415 8682099
-133.11972 -15.280483 109.27296 8682355
-133.51747 -15.777632 108.70685 8748404
-132.65228 -14.441646 110.2303 9406334
-133.20909 -14.709379 109.72112 7629667
-130.15504 -13.497378 120.35686 9931904
-130.44682 -13.822229 117.74619 8419184
-130.87111 -13.823553 117.27426 7761254
-131.5746 -13.825727 116.48427 8616306
-132.46167 -14.060263 111.4256 8814971
-133.21411 -14.084778 110.96767 8353905
-129.86174 -12.537858 120.89785 7827303
-130.47432 -12.75047 120.50473 10984591
-129.90457 -11.543445 121.28543 8880503
-129.54449 -10.666761 121.82564 6381400
-130.15341 -10.681826 121.51564 7894122
-129.65195 -9.5825224 122.21793 7762537
-129.35239 -8.4869614 122.81799 9208443
-129.96286 -8.4991264 122.5084 7827558
-129.3972 -7.6143327 123.1545 8089963
-128.98712 -6.6591659 123.75191 9077114
-129.48909 -6.8132243 123.4381 8747893
-128.44887 -5.1895261 124.62489 9207155
-129.07411 -5.6917205 124.10642 9273720
-128.83833 -4.5341191 124.70006 11707033
-129.45146 -4.5410361 124.3913 9207155
-128.88226 -3.6523635 125.04079 9930622
-128.56314 -2.455287 125.69303 9141878
-128.97395 -2.8422492 125.3287 9667706
-127.92823 -1.2100972 126.5231 9142649
-128.50757 -1.5826695 126.08067 8616305
-128.22581 -0.43248737 126.81496 7432291
-128.66754 -0.76814449 126.33686 8945786
-127.91246 0.46203041 127.72688 7433061
-128.33571 0.12541233 127.22823 7300963
-124.88886 1.5341762 138.0007 11380380
-125.32143 1.5346102 137.81029 10459278
-127.20395 1.0286639 129.48875 10064262
-127.82407 1.0287187 129.18344 11708573
-124.83782 2.524725 138.41898 10787985
-125.50274 2.2286599 138.00763 10459278
-124.56527 3.6164649 138.97632 9538175
-125.12337 3.5415814 138.70065 9011832
-124.73263 4.5944943 139.29465 8880503
-125.18092 4.3175516 138.98636 8090987
-124.18066 5.4770293 139.89125 8879989
-124.83244 5.4822288 139.60651 9538175
-124.4529 6.5326161 140.1945 8813936
-124.79693 6.1840696 139.90344 8813936
-123.85493 7.5829906 140.87869 5920074
-124.44738 7.3546772 140.52644 6972504
-124.06682 8.4102955 141.11699 8156263
-124.62972 8.0634623 140.73026 7367005
-124.17976 9.1918383 141.38052 9142644
-123.82298 10.57851 142.09326 9866366
-124.24332 9.9513483 141.65694 10787211
-123.19962 11.83815 142.8725 10854036
-123.91399 11.564898 142.44856 11708313
-123.6005 12.563482 142.98672 12037537
-124.19683 12.335486 142.63292 11379607
-123.62536 13.524195 143.36084 10195848
-123.26432 14.485005 143.98788 8682867
-123.80848 14.250747 143.57143 10129798
-123.01334 15.557041 144.98257 8024937
-123.42041 15.23312 144.52003 8682867
-121.76215 16.466167 150.09996 9340285
-121.1972 17.544912 150.80521 9471616
-121.84665 17.128422 150.32542 9866374
-121.4782 18.447224 151.04044 9208187
-121.40361 19.446613 151.50406 8681843
-121.71307 18.952621 151.14447 9734531
-121.59403 20.205667 151.73935 8418928
-161.14697 -70.469078 14.673473 9011320
-161.42828 -70.56324 13.915571 10854036
-161.64981 -70.632851 13.150686 8287343
-162.18015 -70.349457 12.014383 9208187
-162.3916 -70.412743 11.047239 9931651
-162.51932 -70.44223 10.073294 12891820
-160.67706 -69.518135 16.679951 8813936
-161.02261 -69.7491 15.834743 6643539
-161.50282 -69.814598 14.84453 9011320
-161.93097 -69.829758 13.957441 9603713
-162.20638 -69.915161 12.997904 8287857
-162.56493 -69.800468 12.041731 8813687
-162.80049 -69.873375 11.074049 9997702
-163.13 -69.750175 10.109827 10524043
-163.35789 -69.824478 9.1369648 9866370
-163.56616 -69.892708 8.1611729 8155755
-163.77142 -69.903313 7.2324653 7826791
-164.12782 -69.859314 6.2087493 9142651
-164.37981 -69.774216 5.2768226 8089963
-164.70694 -69.683113 4.377111 10722195
-164.91853 -69.73214 3.3364313 8287598
-165.12784 -69.718933 2.3858049 8090220
-165.48293 -69.673347 1.4739664 10261132
-165.77168 -69.552971 0.4781892 8879737
-165.97151 -69.557762 -0.454119 8419443
-166.21439 -69.503441 -1.5222838 8222066
-166.23225 -69.517708 -2.5233672 8090736
-160.22556 -68.572884 18.291111 7235938
-160.45213 -68.782471 17.691214 6775125
-160.91048 -68.796036 16.800701 9735037
-161.40451 -68.823112 15.831255 7893094
-161.84808 -68.82373 14.979723 8879734
-162.27365 -69.026596 13.985456 9932678
-162.56355 -69.116959 13.024973 9142650
-162.82724 -69.198509 12.060045 8484979
-163.09077 -69.282555 11.092615 10523787
-164.03543 -69.136444 8.1832409 9011065
-164.24623 -69.210709 7.4008498 9734788
-164.50299 -69.302963 6.420198 9471616
-165.45657 -69.189468 3.2664354 8089962
-165.62082 -69.253746 2.4717271 8418927
-165.8252 -69.335625 1.4762704 9142651
-166.51703 -69.142929 -0.5231002 8879995
-166.67859 -69.213074 -1.3263915 8550774
-166.85698 -69.293343 -2.3323538 8813945
-167.07069 -69.229881 -3.4089415 8222065
-167.15961 -69.24395 -4.2698884 9603454
-167.41679 -69.19265 -5.1643624 9471865
-167.58841 -69.158211 -6.1802506 9143675
-167.95613 -69.034912 -7.1261163 9471358
-168.39685 -68.800652 -8.2421856 8484721
-168.38382 -68.813591 -9.0547581 9602943
-168.74272 -68.623169 -10.195944 10524043
-168.90997 -68.511177 -11.056997 9340027
-169.1026 -68.459091 -12.160807 6445650
-159.60536 -67.700714 20.168631 5393738
-159.90971 -67.704758 19.58124 5591114
-160.28734 -67.856697 18.736691 6840923
-160.79619 -67.848526 17.766523 6183246
-161.30501 -67.785416 16.839994 9142903
-161.65465 -68.051987 15.959211 9011319
-168.99324 -68.337181 -9.2926426 7038307
-169.12042 -68.243126 -9.9807606 8550771
-169.42209 -67.946609 -11.057325 7563876
-169.54012 -67.898537 -11.987913 7498338
-169.58919 -67.949959 -13.017889 7564386
-169.76302 -67.809807 -14.060167 8090473
-169.95129 -67.670242 -14.900545 8419438
-170.06296 -67.627235 -15.839708 7959144
-159.06096 -66.642685 22.04697 9537665
-159.35965 -66.730637 21.404306 10985367
-159.74438 -66.845528 20.575367 9208956
-160.25035 -66.774353 19.660339 5920074
-160.67996 -66.906731 18.731785 8419440
-161.10574 -66.904404 17.916842 7104092
-169.85696 -67.301247 -12.216845 11380380
-169.97141 -67.205383 -12.911242 9340541
-170.17677 -66.907639 -13.752127 8550510
-170.33858 -66.796097 -14.811892 8222059
-170.4072 -66.906181 -15.769236 8419438
-170.49834 -66.981979 -16.813532 9405306
-170.69612 -66.75853 -17.830126 8418671
-170.84032 -66.621361 -18.649958 8089963
-170.95329 -66.533218 -19.357004 10064006
-158.51404 -65.599983 23.918163 7564645
-158.7475 -65.812737 23.302382 7564645
-159.19717 -65.792717 22.454971 9537665
-159.6389 -65.8311 21.577042 9537665
-160.08162 -65.871826 20.695425 8024426
-160.52556 -65.914581 19.81016 6380369
-160.82832 -66.2761 18.944338 9734788
-170.60089 -66.096733 -14.856627 7761512
-170.77444 -65.931427 -15.846251 8550512
-170.86113 -65.970421 -16.732058 9602944
-171.04652 -65.766838 -17.70178 8681843
-171.13745 -65.845329 -18.753088 9076856
-171.23654 -65.877007 -19.724493 9669249
-171.37939 -65.778931 -20.661612 10064006
-171.6105 -65.419174 -21.529039 7563619
-158.14 -64.728264 25.322769 7432544
-158.56206 -64.73175 24.509872 8090987
-158.98972 -64.848816 23.596764 6972510
-159.49486 -64.768188 22.691031 11511711
-159.92464 -64.889923 21.770668 8221549
-160.27777 -65.2146 20.837341 7563619
-160.5363 -65.290405 20.281662 5920074
-171.2108 -65.067345 -16.886637 9734788
-171.32396 -65.021706 -17.73163 8879479
-171.45998 -64.941002 -18.664465 8747893
-171.60735 -64.843491 -19.643034 8748150
-171.69795 -64.925095 -20.70138 7958891
-171.86774 -64.795021 -21.772577 8089963
-171.96007 -64.786362 -22.556162 9208444
-157.58313 -63.601322 27.279232 8945523
-157.99693 -63.793755 26.333403 6905943
-158.43752 -63.820927 25.466431 7498336
-158.94177 -63.734905 24.56661 7367006
-159.37134 -63.85051 23.651487 7103835
-159.74731 -64.027077 22.790976 8485236
-159.98334 -64.240448 22.170246 9537665
-171.72372 -64.23938 -18.715338 9405823
-171.98404 -63.853321 -19.757666 8484721
-172.07732 -63.841007 -20.538504 7892584
-172.16805 -63.923191 -21.6014 8155756
-172.25827 -64.007484 -22.666769 8682100
-172.40991 -63.862362 -23.532228 8221804
-172.58815 -63.6861 -24.531492 8353643
-172.7307 -63.593376 -25.486052 8682867
-157.11375 -62.619602 28.953411 11050650
-157.44255 -62.785515 28.191694 8945789
-157.88278 -62.807335 27.329578 8683127
-158.32397 -62.830891 26.464397 9077882
-158.81567 -62.825714 25.525276 8090730
-159.1917 -62.99651 24.669296 7038039
-159.42792 -63.205406 24.051384 6643282
-172.33382 -63.216434 -20.780542 7563619
-172.44766 -63.128269 -21.49703 7563619
-172.63864 -62.920639 -22.507105 8287342
-172.80899 -62.791233 -23.588331 8419439
-172.8812 -62.860584 -24.446836 8682867
-172.97098 -62.94936 -25.522604 8682867
-173.20003 -62.688042 -26.69433 8418665
-173.37251 -62.468998 -27.505381 7760994
-156.47107 -61.610615 30.981482 9537918
-156.84496 -61.76738 30.140652 8090734
-157.32553 -61.807594 29.18663 9143168
-157.76646 -61.82592 28.326239 8617081
-158.25763 -61.815083 27.392508 6841176
-158.63377 -61.980221 26.540798 7827815
-158.87041 -62.184772 25.925714 8814710
-173.07933 -62.03294 -23.520376 8617075
-173.20103 -62.002766 -24.493288 8485232
-173.35349 -61.858017 -25.367308 8156011
-173.4592 -61.888958 -26.39707 8155495
-173.61372 -61.823368 -27.544573 8353129
-173.65392 -61.801224 -28.337492 7498083
-156.12091 -60.491123 32.868343 9340286
-156.41722 -60.639259 32.08886 9274747
-156.73779 -60.824352 31.228838 10721934
-157.15117 -60.861362 30.377583 8024939
-157.65614 -60.815407 29.44253 8617081
-158.01773 -60.939812 28.60537 8945789
-158.3965 -61.198811 27.61195 5920074
-173.45915 -61.376461 -24.743814 8287853
-173.6758 -60.999794 -25.415781 7695461
-173.84273 -60.944782 -26.367517 7760996
-173.93118 -60.992908 -27.295649 7892581
-174.10455 -60.820763 -28.391935 8353394
-174.08528 -60.768959 -29.299559 8090480
-174.22954 -60.482719 -30.23102 7433064
-155.32451 -59.326294 36.033592 9273974
-155.66515 -59.480618 35.028336 8418668
-155.98254 -59.793335 33.967281 7563619
-156.47301 -59.878315 33.177246 8222065
-156.87572 -59.940742 32.336231 8617076
-157.2491 -60.117569 31.329229 10261384
-157.48961 -60.16753 30.7862 8090987
-174.4106 -60.408905 -27.8883 8287080
-174.61459 -60.064903 -29.216692 7630186
-174.71158 -59.860703 -30.18548 8419700
-174.7462 -59.836594 -31.232885 8090987
-175.06937 -59.569592 -32.045593 8090987
-175.14909 -59.492859 -33.005604 9537920
-148.83162 -58.648685 57.855671 14210247
-149.25818 -58.737789 57.07206 9012606
-149.6833 -58.772762 56.204075 8355189
-150.13765 -58.691555 55.386646 10394512
-150.31259 -58.887154 54.487411 11380636
-150.61458 -58.955269 53.266888 10064520
-150.93243 -58.957184 52.359089 10131083
-151.24457 -58.959091 51.449356 8223091
-151.55151 -58.961002 50.537811 7894383
-151.8526 -58.962906 49.624374 9735560
-152.20689 -58.965179 48.525936 9143168
-152.49617 -58.967079 47.608673 7300963
-152.77972 -58.968967 46.689621 7563619
-153.05795 -58.970852 45.768951 12959669
-153.33038 -58.972733 44.846542 12302248
-153.65009 -58.974987 43.737541 9736578
-153.91064 -58.976864 42.811737 8092011
-154.16524 -58.978725 41.88422 9208443
-154.41458 -58.980587 40.955288 7366239
-154.658 -58.982445 40.024784 6971995
-154.94287 -58.984673 38.90633 7565674
-154.84447 -59.084785 37.892284 8485749
-155.24643 -59.1539 37.001457 8747634
-155.91003 -59.115829 36.366787 10853012
-175.86842 -59.259563 -33.360687 9340286
-175.78352 -59.272869 -34.002766 9340286
-175.6685 -59.291153 -34.859161 8550512
-176.49928 -59.136604 -35.908424 9077367
-176.27983 -59.138092 -36.970299 9800575
-177.45032 -59.142593 -38.779839 7958120
-177.21349 -59.144073 -39.847347 7958120
-178.32753 -59.148911 -41.906231 8814451
-178.30362 -59.002766 -42.717014 10656397
-178.42229 -58.818893 -43.746593 9932422
-178.30034 -58.849812 -44.627987 7038298
-148.16061 -57.597679 59.738796 11577503
-148.59886 -57.642803 58.966717 9538433
-149.11955 -57.698463 58.048092 9998983
-149.59937 -57.751656 57.20031 7960432
-149.96962 -57.931 56.44717 8355189
-178.70352 -58.341747 -42.904827 10853012
-178.69875 -58.070446 -43.739311 10195338
-178.6322 -57.900375 -44.769485 9208699
-178.65723 -57.538036 -45.634476 8089963
-147.9727 -56.522083 60.82375 12431781
-148.33411 -56.800934 60.01469 11050642
-148.82579 -56.734085 59.232449 9406591
-149.45937 -56.712967 58.178139 8419696
-149.77606 -56.9519 57.472889 8617075
-179.06172 -57.028164 -43.905624 9537664
-179.05017 -56.826714 -44.589344 9537664
-178.89691 -56.865738 -45.696678 10721422
-178.85373 -56.673897 -46.6045 8089963
-147.38931 -55.496628 62.540852 11182484
-147.70775 -55.726974 61.838715 11576729
-148.18929 -55.771065 60.994434 11050642
-148.82376 -55.744663 59.94231 10195592
-149.19444 -55.936817 59.17944 9341054
-149.4705 -56.101238 58.596043 6510930
-179.25951 -56.162029 -44.871639 8287853
-179.24754 -55.960884 -45.557526 9537150
-179.09366 -56.000908 -46.667938 9011063
-147.09851 -54.422581 63.799175 10787983
-147.55943 -54.702602 62.820957 9933187
-148.04205 -54.744057 61.976406 8420207
-148.52483 -54.787468 61.130299 9800833
-148.88576 -55.092049 60.303581 10590092
-179.53709 -55.071274 -45.862396 9405566
-179.4447 -55.094944 -46.529884 9471358
-179.35384 -54.983238 -47.583588 8682611
-179.43716 -54.486832 -48.377842 8682867
-146.60378 -53.418545 65.35186 7037274
-146.92484 -53.643524 64.648949 7826790
-147.40863 -53.68082 63.805492 10722189
-147.89252 -53.720024 62.960484 10525067
-148.37651 -53.760864 62.114182 8091499
-148.5999 -53.982964 61.57835 8682867
-179.7281 -54.274094 -46.681458 8879222
-179.75981 -53.912281 -47.491886 9077624
-179.67754 -53.812073 -48.44352 8946295
-179.66414 -53.612534 -49.136887 10854036
-146.2854 -52.593258 66.478966 9734014
-146.68124 -52.670612 65.755333 8287341
-147.25546 -52.661713 64.792137 8089962
-147.74055 -52.698441 63.946835 8814708
-148.07724 -53.028042 63.142937 10590862
-180.08528 -52.956951 -47.70282 10064004
-179.99821 -52.911854 -48.531086 9472381
-179.8734 -52.945507 -49.427822 9209210
-179.85973 -52.746124 -50.123615 8814710
-146.07726 -51.316341 67.232086 9734014
-146.48314 -51.738789 66.688263 8813427
-146.95876 -51.769161 65.93071 8616307
-147.53404 -51.715973 64.997406 9340030
-180.28197 -52.088703 -48.686302 9341052
-180.19424 -52.04409 -49.517117 9406846
-180.10612 -52.000317 -50.349102 9341054
