# .PCD v0.7 - Point Cloud Data file format
VERSION 0.7
FIELDS x y z rgb
SIZE 4 4 4 4
TYPE F F F U
COUNT 1 1 1 1
WIDTH 1212
HEIGHT 1
VIEWPOINT 0 0 0 1 0 0 0
POINTS 1212
DATA ascii
14.491807 -27.389057 157.47232 7893357
13.763007 -27.322145 157.14786 8616307
53.345062 -26.504107 166.58005 9735043
52.569324 -26.517923 166.91928 9537664
17.003271 -26.863665 158.89597 10064012
16.201708 -26.600927 158.61557 11576736
15.314067 -26.558849 158.20451 7630187
14.394612 -26.439009 157.80951 6905944
13.508729 -26.494936 157.35966 7234653
12.684388 -26.401098 157.00002 7037274
11.828151 -26.027374 156.73808 8682867
54.152832 -25.339926 166.6844 10458510
53.37162 -25.517406 166.96098 9866629
15.217669 -25.944929 158.40617 7038307
14.307435 -25.563593 158.12137 7104091
13.381957 -25.456301 157.71838 8484976
12.436528 -25.517252 157.23775 7827302
11.532645 -25.403954 156.84766 7301474
10.672538 -25.307688 156.47173 6117203
54.963451 -24.17404 166.78828 9010808
54.356201 -24.393139 166.9709 9405822
53.749329 -24.612637 167.15323 10129545
13.260592 -24.645121 157.98773 6511954
12.467042 -24.580166 157.63129 7630437
11.481177 -24.500437 157.18806 6314838
10.501201 -24.421999 156.74713 7498852
9.7589369 -24.437666 156.38281 8551282
9.1398458 -24.314548 156.13405 9208443
55.229954 -23.539545 166.92232 9931910
54.451267 -23.550905 167.26384 9471359
11.897735 -23.781969 157.67938 7564645
11.244569 -23.605768 157.43561 6446423
10.526755 -23.487913 157.13707 7959402
9.4988813 -23.549679 156.61639 10261383
8.5767622 -23.526396 156.18105 9471614
7.6947932 -23.237446 155.87251 10919313
6.853416 -23.027201 155.5517 12103329
56.097858 -22.193432 167.07236 9208443
55.344418 -22.537405 167.27031 9471359
54.717628 -22.915264 167.39842 10853012
10.088326 -22.767172 157.21698 9537918
9.3380804 -22.537096 156.94814 10656141
8.5196791 -22.349743 156.62915 11313815
7.6318278 -22.525988 156.1297 11379864
6.6717944 -22.457499 155.69438 10656398
5.9724898 -22.346476 155.40199 9801090
56.374813 -21.37314 167.2758 8813943
55.528652 -21.496584 167.60272 8089963
8.2300196 -21.634829 156.77844 10787732
7.456924 -21.581413 156.42715 12103590
6.6063132 -21.470343 156.06184 12564138
5.6829467 -21.507605 155.60149 10130313
4.8192401 -21.329485 155.25691 8617331
4.214622 -21.178686 155.02623 10261900
57.076111 -20.489691 167.31572 8748920
56.228817 -20.612673 167.64331 8353903
7.2779422 -20.822071 156.64754 12432813
6.4338832 -20.617451 156.32323 13485757
5.5535731 -20.523338 155.93671 9867142
4.6018252 -20.462772 155.5023 9998728
3.6536899 -20.587912 154.99449 9932677
2.8091331 -20.258307 154.72041 9669506
57.895527 -19.065207 167.51846 8288371
57.263973 -19.443865 167.64853 8814713
56.506733 -19.788839 167.84776 8222061
5.5613818 -19.964947 156.166 9077626
4.564321 -19.577623 155.84166 10393486
3.6636386 -19.476891 155.44804 9406333
2.7207522 -19.420971 155.01596 8682867
1.7828726 -19.365957 154.58597 9998471
1.0365804 -19.322859 154.24352 8090987
58.167309 -18.423508 167.65237 9735812
57.382961 -18.431353 167.9982 9735812
3.4819961 -18.599245 155.71497 10129799
2.6510272 -18.527346 155.34332 9537919
1.7865862 -18.441917 154.961 9735554
0.85184234 -18.574894 154.45654 8946295
-0.077446535 -18.339767 154.10339 9341054
-0.81777626 -18.116192 153.83672 10130570
58.857838 -17.563402 167.6869 10787732
58.156155 -17.527075 168.01341 11182490
57.654587 -17.788326 168.13274 10787732
2.3528838 -17.916473 155.44624 13024175
1.5486559 -17.608072 155.18306 9275003
0.66669792 -17.455803 154.81921 9472382
-0.26377925 -17.407858 154.38992 9933190
-1.1522051 -17.436274 153.95007 8880759
-1.8642946 -17.449406 153.60139 6709590
59.825027 -16.056593 167.85515 10853012
59.183125 -16.490473 167.96834 10721683
58.425556 -16.582705 168.26866 11182490
0.48052159 -16.704971 155.03275 10853777
-0.33944759 -16.516474 154.71346 10919573
-1.2294546 -16.547218 154.27188 9933190
-2.1142716 -16.578602 153.83253 8091243
-2.9957986 -16.46331 153.45404 8157554
-3.8559823 -16.221575 153.13692 9736326
60.068707 -15.345212 168.11343 10589840
59.203819 -15.463771 168.41646 10984855
-0.63827187 -15.909018 154.81473 10261643
-1.3811556 -15.690969 154.55923 11117209
-2.1938062 -15.691322 154.17007 9933192
-3.1811967 -15.387956 153.90437 8683642
-4.0622392 -15.446745 153.44057 10196107
-4.9318776 -15.29958 153.12193 10985108
-5.7761979 -15.323004 152.68352 8682867
62.803417 -13.964456 168.48309 10261387
62.007057 -13.968328 168.82483 9801091
61.063061 -14.50113 168.33653 10655371
60.191257 -14.618553 168.62831 9669505
-4.340548 -14.673995 153.92644 11379865
-5.1593556 -14.730373 153.48413 10195337
-6.1177831 -14.560253 153.16422 9274492
-6.9864469 -14.62176 152.69484 9340285
-7.9744287 -14.361122 152.47005 8880503
-8.9689779 -14.243861 152.16991 9341054
-9.9618673 -14.129928 151.89529 9801348
-10.855632 -14.104742 151.55579 9867141
-11.568278 -14.084913 151.28421 9209467
-70.503769 -14.038793 138.03598 11906724
-71.248611 -14.055231 137.85201 10393228
-72.181519 -14.076167 137.62039 11708316
-73.30397 -14.101895 137.33998 10919574
-74.241409 -14.123848 137.10445 7366239
-75.181488 -14.146237 136.86682 7695204
-76.265869 -14.165131 136.49626 6708565
65.887817 -13.653034 169.25069 8090987
65.072174 -13.653422 169.56551 8090475
-12.001395 -13.786034 152.12587 10327179
-12.893678 -13.762197 151.78223 9537151
-13.782479 -13.738893 151.43846 9866115
-14.844699 -13.711282 151.02365 9735555
-15.922055 -13.700976 150.79163 10985879
-16.828949 -13.70149 150.69305 9933191
-17.735233 -13.702002 150.5887 9472643
-18.821974 -13.702619 150.45644 9275522
-19.907671 -13.703236 150.31639 11380380
-47.953644 -13.7197 143.83891 7103068
-48.990688 -13.720327 143.48866 6379345
-50.025394 -13.720955 143.13094 5722439
-50.88567 -13.72148 142.82732 8288365
-51.743954 -13.722003 142.51817 7959400
-52.784767 -13.726 142.17596 6840408
-53.863037 -13.740197 141.93117 7235170
-54.764866 -13.752994 141.73087 8090736
-55.667721 -13.766154 141.5289 9932424
-56.753033 -13.782558 141.28459 9932424
-57.658798 -13.796638 141.07932 9734531
-58.56599 -13.811154 140.87241 6379859
-59.656307 -13.829094 140.62202 7828590
-60.566513 -13.844544 140.4117 8551540
-61.478207 -13.860397 140.19963 7169373
-62.574299 -13.879975 139.94305 6840924
-63.489483 -13.896812 139.72769 8617081
-64.406738 -13.914052 139.51067 8617081
-65.509293 -13.935299 139.24812 9077882
-66.430115 -13.953492 139.02756 9142651
-67.352692 -13.972119 138.80511 7563618
-68.462349 -13.995074 138.53596 7366495
-69.389023 -14.014635 138.30984 9209467
-69.946053 -14.026613 138.17323 14604238
-77.427223 -13.866602 137.0209 10854036
-78.114716 -13.872169 136.69679 8617336
-79.146072 -13.880951 136.20901 10262157
-80.17778 -13.890337 135.7191 11051927
-81.037773 -13.898529 135.30922 9209211
-87.030998 -13.74264 134.7944 10656657
-87.840248 -13.743176 134.26794 9933449
-88.807281 -13.743817 133.62997 9144449
-99.740715 -13.750117 131.76656 9472127
-100.53162 -13.750655 131.16368 8682867
-101.16189 -13.751089 130.67836 7564651
-110.52195 -13.740525 129.39131 9932681
-111.32874 -13.55184 129.07204 9472386
-112.21215 -13.565352 128.5246 10129801
-113.16069 -13.393149 128.35815 9011320
-114.14259 -13.418599 127.91178 8089963
-115.12778 -13.444533 127.46376 7037274
-116.22522 -13.055642 127.13208 9735299
-112.41057 -12.855018 128.9072 10327692
-113.37125 -12.566088 128.59625 9142906
-114.22736 -12.64652 128.18365 8287855
-115.20789 -12.558845 127.78322 7498596
-116.11755 -12.550098 127.38262 8616562
-116.9372 -12.375005 127.08865 8945526
-117.6387 -12.252567 126.82621 7366237
-114.37099 -11.754788 128.47739 9933191
-115.21585 -11.564553 128.17848 8749177
-116.20882 -11.587391 127.72853 7827560
-117.20535 -11.610701 127.27695 6971480
-118.00552 -11.629752 126.9143 5919050
-118.75991 -11.577487 126.60059 7366237
-115.57661 -10.942984 128.26846 9143934
-116.27639 -10.81781 128.00841 7697003
-117.17819 -10.696799 127.65703 8156008
-118.14771 -10.524185 127.29638 7892580
-119.08937 -10.597638 126.84898 7695975
-119.89692 -10.615609 126.48344 11577761
-120.76446 -10.422588 126.17624 9538950
-121.4319 -10.224392 125.95987 7565675
-118.10569 -9.7293768 127.63508 10261124
-119.16967 -9.5382938 127.23992 8486261
-120.18161 -9.5585375 126.78278 9012606
-120.9942 -9.5750713 126.41556 7894639
-121.92048 -9.6370144 125.97966 9078908
-122.68613 -9.3960657 125.73697 8354159
-120.17847 -8.8121805 127.08473 9736071
-121.19511 -8.5101051 126.75525 9603970
-122.10023 -8.5267019 126.34701 8946552
-122.92075 -8.5419502 125.9767 7893352
-123.80727 -8.557477 125.53959 7827047
-124.63486 -8.1404076 125.29671 7761253
-122.33359 -7.67167 126.58772 9011576
-123.10225 -7.4258332 126.3441 9209980
-124.01494 -7.4828887 125.87918 9011577
-124.81216 -7.4948721 125.47442 7892840
-125.74404 -7.4657121 125.01908 7498081
-124.1188 -6.6625795 126.16584 8287598
-125.04916 -6.6316833 125.71199 8419440
-125.85068 -6.6425934 125.30547 8550769
-126.65475 -6.6536307 124.89766 8681843
-127.32005 -6.4449372 124.65012 8681843
-125.22746 -5.9824734 125.89063 7563619
-126.06433 -5.556674 125.64675 9340801
-126.95699 -5.5669417 125.19485 8945015
-127.76597 -5.5764561 124.78517 8879222
-128.56166 -5.4982162 124.41843 8944499
-129.31189 -5.155808 124.18355 9207155
-127.19962 -4.694581 125.43338 9471359
-127.96233 -4.4386363 125.15659 9865600
-128.88602 -4.4914374 124.67152 11707033
-129.70274 -4.4994321 124.2586 9207155
-130.47487 -4.4334264 123.89861 10524560
-128.05257 -3.8238084 125.36519 12101791
-128.89856 -3.7204885 124.98357 9930622
-129.84209 -3.5735068 124.5712 9207155
-130.7744 -3.6251726 124.08273 9406333
-131.55154 -3.5575118 123.72144 11709858
-132.28355 -3.4153664 123.4137 8090987
-129.84053 -2.8061016 124.88966 10194309
-130.84889 -2.6431973 124.45209 8616050
-131.84819 -2.4583323 124.0281 10064777
-132.74886 -2.5272288 123.54847 9340796
-133.59923 -2.2341812 123.24388 7564128
-134.33972 -2.0888739 122.93317 9734270
-131.87221 -1.481094 124.42077 9602945
-132.76775 -1.4545878 123.98323 11576217
-133.69891 -1.4131411 123.53403 8484717
-134.63414 -1.3714874 123.08282 10392200
-135.44426 -1.1941087 122.7505 9143678
-133.05836 -0.73795909 124.13447 8090216
-133.83604 -0.58949929 123.85915 8616303
-134.64601 -0.51588702 123.51027 11246995
-135.59094 -0.56262374 123.0017 9274749
-136.44618 -0.44340408 122.66462 9538434
-137.09485 -0.29326227 122.4543 8090992
-135.88747 0.16127487 123.44914 10984593
-136.7364 0.16113552 123.02406 8090992
-137.42023 0.46514794 122.94275 8814711
51.031307 -28.217211 166.9265 9734788
50.254795 -28.233124 167.26173 10393742
49.402782 -28.428074 167.3436 12433069
48.247116 -28.663177 166.37201 9472639
47.245392 -28.663673 166.65921 10524816
43.166256 -28.666187 165.06174 9208182
42.37125 -28.666582 165.26709 8222058
41.575466 -28.666983 165.46919 7564643
37.614937 -28.669439 163.81075 7563619
36.628704 -28.669937 164.03363 10393739
35.838886 -28.670338 164.20821 8090995
31.801451 -28.67284 162.52515 11248795
30.627319 -28.673441 162.75023 10656402
25.928848 -28.676294 161.13725 8880246
24.764931 -28.676897 161.31989 9011578
23.78303 -28.66407 161.39078 8288371
22.955379 -28.394165 161.14789 8748921
21.990028 -28.259235 160.73688 9669765
20.982838 -28.23653 160.26028 10327436
20.020214 -28.295059 159.77234 10064265
19.401293 -28.234249 159.49844 9340798
51.120346 -27.381262 167.21967 9932678
50.343563 -27.397123 167.55856 10130570
21.838245 -27.607315 160.9272 8221805
20.902452 -27.420542 160.55139 10393229
20.060839 -27.532078 160.10039 9735300
19.14917 -27.390633 159.71788 9209212
18.290348 -27.364128 159.31439 9077114
51.986984 -26.528694 167.17383 10129545
51.283012 -26.584005 167.46468 11116696
20.7255 -26.825809 160.70645 7563619
19.989309 -26.526373 160.47244 8156012
18.992584 -26.511639 159.99773 8946040
18.002979 -26.497604 159.52612 9867398
17.267963 -26.431089 159.19852 10064268
16.323198 -26.137342 158.86162 10064012
52.901604 -25.256027 167.27393 9011576
52.100475 -25.479734 167.54092 9274748
51.276871 -25.914282 167.73401 11906725
19.519325 -25.944906 160.48088 7563619
18.836849 -25.755829 160.22813 7563619
18.050005 -25.507345 159.94907 8550513
17.125368 -25.459354 159.52255 9472387
16.047693 -25.447817 159.00745 10787478
15.240352 -25.378397 158.64615 9077371
14.444562 -25.121456 158.3662 7301470
53.188786 -24.411707 167.48233 9274236
52.409313 -24.424797 167.82352 8353647
16.857447 -24.639576 159.72467 10853524
16.087719 -24.498854 159.41039 11445405
15.194005 -24.370728 159.03113 10919572
14.26575 -24.538527 158.51564 7038298
13.273685 -24.268534 158.14624 6511954
53.866737 -23.559757 167.52013 8418928
53.086563 -23.572069 167.86195 8550514
15.916501 -23.721424 159.64207 10853524
15.031877 -23.498306 159.3056 10393485
14.100123 -23.576727 158.82452 8354158
13.299844 -23.51391 158.46399 7038298
12.356656 -23.393425 158.05775 7696486
11.520135 -23.187813 157.73744 6446423
54.813221 -22.069857 167.69246 9010808
54.102715 -22.441887 167.8602 8484721
53.374859 -22.724274 168.0713 9142651
14.065579 -22.68685 159.16742 10261899
13.135636 -22.471977 158.80577 8486000
12.137017 -22.479021 158.3214 9209723
11.302436 -22.530512 157.89813 8486259
10.49034 -22.420908 157.5508 8814452
9.5829344 -22.104807 157.24104 9537918
55.023434 -21.362209 167.88071 8089963
54.176014 -21.486715 168.20781 8484721
12.752284 -21.955496 158.8295 8486000
12.160836 -21.722952 158.63828 10262667
11.225997 -21.419882 158.30989 10262927
10.272595 -21.454483 157.8362 8881018
9.4015245 -21.528355 157.38628 9143417
8.5272436 -21.374323 157.02696 10853522
55.78857 -20.363581 167.93819 8617075
55.064159 -20.542313 168.18896 8946295
54.369438 -20.806076 168.39272 8945527
10.998942 -20.69401 158.49353 10262929
10.21454 -20.452063 158.213 12696498
9.2787161 -20.531734 157.7296 11117208
8.3359613 -20.570402 157.25938 9866373
7.5183406 -20.388351 156.93867 11445662
6.6152606 -20.124641 156.60968 12695985
55.96785 -19.369743 168.25404 7826791
55.1507 -19.663214 168.50043 8222061
9.1507864 -19.721434 157.99518 13090481
8.2775183 -19.383286 157.71071 11182230
7.302547 -19.51136 157.18883 9340285
6.3371558 -19.452042 156.74725 9209211
5.5691924 -19.40535 156.39586 7564642
4.9978709 -19.184292 156.20961 8090987
56.794224 -18.437473 168.25761 9209467
56.008492 -18.446075 168.60356 8551025
7.2625117 -18.675684 157.507 8945527
6.3521419 -18.514673 157.13309 8288109
5.3905673 -18.459091 156.69186 7433056
4.4344039 -18.404459 156.25285 9998982
3.7380652 -18.240852 155.98323 8682867
56.977077 -17.538548 168.53331 8287598
56.278778 -17.802467 168.7392 8353391
5.9807372 -17.553055 157.34238 8682867
5.3257346 -17.554808 157.02579 8551537
4.4446197 -17.469444 156.63545 9539457
3.4435134 -17.55582 156.11784 9538431
2.5818896 -17.481997 155.73216 13024175
1.7918237 -17.142921 155.48811 9735554
57.917049 -16.394205 168.56972 9998215
57.123501 -16.570147 168.85286 9800580
5.0258899 -16.936913 157.13083 8092011
4.2615161 -16.709204 156.85416 8092011
3.3907008 -16.530663 156.50641 9802373
2.4696536 -16.377628 156.1241 14406596
1.5593656 -16.432692 155.66292 9472382
0.73008674 -16.469595 155.24809 10853777
0.10713713 -16.315477 155.00998 10853777
58.782665 -15.214597 168.77522 9735299
57.949646 -15.431878 168.99725 10393230
3.1249061 -15.713326 156.70834 8092011
2.2715888 -15.581875 156.37946 12169380
1.4217409 -15.451846 156.05739 8814197
0.52836365 -15.549821 155.57788 9077624
-0.32881984 -15.557319 155.16393 9735555
-1.2914149 -15.243456 154.91151 12103336
-2.311028 -15.111631 154.5323 9538948
61.010616 -13.973495 169.25148 9209467
60.068096 -14.108582 169.39923 9801348
59.003994 -14.627028 169.14923 9932934
58.09203 -14.801759 169.41325 10787732
0.29463711 -14.862898 155.99884 9735555
-0.6426664 -14.703897 155.68063 9209467
-1.4635473 -14.646255 155.33379 11116696
-2.4297013 -14.535629 154.96098 10591379
-3.315146 -14.571934 154.50459 10393229
-4.3522267 -14.326893 154.32408 11182744
-5.2634473 -14.282572 153.80736 10458766
63.846306 -13.654008 170.03062 9142907
63.027168 -13.6544 170.33618 9143419
-5.4770494 -13.971429 154.59885 9603201
-6.394362 -13.944158 154.25536 9208443
-7.3078771 -13.917453 153.91187 8419696
-8.2177973 -13.891125 153.5685 8683124
-9.1241293 -13.865367 153.22502 9341054
-10.207175 -13.83503 152.81285 9866885
-11.106128 -13.810248 152.46936 10787731
-20.811728 -13.703752 150.19389 9472387
-21.71493 -13.704268 150.06548 7564651
-22.797762 -13.704886 149.90457 8748151
-23.879356 -13.705506 149.73579 9604225
-24.779766 -13.706025 149.58936 13024949
-25.679293 -13.706543 149.43718 9736323
-26.75749 -13.707165 149.24762 8881013
-27.834232 -13.707788 149.05029 10985107
-28.730484 -13.708308 148.88007 11182228
-29.625628 -13.708826 148.70418 11182228
-30.698431 -13.709452 148.48607 10853521
-31.769562 -13.710076 148.26028 9275007
-32.661072 -13.710598 148.0665 9669508
-33.551189 -13.71112 147.86684 8945783
-34.617779 -13.711745 147.62051 9471868
-35.505379 -13.712268 147.4095 8550767
-36.39143 -13.71279 147.19283 9143160
-37.453186 -13.713415 146.92599 9735297
-38.512859 -13.714044 146.65149 9735297
-39.394562 -13.714568 146.4171 7760998
-40.274643 -13.71509 146.17703 6510930
-41.328957 -13.715717 145.88214 8090217
-42.381065 -13.716346 145.57976 7760996
-43.256184 -13.71687 145.32205 5393738
-44.129642 -13.717394 145.05878 6116946
-45.175587 -13.718022 144.7361 7563619
-46.219425 -13.71865 144.40591 7563619
-47.087418 -13.719175 144.1252 5655878
-68.063957 -13.731312 140.26981 7563618
-68.738182 -13.731737 139.94022 7498849
-69.746658 -13.732376 139.44003 8486000
-70.592117 -13.734362 139.03296 10985878
-71.516808 -13.752062 138.77879 8682099
-72.455536 -13.772566 138.54701 9866371
-73.396835 -13.793606 138.31364 11905952
-74.529289 -13.819374 138.0313 8287341
-75.475365 -13.841348 137.79408 8287341
-76.393524 -13.858253 137.49997 7563361
-77.083496 -13.863886 137.1826 9734273
-84.584145 -13.741028 136.34399 11378324
-85.239204 -13.741458 135.93488 9735040
-86.218353 -13.742104 135.31564 10656657
-97.987961 -13.748925 133.0755 8814453
-98.786896 -13.749469 132.48347 11116696
-99.264481 -13.749794 132.12599 10261387
-105.9009 -13.630028 131.48837 9406078
-106.78229 -13.486049 131.15459 10261131
-107.67515 -13.4656 130.76614 10129545
-108.55086 -13.527399 130.35234 8551030
-109.49802 -13.467664 129.95552 8420727
-110.33132 -13.460319 129.58823 9932681
-107.75253 -12.747348 131.0197 9735043
-108.71393 -12.541648 130.67506 9932679
-109.60219 -12.530463 130.28491 8749435
-110.56565 -12.441244 129.8927 10195596
-111.41367 -12.519895 129.48441 9275264
-112.24707 -12.331526 129.18967 9406591
-112.88721 -12.138288 128.98277 9932678
-109.67181 -11.652242 130.60608 8288371
-110.6075 -11.505697 130.2491 9341058
-111.56518 -11.442632 129.84894 9604226
-112.45573 -11.503297 129.42899 8748149
-113.34901 -11.564597 129.00758 9011320
-114.2802 -11.334233 128.68631 10787985
-111.65782 -10.756845 130.08276 9011577
-112.55772 -10.628613 129.73465 9472640
-113.50601 -10.479989 129.37369 7827307
-114.366 -10.557368 128.96098 9998728
-115.31886 -10.396811 128.60283 10261899
-116.28937 -10.256277 128.22878 9340797
-116.99174 -10.130109 127.96795 9143419
-112.82318 -10.047897 129.85063 8879991
-113.82039 -9.5067148 129.62614 9011581
-114.5649 -9.450243 129.31853 8222579
-115.3599 -9.464941 128.95988 9538434
-116.35719 -9.4836655 128.50984 9077625
-117.35799 -9.5027666 128.05806 9932679
-118.21743 -9.3073664 127.75539 10261124
-114.92518 -8.8242226 129.41075 9735046
-115.62563 -8.6952858 129.1519 9866886
-116.37648 -8.6376915 128.8419 9669507
-117.37914 -8.6551447 128.39001 10590352
-118.38538 -8.6729002 127.93638 9538436
-119.19331 -8.68748 127.57205 9012606
-120.06931 -8.2049618 127.3777 11906725
-120.78569 -8.074831 127.11224 9208443
-116.54128 -8.004324 129.02382 10787475
-117.39988 -7.8053207 128.72298 10787475
-118.33252 -7.6677971 128.36455 9208444
-119.33861 -7.5692906 127.95782 9669765
-120.34668 -7.4246855 127.56877 10854037
-121.16281 -7.4375958 127.20147 9537407
-121.93271 -7.3781991 126.88375 9208443
-118.68886 -6.7576256 128.57291 8089963
-119.40302 -6.6246285 128.30962 12696241
-120.27913 -6.6082892 127.92751 10064265
-121.283 -6.5362911 127.51105 10918802
-122.21509 -6.5925674 127.07486 9931908
-123.03866 -6.6044087 126.70464 9142906
-123.71086 -6.397541 126.47986 8287598
-120.54436 -5.9235249 128.0856 10655630
-121.32767 -5.7607832 127.80351 12366245
-122.30191 -5.5132227 127.47092 10129542
-123.26232 -5.4627762 127.06511 9077370
-124.1454 -5.534986 126.61813 8945784
-124.92933 -5.4566851 126.2573 8682100
-125.66678 -5.1162887 126.02805 9340801
-123.26547 -4.5111566 127.44692 9340798
-124.23975 -4.4479489 127.01874 9143419
-125.2431 -4.4570699 126.51274 9077886
-126.04815 -4.4644823 126.10594 8683128
-126.80859 -4.3985271 125.75178 10261132
-124.4175 -3.7947962 127.20027 8682867
-125.18834 -3.6256733 126.88356 8946040
-126.17993 -3.5453775 126.4194 8420470
-127.09851 -3.5962102 125.93764 9932167
-127.8633 -3.5286655 125.582 9602686
-128.58293 -3.387213 125.27951 10654345
-126.17339 -2.7836368 126.73727 10261132
-127.13925 -2.7159789 126.28077 8945528
-128.15633 -2.7220173 125.76825 9932164
-129.03555 -2.5058017 125.41721 9404535
-129.87103 -2.2147775 125.11929 10786704
-130.59914 -2.0703957 124.8144 9010808
-127.11884 -2.0540833 126.56437 9997700
-128.15182 -1.7633513 126.16733 9405820
-129.0479 -1.4415033 125.85183 9406079
-130.05943 -1.3559396 125.38058 10063752
-130.996 -1.4035982 124.89177 8747636
-131.68091 -1.1826169 124.64027 9931910
-129.12451 -0.7300092 126.10811 9670023
-130.09438 -0.5830214 125.73622 9472131
-130.9917 -0.55484092 125.30904 8813429
-131.9281 -0.51163489 124.8737 9603200
-132.82111 -0.40071183 124.51186 10129029
-133.71747 -0.28951603 124.14839 8090216
-132.1057 0.16187754 125.34293 8617334
-133.07567 0.38764614 125.05117 8222833
-133.91484 0.38793805 124.63132 7827301
-134.8562 0.34285802 124.12136 9865857
-135.74048 0.61568832 123.91291 9537150
-136.59004 0.61639869 123.48824 9537664
-138.21919 1.0803121 124.0567 8090987
-138.65161 1.0811379 123.84354 12038567
49.143871 -28.13883 167.45557 11314844
48.214275 -28.270939 167.38789 10524816
47.005768 -28.321983 167.3484 10064521
46.200436 -28.512383 167.10387 10196107
45.115814 -28.488672 167.24669 10393229
44.151299 -28.61417 167.18631 10261132
41.177067 -28.667179 165.56859 8419696
40.379688 -28.66758 165.76437 8485489
39.381729 -28.668083 166.0043 8748404
35.245823 -28.670637 164.3362 9999242
34.45454 -28.67104 164.50366 10262667
33.662373 -28.671444 164.66739 9538688
29.647696 -28.673944 162.93147 9537666
28.666872 -28.674448 163.10646 9275265
27.473856 -28.519342 163.2206 9341056
26.528631 -28.405018 162.86682 9406076
25.53783 -28.265072 162.44554 9208699
24.746819 -28.25034 162.07001 9143420
23.814491 -28.286514 161.60577 7564651
49.819874 -27.331503 167.76717 10788244
48.99482 -27.410187 167.74544 11182746
47.970242 -27.532595 167.68007 9867398
47.098724 -27.495653 167.68115 9867398
46.087086 -27.764671 167.55737 10459279
26.442476 -27.767666 163.08296 10129798
25.59083 -27.486982 162.78566 8682867
24.680252 -27.514902 162.33521 9143676
23.775881 -27.449072 161.92564 8551542
22.802843 -27.410299 161.47208 9274748
21.959681 -27.328968 161.09824 9208184
50.842964 -26.341516 167.75677 11906725
50.032555 -26.561981 167.99092 10327949
48.965347 -26.532227 168.09731 10591121
48.154137 -26.568125 168.06982 9669762
24.453829 -26.691841 162.5587 9406849
23.498598 -26.503933 162.174 9143677
22.649431 -26.424591 161.79655 11313815
21.794287 -26.538946 161.33786 7826789
21.001698 -26.388224 161.01656 7432033
20.142332 -26.001066 160.75861 7958633
50.944477 -25.381344 168.09386 10854037
50.066299 -25.655333 168.35287 9932934
49.257996 -25.916874 168.34895 10262156
23.321581 -25.902201 162.33189 8288371
22.695932 -25.650229 162.13199 12958381
21.861183 -25.380623 161.83838 9537149
20.799837 -25.480366 161.28621 7169117
19.756771 -25.388119 160.82047 7563619
18.999975 -25.257687 160.50813 7563619
18.318535 -25.070503 160.25511 7563619
51.824207 -24.434971 168.07951 8353647
51.043118 -24.449085 168.42107 9209467
21.261982 -24.745018 161.80623 8089961
20.596657 -24.571287 161.55554 8156523
19.8069 -24.426552 161.23317 8090987
19.013416 -24.436756 160.84645 8419440
17.934807 -24.461702 160.31621 8616306
17.122925 -24.202295 160.02954 8682099
51.882839 -23.433847 168.45193 9603202
51.132454 -23.605082 168.71733 9406078
19.645105 -23.509651 161.52553 8683124
18.688398 -23.560675 161.04355 8090732
17.773695 -23.486816 160.63232 6839895
16.952555 -23.421028 160.26292 7958376
16.095442 -23.353065 159.87715 9932165
52.829906 -22.352522 168.46146 9340030
52.10659 -22.533113 168.71101 9997960
18.429571 -22.766966 161.23933 7564651
17.746532 -22.585083 160.98346 7893357
16.87373 -22.415283 160.63116 9076857
15.848088 -22.567511 160.0751 9602687
14.949168 -22.499212 159.66925 12695212
14.218415 -22.190022 159.44174 10064263
13.552701 -22.013792 159.19189 8486000
53.734322 -21.238802 168.50281 8813686
52.926926 -21.462477 168.7726 9537409
52.119469 -21.686686 169.04216 8682867
16.547102 -21.722946 160.7533 9405566
15.763927 -21.485918 160.47137 10852753
15.03143 -21.432858 160.1396 12563369
13.975598 -21.472103 159.61465 8814708
12.971276 -21.40049 159.15926 9209723
12.178712 -21.154598 158.87639 10657425
53.841831 -20.2673 168.84166 9076858
53.007999 -20.719027 169.03247 9208187
14.610061 -20.750633 160.21196 11511194
13.808124 -20.503523 159.92508 10524555
13.003251 -20.448776 159.55907 10392969
12.117253 -20.389111 159.15594 9078395
11.204295 -20.45503 158.68906 10262929
54.732655 -19.313751 168.8253 8681843
54.020237 -19.365416 169.12138 9471616
13.633269 -19.724773 160.15524 13022893
12.834289 -19.481188 159.86838 11181972
11.895732 -19.548161 159.38875 8289139
11.031156 -19.556356 158.96858 11315359
10.156247 -19.44665 158.591 12038824
9.2598181 -19.255381 158.23598 12629931
54.828465 -18.459675 169.12265 8813685
54.017216 -18.683187 169.3942 10261132
11.787511 -18.713169 159.67383 7368295
10.930858 -18.406269 159.3847 7828846
10.066684 -18.545078 158.91193 8947069
9.0811415 -18.486212 158.46049 9538691
8.1811285 -18.395304 158.06319 9143934
7.3266749 -18.194452 157.73228 8682867
55.73698 -17.380241 169.14783 9340029
54.998348 -17.531179 169.41638 10063753
9.8880968 -17.772324 159.13791 9538691
9.1031561 -17.537012 158.85446 8223347
8.1218138 -17.482126 158.40344 8749690
7.1461921 -17.428108 157.95479 9472383
6.4100623 -17.312328 157.64664 8814453
56.648499 -16.29884 169.17181 9931910
55.890083 -16.467381 169.44231 9997703
8.7266016 -16.754313 158.98903 8552055
7.945087 -16.522261 158.70589 7762025
7.1632609 -16.481403 158.34541 10459278
6.1351314 -16.509237 157.83839 8945783
5.2625251 -16.496834 157.42265 8288878
4.3623443 -16.244104 157.09065 8092011
56.764023 -15.442247 169.51848 9734531
55.932594 -15.660977 169.74362 9931910
6.8828883 -15.80268 158.49002 9011576
6.0097346 -15.665646 158.1362 7234653
5.1118331 -15.439467 157.86795 7169372
4.2291293 -15.444218 157.4355 11052696
3.3600612 -15.285521 157.1319 9078394
2.5587077 -15.320985 156.70035 11182486
59.613972 -13.981351 169.84703 10130313
58.758366 -14.084359 170.0237 10459278
57.770866 -14.489689 169.8082 10393485
57.101212 -14.809921 169.84743 9471359
3.9086757 -14.654181 157.91452 14078918
3.1417117 -14.621393 157.57249 10788244
2.2683024 -14.635687 157.13733 10326922
1.2863153 -14.499161 156.79961 9932165
0.40796605 -14.438912 156.46245 9472127
-0.57000405 -14.261389 156.21751 10261643
-1.5833079 -14.091363 156.04213 10459534
-2.5165639 -14.062017 155.69839 14999764
-3.4461198 -14.033153 155.35468 14340805
-4.1870122 -14.010457 155.0797 13023917
70.46315 -13.341699 172.95522 9932167
69.816002 -13.569492 173.15242 7761509
62.61718 -13.654596 170.48717 9932419
61.79583 -13.654991 170.78613 9209467
60.973103 -13.655388 171.08176 9209467
-4.7717233 -13.695782 155.87483 13024949
-64.156425 -13.728851 142.10062 8090735
-65.010086 -13.729385 141.71162 8090737
-66.031479 -13.730027 141.23831 10590354
-66.880096 -13.730563 140.83841 9143936
-67.557114 -13.73099 140.51469 7563618
-81.777626 -13.739191 138.04625 9537918
-82.60656 -13.739733 137.55138 9735296
-83.432693 -13.740273 137.05182 10261126
-84.091324 -13.740705 136.64845 9734780
-95.408157 -13.747186 134.93834 8419952
-96.05632 -13.747621 134.47707 9604226
-97.024696 -13.748274 133.77974 8156780
-101.34566 -13.532073 133.55139 12432045
-102.06232 -13.38397 133.29237 9669509
-102.98949 -13.321566 132.90547 10261899
-103.95746 -13.423598 132.43457 7367520
-104.89008 -13.361998 132.04494 8683124
-105.71082 -13.352623 131.68407 9143162
-106.38087 -13.2309 131.4352 10853012
70.645218 -12.512095 173.20428 10260875
-103.1639 -12.651596 133.09656 8419952
-104.04305 -12.566815 132.73999 6183246
-104.91044 -12.625398 132.33119 8157036
-105.84738 -12.562698 131.94009 9406078
-106.71947 -12.622142 131.52885 9537664
-107.53775 -12.433865 131.24078 9406078
70.886063 -11.755863 173.39793 10260617
-104.18593 -11.955084 132.92175 7170141
-104.99778 -11.765228 132.63725 8091243
-105.94398 -11.629048 132.27145 8747891
-106.89667 -11.537057 131.88512 9208698
-107.8045 -11.672992 131.42728 9603457
-108.73112 -11.51443 131.07922 8880506
-109.77322 -11.239428 130.72646 8288371
-106.99403 -10.668473 132.19006 10918801
-107.87848 -10.539501 131.84879 9077627
-108.75951 -10.597121 131.43433 8419957
-109.73114 -10.615321 130.99538 8288371
-110.70573 -10.633941 130.55498 9143419
-111.3437 -10.4378 130.3502 8616563
-108.13419 -9.9631605 131.96628 8682872
-109.03017 -9.6454973 131.69583 8683127
-109.7907 -9.5750513 131.38658 9012091
-110.76782 -9.5919352 130.94623 9143164
-111.74799 -9.6091595 130.50436 8353647
-112.51642 -9.5390682 130.19167 9143419
-113.32853 -9.3577633 129.90436 9011581
-110.19086 -8.746357 131.54272 9340286
-110.87833 -8.6174116 131.28961 8682868
-111.81268 -8.5622406 130.89726 7827815
-112.79832 -8.578001 130.45357 8485236
-113.58944 -8.5908442 130.09735 9143167
-114.51294 -8.5638256 129.69849 8814459
-115.43202 -8.4101105 129.35258 8288365
-111.77254 -7.9312367 131.16919 8419696
-112.81226 -7.7357063 130.78656 9011578
-113.78658 -7.4781275 130.45793 9932424
-114.6521 -7.5510764 130.04456 9603716
-115.58636 -7.6179976 129.60309 8090730
-116.59715 -7.3250995 129.27252 9472127
-117.56668 -7.1688538 128.90529 9142907
-114.26985 -6.6982584 130.55753 10853012
-114.92242 -6.4941273 130.35022 9209467
-115.72267 -6.5043535 129.99106 7827814
-116.5253 -6.5147305 129.63074 7104091
-117.53222 -6.527986 129.17863 8418928
-118.49402 -6.46945 128.77542 8747893
-119.2076 -6.3361197 128.5125 10064009
-115.88678 -5.8671093 130.1748 8288365
-116.74615 -5.6633077 129.8756 8682870
-117.55307 -5.6725621 129.51381 8222065
-118.56548 -5.6843543 129.05989 9405823
-119.58157 -5.696382 128.60417 11775139
-120.4372 -5.4047403 128.34198 10656657
-121.39017 -5.0700917 128.05392 10655630
-117.11401 -5.0249157 129.96941 8617080
-117.82545 -4.8889174 129.70853 8222579
-118.66253 -4.6962991 129.41467 9932422
-119.52997 -4.6802578 129.03622 8945783
-120.44469 -4.4547763 128.72118 8880246
-121.4529 -4.3777204 128.30489 8880246
-122.38901 -4.4300699 127.86846 9538177
-123.06812 -4.2192793 127.65206 7563619
-119.68701 -3.7558823 129.33876 9932934
-120.5637 -3.54599 129.03432 9603969
-121.49783 -3.5967321 128.59944 9077625
-122.51199 -3.5176206 128.1813 9340798
-123.45341 -3.5686231 127.74307 9340798
-124.22923 -3.501888 127.4157 8485233
-121.56066 -2.9009411 128.85167 9406334
-122.44596 -2.6883044 128.54453 9735299
-123.38852 -2.7378521 128.10634 8945784
-124.40252 -2.6563826 127.67468 8682867
-125.31843 -2.7054377 127.19829 9143417
-125.98405 -2.4893944 126.95375 10656142
-122.83038 -2.0344722 128.63733 6510930
-123.56333 -1.8915201 128.36963 8616561
-124.49986 -1.7489637 127.99969 9011575
-125.41617 -1.6056538 127.60345 9801090
-126.3589 -1.5458913 127.15559 13616313
-127.3026 -1.3912257 126.7468 11181972
-127.97598 -1.1717621 126.5004 9142649
-125.45441 -0.72287673 127.9493 8682867
-126.40913 -0.57687956 127.58493 10919314
-127.29306 -0.54881054 127.16439 8156523
-128.32024 -0.46151093 126.71793 7761255
-129.35747 -0.28464535 126.3353 7893615
-129.97545 -0.28533807 126.02532 8814715
-127.76767 0.16263363 127.51524 7564643
-128.38281 0.16254279 127.20715 7300963
-129.33536 0.38657221 126.92274 8354165
-130.25946 0.34183824 126.42168 7696236
-131.1981 0.38698885 125.99058 9867143
-132.16449 0.61277634 125.70064 8617334
-134.36459 1.0731558 125.9577 9339254
-135.21576 1.0746495 125.53775 9931906
-136.28368 1.076589 125.01096 9537150
-137.14191 1.0782448 124.58777 11510937
-137.78757 1.0794855 124.26939 13550517
44.625694 -28.22118 167.35136 10459278
43.893505 -28.328619 167.29671 9932421
42.974068 -28.318829 167.28618 8748661
41.937614 -28.359804 167.25343 8945784
40.959084 -28.280544 167.26979 10195338
40.171177 -28.318697 167.24207 9866373
38.782257 -28.668383 166.14537 8813942
37.982113 -28.668787 166.32954 12433066
37.18121 -28.669193 166.51056 14604230
33.06778 -28.671743 164.78778 9209467
32.274223 -28.67215 164.94455 9143931
31.279345 -28.457136 165.12483 9407103
30.386591 -28.366316 164.74315 9275517
29.367544 -28.221607 164.31015 9472641
28.598543 -28.380547 163.87502 9472387
27.720991 -28.290546 163.48814 9998471
46.492393 -27.05517 167.84822 10459278
45.818329 -27.235252 167.76538 10656657
44.929832 -27.406439 167.68279 9998727
44.100601 -27.455975 167.64986 9011832
42.96841 -27.535456 167.60014 9734783
41.89537 -27.494026 167.5999 8879991
41.232883 -27.6747 167.51697 8419696
30.108137 -27.639988 164.90244 9736068
29.115824 -27.440874 164.50436 9670019
28.218157 -27.54981 164.0274 9275265
27.341326 -27.462757 163.63971 11576729
26.551653 -27.253624 163.3434 11576729
47.67548 -26.270515 168.18156 9209211
46.905315 -26.489546 168.08147 9340797
45.90876 -26.408169 168.09842 10919829
44.914948 -26.327908 168.11491 9867141
43.857746 -26.605099 167.98715 9406072
42.81638 -26.910275 167.84837 9734782
28.939886 -26.826719 164.66768 10262156
28.213583 -26.623964 164.39935 9538176
27.412745 -26.48111 164.07089 9406332
26.487146 -26.511404 163.6123 10656141
25.568422 -26.446995 163.19524 9472641
24.592604 -26.215321 162.8183 11183260
49.576515 -25.091038 168.68549 10130570
48.801998 -25.409704 168.54512 10064777
47.857128 -25.501869 168.49295 9406590
46.807896 -25.341719 168.54037 9209467
45.781822 -25.570787 168.4321 10525071
44.890022 -25.745256 168.34819 10459278
27.245939 -25.738943 164.29016 9143161
26.286348 -25.623989 163.87395 9603712
25.290648 -25.493504 163.44653 8354934
24.428289 -25.415394 163.06226 10328465
23.606558 -25.458929 162.64839 9143935
22.73089 -25.068167 162.38396 12432037
49.853306 -24.463087 168.87743 9472639
48.768307 -24.429457 168.938 9472383
47.888527 -24.396139 168.93716 8682867
46.987877 -24.572071 168.8521 9406846
25.98115 -24.963552 163.99345 9144449
25.266397 -24.768492 163.72763 8618105
24.491381 -24.437622 163.48756 9670536
23.669889 -24.445114 163.08838 9867656
22.553396 -24.466581 162.54138 10195335
21.568472 -24.317327 162.12672 9208184
20.873613 -24.12882 161.86781 9341054
50.657551 -23.342314 169.03293 9406078
49.798641 -23.495504 169.29398 9275004
48.930828 -23.664389 169.24757 9209211
23.895197 -23.599171 163.53873 10985364
23.204145 -23.62015 163.19707 9012347
22.398077 -23.474825 162.86703 8025710
21.549471 -23.405157 162.48598 8879990
20.69533 -23.530363 162.02353 8880503
19.867189 -23.268745 161.72992 7959401
51.485443 -22.120462 169.15131 10129545
50.791214 -22.386036 169.35419 9669250
50.066544 -22.568108 169.60374 9406078
22.230677 -22.676958 163.10857 7039331
21.479628 -22.382473 162.86536 10327952
20.537508 -22.543386 162.34607 9209468
19.575891 -22.523878 161.89027 7893608
18.701117 -22.323101 161.54951 7564651
18.033892 -22.349483 161.2171 7564651
51.675461 -21.439438 169.33797 8945783
50.963425 -21.493362 169.63289 9735043
21.001554 -21.796968 162.87125 13024949
20.305155 -21.614029 162.60936 11183002
19.538507 -21.491695 162.28912 8880250
18.702986 -21.429945 161.91116 8419702
17.710508 -21.502527 161.40326 8419702
16.836134 -21.390472 161.02693 9800837
16.028074 -21.042757 160.77768 8681843
52.59874 -20.151194 169.44037 9011064
51.782124 -20.560146 169.64055 8748148
19.358419 -20.893042 162.44406 9340545
18.476877 -20.551575 162.15689 12760745
17.54051 -20.452358 161.74547 10064009
16.668295 -20.508139 161.30235 8879737
15.847417 -20.451279 160.92949 10787473
14.933255 -20.292372 160.55289 12629417
53.576244 -19.115522 169.4182 10261132
52.765083 -19.339619 169.68947 8879222
51.953846 -19.56431 169.96054 9340798
17.32163 -19.776499 161.91287 7564392
16.572615 -19.532253 161.65034 9142909
15.628972 -19.518425 161.20093 9866374
14.660993 -19.406769 160.77924 10919314
13.950398 -19.360847 160.45517 11181972
13.243058 -19.315592 160.1324 13022893
53.572533 -18.432476 169.69165 9734531
52.718475 -18.557581 170.02145 8747892
16.124502 -18.726128 161.75987 8616822
15.44489 -18.55401 161.50171 6841183
14.697476 -18.442959 161.1861 8354676
13.746114 -18.448845 160.72499 10524556
12.814115 -18.568272 160.22737 9209467
11.936456 -18.211203 159.94841 8091760
11.27366 -18.044044 159.69627 7039331
54.454243 -17.108904 169.82619 10063747
53.709003 -17.456993 170.01923 10063750
52.927296 -17.841732 170.21352 9011320
14.318261 -17.645346 161.32542 9998728
13.574826 -17.537252 161.01062 10524813
12.740014 -17.437254 160.64845 8683384
11.891099 -17.504236 160.21205 8091760
10.89137 -17.447195 159.75299 7565417
9.9025564 -17.200352 159.37593 8551543
54.673599 -16.319229 170.04227 10195077
53.882244 -16.327978 170.39078 9734779
12.518823 -16.768465 160.81187 8880507
11.667829 -16.57719 160.47884 8749432
10.718099 -16.477783 160.06099 8025712
9.9218149 -16.435383 159.69414 9669766
8.9912386 -16.277229 159.30931 9144191
55.596558 -15.347648 170.10094 9800323
54.764851 -15.567109 170.32741 10129541
11.340199 -15.739836 160.65903 9144190
10.739049 -15.709062 160.38156 10064779
9.7508173 -15.47211 160.0602 10064779
8.7599306 -15.424005 159.61246 8814715
7.9667258 -15.574513 159.15141 8024425
7.0719924 -15.307343 158.88609 7366239
6.0248904 -15.113063 158.54677 6774102
5.442966 -15.086878 158.2887 7037274
57.614304 -13.994189 170.6953 9998471
56.626278 -14.399609 170.47025 9998215
55.736256 -14.716969 170.52925 9931909
8.5874224 -14.861356 159.99498 7037274
7.7986274 -14.825649 159.64503 8024425
6.8238235 -14.597131 159.36324 7234653
5.9267058 -14.521067 158.99403 7892581
4.9924712 -14.554221 158.51758 9142648
4.170259 -14.421114 158.23103 12432037
3.1474338 -14.256137 157.87418 11446173
69.877213 -13.117631 173.30489 9011320
69.229767 -13.345599 173.50212 8024681
68.612823 -13.347786 173.77556 8419184
60.35524 -13.655684 171.30042 10130313
59.530033 -13.656084 171.58881 10459278
2.7809196 -13.933759 158.68515 8814713
2.0136924 -13.908693 158.40578 9866372
1.0582098 -13.87776 158.05673 11445659
0.10726683 -13.847226 157.70569 9603201
-0.83965164 -13.816973 157.35306 9800836
-1.7821871 -13.787352 157.00072 10854549
-2.7209115 -13.758123 156.64861 12696753
-3.6553826 -13.729498 156.29677 14341834
-4.7732377 -13.700573 155.92873 13157047
-5.708756 -13.694503 155.82216 11709089
-6.6461511 -13.695021 155.78455 8485235
-7.770617 -13.695643 155.73221 7697004
-8.7074194 -13.696164 155.6826 9669509
-9.6438532 -13.696685 155.62698 8815739
-10.579991 -13.697206 155.56615 10261387
-58.638905 -13.725417 144.46645 8682867
-59.506771 -13.725952 144.11069 6445650
-60.372746 -13.726491 143.74998 6511954
-61.2365 -13.727027 143.38379 8946296
-62.269909 -13.727671 142.93767 8222573
-63.128887 -13.728209 142.56038 8090730
-63.643204 -13.72853 142.33142 9143163
-78.936874 -13.737347 139.6908 6511954
-79.943253 -13.737998 139.11693 7629923
-80.77887 -13.738542 138.63333 8485232
-81.278824 -13.738867 138.34082 9933190
-93.449715 -13.745872 136.30211 8550770
-94.431305 -13.746529 135.62357 9537921
-95.083099 -13.746966 135.16756 8617078
-96.661407 -13.443036 135.66812 7564643
-97.451172 -13.255068 135.39249 9472384
-98.385834 -13.272038 134.97054 8155756
-99.322601 -13.289492 134.54741 8418671
-100.26179 -13.307496 134.12294 9537664
-101.15575 -13.257236 133.7459 10984855
70.116798 -12.362565 173.4987 9077116
69.351364 -12.440453 173.80812 9077115
-98.424576 -12.529774 135.25081 9668738
-99.315315 -12.477713 134.87599 8813686
-100.25587 -12.494566 134.45145 8485233
-101.19895 -12.511908 134.02551 8814198
-102.14435 -12.5297 133.59837 7498850
-102.94958 -12.34094 133.31631 9274492
70.948364 -11.301501 173.55098 10260617
70.180893 -11.485172 173.81923 9142910
69.649063 -11.759339 173.94664 9142910
-99.638969 -11.873236 134.97458 9405823
-100.43861 -11.682922 134.69562 9209211
-101.3084 -11.551892 134.36172 8090731
-102.24712 -11.458588 133.98213 8946040
-103.138 -11.525465 133.55951 10129801
-104.06351 -11.424964 133.18866 8814453
-105.14236 -11.150926 132.81926 8222317
71.042068 -10.61846 173.78096 10260617
70.422264 -10.619998 174.056 9931910
-101.61504 -10.680036 134.57498 10261388
-102.39838 -10.590018 134.26309 9472127
-103.26928 -10.460274 133.92824 9340541
-104.13815 -10.515727 133.52 9998215
-105.09556 -10.531868 133.08815 8484977
-106.05561 -10.548452 132.65504 8484720
-106.68208 -10.35268 132.45525 11379095
71.020531 -9.5687046 174.20819 9866373
-103.51642 -9.8878164 134.04796 9077625
-104.39658 -9.5709543 133.78392 10721682
-105.21361 -9.5599051 133.42538 8419184
-106.16763 -9.4638443 133.04004 8945271
-107.07227 -9.530015 132.61168 11181717
-107.92775 -9.4746618 132.25395 9472130
-108.72343 -9.1407185 132.03499 9077628
71.324432 -8.5607309 174.47443 10590347
-105.53128 -8.6767397 133.63837 10261644
-106.20711 -8.547719 133.39024 10590608
-107.1265 -8.49154 133.00494 9011580
-108.09674 -8.5055799 132.56883 7827564
-108.98197 -8.5604887 132.15392 8288115
-109.87675 -8.4275627 131.81042 9077115
-110.68565 -8.3350363 131.48878 9340286
-107.08164 -7.8657002 133.27686 8616823
-108.18065 -7.5815873 132.90364 7630186
-109.12902 -7.4743347 132.52603 7169893
-109.98093 -7.5456395 132.11937 9603202
-110.95493 -7.4462657 131.72717 9406079
-111.92963 -7.3016152 131.35298 8748661
-112.77296 -7.1019521 131.05919 9471871
-109.52859 -6.6396909 132.68483 7038307
-110.16862 -6.4365511 132.48268 8221809
-110.95543 -6.4457183 132.12982 9406081
-111.94211 -6.4574361 131.68733 9997959
-112.93193 -6.4693809 131.24336 9340285
-113.72641 -6.479178 130.8869 9866629
-114.37757 -6.2749953 130.68021 9209467
-111.1115 -5.8138704 132.31506 8814200
-111.95432 -5.6109829 132.02277 9866373
-112.94593 -5.6214204 131.5786 9274748
-113.94082 -5.6321011 131.13286 9472127
-114.73936 -5.640801 130.77504 8551538
-115.6681 -5.5443745 130.40182 8946295
-113.0083 -4.8425021 131.86458 9011576
-113.97934 -4.6889882 131.49553 8354159
-114.9403 -4.5144911 131.13939 8419952
-115.81389 -4.5834546 130.72401 9406590
-116.70608 -4.5917149 130.32489 8814458
-117.71393 -4.278686 130.00372 8090737
-118.55386 -4.1784544 129.6714 10853012
-115.22857 -3.7214923 131.33083 9143675
-115.97875 -3.4691334 131.09961 10590608
-116.89661 -3.5186956 130.67241 9471874
-117.70705 -3.5245776 130.31044 8090737
-118.72377 -3.5320807 129.85629 9143166
-119.80145 -3.323622 129.46205 10525071
-116.45619 -2.8694479 131.12929 9735299
-117.16827 -2.7295499 130.86966 7564651
-117.93155 -2.6618807 130.55823 7433065
-118.74639 -2.6664898 130.19484 7367271
-119.67525 -2.7153497 129.763 10722451
-120.68317 -2.6343138 129.34842 9801348
-121.67745 -2.465683 128.97519 9406334
-118.30419 -2.0137415 130.65388 7038307
-118.97363 -1.7992692 130.44319 7367271
-119.85043 -1.5847434 130.14053 11380380
-120.74469 -1.6504692 129.71727 10458763
-121.70485 -1.5917509 129.3149 9801092
-122.64226 -1.4490621 128.95645 8879990
-123.58355 -1.3058901 128.59644 8682867
-124.31958 -1.1615397 128.328 8682867
-120.90503 -0.71392304 130.02321 10786699
-121.87537 -0.56935972 129.70341 10327692
-122.67393 -0.49739894 129.40425 10393485
-123.61033 -0.54296041 128.95464 9472383
-124.65498 -0.45634291 128.54961 9867141
-125.68045 -0.2807087 128.17946 9340796
-126.28951 -0.28139576 127.8739 12629674
-124.07851 0.16336945 129.31786 8682867
-124.70736 0.16327609 129.0374 8682867
-125.65043 0.38571313 128.76674 8156523
-126.56175 0.34126732 128.27232 8025194
-127.39217 0.46048477 127.95899 7564643
-128.43527 0.61004514 127.56522 7367269
-130.78279 1.0669266 127.72593 7828077
-131.62071 1.0683453 127.31213 9144191
-132.46165 1.0697622 126.89693 9143934
-133.30554 1.0712272 126.48034 9406335
-133.94043 1.0723245 126.16704 8617334
39.616917 -28.161188 167.29655 9406078
38.831772 -28.200403 167.26845 9537664
38.048595 -28.239954 167.24026 10459022
36.877041 -28.41889 167.03789 11314841
35.92897 -28.521297 166.9373 9538432
34.959652 -28.441832 166.91811 8288627
34.03928 -28.345106 166.51334 9209215
33.125069 -28.249626 166.11099 10064010
32.286724 -28.229536 165.7148 8749174
40.835609 -27.351248 167.6404 9340285
39.882805 -27.460024 167.5818 9406078
38.907551 -27.383705 167.59705 9208699
37.779457 -27.497431 167.53366 9604225
36.751743 -27.717438 167.42931 9209467
36.100922 -27.899231 167.34613 9209467
34.784786 -27.814198 167.08722 7039331
33.882614 -27.519146 166.77139 8288627
32.967743 -27.426516 166.36771 9209471
31.972261 -27.460348 165.87398 9143933
31.064775 -27.436155 165.44614 9143931
30.243189 -27.353931 165.08325 9538432
43.547688 -26.110119 168.18074 9208435
42.879501 -26.292297 168.09714 9734782
41.842205 -26.409163 168.03394 10392715
40.797443 -26.481911 167.98834 10392973
39.856018 -26.389662 168.01051 10261131
38.8521 -26.60169 167.9097 10130057
32.792374 -26.802681 166.53503 9143934
31.900366 -26.513525 166.22176 8749177
30.99695 -26.426014 165.82144 9143931
30.083574 -26.538258 165.33569 9275260
29.242895 -26.377615 164.99522 9998984
28.542536 -26.191273 164.73274 9670019
44.630272 -25.458176 168.45915 10327178
43.82843 -25.497969 168.43054 9734782
42.748055 -25.458961 168.42918 9997955
41.67065 -25.420898 168.42746 11379356
40.87608 -25.462269 168.39842 10261644
40.14806 -25.575146 168.34172 10261644
31.724218 -25.891592 166.38803 9143934
30.98192 -25.687279 166.11255 10261388
30.163031 -25.543728 165.77568 9603969
29.138842 -25.409029 165.33621 9341053
28.151182 -25.4778 164.83218 9077625
27.27907 -25.278856 164.49203 9735555
26.417078 -25.002581 164.18794 10129798
47.253544 -24.162943 169.02054 9406846
46.508087 -24.27523 168.96352 9406846
45.676727 -24.523701 168.85043 9736067
44.718502 -24.429699 168.87286 9340540
43.659897 -24.504112 168.82634 9011315
42.615841 -24.62397 168.76187 10853012
41.94746 -24.808702 168.67729 11379356
29.762392 -24.90476 165.84056 9867141
28.849596 -24.502089 165.56305 9011832
28.050909 -24.431385 165.20647 10656657
27.116152 -24.468901 164.74057 10854036
26.239988 -24.392197 164.34908 10525329
25.446016 -24.257307 164.02071 9144449
49.380672 -22.978092 169.53029 9209467
48.448208 -23.366131 169.35951 9209211
47.670929 -23.590416 169.25702 8880502
46.665562 -23.512495 169.27211 10460046
45.663029 -23.435545 169.28683 9867653
44.687054 -23.548532 169.22581 9340797
43.805485 -23.623096 169.1819 8682867
27.834871 -23.733341 165.38423 10459278
27.13719 -23.554222 165.12018 9406590
26.308306 -23.404682 164.78085 10130316
25.294306 -23.478979 164.26192 10196366
24.338747 -23.43898 163.81728 9999243
23.489992 -23.171696 163.51591 9012347
49.585655 -22.306095 169.77853 9932933
48.544621 -22.526035 169.6982 10656398
47.574043 -22.432346 169.7202 9472896
46.538563 -22.667881 169.60902 9143932
45.63863 -22.847635 169.52242 10130825
25.815447 -22.568134 164.8811 10985623
25.052408 -22.506895 164.5379 10393487
24.185335 -22.43782 164.14766 11314328
23.361784 -22.451565 163.745 10590607
22.530409 -22.438683 163.34937 8354675
50.373138 -21.503237 169.89131 9866629
49.55307 -21.502768 170.12509 10656398
48.665443 -21.473076 170.12273 12826795
47.756523 -21.654589 170.0352 11183254
24.886473 -21.699104 164.78413 8485494
24.171446 -21.511911 164.51491 9866883
23.236303 -21.440996 164.09267 10656399
22.299402 -21.502142 163.6162 9143678
21.376471 -21.432905 163.19914 9012095
20.61054 -21.179773 162.93201 11183004
