# .PCD v0.7 - Point Cloud Data file format
VERSION 0.7
FIELDS x y z rgb
SIZE 4 4 4 4
TYPE F F F U
COUNT 1 1 1 1
WIDTH 1210
HEIGHT 1
VIEWPOINT 0 0 0 1 0 0 0
POINTS 1210
DATA ascii
147.35938 -61.03793 29.309824 8024943
147.43738 -60.752308 30.526094 9077112
147.36305 -60.681881 31.497625 7168860
147.40569 -60.450512 32.373699 9405819
147.35663 -60.388195 33.106941 15196110
133.32755 -59.369194 -30.657839 11378324
133.49911 -59.381901 -30.024469 10130056
133.75357 -59.401909 -29.072733 8288627
134.00414 -59.423176 -28.119513 8288627
134.25095 -59.44582 -27.16474 10787214
134.49388 -59.469723 -26.208349 11116178
134.541 -59.610447 -25.215391 9865854
134.91103 -59.606892 -24.232855 11115920
135.21844 -59.610355 -23.374464 11050384
135.26572 -59.908691 -22.340584 8617331
135.63464 -60.003445 -21.399172 11315100
136.12193 -59.95192 -20.471762 9735812
136.39954 -60.11797 -19.593801 8353647
136.73755 -60.303661 -18.55459 9208700
147.85329 -60.013649 31.543402 7037274
147.82603 -59.902962 32.393837 9602941
147.82455 -59.785053 33.401676 10721934
147.90091 -59.579575 34.281258 8089961
147.88885 -59.477005 35.104614 10591630
148.27481 -59.303478 36.331894 7893349
127.17433 -58.785511 -58.172569 10196363
127.85625 -58.802204 -57.403595 10525328
128.12529 -59.101002 -56.468452 10065035
128.52315 -59.099815 -55.544868 7565675
127.96812 -59.099209 -54.403305 8946813
128.41449 -59.097832 -53.326973 8617590
128.78964 -59.096664 -52.401379 7565417
129.15814 -59.095501 -51.473068 9141878
129.5199 -59.094337 -50.542099 10457481
129.54134 -59.093445 -49.601654 8484205
129.22224 -59.092827 -48.656471 7498592
129.56363 -59.091679 -47.725166 8485229
129.95325 -59.09034 -46.635464 9800318
130.33412 -59.089012 -45.542706 9602941
130.65305 -59.087875 -44.603401 8945524
130.96512 -59.086746 -43.66185 7038298
131.27046 -59.085613 -42.718117 7038298
131.56902 -59.084488 -41.772079 6511954
131.21703 -59.08387 -40.800575 7169373
131.25116 -59.083199 -39.609314 7761254
131.54227 -59.088783 -38.667835 7037786
131.83319 -59.09734 -37.72617 7103323
132.12032 -59.107224 -36.782913 8287598
132.40356 -59.118412 -35.838348 14605262
132.68309 -59.130898 -34.892231 14604494
132.70081 -59.229866 -33.880108 10656663
132.97162 -59.244801 -32.932888 7695979
133.2386 -59.261051 -31.984081 8484205
133.53662 -59.260544 -31.108862 9602428
134.02296 -59.213142 -30.139254 10130056
134.27881 -59.233208 -29.183828 8288627
134.53062 -59.254547 -28.226925 7564136
134.77855 -59.277187 -27.268408 8681843
135.02266 -59.301125 -26.308247 11116178
135.26291 -59.326427 -25.346613 10129025
135.46028 -59.348457 -24.543898 10852748
148.62495 -59.270138 34.529007 7037274
148.4863 -59.283012 35.250244 10260870
148.91222 -59.105099 36.302269 7695714
148.73257 -59.123055 37.207191 7235420
148.91522 -59.068642 38.208061 10262410
149.04163 -58.994743 39.199219 7432288
149.35178 -58.993511 40.246517 8485232
149.65462 -58.992283 41.297604 14933971
149.45003 -58.991787 42.015694 14078405
150.30627 -58.989941 43.240555 7565158
150.03787 -58.989323 44.141716 6841439
150.94803 -58.987579 45.207039 6511962
150.72401 -58.987091 45.931046 6774617
150.49721 -58.986607 46.654171 6510930
151.287 -58.984604 48.105904 9472639
150.98956 -58.984001 49.012886 10985367
151.89621 -58.982227 50.123985 11906725
151.58626 -58.981632 51.034473 8945784
152.47333 -58.746456 52.158802 11445917
152.21841 -58.746964 52.890953 8815484
151.96318 -58.748463 53.622978 8092019
126.94551 -57.769176 -58.971474 6839893
127.42477 -57.944241 -58.360332 8683124
127.93554 -58.034241 -57.761497 8090987
152.50427 -57.911442 52.991676 9143420
152.30385 -57.704315 53.796478 11314588
152.18224 -57.358692 54.527588 12433069
126.65823 -56.711864 -59.855679 5392706
127.112 -56.787395 -59.326096 6971479
127.67715 -57.005703 -58.598911 8090987
152.64258 -56.759186 53.866177 9802373
152.3215 -56.762718 54.785255 10590353
126.75649 -55.944206 -60.167282 10261126
127.44357 -55.847065 -59.480186 8681325
127.81213 -56.170334 -58.907845 7892581
152.7822 -56.162781 54.123158 8420464
152.68205 -55.767517 54.847427 8683124
152.51453 -55.506012 55.617851 9735043
126.47055 -54.735439 -61.131321 7038307
127.03753 -54.945465 -60.406567 10326665
127.43287 -55.191223 -59.847401 9339512
152.99976 -54.772503 55.032661 9538433
152.67662 -54.777767 55.955822 9208955
126.25879 -53.734299 -61.901913 12827055
126.71474 -53.802689 -61.373573 9274752
127.28348 -54.011093 -60.647797 8154724
153.08849 -53.837376 55.810196 10590864
152.8121 -53.729706 56.72345 9274748
125.93203 -52.60067 -62.868233 7038307
126.31277 -52.972065 -62.256775 11379868
127.04037 -52.865147 -61.530724 10722196
153.28636 -52.985352 56.182358 9209467
153.15909 -52.790051 56.76384 9208955
152.89943 -52.730106 57.576195 9208443
126.05613 -51.775787 -63.181545 7038307
126.69914 -52.019726 -62.356438 9603716
153.4576 -51.873444 56.918198 9406078
153.17139 -51.801037 57.820595 9734787
153.04486 -51.409386 58.616573 10458766
125.88428 -50.647488 -63.978035 7432289
126.43061 -50.898064 -63.253571 8155756
126.92439 -51.11396 -62.604469 9405051
153.57506 -50.802246 57.763603 9471871
153.2872 -50.770321 58.626022 10458508
125.50187 -49.66404 -64.922852 11379350
126.09801 -49.812668 -64.20005 10260871
126.67804 -49.907097 -63.523846 11379350
153.7803 -50.005608 58.053497 9208443
153.58485 -49.862514 58.773102 11642523
153.3763 -49.661263 59.594688 11050642
125.39297 -48.576187 -65.629646 8682867
125.77908 -48.937351 -65.017982 8484975
126.36869 -48.997017 -64.350296 12103072
153.92345 -48.814354 58.957565 10524556
153.65982 -48.822308 59.706306 9406589
153.46324 -48.63121 60.482117 9735297
125.47798 -47.820503 -65.947556 10195848
126.08661 -47.945137 -65.22419 8748147
126.43056 -48.346413 -64.636223 9208184
153.97464 -47.955349 59.759056 8617074
153.77168 -47.717106 60.605274 10787730
153.60297 -47.440845 61.39518 10261646
125.21204 -46.66246 -66.941788 8748403
125.76623 -46.839249 -66.208229 10589834
126.20538 -47.123909 -65.541145 10458249
154.26808 -47.02235 59.945786 9735297
154.07069 -46.830833 60.72464 12958642
153.94777 -46.522934 61.606579 8880252
153.84241 -46.279957 62.354305 10261646
125.06779 -45.722324 -68.103828 8221805
125.63026 -45.861294 -67.340981 9208435
126.03 -46.192013 -66.538879 9734523
154.38127 -46.26202 60.848839 15721430
154.43492 -45.814453 61.732521 7564651
154.228 -45.696808 62.599483 8551285
154.08707 -45.559654 63.321983 8682867
124.06543 -44.506943 -71.704315 10261901
124.57712 -44.537209 -71.008415 9735558
124.81483 -44.664135 -70.15876 8354164
124.91461 -45.02401 -69.105721 8353134
125.49506 -45.064228 -68.383553 8089963
154.68169 -45.091469 62.699623 8946041
154.70638 -44.844028 63.471436 9735555
122.68472 -43.906937 -78.750572 8419696
123.35116 -43.90057 -78.070686 6841687
123.68057 -44.123981 -77.315407 8616048
123.22064 -44.122768 -75.605827 10260358
123.66763 -44.121704 -74.865395 9142905
124.19832 -44.120441 -73.973396 9604228
124.05003 -44.233784 -73.085426 9341057
124.50364 -44.306862 -72.153763 9933193
124.91581 -44.330841 -71.595619 7564651
122.40064 -42.885521 -79.502968 8617075
122.96423 -43.030418 -78.929771 7893607
122.09342 -41.504509 -80.451729 10590092
122.50914 -41.903149 -79.88633 9011062
123.11922 -42.032639 -79.279205 10326922
122.25279 -40.745819 -80.676414 8090474
122.81062 -40.950905 -80.082741 8616562
121.96515 -39.687618 -81.41848 6709334
122.41898 -39.998425 -80.875893 6775126
123.05881 -40.146126 -80.244522 6511954
121.61288 -38.574768 -82.240227 5393730
122.08762 -38.930103 -81.658745 7367008
122.66041 -39.096352 -81.077919 9011320
121.73511 -37.79071 -82.492928 6643541
122.35529 -37.912949 -81.890579 6577492
122.78514 -38.310364 -81.329369 10261132
121.95551 -36.797173 -82.755547 9077112
122.42105 -37.074562 -82.217995 7563619
121.49766 -35.950809 -83.547768 9734013
122.06579 -35.980175 -83.033897 10260871
121.27834 -34.582577 -84.362999 7235163
121.74261 -35.009472 -83.764565 7695457
122.33463 -35.200089 -83.155693 11511193
121.39176 -33.823311 -84.603706 9010803
122.03429 -34.034096 -83.952393 6511954
112.36412 -32.76548 -124.34388 7038307
112.6148 -32.709049 -123.72671 8814201
112.94567 -32.634014 -122.90464 10853521
113.35339 -32.540802 -121.87865 9932419
121.05513 -32.943176 -85.28788 7564643
121.64886 -32.802067 -84.836884 7564130
122.09126 -33.193886 -84.279137 6511954
113.7552 -32.448139 -120.85406 11182228
114.07202 -32.374416 -120.03561 9340539
114.30713 -32.319302 -119.42247 11182228
114.65204 -31.976244 -113.6513 9340030
114.87194 -31.924408 -113.05581 8879479
115.23405 -31.838423 -112.06496 6511954
115.591 -31.753025 -111.07573 7235678
115.94208 -31.668335 -110.08847 10392715
116.28805 -31.584114 -109.10304 13022893
116.56071 -31.51726 -108.316 11970720
116.76313 -31.467293 -107.72649 10984340
121.12935 -31.99448 -85.650536 8486261
121.76599 -31.905903 -85.135574 7762281
116.96336 -31.417685 -107.13775 9932163
117.22745 -31.351736 -106.35367 9340027
117.86775 -30.915983 -99.237267 7564386
118.161 -30.838402 -98.283722 7367007
118.44884 -30.761431 -97.33213 8354414
118.73204 -30.684916 -96.382294 9341054
119.00992 -30.60907 -95.434303 10525328
119.2832 -30.533701 -94.488091 9275260
119.44477 -30.488737 -93.921211 8617075
120.86333 -30.807644 -86.458519 10854297
121.4714 -31.058992 -85.798538 12104107
120.18146 -29.659403 -89.271179 9340797
120.62564 -29.732758 -88.486549 11510935
120.88857 -29.898647 -87.646515 10656140
121.22372 -30.0982 -86.715546 9407365
121.58082 -30.274397 -86.094261 10854297
120.97334 -29.390776 -89.184975 9011574
140.97878 -68.365219 -0.049657226 9538177
141.10634 -68.428864 0.62829077 9538177
141.75053 -68.333992 3.3577275 9735553
141.87715 -68.404877 4.0433698 8617079
142.55055 -68.356361 6.9805207 10787731
142.6763 -68.4347 7.6746125 9340545
143.25412 -68.3536 10.127225 9209214
143.3793 -68.438484 10.829503 11906722
143.92517 -68.356194 13.137387 8618105
143.9875 -68.401619 13.492375 8618105
140.20656 -67.581322 -3.5880637 9340027
140.50468 -67.787727 -2.6943107 12694952
140.75734 -67.833603 -1.9093679 10918801
140.94653 -67.868324 -1.0227693 7761254
141.18149 -67.820877 -0.048947692 9012089
141.44104 -67.734802 0.9708811 9538177
141.63246 -67.833351 1.9934584 9669761
141.83249 -67.885353 2.976727 9735553
142.08209 -67.858063 4.0500302 8222320
142.3089 -67.765724 4.9127717 9406079
142.49226 -67.816772 5.819695 8156270
142.68713 -67.861374 6.7669816 8945787
142.97464 -67.772926 7.9073892 7959408
143.17308 -67.842201 8.9116564 7827565
143.35179 -67.867081 9.7537832 7564648
143.59569 -67.793221 10.722939 9932936
143.81487 -67.81076 11.733809 10130828
144.01253 -67.891098 12.753276 8618105
144.19141 -67.901474 13.792123 7960175
144.35875 -67.538223 14.579473 8682867
144.44594 -67.405205 15.465936 8682867
139.76189 -66.549606 -5.5942473 9209467
140.08057 -66.756676 -4.651403 10393226
140.39336 -66.877045 -3.8029666 8748661
140.73491 -66.837082 -3.0359149 8616307
141.12637 -66.732567 -2.0822921 9471616
141.32567 -66.823143 -1.0664457 8024426
141.51901 -66.914337 -0.047772765 9867142
141.77942 -66.827339 0.97452414 11446174
142.03967 -66.743233 2.0007539 9932931
142.20671 -66.884903 2.985949 9538431
142.39722 -66.870438 3.8156762 7959149
142.61919 -66.83622 4.7533135 7892839
142.87885 -66.762878 5.7941537 7827046
143.06966 -66.875031 6.8358445 9538689
143.29044 -66.880371 7.8336473 8354415
143.55667 -66.72303 8.7639112 8617076
143.71507 -66.823769 9.6412611 9866885
143.91429 -66.896561 10.654838 9209214
144.19376 -66.812447 11.766292 8618105
144.39786 -66.753769 12.582763 9538949
144.5233 -66.914574 13.544925 10262157
144.62982 -66.795822 14.607966 8945782
144.6833 -66.782455 15.718575 9340796
144.82332 -66.511871 16.670935 9603455
144.89354 -66.413177 17.456146 9866371
139.31384 -65.538544 -7.5893054 9868169
139.63298 -65.737236 -6.6531482 11052183
139.97832 -65.812172 -5.7702708 10722447
140.30692 -65.951553 -4.8668952 10196104
140.75822 -65.729355 -4.0107589 10261642
141.08847 -65.87397 -3.0985827 8879222
141.39909 -66.011719 -2.0853095 8221549
141.6619 -65.918541 -1.0677046 8287341
141.85619 -66.008728 -0.046590209 10853012
142.04991 -66.102089 0.9774462 11379610
142.27867 -66.000824 1.834128 10261386
142.50671 -65.94455 2.7623773 9735553
142.70023 -66.003105 3.7270608 9077369
142.89255 -66.107887 4.763514 9143419
143.15298 -66.033653 5.8063607 7695461
143.3869 -65.99128 6.7831826 10328205
143.5676 -66.00914 7.6224351 11907493
143.75092 -66.05307 8.5166502 8353901
144.06049 -65.9524 9.7354383 10130054
144.25237 -66.030266 10.724845 8748660
144.42378 -66.066536 11.553042 8683382
144.69023 -65.976952 12.59711 9802121
144.89726 -65.913902 13.631785 10261899
144.9684 -65.868713 14.643596 8814453
144.9899 -65.92495 15.602 11182485
145.09026 -65.755966 16.490726 12432038
145.12733 -65.779678 17.536003 10392458
145.22408 -65.630875 18.510334 10195078
145.33908 -65.429253 19.464653 8353390
138.86234 -64.547264 -9.5739985 8617331
139.18198 -64.737885 -8.6441393 8946297
139.52728 -64.805603 -7.7680182 10065034
139.89279 -64.900833 -6.8187709 10788498
140.36046 -64.783333 -5.8268275 11971745
140.69099 -64.809906 -5.0237498 9801091
140.93692 -65.076859 -4.1964908 10656399
145.23904 -65.127403 14.671958 8682867
145.3109 -65.024231 15.456252 9275003
145.41403 -64.861267 16.458101 10853264
145.45256 -64.878487 17.481607 9405821
145.52586 -64.811485 18.600828 7037274
145.57553 -64.804237 19.675583 8287341
145.71049 -64.529747 20.479832 8089962
145.77965 -64.439766 21.312708 9142902
138.4678 -63.596928 -11.386607 8419702
138.72754 -63.758022 -10.625093 9275262
139.07292 -63.81876 -9.7553587 8683124
139.43851 -63.906281 -8.8130655 10327692
139.93764 -63.743263 -7.7893138 8880503
140.27063 -63.925335 -6.8358512 9669762
140.60806 -64.009361 -5.9630275 9866374
145.69269 -64.141304 16.845549 11708316
145.76343 -64.041702 17.635832 9866371
145.8438 -63.929604 18.540918 7168860
145.91814 -63.824425 19.366217 7826790
145.96767 -63.818222 20.445576 11248025
146.0551 -63.70858 21.533669 11445653
146.09431 -63.716755 22.49786 9340281
146.21889 -63.455883 23.178015 9800573
138.00334 -62.639435 -13.353015 8419702
138.31425 -62.680153 -12.600575 7696233
138.61517 -62.850967 -11.732972 7893615
138.98088 -62.931019 -10.797299 8288367
139.47908 -62.760899 -9.7823591 8814710
139.81244 -62.934937 -8.8354063 8156780
140.14993 -63.012016 -7.9691997 8090987
146.13661 -63.140934 18.681471 8089962
146.20663 -63.04417 19.47732 9405566
146.30745 -62.889183 20.494638 11445401
146.38048 -62.810738 21.511034 10787723
146.42297 -62.798508 22.381634 8089954
146.49464 -62.724495 23.40362 10326919
146.55026 -62.696995 24.446867 9011061
146.6626 -62.505821 25.425364 10853004
137.83829 -61.556648 -14.607293 7038307
138.1371 -61.894085 -13.699954 9208958
138.58517 -61.848087 -12.735875 8354158
139.01721 -61.797363 -11.765553 8748916
139.38322 -61.925091 -10.785052 8485232
139.68852 -62.033955 -9.9648848 8156524
146.62848 -62.109097 21.350615 10261379
146.74855 -61.900429 22.360643 7826782
146.83548 -61.79353 23.459566 11576730
146.87518 -61.808743 24.493753 8616305
146.95094 -61.702312 25.340126 9143163
146.98792 -61.721272 26.342815 11249308
147.09956 -61.532944 27.329704 13880516
137.10448 -60.409229 -17.599417 8287854
137.44095 -60.60146 -16.553518 9340286
137.7626 -60.794918 -15.586072 9406081
138.21571 -60.747883 -14.712729 8748665
138.59438 -60.870403 -13.743506 8090989
138.87379 -61.02496 -12.873528 7169884
139.28517 -61.095398 -11.787271 7630179
147.02727 -61.182396 22.766199 9142649
147.08607 -61.103245 23.379797 11839901
147.18227 -60.985283 24.243399 8879477
147.31506 -60.829613 25.359079 8156011
147.43883 -60.73101 26.294832 8222060
147.45872 -60.756397 27.260658 10196363
147.45207 -60.830688 28.269722 6840924
147.6236 -60.615047 29.456114 7038307
147.82231 -60.309666 30.051916 7038307
135.82484 -59.397503 -23.09893 9932934
136.00966 -59.431496 -22.459372 9932934
136.28391 -59.483509 -21.498243 9275004
136.79085 -59.473736 -20.501694 7762277
137.00049 -59.615948 -19.55139 7959400
137.27669 -59.730526 -18.625023 8879991
137.60901 -59.819569 -17.661671 8419696
137.95552 -59.917622 -16.696751 8156268
138.20145 -60.140583 -15.784631 9143166
138.62968 -60.121792 -14.922999 8090736
147.91223 -60.131916 27.30102 6511186
148.02905 -60.033001 28.245005 6511954
148.14491 -59.935631 29.192492 6840920
148.25128 -59.758751 30.327425 7103068
148.31323 -59.610783 31.244429 7826789
148.42847 -59.42894 32.230209 9668990
148.29652 -59.439976 32.949108 9735040
128.60193 -58.710938 -56.676144 8223347
129.28593 -58.838673 -55.870293 7960176
128.91434 -59.098629 -54.618408 9012347
129.29884 -59.097446 -53.689148 9669762
129.67664 -59.096272 -52.757141 7565417
130.04762 -59.095093 -51.822418 7168603
130.4119 -59.093925 -50.88504 7168603
130.57504 -59.092766 -49.783047 6906456
130.22324 -59.092018 -48.672523 10392710
130.56479 -59.090862 -47.733948 10392710
130.89949 -59.08971 -46.792992 9602941
131.2274 -59.088562 -45.849602 9274233
131.54855 -59.087418 -44.903893 7367007
131.86279 -59.086281 -43.955818 7038298
132.17024 -59.085144 -43.005592 7038298
132.47079 -59.084011 -42.053143 6511954
132.5625 -59.082905 -40.950832 8682864
132.34831 -59.082214 -40.020615 7301472
132.42343 -59.081131 -38.921638 9011579
132.6945 -59.080017 -37.967476 6380372
132.95865 -59.078911 -37.01136 6971738
133.21593 -59.077808 -36.053375 14605262
133.46625 -59.076714 -35.093533 14604494
133.70963 -59.075611 -34.131912 11446178
133.94608 -59.07452 -33.168602 8353394
134.1756 -59.073437 -32.203587 9931136
134.39807 -59.072353 -31.236868 8944499
134.61362 -59.071278 -30.268641 10394510
134.82217 -59.070202 -29.298918 8683384
135.05818 -59.084148 -28.334612 7564136
135.30833 -59.107178 -27.372484 8681843
135.55446 -59.131542 -26.408884 10063493
135.79594 -59.156849 -25.443361 10129025
136.03351 -59.183453 -24.476349 10129025
136.2767 -59.215488 -23.509148 10590349
136.55276 -59.26466 -22.545897 9932934
136.82861 -59.316776 -21.580956 9011832
137.01067 -59.352222 -20.936373 8682867
149.06171 -59.232563 32.183937 7037274
148.89606 -59.246292 33.086075 8813939
149.10977 -59.142166 33.964272 7037274
149.15837 -59.081661 35.035034 7234908
149.56013 -59.029545 36.019974 8879474
149.60512 -58.996281 37.048737 7695714
149.93034 -58.995045 38.091484 8682353
150.2484 -58.993809 39.138111 7168861
150.00488 -58.993172 40.039009 9538688
150.92805 -58.991451 41.071426 8682867
150.67264 -58.990818 41.976295 9538432
150.46478 -58.990318 42.699226 8682867
151.38458 -58.988575 43.755562 9801607
151.11339 -58.987949 44.663277 8486261
151.9789 -58.986073 45.922066 7038307
151.63689 -58.985329 47.015259 8552305
152.55841 -58.983559 48.114288 8287597
152.32045 -58.983067 48.846043 8287597
152.07954 -58.98259 49.576771 11906725
152.9817 -58.749329 50.694008 9274492
152.66414 -58.74696 51.609543 8945527
128.40105 -57.747383 -57.416359 8090987
128.98619 -57.886887 -56.71051 9669763
129.47484 -58.315018 -55.951767 7565675
153.12337 -58.151905 50.946358 8484976
153.02666 -57.752571 51.665298 7563874
152.81844 -57.552975 52.48423 9471871
128.02817 -56.697575 -58.388573 7958631
128.62749 -56.913425 -57.625938 8879475
129.2269 -56.969051 -56.950417 10853012
153.34665 -56.757641 51.843651 7497825
153.02698 -56.757278 52.763069 9670275
127.82854 -55.438774 -59.286861 9339512
128.31984 -55.854797 -58.532059 9273976
128.91673 -56.063778 -57.775665 7892581
153.48753 -56.160488 52.098114 8484976
153.38489 -55.819233 52.770081 8946808
153.14977 -55.649647 53.633064 8025450
128.03377 -54.779789 -59.42281 9405561
128.71664 -54.896839 -58.623535 12037023
153.70857 -54.767319 53.001461 9341822
153.45114 -54.768269 53.740097 7959657
153.19337 -54.770214 54.478699 7564643
127.74561 -53.839684 -60.242737 8418153
128.31894 -53.947468 -59.566486 9339512
128.77643 -54.125717 -58.976948 7892581
153.78979 -53.872196 53.756481 8617330
153.5332 -53.774879 54.601265 9604226
153.34233 -53.578716 55.366295 14077894
127.50576 -52.739761 -61.097137 8154981
127.99242 -52.904526 -60.483459 8879216
128.52029 -53.059078 -59.830894 9208437
153.88553 -52.818661 54.64476 10064519
153.60156 -52.742588 55.544846 13419964
127.20467 -51.696808 -61.986679 10128515
127.67834 -51.810883 -61.414402 10326406
128.23854 -51.969681 -60.724724 9471865
154.07738 -52.181297 54.797523 10458249
153.95348 -51.785721 55.59005 11906467
153.69456 -51.690605 56.439178 10459278
127.29677 -50.933655 -62.300911 9668222
127.90666 -50.968449 -61.624828 10129028
128.36697 -51.138969 -61.03643 10262156
154.29327 -50.788715 55.714462 10458249
154.0325 -50.792812 56.459564 10525074
153.7713 -50.797707 57.204742 9208443
127.04234 -49.793602 -63.192772 10589322
127.57238 -49.93795 -62.543423 9602429
128.06245 -50.096504 -61.929428 9536637
154.31512 -49.852833 56.685242 8683642
154.04463 -49.801472 57.519283 9472128
153.98335 -49.406673 58.131275 10458766
126.83329 -48.57716 -64.077118 11379350
127.23632 -48.809525 -63.516953 9997442
127.81375 -49.006512 -62.78804 9405051
154.44928 -48.801746 57.460415 11380895
154.12085 -48.809162 58.396114 11379607
126.8129 -47.93264 -64.448349 9208697
127.55848 -47.873024 -63.677231 8419694
154.65501 -48.003777 57.75024 8947326
154.45959 -47.809879 58.526058 10920084
154.30801 -47.549534 59.249092 9735811
126.57501 -46.815277 -65.348076 10656400
127.18472 -47.004955 -64.559944 9077625
127.47885 -47.399784 -64.019493 7959144
154.79861 -46.809669 58.656368 10328462
154.50813 -46.777622 59.526493 9078654
126.23709 -45.551556 -67.033859 9208435
126.58047 -45.83588 -66.344231 11575960
127.03468 -46.110039 -65.547035 9406333
127.4872 -46.350391 -64.789543 9406590
154.99403 -46.102535 59.459267 9275777
154.87384 -45.845806 60.399612 11379868
154.83134 -45.533924 61.244751 10196109
125.3923 -44.587162 -69.890648 10261124
125.93657 -44.564514 -69.404472 8945269
126.18301 -44.812386 -68.235054 9011059
126.50121 -45.019569 -67.422661 9208435
126.93951 -45.181618 -66.69265 11313044
155.2928 -45.161736 60.781357 7038307
155.15376 -45.022034 61.504066 7104100
155.35696 -44.667122 62.324295 7893357
155.56273 -44.45055 63.354248 10130313
155.84377 -44.292736 64.055534 10130313
123.77989 -43.594978 -77.926781 6512978
124.33559 -43.833191 -77.172264 9208442
124.41008 -44.122272 -76.124878 9668478
124.94987 -44.120995 -75.227455 9340287
125.3064 -44.120148 -74.627251 8419958
124.8095 -44.118969 -72.927986 9341057
125.26239 -44.12561 -72.190529 8288116
125.61518 -44.235691 -71.277 8617336
125.83936 -44.387009 -70.334114 9800834
124.02999 -42.846169 -78.069771 9735298
124.60423 -43.013378 -77.476212 9736329
123.65568 -41.959854 -78.836594 10655630
124.28866 -42.012775 -78.246468 11050386
123.33302 -40.804867 -79.688606 10787471
123.90129 -40.947956 -79.112114 11050387
124.37556 -41.174141 -78.578758 9734788
123.47881 -39.775955 -80.044777 8090473
124.05284 -39.946423 -79.46006 10458252
123.06867 -38.968594 -80.777092 6511954
123.81191 -38.89769 -80.155113 7301215
123.31378 -37.920013 -81.043221 6840408
123.80345 -38.276276 -80.448189 7564131
122.98467 -36.83292 -81.832703 8484719
123.65253 -36.984123 -81.175041 7893096
122.66308 -35.947983 -82.522629 7563619
123.2538 -35.812435 -82.064781 9997700
123.73999 -36.031879 -81.535698 9077626
122.74768 -34.998035 -82.884819 8682098
123.38223 -34.915943 -82.363762 9011063
122.40845 -33.698795 -83.778511 6577748
123.02391 -33.983688 -83.107803 6445906
123.40507 -34.373741 -82.592834 5920074
113.82574 -32.754883 -125.95477 8090730
113.99361 -32.716759 -125.53597 8090730
122.29496 -32.483753 -84.419731 5392706
122.68401 -32.872757 -83.909279 5787464
123.32543 -33.008183 -83.290123 6117197
114.53985 -32.264538 -118.80996 12103072
114.84671 -32.191677 -117.99422 10064003
115.14978 -32.119221 -117.17954 7367006
115.52289 -32.029167 -116.16279 10787982
115.89385 -31.940571 -115.15109 14077885
116.1882 -31.870682 -114.34502 6510930
116.55088 -31.783861 -113.33924 6775127
116.90833 -31.697668 -112.33525 5920074
122.31141 -31.941526 -84.647408 6116429
122.95317 -31.854815 -84.130516 5590085
117.5526 -31.269892 -105.37538 7892843
117.87277 -31.188536 -104.39886 9867404
118.18733 -31.107887 -103.42429 14604238
118.49699 -31.02771 -102.4515 7959144
118.80116 -30.948238 -101.48074 6511954
119.10051 -30.869261 -100.51176 9406590
119.33617 -30.806494 -99.737984 8288621
119.62587 -30.728575 -98.772545 8288621
119.91095 -30.651228 -97.808853 7433057
120.19069 -30.574488 -96.847267 8748917
120.51988 -30.483047 -95.695686 8156780
122.00993 -30.659416 -85.523453 13024695
122.4404 -31.046049 -84.953545 8090476
123.03821 -30.902761 -84.498024 5392706
120.78898 -30.407495 -94.738144 8090219
121.05276 -30.332523 -93.782661 7563619
121.61394 -29.672117 -87.432701 7564643
122.05331 -29.67716 -86.865379 10130831
122.1919 -29.977415 -85.962288 12695731
122.72292 -30.162012 -85.149376 10590609
121.28036 -29.38751 -88.741341 9011574
121.82906 -29.39183 -88.028481 8024937
122.38078 -29.397781 -87.317253 9736330
141.53413 -65.650917 -2.0867534 7892584
141.86353 -65.376228 -1.0684904 8484464
142.0583 -65.465782 -0.04588449 11379356
142.25261 -65.558472 0.97959387 11181977
142.41412 -65.638123 1.836413 10261129
142.66585 -65.478065 2.6976342 9734782
142.90448 -65.457939 3.733233 9340540
143.0975 -65.561981 4.7711396 10262156
143.3403 -65.587257 5.9010148 7827302
143.58745 -65.396393 6.6897035 10525840
143.74763 -65.490219 7.5635095 13552573
143.93942 -65.605743 8.6153288 9669503
144.22325 -65.480476 9.6775656 11182226
144.42891 -65.459534 10.564055 8682867
144.58824 -65.563118 11.450339 8880503
144.849 -65.506523 12.523849 9012089
145.06253 -65.423958 13.421821 9801347
141.20692 -64.567902 -4.0338264 10721937
141.50856 -64.801613 -3.1061759 9800581
141.80211 -64.928902 -2.0897269 8484721
142.06499 -64.834244 -1.0692037 7497825
142.28979 -64.785439 -0.14276636 10918805
142.48274 -64.761871 0.68261206 10063494
142.6525 -64.897186 1.6691195 10261129
142.87633 -64.885948 2.6533303 9537402
143.17674 -64.731461 3.7413735 8879737
143.37051 -64.834541 4.7813516 10327181
143.53172 -64.922821 5.6504502 9011064
143.76115 -64.831268 6.5255227 8551538
144.0228 -64.760269 7.5791001 11710114
144.21552 -64.874718 8.6329718 9801089
144.40953 -64.918221 9.5745039 9735296
144.69278 -64.718025 10.509612 9143418
144.86662 -64.829247 11.473556 9209212
145.08919 -64.844231 12.495456 9670019
145.29704 -64.816376 13.561923 9274751
145.40465 -64.631561 14.33652 7630185
145.48999 -64.514748 15.316947 8879991
140.68492 -63.629787 -6.1351142 9274237
141.05209 -63.778709 -5.1320357 8879479
141.42203 -63.88015 -4.1666236 9734784
141.92633 -63.781273 -3.0710692 10064003
142.17876 -63.888351 -2.1365771 9668991
142.37286 -63.859528 -1.3146318 8748148
142.56058 -63.882339 -0.43526971 9273980
142.85362 -63.767071 0.68590415 9537404
143.05824 -63.810764 1.6754481 9866369
143.25371 -63.906551 2.7109246 9668988
143.49022 -63.853611 3.6817727 8024943
143.73343 -63.719696 4.5479493 7893358
143.90964 -63.813717 5.4938035 9471616
144.10394 -63.920628 6.5424676 8616562
144.40536 -63.775566 7.6505532 11050642
144.59114 -63.820198 8.5572691 9932421
144.78374 -63.815147 9.411521 9208955
144.98222 -63.863892 10.381801 9406590
145.28389 -63.729145 11.50833 10722707
145.43874 -63.893864 12.476531 11314588
145.63042 -63.826458 13.300296 10064010
145.70387 -63.812119 14.367263 7827565
145.78047 -63.735531 15.481582 10853266
145.83629 -63.700226 16.463346 10656140
145.92859 -63.552643 17.348055 11050643
145.98637 -63.466244 17.948553 9866371
140.10294 -62.589073 -8.4729795 8090987
140.30202 -62.799751 -7.8083682 8354159
140.625 -62.737625 -7.1056285 8288366
140.96046 -62.920006 -6.1460891 8616307
141.46556 -62.762627 -5.1029677 8879479
141.83739 -62.862366 -4.1347175 9800576
142.11528 -62.977325 -3.3733954 9735037
142.40276 -63.097462 -2.4382606 9669243
142.60303 -63.181545 -1.4136385 9209467
142.80028 -63.267536 -0.38616312 9406590
143.08173 -63.078064 0.55907691 9471870
143.32855 -63.087002 1.6796557 10458252
143.52489 -63.181881 2.7170777 9208700
143.68819 -63.263203 3.5840478 7038307
143.94191 -63.104877 4.4566445 7827565
144.18282 -63.086639 5.5053353 8156013
144.37801 -63.192501 6.5559793 8089963
144.54036 -63.28307 7.4341836 9340027
144.84015 -63.011272 8.3236303 9274237
145.03473 -63.125095 9.385169 9734788
145.22899 -63.24221 10.450576 9735556
145.5619 -62.996063 11.531363 10591121
145.69136 -63.077824 12.24739 9735812
145.90358 -63.107677 13.414863 8879995
146.02563 -62.936146 14.444671 8879995
146.08647 -62.878124 15.352592 11576731
146.16574 -62.769482 16.261686 10853518
146.20444 -62.789749 17.314192 9603708
146.28082 -62.698093 18.298601 8287341
146.38666 -62.532486 19.340929 8879478
139.94824 -61.659805 -9.7010527 7695716
140.19809 -61.875111 -8.9127264 7695717
140.53033 -61.890137 -8.116313 7761509
141.00188 -61.763973 -7.1231551 8024682
141.37355 -61.855915 -6.1625152 8221549
141.6947 -61.981735 -5.2892604 8353135
141.99165 -62.100109 -4.4801059 9932416
146.33279 -62.196651 15.320209 10853518
146.45119 -61.985809 16.274374 9867137
146.52867 -61.891087 17.25828 7959399
146.60362 -61.82058 18.385054 8419184
146.6722 -61.750011 19.366919 9340798
146.72589 -61.707516 20.24029 8419437
146.80901 -61.596279 21.21541 10261379
139.32545 -60.529911 -12.632514 7301470
139.5994 -60.618069 -11.812396 6906456
139.83589 -60.891552 -10.818316 7761509
140.26906 -60.795547 -9.9615812 8485233
140.6563 -60.733784 -9.1396856 9274237
140.91516 -60.924896 -8.2218618 7563618
141.21237 -61.083057 -7.2604384 8616563
141.5249 -61.099476 -6.5092521 8813942
146.78336 -61.199657 17.334002 7038554
146.88597 -61.026588 18.13476 9143419
147.03813 -60.847603 19.108858 10065033
147.17612 -60.718483 20.304712 9406332
147.1834 -60.779713 21.298323 10919056
147.2486 -60.745209 22.180338 8748144
147.33743 -60.64381 23.106375 9142649
147.43271 -60.57597 24.103704 9142649
147.67731 -60.32151 25.240534 6510930
138.44931 -59.37122 -17.764875 7300702
138.70801 -59.430092 -16.783779 8222060
138.76514 -59.608715 -15.778756 9604227
139.0386 -59.765259 -14.748218 8156785
139.30057 -59.953201 -13.810073 6840665
139.69099 -59.966171 -12.880778 6511954
140.04312 -60.034248 -11.915492 6709333
140.35645 -60.059002 -11.127147 7235421
140.52969 -60.154694 -10.529645 7761509
147.69452 -60.083111 21.420374 12432037
147.75565 -60.050213 22.246695 9011831
147.85738 -59.97163 23.202761 8222573
147.93707 -59.920105 24.127913 8090475
148.05745 -59.819622 25.124395 6971737
148.22891 -59.741455 26.133608 9801348
148.36647 -59.605576 27.092127 6510930
148.64952 -59.483612 27.969893 7301469
148.94572 -59.3657 28.983015 11314070
148.84499 -59.397419 29.893076 7958630
129.80518 -58.750187 -55.357368 7565675
130.19777 -58.808613 -54.788513 9537920
130.58238 -58.961693 -53.97147 8814198
130.69926 -59.095474 -52.803688 8551283
131.07057 -59.094296 -51.861561 7826276
131.43509 -59.093117 -50.916794 7826276
131.79285 -59.091938 -49.969425 10853261
131.12012 -59.091595 -49.002552 9406074
131.464 -59.090427 -48.057499 10063747
131.80099 -59.089268 -47.11005 9602941
132.13124 -59.088112 -46.16011 9931905
132.45453 -59.08696 -45.20787 9142903
132.77095 -59.085812 -44.253323 7038298
133.08055 -59.084671 -43.296467 8024936
133.38316 -59.083527 -42.33744 6511954
133.67889 -59.082394 -41.376236 15196110
133.61998 -59.081375 -40.24062 8748664
133.3311 -59.080627 -39.183102 7235938
133.604 -59.07951 -38.222347 7301474
133.87001 -59.078396 -37.259682 6774359
134.12906 -59.077286 -36.295059 10392718
134.38107 -59.07618 -35.328663 11774107
134.62619 -59.075077 -34.360428 9142390
134.86427 -59.073975 -33.390446 8813683
135.09531 -59.072884 -32.41877 8089963
135.31935 -59.071793 -31.445498 8089963
135.53636 -59.070709 -30.47056 10789016
135.74634 -59.069626 -29.494123 10789016
135.9492 -59.06855 -28.516241 8090221
136.14507 -59.067478 -27.5369 8681843
136.33389 -59.066406 -26.556097 9142391
136.51559 -59.065342 -25.57398 9142386
136.69016 -59.064281 -24.590651 8681835
136.85765 -59.063229 -23.605991 10129798
137.09904 -59.096893 -22.632921 10525071
137.74634 -59.104771 -21.720339 8222572
137.95679 -59.130993 -20.737333 6841687
138.19768 -59.173115 -19.757437 6841687
138.46489 -59.229389 -18.779451 7300959
139.00735 -59.202827 -17.833143 7300702
149.47173 -59.199207 29.836016 8418926
149.43948 -59.166374 30.952806 7563618
149.61284 -59.078701 31.741583 7760740
149.56648 -59.045853 32.861752 7037274
150.35034 -58.998524 33.988811 7037274
150.13757 -58.997856 34.890339 8156009
150.47775 -58.996613 35.928318 6775126
150.81088 -58.995369 36.97023 5920074
150.58052 -58.994717 37.874477 7563619
151.5184 -58.992996 38.893524 9011318
151.27609 -58.992352 39.801998 9866881
151.07864 -58.991833 40.527771 8682867
152.0136 -58.990101 41.570805 8814454
151.70305 -58.98933 42.664383 8617331
152.5856 -58.98745 43.911671 7499623
152.31302 -58.98682 44.826477 11117466
153.02284 -58.984539 46.647221 7038307
152.73425 -58.983921 47.564701 7038307
153.63431 -58.826702 48.732376 9669507
153.36201 -58.754551 49.594913 8287597
129.49738 -57.574848 -56.329903 9932169
129.86621 -57.909035 -55.751106 8485752
130.5273 -57.891346 -55.048973 8024686
153.82129 -58.162563 48.928459 10261644
153.72165 -57.817284 49.596035 9932679
153.49002 -57.642395 50.454872 8945783
129.60216 -56.797977 -56.639027 9011582
130.20857 -56.961124 -55.897339 9077375
130.66956 -57.046078 -55.354679 8090995
153.97939 -56.964024 49.797554 10261644
153.79329 -56.761406 50.556065 9932934
153.53822 -56.758743 51.291893 8484976
129.31485 -55.812374 -57.482872 8747633
129.89346 -55.790009 -56.87151 9274753
130.34807 -56.118237 -56.203777 10853012
154.13347 -55.866417 50.566757 11446173
153.88014 -55.764015 51.407799 10064264
153.69244 -55.563606 52.16864 9077113
129.11372 -54.548676 -58.384212 10458249
129.45088 -54.973907 -57.790592 9602941
130.14677 -54.945198 -57.056282 9011582
154.18285 -54.808609 51.593029 9275004
153.90137 -54.767399 52.447357 9537920
129.17383 -53.77721 -58.737488 9405564
129.77814 -53.968513 -57.982704 9010807
130.16112 -54.355671 -57.360237 8089963
154.42751 -54.171688 51.593258 9208443
154.30714 -53.772251 52.380268 10327436
154.02527 -53.692406 53.278378 9603457
128.88641 -52.951729 -59.494461 9208436
129.51224 -52.821594 -58.890644 8945272
129.95699 -53.092312 -58.26474 8813686
154.51601 -52.975525 52.659813 9998215
154.3261 -52.776417 53.42543 9340285
154.20032 -52.577827 54.006138 10458249
128.59067 -51.657864 -60.514297 9208435
129.04927 -51.970737 -59.850548 9340022
129.57059 -52.051266 -59.245193 9866374
154.67549 -51.837009 53.45882 9076599
154.3764 -51.73175 54.43446 11181971
128.37726 -50.413212 -61.418587 9537659
128.82382 -50.761002 -60.748962 9406072
129.42792 -51.068741 -59.931274 9669246
154.87544 -50.982952 53.827446 8484461
154.74883 -50.784435 54.410397 8484461
154.48869 -50.786522 55.15559 9931906
128.59866 -49.778732 -61.523846 9471612
129.16933 -49.890488 -60.848312 9867140
155.02312 -49.886948 54.61322 6971480
154.76387 -49.789783 55.465488 8682869
154.57069 -49.593502 56.23737 8092019
128.25275 -48.673698 -62.495327 7367007
128.74387 -49.012486 -61.782509 8879989
129.3259 -49.09375 -61.111298 10261387
155.12527 -48.8577 55.456253 9868171
154.84261 -48.794888 56.337696 9276035
128.05891 -47.593987 -63.289169 9143416
128.46402 -47.923973 -62.673836 7169884
129.05801 -48.039677 -61.971081 9143416
155.30878 -48.192287 55.663513 8092019
155.18227 -47.845596 56.409958 8289398
154.97456 -47.640133 57.2337 9473413
127.71693 -46.709995 -64.138618 6511954
128.21017 -46.778107 -63.618202 9866882
128.77567 -46.966824 -62.87648 9669504
155.52336 -46.795948 56.588818 11511708
155.26016 -46.800163 57.340595 11709857
154.99655 -46.80518 58.092426 9868169
127.55188 -45.801647 -65.334686 7959144
128.09174 -45.871204 -64.674515 7564386
128.60582 -46.059208 -63.909157 10195591
155.58298 -46.234695 57.461666 13551541
155.50281 -45.978775 58.285137 9341826
155.50505 -45.606068 59.142757 8092019
126.65633 -44.439087 -69.206978 8089963
127.16467 -44.472679 -68.4991 8418925
127.50839 -44.588638 -67.585846 8879728
127.54272 -44.900124 -66.52607 9471352
127.86266 -45.154507 -65.750053 7958888
128.36641 -45.110485 -65.233017 7959144
155.89528 -45.056778 59.293499 10459793
155.81041 -44.864609 60.194153 9932937
155.98404 -44.585762 61.056389 7038307
156.3795 -44.338657 62.085411 7301479
156.20175 -44.284821 63.106621 9011838
124.96286 -43.596718 -76.871498 9736329
125.43577 -43.829617 -76.336082 10459795
126.03615 -43.955917 -75.739128 12892845
125.57155 -44.119507 -74.175682 9341057
126.00995 -44.118443 -73.421135 8617336
126.53017 -44.117172 -72.512268 7959407
126.95873 -44.116108 -71.75209 10656658
126.49385 -44.197861 -70.498711 9537403
127.10977 -44.236893 -69.649712 7827045
127.51925 -44.263565 -69.082039 7695714
156.91663 -44.039768 63.400124 10459281
156.62909 -44.04599 64.162727 11380380
125.0183 -42.822067 -77.200546 11249310
125.67554 -42.988338 -76.533386 12959670
124.73683 -41.754131 -77.97332 9734788
125.26878 -41.807064 -77.473259 10657174
125.74422 -42.037445 -76.936882 9736329
124.8595 -40.948189 -78.25782 9997959
125.52593 -41.012997 -77.632133 9736329
124.58381 -39.801537 -79.058311 10524302
125.19106 -40.060535 -78.39566 9998729
124.34178 -38.626472 -79.813072 7762796
124.82681 -38.85228 -79.282181 10064779
125.31213 -39.079292 -78.750389 11380380
124.35108 -37.863243 -80.155739 6379857
125.06883 -37.901779 -79.505928 8946556
124.06717 -36.784714 -80.90152 5919050
124.55379 -37.00721 -80.370728 7300959
125.04074 -37.230877 -79.839043 7762796
124.26695 -35.811577 -81.17292 7432545
124.83205 -36.083748 -80.550148 7695973
123.97573 -34.779324 -81.903862 6775127
124.53915 -34.903545 -81.350517 7761766
123.61575 -33.663593 -82.733757 5920074
124.03153 -34.011589 -82.207603 8419435
124.6481 -33.9212 -81.706139 7433056
114.24347 -32.65966 -124.90837 9736067
114.57318 -32.583912 -124.07243 9209467
114.89887 -32.508526 -123.23763 8682867
123.73915 -32.873791 -82.988045 6446417
124.32286 -33.033276 -82.400658 7498591
115.22044 -32.433479 -122.40395 8682867
115.61646 -32.340271 -121.36352 9537918
116.00671 -32.247597 -120.32469 9340539
116.31428 -32.173874 -119.49502 9340539
117.19018 -31.629141 -111.53358 6446418
117.53725 -31.544109 -110.53324 9011323
117.81133 -31.476406 -109.73421 7038307
123.37144 -31.649445 -83.860069 6116429
123.97784 -31.839636 -83.249443 7564385
124.44624 -32.268932 -82.643364 8813936
117.94704 -31.442823 -109.3353 7038307
118.21534 -31.375795 -108.53838 9603456
118.54638 -31.292513 -107.5438 11247763
118.80722 -31.226357 -106.74963 11247763
119.12826 -31.144224 -105.75881 9340544
119.44427 -31.062643 -104.76978 9867404
119.75471 -30.981667 -103.78287 9209472
120.06021 -30.9013 -102.79781 6510930
123.53868 -30.898354 -84.060066 5919306
124.14155 -30.937834 -83.516502 7761768
121.31195 -30.258093 -92.828918 8616819
122.9305 -29.688652 -85.728531 13024695
123.35629 -29.775637 -85.042107 9933194
123.81478 -30.086067 -84.247459 7564649
122.73013 -29.12133 -87.785965 9537150
123.0201 -29.23436 -87.019218 10655886
123.4272 -29.339743 -86.182487 11708315
123.811 -29.416883 -85.462379 12236461
142.34779 -62.659245 -3.1215186 9932416
142.60545 -62.558315 -2.441011 9800574
142.80392 -62.640743 -1.4148573 10392973
143.00177 -62.726151 -0.38593423 9209467
143.26653 -62.634018 0.64645636 9537665
143.53123 -62.544498 1.6828295 10260874
143.69539 -62.622707 2.5482697 9866369
143.85913 -62.703186 3.4161477 7235429
144.07306 -62.703373 4.374579 7630187
144.38763 -62.541637 5.5139451 8353392
144.58344 -62.646683 6.5661721 9734784
144.74632 -62.736607 7.4456468 8353135
144.97778 -62.646553 8.3320951 9274237
145.24185 -62.577206 9.3993902 8682100
145.4368 -62.693474 10.46635 8419184
145.61137 -62.724972 11.300769 9274749
145.89932 -62.572533 12.336421 8682868
146.07687 -62.598785 13.272101 8024943
146.16777 -62.498909 14.060298 7038307
142.01131 -61.560108 -4.9357448 8813686
142.2338 -61.785961 -4.201858 9537657
142.53598 -61.856777 -3.4245086 11183000
142.87267 -61.838558 -2.4445662 9669502
143.13863 -61.740051 -1.4169286 9472639
143.33749 -61.824425 -0.38559854 9341053
143.53587 -61.911835 0.64868033 9866373
143.76833 -61.806168 1.5137926 10786704
143.99214 -61.751556 2.4251008 10260871
144.19839 -61.797501 3.4255319 9735038
144.39557 -61.895588 4.4723573 8814197
144.66063 -61.815205 5.5254426 9274491
144.89293 -61.719833 6.4069428 9537405
145.05676 -61.808338 7.2882142 8813685
145.25299 -61.917358 8.34904 9208444
145.51796 -61.846954 9.4183874 8418928
145.75607 -61.699436 10.239032 7629923
145.91351 -61.857559 11.207934 7432800
146.13962 -61.867172 12.236476 7695972
146.38419 -61.765594 13.270793 7762023
146.45547 -61.71627 14.133529 7893610
146.50092 -61.708786 15.109794 8485489
146.61961 -61.497021 16.064352 8683120
141.28212 -60.610233 -7.8589854 6510930
141.62543 -60.536255 -7.1946044 7958376
141.89253 -60.785233 -6.1404071 7827047
142.15839 -60.936703 -5.2656989 8419184
142.68068 -60.681957 -4.4559722 11445657
142.97943 -60.850365 -3.476213 9932677
143.24123 -60.954002 -2.4494338 9472126
143.51297 -60.856571 -1.4191793 9669762
143.66943 -60.963303 -0.45423639 9472383
143.85393 -60.959064 0.37496817 10852496
144.09592 -60.950378 1.3889109 11510168
144.3398 -60.887936 2.3395905 9997699
144.56862 -60.905273 3.4358544 9406071
144.75154 -60.995747 4.4848313 9406072
144.97313 -60.976982 5.3991609 9209467
145.2029 -60.883472 6.1974702 9209467
145.42934 -60.910957 7.3085198 8945783
145.60963 -61.011486 8.3710012 9734788
145.86754 -60.931328 9.2664747 8879479
146.1042 -60.844147 10.16429 8813942
146.28281 -60.952023 11.237868 6643540
146.43542 -61.092228 12.24208 7564386
146.76456 -60.790558 13.053061 8222573
146.90135 -60.731556 14.178691 8090986
146.94524 -60.740017 15.208594 7564642
146.93019 -60.833527 16.233835 8354157
147.08731 -60.62928 17.084604 7104348
147.19102 -60.551777 18.102236 9538176
147.4445 -60.325191 19.936609 7564643
139.77728 -59.383972 -14.870725 8288371
139.98349 -59.435711 -14.043601 7563874
140.1736 -59.482868 -13.213473 5919050
140.67995 -59.454746 -12.238036 6182478
140.93164 -59.526707 -11.237609 6248527
141.10884 -59.722721 -10.187171 6972249
141.35112 -59.849514 -9.2238741 7563618
141.67131 -59.959633 -8.2195234 8221549
142.07903 -59.946167 -7.2837768 8682356
142.39296 -59.980118 -6.476316 8287598
142.58461 -60.191044 -5.609941 10064265
147.43001 -60.119854 15.977885 8156780
147.56134 -60.010448 17.070337 8156524
147.65977 -59.941414 18.117167 8682612
147.69377 -59.95089 19.068277 8616563
148.01003 -59.700462 20.016336 9406332
147.98541 -59.746029 20.99724 11905950
148.26253 -59.556812 21.991732 9143417
148.56955 -59.406036 22.940714 8090987
148.74086 -59.365139 23.957964 8090987
148.67345 -59.398232 24.86482 7038298
131.19348 -58.770386 -53.853813 7563619
131.76562 -58.80027 -53.182819 9142907
132.04625 -59.033913 -52.333588 7827559
132.3492 -59.092693 -51.265713 10130058
132.7094 -59.091507 -50.311722 11577760
132.34425 -59.090755 -49.183292 9603453
132.48766 -59.089596 -48.067116 8813683
132.7692 -59.088623 -47.271603 9010806
133.04562 -59.087658 -46.474335 10195076
133.37123 -59.086494 -45.515373 11774364
133.68987 -59.085339 -44.554214 10590348
134.00162 -59.08419 -43.590698 11379863
134.30632 -59.083038 -42.625034 7433055
134.60405 -59.081894 -41.657204 11314326
134.89482 -59.08075 -40.687176 9011579
134.60243 -59.079994 -39.61945 5920592
134.52423 -59.078995 -38.48016 6117714
134.79205 -59.077873 -37.510864 7695205
135.05286 -59.076756 -36.539597 8616307
135.3067 -59.075645 -35.566467 8484461
135.55341 -59.074535 -34.591583 9142390
135.7932 -59.073425 -33.614914 8879221
136.02583 -59.072323 -32.636528 8089963
136.25145 -59.071224 -31.656469 9275007
136.46991 -59.070133 -30.674885 10262929
136.68137 -59.069046 -29.691711 12959669
136.88567 -59.067959 -28.706976 10326923
137.08287 -59.066875 -27.720869 9536894
137.27292 -59.0658 -26.733368 9997701
137.45586 -59.064728 -25.744427 8353651
137.63167 -59.063667 -24.754271 7038307
137.80037 -59.062603 -23.76284 10854036
138.35439 -59.061214 -22.764315 10064778
139.0721 -59.059845 -21.921377 7499111
139.22021 -59.058788 -20.919661 6117708
139.36115 -59.057743 -19.916857 6512978
139.4948 -59.056702 -18.91312 7300702
139.62125 -59.05566 -17.908388 7300702
139.47562 -59.190155 -16.940189 7827304
139.76399 -59.227509 -16.05658 9209470
140.25935 -59.194172 -15.259259 9012091
140.5088 -59.255836 -14.263232 6971738
140.73897 -59.312386 -13.263396 5919050
148.87834 -59.295929 21.9648 8090987
149.33287 -59.182037 24.241301 8090987
149.27863 -59.208572 24.969824 6511954
149.34599 -59.201756 26.090754 6511698
149.49416 -59.165977 26.933493 6511698
149.65172 -59.130241 28.005262 13221810
150.0034 -59.068947 28.895742 11708572
150.08356 -59.006824 29.961969 7432032
149.95717 -59.015522 30.687166 6510930
150.87761 -59.000278 31.638926 7432032
150.63876 -58.999462 32.724495 6510930
150.99393 -58.998211 33.757393 9471355
151.342 -58.99696 34.79438 11445400
151.12477 -58.996288 35.701962 9536891
152.0773 -58.994576 36.707253 5920074
151.84804 -58.993916 37.619133 9011318
151.66118 -58.993385 38.34771 9011318
152.61115 -58.99165 39.377155 8484975
152.31638 -58.990871 40.475063 9208702
153.21681 -58.988983 41.709564 6709341
152.95746 -58.988338 42.62817 7959407
152.74643 -58.987823 43.362106 6512986
153.69353 -58.98605 44.438488 6249556
153.5529 -58.945778 45.601959 9867145
154.10681 -58.659607 46.376713 8222579
153.95959 -58.712181 47.344727 8090736
153.83095 -58.691452 48.252541 9669507
130.88506 -57.585049 -54.830215 8024169
131.33894 -57.922035 -54.158302 8155755
131.85968 -58.023693 -53.542305 7892583
154.2867 -58.074921 46.634327 7038307
154.30536 -57.770592 47.336357 7037532
154.18314 -57.709461 48.279663 9603714
154.02742 -57.565731 48.99506 11906725
131.08322 -56.811954 -55.035725 7629669
131.67735 -56.908295 -54.343346 10458249
132.05862 -57.309814 -53.714828 9010806
154.58763 -56.925934 47.540726 7037274
154.52228 -56.763592 48.336433 8353390
154.21443 -56.728123 49.382835 9274492
130.7049 -55.810505 -55.985962 9471875
131.26761 -55.99012 -55.282318 7958635
131.7451 -56.124981 -54.694702 11905692
154.74854 -56.173695 48.408291 8616563
154.61295 -55.824444 49.235363 9011577
154.36757 -55.689735 50.089306 11906724
130.50557 -54.537983 -56.890259 8813686
131.02245 -54.83831 -56.170574 9998214
131.48123 -55.143139 -55.51107 9472125
154.88182 -54.844429 49.544891 8287597
154.60641 -54.773144 50.414989 9472383
154.41882 -54.57098 51.177235 8682867
130.17818 -53.620007 -57.740433 8089963
130.72763 -53.804688 -57.048283 8945270
131.24637 -54.078934 -56.34079 9340027
154.98912 -53.911701 50.266499 10327434
154.72597 -53.725082 51.228806 8879734
130.41518 -52.78339 -57.938385 9076858
130.99321 -53.06332 -57.163841 9274234
155.22401 -52.981045 50.619328 14076861
155.04739 -52.819035 51.305599 9735555
154.812 -52.677471 52.138485 10525071
130.16678 -51.777748 -58.750923 9603202
130.75479 -51.917133 -58.041794 9405823
131.14195 -52.302517 -57.415817 9340027
155.32964 -52.048752 51.3451 9538433
155.1199 -51.78083 52.24369 10525071
154.92969 -51.580708 53.0112 9208443
129.88498 -50.75663 -59.607883 9537407
130.40889 -50.897594 -58.966972 9603200
130.93343 -51.04047 -58.324287 10392713
155.42802 -50.883778 52.348946 9538433
155.19087 -50.743385 53.185375 6971737
155.01192 -50.584087 53.875496 8484461
129.60988 -49.680737 -60.487259 9143419
130.01559 -49.922768 -59.91893 8682867
130.60008 -50.009922 -59.241829 9077624
155.66777 -50.185699 52.430946 9538433
155.51173 -49.835773 53.265583 7892840
155.26033 -49.706474 54.130829 7695203
129.72536 -48.740704 -60.872166 8485489
130.33856 -48.919445 -60.114532 8090987
130.72931 -49.29649 -59.489162 8090987
155.81891 -48.987446 53.319748 8616307
155.62669 -48.78809 54.092167 8616307
155.34492 -48.723034 54.973682 8945785
129.42783 -47.926529 -61.633873 8879990
130.04491 -47.842388 -61.01458 8682868
130.45461 -47.977612 -60.499756 8090987
155.86034 -48.029125 54.258736 8550513
155.65871 -47.740944 55.15649 7760996
155.58156 -47.392769 55.762634 7037274
129.15469 -46.659725 -62.678253 10261384
129.59552 -46.953209 -61.998997 6972506
