# .PCD v0.7 - Point Cloud Data file format
VERSION 0.7
FIELDS x y z rgb
SIZE 4 4 4 4
TYPE F F F U
COUNT 1 1 1 1
WIDTH 1218
HEIGHT 1
VIEWPOINT 0 0 0 1 0 0 0
POINTS 1218
DATA ascii
152.52989 -29.783461 -54.425697 11116950
152.63551 -30.043488 -53.515942 10787985
152.7906 -30.267923 -52.543892 9143934
131.5 -29.949297 115.45978 6511954
131.19519 -29.561182 116.12988 7103835
130.75536 -29.270609 116.87016 9011576
153.10712 -28.624216 -60.154232 9143673
153.39563 -28.623453 -59.419693 11445142
153.25089 -28.917614 -58.520641 10722192
153.37485 -29.111549 -57.307472 8156785
152.67169 -29.354584 -56.422729 8617336
152.99614 -29.351215 -55.502132 10064522
153.25432 -29.348963 -54.76543 9143934
131.44989 -28.975929 117.49611 9406590
130.81851 -28.962549 118.07037 9011576
153.14981 -27.643553 -61.02158 9143673
153.30032 -27.838987 -60.443188 9143673
153.6194 -27.877251 -59.591816 9340027
153.41415 -26.503252 -62.195469 7564643
153.45033 -26.809635 -61.426121 10788239
153.73006 -26.914057 -60.453484 9998468
153.8615 -27.247715 -59.601337 9340027
155.36732 -26.144871 -78.95211 7037274
155.34267 -26.093195 -78.239082 8813683
155.30771 -26.024672 -77.291306 7892582
155.27032 -25.956703 -76.347183 11907240
155.23044 -25.889196 -75.406647 14078923
155.18806 -25.82225 -74.469742 8682867
155.14333 -25.75576 -73.536316 9011320
155.08392 -25.673374 -72.374733 8550514
155.02104 -25.591732 -71.218185 14076870
154.96793 -25.526972 -70.297058 14801100
154.91255 -25.462673 -69.379402 10459534
153.74951 -25.470896 -65.137711 10261132
153.91658 -25.551115 -64.339821 9274237
153.92915 -25.643644 -63.393757 8484720
153.74103 -25.980656 -62.456478 7498853
153.99918 -25.997433 -61.645535 10656655
154.14796 -25.298761 -68.376266 12828338
153.83647 -25.116186 -66.046074 7695717
154.32869 -25.143341 -65.381592 9142906
142.94235 -73.33786 27.983654 6511954
142.88948 -73.586426 28.937948 6577491
142.76955 -73.6726 29.915401 8420976
142.6218 -73.710617 30.959667 12433325
142.51895 -73.652985 31.925419 12630448
142.38988 -73.605667 33.066849 10196106
142.26352 -73.645164 33.939884 8880247
142.2037 -73.496216 34.830467 8156011
142.04958 -73.549347 35.880749 10196362
141.89415 -73.605858 36.93235 9209467
141.73726 -73.665657 37.985409 10656657
141.64647 -73.537369 39.058674 8486262
141.51343 -73.592361 39.939064 9209985
141.39969 -73.559898 40.918819 9078143
141.28474 -73.530045 41.900322 8814716
141.12111 -73.60527 42.962147 8419702
141.0153 -73.601974 43.796383 9339258
140.89804 -73.538383 44.75301 8549739
143.19728 -72.403633 26.250067 10459278
143.15417 -72.649437 27.204098 10459278
143.15005 -72.77005 28.024654 6511954
143.20197 -72.719994 28.974895 6840151
143.10782 -72.720383 29.986782 8090731
142.96019 -72.758133 31.033646 11249051
142.81094 -72.798958 32.081379 10459022
142.66034 -72.843048 33.130074 10525071
142.53387 -72.88221 34.004826 8550513
142.47395 -72.733047 34.897099 9274235
142.31973 -72.785736 35.949451 12169640
142.18564 -72.762642 37.061012 9801348
142.07466 -72.710014 38.076473 11643552
141.94278 -72.761742 38.957264 11906468
141.80991 -72.815895 39.839241 10262415
141.67276 -72.833122 40.85984 8683130
141.55438 -72.763657 41.980816 9472387
141.3907 -72.838165 43.0448 8814460
141.35164 -72.650681 43.883717 8616306
141.16614 -72.769852 44.838783 8418412
140.87997 -72.7285 45.822262 7366493
140.63145 -72.483742 46.81884 8747632
143.44185 -71.450836 24.161495 4670781
143.40137 -71.689087 25.113218 5788489
143.40176 -71.820572 26.109715 8353646
143.46707 -71.778465 27.147848 8156523
143.51468 -71.762947 28.019756 6511954
143.53479 -71.797516 28.946516 6905944
143.44548 -71.769272 30.058041 8089962
143.29788 -71.806702 31.10743 10459022
143.17056 -71.767761 32.214436 9537664
143.09079 -71.693077 33.049412 8682355
142.96428 -71.731415 33.92664 8353135
142.81131 -71.780281 34.980305 8549999
142.65698 -71.832375 36.035244 10063492
142.52469 -71.837662 37.051914 9406590
142.43799 -71.745461 37.990894 8485745
142.30618 -71.796333 38.873737 11906468
142.1906 -71.719765 39.993099 11314333
142.05327 -71.736397 41.016594 8617081
141.89105 -71.80677 42.081364 9077631
141.75475 -71.867859 42.97002 9143423
141.68468 -71.739883 43.881126 7892584
141.50104 -71.810112 44.945896 9208444
141.18002 -71.814934 45.967369 8484205
140.83365 -71.810692 46.980667 9076341
140.54428 -71.809502 47.824711 7958118
140.37785 -71.618034 48.522686 7037274
143.6833 -70.53035 22.252596 5393738
143.6422 -70.746643 23.024944 4342073
143.6973 -70.733772 24.071762 4736574
143.73053 -70.778831 25.100094 5130818
143.74625 -70.878128 26.172926 6905945
143.82755 -70.774834 27.082201 7497826
143.82439 -70.893059 27.906317 7103324
143.78085 -71.141159 28.867918 7037274
143.6479 -71.199226 30.100693 8616563
143.50012 -71.236404 31.151642 10459278
143.37608 -71.26973 32.028187 9735555
142.63997 -71.173378 38.045151 8090987
142.50816 -71.223923 38.929268 8617331
142.40207 -71.265747 39.63731 13024949
141.88641 -71.165558 43.944016 9537665
141.70174 -71.234848 45.010094 9537665
141.45624 -70.96418 46.111805 7892584
141.17766 -70.905655 46.988316 8286826
140.93324 -70.801476 47.816082 8747376
140.58232 -70.850525 48.783199 8024683
140.28638 -70.74469 49.763046 10590866
140.12901 -70.475166 50.521702 9931910
143.91943 -69.624886 20.344709 4933953
143.93529 -69.687187 21.141689 4342073
143.95052 -69.751389 21.940172 4210487
143.96989 -69.839775 23.00692 3420972
144.02652 -69.81971 24.032009 4539195
144.07414 -69.838509 25.160542 5459269
144.05467 -70.022499 26.139957 6642517
144.03178 -70.192261 26.941582 8089963
141.42686 -70.083107 47.179852 10851980
141.2431 -69.826462 48.001049 9734271
140.97581 -69.699753 48.920681 8092019
140.62477 -69.703812 49.938282 8354934
140.27107 -69.758545 50.907299 8486006
140.09183 -69.488159 51.730755 8814715
139.87228 -69.344017 52.530773 7038307
144.24721 -68.435753 18.185349 9340027
144.20631 -68.681786 19.19982 8682867
144.18861 -68.863525 20.206347 5131332
144.23326 -68.85408 21.061871 4342073
144.29231 -68.815018 21.992636 3749937
144.36263 -68.758224 23.025614 3223593
144.31602 -69.024429 24.060177 4078645
144.27437 -69.242973 24.838301 5065281
141.17932 -68.933746 49.182205 9275778
140.96196 -68.783813 49.982395 8092019
140.70587 -68.712479 50.807697 8289140
140.36266 -68.759377 51.754711 7827819
140.00783 -68.771576 52.774403 7038307
139.71385 -68.689644 53.721745 9670023
144.50089 -67.451691 16.016392 8486005
144.43074 -67.78904 17.113888 9668991
144.48337 -67.777336 18.127237 9340027
144.53726 -67.77562 19.244354 8748661
144.5977 -67.743042 20.26413 6445650
144.58795 -67.882149 21.113981 4736318
144.55042 -68.098434 21.961128 3420972
140.91501 -68.080902 50.903004 9472640
140.65669 -67.850548 51.912022 9538945
140.33214 -67.814323 52.897488 7893612
139.9751 -67.829254 53.919556 12893360
139.71423 -67.76667 54.747456 13353909
139.50346 -67.571655 55.57674 8682867
144.72156 -66.592552 14.107268 9472126
144.67719 -66.829529 14.980983 8682867
144.77205 -66.70829 16.046703 9800834
144.79817 -66.775742 17.107388 9471357
144.82324 -66.846352 18.170208 9471613
144.84505 -66.912819 19.133728 8880503
144.86658 -66.983719 20.124516 7563874
140.82907 -67.040672 52.313278 9143931
140.61916 -66.896843 53.083805 9472640
140.42224 -66.678436 53.898964 11709343
140.12296 -66.692589 54.75309 11774879
139.76282 -66.712158 55.778225 9077368
139.43251 -66.685898 56.767532 8353647
139.22729 -66.372993 57.711853 9998211
144.93733 -65.468239 12.430505 9604483
144.97963 -65.755547 13.29777 10130313
144.99197 -65.850807 14.133863 8682867
145.01561 -65.901672 15.016305 10064262
145.11082 -65.779747 16.084555 12629416
145.13736 -65.846405 17.147774 10458507
145.09496 -66.102097 18.204542 9537405
140.38274 -65.833565 54.952755 10985620
140.08401 -65.755836 55.907314 9932677
139.72194 -65.778175 56.935139 8682355
139.41922 -65.798981 57.791927 11643036
139.17934 -65.630615 58.676254 8617585
138.97998 -65.398575 59.513481 8092011
145.08813 -64.498566 11.506907 8090987
145.14949 -64.765953 12.214657 9735812
145.35326 -64.738213 13.332436 8551030
145.39731 -64.739151 14.173715 7959149
145.38136 -64.892258 15.003966 9077369
145.34549 -65.124908 16.022295 11247765
140.27663 -65.182419 55.984669 8484976
140.10152 -64.880875 56.828865 9208699
139.79958 -64.838646 57.753571 10196106
139.48846 -64.754944 58.75095 7762022
139.13202 -64.704124 59.843578 8092011
138.86732 -64.665451 60.655949 10723731
138.70493 -64.556938 61.248631 10065801
145.16829 -63.64328 10.46022 10591121
145.30025 -63.723972 11.172544 10722707
145.49797 -63.847488 12.244292 11314588
145.63628 -63.942898 13.173285 9274496
145.66241 -63.988918 14.023012 8287859
140.01669 -63.952492 58.107227 9668994
139.78079 -63.827843 58.931473 7366239
139.55585 -63.686195 59.742779 8091499
139.20465 -63.769287 60.671276 9999753
138.83601 -63.740284 61.656898 9868171
138.57298 -63.380646 62.389996 10262929
145.35101 -62.409554 9.2448101 8418928
145.40459 -62.83094 10.170056 8945784
145.64735 -62.807537 11.19952 9603970
145.79483 -63.011047 12.181203 9341055
139.78783 -62.852818 59.994701 9537408
139.53175 -62.733143 60.87204 9210240
139.17929 -62.639912 61.860508 11512482
138.62962 -62.758327 62.737164 10262929
145.45952 -61.585899 8.3742714 8813686
145.56358 -61.769958 9.1331444 8353135
145.79391 -61.774357 10.153618 7564386
145.92577 -62.000534 11.103394 7695973
139.71263 -62.240124 60.894173 8684155
139.53593 -61.75301 61.886173 10789016
139.01811 -61.848045 62.725922 9276035
138.60349 -61.687786 63.544727 8353135
145.69133 -60.376453 6.4573026 9998726
145.72968 -60.547375 7.2194328 9735812
145.75467 -60.804916 8.0841732 9800837
145.91742 -60.896202 9.0614243 8945528
146.0369 -61.023895 9.9942513 7564386
139.3597 -60.93951 62.82753 9603715
138.97365 -60.696144 63.783314 9866630
138.51253 -60.564301 64.727867 9472386
138.28337 -60.300037 65.49189 10065291
146.32367 -59.33028 3.3203881 9407363
146.26633 -59.42231 4.2853026 10788241
146.17386 -59.593403 5.2991557 10985620
146.21251 -59.745506 6.3059449 9538175
146.21101 -59.975765 7.3620896 9341054
146.22556 -60.211655 8.2437286 9735812
146.30962 -60.258755 8.7777719 7564642
139.07169 -59.908108 64.744072 8089963
138.68022 -59.733543 65.740303 8353903
138.37555 -59.540222 66.706635 8946296
138.18533 -59.331532 67.7024 9341054
137.92221 -59.324455 68.191582 7564643
148.29338 -58.788643 -13.332579 9340289
148.61562 -58.694031 -12.566786 9340539
148.50414 -58.99646 -11.795315 10524043
148.44215 -59.046219 -10.715942 9997699
148.51096 -59.044456 -9.6465492 9735036
148.55287 -59.043285 -8.9334154 9208435
147.5446 -59.042999 -7.8114781 9208435
147.59245 -59.041271 -6.7486329 7892840
147.63264 -59.039558 -5.6854739 7564643
147.66519 -59.037849 -4.6220107 9472383
147.69003 -59.03616 -3.558378 9801348
147.705 -59.034763 -2.6719186 9998727
147.013 -59.03437 -1.7808063 9012344
146.66666 -59.033218 -0.72093648 8092011
146.66989 -59.034164 0.3354314 16248798
146.74545 -59.067081 1.3930295 9209984
146.52904 -59.194439 2.2699244 8157043
146.74519 -59.182289 3.0675538 9407363
138.74496 -59.132996 67.979782 9801605
138.30391 -59.12149 68.798119 7564651
138.05334 -59.039356 69.83873 9997958
138.04909 -58.934368 70.759293 12826026
137.52992 -58.933578 71.751534 9340022
138.2075 -58.930714 72.959579 9340022
137.85135 -58.930195 73.622185 10261126
137.31155 -58.929432 74.612885 9471871
137.37151 -58.927616 75.723503 9011576
137.51662 -58.925934 76.671257 9406078
137.04872 -58.925327 77.494995 10326924
136.6713 -58.92485 78.152115 9406078
137.12952 -58.921715 79.740059 9603457
136.54553 -58.921021 80.725487 8748660
136.15256 -58.920567 81.380127 8089963
136.79021 -58.917648 82.664299 9668991
136.43837 -58.712086 83.728485 8879475
136.08763 -58.583965 84.402878 9208435
148.33177 -57.641502 -14.294952 9340289
148.53012 -57.903198 -13.593719 9011578
148.88963 -57.872692 -12.785313 8485488
136.30179 -57.752171 84.684723 9208435
135.78947 -57.664619 85.331894 8484970
148.56688 -56.758492 -14.557872 9537667
148.91457 -56.840073 -13.674188 9406080
136.52042 -56.874771 84.916695 7367005
136.00175 -56.77076 85.580421 8616301
135.68935 -56.54744 86.069443 8287592
148.55499 -55.775665 -15.488624 9077369
148.8237 -55.899239 -14.748574 9735043
149.09293 -56.024609 -14.006977 9735043
136.34247 -55.842361 85.698196 8945526
135.77164 -55.688732 86.450378 10656145
148.56548 -54.669922 -16.482925 9931905
148.88039 -54.751827 -15.673044 9274748
149.12996 -55.060738 -14.806263 9077369
136.42552 -54.982761 86.079002 9011320
136.02431 -54.795193 86.65181 9406078
135.59007 -54.660172 87.233955 9011320
148.70909 -53.503071 -17.222843 8089963
148.84175 -53.93718 -16.513527 9208441
149.24956 -53.84034 -15.651831 10261131
136.3222 -53.866856 86.819954 9011320
135.7888 -53.73304 87.517166 7958888
135.34813 -53.505527 88.158287 7367263
148.88773 -52.747406 -17.502579 8353134
149.22203 -52.879299 -16.601288 8287598
149.38963 -53.272446 -15.84815 10853012
136.02884 -52.781364 87.765923 10458767
135.46349 -52.708183 88.466858 8748916
148.89476 -51.686584 -18.454327 12038049
149.14401 -51.896866 -17.688442 10590605
149.46548 -51.887997 -16.946854 8089963
136.27263 -52.151554 87.831314 9142907
135.84366 -51.774818 88.541679 8287854
135.31026 -51.614815 89.253525 8288365
148.95497 -50.375454 -19.432026 13353397
149.15335 -50.769367 -18.683586 11775134
149.44548 -51.019192 -17.793907 11577755
136.0033 -50.795052 88.899948 7563619
135.43486 -50.697765 89.617783 7366495
149.14575 -49.784992 -19.529705 13945277
149.51134 -49.974411 -18.591595 11643548
135.86298 -49.849648 89.58931 7366495
135.27551 -49.635895 90.394196 7695461
149.1692 -48.761967 -20.335762 9143161
149.50801 -48.916149 -19.504196 10196361
149.67493 -49.350521 -18.794899 9210491
135.9743 -48.917545 89.977333 8814453
135.52759 -48.694866 90.622902 6971738
135.02098 -48.670971 91.227776 6774359
149.15718 -47.656544 -21.284397 13551549
149.46518 -47.770969 -20.549889 9012605
149.77338 -47.886738 -19.813744 9407361
135.83122 -47.973179 90.669502 6313551
135.31853 -47.681793 91.430199 7564643
134.87016 -47.461517 92.076309 7564643
149.39922 -46.792995 -21.563196 8815227
149.71738 -46.922375 -20.752811 9539207
135.55655 -46.730141 91.687569 10721934
134.92467 -46.62471 92.496246 8353901
149.53728 -45.558067 -23.296101 9735556
149.71375 -45.794071 -22.51071 8682870
149.85777 -46.094967 -21.677433 8092019
150.01077 -46.276031 -21.038074 8092019
135.4472 -45.970383 92.569351 11511449
135.03159 -45.687656 93.38694 9406332
134.72389 -45.354568 94.137688 8682867
149.8849 -44.454411 -26.366875 9932678
150.17075 -44.492165 -25.488708 8353391
149.81258 -44.75309 -24.616734 8945265
149.92686 -44.941612 -23.601662 9734782
150.14906 -45.169086 -22.713783 9142650
135.33131 -45.006058 93.837929 8682867
134.93742 -44.807919 94.530739 8946039
134.87587 -44.453072 95.625275 8814453
134.54277 -44.362988 96.448822 9209726
134.17039 -44.355839 96.91748 9209726
151.61649 -43.743603 -40.398037 10064779
151.84831 -43.788937 -39.437271 8946301
152.06133 -43.867699 -38.504612 8156523
152.05927 -44.082752 -37.599751 11182228
151.05711 -44.080837 -35.440342 8485229
151.3042 -44.078785 -34.351276 7827300
151.50424 -44.077084 -33.442493 8024680
150.4696 -44.075291 -31.331526 16777207
150.65118 -44.073624 -30.427616 16776433
150.82767 -44.071957 -29.522764 11709089
150.96474 -44.070633 -28.798128 10458766
150.15512 -44.194115 -27.714825 8879730
150.50389 -44.237934 -26.65966 10525071
134.78114 -44.116131 97.362602 9933191
134.35359 -44.035137 98.374771 12103586
134.26797 -43.895107 99.478966 9867142
133.78462 -43.894806 100.12268 9735555
134.1581 -43.890656 102.44286 9735555
133.53542 -43.890308 103.2462 10525071
133.88823 -43.88612 105.60541 11775139
133.39037 -43.820091 106.52296 11249305
133.2935 -43.485935 107.37111 12170406
151.7491 -42.724197 -41.149857 8353648
151.92715 -42.934811 -40.397556 10064265
152.16002 -43.002602 -39.645077 9275265
133.39653 -42.842468 107.58764 12368043
132.99937 -42.525978 108.06283 11775651
151.86795 -41.448246 -42.227882 9736324
151.97809 -41.837505 -41.473507 7761766
152.31 -41.901798 -40.437172 7892583
133.6562 -41.935143 107.79873 11183508
133.07457 -41.692383 108.39136 12499630
151.88959 -40.681046 -43.020676 11906981
152.05586 -40.841187 -42.359009 9275773
152.32123 -40.929573 -41.489132 9274489
152.48677 -41.09137 -40.827496 7563619
133.38287 -40.800995 108.555 10789011
132.87865 -40.549919 109.08772 8682612
152.0864 -39.86549 -43.358646 11906981
152.3988 -39.932201 -42.376331 9012601
152.59465 -40.197147 -41.511654 10459017
133.60422 -39.833717 108.82596 9143419
133.01987 -39.593033 109.41975 9143419
152.20889 -38.644791 -44.364315 12500140
152.4711 -38.781227 -43.449951 13354677
152.6273 -39.043312 -42.703632 7564643
133.34224 -38.840099 109.5071 9143419
132.77156 -38.741257 110.02319 9143418
152.25157 -37.750675 -45.237438 9210491
152.51631 -37.821934 -44.388287 11775904
152.78072 -37.89423 -43.538944 12367783
133.43059 -38.144417 109.76025 8090216
132.90282 -37.698257 110.40375 7564128
132.37433 -37.253334 111.04723 6511954
152.42545 -36.4758 -46.153576 9210491
152.47705 -36.908676 -45.520618 9210491
152.81583 -36.917549 -44.525776 9473407
133.19534 -36.661469 110.64868 6511954
132.71056 -36.638958 111.0583 6511954
152.38062 -35.707645 -47.140102 10457478
152.56201 -35.902824 -46.395142 9274233
152.89484 -35.948563 -45.376492 8879990
133.3712 -36.03849 110.79572 6511954
132.8665 -35.64735 111.39444 9273975
152.52892 -34.558853 -47.989883 8681835
152.62187 -34.867188 -47.375874 9010544
152.89304 -34.94873 -46.496433 9143162
153.09367 -35.209393 -45.62257 8814453
133.13258 -34.553741 111.68775 9536888
132.53481 -34.678677 112.12133 9668218
152.72334 -33.7384 -48.339439 9405302
153.04233 -33.797569 -47.346077 9405561
153.22466 -33.993084 -46.597908 9735043
132.71651 -33.693527 112.43328 9208179
132.12497 -33.45911 113.03004 9340286
152.78299 -32.737328 -49.282299 10524047
153.01141 -32.873962 -48.465687 9669250
153.26871 -32.902813 -47.685501 9143162
133.00786 -32.650475 112.68204 9536888
132.41206 -32.574574 113.20813 9142646
152.87663 -31.616425 -50.25983 9537149
153.08078 -31.87406 -49.378914 9800579
153.37024 -32.005104 -48.391212 9406078
132.70093 -31.625156 113.41514 9208956
132.21617 -31.353861 113.94122 9603458
152.97591 -30.718758 -50.971695 9208182
153.09833 -30.911657 -50.400928 9010802
153.42404 -30.951916 -49.408978 9866373
132.87993 -30.743708 113.68065 8551281
132.30367 -30.680935 114.18448 7301470
153.11528 -29.635117 -53.066151 12432037
153.30417 -29.724815 -52.309143 10919570
153.34634 -30.041121 -51.452438 9274229
153.55974 -30.213512 -50.430332 8945007
132.5609 -30.016485 114.52001 7696228
132.2198 -29.570631 115.25044 6972505
153.90016 -28.623528 -58.133915 9340027
154.26024 -28.624773 -57.21516 8418928
153.96893 -29.013988 -56.408852 7695979
154.04488 -29.107708 -55.461586 9538179
153.73376 -29.267073 -54.381992 9143934
153.76685 -29.345758 -53.290157 9143934
154.02133 -29.344709 -52.551941 9208435
132.3959 -28.996912 116.63174 9406590
131.923 -28.986319 117.06429 9406590
132.16667 -28.866388 119.87878 9208443
153.87276 -27.641045 -59.181156 9340027
154.09474 -27.83774 -58.419365 9340027
154.45546 -27.838636 -57.499065 9668995
154.13725 -26.485847 -60.133671 10590091
154.22331 -26.812506 -59.263535 9340027
154.47974 -26.935728 -58.396542 8287342
154.5842 -27.248205 -57.758633 9142651
154.47014 -25.42239 -62.621971 7893614
154.261 -25.868095 -61.178642 9472384
154.52493 -25.923904 -60.28474 10919056
154.78815 -25.98035 -59.391514 9340283
155.34737 -24.907423 -66.249794 11380380
155.06561 -24.812416 -65.254326 8155755
154.93825 -24.990225 -64.241539 7760997
155.09914 -24.990812 -63.380978 9471874
154.94511 -25.189634 -62.309761 7893614
154.79045 -25.388166 -61.244686 9077884
154.97957 -25.370441 -60.461548 11905692
144.00317 -70.445717 28.252779 6906202
143.94205 -70.669632 29.132057 6971738
143.85007 -70.629654 30.143383 7037274
143.70226 -70.66655 31.195852 9209211
143.54971 -70.741859 32.175888 8222316
143.45644 -70.70002 33.025486 7432545
143.30141 -70.780312 34.007198 8287085
143.1483 -70.828598 35.063419 8878963
143.06117 -70.689842 36.138046 8221291
142.89507 -70.789742 37.148811 9669763
142.87105 -70.55793 37.996777 8946296
142.70995 -70.651978 38.984791 8617331
142.55046 -70.715096 40.048725 10525074
142.38963 -70.78138 41.114376 8288116
142.2894 -70.726807 42.051353 7630444
142.1855 -70.708076 42.914852 10525074
142.088 -70.59166 44.006924 10195595
141.9023 -70.660004 45.07423 9208444
141.70047 -70.47187 45.949596 7563619
144.28577 -69.306839 25.555393 5919050
144.24274 -69.529434 26.335669 6774103
144.20001 -69.760811 27.188728 7760998
144.22278 -69.806564 28.004917 7235167
144.24838 -69.828812 29.142979 6380116
144.18672 -69.681221 30.214422 7103580
144.03877 -69.717705 31.269413 9143418
143.91449 -69.75042 32.149242 7235421
143.78934 -69.785484 33.029877 6709333
143.63791 -69.830307 34.087605 8879733
143.48483 -69.878166 35.146435 9734013
143.39758 -69.738953 36.223606 7169629
143.26782 -69.78363 37.108437 9538433
143.15833 -69.751892 38.052757 8156780
143.04604 -69.699593 39.07724 8880247
142.88647 -69.761948 40.143787 9472388
142.72173 -69.875595 41.104584 8354165
142.65584 -69.763962 41.936573 9209216
142.5213 -69.752991 43.016888 11972517
142.37749 -69.748734 44.150913 10853781
142.23064 -69.749313 45.132084 9142906
142.00824 -69.650673 45.969128 8089961
141.7056 -69.653091 46.847744 8945269
141.49104 -69.443359 47.706402 10984078
144.5239 -68.36998 23.45257 3223593
144.50371 -68.531921 24.252438 4802623
144.45653 -68.791977 25.227835 5984842
144.48798 -68.839386 26.237133 7169117
144.58379 -68.696289 27.148548 7958633
144.59747 -68.788895 28.129684 6709593
144.58791 -68.883209 29.212055 5920080
144.52309 -68.73381 30.285358 8552051
144.37143 -68.805252 31.26939 11512223
144.27895 -68.760376 32.121967 7367007
144.12524 -68.83683 33.107571 7564385
143.97369 -68.881149 34.167828 9077624
143.82092 -68.928604 35.229328 8550767
143.66336 -69.013496 36.217663 6248783
143.64003 -68.779144 37.067284 7498850
143.49617 -68.829887 38.044197 8090987
143.38174 -68.748192 39.169598 8747892
143.22214 -68.809769 40.238754 10129545
143.08807 -68.863464 41.130943 11511968
142.95302 -68.919563 42.024532 12038311
142.85677 -68.798958 43.118855 9603969
142.71565 -68.821259 44.155655 9209211
142.61636 -68.742409 45.113804 9208697
142.35246 -68.748192 45.973301 9011061
142.00378 -68.743004 46.994297 8813683
141.6541 -68.740921 48.014889 9209211
141.36534 -68.645943 48.96162 11051416
144.75592 -67.450111 21.352024 6510930
144.73779 -67.606293 22.150074 3223593
144.72238 -67.778877 23.128098 3223593
144.7939 -67.73156 24.256861 6051404
144.8287 -67.77343 25.293331 5655877
144.84331 -67.852905 26.194208 5787463
144.87828 -67.861069 26.98105 7695459
144.87035 -68.018753 28.002331 7564643
142.55414 -68.077736 46.133652 8813683
142.30157 -67.833839 47.141048 8155755
141.98209 -67.784096 48.126816 9275004
141.64542 -67.839424 49.045479 11314330
141.39725 -67.739685 49.879398 13090483
141.14397 -67.56321 50.813519 10723219
140.93614 -67.41626 51.582653 11381404
144.99123 -66.572495 19.609276 9735812
144.97438 -66.723724 20.406099 6510930
145.02512 -66.690063 21.213972 6510930
145.04301 -66.758514 22.107969 7366752
145.06387 -66.843605 23.183086 8157550
145.12196 -66.820709 24.216164 7630176
145.15625 -66.867416 25.278955 6774099
145.11481 -67.086258 26.063461 6248013
142.3029 -67.019287 48.045502 8682867
142.07503 -66.828369 48.922016 10327436
141.78717 -66.64019 49.969982 10525071
141.43288 -66.646034 50.995094 10723475
141.10841 -66.606636 51.98341 9407103
140.88626 -66.408653 52.849812 9209212
140.73053 -66.288574 53.435963 10854036
145.34947 -65.311813 17.527357 9866371
145.2986 -65.544296 18.230316 9932163
145.25531 -65.802864 19.289852 8287854
145.27887 -65.878647 20.360304 6576723
145.36592 -65.757591 21.264221 6510930
145.41438 -65.749161 22.216175 7892583
145.39014 -65.940773 23.163858 11051159
145.35391 -66.168579 24.126751 8747629
142.15347 -66.255707 49.33218 10130057
142.05109 -65.780884 50.159775 9340798
141.75806 -65.690804 51.113155 10196363
141.4124 -65.736885 52.067059 9143931
141.15225 -65.669235 52.898483 9406335
140.80461 -65.720146 53.852406 9866629
140.56935 -65.542328 54.733784 10919828
145.56122 -64.428795 15.250018 9274491
145.53232 -64.633797 16.202423 10589837
145.4921 -64.868652 17.145739 9405821
145.56999 -64.800972 18.264627 7037274
145.64697 -64.73632 19.386871 8287341
145.68309 -64.748726 20.23881 7432032
145.63449 -64.999161 21.125078 7827046
145.58508 -65.251892 22.012089 6510930
141.89345 -65.119087 51.355347 10459279
141.72015 -64.933792 52.065029 9143419
141.48631 -64.751801 52.946972 9800580
141.12706 -64.76503 53.976574 9669250
140.7666 -64.781227 55.006321 10261898
140.52957 -64.60582 55.890282 7366239
140.35194 -64.428734 56.603367 8484976
145.78226 -63.590557 13.504511 7630187
145.7589 -63.755066 14.268112 8287859
145.811 -63.726658 15.143661 10853266
145.8551 -63.73975 16.167709 10787470
145.88254 -63.804604 17.236519 10063750
145.90898 -63.872452 18.307507 7037274
145.89848 -64.030182 19.286777 8879478
141.68486 -63.990234 53.216248 10459022
141.4493 -63.810566 54.100662 9998215
141.17488 -63.70966 55.010349 9078393
140.91084 -63.647873 55.84663 9078905
140.54756 -63.66861 56.879684 9472383
140.26613 -63.562088 57.816006 9800580
140.06686 -63.3274 58.656017 8287341
146.01265 -62.534004 12.358686 8880248
146.04662 -62.841934 13.352261 7827565
146.09338 -62.839912 14.318154 9340289
146.11922 -62.875755 15.131629 11905695
146.19301 -62.813522 16.205471 9735551
146.18477 -62.964794 17.183395 9603453
146.17126 -63.107216 17.983829 8089962
141.44441 -63.121227 54.880962 11512476
141.1945 -62.733128 56.038578 11972770
140.86758 -62.714134 57.010094 9341565
140.51399 -62.77396 57.97147 9537408
140.24646 -62.718124 58.811161 9011064
139.9938 -62.712383 59.552059 8682099
146.13126 -61.67371 11.472633 7169885
146.30327 -61.755749 12.363428 7696228
146.45062 -61.733501 13.389541 8025195
146.46333 -61.832821 14.411742 8419441
146.41484 -62.080639 15.280819 10130052
146.39088 -62.247662 16.049473 9735551
141.30267 -62.127834 56.396942 11512476
141.09154 -62.046295 57.10133 9735043
140.90874 -61.777447 57.931435 8616306
140.57683 -61.800072 58.87112 10524047
140.20877 -61.827698 59.910187 9208699
139.89334 -61.747532 60.916332 8287854
139.71933 -61.497864 61.699772 10262929
146.42113 -60.322578 9.4913025 9734788
146.36664 -60.623154 10.24485 8353390
146.47035 -60.817535 11.263736 6972249
146.62686 -60.914131 12.238921 7959401
146.71457 -60.985977 13.236075 9143675
141.0768 -61.019928 58.284809 9734787
140.84454 -60.94849 59.083813 9208443
140.55559 -60.916759 59.979294 8156011
140.41138 -60.68433 60.849144 8090218
140.01862 -60.75359 61.832981 8287854
139.71204 -60.472828 62.805817 9406079
146.92828 -59.423836 7.400517 8617331
146.89102 -59.588947 8.4162235 8025193
146.67099 -59.924244 9.2134275 9077368
146.91397 -59.909389 10.234069 9537662
146.92499 -60.151558 11.122278 8616819
140.46272 -60.070576 62.031071 9669250
140.09122 -59.918064 62.998104 9932423
139.88045 -59.663578 63.846889 10064009
139.54886 -59.4925 64.784515 8616563
139.2291 -59.363331 65.739189 8288627
149.16507 -58.670246 -11.413411 10064004
149.48091 -58.851879 -10.498374 8419696
149.59846 -59.042709 -9.5323925 9208435
148.58167 -59.042408 -8.398365 9208435
148.6254 -59.040955 -7.5064206 11313812
148.67102 -59.039223 -6.4357905 9537150
148.70331 -59.037792 -5.5433602 8089963
148.72993 -59.036362 -4.6507421 9011576
148.75493 -59.034657 -3.5794294 8682867
148.76756 -59.033524 -2.8651626 9538176
147.71576 -59.033089 -1.6080015 9736067
147.7187 -59.031704 -0.72147053 8880502
147.71535 -59.030048 0.34245902 12762542
147.70433 -59.028412 1.4062893 10065291
147.68564 -59.026779 2.4700577 7564651
147.66432 -59.025433 3.3564103 8617333
147.31271 -59.105213 4.231957 10459278
147.36989 -59.141983 5.2967248 11774879
147.15054 -59.282448 6.3499312 8090986
139.87944 -59.167614 65.843765 9999497
139.4993 -59.10083 66.899536 8946553
139.43176 -58.990696 67.695755 10393486
139.06586 -58.936005 68.763649 8617337
138.73044 -58.935452 69.430611 7564651
139.25575 -58.932312 70.961395 9208957
138.8226 -58.931641 71.795837 8682092
138.47227 -58.93111 72.461479 8089955
138.97984 -58.927952 74.016396 9340022
138.52786 -58.927311 74.848946 10458250
138.07135 -58.926674 75.679001 10129545
138.65208 -58.923637 77.092285 8682867
138.27603 -58.923145 77.756866 9011581
137.70639 -58.922421 78.750519 8419445
137.97896 -58.919014 80.685646 9142904
137.55527 -58.877048 81.777481 10458505
137.62212 -58.513756 82.719101 9208953
137.06351 -58.401093 83.434334 8155754
149.11559 -57.803253 -12.323451 8880245
149.4765 -57.775185 -11.509496 10721933
149.69673 -58.118557 -10.682385 8419696
137.74599 -57.711151 83.020287 8617076
137.12424 -57.662315 83.773811 8156266
149.22343 -56.469109 -13.295961 9340539
149.3533 -56.916039 -12.583982 9011831
149.76123 -56.831299 -11.712651 10261383
137.59305 -56.742619 83.737251 8025199
137.0229 -56.583916 84.49131 7761505
149.38953 -55.76849 -13.551928 9734787
149.73961 -55.850906 -12.661977 10326668
149.90468 -56.257256 -11.905227 9931910
137.67958 -55.880409 84.115517 8288371
137.24149 -55.645794 84.757538 8090729
136.7419 -55.610172 85.360703 8156266
149.48657 -54.670761 -14.333991 8748660
149.7494 -54.935528 -13.478581 10853268
137.49973 -54.8144 84.918121 10261390
137.03204 -54.569546 85.600365 10064008
136.54741 -54.58736 86.156487 9011320
149.45293 -53.893135 -15.12876 10261132
149.79424 -53.780937 -14.436204 9998216
150.01837 -54.11129 -13.609261 10853012
137.29178 -53.667885 85.798317 11774882
136.71538 -53.71059 86.447701 8616306
149.5307 -52.504631 -16.226681 8682867
149.69881 -52.898525 -15.471757 10261131
150.10176 -52.891094 -14.538792 10195338
137.41225 -53.029442 86.012482 11511967
137.01479 -52.715317 86.651299 8221804
136.52864 -52.569813 87.299866 9932679
149.73935 -51.754211 -16.431416 8682867
150.08116 -51.838207 -15.556891 9997959
150.21559 -52.274487 -14.841556 10853012
137.21239 -51.805408 86.926308 7563619
136.69217 -51.723389 87.579414 8747893
136.26265 -51.345852 88.29081 7563619
149.72008 -50.684582 -17.461899 8814965
149.96764 -50.894657 -16.690928 9143162
150.31384 -50.95858 -15.824695 10129545
137.39308 -51.009483 87.157784 7563619
136.94884 -50.781494 87.803215 7826791
136.37993 -50.681786 88.523071 7563619
149.85863 -49.523205 -18.208626 9210491
150.0876 -49.839821 -17.382904 9341565
150.39009 -49.989403 -16.539684 9931910
137.19167 -49.989323 87.96006 12433069
136.74617 -49.762852 88.606171 9801349
136.23608 -49.467083 89.366203 8814453
150.01892 -48.83157 -18.471977 9210491
150.43265 -48.856552 -17.484133 9144442
136.92175 -48.765667 88.95546 9998983
136.35056 -48.695515 89.661507 9275004
150.04288 -47.767559 -19.354309 12630703
150.36259 -47.915554 -18.514465 10262924
150.57037 -48.15844 -17.805992 9210491
136.7959 -47.802937 89.637619 11183513
136.20496 -47.589283 90.446442 8025196
150.23734 -46.510876 -20.15044 8947327
150.36571 -46.781406 -19.570305 10789015
150.63704 -46.984436 -18.732243 13091255
136.88948 -46.750916 90.113098 11644065
136.3801 -46.726536 90.721512 7893613
135.9337 -46.505928 91.37188 9735558
150.36208 -45.681477 -21.362736 8947327
150.51926 -45.996578 -20.476944 9078656
150.84726 -46.062206 -19.678501 8684155
136.82765 -46.050766 90.863197 8288114
136.32681 -45.88879 91.638336 9932936
136.05898 -45.495102 92.413704 11577243
150.56712 -44.546234 -24.255951 10853012
150.99039 -44.529755 -23.487511 9997955
150.67781 -44.837067 -22.484076 10656143
150.78624 -45.098839 -21.514423 8748663
150.9435 -45.31881 -20.797588 9868171
136.38675 -44.896172 92.734612 10064263
135.87634 -44.733398 93.653526 10919313
135.90237 -44.391689 94.724396 9077368
135.40904 -44.380692 95.352722 9932419
152.44832 -43.535351 -38.212971 9340539
152.62703 -43.683708 -37.350697 11182228
152.64339 -43.890591 -36.514965 10195337
152.57629 -44.07859 -35.405117 9010808
152.74193 -44.077213 -34.6721 10853012
151.69847 -44.07539 -32.532326 10722194
151.92459 -44.073357 -31.438652 15526368
152.14276 -44.071342 -30.343401 15065045
151.06548 -44.069641 -28.254181 9208443
151.19611 -44.068321 -27.528336 8354676
151.38609 -44.066349 -26.438469 10525071
151.02054 -44.230373 -25.629961 9274490
151.19217 -44.329445 -24.540501 10261129
136.14993 -44.143631 95.633369 11182228
135.52885 -44.130619 96.42057 10261385
135.70018 -43.896072 97.534607 9209726
135.10704 -43.89566 98.347397 11380121
135.51138 -43.891468 100.66262 8814197
134.89909 -43.89109 101.47395 9143675
135.28336 -43.886875 103.82843 9143419
134.77858 -43.886593 104.47664 9011576
134.27118 -43.886318 105.12271 11183001
134.52196 -43.456696 106.37334 11972767
133.9413 -43.210728 106.96656 11183508
152.49864 -42.636063 -39.069946 9077627
152.62376 -42.875748 -38.438931 10787471
152.93736 -42.896206 -37.504734 12629160
134.60023 -42.621193 106.70017 8815475
134.03232 -42.516846 107.21666 8815475
152.59633 -41.482731 -40.072735 7563619
152.70522 -41.874981 -39.318577 9471871
153.03645 -41.943161 -38.279926 11183004
134.61859 -41.991928 106.97983 6512978
134.21635 -41.688007 107.45332 9209976
152.71252 -40.871185 -40.417164 9274233
153.03928 -40.927189 -39.405113 9274492
153.21509 -41.130753 -38.667122 9341059
134.54553 -40.786446 107.60471 8683893
133.9603 -40.588135 108.17939 10459792
152.84964 -39.823151 -41.187611 8287596
153.13008 -39.965366 -40.213703 8813683
153.32489 -40.233521 -39.348347 9603200
134.57025 -39.886501 108.00591 11906725
134.16609 -39.583977 108.48042 10327951
152.89745 -38.719959 -42.278725 7564643
153.16435 -38.808273 -41.404373 8287341
153.4059 -38.915859 -40.582142 12826022
134.38652 -38.698307 108.71385 8946813
133.87752 -38.58744 109.18478 8880763
152.98865 -37.773067 -43.069489 8485744
153.25269 -37.84716 -42.219097 7564131
153.51646 -37.922394 -41.368366 8287341
134.02686 -37.693707 109.48059 7827820
133.66585 -37.315071 109.95509 8090216
153.10374 -36.49287 -44.161896 7564643
153.2171 -36.881729 -43.398952 8156780
153.554 -36.941967 -42.352276 7564387
134.25475 -36.782528 109.71986 7564651
133.68068 -36.684486 110.23833 6775128
153.12276 -35.723286 -44.964916 9735043
153.30328 -35.920918 -44.219791 9471613
153.61169 -35.930466 -43.312305 10590091
153.72993 -36.12756 -42.748806 8089963
134.34378 -36.084263 109.97366 7564651
133.97517 -35.645203 110.48282 8353650
133.60596 -35.206837 110.9922 11378324
153.35031 -34.830299 -45.298992 9537664
153.63609 -34.966263 -44.316387 9668992
153.83569 -35.229725 -43.442379 10195078
134.19615 -34.670959 110.75729 8353906
133.61977 -34.574955 111.27678 10917773
153.4698 -33.750111 -46.155952 9208955
153.7892 -33.764019 -45.211903 9735042
153.84079 -34.199802 -44.575924 9340027
133.83527 -33.810738 111.45737 9471608
133.42511 -33.511837 111.93505 8681835
153.47923 -32.777409 -47.2131 9932423
153.74791 -32.846401 -46.355057 10261132
154.01628 -32.916233 -45.49688 10261132
134.03806 -32.797939 111.76491 9734524
133.4967 -32.670074 112.27049 9997183
153.62816 -31.622494 -48.067806 10129545
153.83232 -31.834332 -47.238045 10524559
154.05748 -32.015202 -46.381702 10261132
133.77043 -31.694305 112.50223 9668992
133.35829 -31.396206 112.98116 9011576
153.78853 -30.91658 -48.388603 10458510
154.12608 -30.959534 -47.359295 10458511
133.95082 -30.854115 112.74736 9800580
133.37041 -30.761715 113.26845 8748660
153.87428 -29.634188 -50.860519 9537659
153.99796 -29.755644 -50.219383 9537659
154.11775 -29.998505 -49.305794 9668732
154.31189 -30.218676 -48.227859 10787472
133.66171 -30.01959 113.61062 10195338
133.40637 -29.607796 114.22742 8551281
132.96385 -29.324734 114.87108 7038307
154.72551 -28.529331 -56.124401 9668995
154.99504 -28.669619 -55.298084 11774109
154.73395 -29.013224 -54.315449 10459021
154.81966 -29.103123 -53.236195 8289139
154.21124 -29.344374 -51.998112 9340279
154.46344 -29.344156 -51.259045 10262156
154.65179 -29.344322 -50.704475 9537659
133.49863 -29.022696 115.61886 8945531
132.86865 -29.007755 116.19814 10854036
133.32123 -28.866705 118.60394 7564643
132.74522 -28.866543 119.24249 8090731
154.67172 -27.839613 -56.94672 9142651
154.96007 -27.841553 -56.21003 10984598
155.27385 -27.910046 -55.342228 9735297
158.26907 -26.475019 -84.756607 7564643
154.80995 -26.599661 -57.984467 8418928
155.0013 -26.80147 -57.189365 9602945
155.25871 -26.969891 -56.319061 10853269
158.21469 -26.415316 -83.997864 7564643
158.13957 -26.336052 -82.989883 8617331
158.06146 -26.257256 -81.986008 14406086
157.98032 -26.179016 -80.986397 14406086
157.89619 -26.101288 -79.990814 7564651
157.80907 -26.024021 -78.999527 7564651
157.71906 -25.947212 -78.01226 9735558
157.62613 -25.870968 -77.029106 9012606
157.5303 -25.795128 -76.050095 7565675
157.43161 -25.719805 -75.075172 13814461
157.33015 -25.644989 -74.104271 11708322
157.22594 -25.570585 -73.137421 7037274
157.11879 -25.496691 -72.174637 10130059
157.03682 -25.441589 -71.454964 10985881
155.11423 -25.727449 -59.019035 9932675
155.24629 -25.910814 -58.218216 8748662
155.44276 -26.093744 -57.231319 9142651
156.98129 -25.404922 -70.976593 10985881
156.89656 -25.350283 -70.260948 8092019
156.77394 -25.263239 -69.082779 10262414
156.70586 -25.199131 -68.158165 8485488
156.19232 -25.078993 -67.271126 8485488
155.57689 -24.756586 -63.067955 8354163
155.66783 -24.815825 -62.021408 8551542
155.71158 -24.880394 -61.175289 9406591
155.4854 -25.112873 -60.228752 9669503
155.44569 -25.269371 -59.358135 9340539
155.6371 -25.346926 -58.364643 9867398
144.27629 -68.282288 33.507931 8419435
144.17502 -68.312134 34.215919 8814451
144.02214 -68.359222 35.278942 8551021
143.89374 -68.400795 36.165745 5920074
143.28926 -68.29229 41.189209 11906725
143.15417 -68.347946 42.084072 11183001
145.00005 -67.592018 27.485191 8090730
145.01253 -67.673424 28.355839 6511959
144.99464 -67.74958 29.294811 6643544
144.85904 -67.787483 30.356285 11052696
144.73558 -67.816872 31.239534 10065801
144.61121 -67.848511 32.123489 7762790
144.48387 -67.840103 33.144848 8551279
144.37622 -67.743492 34.264019 8156005
144.22324 -67.790276 35.328518 8418923
144.09485 -67.83152 36.216618 7563619
144.03233 -67.68528 37.12307 6774871
143.87544 -67.73996 38.191692 8287853
143.7171 -67.797745 39.261814 8221549
143.58418 -67.848206 40.154793 10260360
143.4962 -67.789162 41.009003 12168354
143.35524 -67.776642 42.143578 9669762
143.23531 -67.705811 43.280952 8814453
143.12169 -67.715096 44.140541 8485488
142.979 -67.775131 45.04015 8090987
142.78445 -67.56218 46.037949 9669248
142.58084 -67.404922 46.806313 7563619
145.31433 -66.492325 25.73893 6248013
145.28281 -66.655273 26.310314 6971477
145.2692 -66.807884 27.1749 6840407
145.30208 -66.856422 28.222464 6708822
145.33325 -66.805824 29.363693 8617331
145.19116 -66.877518 30.353424 10855317
145.17349 -66.630295 31.197716 12039591
145.01363 -66.713188 32.213486 8223085
144.86307 -66.753311 33.278217 6972248
144.71127 -66.796471 34.344078 8484972
144.58382 -66.834679 35.233181 9998731
144.45544 -66.875137 36.12328 11578280
144.36717 -66.736809 37.209972 8024427
144.21051 -66.791031 38.281254 10458252
144.08334 -66.781593 39.300442 9405565
144.02287 -66.653 40.138271 9734273
143.85216 -66.76004 41.16486 10063491
143.69011 -66.825203 42.242733 8287597
143.5863 -66.803337 43.11446 8748403
143.48395 -66.750237 44.064079 9143417
143.33073 -66.741646 45.205914 8617330
143.07726 -66.64418 46.208977 12695466
142.6611 -66.830177 47.213314 8814197
142.43402 -66.637039 48.090038 8682867
145.57758 -65.449371 23.35552 9340285
145.5338 -65.706779 24.388077 7760993
145.52968 -65.849014 25.371605 6510928
145.59738 -65.789818 26.33157 6313807
145.66441 -65.732925 27.294729 6840408
145.67996 -65.823212 28.296329 6971994
145.60394 -66.051476 29.418751 8617075
145.48769 -66.080666 30.30637 9736580
145.43109 -65.920197 31.207745 9407871
145.28168 -65.956886 32.273434 8683123
145.13098 -65.996643 33.340214 6643284
144.99982 -65.948463 34.505215 8485232
144.9185 -65.887939 35.315285 12104881
144.79001 -65.927925 36.2075 16777215
144.6347 -65.978554 37.279392 10459799
144.47807 -66.03228 38.352772 9603971
144.37769 -66.01284 39.19479 8945528
144.28059 -65.938507 40.163902 9734273
144.1199 -66 41.242012 9931905
144.02472 -65.874466 42.341759 8353134
143.88866 -65.930382 43.243542 9471357
143.75159 -65.988594 44.146839 8551281
143.60565 -66.016045 45.162945 8090987
143.4063 -65.689095 46.315952 10854035
143.04797 -65.875572 47.151363 10393486
142.75471 -65.873329 48.00787 9801349
142.43294 -65.825378 48.99823 10985366
142.23753 -65.493393 49.937485 10459279
145.83865 -64.44046 21.154915 9340282
145.7932 -64.706238 22.223173 7563874
145.81474 -64.788933 23.304008 8550768
145.88742 -64.738251 24.441441 6839894
145.92041 -64.761703 25.304565 7694945
145.93655 -64.837868 26.21225 7827560
145.9193 -65.017746 27.206676 8353902
143.39822 -64.95974 47.152908 8288366
143.14763 -64.728065 48.140903 10262156
142.79381 -64.727913 49.171207 11643296
142.4389 -64.730667 50.201244 10459279
142.17993 -64.65844 51.034451 10459279
141.97144 -64.454399 51.867378 9406591
146.07018 -63.571701 19.398968 9208187
146.02287 -63.818672 20.286388 11642782
146.11072 -63.695934 21.194691 11445653
146.1338 -63.774544 22.275492 9735039
146.15585 -63.85619 23.35891 9471611
146.21497 -63.830105 24.399923 9142389
146.19377 -64.013809 25.352291 9405560
143.2914 -63.964542 48.573605 10591121
143.0833 -63.812405 49.348648 9669763
142.82344 -63.776028 50.144558 8288110
142.52606 -63.779968 51.00465 9735556
142.16824 -63.787308 52.036667 9406846
141.87155 -63.701134 52.994835 9604225
146.36078 -62.517712 17.471788 8879989
146.33353 -62.715508 18.405804 8287341
146.34148 -62.828838 19.435234 9734531
146.36246 -62.889202 20.33391 12300965
146.45067 -62.765804 21.24437 10261379
146.47418 -62.84338 22.327766 8419175
146.4286 -63.110336 23.402847 9800321
143.01849 -63.203934 50.21349 7300958
142.81921 -62.874458 51.158794 11577501
142.49176 -62.833755 52.155888 9867396
142.131 -62.891022 53.141029 10590862
141.87576 -62.798874 53.985363 11380378
141.63147 -62.636868 54.875538 11512476
141.41693 -62.496628 55.654919 16247774
146.62637 -61.438271 14.828318 8683120
146.59805 -61.594059 15.41888 9406586
146.57068 -61.785038 16.298561 8683120
146.59631 -61.84211 17.270576 8024680
146.68436 -61.755501 18.456797 9143419
146.74825 -61.715103 19.489677 8748405
146.7417 -61.846409 20.350988 8090212
146.68646 -62.108704 21.188751 10919309
146.67055 -62.258842 21.997103 7563610
142.75279 -61.976723 52.349606 9209467
142.54155 -61.774727 53.188152 12103586
142.2782 -61.708183 54.027607 10722193
141.9158 -61.722733 55.064991 10920084
141.5834 -61.691597 56.065769 12959408
141.35397 -61.501068 56.944393 8089963
141.19344 -61.385918 57.53886 8089963
146.91548 -60.624634 12.721029 7564642
147.01285 -60.571178 13.492653 8025193
146.96634 -60.713306 14.506607 7169884
146.98169 -60.756813 15.400354 8156778
146.9959 -60.802269 16.295471 7630689
146.98427 -60.898983 17.323074 8156011
146.93649 -61.048794 18.365747 10657426
147.01051 -60.94986 19.165089 8089963
142.47534 -60.948013 54.299301 9011320
142.27344 -60.785103 55.204777 10195849
142.08003 -60.627831 56.115616 11314842
141.77216 -60.642464 56.982025 8945528
141.44173 -60.617577 57.988911 10721939
141.18962 -60.504826 58.930061 9274236
140.9939 -60.356503 59.847229 7497825
147.35242 -59.428413 9.3768368 8814452
147.56052 -59.432316 10.370579 9143417
147.38863 -59.709644 11.336624 8485489
147.37144 -59.949528 12.405061 7433056
147.55759 -59.850811 13.493191 7564642
147.44746 -60.059879 14.555388 7630435
147.45818 -60.101006 15.451496 8354159
142.10876 -59.971428 57.516758 13024949
141.85898 -59.984272 58.21159 13024949
141.72577 -59.79776 59.035858 10261387
141.44987 -59.738781 60.093262 9668994
141.09732 -59.760014 61.048481 10261643
140.99113 -59.544529 61.942127 11577504
140.65088 -59.497971 62.825298 11445661
149.73233 -58.68288 -10.08223 8419696
150.00954 -58.649555 -9.3251133 8024937
150.08189 -58.865547 -8.5132427 8616816
149.70279 -59.039486 -7.5561976 10984593
149.74876 -59.037735 -6.477798 8089963
149.78696 -59.035999 -5.3991008 9142907
149.81735 -59.034283 -4.3201518 10063753
149.83688 -59.032848 -3.4208715 9735043
148.77454 -59.032684 -2.3293464 9077625
148.78177 -59.031281 -1.4363735 8880502
148.78403 -59.029888 -0.54337662 9012088
148.78044 -59.028503 0.34962016 10721682
148.76935 -59.026848 1.4212039 10524561
148.75052 -59.025208 2.4926159 7959408
148.72398 -59.023579 3.5638888 8485488
148.68971 -59.021961 4.6349273 9801348
148.65541 -59.020622 5.5273471 9472386
148.18184 -59.059181 6.3988099 7498854
147.82401 -59.149269 7.4493604 8288365
147.89563 -59.200897 8.5221748 7696229
147.9631 -59.254017 9.5968218 9011831
148.00597 -59.290207 10.314161 8090987
141.33717 -59.222805 63.033222 14604238
140.91136 -59.205444 63.861874 13024950
140.68221 -59.085846 64.987213 10657425
140.53398 -58.970524 65.948669 10855060
140.18564 -58.959049 66.610008 8288627
140.69173 -58.934685 68.105392 9406334
140.27533 -58.933975 68.948372 11314590
139.76921 -58.933136 69.956703 9670024
140.13068 -58.929684 71.838745 10130057
139.60367 -58.928875 72.846024 11050383
139.24854 -58.928349 73.515465 10590089
139.75999 -58.925159 75.087097 10852494
139.30193 -58.924519 75.924522 11378324
138.93178 -58.924007 76.592438 10458510
139.42477 -58.920815 78.188606 10261132
139.0437 -58.920326 78.857056 10261132
138.56267 -58.919724 79.689941 9011580
138.99887 -58.593506 80.838615 10327177
138.4256 -58.539139 81.758423 10721676
149.97325 -57.790627 -10.339805 8288110
150.35757 -57.842476 -9.3981724 7564643
139.09517 -57.864807 81.194565 11971743
138.6131 -57.781204 81.959991 10458505
138.11934 -57.741428 82.567467 10458505
149.96419 -56.892101 -11.184738 10261132
150.30603 -56.789459 -10.483713 8814198
150.52802 -57.134125 -9.6512432 7564643
138.92471 -57.060646 81.995071 9274746
138.43063 -56.750538 82.754768 9472384
137.99348 -56.512718 83.397507 8288371
150.05029 -55.479534 -12.279872 9931910
150.21593 -55.886642 -11.521204 9603458
150.61874 -55.892849 -10.578402 8683126
138.67946 -55.795029 82.995369 9143677
138.05377 -55.665386 83.798088 7827822
150.33084 -54.792374 -12.257196 9340029
150.64824 -54.96867 -11.357235 9735812
138.80345 -55.154701 83.20649 8288371
138.41074 -54.769554 83.879196 8683128
137.98643 -54.484943 84.53289 9603971
150.29471 -53.779987 -13.270225 10853012
150.63312 -53.892136 -12.379488 9208443
150.88629 -54.079803 -11.618498 9735812
138.67343 -53.791939 84.115875 8880504
138.10765 -53.683685 84.836754 10196107
137.66667 -53.450699 85.481293 11905701
150.41937 -52.528786 -14.131966 10919573
150.62306 -52.784882 -13.420801 9406078
150.89615 -52.959599 -12.623186 8813429
138.41682 -52.827946 84.951416 10196107
137.94736 -52.545353 85.656723 9406847
137.53114 -52.229294 86.318443 9209467
150.53188 -51.836361 -14.507475 11050903
150.93219 -51.892998 -13.521641 9735043
138.66275 -51.899933 85.180145 10064521
138.21942 -51.6679 85.82679 9078139
137.65099 -51.563828 86.548508 8684155
150.67535 -50.664177 -15.252737 10195082
150.96234 -50.900265 -14.365898 10590608
151.04636 -51.274799 -13.824783 10459022
138.33876 -50.866764 86.132759 9276292
137.90959 -50.587112 86.789375 8947327
137.63687 -50.21719 87.313446 11184031
150.63843 -49.867699 -16.072624 10392461
150.98372 -49.849518 -15.28405 10392461
151.19032 -50.100353 -14.57122 10984593
138.2001 -49.645458 86.97361 9276292
137.58838 -49.676319 87.670784 12696755
150.70901 -48.586617 -17.08827 9010808
150.91653 -48.832962 -16.377377 10195082
151.23938 -49.041149 -15.432537 10195082
138.31789 -48.84441 87.281357 9933965
137.88744 -48.667953 87.88205 15263711
137.44769 -48.592743 88.437408 13487039
150.88853 -47.791058 -17.402555 9801606
151.2932 -47.834839 -16.418409 8484721
138.17557 -47.624496 88.12571 13487045
137.58905 -47.743744 88.744255 11183775
137.21782 -47.371471 89.38475 8814453
150.85748 -46.445549 -18.943581 13551549
151.00777 -46.709293 -18.225731 12893620
151.20236 -46.955898 -17.466328 10393486
