# .PCD v0.7 - Point Cloud Data file format
VERSION 0.7
FIELDS x y z rgb
SIZE 4 4 4 4
TYPE F F F U
COUNT 1 1 1 1
WIDTH 1198
HEIGHT 1
VIEWPOINT 0 0 0 1 0 0 0
POINTS 1198
DATA ascii
83.005219 -25.671316 -163.63611 9406590
83.566528 -25.892338 -163.2869 7234910
84.474976 -25.940516 -162.84589 6182222
154.02153 -26.265036 -78.384094 8617075
153.99097 -26.196753 -77.444023 9603455
155.84541 -25.916111 -76.04718 7827302
155.81215 -25.86574 -75.340393 16777207
157.89159 -25.5914 -73.559746 14076870
157.80931 -25.535906 -72.834305 8155756
82.350769 -24.793493 -164.29205 9406590
82.91333 -25.014355 -163.94232 9209212
83.910316 -25.018387 -163.478 7695205
159.98705 -25.263477 -70.833359 8881277
162.1199 -24.957067 -68.315521 9735812
162.01877 -24.904337 -67.589699 8288109
164.22316 -24.635773 -65.519539 8026225
166.42166 -24.363871 -63.403603 10853012
82.336136 -24.062317 -164.59219 9340799
83.18364 -24.09429 -164.18599 8814459
83.819351 -24.360147 -163.78427 7432549
166.26567 -24.308428 -62.662739 9931910
168.44476 -24.043959 -60.725597 10261387
168.26172 -23.987431 -59.978733 5920074
170.49214 -23.738352 -58.244961 8024423
170.29372 -23.682287 -57.496048 7037274
172.59087 -23.44809 -55.968002 9209467
172.37724 -23.392487 -55.216702 7827814
81.689209 -22.94717 -165.33989 9340797
82.531555 -22.97423 -164.93803 9208960
83.200142 -23.259207 -164.51343 9143167
174.52751 -23.117514 -53.142815 6511954
176.51564 -22.802286 -50.521351 7038819
178.57094 -22.501879 -48.104576 9933964
178.39748 -22.465969 -47.600697 9933964
81.087936 -21.859142 -166.05544 9275261
81.811584 -21.933846 -165.68964 9077625
82.535011 -22.008879 -165.32373 8617078
180.70903 -22.215694 -45.894848 14077894
180.52525 -22.179991 -45.388985 11906983
182.8069 -21.920494 -43.629936 11709345
182.58199 -21.881517 -43.115257 13551549
184.68877 -21.596495 -41.27282 9208435
184.45364 -21.558025 -40.757492 9735296
80.547104 -21.048809 -166.63171 9735812
81.149612 -21.049332 -166.35179 9472383
82.066559 -21.094883 -165.90788 9801348
186.48236 -21.24383 -38.159393 9340286
188.66975 -20.948647 -35.77726 8156267
191.0161 -20.669767 -33.607742 9735555
190.80583 -20.638683 -33.100281 9735555
192.94057 -20.324524 -30.370798 9406847
79.916794 -19.941736 -167.37003 9208435
80.485695 -20.163469 -167.01651 9077112
81.290466 -20.164049 -166.64252 9735555
81.858658 -20.386356 -166.28923 10262156
195.26387 -20.032116 -28.091089 6971994
194.94698 -19.993212 -27.569887 8288109
197.13268 -19.685078 -25.460978 9734531
79.318008 -18.609406 -168.18445 9931904
79.76767 -19.053776 -167.79677 9471868
80.660606 -19.053783 -167.38206 8945784
81.230247 -19.27643 -167.02786 8616563
79.105042 -17.896767 -168.57031 8616305
80.02771 -17.940834 -168.12405 9275005
80.598877 -18.163708 -167.76913 8616563
78.547638 -17.049059 -169.17044 9405821
79.357361 -17.048285 -168.79474 8550257
80.087921 -17.12236 -168.42563 9011321
77.933273 -15.936055 -169.97511 8353647
78.566559 -16.200857 -169.53174 8813429
79.425323 -16.229437 -169.11662 8681843
75.982605 -14.64665 -172.20749 8616563
76.801361 -14.644742 -171.83099 9735299
77.25 -15.14069 -171.00043 10393230
78.139946 -15.282116 -170.427 8551026
78.681343 -15.499722 -169.99411 8089963
65.147392 -13.844107 -185.49467 10458246
66.005463 -13.837132 -185.09918 9274489
66.532372 -14.246139 -183.78912 11905951
67.191757 -14.245344 -183.54893 9472126
67.850365 -14.244548 -183.30667 8682867
74.193726 -14.275602 -174.33003 9538176
74.812424 -14.273554 -174.04744 10130573
75.637032 -14.271141 -173.66998 8616563
64.40107 -12.903122 -186.21979 10458246
65.232925 -13.133391 -185.74101 12497829
66.225647 -13.204579 -185.25159 10392711
64.082886 -11.955285 -186.74905 10261132
64.566376 -12.236935 -186.4113 11116176
65.562668 -12.181808 -185.97102 10853004
63.330788 -11.007511 -187.47964 7564643
63.951317 -11.241446 -187.09747 8617075
64.81498 -11.235153 -186.69913 10984851
65.433479 -11.469116 -186.31787 8681835
62.630356 -9.5759487 -188.38104 9011320
63.280052 -9.9550056 -187.92688 8419696
64.092049 -10.045232 -187.51364 8419696
64.712852 -10.280539 -187.13078 9800581
62.495804 -8.8556147 -188.73344 9603458
63.489655 -8.8974047 -188.25531 9537665
61.966187 -7.7737522 -189.41476 7103835
62.905548 -7.9372191 -188.91293 9011320
63.666389 -8.125844 -188.4838 10261132
61.434006 -6.6870685 -190.09915 8418928
62.144066 -6.9741831 -189.65408 7103579
62.935219 -6.9214859 -189.30801 6511954
60.721436 -5.8804574 -190.75464 9076858
61.515739 -5.9576583 -190.35487 9340030
62.308784 -6.0348754 -189.95563 7498081
60.114883 -4.7445965 -191.49332 9209467
60.747185 -4.9861631 -191.10251 8353391
61.624962 -4.9823771 -190.69659 9076858
59.948189 -4.2556438 -191.76718 9998983
60.85511 -4.0069852 -191.44603 11907496
61.487427 -4.2497005 -191.05493 9340030
95.766457 -34.738586 -149.81635 9735812
96.596466 -34.920776 -149.2959 7367779
97.317886 -35.169319 -148.68892 7763053
98.013008 -35.163399 -148.20029 8813686
100.70758 -34.936226 -145.00299 6643031
101.16284 -34.854328 -144.18219 6510930
101.71239 -34.748077 -143.13863 8156011
102.25559 -34.642467 -142.0965 9471875
102.6851 -34.558529 -141.26387 7564651
95.305374 -34.087563 -150.28128 8683381
95.904465 -34.108265 -150.03244 10262156
96.625381 -34.026932 -149.77464 8091501
106.60686 -34.027489 -137.80077 9142905
106.90845 -33.9664 -137.17166 9142905
107.3068 -33.885284 -136.33354 8089705
107.79832 -33.784447 -135.28712 8287084
108.18723 -33.704147 -134.45085 8616307
94.398026 -32.566936 -151.24283 6117711
95.17495 -32.964718 -150.77449 6380883
96.058098 -33.132576 -150.35368 7367779
111.70417 -33.265553 -131.57736 8419702
111.976 -33.206432 -130.94321 9077117
112.33478 -33.127842 -130.09857 8353651
112.77708 -33.030197 -129.04437 8353135
116.06804 -32.614132 -126.26304 9736067
116.39629 -32.537468 -125.41167 8090730
116.63998 -32.480225 -124.77394 8814966
94.610474 -31.890997 -151.42282 6973279
95.523621 -31.962063 -151.02792 5525573
116.80094 -32.442093 -124.34917 8090987
116.96097 -32.404167 -123.92464 8090987
119.90121 -32.047153 -121.67985 7038307
120.19997 -31.972307 -120.82297 7038563
120.56837 -31.879255 -119.75348 8682867
120.78645 -31.82373 -119.11282 8682867
123.56488 -31.486315 -116.99103 6774102
123.76802 -31.431499 -116.34475 7037274
93.790695 -30.991405 -152.15721 10327949
94.703278 -31.086622 -151.73399 6446934
95.448502 -31.318388 -151.31076 5393730
123.90217 -31.395086 -115.91434 8485232
124.1014 -31.340773 -115.26946 9209467
126.81401 -31.003546 -113.07085 8814198
127.05922 -30.93214 -112.20449 9143417
127.30133 -30.861036 -111.33942 9735297
129.89069 -30.541868 -109.28518 8682867
130.16782 -30.45446 -108.1965 7301221
92.135818 -29.62314 -154.11374 9208443
92.712082 -29.761045 -153.68242 9275777
93.383308 -29.958828 -153.1882 9867657
94.109772 -30.295143 -152.56641 11709087
94.92363 -30.479057 -152.08795 6117711
130.33121 -30.402323 -107.54461 6511962
132.86314 -30.083206 -105.42196 7958888
133.1111 -29.997656 -104.32866 8092019
135.55202 -29.695198 -102.36514 9076857
135.7755 -29.611132 -101.26553 8287341
86.825012 -28.966553 -160.54115 8814200
87.617767 -28.97394 -160.1702 8552056
88.530258 -29.055746 -159.71388 8748149
90.655319 -29.291311 -155.84018 8681843
91.443207 -29.30406 -155.47748 7629411
92.231049 -29.317177 -155.11334 9208443
138.21904 -29.291351 -99.023804 7696233
138.37778 -29.225304 -98.139992 7366239
140.47293 -28.890184 -96.127045 9932163
140.51509 -28.828548 -95.418266 7038307
142.48584 -28.519579 -93.792122 9471100
142.54816 -28.443035 -92.859451 9010544
86.218369 -27.872944 -161.26147 8089963
86.97506 -28.097063 -160.82033 8222063
87.888908 -28.177965 -160.36371 8222575
144.4857 -28.152191 -91.431061 7367522
144.53242 -28.077045 -90.496277 6511954
146.4559 -27.784929 -89.033745 9736585
146.47975 -27.729414 -88.330948 8355190
148.39203 -27.43593 -86.83596 9736836
148.40088 -27.399492 -86.36573 11183767
85.645958 -26.559568 -162.05405 8089963
86.327118 -26.946508 -161.58269 8616819
87.204262 -27.153584 -161.09247 9340798
87.883041 -27.450743 -160.6582 8287854
148.4091 -27.363157 -85.896416 12630698
150.30704 -27.068504 -84.368088 7037274
150.30896 -26.99704 -83.427025 8090220
152.19569 -26.718733 -82.101379 10787986
152.18326 -26.648428 -81.158028 9406590
154.06909 -26.38586 -80.037712 9735812
84.99691 -25.680832 -162.70784 7366240
85.684814 -25.860018 -162.3167 8155756
86.535454 -26.018993 -161.85811 8748661
154.05629 -26.351139 -79.564049 9735812
154.04294 -26.316618 -79.091354 9735812
155.908 -26.017754 -77.466751 8813683
155.87753 -25.966784 -76.755859 8813683
158.05122 -25.703094 -75.017723 7565675
157.97205 -25.647097 -74.287712 13814461
160.17741 -25.373953 -72.295097 11906725
84.907593 -25.023216 -163.01314 7892584
85.90535 -25.028931 -162.54776 8353135
86.666321 -25.25313 -162.1046 7893608
160.1147 -25.337059 -71.806694 11906725
162.31783 -25.06328 -69.773659 8682867
162.21967 -25.009995 -69.043304 9143419
164.41408 -24.723207 -66.737541 5393738
166.55075 -24.415928 -64.137703 9931910
84.333847 -24.06959 -163.66205 8221807
85.181747 -24.102938 -163.25513 8155756
85.81691 -24.370054 -162.85321 8681843
168.74738 -24.13884 -61.976292 11182489
168.62679 -24.100784 -61.474991 11182489
170.7551 -23.813492 -59.24778 5920074
172.80345 -23.503994 -56.722683 7694945
83.754623 -22.930836 -164.38779 9143167
84.533676 -22.981031 -164.00604 8945531
85.314301 -23.311895 -163.51102 9405566
174.83202 -23.191223 -54.150227 10064009
176.92223 -22.893581 -51.783436 14603206
176.75984 -22.85696 -51.27755 7038307
179.08946 -22.610519 -49.624725 6510930
178.83055 -22.555998 -48.863251 6775130
83.093735 -21.863178 -165.12289 10853012
83.817383 -21.938921 -164.75661 9735046
84.620041 -21.941778 -164.38292 8222323
180.98399 -22.269451 -46.656437 12959670
183.13396 -21.978115 -44.402908 8946296
185.0414 -21.654699 -42.049019 10654857
186.97951 -21.326109 -39.427299 10261382
82.591492 -20.830442 -165.77029 10262156
83.158676 -21.052975 -165.41782 9866886
84.075813 -21.099876 -164.97331 9208959
186.78081 -21.293118 -38.918983 11906725
189.06895 -21.011677 -36.791023 8288365
191.33107 -20.716591 -34.371681 10525071
193.49254 -20.401409 -31.644831 9209467
193.27184 -20.370535 -31.134089 8616563
81.929611 -19.943127 -166.43465 9735555
82.497833 -20.165684 -166.08121 9998727
83.302902 -20.167339 -165.70667 9735299
83.87027 -20.390547 -165.35327 10261132
195.65352 -20.082031 -28.864313 8090730
197.62602 -19.742916 -26.245859 9734531
81.336128 -18.609489 -167.24736 8089963
81.870514 -19.054647 -166.81984 8551281
82.6772 -19.055738 -166.44479 9011576
83.368423 -19.353582 -166.00386 9340285
81.125977 -17.896324 -167.632 8287342
82.048622 -17.941515 -167.18532 8879991
82.654945 -17.942177 -166.90346 9208443
80.651093 -16.973253 -168.2242 8748405
81.381683 -17.047861 -167.85483 8748149
82.112076 -17.122868 -167.48549 8221805
79.962692 -15.933775 -169.03348 8550257
80.594444 -16.199308 -168.59041 9866373
81.453079 -16.228842 -168.17496 9340798
78.028214 -14.642356 -171.26505 9011321
78.845833 -14.641096 -170.88675 8287854
79.369804 -15.066398 -170.1076 8616306
80.174911 -15.279803 -169.48303 8089963
80.917465 -15.497972 -168.9559 10853012
67.077133 -13.828861 -184.60516 10129543
67.933563 -13.822504 -184.21011 10720653
68.530495 -14.101826 -183.34589 9142905
69.38353 -14.242688 -182.73181 8682867
76.666901 -14.268443 -173.19724 9669507
77.696335 -14.266231 -172.72339 10459023
66.550766 -12.886444 -185.22882 10261641
67.299805 -13.070404 -184.80701 10326409
68.222153 -13.229626 -184.31479 10391945
66.558105 -12.127154 -185.53101 9537661
67.483063 -12.286957 -185.03732 10391945
65.907867 -11.108359 -186.24289 9208181
66.835556 -11.268993 -185.74762 10655633
67.586746 -11.454631 -185.32425 9932166
64.79837 -9.5616446 -187.38051 7564643
65.390076 -10.036718 -186.91458 10327179
66.254349 -10.0313 -186.51559 8814453
66.843231 -10.505945 -186.05118 10853012
64.044518 -8.6053743 -188.1153 7564643
64.66716 -8.8421059 -187.731 9998471
65.534088 -8.8370342 -187.33066 10788755
66.154724 -9.0736666 -186.94734 13024949
63.993782 -7.8023057 -188.46213 10261132
64.781334 -7.8783898 -188.06596 9473151
65.567741 -7.9545431 -187.67026 10460046
63.371338 -6.9192219 -189.10654 9011320
64.161354 -6.8667874 -188.76086 10393231
64.867134 -7.1536474 -188.31781 10262667
62.637375 -5.7091708 -189.9343 8418928
63.483521 -5.9483361 -189.44521 8485490
64.492447 -6.0247502 -188.94614 10064779
62.310181 -4.735455 -190.47766 9340030
62.802689 -5.026289 -190.13217 8682099
63.732475 -5.0549932 -189.68895 7564651
61.541992 -3.7595108 -191.22656 9340030
62.173615 -4.002203 -190.83578 9076858
63.0513 -3.9991415 -190.4295 8682867
63.68071 -4.2416611 -190.03986 8682867
62.256485 -3.2663674 -191.09305 9471871
62.91571 -3.2644136 -190.78772 8682867
97.713516 -34.793308 -148.90474 8813686
98.606583 -34.906723 -148.32303 7695204
99.152451 -35.075691 -147.60767 7892584
99.74826 -35.088924 -146.59444 7696236
100.23008 -35.012371 -145.79863 6643031
97.204483 -33.855534 -149.60918 6511444
98.110985 -33.920547 -149.21935 7695204
98.661095 -34.420776 -148.79172 8813686
104.63795 -34.419312 -141.79556 9076857
105.06094 -34.336079 -140.95314 7038298
105.58295 -34.232674 -139.90112 8090986
106.09847 -34.129745 -138.85034 8090987
106.4044 -34.068352 -138.22041 7564643
110.30823 -33.564636 -134.75656 8815484
110.68639 -33.484425 -133.90741 9538950
96.63913 -32.782085 -150.25775 8616307
97.360992 -32.878075 -149.92998 7563618
98.083633 -32.974827 -149.60159 6510930
111.15279 -33.384628 -132.84738 8485751
111.52155 -33.305099 -132.0004 8419702
114.88613 -32.885597 -129.25209 8419182
115.22912 -32.807571 -128.39659 8090986
115.56782 -32.729897 -127.5423 10525071
115.81922 -32.67189 -126.90224 11381404
96.526978 -31.994375 -150.61198 7695461
97.532211 -32.027748 -150.19492 8089962
119.13548 -32.236023 -123.82853 10721679
119.52154 -32.141262 -122.75312 11381404
119.75018 -32.084778 -122.10892 11381404
122.65949 -31.726229 -119.80129 8682867
122.87205 -31.670448 -119.15143 9011320
123.22137 -31.578119 -118.07013 9866117
95.323456 -30.490055 -151.91797 5392706
96.013763 -30.801138 -151.40311 5392706
96.800659 -31.081591 -150.90782 7431775
97.459259 -31.382374 -150.47757 9734788
126.11872 -31.202042 -115.46208 7893099
126.43816 -31.111467 -114.37378 8287598
126.68979 -31.039454 -113.50474 8814198
129.31912 -30.718534 -111.47031 9011832
129.60808 -30.629847 -110.3763 9932419
94.094467 -29.658796 -153.19824 11709087
94.683975 -29.802473 -152.78802 8683898
95.575424 -29.88925 -152.31975 6840152
96.290222 -30.111141 -151.83983 7365981
132.35042 -30.256096 -107.61711 9471616
132.60989 -30.169348 -106.51801 10129289
135.13605 -29.848066 -104.35165 10854036
135.32329 -29.779892 -103.46751 9012606
137.76454 -29.474882 -101.46468 7037274
137.89111 -29.424561 -100.79746 12434352
89.04438 -28.771002 -159.58951 9011321
89.656197 -29.034103 -159.16032 8814198
90.467896 -29.063828 -158.70146 8748405
91.052887 -29.20138 -158.25725 9735812
92.624939 -29.323965 -154.93073 11709351
93.412682 -29.337776 -154.56403 9604228
94.397568 -29.355764 -154.10368 9867657
138.01587 -29.374441 -100.13133 13882053
138.09782 -29.341063 -99.687904 13882053
140.35194 -29.08021 -98.275856 8089963
140.40738 -28.995447 -97.318748 7695720
142.38704 -28.635283 -95.196915 8353135
88.204506 -27.890265 -160.33275 8287854
88.96122 -28.116032 -159.8909 8616819
89.955215 -28.126883 -159.42519 9340286
144.36975 -28.323378 -93.54644 9538947
144.40994 -28.266045 -92.839478 9538947
144.44875 -28.208916 -92.134224 8288627
146.40295 -27.896803 -90.445724 9406590
146.43907 -27.822071 -89.503487 9736585
148.36668 -27.52763 -88.015358 9735555
148.38243 -27.472473 -87.307014 9736836
87.636658 -26.574484 -161.12418 8814710
88.378952 -26.893391 -160.65163 8485489
89.194397 -27.171963 -160.16142 8156268
89.872856 -27.470758 -159.72668 8287854
150.29895 -27.176661 -85.786385 9537920
150.30391 -27.122355 -85.076202 9537920
152.20943 -26.825121 -83.523178 10787729
152.20341 -26.771727 -82.811172 10787729
154.09805 -26.473076 -81.225769 11380380
154.08113 -26.420586 -80.512177 11380380
86.990318 -25.693848 -161.77748 8814710
87.678177 -25.874371 -161.38574 8419952
88.620499 -25.970034 -160.91002 8683124
89.307922 -26.151773 -160.51805 8287854
155.99031 -26.124704 -78.907196 8617075
155.9373 -26.068933 -78.179527 7037274
158.2045 -25.815907 -76.484978 10459537
158.12854 -25.759399 -75.750298 7565675
160.3311 -25.46694 -73.520782 9209459
160.23943 -25.411047 -72.7845 9209459
86.982529 -24.962862 -162.07434 7038298
87.902206 -25.042889 -161.61537 7696229
88.663177 -25.268635 -161.17162 8814710
162.48128 -25.152958 -70.997002 11905692
162.41463 -25.116663 -70.506012 10656142
164.63786 -24.829124 -68.207588 7762282
166.8047 -24.520758 -65.612984 8617334
166.67848 -24.468193 -64.874054 8684155
86.332924 -24.080097 -162.72998 8681843
87.279236 -24.012844 -162.31778 8156267
87.908295 -24.237263 -161.93575 7893608
169.03984 -24.244446 -63.463223 11512225
168.89919 -24.19224 -62.720459 9537922
171.01619 -23.889238 -60.255821 5920074
173.08534 -23.579025 -57.733208 9536121
85.755219 -22.755964 -163.52943 10458254
86.537216 -22.990961 -163.07214 9273980
87.204628 -23.278486 -162.64703 8681843
175.21042 -23.284103 -55.416878 8288109
175.05936 -23.24687 -54.909168 10064009
177.24561 -22.967266 -52.799931 8682098
179.34761 -22.665247 -50.389633 7497825
181.34969 -22.341518 -47.676697 15196118
85.222107 -21.944221 -164.10251 10261132
85.824455 -21.946966 -163.82187 10392461
86.74073 -21.995852 -163.37698 8879222
183.62227 -22.068266 -45.684975 9867398
183.42937 -22.032364 -45.171471 9867398
185.62907 -21.752277 -43.35054 10654857
185.39407 -21.713106 -42.828583 9208435
187.57405 -21.425898 -40.960632 9734531
187.27702 -21.375902 -40.192474 9142651
84.602112 -20.835934 -164.83493 10261132
85.168716 -21.059467 -164.48225 8419702
86.086365 -21.107687 -164.03699 9603203
189.46777 -21.075264 -37.810349 9867398
191.85507 -20.795208 -35.651382 8090987
191.64561 -20.76372 -35.138374 9735555
193.8232 -20.447977 -32.41378 9867657
83.943237 -19.947218 -165.49799 10261132
84.510818 -20.170649 -165.14445 9997961
85.475494 -20.026018 -164.75478 8682873
85.883408 -20.397635 -164.41608 9340289
196.23164 -20.158657 -30.149881 9143422
196.00056 -20.127886 -29.634501 9209467
83.354744 -18.612074 -166.30885 9208443
83.942451 -18.969339 -165.89203 9603713
84.694626 -19.060257 -165.5061 10064266
85.263046 -19.284599 -165.15182 9340289
83.261421 -17.943142 -166.62146 9208443
84.07016 -17.944695 -166.24527 9076601
84.799316 -18.020786 -165.87601 10064521
82.675941 -16.974293 -167.2834 8089963
83.406471 -17.049809 -166.91376 9603713
84.136894 -17.125643 -166.54405 9340285
81.991898 -15.933545 -168.09021 9143419
82.622452 -16.199961 -167.6478 8484977
83.481171 -16.230444 -167.23192 9735555
80.683678 -14.639247 -170.0331 8945015
81.439949 -14.892061 -169.31859 8945015
82.07312 -15.323238 -168.56453 9341054
82.950272 -15.498537 -168.01028 9406847
69.217041 -13.813595 -183.61797 8682867
70.071884 -13.808038 -183.22342 9208955
70.534882 -14.132042 -182.46675 11116696
71.565292 -14.240015 -181.88837 9735299
78.725098 -14.264351 -172.24838 8485233
79.753189 -14.26287 -171.77238 9011321
68.695663 -12.871569 -184.23921 10063238
69.307907 -13.10414 -183.86133 7827821
70.163887 -13.098859 -183.46617 9340541
67.957214 -11.927775 -184.96187 8813944
68.57132 -12.161194 -184.58284 10063238
69.429382 -12.155933 -184.18668 8419958
70.041824 -12.389503 -183.80838 9209467
67.913086 -11.135159 -185.30139 8879736
68.826752 -11.161452 -184.86671 7564907
69.305939 -11.444206 -184.53043 7565675
67.281403 -9.8657799 -186.10553 8814453
68.179062 -10.156672 -185.57179 9800837
68.997467 -10.493259 -185.0564 9340801
66.709061 -8.7824173 -186.80728 11050903
67.698029 -8.8251839 -186.33099 9801348
68.501892 -9.3005915 -185.76651 11708319
66.165741 -7.7907276 -187.45865 10460046
66.950989 -7.8671322 -187.06342 9802372
67.600906 -7.8639908 -186.76297 9208443
65.413002 -6.828393 -188.19539 10328206
66.200531 -6.905386 -187.79887 10131081
66.987 -6.9823298 -187.4028 9933190
64.821442 -5.699544 -188.92432 8814715
65.446579 -5.9396954 -188.53751 10130573
66.31765 -5.936017 -188.13461 9999239
64.061852 -4.7286873 -189.66718 7564651
64.689133 -4.969985 -189.27895 9735815
65.687576 -5.014914 -188.79736 8288628
64.161278 -3.8730745 -189.96489 8090991
65.104385 -4.0411701 -189.45944 10525330
65.868065 -4.234129 -189.02728 9341571
63.602669 -3.0167899 -190.56833 11117720
64.480408 -3.0143533 -190.1618 8682869
65.109222 -3.257973 -189.77191 9341571
64.786095 -2.2764547 -190.31644 8814710
99.860779 -34.858612 -147.89507 7892584
100.75627 -34.716469 -147.54147 7168860
101.45088 -34.858192 -146.81743 8023911
102.10612 -34.841763 -146.26431 10984593
102.78352 -34.77523 -145.37555 8681840
103.34206 -34.671265 -144.32739 10262156
103.77856 -34.58691 -143.48273 10130315
104.21059 -34.502861 -142.63876 7564651
99.208702 -33.92836 -148.76666 8945272
100.0849 -34.097946 -148.32391 6840923
108.55203 -33.930717 -138.58963 10592412
109.04861 -33.828278 -137.52306 9275779
109.53872 -33.72636 -136.4577 10262156
109.92569 -33.645344 -135.60664 8617848
98.649231 -32.852333 -149.42233 6839895
99.373795 -32.950188 -149.09277 9142907
100.09924 -33.048798 -148.7625 6512986
113.6524 -33.161827 -132.25542 7564386
114.01025 -33.082432 -131.3959 7563619
114.45137 -32.983715 -130.32318 9207928
118.0206 -32.504456 -126.85036 14539212
98.179527 -31.835417 -150.01028 6510930
98.611649 -32.107704 -149.72971 7102810
99.549057 -32.098026 -149.35683 8814197
118.42475 -32.408035 -125.76925 10393227
118.74332 -32.331364 -124.90585 13023663
121.86009 -31.932365 -122.19135 11182489
122.15434 -31.857061 -121.32095 11380897
122.4444 -31.782112 -120.45203 8682867
125.25927 -31.440393 -118.30358 8682867
97.326553 -30.547628 -151.06448 7365981
98.049576 -30.929878 -150.49979 7760997
98.920662 -31.092981 -150.04425 6379601
99.47821 -31.450848 -149.63928 10983825
125.52779 -31.366625 -117.42754 8551283
125.85864 -31.274967 -116.33462 9209467
128.72377 -30.897564 -113.66619 9537920
129.02466 -30.807709 -112.56684 9143675
131.70479 -30.466721 -110.26608 12103329
131.8148 -30.431318 -109.82346 12103329
96.669235 -29.850368 -151.90129 8681327
97.579727 -29.944319 -151.45773 7958118
98.299698 -30.169607 -150.98302 8418669
131.92386 -30.396118 -109.38124 8813686
132.08563 -30.343422 -108.71883 7563619
134.65211 -30.02017 -106.57053 10853012
134.84837 -29.951035 -105.68152 8748920
134.99347 -29.899448 -105.016 8092019
137.505 -29.576365 -102.80267 7826790
137.67905 -29.508564 -101.91009 7037274
91.030846 -28.79472 -158.65799 7893864
91.723129 -29.002956 -158.10663 8618355
92.498383 -29.008036 -157.69922 9933704
93.31427 -29.198198 -156.93146 15066081
95.382935 -29.374414 -153.64052 8353909
96.368172 -29.393797 -153.17517 10721167
140.14778 -29.185167 -99.638359 9011579
140.30206 -29.118578 -98.741348 13024949
142.23155 -28.812197 -97.32164 9932163
142.29961 -28.732622 -96.373001 7761771
144.28389 -28.438955 -94.966209 6511954
144.31319 -28.400293 -94.491974 6511954
90.950012 -28.138815 -158.95863 8552050
91.945618 -28.151594 -158.49144 8355183
92.50325 -28.377913 -158.14178 8618355
144.3418 -28.361734 -94.018822 6511954
146.34373 -28.009956 -91.865013 7630438
148.32375 -27.657425 -89.675659 8946296
148.34949 -27.582996 -88.725372 9735555
89.629524 -26.593094 -160.19167 7564643
90.408913 -26.984404 -159.67299 8419956
91.34655 -27.049982 -159.2115 9078651
91.865662 -27.494467 -158.79218 8618355
150.28175 -27.304384 -87.451294 12630188
150.29279 -27.231167 -86.498405 14077632
152.21715 -26.932673 -84.952919 7629926
152.2141 -26.878721 -84.236938 7564651
154.1277 -26.57881 -82.658905 9209467
154.11366 -26.525764 -81.941139 10656657
89.765396 -25.827351 -160.43588 7893615
90.617126 -25.98966 -159.9754 8683127
91.304924 -26.17288 -159.58273 9012091
156.1073 -26.239496 -80.376984 6510930
156.04973 -26.181974 -79.64077 7563874
158.35132 -25.929733 -77.961433 7564651
158.27863 -25.872667 -77.222176 9735558
160.51012 -25.579441 -75.000244 9209459
160.42157 -25.523037 -74.259178 9209459
88.980896 -24.9786 -161.14049 8090989
89.901443 -25.060253 -160.68048 8156785
90.662613 -25.287539 -160.23598 8288371
162.69026 -25.264435 -72.481857 8681835
162.58644 -25.208593 -71.738304 11905692
164.8201 -24.91814 -69.439644 14603206
167.05299 -24.626654 -67.097969 6972768
166.92972 -24.573631 -66.354149 5393738
88.411926 -23.83749 -161.86237 7893612
89.254082 -23.899336 -161.44672 7959406
90.03775 -24.291689 -160.92561 8025200
169.17894 -24.296957 -64.208664 10525331
171.37209 -23.999363 -61.766201 8681835
171.21075 -23.946314 -61.015125 7563619
173.57448 -23.711578 -59.514339 13548205
173.36548 -23.654562 -58.74918 12431013
175.5862 -23.377943 -56.692379 8617073
87.760834 -22.767561 -162.59392 8485490
88.612183 -22.802872 -162.18457 8090992
89.341156 -22.926155 -161.79672 8090992
175.36104 -23.321535 -55.926041 7366751
177.64806 -23.060003 -54.077484 9340289
179.77625 -22.757196 -51.671112 12433069
179.60507 -22.720375 -51.157349 12433069
181.71413 -22.41419 -48.702629 12828082
87.268143 -21.733547 -163.23738 9735812
87.83326 -21.958008 -162.88507 9012091
88.750374 -22.008327 -162.43924 7959407
183.9113 -22.122375 -46.458107 14275793
185.86418 -21.791655 -43.874245 8682867
187.91408 -21.481216 -41.741722 10260875
86.614113 -20.844324 -163.89769 8681843
87.180344 -21.068832 -163.54485 8419957
88.09874 -21.118399 -163.09872 7827822
189.98439 -21.157492 -39.096024 9735812
189.77614 -21.1243 -38.580254 9735812
192.16866 -20.842791 -36.423882 9011576
194.3734 -20.526129 -33.701927 9867657
194.15349 -20.494747 -33.185516 8092019
86.032761 -19.509869 -164.70369 7565675
86.562836 -19.956383 -164.27798 8683385
87.36953 -19.960201 -163.90198 8288371
88.058258 -20.260202 -163.46181 7564651
196.57803 -20.205114 -30.925989 10261132
85.374374 -18.617153 -165.36884 9340289
85.94313 -18.841806 -165.01424 8486263
86.751221 -18.844961 -164.63773 7894639
87.319496 -19.070267 -164.2831 9012606
85.363373 -17.873541 -165.67334 9275007
86.092865 -17.950291 -165.30367 7894639
86.822357 -18.027359 -164.93391 8486519
84.658676 -16.828444 -166.42145 9208443
85.303337 -17.098488 -166.01329 8879222
86.162888 -17.130781 -165.60112 8419956
84.021301 -15.935512 -167.14503 9998984
84.651054 -16.202789 -166.70366 9801605
85.594688 -16.160408 -166.28864 9340798
86.152863 -16.38397 -165.90648 9340798
82.724304 -14.638699 -169.07983 9537920
83.477798 -14.892578 -168.36816 9538178
84.107719 -15.324841 -167.6174 9341057
84.983551 -15.501148 -167.06268 9735812
71.352982 -13.800281 -182.63187 9735299
72.206467 -13.795476 -182.2377 9209467
72.70076 -14.127017 -181.57794 9998471
73.520218 -14.237597 -181.10696 7958888
80.78096 -14.261821 -171.29503 9010808
81.808212 -14.261155 -170.8167 8681843
70.836426 -12.858399 -183.25085 10261387
71.312233 -13.139439 -182.91684 9801092
72.301186 -13.086767 -182.47899 9472383
70.10318 -11.914799 -183.97093 9340801
70.715286 -12.148468 -183.5928 9998215
71.571838 -12.143886 -183.19707 10129801
72.182266 -12.377733 -182.81963 9209467
69.980728 -11.202497 -184.31454 8880507
70.839302 -11.19791 -183.91785 9801094
71.48291 -11.194627 -183.62045 9998215
69.324875 -10.173185 -185.03333 9340801
70.103683 -10.24874 -184.64137 9340801
70.881699 -10.324345 -184.24983 8683385
68.644325 -8.7403975 -185.92589 12498091
69.564819 -8.995676 -185.3959 9471873
70.288605 -9.3715658 -184.90865 8420470
68.034004 -7.8619299 -186.56284 11708319
68.899536 -7.8579769 -186.16269 13353143
69.733665 -8.0948915 -185.68008 9208443
67.53315 -6.6577258 -187.28 10261899
68.234863 -6.9446392 -186.83884 10458765
69.155449 -6.9730225 -186.40007 12498091
67.000023 -5.6907234 -187.91643 13551549
67.486359 -5.979847 -187.57443 10590864
68.491798 -5.9274278 -187.12868 10985366
66.246231 -4.7206593 -188.65616 7565675
66.870979 -4.9619355 -188.2692 9867141
67.74231 -4.9589071 -187.86591 9472383
68.365158 -5.1999359 -187.47986 13551549
66.198448 -3.9073215 -189.00528 8749435
67.126434 -3.937048 -188.56247 11117466
67.614288 -4.2285681 -188.21889 11906724
65.440002 -2.9299321 -189.75021 10525587
66.370522 -2.9602485 -189.306 10065037
67.078697 -3.2525227 -188.85976 9341571
65.663727 -2.2744181 -189.90973 10985623
66.570374 -2.0263844 -189.5885 11183260
101.98409 -34.523537 -147.21078 10326664
102.84142 -34.515507 -146.56837 9997699
103.48244 -34.495064 -145.99126 6510930
103.94196 -34.473396 -145.52975 5919050
100.65452 -33.642601 -148.30624 9209726
101.21637 -33.879642 -147.98743 7301731
102.20979 -33.914753 -147.53746 9339770
103.01347 -34.116573 -146.81372 9997699
103.49508 -34.101261 -146.37999 9736073
104.38278 -34.446411 -145.04388 7169373
104.96873 -34.410805 -144.3961 7366496
105.55267 -34.375858 -143.7484 7563619
106.13456 -34.341404 -143.10077 7563619
106.79995 -34.280468 -142.21327 11445917
107.33107 -34.179134 -141.15538 7827814
107.74254 -34.09594 -140.29924 9735555
108.14954 -34.013107 -139.44402 7565675
112.08321 -33.503597 -135.92076 10459275
112.27189 -33.463043 -135.48846 10459275
100.66777 -32.927273 -148.5817 8288882
101.59798 -33.035011 -148.16557 10919572
102.36414 -33.280811 -147.76117 9010805
112.45959 -33.422585 -135.05655 8682867
112.8312 -33.341904 -134.19345 8419695
113.29025 -33.241585 -133.11606 8682867
116.68382 -32.817165 -130.32326 5920074
116.93967 -32.758053 -129.67059 5920074
117.27702 -32.679558 -128.80135 9341310
117.61023 -32.601471 -127.9334 14210248
100.19983 -31.906452 -149.17046 9209726
100.80771 -31.928743 -148.91742 10525328
101.49535 -32.06213 -148.5887 13222068
120.87584 -32.179871 -125.03002 5920074
121.18305 -32.103306 -124.15511 10196107
121.56187 -32.008076 -123.06319 10195338
124.56896 -31.62664 -120.50081 8880246
124.91728 -31.533146 -119.40092 9208955
125.12316 -31.477415 -118.7422 9208955
99.537613 -30.615685 -150.11876 9668479
100.08071 -30.976921 -149.63788 11510425
100.97356 -30.93623 -149.29202 8288882
127.91386 -31.133965 -116.53664 9142907
128.16757 -31.060833 -115.65151 9142907
128.4173 -30.988007 -114.76803 9142907
131.14046 -30.644945 -112.48623 8419702
131.31215 -30.591183 -111.81908 10656398
131.53787 -30.519926 -110.93105 10656398
98.831009 -29.879292 -151.00746 9011063
99.658798 -30.047695 -150.5361 7892326
100.31609 -30.232161 -150.12015 8418669
134.14502 -30.194803 -108.80138 7563619
134.35065 -30.124655 -107.90759 6511954
134.50258 -30.072313 -107.23843 6511954
136.96233 -29.781668 -105.49187 8616819
137.10103 -29.729982 -104.81786 7564386
137.28294 -29.661503 -103.92094 6774614
93.21965 -28.825422 -157.62978 14210515
93.817429 -28.834593 -157.3486 12498867
94.433006 -29.022131 -156.67154 10195340
94.997772 -29.195799 -155.91615 9866375
95.928116 -29.194469 -155.34402 10064011
96.95948 -29.405725 -152.89478 11378324
97.551147 -29.418005 -152.61319 11576989
98.537155 -29.438997 -152.14194 14801361
139.74734 -29.353077 -101.88954 11906725
139.95055 -29.268785 -100.76219 11906725
142.15762 -28.939493 -98.774323 8879479
142.19466 -28.875494 -98.046188 8485235
144.17496 -28.575476 -96.632401 7827048
144.23828 -28.497297 -95.679092 8682608
92.464172 -27.502287 -158.51128 8618355
93.096405 -27.948774 -158.03868 10131081
93.924026 -28.048513 -157.61456 11379870
94.49749 -28.40782 -157.20428 10853012
146.24257 -28.181768 -94.008453 8288627
146.28941 -28.105059 -93.053581 7630699
148.26433 -27.807692 -91.585884 9340027
148.28792 -27.751114 -90.867867 8945783
150.25188 -27.452332 -89.366966 9735555
150.26044 -27.415085 -88.886528 9735812
92.384628 -26.843935 -158.81235 9604737
93.384041 -26.857208 -158.34315 8616820
93.94339 -27.084522 -157.9924 10261385
150.26833 -27.378035 -88.407227 9735812
152.21747 -27.096254 -87.112892 10854036
152.21881 -27.041443 -86.390945 9538435
152.21881 -26.986929 -85.670746 8288371
154.14766 -26.667927 -83.859703 9866882
156.23528 -26.374765 -82.103035 12958639
91.764389 -25.848852 -159.49945 9604483
92.616943 -26.012859 -159.03793 10919827
93.305244 -26.197481 -158.64441 8090733
156.19972 -26.335945 -81.608582 9932934
156.16335 -26.297224 -81.115036 7563874
158.49162 -26.04467 -79.447151 7564651
158.42221 -25.987099 -78.70327 7564651
160.65431 -25.674082 -76.240578 9933192
162.89336 -25.377028 -73.976585 7038307
90.981934 -24.99773 -160.20403 8485749
91.903641 -25.081038 -159.74286 9800322
92.705399 -25.090265 -159.36705 11313815
162.79256 -25.32058 -73.228157 8681835
165.03305 -25.025921 -70.927101 8682867
164.92747 -24.97188 -70.182091 10656142
167.25569 -24.715769 -68.342773 9011838
167.17514 -24.679981 -67.843956 10459281
169.40778 -24.384983 -65.456703 8025200
90.415802 -23.670822 -160.99922 8025200
91.299927 -23.973186 -160.46751 9077114
92.183517 -24.276543 -159.93571 10326150
171.62611 -24.086588 -63.019123 10129539
171.52493 -24.051615 -62.517071 8681835
173.77127 -23.767408 -60.279243 12496032
175.8849 -23.453527 -57.718838 8024427
89.889725 -22.856936 -161.56992 8090992
90.621117 -22.819004 -161.24568 8486262
91.478188 -22.981609 -160.78259 9405819
178.04805 -23.153685 -55.363838 10261132
177.88826 -23.116051 -54.848186 10261132
180.03232 -22.81283 -52.444611 7300958
182.07744 -22.487419 -49.734444 9276028
89.279449 -21.746538 -162.29868 8090992
89.844391 -21.972046 -161.94595 8748918
90.762589 -22.023813 -161.49907 9276030
184.39174 -22.213287 -47.753643 12828347
184.19975 -22.176785 -47.234291 12828347
186.21669 -21.85107 -44.663155 9931904
188.28239 -21.539919 -42.532356 9735296
88.62812 -20.855608 -162.95836 7564651
89.194153 -21.081068 -162.60529 7564651
90.202042 -21.088282 -162.13457 8288627
190.29608 -21.207582 -39.872604 10525328
192.69023 -20.92267 -37.717781 11511199
192.48183 -20.890676 -37.199036 11511199
194.70284 -20.573404 -34.479523 11972516
88.051147 -19.519051 -163.76263 7564651
88.635895 -19.878141 -163.34697 8551542
89.387794 -19.971636 -162.96048 7762029
90.076324 -20.272884 -162.52005 9012603
196.92406 -20.251778 -31.704912 9143422
87.850342 -18.805294 -164.14328 8551799
88.77301 -18.854538 -163.69501 8814459
89.379944 -18.857925 -163.41182 8024944
87.387489 -17.88065 -164.7305 9933451
88.117447 -17.95829 -164.36024 9078142
88.847359 -18.036301 -163.9899 9011838
86.686272 -16.833912 -165.47755 9012606
87.330444 -17.10494 -165.06931 10328207
88.271255 -17.063898 -164.64894 10065289
86.254463 -15.939962 -166.10295 9340798
86.894531 -16.03227 -165.78003 9143934
87.62532 -16.16637 -165.34143 9670532
88.18364 -16.390835 -164.96062 10065289
84.763367 -14.639812 -168.12154 10525331
85.515678 -14.895028 -167.41446 9472384
86.143005 -15.328499 -166.6683 9604226
86.891296 -15.286591 -166.35561 9209470
73.272461 -13.789898 -181.74509 10853012
74.082001 -13.898636 -181.24596 8287853
74.858109 -14.122481 -180.66974 7235421
75.682144 -14.234897 -180.21381 7959144
82.834946 -14.260921 -170.33698 10787220
83.861366 -14.261037 -169.85616 9143677
73.289734 -13.034554 -182.04115 9932166
74.205879 -13.195633 -181.55107 7564386
72.733597 -12.090644 -182.6792 9406337
73.710915 -12.133517 -182.20834 7958888
74.319595 -12.367768 -181.83154 6511954
72.12619 -11.191495 -183.32312 9406081
72.983437 -11.187535 -182.92682 9537667
73.593781 -11.422457 -182.54892 9340289
71.475609 -10.16247 -184.03931 9209214
72.252853 -10.238458 -183.64798 8879995
73.029297 -10.314566 -183.2569 9011581
70.812218 -8.929883 -184.84338 8617336
71.550598 -9.0464678 -184.4537 8748152
72.355881 -9.1389074 -184.04272 7564651
70.062851 -7.7726836 -185.65701 9208443
70.84465 -7.849618 -185.26315 9340287
71.625702 -7.9266691 -184.86963 8485237
69.485168 -6.6497488 -186.37723 9208443
70.240234 -6.8399787 -185.95012 8879478
71.170334 -7.0054078 -185.4518 9340030
69.496521 -5.87532 -186.68317 8945271
70.429153 -6.041575 -186.18338 9011064
68.923508 -4.9062805 -187.33865 11511196
69.917564 -4.9517159 -186.85892 9011064
70.538094 -5.1928225 -186.47391 8681843
68.298523 -3.9824219 -188.00009 11577246
69.170273 -3.9798934 -187.59637 10326409
69.792694 -4.2220473 -187.21008 10786703
67.628578 -2.9243309 -188.73631 8091245
68.419701 -3.0040765 -188.33698 9536894
69.209946 -3.0837562 -187.93808 8089706
67.008743 -2.0254667 -189.38539 8420727
67.665833 -2.0240905 -189.08083 6775384
68.458206 -2.1044588 -188.68066 10392459
68.194603 -1.2846035 -189.13251 8879990
103.13534 -33.700237 -146.98773 9736073
103.91761 -33.782581 -146.2346 7761768
104.5806 -33.907238 -145.5388 6906201
105.33705 -33.847004 -144.9024 8419696
106.14163 -33.826962 -144.18799 8879735
106.93979 -33.806313 -143.46684 12563884
107.48691 -33.989723 -142.76997 10985366
108.25457 -33.962513 -142.01413 9077369
108.97621 -33.922596 -141.20126 10195850
109.55042 -33.890995 -140.5499 7565675
110.12262 -33.86005 -139.8985 12171445
110.7306 -33.790489 -138.95399 13158083
111.22001 -33.687489 -137.86919 9143678
111.60636 -33.605556 -137.00256 7565675
111.89337 -33.544262 -136.35324 10459275
102.67068 -32.999123 -147.70016 9736073
103.26956 -33.059139 -147.17993 10789016
104.08684 -33.038845 -146.4736 9341313
104.90302 -33.01955 -145.76768 6840408
105.55518 -33.005016 -145.20326 8090731
106.32329 -33.201248 -144.43533 9208956
115.45793 -33.095936 -133.37871 8288362
115.72494 -33.035854 -132.72276 9998467
116.07736 -32.95594 -131.84912 8088931
116.42555 -32.876545 -130.97675 9010547
119.76674 -32.45105 -128.10385 9340286
102.0844 -31.890518 -148.4193 14603206
102.81894 -31.999557 -148.04068 8551544
103.65759 -31.984751 -147.35915 7564651
104.4311 -32.179363 -146.58731 7564651
105.03943 -32.378429 -145.95801 7169373
120.08853 -32.3731 -127.22397 7037274
120.48552 -32.276165 -126.12593 7170141
120.72064 -32.218307 -125.46809 7170141
123.70818 -31.853287 -123.15021 9735812
123.92672 -31.796286 -122.48651 9801605
124.21482 -31.720623 -121.60298 9472383
101.56866 -30.819775 -149.1441 10327439
102.28535 -30.913851 -148.78871 10787732
103.16917 -31.139652 -148.16756 8024944
127.26242 -31.318716 -118.75704 8879989
127.52601 -31.24457 -117.86765 9142907
127.72115 -31.189138 -117.20159 9142907
130.49182 -30.843859 -114.94153 7827303
130.73102 -30.771185 -114.04718 7564643
130.96635 -30.698858 -113.15457 8419702
100.7075 -29.487663 -151.09637 5919562
100.85184 -29.942041 -150.14267 7761508
101.57377 -30.170523 -149.66452 6709596
102.34003 -30.2987 -149.2509 9537924
133.61453 -30.37192 -111.04426 12826795
133.82957 -30.300758 -110.14565 10063753
133.98848 -30.247704 -109.47296 8813686
136.48466 -29.955652 -107.74693 6840151
136.63026 -29.903204 -107.06906 8222060
136.82132 -29.833612 -106.1671 8616819
139.36798 -29.506241 -103.9268 9932681
139.53889 -29.437862 -103.02 8485494
95.213692 -28.857426 -156.69147 8616307
95.812668 -28.867792 -156.40929 9734531
96.611969 -28.882204 -156.03249 8156531
96.855194 -29.19313 -154.76662 7564651
97.778557 -29.191793 -154.18329 9931908
98.698639 -29.190453 -153.59479 15327705
99.523285 -29.46067 -151.66837 12564142
100.11557 -29.473993 -151.38287 5919050
142.00426 -29.126921 -100.94856 10459537
142.09215 -29.046934 -99.992805 10261131
144.09142 -28.673943 -97.829117 7760746
94.461609 -27.53089 -157.57274 8616307
95.09346 -27.979235 -157.09958 7695205
95.979202 -27.993902 -156.68259 7892584
96.537766 -28.223093 -156.33141 8288116
146.16666 -28.297903 -95.44735 13023917
146.20557 -28.23966 -94.726768 10855060
148.2025 -27.941038 -93.269295 10129799
148.23885 -27.864676 -92.306038 10590091
150.22189 -27.56468 -90.813393 9735555
150.23759 -27.508305 -90.089272 9735555
94.472679 -26.828852 -157.84929 9668994
95.385864 -26.886555 -157.40228 8089963
95.945465 -27.115217 -157.05074 7563619
152.2099 -27.206789 -88.563263 13023917
152.21436 -27.151419 -87.837196 11379865
154.17578 -26.848383 -86.277985 10854036
154.16643 -26.775839 -85.308037 10064518
156.30388 -26.452785 -83.095177 10261641
93.766823 -25.873898 -158.56003 8616820
94.620483 -26.039633 -158.09732 10129799
95.350883 -26.006197 -157.77168 9800582
158.55922 -26.102596 -80.193733 14406086
160.79448 -25.769421 -77.487251 7959401
163.09036 -25.490732 -75.481216 7038307
162.9926 -25.433729 -74.727776 7038307
93.106567 -25.095091 -159.17896 10261385
93.909302 -25.105282 -158.80226 7695976
94.83284 -25.191069 -158.33922 9932422
165.24001 -25.134762 -72.424171 7893615
165.13742 -25.08016 -71.674324 10853012
167.49339 -24.823639 -69.845779 7564651
167.3752 -24.76955 -69.093185 9735559
169.63303 -24.473755 -66.711433 9670022
92.424202 -23.690777 -160.05908 10851980
93.268669 -23.939312 -159.5674 9734528
94.080627 -24.180878 -159.09361 7235684
171.92598 -24.19231 -64.532341 8681835
171.77661 -24.139349 -63.774632 8681835
173.99507 -23.83729 -61.290604 7563619
176.25606 -23.54888 -59.00943 10062979
176.10791 -23.510639 -58.492073 8813171
91.940216 -22.654356 -160.69952 9405819
92.633179 -22.838228 -160.30411 9077111
93.491142 -23.002344 -159.84001 9143161
178.28685 -23.210337 -56.140236 9603714
180.3726 -22.887486 -53.480679 9012345
182.71013 -22.616936 -51.553928 9538689
182.43951 -22.561201 -50.772022 7696485
91.293488 -21.762423 -161.35754 9736836
91.858429 -21.989103 -161.00432 8748661
92.777954 -22.042273 -160.55624 9668734
184.67911 -22.268255 -48.535732 8287342
186.6866 -21.930832 -45.720894 8484461
188.65077 -21.599178 -43.327324 9735296
91.210617 -21.096197 -161.66331 9144445
92.147339 -21.059753 -161.24316 8551284
92.785782 -21.332195 -160.83746 9274747
190.81477 -21.291672 -41.173744 9866628
190.60744 -21.257874 -40.652153 9866628
193.00246 -20.971016 -38.498756 12432044
195.25108 -20.652769 -35.782227 9736836
195.03191 -20.620983 -35.259926 11906978
90.071976 -19.531025 -162.81975 7038307
90.656204 -19.891216 -162.40404 9276030
91.408844 -19.985842 -162.01672 9210238
92.097305 -20.288359 -161.5759 8025456
89.987198 -18.861534 -163.1283 7038307
90.797226 -18.866732 -162.75006 7301479
91.526871 -18.946224 -162.37921 8485490
89.413773 -17.890184 -163.78571 9011838
90.144295 -17.968784 -163.41479 7498857
90.874901 -18.047802 -163.04367 8353909
88.9189 -16.842617 -164.4373 8288621
89.359673 -17.113745 -164.12344 11248795
90.301758 -17.073765 -163.70201 7498857
88.035492 -15.50892 -165.63719 8288621
88.824539 -15.950757 -164.93755 9275773
89.657852 -16.174505 -164.39198 12170665
90.216682 -16.399899 -164.01288 13024949
86.801453 -14.64259 -167.15802 9735556
87.700256 -14.857096 -166.44586 8354676
88.395767 -15.072105 -165.83643 8288621
89.007874 -15.074159 -165.55028 8288621
75.402641 -13.780141 -180.76031 9406590
76.065231 -13.929894 -180.32065 8288112
76.825714 -14.004003 -179.91425 7959408
77.403885 -14.232725 -179.4807 12433069
84.682205 -14.261518 -169.47057 13024949
85.708069 -14.262383 -168.9874 10525331
86.528717 -14.263313 -168.60002 9537409
74.681343 -12.839224 -181.47377 7958888
75.288391 -13.072901 -181.09805 9405822
76.262131 -13.116352 -180.62854 8222579
74.647835 -12.050494 -181.80688 6972249
75.633743 -12.125586 -181.31903 7893096
76.454338 -12.359405 -180.84406 7564651
73.922318 -11.104251 -182.52455 8879735
74.910492 -11.179507 -182.03555 7695972
75.733223 -11.41399 -181.55934 7959144
73.358322 -9.9952908 -183.2327 9340289
74.184265 -10.230416 -182.75468 9603716
75.173897 -10.306124 -182.26483 7959144
72.956474 -8.7214823 -183.93198 7827822
73.601097 -9.1066055 -183.47778 8156530
74.438446 -9.1547775 -183.06973 9866885
72.22226 -7.7640896 -184.65817 8748152
73.002472 -7.8413496 -184.26489 7564651
73.781982 -7.9187112 -183.87195 9208443
71.650055 -6.6417465 -185.37527 9734788
72.266998 -6.8808579 -184.99275 9142909
73.13121 -6.8779387 -184.59271 8353393
70.909546 -5.676662 -186.1069 9405822
71.52832 -5.9167962 -185.72319 9274236
72.394539 -5.9139996 -185.32214 9274493
73.011688 -6.1540613 -184.93918 9537664
70.869209 -4.8678136 -186.45079 9405822
71.79129 -4.8975077 -186.01071 8616563
72.273605 -5.1875749 -185.6702 9537664
70.124207 -3.8959372 -187.18723 8813429
71.129227 -3.9745729 -186.68903 9472127
71.967041 -4.2161312 -186.20297 8617331
69.760292 -2.7560303 -187.81422 9997188
70.464615 -3.0481501 -187.36989 11444890
71.255386 -2.9974039 -187.02313 11906725
69.009514 -1.775666 -188.55682 9142393
69.715988 -2.0691819 -188.11087 9471101
70.643768 -2.1001282 -187.66772 12432045
69.070847 -1.2831683 -188.72626 9471359
69.946442 -1.2817341 -188.3203 9076859
107.6662 -33.591045 -143.00826 12433069
108.4616 -33.572155 -142.28552 7827046
109.25575 -33.554337 -141.56296 9537920
109.89005 -33.540852 -140.98491 9209727
110.6819 -33.525002 -140.26241 12631994
111.47266 -33.510151 -139.53984 15329503
112.09164 -33.495266 -138.94611 7565675
112.66242 -33.467171 -138.29437 7565675
106.08974 -32.781097 -144.843 9735812
106.57819 -32.771076 -144.41982 10459022
107.18251 -32.97176 -143.79324 10919573
107.9948 -32.95686 -143.08873 8550769
108.80612 -32.942974 -142.38446 7629667
109.45466 -32.932697 -141.82112 7958632
110.19022 -32.964371 -141.16127 9012346
111.02371 -33.122536 -140.34996 13882056
113.08719 -33.445751 -137.80287 7565675
113.5107 -33.424637 -137.31137 9012347
114.05589 -33.391792 -136.63454 12235684
114.5491 -33.298168 -135.57051 8682867
115.00697 -33.196781 -134.47363 7564642
115.27847 -33.136192 -133.8165 8288362
118.77481 -32.687443 -130.75235 7564643
119.02626 -32.628021 -130.08911 7564643
119.35796 -32.549114 -129.20596 7564643
119.6041 -32.490196 -128.54448 9340286
104.56689 -31.536795 -146.77878 7564651
105.17603 -31.736261 -146.14864 8748147
105.94717 -31.932796 -145.37794 8353134
106.76287 -31.916285 -144.67114 9800835
107.41467 -31.903849 -144.10594 9471871
108.18181 -32.103096 -143.33745 8813941
108.99452 -32.089516 -142.63185 7037274
109.59664 -32.292942 -142.0058 7037274
122.65662 -32.122345 -126.25891 9142907
122.88603 -32.064285 -125.59121 8616307
123.18861 -31.987207 -124.70229 10722449
123.48691 -31.910536 -123.81479 10722449
126.3782 -31.562691 -121.65913 9011832
126.58595 -31.505997 -120.9879 10853004
126.79163 -31.449503 -120.31744 10853004
103.32043 -30.728188 -148.38507 7169893
104.07571 -30.91683 -147.57932 7564651
104.73087 -30.901365 -147.0096 7169893
105.54858 -30.883034 -146.29784 9998215
106.36516 -30.865612 -145.58636 8550512
107.01756 -30.852448 -145.01735 7563619
107.76381 -31.04513 -144.21501 8484976
108.32224 -31.461843 -143.52428 9142906
126.99482 -31.393364 -119.6481 9735038
129.87663 -31.027348 -117.18544 10261643
130.18709 -30.935284 -116.06218 10261643
133.06021 -30.551521 -113.29913 8354163
133.34016 -30.461443 -112.17024 11577243
101.49716 -29.506226 -150.71307 5920074
102.39168 -29.61768 -150.09491 6709596
102.9345 -30.072395 -149.19737 7038307
103.76046 -30.118877 -148.63771 7367014
104.41724 -30.102757 -148.06396 8748665
105.14693 -30.286364 -147.22098 7761772
105.96457 -30.267931 -146.505 9274750
135.98372 -30.132063 -110.01453 9735812
136.13625 -30.078859 -109.333 8024940
136.33672 -30.008255 -108.4259 6840151
138.92473 -29.678915 -106.20315 8287856
139.10475 -29.609568 -105.29101 10064006
139.23753 -29.557779 -104.60831 9932681
97.211945 -28.893423 -155.74951 7958634
97.812469 -28.904985 -155.4662 7235170
98.70929 -28.776558 -155.10152 8418927
99.432114 -29.189377 -153.11981 16775151
100.34548 -29.188036 -152.52103 9275261
101.25998 -29.187992 -151.92404 5920074
141.76962 -29.228579 -102.3204 8486519
141.92703 -29.160704 -101.40517 10459537
143.96487 -28.860514 -100.02107 8617075
144.00984 -28.774622 -99.035416 9998215
146.04004 -28.474455 -97.620483 9208190
146.08394 -28.415304 -96.894173 10853262
96.66362 -27.566721 -156.53629 9011582
97.18074 -28.015085 -156.11644 8418927
97.982765 -28.029957 -155.73822 8418927
98.541901 -28.26058 -155.3862 7958634
146.1263 -28.356451 -96.169708 13023917
148.14241 -28.05662 -94.72094 9735299
148.17342 -27.998678 -93.993935 9735299
150.18532 -27.678314 -92.268333 9734784
150.21056 -27.602434 -91.297371 8617331
96.477043 -26.860144 -156.90639 9143168
97.392151 -26.919615 -156.45779 10391946
97.952301 -27.149704 -156.10547 10851980
152.19603 -27.318638 -90.022041 9735814
152.20363 -27.262562 -89.291702 9735814
154.18452 -26.958315 -87.740456 7038307
154.1808 -26.903246 -87.00827 10854036
156.40141 -26.570633 -84.590691 7958632
95.900208 -25.94108 -157.54289 9011582
96.628143 -26.069981 -157.15331 8419703
