# .PCD v0.7 - Point Cloud Data file format
VERSION 0.7
FIELDS x y z rgb
SIZE 4 4 4 4
TYPE F F F U
COUNT 1 1 1 1
WIDTH 1201
HEIGHT 1
VIEWPOINT 0 0 0 1 0 0 0
POINTS 1201
DATA ascii
-101.64771 -66.465454 76.512108 7564642
-102.21394 -66.596458 76.169853 7762021
-103.04475 -66.746407 75.68515 7367266
-103.76958 -66.843803 75.276146 8090992
-100.99496 -65.376785 77.29567 6511954
-101.63252 -65.684387 76.843834 7762021
-102.54301 -65.608681 76.412209 8353903
-103.13475 -65.981483 75.956696 7563874
-100.21039 -64.386688 78.105339 9406590
-101.00058 -64.558662 77.632141 7235421
-101.88569 -64.709999 77.11927 6972249
-102.61937 -64.918411 76.659691 7563618
-99.681625 -63.229424 78.85421 11380121
-100.18846 -63.640728 78.425888 9406590
-101.09121 -63.623344 77.97406 8617075
-101.86852 -63.766205 77.519485 9077114
-99.045982 -62.405689 79.519157 11380121
-99.60891 -62.52084 79.185165 9209726
-100.45625 -62.696285 78.681435 9275262
-101.15334 -62.726486 78.314507 8748406
-98.511459 -61.265312 80.264008 7893611
-99.019241 -61.667168 79.839119 8354675
-99.921356 -61.546356 79.430664 8354419
-100.64246 -61.808765 78.955261 9275007
-97.818939 -60.157948 81.276642 5393738
-98.430084 -60.519966 80.709167 7630439
-99.306564 -60.745026 80.117279 7105123
-99.991508 -60.761391 79.746674 7696491
-96.580345 -59.220352 82.954735 6971737
-97.187263 -59.419563 82.294197 6050895
-97.82592 -59.663094 81.715782 5788496
-98.573578 -59.866337 81.182709 5393738
-99.236351 -60.105236 80.652153 7893611
-85.527199 -58.444847 96.06987 8616306
-86.372154 -58.596596 95.509674 5985356
-86.889252 -58.801197 94.641487 4342073
-87.56987 -58.803051 94.010979 9341313
-88.358032 -58.805222 93.268982 9538434
-89.050507 -58.807503 92.317131 9669505
-89.513367 -58.809166 91.57563 8222316
-90.069084 -58.810871 90.910553 7432544
-90.529114 -58.812771 89.977913 5919050
-91.283203 -58.814915 89.211189 7168861
-92.031097 -58.817059 88.438423 7366239
-92.666862 -58.818893 87.77095 8484976
-93.297775 -58.820732 87.098877 8682868
-94.027519 -58.822861 86.308899 7169635
-94.690018 -58.850906 85.355392 7762027
-95.18837 -58.908329 84.668922 8222576
-96.008842 -58.97768 84.047478 10064262
-96.518425 -59.044937 83.589127 7761253
-84.92347 -57.518002 96.733673 10195850
-85.821678 -57.542717 96.320854 9406591
-86.378517 -57.920784 95.91964 6510930
-84.167503 -56.513538 97.475182 8419695
-85.091438 -56.61208 97.021271 8419182
-85.891068 -56.731876 96.614578 7761253
-83.551712 -55.436081 98.183113 7169884
-84.3554 -55.610519 97.752701 10524300
-85.090752 -55.790173 97.350853 9470843
-82.932434 -54.365005 98.889977 10393486
-83.671112 -54.560833 98.480141 8551538
-84.548111 -54.73856 98.015549 9142134
-82.402985 -53.42062 99.505814 8683124
-83.049103 -53.491959 99.187378 9669762
-83.86647 -53.625767 98.767067 10524815
-84.408478 -53.979889 98.382088 8089963
-81.562065 -52.338409 100.3166 11380380
-82.28875 -52.580246 99.8937 8945784
-83.241608 -52.558842 99.474815 8748404
-83.784721 -52.90942 99.090721 10854036
-81.667542 -51.656147 100.54256 9998215
-82.569107 -51.562149 100.17597 7761258
-83.157623 -51.845039 99.798523 9011320
-80.996033 -50.492638 101.31073 9143421
-81.902122 -50.64724 100.84269 8221807
-82.567192 -50.62571 100.55355 7038307
-80.285957 -49.471466 102.0399 7763054
-81.173157 -49.664467 101.56488 8617591
-81.967323 -49.741287 101.17829 9274495
-79.648376 -48.431519 102.74419 10196364
-80.504051 -48.587559 102.29816 8749434
-81.349976 -48.836281 101.81918 7564132
-79.12825 -47.297729 103.43364 10261641
-79.752029 -47.56863 103.04522 9275260
-80.634644 -47.718948 102.58943 9538179
-78.483727 -46.267033 104.13734 9867140
-79.10862 -46.534924 103.7496 9867140
-80.075081 -46.645466 103.27226 9932678
-77.808289 -45.255466 105.02347 9077624
-78.502197 -45.528957 104.50738 9011831
-79.311394 -45.626747 104.07714 10722192
-79.959801 -45.844612 103.65083 9603973
-76.688126 -44.174412 106.72127 8222323
-77.252502 -44.474407 105.99396 9932677
-78.037506 -44.609489 105.46262 9801347
-78.724083 -44.877525 104.93174 9538175
-66.216461 -43.332806 118.73782 8089706
-67.08036 -43.498386 118.52422 9339772
-67.548279 -43.742455 117.22849 11904668
-68.252068 -43.744068 116.81936 9405566
-69.093468 -43.745998 116.32298 10393230
-69.652573 -43.747295 115.98887 11380380
-70.034027 -43.749866 114.43028 8156787
-70.995255 -43.75211 113.83583 8814715
-71.678719 -43.753719 113.40625 8814715
-71.89138 -43.755901 111.94593 8682867
-72.697289 -43.75782 111.42309 9011321
-73.63308 -43.760052 110.80636 9011577
-74.298286 -43.761658 110.36092 10918805
-74.523499 -43.794231 108.989 9275004
-75.415077 -43.873131 108.32344 10195335
-75.97229 -43.972042 107.736 10130059
-76.553635 -44.057095 107.18582 7038307
-66.318825 -42.492493 119.02929 11773340
-67.121567 -42.771912 118.78457 10128774
-65.677551 -41.358727 119.56023 10588808
-66.423546 -41.636909 119.32602 13681079
-64.890106 -40.08239 120.16959 7562586
-65.72097 -40.460667 119.88347 9930878
-66.480736 -40.727814 119.65089 11904668
-65.060959 -39.385887 120.396 9405306
-65.917267 -39.550091 120.18429 9733499
-64.549164 -38.212906 120.91856 6511954
-65.119949 -38.461254 120.72626 8222060
-65.807701 -38.821423 120.4721 9733499
-64.431313 -37.450256 121.22034 6511954
-65.160263 -37.492508 121.07603 7959144
-63.733406 -36.419746 121.72324 7104346
-64.521439 -36.48064 121.56167 7432800
-65.158066 -36.754498 121.34837 6511954
-63.695557 -35.594597 122.03397 7828324
-64.406761 -35.690018 121.87321 8288618
-63.07605 -34.503918 122.54521 7828324
-63.884537 -34.679447 122.33776 9866880
-63.16333 -33.522865 122.89125 6512466
-63.847038 -33.861073 122.6459 10656139
-62.441116 -32.425087 123.42355 7564130
-63.256809 -32.665497 123.19077 7367007
-61.690197 -31.150007 124.02648 6840151
-62.481316 -31.534599 123.74483 7432544
-63.301846 -31.755199 123.51847 8682867
-61.260567 -30.153734 124.65908 9734531
-61.888733 -30.465551 124.32818 7761254
-62.626862 -30.612541 124.10367 8090730
-60.449673 -29.190889 125.66781 9734531
-61.28175 -29.461157 125.20554 9602945
-62.018841 -29.75671 124.83069 9076601
-52.861942 -28.233635 134.78036 11380125
-53.566376 -28.41363 134.46449 11643043
-54.1408 -28.700609 133.76387 12695731
-54.944714 -28.702274 133.43558 8092019
-55.982136 -28.706978 131.00438 9735556
-56.769108 -28.70863 130.66434 8814458
-57.554405 -28.710285 130.3206 8617080
-58.52652 -28.714853 127.91419 7565675
-59.294857 -28.716494 127.55926 10787985
-59.990532 -28.85746 126.81443 9604226
-60.755436 -28.97666 126.30177 8616819
-52.806389 -27.360695 135.11174 9933962
-53.579987 -27.476954 134.93211 8815228
-52.12711 -26.551516 135.52992 10657169
-52.925068 -26.492676 135.41051 7565675
-52.17799 -25.523026 135.89981 8749175
-52.895473 -25.850773 135.65221 7565675
-51.539608 -24.472391 136.39967 10195850
-52.377583 -24.599424 136.20477 8354676
-50.892601 -23.276009 136.9548 12169380
-51.57159 -23.471649 136.76271 9932680
-52.250763 -23.668152 136.57024 9537923
-50.899921 -22.319906 137.30577 10195594
-51.691914 -22.561428 137.07678 10326925
-50.263748 -21.324875 137.78479 8353647
-51.016647 -21.423178 137.61549 8813942
-50.227417 -20.574455 138.0677 7432545
-51.015846 -20.521063 137.94801 7563619
-49.529545 -19.453089 138.60422 7893349
-50.379074 -19.597145 138.40103 10392973
-49.077171 -18.114058 139.17754 6643282
-49.740395 -18.483397 138.9243 9405820
-50.425781 -18.676464 138.73198 10064006
-49.032406 -17.331188 139.47398 12629930
-49.766666 -17.468391 139.29364 11182229
-49.06506 -16.423178 139.80281 13024946
-49.608646 -16.701536 139.6041 15196110
-48.412514 -15.4938 140.32109 7563619
-49.02943 -15.692224 140.10178 10721939
-47.747734 -14.408863 141.24312 8024426
-48.451996 -14.777195 140.83409 7563619
-40.012226 -13.457938 150.62071 8617077
-40.734909 -13.652812 150.42104 8814456
-44.53624 -13.671503 144.92073 6840154
-45.407421 -13.673198 144.65016 7563619
-46.45826 -13.901398 142.57707 6511443
-47.346745 -13.91228 142.38928 8090219
-39.730877 -12.512993 151.01875 11577503
-40.185745 -12.611197 150.90205 12037795
-39.820076 -11.568357 151.35095 7827814
-115.7603 -75.232979 61.392288 7038298
-116.41345 -75.529305 60.792564 7826791
-117.28177 -75.700211 60.222664 8682100
-117.87666 -76.02906 59.35511 10655375
-118.50882 -76.049583 58.705269 8814199
-119.09898 -76.007538 57.752533 7762283
-119.79094 -75.950378 57.128738 8682612
-120.41586 -75.889427 56.256107 7826790
-121.10254 -75.832207 55.620232 7695717
-121.71823 -75.771378 54.735397 8814454
-122.39943 -75.714104 54.08741 7695717
-123.00568 -75.653412 53.190475 7629668
-123.6813 -75.596092 52.530411 8616566
-124.27804 -75.535568 51.621403 9011066
-125.02997 -75.476822 51.052727 7958635
-125.68104 -75.410477 50.051243 7958633
-126.28284 -75.358902 49.44693 7037274
-126.89726 -75.279305 48.5448 9208435
-126.84899 -75.24131 47.914932 9208435
-113.87528 -74.310738 63.698357 8419440
-114.59258 -74.458748 63.089092 9604227
-115.32579 -74.642311 62.411377 12827054
-115.96657 -74.874222 61.730461 10590605
-116.7187 -75.016533 61.180916 7300958
-127.60096 -75.179634 47.847504 9997951
-128.20383 -75.083588 47.089249 11379606
-128.87341 -74.98114 46.210926 11051416
-129.58563 -74.90609 45.587208 10459537
-130.1555 -74.827652 44.733131 9669762
-130.68492 -74.759933 44.036831 6775382
-131.42334 -74.685135 43.440742 10788238
-131.98337 -74.595352 42.359886 10524815
-132.68657 -74.519608 41.705639 8089963
-133.39072 -74.443489 41.04557 8090219
-133.93665 -74.364586 40.156212 6972250
-134.63541 -74.288132 39.483353 5919050
-108.20055 -73.360535 70.319702 9143162
-108.9271 -73.550751 69.87133 9735043
-109.71004 -73.63633 69.312859 6840919
-110.21407 -73.854645 68.523048 7827558
-110.8111 -73.847679 67.880402 10064519
-111.48076 -73.838348 67.096672 11906725
-111.97125 -73.846329 66.294708 10064265
-112.84715 -73.917252 65.534859 6971481
-113.54796 -73.998672 64.849739 8879991
-114.29501 -74.065117 64.221375 7827046
-115.03563 -74.152351 63.512451 6510930
-135.29065 -74.207054 38.674126 6314320
-135.96335 -74.071678 37.922878 7827814
-136.55051 -73.911957 37.025307 6775126
-137.20459 -73.81395 36.316875 6906712
-138.0527 -73.707855 35.652611 8551537
-138.38646 -73.61763 34.791748 7630178
-138.98715 -73.516693 33.936085 10063235
-139.83536 -73.431999 33.429665 6906712
-140.43793 -73.332077 32.561432 7893354
-140.74173 -73.274849 32.037125 9734788
-107.42078 -72.272606 71.167526 6511954
-108.03032 -72.649132 70.701378 7367007
-108.98566 -72.66983 70.206917 9340285
-109.66822 -72.71833 69.839722 7301214
-141.03894 -73.227119 31.628771 9734788
-141.61938 -73.145805 30.983194 8616822
-142.47864 -73.044518 30.272757 8089963
-143.06235 -72.957504 29.556753 8616566
-143.37029 -72.871124 28.661676 8419702
-144.2262 -72.768402 27.930216 12433069
-145.08385 -72.66494 27.190302 10459023
-145.66075 -72.576439 26.451319 11182231
-145.98495 -72.505669 25.542852 11774108
-146.91576 -72.452728 24.976412 8155755
-147.50478 -72.371635 24.223814 9932161
-147.75858 -72.298386 23.656794 8089960
-106.79271 -71.361435 71.864861 8090730
-107.3928 -71.570694 71.472908 9472127
-108.28385 -71.645432 70.988747 9537664
-108.96527 -71.834534 70.563797 9735043
-148.16753 -72.242401 23.356092 8089960
-148.55435 -72.150284 22.684114 7366238
-149.42422 -72.050385 21.896612 8418927
-150.311 -71.956894 21.102232 9932163
-150.73959 -71.873352 20.23675 9142907
-151.16177 -71.789742 19.367929 9669251
-152.0545 -71.709091 18.737772 9011579
-152.63303 -71.625717 17.938181 9471615
-153.20847 -71.541954 17.13312 9537152
-153.78085 -71.457886 16.322634 8616306
-154.67903 -71.37484 15.664346 9274237
-154.62338 -71.316353 14.906549 10261132
-106.16359 -70.458893 72.559105 8090730
-106.792 -70.579727 72.189491 8485232
-107.6909 -70.620743 71.71534 7367007
-108.33084 -70.917114 71.266953 11379356
-155.56667 -71.276352 14.807893 9537409
-155.50554 -71.217827 14.046594 9142651
-156.42281 -71.147758 13.55948 8681843
-105.50564 -69.194069 73.418449 8287859
-106.16035 -69.681435 72.883293 7630187
-107.09587 -69.605484 72.439072 7630437
-107.73538 -69.89624 71.99324 7038042
-105.01684 -68.346054 74.018723 8287859
-105.61445 -68.541306 73.633827 7498601
-106.46016 -68.710693 73.133469 7038307
-107.17699 -68.773216 72.742966 6840925
-104.88605 -67.592468 74.39782 7827821
-105.8465 -67.576744 73.915901 7761772
-106.64988 -67.940887 73.3563 7038307
-103.57417 -66.202644 75.641525 7038307
-104.16824 -66.581413 75.182243 9143678
-104.97337 -66.654747 74.742393 8748921
-105.76314 -66.786453 74.286125 7564649
-103.59193 -65.49514 75.92588 6313551
-104.37178 -65.676811 75.453934 7762027
-105.16233 -65.710068 75.0382 9735814
-102.40928 -64.165901 77.078674 6445394
-102.94379 -64.537376 76.652748 6445394
-103.80573 -64.59745 76.189682 8155499
-104.57425 -64.773834 75.7258 8353649
-102.41788 -63.523144 77.341019 8419186
-103.20029 -63.636681 76.896278 5853257
-103.98641 -63.752983 76.44857 7563618
-101.5446 -62.460491 78.22612 8748408
-102.44125 -62.68047 77.679192 8222321
-103.39614 -62.740887 77.168999 7366497
-101.0324 -61.541763 78.868065 10063753
-101.734 -61.57085 78.499527 8814201
-102.61426 -61.794022 77.959579 9340287
-99.776817 -60.199028 80.296814 7564905
-100.43087 -60.524277 79.701241 8090736
-101.19962 -60.616428 79.257416 9143166
-102.01636 -60.765709 78.715012 7367014
-102.52158 -61.037502 78.320923 8616822
-98.530006 -59.170055 82.265205 7038304
-99.075241 -59.402546 81.457069 5656908
-99.88266 -59.605724 80.776726 7630180
-100.73191 -59.836937 80.126198 8090736
-101.3691 -59.860752 79.782463 10261132
-86.86953 -58.32613 95.536972 6510930
-87.597534 -58.465328 95.154625 5394761
-88.438065 -58.596661 94.635948 8683640
-89.052246 -58.805653 93.774422 11577502
-89.726601 -58.807522 93.128288 13550517
-90.396225 -58.809383 92.47731 8024936
-91.074226 -58.811584 91.57019 7366494
-91.534866 -58.813454 90.663437 6116173
-92.086121 -58.815304 89.886879 6971737
-92.633865 -58.817253 89.016678 7695205
-93.273766 -58.819103 88.344795 8419440
-94.013962 -58.821255 87.554985 7760998
-94.747879 -58.82341 86.7593 7762027
-95.371414 -58.825241 86.07225 7235685
-95.989983 -58.827087 85.380714 8288368
-96.70517 -58.829227 84.568115 7958632
-97.359489 -58.927711 83.622063 7498081
-98.001114 -59.016243 83.031662 8748405
-98.928246 -59.023216 82.596771 7433058
-86.798187 -57.597294 95.860931 6510930
-87.758102 -57.601612 95.428581 5591369
-88.488052 -57.873325 94.992317 8618105
-86.263336 -56.443546 96.563072 7103323
-87.072861 -56.628674 96.125786 7498081
-87.654144 -56.853138 95.775146 6510930
-85.647293 -55.356449 97.274925 8813428
-86.390854 -55.562241 96.85894 7168860
-87.165771 -55.710358 96.451973 8090218
-85.069466 -54.503822 97.875679 9010550
-85.77198 -54.477543 97.571091 9668222
-86.595467 -54.621529 97.14399 8878963
-87.139542 -54.984695 96.754532 8682867
-84.426262 -53.315132 98.640411 9011320
-85.056648 -53.661594 98.218849 8550257
-85.973618 -53.538963 97.856636 9470843
-86.518661 -53.898319 97.46814 10851980
-83.655884 -52.230694 99.420441 9932678
-84.345535 -52.609753 98.959206 9669250
-85.308403 -52.63879 98.515793 8484720
-85.894623 -52.818439 98.180687 8089963
-83.027176 -51.169018 100.12873 7038307
-83.640724 -51.491966 99.723991 8682356
-84.573486 -51.697834 99.22332 10130313
-85.227112 -51.907162 98.846336 9471871
-82.989922 -50.456791 100.43222 9340289
-83.911293 -50.600346 99.961815 8616309
-84.681496 -50.904121 99.494576 9932678
-82.384796 -49.343082 101.15166 8682616
-83.245636 -49.508835 100.69941 8485238
-83.945618 -49.858643 100.24513 8551031
-81.842743 -48.413063 101.76892 7300446
-82.49614 -48.475365 101.45124 8813943
-83.384125 -48.635418 100.98909 8682616
-81.152954 -47.473911 102.45599 9537408
-81.801971 -47.542858 102.1376 7695204
-82.744995 -47.584389 101.69853 8682100
-80.63176 -46.336056 103.14758 10853012
-81.181564 -46.645844 102.7766 8682356
-82.041267 -46.500854 102.45 8550513
-82.593758 -46.838673 102.06658 9537408
-79.9133 -45.330982 104.01926 9012350
-80.618004 -45.497013 103.5932 9669766
-81.355339 -45.647762 103.15751 8420470
-81.94912 -45.794868 102.7755 8287341
-77.793823 -44.107582 106.4647 12037793
-78.619247 -44.142731 105.97932 9077368
-79.300087 -44.418953 105.14249 8879477
-79.988632 -44.722725 104.51653 9143678
-80.762627 -44.703228 104.16749 9012350
-67.725449 -43.202087 118.51947 9142393
-68.423454 -43.434502 118.28288 9734529
-69.116745 -43.744354 117.6469 8090992
-69.823257 -43.745979 117.22865 8090992
-70.209732 -43.748585 115.65169 9406594
-71.042648 -43.750523 115.14118 8354165
-71.871849 -43.752468 114.62472 9340544
-72.255203 -43.754223 113.71194 8879991
-72.631073 -43.75597 112.79771 9142651
-73.578217 -43.758224 112.18108 8353135
-74.520378 -43.760475 111.55688 8550770
-74.696121 -43.762611 110.09177 11379356
-75.224869 -43.763889 109.73039 8682867
-76.14608 -43.766129 109.09203 11183002
-76.94783 -43.794174 108.28577 8024944
-77.354652 -43.873203 107.5378 7827565
-78.266098 -43.938747 106.83961 10985365
-78.819267 -43.962154 106.51505 8089963
-67.829346 -42.369915 118.80772 8089963
-68.484772 -42.547359 118.62661 8485489
-67.030518 -41.451229 119.28724 11049360
-67.821579 -41.572544 119.10282 8879734
-67.089432 -40.541004 119.61222 9734012
-67.76548 -40.762802 119.41109 7564128
-66.514801 -39.330715 120.15957 9733499
-67.195229 -39.683025 119.90962 8747890
-66.429291 -38.508446 120.47765 9865858
-67.295677 -38.69838 120.25466 9142907
-65.819908 -37.431499 120.98203 8879735
-66.627228 -37.594711 120.77933 8353903
-65.248825 -36.258224 121.51517 8353647
-65.897942 -36.477741 121.31968 6116685
-66.547844 -36.698486 121.12356 5919050
-65.11039 -35.366192 121.86825 9932676
-65.975525 -35.522911 121.65775 8090730
-64.560486 -34.359741 122.33621 8288618
-65.241386 -34.409924 122.19746 9801090
-65.862762 -34.793022 121.94666 9209467
-64.554581 -33.435642 122.6777 8288364
-65.22155 -33.567509 122.51137 8682867
-63.865646 -32.464191 123.15742 7104347
-64.604263 -32.581848 122.98355 8814452
-63.912407 -31.55258 123.48533 8946039
-64.596252 -31.756723 123.28923 9735555
-63.274414 -30.479456 124.07133 9011832
-63.977612 -30.769775 123.78152 9011576
-62.234035 -29.032869 125.86724 7892584
-62.640053 -29.497221 124.92071 9011065
-63.357811 -29.747473 124.60179 8550772
-54.106781 -28.108086 134.60649 12038058
-54.956814 -28.316938 134.37929 10262417
-55.586266 -28.703608 133.16928 7564643
-56.386417 -28.705276 132.83189 8748407
-57.025288 -28.706614 132.55904 7564651
-58.024281 -28.711277 130.11168 8090737
-58.805973 -28.712934 129.7597 10458511
-59.585571 -28.714598 129.40327 9537664
-60.733345 -28.748041 127.036 9143675
-61.480976 -28.832804 126.63637 7563874
-61.576534 -29.00754 126.06139 7563619
-54.254177 -27.371973 134.85165 8223605
-55.0355 -27.516312 134.66037 8092019
-53.649155 -26.344044 135.3373 9012605
-54.350822 -26.369991 135.20366 9144191
-55.003998 -26.745136 134.94998 8092019
-53.565804 -25.49082 135.66632 8289140
-54.347633 -25.552111 135.50552 10854036
-52.984493 -24.335384 136.19476 8091761
-53.705212 -24.663822 135.94637 9407105
-52.321121 -23.143181 136.75117 9537923
-52.97823 -23.515274 136.498 7565418
-53.759342 -23.628408 136.31822 7828589
-52.283504 -22.367527 137.04362 9800838
-53.070999 -22.505686 136.85352 8420213
-51.54303 -21.00609 137.67609 9537665
-52.379883 -21.382412 137.38951 10326668
-53.216587 -21.759916 137.10254 8089963
-51.687878 -20.444284 137.8575 8353135
-52.497482 -20.501326 137.69337 9997959
-51.043015 -19.40065 138.35602 9537665
-51.728542 -19.595001 138.16328 8221549
-52.414371 -19.790016 137.97017 9603458
-50.991817 -18.422998 138.72534 9011321
-51.793339 -18.649378 138.50027 7169373
-50.429543 -17.253426 139.25571 8155755
-51.167046 -17.526913 139.02455 7037531
-49.697838 -15.988956 139.85097 12629930
-50.440815 -16.325254 139.5957 10327177
-51.165722 -16.614426 139.36105 6445394
-49.803329 -15.372149 140.14365 13551549
-50.475697 -15.558776 139.89879 12037536
-49.080616 -14.46328 140.96623 8221549
-49.854099 -14.708025 140.64058 11511711
-40.771538 -13.276601 150.55319 8814456
-41.493298 -13.47128 150.34749 6840927
-42.199013 -13.661309 150.08505 6511962
-45.9296 -13.674216 144.48529 7563619
-46.624153 -13.675576 144.26213 6116173
-47.318134 -13.676939 144.03622 5919050
-47.880005 -13.91895 142.27588 6642517
-48.591888 -13.928147 142.12376 7234654
-40.795074 -12.39616 150.87349 9735040
-41.513599 -12.654523 150.65111 8419699
-40.110046 -11.128215 151.46172 7038298
-40.87682 -11.425056 151.21681 8945780
-40.114101 -10.43162 151.71754 7038298
-40.860374 -10.437197 151.58356 7038298
-40.340084 -9.5279598 152.01039 7959401
-40.226582 -8.587059 152.37692 9933191
-40.162117 -7.947412 152.62392 9341054
-118.09632 -75.263908 60.280518 9734531
-118.52084 -75.568413 59.779667 8748149
-119.38777 -75.660896 59.258186 8288111
-119.95518 -75.941406 58.34491 8156781
-120.67659 -75.916428 57.621136 7761766
-121.17673 -75.863579 56.788368 6971994
-121.94516 -75.804977 56.255077 8090475
-122.49085 -75.744621 55.259239 8551282
-123.25584 -75.685829 54.713135 7432289
-123.79018 -75.625755 53.705704 7629924
-124.55151 -75.566772 53.146774 7827049
-125.07422 -75.506973 52.127846 10064265
-125.78288 -75.455292 51.713005 7695205
-126.36935 -75.395752 50.818691 7037274
-127.04951 -75.336372 50.099422 7563618
-127.60786 -75.26609 49.186123 9076851
-115.37188 -74.222519 63.155472 9537918
-115.86636 -74.347046 62.702656 10327434
-116.66133 -74.40184 62.227592 9932676
-117.38955 -74.655243 61.454155 9471614
-118.03948 -74.878693 60.788998 8616307
-118.81384 -74.977562 60.285423 8551027
-128.22058 -75.171082 48.431656 9997951
-128.94075 -75.077988 47.853226 11182743
-129.54437 -74.978653 46.920528 13484984
-130.22894 -74.898705 46.165588 10590865
-130.94955 -74.823151 45.534805 8946296
-131.33908 -74.751579 44.609085 5920074
-132.23679 -74.668182 44.027161 8617328
-132.80211 -74.588898 43.151585 11314842
-133.51508 -74.501282 42.283291 9998472
-134.25677 -74.425179 41.665447 7761772
-134.66588 -74.358017 40.845642 6840152
-135.32837 -74.276695 40.040119 6971482
-110.86957 -73.442307 68.928505 7301477
-111.76523 -73.617188 68.370857 8683128
-112.30941 -73.727654 67.778648 8748407
-112.92086 -73.851646 66.782158 10064265
-113.54784 -73.846687 66.214844 7366495
-114.20829 -73.836967 65.40786 8748404
-114.77845 -73.903961 64.637711 8484975
-115.4068 -74.011505 63.897896 6510930
-116.02593 -74.116188 63.149956 8682866
-136.03491 -74.199356 39.359394 7497826
-136.69756 -74.074059 38.482082 9143675
-137.3439 -73.920563 37.713383 6511954
-137.93555 -73.829536 37.04335 7433056
-138.6044 -73.722771 36.239704 8090474
-139.27574 -73.618484 35.431232 7366495
-139.74503 -73.532707 34.655842 8287594
-140.61494 -73.433136 33.973618 6511954
-141.22427 -73.332581 33.101734 8748147
-141.53154 -73.274986 32.574947 9734788
-110.0631 -72.59021 69.692024 7432802
-110.89439 -72.613754 69.259514 7038307
-111.65894 -72.790581 68.797424 7762029
-141.96159 -73.231689 32.313866 9406081
-142.40958 -73.1595 31.694906 8616822
-143.07671 -73.057899 30.849436 8879995
-143.87709 -72.95562 30.086012 8682873
-144.39864 -72.860779 29.228292 8617080
-145.0493 -72.779655 28.632944 11380126
-145.63432 -72.691093 27.898371 9537665
-146.21657 -72.602272 27.158621 8353391
-146.82602 -72.512756 26.236517 7563619
-147.77835 -72.449715 25.488832 7958376
-148.37527 -72.368607 24.733324 8945268
-148.63223 -72.294891 24.163305 8089960
-109.381 -71.578018 70.458786 9603457
-110.27068 -71.624794 69.986923 9537665
-111.05352 -71.79953 69.516342 8288115
-149.04562 -72.238571 23.862005 7563617
-149.45111 -72.152527 23.188944 7695203
-150.35019 -72.073753 22.586756 7366240
-150.78786 -71.990089 21.724051 9340027
-151.21924 -71.906433 20.857924 9340027
-152.12042 -71.826164 20.235483 9144449
-152.70801 -71.742752 19.44021 8946557
-153.2925 -71.659065 18.63946 10788759
-153.87393 -71.574997 17.833208 8089963
-154.78088 -71.492302 17.182611 8616306
-155.36339 -71.407181 16.363268 8616306
-155.62457 -71.335114 15.570207 8418928
-108.73771 -70.558983 71.208595 9734787
-109.60965 -70.64875 70.727951 11116953
-110.41853 -70.809891 70.249771 12695985
-156.57898 -71.29496 15.474694 8089963
-156.51883 -71.235947 14.70794 10261132
-157.43159 -71.150726 14.028481 7564901
-157.85654 -71.078217 13.29992 8090475
-108.20672 -69.46978 71.930458 7235165
-108.96925 -69.734215 71.432945 8287342
-109.83685 -69.721214 70.997169 11511711
-110.44677 -70.134521 70.515594 14077894
-107.58665 -68.513786 72.642281 7104096
-108.38793 -68.660393 72.174026 8156012
-109.2548 -68.809303 71.671402 7695461
-106.93823 -67.52327 73.382866 7104100
-107.80399 -67.596375 72.912415 7564651
-108.60185 -67.800171 72.422272 8221805
-106.28427 -66.493202 74.142792 7630442
-107.06409 -66.651955 73.680565 6906721
-108.02029 -66.68074 73.182823 7433065
-108.6292 -67.076508 72.709038 6643549
-105.62038 -65.375259 74.944504 9143678
-106.26167 -65.647614 74.505508 9143932
-107.16461 -65.670532 74.037209 7959408
-107.74504 -65.947517 73.627281 6643549
-104.97594 -64.51046 75.631195 8287857
-105.69159 -64.557587 75.247963 7958889
-106.54525 -64.71302 74.749702 10196874
-107.15372 -64.902313 74.361916 9538688
-104.44167 -63.324261 76.395393 8681843
-105.04443 -63.696465 75.934532 7498594
-105.98086 -63.59882 75.499359 8090474
-106.64993 -64.065918 74.96537 8880502
-103.79429 -62.475658 77.076874 7563618
-104.4704 -62.623684 76.671875 7827558
-105.38041 -62.707767 76.174629 5985867
-105.96485 -62.838818 75.823257 5920074
-103.12218 -61.396049 77.86689 9734788
-103.81013 -61.624039 77.422661 8287598
-104.74743 -61.68499 76.92112 7762278
-105.31166 -61.984528 76.510071 5920074
-102.27443 -60.334995 78.912689 7367014
-103.07127 -60.54945 78.346733 8550514
-103.99093 -60.727283 77.749916 8879220
-104.71283 -60.973625 77.234245 8617330
-100.48205 -59.188816 81.259666 6643542
-101.36378 -59.335022 80.43708 8222322
-101.89289 -59.6063 79.747696 9669253
-102.65262 -59.778954 79.202621 7629928
-103.47803 -59.92939 78.653793 8352877
-88.981857 -58.284386 94.606125 10262415
-89.519928 -58.533337 94.265053 11314844
-90.48558 -58.49897 93.823189 9340795
-91.105194 -58.809845 92.977364 7630434
-91.884781 -58.812038 92.205994 8024936
-92.547791 -58.813911 91.539452 6511954
-93.004662 -58.81583 90.585411 9735808
-93.55114 -58.817562 89.89666 9406332
-94.214066 -58.819584 89.111526 9208956
-94.738434 -58.821793 88.01606 9011833
-95.371101 -58.823647 87.32901 8353646
-95.998711 -58.8255 86.637451 7893095
-96.621323 -58.827351 85.941338 9011832
-97.341209 -58.829506 85.123428 8024425
-98.054489 -58.831654 84.299843 9801605
-98.660172 -58.833504 83.588913 10262156
-99.328857 -58.875511 82.930328 8485229
-99.851357 -59.026932 82.150566 6511954
-100.88689 -59.039581 81.586136 7104093
-101.60113 -59.115814 80.957253 8090736
-88.37114 -57.177425 95.323524 8618105
-88.913391 -57.550964 94.930702 9407364
-89.740906 -57.711952 94.494949 9341570
-90.453079 -57.701771 94.179588 7630952
-88.300262 -56.447113 95.647926 10130314
-89.128006 -56.603455 95.213989 11511968
-89.878716 -56.822433 94.789482 9670535
-87.788239 -55.574932 96.227028 11577503
-88.511795 -55.501999 95.931648 11051159
-89.262909 -55.716534 95.508766 11314331
-87.017036 -54.296181 97.085236 8090995
-87.732101 -54.601353 96.64222 9735299
-88.643791 -54.617538 96.226746 10327436
-86.394157 -53.212605 97.798752 8814715
-87.086914 -53.602364 97.331818 8617336
-87.978806 -53.744396 96.874825 9998728
-85.768539 -52.135826 98.51181 8090736
-86.384766 -52.467815 98.102158 8814715
-87.32428 -52.685394 97.593796 9472642
-87.982239 -52.903465 97.211349 9538435
-85.688301 -51.418037 98.836769 8682872
-86.664841 -51.571953 98.337456 9406593
-87.43956 -51.886337 97.863899 9012093
-85.101242 -50.538517 99.453812 9472129
-85.954903 -50.4566 99.104515 7630443
-86.659111 -50.769348 98.663208 9274752
-84.420898 -49.549374 100.15678 10524558
-85.213974 -49.577602 99.790268 9932167
-86.009033 -49.607948 99.421959 7038307
-83.908409 -48.393761 100.85165 11050646
-84.537567 -48.677944 100.45542 10788241
-85.325706 -48.617218 100.12695 10130313
-83.268623 -47.341064 101.56201 8550772
-83.898659 -47.621876 101.16681 11577500
-84.778152 -47.7089 100.73788 10788241
-82.602821 -46.181709 102.327 10195082
-83.198105 -46.565521 101.90589 8945530
-84.136414 -46.654045 101.45004 9143676
-84.769028 -46.935699 101.05331 10788241
-81.919823 -45.187027 103.24501 9340543
-82.593758 -45.542191 102.66679 9077115
-83.470314 -45.654869 102.19853 7104098
-84.125443 -45.882832 101.76628 6972512
-80.795723 -44.177277 104.90025 8683642
-81.360275 -44.404102 104.24435 9472644
-82.131058 -44.637718 103.6114 10788501
-82.927284 -44.849236 103.07888 7893100
-69.111 -43.173836 118.28522 8419696
-69.724686 -43.389481 118.02799 8090992
-70.570236 -43.506542 117.43427 7696234
-71.11676 -43.716099 116.6694 7564649
-71.927032 -43.750866 115.94775 9669254
-72.623222 -43.752502 115.51254 9932167
-72.834625 -43.754738 114.01473 9668995
-73.655457 -43.756683 113.48504 10260875
-74.60862 -43.758957 112.86015 10260875
-75.150909 -43.760254 112.49956 9209467
-75.323624 -43.762409 111.01537 8946039
-76.122986 -43.764347 110.4681 8682867
-77.050323 -43.766602 109.82212 9735558
-77.841179 -43.768539 109.2627 10985625
-77.972725 -43.770618 107.79284 9011838
-78.620674 -43.772789 107.32255 9011322
-79.461044 -43.862873 106.57491 8747893
-80.116974 -43.942654 106.01009 9669507
-80.751396 -44.048111 105.36607 9406849
-69.119049 -42.430637 118.55758 9340286
-69.884796 -42.55658 118.29541 8551284
-70.547394 -42.806149 117.90116 8617335
-68.481598 -41.083832 119.16631 7564643
-69.226105 -41.462585 118.89176 9340286
-69.931946 -41.774082 118.58906 9340286
-68.522675 -40.36404 119.42429 7367264
-69.274803 -40.580414 119.21175 9340286
-67.780746 -39.331367 119.93575 7564386
-68.563797 -39.525467 119.72601 6840919
-67.982498 -38.505894 120.20429 7301214
-68.617157 -38.596088 120.05901 7104091
-67.229462 -37.372692 120.75484 7695973
-67.863831 -37.689152 120.52616 6972249
-67.19986 -36.549824 121.06319 7498594
-68.016525 -36.735764 120.85047 6577748
-66.640488 -35.459496 121.56371 7169373
-67.399376 -35.629471 121.36706 7893352
-65.954369 -34.294754 122.11398 10459019
-66.608421 -34.512783 121.91814 8024937
-67.367477 -34.796494 121.67959 6971994
-65.871277 -33.398052 122.45904 8682867
-66.686905 -33.554291 122.25744 8156523
-65.291595 -32.22525 122.99357 9538175
-66.016304 -32.444504 122.78476 11511450
-66.573517 -32.822056 122.54726 12235172
-65.35321 -31.33791 123.30988 10196105
-66.052933 -31.546202 123.10944 12103330
-64.718796 -30.299656 123.93911 8946040
-65.350983 -30.592989 123.63588 9537920
-63.221203 -29.071573 125.5734 7959152
-64.068611 -29.346973 124.91017 8616565
-64.676086 -29.717724 124.39223 8287342
-56.28793 -28.347666 134.13268 9208443
-57.036999 -28.580107 133.9146 9800582
-57.503174 -28.707617 132.35201 8419702
-58.29826 -28.709293 132.00313 9735046
-58.932922 -28.710634 131.72096 9537664
-60.052326 -28.715595 129.18729 9735812
-60.828392 -28.71726 128.82283 9143675
-61.756851 -28.719263 128.38031 8617331
-62.715405 -28.822725 126.45583 8156273
-63.54253 -28.854893 126.21041 8814203
-55.627254 -27.330017 134.62436 9603201
-56.416744 -27.580389 134.39253 9405822
-55.103104 -26.047783 135.18941 11381404
-55.687336 -26.420996 134.94859 11774882
-56.437618 -26.626173 134.74042 10195594
-55.051506 -25.413834 135.43204 11381404
-55.800407 -25.421568 135.2968 12565422
-54.291859 -24.262102 135.99065 10262667
-55.064751 -24.570427 135.74042 10460046
-54.403637 -23.460897 136.26601 9209468
-55.139725 -23.703896 136.04637 9275773
-53.751751 -22.394217 136.77425 8879479
-54.536625 -22.507122 136.59389 8682356
-55.196365 -22.881958 136.33917 9143931
-53.74794 -21.343222 137.16216 8418928
-54.481739 -21.620947 136.93011 8879479
-53.171623 -20.342373 137.6328 8616307
-53.871601 -20.440815 137.47282 8353135
-52.485123 -19.259241 138.15331 9735043
-53.110275 -19.586281 137.92224 10129545
-53.884735 -19.473576 137.82692 8090218
-52.44656 -18.475367 138.44887 7104091
-53.24176 -18.610882 138.25842 7893351
-51.698231 -17.102531 139.08701 5919050
-52.543327 -17.478756 138.79901 9340285
-53.38829 -17.856184 138.51057 8090730
-51.841892 -16.345278 139.34067 6774357
-52.639973 -16.478889 139.15038 10195076
-51.103924 -15.425399 139.87926 10261124
-51.924534 -15.499599 139.68648 7826787
-52.601021 -15.688568 139.4485 7366237
-50.487026 -14.394165 140.77196 9275260
-51.29493 -14.694668 140.39716 8945523
-52.057854 -14.979667 140.04225 8813680
-42.789188 -13.418552 150.10017 6578011
-43.667225 -13.574675 149.75755 7762541
-47.837936 -13.677964 143.8642 6971482
-48.702538 -13.679673 143.57338 6379345
-49.304058 -13.937547 141.97095 7563619
-50.016994 -13.94728 141.81696 8814197
-50.730335 -13.957248 141.66226 6511954
-42.164799 -12.345608 150.64973 8222320
-42.943871 -12.62627 150.40843 7170660
-42.212334 -11.363965 151.00307 7959402
-42.967396 -11.784943 150.71431 8091760
-41.607235 -10.442948 151.4493 8222314
-42.354691 -10.448954 151.31483 8090475
-40.80201 -9.1012897 152.08574 7038298
-41.513763 -9.4884682 151.81731 6248527
-42.243736 -9.6850224 151.61586 6708822
-40.982906 -8.3361654 152.33556 8222829
-41.710545 -8.4368143 152.1698 5919562
-40.21656 -7.3708868 152.82661 9801605
-40.906567 -7.4572444 152.67268 8683636
-40.495834 -6.4080296 153.13177 8683636
-41.060776 -6.4109831 153.03078 8683892
-40.587627 -5.4405127 153.47179 8617842
-40.472275 -4.6628165 153.77863 9209467
-120.47839 -75.486374 58.95665 7367263
-121.44268 -75.607147 58.344582 7169628
-121.9001 -75.825836 57.556271 8485489
-122.55351 -75.785294 56.713947 8814454
-123.2735 -75.728378 56.148067 7103323
-123.87415 -75.665405 55.165413 7037274
-124.58995 -75.608337 54.587257 7367007
-125.17971 -75.545601 53.592297 9406079
-125.81522 -75.494888 53.077164 11643809
-126.42029 -75.433434 52.152412 8682356
-127.1862 -75.373604 51.573914 10261644
-127.84839 -75.309914 50.680202 8024169
-128.23575 -75.268242 50.031563 8419184
-117.94405 -74.286415 61.820236 9077112
-118.7598 -74.376305 61.26635 8354163
-119.48298 -74.610023 60.571667 8617591
-120.10906 -74.867958 59.853966 7762279
-120.91475 -75.017143 59.259148 6775126
-128.70287 -75.216743 49.678478 9143675
-129.13885 -75.142769 49.061752 8880503
-129.7527 -75.045425 48.296078 8090987
-130.29347 -74.970673 47.605743 10985623
-131.03 -74.883347 46.76849 8354159
-131.78635 -74.807961 46.180996 10196106
-132.306 -74.726868 45.220779 6446417
-132.93826 -74.648544 44.437862 6775382
-133.62772 -74.58252 43.95335 10130822
-134.21072 -74.497215 42.983276 11905952
-134.94415 -74.414719 42.234688 10655888
-135.4736 -74.345253 41.506081 8616561
-135.99825 -74.275864 40.772495 5919050
-112.79677 -73.566795 67.886307 7827305
-113.46146 -73.523537 67.543503 9472128
-114.41162 -73.64193 66.99427 8814969
-114.82913 -73.859398 65.94635 8748661
-115.52589 -73.846954 65.057693 9537662
-116.19196 -73.865768 64.436104 7761252
-116.7468 -73.929665 63.541 7827814
-117.36576 -74.034599 62.783203 9077624
-118.05411 -74.101593 62.149002 8288112
-118.63875 -74.151627 61.638412 7038307
-136.46552 -74.227562 40.375999 6971482
-136.93082 -74.179108 39.975445 7103068
-137.43201 -74.098244 39.224976 7827560
-138.01971 -73.941925 38.405186 7301213
-138.68767 -73.830017 37.603065 9537663
-139.34146 -73.745689 37.060234 8485232
-140.03259 -73.635277 36.161758 7893095
-140.52252 -73.534615 35.207493 8353388
-141.38876 -73.448929 34.700947 8287594
-141.86122 -73.362091 33.912262 8879472
-142.31702 -73.289734 33.297073 9471355
-112.05542 -72.464592 68.730965 8156786
-112.8045 -72.683685 68.259155 9867398
-113.78379 -72.63961 67.779434 8683640
-114.3135 -73.131706 67.305962 9736070
-142.76266 -73.231682 32.857452 9669253
-143.21567 -73.158966 32.235916 7696236
-143.87726 -73.078545 31.657 7301222
-144.40932 -72.983406 30.802439 8748409
-145.00212 -72.89518 30.077829 8090994
-145.87875 -72.791206 29.344122 8682358
-146.47604 -72.687553 28.424925 7695205
-147.06494 -72.59816 27.682142 8287598
-147.67117 -72.518372 26.93778 8616305
-148.33243 -72.464676 26.197275 10524041
-148.96849 -72.399582 25.44684 10063747
-149.52277 -72.309776 24.862406 7037274
-111.62448 -71.398026 69.392517 7038307
-112.1597 -71.739243 68.978836 9406849
-113.13525 -71.689758 68.503281 10854293
-113.79374 -71.833473 68.108902 11380380
-149.49619 -72.254951 24.303251 7037274
-150.37349 -72.176613 23.88822 7037274
-151.28104 -72.082748 23.09865 9012606
-151.26352 -72.023888 22.351004 11643037
-152.16707 -71.929123 21.548643 9933193
-153.07291 -71.833633 20.736879 8355190
-153.51581 -71.763306 20.043978 8881278
-153.95383 -71.692863 19.347292 9144449
-154.85892 -71.595703 18.514071 8484978
-155.77823 -71.512428 17.86265 12168610
-156.04984 -71.439957 17.068804 9734784
-156.6353 -71.354172 16.242594 8879993
-110.90112 -70.383926 70.181038 12038055
-111.55596 -70.690735 69.720787 8550772
-112.53964 -70.717293 69.209724 9144191
-113.14273 -70.888336 68.832191 11380380
-157.55707 -71.269249 15.570931 7828590
-158.14362 -71.182396 14.731294 8814712
-158.40086 -71.109207 13.922029 8551280
-159.36165 -71.052277 13.619241 12498087
-110.25551 -69.463516 70.891167 14077894
-111.01337 -69.59185 70.452744 9735045
-111.86771 -69.732979 69.960007 7630187
-112.49106 -69.952423 69.5522 7565675
-109.60042 -68.42675 71.654617 7169117
-110.34307 -68.623337 71.195656 10524559
-111.26328 -68.684113 70.702896 9669509
-111.98917 -69.066505 70.175217 7564651
-109.16086 -67.394798 72.306679 7761254
-109.69399 -67.715858 71.902428 7695461
-110.65683 -67.644951 71.442711 10984081
-111.24724 -67.938766 71.020676 13550517
-108.43305 -66.420235 73.081322 6840928
-109.14091 -66.658798 72.622574 6116943
-110.05602 -66.708565 72.136978 6906713
-110.6537 -66.861839 71.769676 8090216
-107.62582 -65.376198 73.925148 6643549
-108.30019 -65.540619 73.514275 6511963
-109.10453 -65.738945 73.023232 5919567
-109.83891 -65.800453 72.624527 5920074
-107.09045 -64.168983 74.698769 9538688
-107.61517 -64.607796 74.249832 8420212
-108.52881 -64.63134 73.775902 7235425
-109.32964 -64.922523 73.24807 5919050
-106.4379 -63.302299 75.390404 8287853
-107.03534 -63.542068 74.98719 8814453
-107.91168 -63.644073 74.499626 8946297
-108.57901 -63.801369 74.095215 9735812
-106.42214 -62.542034 75.714226 7169373
-107.2933 -62.665176 75.220482 7958890
-108.09801 -62.880116 74.722359 9143678
-105.24176 -61.263187 76.845184 9209467
-105.76669 -61.686764 76.402573 6841176
-106.71083 -61.584831 75.965233 6840921
-107.39747 -61.809036 75.523247 9143678
-104.52695 -60.439564 77.679932 8813171
-105.24122 -60.509129 77.274994 8222316
-106.08178 -60.749733 76.676064 8485745
-106.79485 -60.781948 76.281685 7827558
-102.43264 -59.206573 80.217911 9735043
-103.3077 -59.255203 79.606682 9077114
-103.9388 -59.41494 79.00222 8221291
-104.5667 -59.70908 78.330864 8352877
-105.44405 -59.874641 77.704399 8550512
-106.16798 -60.118061 77.126503 9537664
-91.115547 -58.256897 93.659966 6511954
-91.658028 -58.511097 93.314827 8288367
-92.57962 -58.477222 92.900925 8617590
-93.166183 -58.754303 92.261086 7038298
-93.824318 -58.815975 91.470078 11972511
-94.590858 -58.818176 90.675552 8683122
-95.247543 -58.820473 89.669907 9538433
-95.680656 -58.822144 88.889923 8156268
-96.31955 -58.824009 88.19606 6642516
-96.847122 -58.825729 87.486778 8419440
-97.259613 -58.827621 86.508163 9011832
-97.9842 -58.829784 85.684814 8616818
-98.702194 -58.831955 84.855759 9801093
-99.311905 -58.833813 84.140167 8550514
-99.916412 -58.835667 83.420235 6511442
-100.51572 -58.837513 82.6959 11116434
-101.29403 -58.889416 81.91452 6972504
-102.13113 -58.978687 81.177795 8551285
-102.84701 -59.056736 80.541687 10064006
-103.44252 -59.122772 80.008415 8814200
-90.989151 -57.476643 94.029297 7499623
-91.885155 -57.686375 93.543343 10327693
-92.604874 -57.680992 93.222649 13023917
-90.451706 -56.392441 94.704727 7828589
-91.203255 -56.591572 94.287773 9341826
-92.028549 -56.792542 93.837044 10525071
-89.643463 -55.428959 95.453285 11906725
-90.46244 -55.598843 95.017815 8947069
-91.411552 -55.676025 94.56115 9144704
-89.023308 -54.329147 96.172043 10130057
-89.719048 -54.613541 95.745987 11051416
-90.620934 -54.694416 95.30912 9144704
-88.400391 -53.236294 96.890022 9603969
-89.029106 -53.54142 96.485695 9143419
-90.012978 -53.700794 95.98085 10262415
-88.488289 -52.461815 97.162537 10393741
-89.288689 -52.562199 96.763695 8946813
-89.920372 -52.868168 96.357605 9144192
-87.817886 -51.59634 97.811272 8814715
-88.614174 -51.535633 97.479118 11380122
-89.293121 -51.776073 97.078262 9143934
-87.187408 -50.517952 98.527832 9538180
-87.991653 -50.655739 98.11219 8419185
-88.673592 -50.551739 97.848709 8616306
-86.553825 -49.445488 99.243446 7696235
-87.31205 -49.640884 98.825211 9274495
-88.114044 -49.731945 98.42939 8089964
-85.899658 -48.288204 100.00242 9801093
-86.608658 -48.596268 99.560852 9735046
-87.514977 -48.703239 99.111885 9208703
-88.071007 -49.057518 98.72023 8287859
-85.232857 -47.091892 100.78268 10788241
-85.889008 -47.490005 100.32856 9801091
-86.8759 -47.634079 99.82859 9866375
-87.432785 -47.985016 99.437874 9537667
-85.33506 -46.43951 100.9996 9932933
-86.233803 -46.570354 100.54446 9339772
-86.791557 -46.918007 100.15469 10260873
-83.939079 -45.348976 102.20493 7564392
-84.684189 -45.415192 101.83357 9077371
-85.453621 -45.652966 101.31271 12037537
-86.147507 -45.8563 100.87071 10260873
-81.991104 -44.106689 104.61706 11183770
-82.679039 -44.140457 104.19724 12104616
-83.446228 -44.330105 103.42793 9077628
-84.042465 -44.681297 102.74002 7367014
-84.849525 -44.750938 102.30294 8353392
-71.756683 -43.448605 117.10415 8683122
-72.74472 -43.515942 116.63608 8879479
-73.177979 -43.732178 115.7761 9142651
-73.593262 -43.754784 114.89596 9142651
-74.558014 -43.75708 114.27113 9669251
-75.381096 -43.759045 113.72962 9209467
-75.556412 -43.761227 112.22712 9801604
-76.22998 -43.762852 111.76997 12827827
-77.034683 -43.764805 111.2161 10459278
-77.835419 -43.766758 110.65646 10590352
-78.301071 -43.768784 109.63058 10919318
-78.758438 -43.770805 108.60241 7433832
-79.540192 -43.772743 108.03034 7367525
-80.317879 -43.774685 107.45271 10722451
-81.024147 -43.797375 106.64852 12762288
-81.376846 -43.885185 105.65327 9867399
-82.207047 -43.924374 105.1518 10657682
-82.898399 -43.957893 104.73117 12630704
-70.552971 -42.245567 118.12307 9735558
-71.139458 -42.563015 117.73417 8748660
-72.001144 -42.640396 117.31853 8419949
-72.663788 -42.893703 116.92127 7235421
-70.473198 -41.521431 118.44852 10459023
-71.286659 -41.600414 118.05379 13354164
-72.073746 -41.744209 117.64481 8222570
-69.896057 -40.452579 119.12254 9669251
-70.568176 -40.562943 118.78981 9669251
-71.356911 -40.704384 118.38108 11446172
-69.211578 -39.123802 119.75957 7564386
-69.823959 -39.515362 119.48901 8945528
-70.778549 -39.634537 119.06748 8156012
-69.217278 -38.379349 120.03284 8156779
-70.074478 -38.550812 119.78126 8485233
-68.537323 -37.202549 120.58652 6511954
-69.365112 -37.44376 120.35147 7827814
-70.159912 -37.85289 120.05692 9209467
-68.732872 -36.415283 120.84205 6577747
-69.457306 -36.519062 120.67588 7104091
-68.028534 -35.299709 121.37745 7827558
-68.673309 -35.588814 121.15705 6972249
-67.958801 -34.542179 121.66882 7696228
-68.759621 -34.680588 121.47646 8090986
-67.35704 -33.488239 122.16341 6906456
-68.121841 -33.656113 121.9665 8485745
-68.801186 -34.005264 121.71786 8617331
-66.69693 -32.15456 122.7714 12433069
-67.32515 -32.538048 122.51917 9669251
-68.087402 -32.678528 122.33277 9011833
-66.694771 -31.409826 123.04632 11511967
-67.461411 -31.573359 122.85058 8813686
-65.969162 -30.216745 123.78059 8617080
-66.766159 -30.480024 123.45701 9077114
-67.464249 -30.852461 123.11593 8089963
-64.869125 -29.138292 125.07622 9735812
-65.517136 -29.279045 124.70626 9735044
-66.191574 -29.611576 124.22457 9472130
-66.925934 -29.851887 123.89243 9735046
-57.666935 -28.397696 133.87047 9866375
-58.473705 -28.468948 133.70155 9274493
-59.408009 -28.711643 131.5071 9537664
-60.355583 -28.713661 131.07397 9208443
-61.143333 -28.715349 130.7086 9537664
-62.219753 -28.720264 128.15645 9011579
-62.83572 -28.721603 127.85497 9800838
-63.757206 -28.723614 127.39751 9669254
-64.039322 -28.874651 126.06174 8814203
-65.033821 -28.914797 125.76197 9866632
-57.041023 -27.353136 134.36589 9208443
-57.792225 -27.560652 134.15665 9208701
-58.376129 -27.93758 133.9146 9011320
-57.06356 -26.397505 134.714 10985366
-57.857143 -26.648954 134.48103 9208187
-56.484573 -25.326712 135.21077 11972261
-57.274086 -25.471725 135.01784 10524559
-56.541424 -24.38563 135.54744 9209468
-57.208706 -24.60174 135.34985 10853012
-55.729874 -23.518255 136.01044 9407103
-56.414787 -23.630484 135.84804 8156525
-55.295834 -22.177603 136.5811 9143931
-55.886089 -22.550945 136.33925 9670019
-56.618164 -22.929901 136.07014 7761514
-55.148396 -21.413439 136.88873 9142651
-55.884476 -21.558056 136.70535 8353649
-54.499996 -20.202061 137.44969 8616307
-55.188652 -20.399673 137.25514 9471616
-55.852566 -20.775331 136.99937 8681843
-54.598343 -19.493002 137.69362 8221549
-55.313019 -19.512829 137.55998 9537152
-53.919434 -18.345591 138.23639 8616818
-54.591324 -18.680281 137.99431 8616562
-53.924492 -17.431856 138.57217 9274492
-54.597519 -17.76672 138.32985 9405822
-53.241753 -16.27684 139.11844 8682353
-53.926079 -16.538391 138.90111 8024681
-52.623657 -15.106363 139.84508 7826787
-53.346657 -15.397426 139.51361 7761512
-54.037239 -15.71923 139.1833 6511954
-52.06686 -14.282296 140.5802 8813680
-52.722736 -14.527301 140.27512 8550768
-44.301517 -13.312631 149.91527 10460050
-44.851501 -13.528133 149.52336 9934221
-45.619255 -13.667887 149.08035 12828597
-49.910122 -13.682074 143.15753 6380112
-50.942596 -13.684136 142.79366 8288365
-51.265957 -13.964876 141.54544 7827814
-51.980488 -13.975284 141.38899 8288365
-43.488026 -12.169099 150.48064 10262156
-44.269341 -12.555807 150.19984 8617847
-44.900616 -12.941269 149.94603 12828597
-43.617958 -11.363763 150.75441 8617847
-44.39748 -11.513779 150.56117 7302246
-42.915714 -10.453625 151.2139 8090475
-43.664425 -10.460093 151.07909 8749432
-42.30085 -9.1118536 151.8168 8090475
-43.012489 -9.4998007 151.54802 7169373
-43.743095 -9.6969881 151.34618 8090475
-42.327396 -8.2170134 152.14162 11248794
-43.053371 -8.4781408 151.91705 9406591
-41.739002 -7.1871519 152.62495 9341310
-42.362808 -7.4111648 152.43211 10985879
-43.206944 -7.5818429 152.21996 10788244
-41.626144 -6.4140053 152.92961 9801605
-42.455833 -6.4739027 152.7608 9341310
-41.172482 -5.2492342 153.43883 8420720
-41.798893 -5.474052 153.24524 8683636
-40.982342 -4.4144616 153.77986 9077881
-41.76976 -4.551487 153.5901 8552050
-40.601196 -3.2973027 154.25871 9209467
-41.145359 -3.5600753 154.06567 9603969
-40.675282 -2.5131316 154.53432 9209467
-41.140881 -2.6127882 154.41527 9209467
-40.768208 -1.5295173 154.88017 9209467
-122.61151 -75.458138 57.99913 5919050
-123.43091 -75.529289 57.479446 8024937
-124.09557 -75.685936 56.701912 6775383
-124.73763 -75.638115 55.836876 6511954
-125.44617 -75.577866 55.141529 6511954
-125.93343 -75.524658 54.273308 9143419
-126.70889 -75.464569 53.704777 10064265
-127.23772 -75.403938 52.668026 12631215
-127.9603 -75.351219 52.246105 9077369
-128.55524 -75.290794 51.336216 9537408
-129.19969 -75.237915 50.765446 9537408
-120.55 -74.361443 60.434746 7169890
-121.46057 -74.519455 59.745304 8748917
-122.12418 -74.802048 59.03183 6511698
-122.75445 -75.061501 58.336868 6972762
-129.33006 -75.208649 50.278095 10261899
-129.88272 -75.137909 49.84528 9538433
-130.39084 -75.036827 48.890778 9472640
-131.08389 -74.967621 48.431145 9406847
-131.69518 -74.882095 47.488205 9867142
-132.44785 -74.800072 46.770515 11906725
-133.0928 -74.721161 45.990601 7827814
-133.61142 -74.63958 45.020176 5919050
-134.49416 -74.565445 44.596748 8091498
-135.00632 -74.48365 43.614113 8288115
-135.63696 -74.404259 42.809772 9932423
-136.28864 -74.332504 42.174004 10984851
-136.70184 -74.264473 41.341831 7103068
-114.92155 -73.314934 66.920723 9736070
-115.52439 -73.603874 66.475945 11314842
-116.34235 -73.671631 65.931229 14143424
