# .PCD v0.7 - Point Cloud Data file format
VERSION 0.7
FIELDS x y z rgb
SIZE 4 4 4 4
TYPE F F F U
COUNT 1 1 1 1
WIDTH 1205
HEIGHT 1
VIEWPOINT 0 0 0 1 0 0 0
POINTS 1205
DATA ascii
-85.044815 -16.540316 130.77614 9932934
-85.900497 -16.455618 130.42957 11577502
-86.831512 -16.527681 129.98633 9735043
-87.700752 -16.54528 129.5925 9471871
-88.571777 -16.563538 129.19763 9537665
-89.619255 -16.586224 128.72247 9406333
-90.494095 -16.605755 128.32539 10788244
-91.370903 -16.626011 127.92712 9801349
-92.231155 -16.570374 127.56683 8551795
-93.172638 -16.479065 127.18473 8090473
-94.055847 -16.500898 126.78298 9405562
-94.984589 -16.333639 126.4372 9734784
-95.872696 -16.356501 126.03293 8090216
-67.137581 -15.359403 137.10916 7630179
-68.225677 -15.390156 136.90337 9274492
-69.016693 -15.413052 136.75484 8748660
-69.95816 -15.44039 136.57062 9801604
-71.003845 -15.574714 136.29433 8025200
-71.980591 -15.682137 136.05022 7892842
-72.88942 -15.895181 135.7851 9471872
-81.032303 -16.05024 132.75877 9537918
-83.346893 -15.710984 131.86563 9406078
-84.211624 -15.725485 131.47513 9209467
-85.077591 -15.740516 131.08376 9932934
-85.94519 -15.756151 130.6915 10656914
-87.020615 -15.683651 130.26779 9603715
-87.831406 -15.569329 129.98576 9998216
-88.794632 -15.625126 129.52092 8945783
-89.667862 -15.642685 129.12181 9800836
-90.625282 -15.583078 128.74405 9735555
-91.551277 -15.550117 128.36444 8551797
-92.43457 -15.469072 128.02466 7630699
-93.367935 -15.583197 127.53027 8682354
-94.259735 -15.503651 127.19315 9734527
-95.198967 -15.579048 126.72116 9735297
-96.086029 -15.600428 126.31203 7827558
-96.975388 -15.622401 125.90147 8156010
-97.926216 -15.700953 125.43242 8813686
-98.821777 -15.479113 125.15311 8945528
-99.810074 -15.542794 124.6681 9603455
-100.66273 -15.433891 124.37695 10260872
-101.60632 -15.364921 124.00923 8813428
-102.50966 -15.389647 123.58688 8287598
-103.41535 -15.414945 123.16302 8287598
-104.42174 -15.254059 122.85153 8616819
-105.43178 -15.09333 122.5383 9998984
-106.34784 -15.119887 122.10874 8682867
-107.2666 -15.146982 121.67754 8551281
-107.81931 -15.16352 121.41792 9011576
-61.636337 -14.171868 139.19934 8092019
-62.544491 -14.189012 138.98529 7367525
-63.454334 -14.206607 138.76973 6840669
-64.291733 -14.398274 138.39346 7433058
-65.423515 -14.500075 138.08669 7893608
-66.263542 -14.62233 137.83337 7695717
-67.197861 -14.646327 137.64926 7892839
-68.197136 -14.816178 137.34079 8748404
-69.262833 -14.701424 137.24054 9209467
-95.347702 -14.83571 127.23637 11379607
-96.23642 -14.855869 126.82461 9735297
-97.305618 -14.880772 126.32878 9668738
-98.198944 -14.90214 125.91403 10721426
-99.095757 -14.773639 125.62317 8813686
-99.995071 -14.720531 125.26801 9076858
-100.89505 -14.818609 124.78572 8089963
-101.7999 -14.76645 124.42749 8089963
-102.70421 -14.865933 123.942 8879990
-103.69247 -14.617526 123.71824 8879991
-104.53104 -14.687227 123.28032 9077626
-105.54435 -14.524714 122.96694 8946812
-106.4628 -14.55021 122.53734 9340799
-107.38438 -14.57634 122.10586 9603457
-108.30873 -14.603023 121.67273 8748660
-109.14133 -14.66603 121.24971 8814453
-110.07576 -14.616942 120.87589 8617330
-111.11516 -14.626451 120.47411 9669504
-112.05778 -14.376051 120.34757 8419695
-113.02928 -14.33027 119.99327 9077624
-113.83951 -14.390757 119.52058 7629923
-114.662 -14.453228 119.05728 8222060
-115.5918 -14.347375 118.75726 9735299
-116.58488 -14.279638 118.34401 10459022
-117.50615 -14.306224 117.85191 10722450
-118.45711 -14.33661 117.38457 8681843
-122.62602 -14.09902 116.07921 7564651
-123.17036 -14.114023 115.75402 9077889
-123.8974 -14.134231 115.31894 7564651
38.288635 -13.633435 177.5457 13551549
37.433605 -13.634142 177.72737 11117208
36.577797 -13.634852 177.90556 10656657
27.922487 -13.644146 173.60626 8090986
27.086573 -13.644854 173.73804 10261899
26.250113 -13.645564 173.86652 11380380
16.897039 -13.655488 169.56224 6840663
15.672464 -13.656551 169.6794 7827047
5.6782932 -13.667118 165.19276 7564651
4.4856129 -13.66818 165.22903 7893354
3.6903286 -13.66889 165.24878 8090730
-6.6468945 -13.679914 160.33586 8354674
-7.4184704 -13.680621 160.30179 8618101
-8.3827305 -13.681507 160.25371 9143932
-9.3466549 -13.682396 160.20027 10525072
-10.673033 -13.654837 159.77846 9734788
-11.420328 -13.630233 159.42822 11183003
-12.416918 -13.470008 159.01257 9735561
-13.210909 -13.342704 158.6813 8419703
-14.094332 -13.391816 158.2357 9274496
-15.052824 -13.286187 157.81641 8814458
-15.928198 -13.336067 157.37436 8485494
-16.768187 -13.273147 156.99492 8486007
-17.675726 -13.246797 156.56815 8486007
-18.689722 -13.180119 156.1064 10591637
-19.553732 -13.234058 155.69969 9933450
-20.58428 -13.184449 155.42751 8090987
-21.493341 -13.364608 155.11725 7301470
-22.452175 -13.492196 154.64214 7432031
-23.408348 -13.486733 154.42426 7760995
-24.279945 -13.554391 154.16084 10655627
-25.316113 -13.515566 153.98157 9011836
-26.404425 -13.699306 153.6638 8485749
-55.30381 -13.767072 141.61067 10261132
-55.845917 -13.775305 141.48914 9800838
-56.750381 -13.789356 141.28525 9932424
-57.837479 -13.806789 141.03864 8945529
-58.926548 -13.824757 140.78972 6643287
-59.835575 -13.840166 140.58055 7697004
-60.746109 -13.856111 140.36974 8946297
-61.657982 -13.872406 140.15739 5919050
-119.55535 -14.01752 117.9029 10985369
-120.45618 -14.04095 117.36961 8353134
-121.35878 -14.064816 116.83389 9998215
-122.08246 -14.084218 116.40321 12827311
-125.44937 -13.823766 115.64044 7103835
-126.18515 -13.844284 115.19997 9537659
-126.92247 -13.865101 114.75763 7695970
-127.84644 -13.891543 114.20206 5920074
-128.77269 -13.918455 113.64368 8089963
-129.51555 -13.940382 113.19473 10984593
-135.7767 -13.813114 111.64224 9011579
-136.31206 -13.813825 110.98697 7695979
-136.84489 -13.814532 110.32953 9011579
-146.15317 -13.823825 107.73022 8617337
-146.66969 -13.824535 107.02501 8287858
-147.18338 -13.825244 106.31781 7038307
-14.411173 -12.770208 158.33388 9405566
-15.146444 -12.74889 157.98811 8156273
-16.128424 -12.593618 157.57748 7959408
-16.982237 -12.506302 157.20126 8814971
-17.890871 -12.481561 156.77328 7828079
-18.795565 -12.45735 156.34705 13881544
-19.700651 -12.436002 155.95177 13157825
-20.621529 -12.426768 155.70244 8090987
-21.6138 -12.553021 155.39029 6906457
-22.440643 -12.789157 155.0809 6510930
-23.443851 -12.875307 154.78093 8089960
-24.262411 -12.963207 154.5294 11379348
-17.916391 -11.910132 156.99159 8157043
-18.822329 -11.887066 156.56433 14407888
-19.673071 -11.740446 156.23172 13881805
-20.649483 -11.857205 155.90913 8090987
-74.353325 -16.31661 135.36948 9012600
-74.971008 -16.462292 135.20592 8354158
-75.791656 -16.541103 134.89401 7564130
-76.849289 -16.367197 134.49258 8748404
-77.703537 -16.377869 134.10777 11510937
-78.387756 -16.386892 133.79971 14076861
-71.400078 -15.121345 136.53769 7564651
-72.158997 -15.143532 136.38609 7563619
-73.042961 -15.350302 136.06982 9932679
-74.075401 -15.611623 135.73145 9998984
-75.031822 -15.544297 135.60651 7827046
-75.985519 -15.614763 135.23694 7432544
-76.953438 -15.67119 134.76756 8222317
-77.809135 -15.583304 134.44823 10196621
-78.722656 -15.646971 133.99962 13222067
-79.640457 -15.712065 133.55659 11446429
-80.493759 -15.624479 133.22385 8814711
-81.518242 -15.499868 132.83351 10458763
-82.379547 -15.512687 132.44269 10590348
-83.189697 -15.433671 132.14357 9603456
-84.346085 -15.360398 131.68416 9998727
-85.210678 -15.374616 131.28801 9209467
-86.076706 -15.389366 130.89061 9604741
-86.770393 -15.401569 130.57204 8815227
-88.320816 -15.062707 130.16794 9735043
-89.018967 -15.075716 129.84685 9143162
-89.892906 -15.092425 129.44455 9735043
-90.593277 -15.10622 129.1219 9406078
-68.448746 -14.320054 137.67979 9011576
-69.391014 -14.344702 137.49356 10064776
-70.2715 -14.548619 137.17987 9801604
-71.319611 -14.613731 136.94385 11511709
-72.259254 -14.567783 136.81281 7563619
-73.31485 -14.634274 136.57437 9011321
-74.20343 -14.842118 136.25647 9077114
-74.971428 -14.865265 136.10255 7826790
-76.407425 -14.891831 135.60373 7564130
-77.092857 -14.899058 135.29321 7893354
-77.950378 -14.908548 134.90428 9340801
-78.98037 -14.920607 134.43658 10459793
-79.839706 -14.931217 134.04591 9801606
-80.827164 -14.798 133.71883 9209211
-81.723541 -14.810112 133.31049 9406332
-82.581932 -14.748999 132.98038 10129800
-83.535385 -14.799463 132.51443 9735043
-84.401131 -14.812623 132.11882 9143418
-85.345642 -14.643834 131.84131 9735814
-86.325363 -14.705687 131.35355 10065035
-87.207123 -14.621877 131.03207 8946813
-88.108154 -14.644086 130.61319 9801094
-89.086227 -14.523283 130.27989 10458510
-89.962555 -14.539355 129.87708 10326924
-90.929382 -14.594745 129.40109 9472385
-91.807281 -14.537676 129.0589 9538947
-92.778198 -14.59436 128.58009 8881019
-93.661804 -14.612639 128.17223 8420213
-94.618492 -14.557215 127.8588 10656141
-95.654312 -14.260866 127.83678 12694952
-96.493858 -14.347512 127.29037 9275003
-97.415977 -14.296474 126.97607 9669248
-98.266174 -14.385549 126.43805 9274237
-99.241531 -14.191224 126.30608 8155756
-100.29509 -14.212728 125.76688 9340030
-101.17448 -14.231127 125.31526 8089963
-102.05544 -14.249962 124.86131 8090219
-102.93769 -14.269182 124.40536 8090987
-109.49976 -14.092126 122.11855 9472383
-110.40117 -14.11452 121.64325 9077624
-111.12373 -14.132852 121.2612 9735297
46.212368 -13.3983 182.1317 10459023
45.367783 -13.429151 182.10706 7761254
35.93539 -13.635387 178.03612 8880503
35.078056 -13.636101 178.20682 8419952
25.622377 -13.646098 173.95973 9144187
24.78483 -13.646811 174.08083 8420720
24.156225 -13.647346 174.16916 8815222
14.651468 -13.657441 169.77054 8879991
13.629778 -13.658332 169.85504 9143419
3.2926235 -13.669246 165.25705 9209467
2.4972782 -13.669958 165.27039 9405050
1.3040638 -13.671029 165.28375 9012601
0.11076164 -13.646512 164.97905 8815222
-0.48385048 -13.624144 164.70154 9407360
-1.5692234 -13.485108 164.23451 12630704
-2.4531536 -13.35431 163.86134 12301740
-3.2346859 -13.326392 163.49596 10064778
-4.2068119 -13.292176 163.04121 10196362
-5.174181 -13.258506 162.58859 9998215
-5.9443035 -13.2321 162.22807 9077370
-6.9024296 -13.199627 161.7794 9077370
-7.791296 -13.234666 161.33684 8814453
-8.6111355 -13.336887 160.9005 9736067
-9.6473942 -13.399253 160.37595 10525072
-10.430025 -13.405875 159.99606 10393742
-11.431479 -13.245125 159.57828 11183003
-12.177153 -13.221584 159.22847 11380127
-26.430805 -13.324445 153.81526 8156785
-27.329466 -13.506553 153.50705 9341569
-28.238972 -13.501031 153.26648 8946814
-29.329288 -13.49503 152.97792 13617346
-30.237017 -13.490516 152.73744 9998214
-31.143976 -13.486567 152.49704 7037274
-32.231503 -13.48238 152.20848 7300446
-33.137131 -13.479397 151.96799 7432800
-34.04298 -13.477214 151.73076 8353646
-34.944012 -13.667397 151.47531 9011320
-62.20602 -13.882344 140.02913 5919050
-62.754501 -13.892483 139.90034 7367525
-63.670307 -13.909784 139.68449 8617081
-64.77124 -13.9311 139.42352 8946300
-65.69059 -13.949271 139.20421 8814710
-66.611694 -13.967946 138.98311 9340030
-67.719505 -13.99087 138.71552 6839895
-68.644661 -14.010481 138.49071 7300958
-69.200653 -14.022531 138.35501 9209467
-104.12752 -13.967144 124.9214 9472640
-105.01871 -13.986839 124.46005 9472898
-105.91158 -14.007007 123.99628 9341570
-106.80595 -14.027574 123.53044 9998985
-107.70209 -14.048643 123.06213 11182745
-108.59995 -14.070166 122.59163 10525072
-112.57492 -13.830823 121.66267 8090987
-113.48811 -13.854114 121.17839 7762022
-114.40379 -13.877808 120.69208 7366495
-115.1378 -13.897155 120.3013 7761253
-116.0576 -13.921738 119.81034 7827047
-116.97949 -13.946857 119.31696 8813685
-117.90384 -13.972412 118.82069 9537664
-118.83034 -13.99847 118.32175 10459022
-123.71536 -13.800443 117.10948 10393745
-124.41784 -13.801337 116.36288 7564651
-124.89845 -13.808606 115.96952 10591383
-134.42363 -13.811431 113.26863 10260875
-134.83148 -13.811916 112.78241 8616307
-135.3727 -13.81268 112.13177 7564135
-145.24062 -13.822627 108.95786 10722193
-145.76324 -13.823341 108.25726 11906725
-155.68317 -13.833386 104.93102 8090736
-156.06105 -13.833923 104.36819 8090736
46.14082 -12.564082 182.46623 9537664
-3.4352627 -12.728572 163.64047 9209467
-4.2134533 -12.702468 163.27603 10854036
-5.2484341 -12.537283 162.84381 9275004
-6.0725117 -12.406124 162.4996 8616563
-6.9923611 -12.455174 162.0365 8484977
-7.9075146 -12.504141 161.57567 8748149
-8.8178158 -12.553523 161.11702 9932680
-9.7634144 -12.524273 160.67305 10130058
-10.598551 -12.443558 160.30318 12038566
-11.499239 -12.520023 159.83821 12761778
-12.387041 -12.445415 159.44046 12498606
-13.315733 -12.418332 159.00381 9669510
-14.206392 -12.316066 158.61581 10260875
-15.093252 -12.214601 158.22932 8747893
-15.89477 -12.345534 157.79015 7564651
-22.654728 -12.219712 155.23796 6510930
-23.637398 -12.363388 154.92181 7432031
-24.508242 -12.508012 154.6351 12694184
-25.381948 -12.577382 154.37596 10457994
-26.478214 -12.570128 154.08626 8880505
-27.390665 -12.564581 153.84494 10460052
-28.302143 -12.559492 153.60365 9802122
-29.394804 -12.553978 153.31425 15854046
-30.304514 -12.549844 153.07314 12827308
-31.1535 -12.65406 152.8075 8682097
-32.213459 -12.768587 152.48166 6379344
-33.181347 -12.916069 152.168 6511954
-7.3104115 -11.819486 162.13976 8089963
-7.8836498 -11.802446 161.87035 9274494
-8.9325848 -11.674198 161.41653 9340802
-9.7875767 -11.552245 161.0537 9801094
-10.730539 -11.525817 160.60988 13748161
-11.669382 -11.4999 160.16792 13024949
-12.603605 -11.474495 159.72791 13287865
-13.533815 -11.449636 159.28961 9931910
-14.387144 -11.388709 158.90292 9800324
-15.315283 -11.531068 158.39819 9273980
-16.10853 -11.574403 157.9984 8749176
-17.022787 -11.551084 157.56718 9209728
-17.941999 -11.337279 157.21045 8486007
-18.849104 -11.315331 156.78212 13157049
-19.943975 -11.197906 156.35454 9867141
-20.749611 -11.32382 156.08296 7959659
-21.774853 -11.46754 155.75548 6050893
-22.695644 -11.460404 155.51253 5984843
-23.615055 -11.453725 155.26976 6445137
-24.716822 -11.44623 154.97868 7957862
-25.633734 -11.440422 154.73628 6839895
-26.549511 -11.435061 154.49399 7696230
-27.587803 -11.537699 154.17841 7960432
-28.548103 -11.614067 153.89352 9012863
-29.447346 -11.799109 153.58406 14669259
-11.12319 -10.932237 160.66019 14603214
-11.68656 -10.917587 160.39467 13353658
-12.701708 -10.736376 159.97847 12432808
-13.560091 -10.676229 159.58907 11116180
-14.539186 -10.507388 159.1853 9800324
-15.418642 -10.438292 158.78931 9274748
-16.338484 -10.416969 158.35463 10722962
-17.254683 -10.396064 157.92151 11184026
-18.119066 -10.424567 157.49338 9538950
-19.066343 -10.547095 156.98738 14472652
-19.9764 -10.53014 156.60329 9012605
-20.900074 -10.521921 156.34441 7367781
-21.824095 -10.515098 156.10043 6973024
-22.931234 -10.50738 155.808 6050893
-23.852484 -10.501378 155.56453 5261887
-24.772455 -10.495743 155.32118 6510930
-25.679764 -10.680819 155.00955 6510930
-26.230415 -10.677766 154.8638 8617843
-16.553865 -9.6417589 158.56367 9801860
-17.287695 -9.6263409 158.2162 10459790
-18.325937 -9.5407219 157.7504 7894639
-19.111719 -9.5888186 157.35228 10131087
-20.022455 -9.5728216 156.95641 9472900
-21.02969 -9.5098295 156.69032 8090219
-21.863661 -9.7505379 156.37735 7236453
-22.87512 -9.8396463 156.07405 5656133
-23.700426 -9.9301538 155.81987 4867385
-19.874941 -8.8065405 157.30095 9736329
-70.687241 -14.055231 137.9897 11578015
-71.618683 -14.076268 137.75917 10787215
-72.552574 -14.097774 137.52667 11774367
-73.488327 -14.119714 137.29253 10459023
-74.392654 -14.278237 136.83772 7497825
-75.444756 -14.417303 136.46062 6708309
-76.313156 -14.472202 136.07265 6971737
-77.264618 -14.327721 135.82117 7959408
-78.200859 -14.371859 135.33646 9735558
-79.057823 -14.380752 134.93866 10985366
-79.915398 -14.390131 134.53957 12827826
-80.909119 -14.312284 134.1812 9867141
-81.90049 -14.234105 133.81459 9209211
-82.756126 -14.244003 133.40291 8682867
-83.612198 -14.254184 132.98964 9406078
-84.468658 -14.264901 132.57471 10589840
-92.26088 -14.063978 129.82758 10855060
-92.95578 -14.075459 129.48067 10855060
-93.999527 -14.09318 128.95845 9011579
-94.696144 -14.105395 128.60899 11905692
44.834927 -13.148316 182.21144 7563619
44.114819 -13.362748 182.11415 9077370
43.186092 -13.347513 182.10582 8484977
42.329735 -13.408924 182.06783 10458246
34.434677 -13.636637 178.33221 8682867
33.790737 -13.637176 178.45506 7563619
33.146313 -13.637714 178.57581 7563619
23.527399 -13.647884 174.25485 9274748
22.478605 -13.648781 174.39268 9866374
12.403231 -13.659405 169.94865 8814453
11.380602 -13.660304 170.02 9735043
10.346373 -13.646011 169.89598 9800581
9.2277584 -13.465309 169.44617 8024170
8.4617863 -13.366573 169.11684 7761512
7.628561 -13.33361 168.72855 9932937
6.799509 -13.30109 168.34213 12826543
5.7691517 -13.261179 167.86166 8486520
4.7446728 -13.221902 167.38374 8024681
3.9296741 -13.190992 167.00343 6971994
3.1856327 -13.2299 166.6291 6971994
2.1094112 -13.323197 166.0728 8486000
1.1070004 -13.285847 165.6048 9144187
0.37568092 -13.391459 165.20967 9275517
-0.48466682 -13.227489 164.86115 9407360
-1.2752438 -13.199031 164.49171 14077885
-35.243992 -13.387499 151.52538 9077371
-36.066425 -13.486005 151.34283 9011835
-36.989464 -13.491696 151.17667 9669762
-38.09795 -13.499181 150.97684 10787987
-39.207516 -13.507316 150.7766 8682867
-40.11507 -13.702631 150.54314 7893354
-69.757538 -14.03463 138.21855 11906724
-85.340469 -13.964058 133.23317 9932934
-85.857986 -13.970662 132.98161 9932934
-86.721024 -13.981968 132.56093 10065035
-87.584656 -13.99366 132.1386 9407363
-88.449051 -14.005819 131.71449 9736329
-89.487114 -14.020866 131.20332 9406078
-90.353035 -14.033879 130.77541 10129545
-91.219734 -14.047359 130.34561 9670024
-91.913742 -14.058404 130.00063 10788247
-95.296722 -13.794556 129.42365 10458507
-95.998627 -13.806842 129.07086 10064007
-97.052788 -13.82571 128.53943 10327176
-97.932617 -13.841842 128.09447 9932419
-98.81369 -13.858474 127.64733 9208955
-99.695831 -13.875443 127.19834 8879479
-100.57947 -13.892945 126.74712 8089963
-101.46431 -13.9108 126.29391 9340030
-102.3506 -13.929157 125.83843 9143675
-103.23822 -13.947916 125.38102 9670019
-109.27914 -13.785055 123.95721 8682867
-110.02277 -13.785954 123.29698 10722450
-110.77568 -13.788459 122.64709 9011832
-111.66389 -13.808134 122.14436 11248022
-121.72556 -13.797934 119.17813 9735046
-122.15482 -13.798472 118.73762 10064006
-122.86678 -13.799337 118.00008 12629930
-133.32692 -13.809961 114.55771 9800581
-134.01384 -13.810893 113.75328 9537923
-144.0524 -13.821062 110.52507 8814451
-144.45024 -13.821552 110.00401 8814451
-144.84644 -13.822041 109.48174 11182484
-154.79379 -13.832132 106.23895 8221807
-155.30351 -13.832851 105.49262 8090736
-157.6093 -13.500162 105.4028 8484973
45.859081 -12.256263 182.58536 7563619
45.135208 -12.472249 182.48743 8156012
44.066921 -12.410309 182.49565 9801093
43.028656 -12.553171 182.42207 10458506
7.4312229 -12.715358 168.88287 10459281
6.602293 -12.684505 168.49591 8881021
5.5043278 -12.508923 168.03754 8420469
4.753191 -12.414352 167.71373 8221548
3.9365711 -12.385347 167.33189 7169372
2.9209118 -12.435811 166.82202 7301214
1.9972897 -12.575403 166.32054 7498591
1.1083393 -12.486964 165.92776 7762277
0.3091259 -12.459368 165.5538 8552307
-0.635252 -12.377431 165.13164 9276034
-1.5884113 -12.451718 164.64232 11446684
-2.4201946 -12.446367 164.24361 10131342
-3.340189 -12.43588 163.80446 9209467
-4.4124241 -12.302258 163.34158 11709345
-4.9941654 -12.283576 163.0688 9209467
-31.423151 -12.168722 152.91808 8484718
-32.415688 -12.259645 152.61911 6840151
-33.337543 -12.313504 152.35246 5787976
-34.160336 -12.584697 152.03523 7761509
-35.22229 -12.541143 151.84177 8814457
-36.331783 -12.547124 151.64243 9143422
-37.256985 -12.552566 151.476 10393486
-38.08839 -12.784152 151.24274 10656657
-38.889416 -12.940405 151.04265 8682867
46.16209 -11.576818 182.86273 8222320
44.991104 -11.559735 182.85132 10196107
43.893925 -11.619888 182.81012 10459279
3.3308392 -11.759006 167.29266 5919050
2.7223225 -11.738853 167.00757 6511954
1.9141674 -11.712213 166.62878 6511954
1.1100101 -11.485216 166.33287 7827300
0.10934639 -11.45354 165.86337 7301986
-0.88611794 -11.422416 165.39616 8092019
-1.6783123 -11.397933 165.02422 8552569
-2.5976048 -11.436029 164.56583 8880249
-3.4946308 -11.590426 164.07121 9209467
-4.4217205 -11.512723 163.65572 10459278
-5.2821407 -11.430721 163.27415 9538432
-6.2119465 -11.508731 162.79456 9077882
-7.0890789 -11.355524 162.43362 8616563
-8.0863895 -11.209646 162.01184 9011838
-8.977026 -11.119769 161.61885 9011838
-27.854996 -11.04923 154.29086 7565675
-28.586468 -11.045856 154.09697 7565675
-29.486914 -11.231342 153.787 13485499
-30.568111 -11.41623 153.42911 13419190
-31.479332 -11.413046 153.18719 6708566
-32.38974 -11.410251 152.94493 10195844
-33.481434 -11.407382 152.65378 7300700
-34.392097 -11.40589 152.41776 9142906
-35.316605 -11.409466 152.24287 9735045
-36.311954 -11.698137 151.95943 9143422
46.53553 -10.208612 183.41724 10261124
45.901226 -10.494992 183.29274 9932934
44.916889 -10.721738 183.18648 10064520
-0.29077339 -10.840347 165.918 6511954
-0.88802528 -10.822733 165.63722 8092019
-1.8798351 -10.660787 165.22459 7697005
-2.7480412 -10.609421 164.82687 8616822
-3.651598 -10.544247 164.41771 10064007
-4.5507679 -10.479868 164.01036 13223098
-5.4829311 -10.533731 163.53937 9670275
-6.3735714 -10.470196 163.13576 9209467
-7.2599735 -10.407393 162.73389 8880249
-8.1784077 -10.462023 162.2692 8682874
-9.0568447 -10.400053 161.87083 8288116
-9.9550762 -10.52378 161.38802 9011835
-10.820044 -10.550574 160.96034 14142919
-11.817453 -10.292068 160.58394 13090742
-12.642633 -10.246264 160.20474 12630186
-13.579859 -10.094694 159.81422 12103071
-14.137789 -10.081738 159.55057 9405566
-25.886627 -10.299175 155.09792 7169373
-26.792624 -10.484699 154.78651 7762278
-27.7092 -10.480292 154.54364 8288881
-28.624903 -10.476244 154.30089 9604743
-29.539743 -10.472579 154.05821 10262415
-30.63649 -10.468668 153.76709 8091761
-31.549589 -10.465775 153.52409 5787464
-32.461926 -10.463265 153.28079 8616815
-33.555969 -10.460687 152.98885 6840150
-34.4534 -10.649134 152.68571 7038307
-35.008358 -10.650872 152.57767 7039331
46.628418 -9.2901011 183.78658 9471867
46.133839 -9.5145311 183.68927 8682867
-4.6354733 -9.9217615 164.19475 13815234
-5.6085453 -9.8968468 163.73582 9209467
-6.38661 -9.679225 163.44868 9209467
-7.4075184 -9.5696878 163.00084 9867400
-8.3148327 -9.4352932 162.61784 9867145
-9.2235508 -9.3651237 162.20816 11116952
-10.138033 -9.4494457 161.73341 8814454
-10.978052 -9.3743629 161.35884 12498088
-11.914583 -9.5490046 160.83699 12498604
-12.852514 -9.528038 160.39343 12432036
-13.712763 -9.4703197 160.00212 11774106
-14.602545 -9.5286789 159.5497 10655886
-15.455847 -9.4716616 159.16151 9472895
-16.289667 -9.3576365 158.80562 9472895
-17.304228 -9.2405558 158.36394 10459790
-17.853586 -9.2295895 158.10364 9933193
-22.078625 -9.1746426 156.53656 6182479
-23.069494 -9.3219471 156.21687 5590853
-23.947544 -9.4699574 155.92696 5327937
-24.828342 -9.5416346 155.66505 5393217
-25.933254 -9.5360441 155.37241 6643285
-26.852913 -9.5317516 155.12872 6182478
-27.77149 -9.5277805 154.88519 8946551
-28.872583 -9.5235186 154.59303 12498859
-29.789259 -9.5203028 154.34962 8091761
-30.644846 -9.626502 154.08105 6907488
-31.71278 -9.7431955 153.75142 5787464
-32.688034 -9.8929825 153.43411 7563872
-9.6702709 -8.6169586 162.29483 10984849
-10.241053 -8.6051178 162.02446 8814452
-11.26893 -8.4268808 161.60103 12103073
-12.049955 -8.624074 161.14503 12235431
-12.883917 -8.5513849 160.77243 12103071
-13.819395 -8.5330706 160.32893 9997695
-14.750944 -8.5151062 159.88724 11050390
-15.678137 -8.4974957 159.44748 10327692
-16.601606 -8.480279 159.00935 10196618
-17.520891 -8.46346 158.57314 9604485
-18.436586 -8.4469538 158.13849 7894640
-19.305155 -8.3835106 157.74545 8815484
-20.30208 -8.3397055 157.32768 9669507
-21.190409 -8.4113045 157.06053 7497825
-22.118708 -8.4060812 156.81488 6248015
-23.045588 -8.4011116 156.56947 6511955
-24.156208 -8.3955736 156.27527 4998972
-25.080421 -8.3913231 156.03032 4735799
-26.003475 -8.387351 155.7856 5393218
-26.982868 -8.4474058 155.5018 5392706
-27.827734 -8.6677656 155.19354 6446162
-28.924454 -8.7596922 154.86641 12170149
-13.284502 -7.7608504 160.89836 12103071
-14.033384 -7.7476492 160.54282 9735040
-14.97294 -7.5360241 160.17537 11050648
-15.788767 -7.5614095 159.77191 9604485
-16.641581 -7.5083532 159.38228 10986392
-17.562891 -7.4935355 158.94426 8552312
-18.480661 -7.4790144 158.50781 9472899
-19.394415 -7.464839 158.07315 9999499
-20.308283 -7.4522786 157.66699 9143163
-21.23864 -7.4469485 157.41025 6774102
-22.354818 -7.4415245 157.11455 6445392
-23.28355 -7.4373131 156.86841 6775126
-24.134542 -7.4722037 156.62825 5327937
-25.125828 -7.6223679 156.30739 4340785
-25.68078 -7.6202202 156.16013 4340785
-16.850359 -6.9205937 159.51886 8355190
-17.772406 -6.9069767 159.07999 8552312
-18.627867 -6.6613159 158.76686 8749433
-19.556501 -6.6226778 158.33488 9275259
-20.435373 -6.4829946 158.0031 8485231
-21.350021 -6.7111559 157.6572 6510930
-22.297245 -6.7651939 157.38425 7564126
-23.129377 -6.8585835 157.12709 8288104
41.817657 -13.100045 182.18379 11905692
41.007988 -13.358034 182.06764 10590347
39.952312 -13.296788 182.07578 9603970
39.10313 -13.358943 182.03758 9603970
32.501511 -13.638254 178.69391 7958633
31.42584 -13.639156 178.88571 8156785
21.42909 -13.649682 174.52467 9208187
20.297861 -13.477966 174.68768 9143162
19.277731 -13.398243 174.31682 8288366
18.385244 -13.360192 173.90202 8880247
17.4979 -13.322684 173.48949 11511968
16.615545 -13.285724 173.07918 10788246
15.738173 -13.249207 172.67105 8683125
14.865709 -13.213232 172.26508 9406847
13.997984 -13.177754 171.86121 9406847
13.128614 -13.349709 171.37282 9340542
12.270731 -13.31462 170.97353 8550257
11.20503 -13.271538 170.47734 9471615
10.145876 -13.22908 169.98396 9734788
9.5136852 -13.204001 169.68938 9011065
-40.150875 -13.326669 150.67566 13024949
-41.059383 -13.522468 150.44182 7630441
-42.164204 -13.529861 150.21149 6511962
-43.079826 -13.534694 149.9991 6643804
-43.995213 -13.53976 149.78365 8092018
-44.963081 -13.631269 149.41588 9868171
-45.9165 -13.719247 149.0027 14867918
-46.812069 -13.720151 148.72319 10985622
-47.884407 -13.721235 148.38101 6971481
-48.77639 -13.722142 148.09 10261644
-49.666302 -13.723045 147.79341 7563875
-50.731785 -13.724133 147.43059 5524804
-51.618008 -13.725039 147.12245 4275765
-52.502056 -13.725944 146.80882 3749937
-53.560509 -13.727031 146.42548 4078902
-54.440533 -13.727938 146.10046 5920850
-55.318336 -13.728843 145.76984 9933193
-56.369308 -13.729931 145.36623 9933193
-57.242798 -13.730838 145.02429 9538437
-58.114201 -13.731743 144.67671 8682867
-59.157055 -13.73283 144.25304 7564130
-60.023979 -13.733738 143.89436 5919562
-60.888466 -13.734642 143.53008 8288365
-61.922886 -13.735727 143.08638 8222573
-62.782848 -13.736635 142.71106 8353902
-63.639942 -13.737538 142.33022 8748661
-64.66597 -13.738624 141.86664 7564394
-65.518349 -13.739529 141.47488 9998218
-66.368217 -13.740432 141.07759 10261646
-67.384842 -13.741516 140.59436 7695975
-68.229652 -13.742421 140.18626 7300958
-69.071533 -13.743321 139.77272 7959656
-70.078819 -13.744404 139.26996 9275516
-70.951805 -13.752316 138.91673 9537920
-71.889404 -13.77294 138.68585 9274235
-73.017426 -13.798254 138.40662 11708316
-73.959885 -13.819884 138.17223 6510930
-74.904816 -13.84202 137.9359 9208443
-75.852081 -13.864556 137.69778 6905688
-76.736801 -13.87591 137.34195 8616049
-77.767654 -13.884374 136.85689 9735558
-78.627075 -13.89184 136.4511 8617336
-79.486565 -13.899739 136.04378 10789012
-80.346298 -13.908023 135.63506 10919829
-81.206436 -13.916741 135.22464 9209211
-82.238983 -13.927742 134.73024 9537660
-83.099937 -13.937312 134.31648 10195335
-83.961365 -13.947284 133.90108 10326924
-84.823112 -13.957654 133.48413 10129545
-91.041733 -13.765785 132.1107 7564651
-91.676361 -13.766511 131.67056 10196367
-92.624542 -13.767596 131.00481 11314590
-93.411072 -13.7685 130.44501 8551799
-94.245117 -13.776758 129.9503 8024944
-94.9459 -13.788577 129.59962 7564651
-107.02441 -13.782346 125.91043 9209984
-107.62894 -13.78307 125.39333 8682867
-108.38145 -13.783974 124.74335 12236458
-108.83113 -13.784516 124.35126 10459534
-119.99219 -13.795765 120.92412 10985369
-120.57253 -13.796489 120.34468 10985369
-121.29449 -13.797393 119.61688 9998731
-131.93892 -13.808189 116.15436 9208444
-132.63548 -13.809044 115.35831 9011064
-142.9816 -13.819586 111.90695 9012349
-143.65236 -13.820472 111.04446 10327691
-152.69325 -13.791957 108.35017 7761509
-153.38333 -13.586573 108.009 9208443
-154.11404 -13.605861 107.41763 8484721
-155.1093 -13.414951 107.00468 9142651
-156.14726 -13.449969 106.33972 8419699
-156.98155 -13.478504 105.80518 7761512
42.595947 -12.206915 182.55434 9734523
41.879604 -12.422819 182.45653 10524039
40.954285 -12.409431 182.44754 9471351
40.101364 -12.472548 182.40887 8681843
18.190134 -12.719461 174.06651 9209467
17.524195 -12.69277 173.75638 11578016
16.64039 -12.657507 173.3447 11183003
15.639662 -12.366538 172.9798 9275261
14.677298 -12.37144 172.51396 8617331
13.721132 -12.376509 172.05112 9537921
12.814314 -12.567313 171.53714 10392717
11.866549 -12.471785 171.11885 9471359
11.01375 -12.439574 170.72089 9997959
10.165415 -12.407809 170.32478 9208444
9.3214436 -12.376457 169.93069 8287342
8.4778538 -12.550241 169.45396 8616307
7.5407619 -12.413649 169.05751 9801350
6.40135 -12.270496 168.5661 8092019
5.7820225 -12.248455 168.27654 8092019
-38.301044 -12.276452 151.39243 9011832
-39.345642 -12.519415 151.11707 9406334
-40.222496 -12.573042 150.94138 11445657
-41.150974 -12.580426 150.77361 9406332
-42.266376 -12.589811 150.57185 7235684
-43.177677 -12.787116 150.33696 7170404
-43.903027 -12.983089 150.13564 7565417
-154.22765 -12.92659 107.77184 9734788
-155.13126 -12.725421 107.29514 9274494
-155.96225 -12.751954 106.76349 8880250
-156.79654 -12.778892 106.22961 7893097
-157.63417 -12.806233 105.69342 8090474
43.611874 -11.312569 182.92906 10064265
42.891869 -11.530078 182.83054 9471351
41.82737 -11.470209 182.838 10524039
41.014927 -11.731432 182.72047 8681835
14.263399 -11.728918 172.57384 8090987
13.612627 -11.705461 172.26962 9274492
12.748857 -11.674529 171.8658 10392461
11.895472 -11.436508 171.55057 9668738
11.040445 -11.406967 171.15042 10458509
10.063742 -11.332271 170.70982 10063752
9.0479031 -11.380363 170.20082 9537409
8.1675434 -11.57341 169.69865 10064520
7.2439976 -11.483468 169.28983 10064777
6.4131794 -11.455635 168.90067 8618105
5.5865421 -11.4282 168.51334 8353648
4.6766338 -11.340367 168.11024 7892840
3.8086758 -11.437733 167.65266 6050636
2.724577 -11.335494 167.17145 6511954
1.9156055 -11.309754 166.7919 7367006
-36.522736 -11.1885 152.11015 9340544
-37.356758 -11.42005 151.87643 10064012
-38.285194 -11.425551 151.70946 9143420
-39.400219 -11.432647 151.50868 8288109
-40.415318 -11.385417 151.34579 8617072
-41.242878 -11.635354 151.10646 8879987
-42.155529 -11.832058 150.87148 8814456
-155.5687 -12.047654 107.32054 10261132
-156.3148 -11.915937 106.91179 8814457
-157.18546 -11.632968 106.49185 9734783
-158.02597 -11.657961 105.95488 8418923
44.820232 -10.110372 183.43028 8682867
43.762478 -10.344921 183.31972 9143418
42.673336 -10.540579 183.2242 9866367
41.792309 -10.833453 183.09294 10787211
9.7803097 -10.744121 170.81061 9011579
8.9350986 -10.717171 170.41412 9077370
8.0980129 -10.484707 170.10446 9670019
7.2609806 -10.458998 169.71141 9670019
6.4280796 -10.433635 169.32025 10788243
5.3929882 -10.402545 168.83397 9208700
4.363821 -10.371882 168.35028 5984843
3.5034084 -10.4683 167.89671 5655878
2.7291012 -10.526509 167.50008 6182734
1.8321438 -10.442493 167.10165 8024678
0.86038017 -10.522323 166.60114 9538174
-0.051771168 -10.365365 166.22485 6972505
-0.88994408 -10.221425 165.87895 7697002
-1.8034458 -10.156368 165.46497 7433577
-2.6743069 -9.9729719 165.11931 7038307
-34.484161 -10.269814 152.82001 7038307
-35.472904 -10.425231 152.57849 7039075
-36.510426 -10.468044 152.37834 9537923
-37.555222 -10.435398 152.20473 10919063
-38.44178 -10.516262 152.01735 9603462
-39.410164 -10.522015 151.84319 7630437
-40.215923 -10.679292 151.64192 7038298
-158.12932 -10.730517 106.29948 8681835
-158.63057 -10.510896 106.08267 8681835
45.697273 -9.1643295 183.82301 8946039
44.647144 -9.3133316 183.74739 9472383
43.643993 -9.3325968 183.72409 10064004
6.0215359 -9.8066559 169.37733 10130057
5.1935482 -9.7833376 168.98773 9340542
4.302412 -9.6222677 168.62323 6182222
3.5512257 -9.5338335 168.29692 6379344
2.6129894 -9.468112 167.8712 6050636
1.6386585 -9.5235815 167.37926 8090217
0.71038246 -9.4587355 166.95804 11775138
-0.092847824 -9.4379396 166.5793 8222572
-1.0916462 -9.4124689 166.1082 8090988
-2.0852718 -9.3874369 165.63947 7038307
-2.914484 -9.4866819 165.19977 7827564
-3.7461147 -9.4888659 164.79807 10458766
-4.7205296 -9.3625536 164.37947 14471877
-5.6172962 -9.3011246 163.97202 9801861
-6.5898075 -9.0799322 163.59258 8946553
-7.3623333 -9.062356 163.22733 8486262
-30.915709 -9.1356716 154.19269 6643801
-31.915688 -9.228404 153.89017 5590085
-32.731777 -9.3218527 153.63664 6445393
-33.630787 -9.510416 153.32521 7169375
-34.731274 -9.5099916 153.05351 9012094
-35.660839 -9.5133724 152.88179 7630443
-36.592098 -9.5174408 152.7148 7498856
-37.647465 -9.6313839 152.4852 9998219
-38.60857 -9.9086447 152.21208 10261391
46.485313 -8.3659763 184.15468 10130313
45.541225 -8.3561821 184.14442 9472127
44.670483 -8.42414 184.1042 10393485
2.3308582 -8.8911209 167.96805 7300190
1.5189533 -8.8710871 167.58485 8550770
0.64364433 -8.7145834 167.22615 11183001
-0.29430962 -8.6248741 166.81033 8814709
-1.2951298 -8.399662 166.41884 9735044
-2.0913677 -8.3818426 166.04231 8221807
-2.8824673 -8.5654478 165.58696 7038307
-3.8678684 -8.5433989 165.12094 9537921
-4.8483562 -8.5217428 164.6571 11906208
-5.6289043 -8.5046978 164.2878 9077625
-6.5998974 -8.4837923 163.82826 8683639
-7.5662632 -8.4632645 163.3708 8486262
-8.3357372 -8.4471579 163.0065 8815226
-9.2176495 -8.3895025 162.60469 9472384
-10.251196 -8.2108717 162.1787 10261383
-10.821104 -8.199729 161.90857 10984849
-27.318624 -7.9986968 155.5809 5392706
-28.108791 -8.1238985 155.32306 5920074
-28.950464 -8.3768692 155.0033 9735809
-29.856047 -8.5654449 154.69023 8618105
-30.773743 -8.5629063 154.44548 7104351
-31.87405 -8.5603161 154.1519 5392706
-32.790253 -8.5584364 153.90727 7367264
-33.705845 -8.5568876 153.66273 11117210
-34.808949 -8.5566425 153.39124 11183260
-35.7407 -8.5598097 153.21968 8814715
-36.470955 -8.7539377 153.01822 6510930
46.578362 -7.4411888 184.52658 9998727
45.703449 -7.5103745 184.48575 9735299
-3.1654644 -7.7952123 165.76135 8945528
-4.0732479 -7.7365794 165.34758 9735298
-4.8611126 -7.5201983 165.05513 8682867
-5.8384876 -7.5015297 164.59166 9340797
-6.8110752 -7.4831939 164.13031 9406849
-7.5854435 -7.4688039 163.76291 8223090
-8.548872 -7.4511623 163.30571 8683383
-9.5078678 -7.433836 162.85049 10393228
-10.35465 -7.3622856 162.47124 10721934
-11.268003 -7.4521408 161.99481 12169381
-12.168116 -7.3871889 161.58725 11775395
-12.959223 -7.3737998 161.21135 10853778
-14.047037 -7.355659 160.69431 10458507
-14.607519 -7.3464565 160.42799 10261646
-24.592672 -7.2389879 156.59375 4867385
-25.14855 -7.2369399 156.44626 4603701
-26.138506 -7.3874245 156.12558 4735287
-27.170921 -7.422492 155.83698 5524804
-28.093729 -7.4196672 155.59167 5920074
-29.002481 -7.6091537 155.27736 6183246
-30.107016 -7.6063066 154.98277 5920076
-31.026581 -7.6041827 154.73732 6050892
-31.94545 -7.6023793 154.492 5655878
-33.005043 -7.552681 154.22697 9143420
-33.836506 -7.8296561 153.9005 12038311
-34.770527 -7.8869109 153.64722 10591124
46.932606 -6.2823567 184.99608 8681843
46.648312 -6.7454791 184.80629 9471871
-6.8249912 -6.6833467 164.44633 8090474
-7.7941418 -6.6673803 163.98573 7499625
-8.7631626 -6.4521861 163.60553 7563874
-9.5316601 -6.4403057 163.24001 9735299
-10.487875 -6.4256744 162.78502 10853778
-11.439859 -6.411365 162.33199 11051416
-12.312666 -6.3589253 161.9325 10920086
-13.242865 -6.5819626 161.39417 10393485
-14.074495 -6.5695953 160.9984 10064523
-15.009169 -6.5559974 160.55339 9998474
-15.940012 -6.542635 160.11012 8223605
-16.874708 -6.3341212 159.74382 8814711
-17.798075 -6.3217483 159.30382 9209984
-18.726236 -6.1147857 158.93997 8946554
-19.459505 -6.1056676 158.59024 8814707
-20.932909 -6.092 158.00127 6510930
-21.493227 -6.0897565 157.85266 8090470
-22.492428 -6.2411308 157.52917 7367004
-23.377831 -6.3928294 157.23596 7695712
-24.265835 -6.4671407 156.97118 5919561
-25.379591 -6.4634252 156.67543 4735287
-26.30653 -6.4606233 156.4292 4472371
-27.232269 -6.4580321 156.18294 6182990
-28.239902 -6.4002757 155.93491 6446418
-29.123716 -6.5016713 155.66023 5920074
-30.127691 -6.5616179 155.36899 5130307
-31.030146 -6.7068524 155.07291 6117199
-32.002705 -6.8337021 154.76495 6248271
-10.121305 -5.8341503 163.20044 9406334
-10.694681 -5.8263617 162.9272 10656658
-11.456804 -5.8160253 162.56404 11051416
-12.411406 -5.6049328 162.18919 10262156
-13.39789 -5.4736619 161.76672 9407105
-14.258295 -5.3347511 161.40814 8749434
-15.119047 -5.6107602 160.88188 9538437
-15.978647 -5.5609965 160.48772 11051417
-16.907324 -5.5500126 160.04453 10261899
-17.832342 -5.5392747 159.60307 10590864
-18.753191 -5.5287819 159.1635 9472638
-19.670542 -5.5185361 158.72551 7038298
-20.589308 -5.5099602 158.32977 9406843
-21.522696 -5.5060353 158.06429 7300444
-22.456697 -5.502955 157.81627 6116427
-23.575855 -5.4995008 157.51904 6445392
-24.507174 -5.4968252 157.27162 5919050
-25.437174 -5.49435 157.02443 4735287
-26.366081 -5.4920979 156.77718 4735543
-27.217104 -5.5289736 156.53551 6643797
-28.207794 -5.6820288 156.21289 9077882
-15.322306 -4.845437 161.09274 9932937
-16.195974 -4.7706099 160.70192 11314587
-17.134081 -4.5641665 160.33311 9209211
-18.016134 -4.5068254 159.93114 10656401
-18.901033 -4.6039314 159.46547 8156522
-19.799009 -4.4838171 159.08116 7235677
-20.68091 -4.5819216 158.65308 10459017
-21.714869 -4.4808426 158.3985 7892583
-22.612026 -4.5832291 158.12065 5655878
-23.580189 -4.5739212 157.86592 5655878
-24.551777 -4.7181678 157.55246 5919050
-25.471821 -4.9110579 157.23442 5392961
-19.019072 -3.7606189 159.74887 8813686
-20.035788 -3.6550155 159.30148 7433056
-20.870222 -3.5518053 158.97725 7563619
-21.799025 -3.7463555 158.65222 7563619
38.592991 -13.051864 182.15291 9340798
37.79126 -13.309866 182.03688 9472383
36.74308 -13.250119 182.04456 8814453
36.040714 -13.464335 181.94762 8485232
31.679846 -13.294827 180.33574 8090987
30.95146 -13.2622 179.99791 9472383
30.167383 -13.429646 179.31059 8354165
29.400724 -13.483928 179.13986 8025197
28.533648 -13.373524 178.78767 8419952
27.583929 -13.331283 178.347 8551538
26.640272 -13.28966 177.90903 10196617
25.702543 -13.248534 177.47365 8618098
24.77067 -13.207998 177.04091 8223597
23.844587 -13.168007 176.61072 8946552
22.91242 -13.342301 176.09109 8091760
21.998007 -13.302723 175.6664 9209467
21.089109 -13.263741 175.24406 9537408
-45.353912 -13.376037 149.73247 10460308
-46.100124 -13.384306 149.59685 11906722
-47.125713 -13.244718 149.46608 9209214
-48.178154 -13.219455 149.28835 6709597
-49.115513 -13.231141 149.1174 7826791
-49.949287 -13.336907 148.93011 6511187
-87.513138 -13.761784 134.47556 10261899
-88.32061 -13.762697 133.94638 9736329
-89.124771 -13.763606 133.41211 8618106
-90.085548 -13.764697 132.7648 8223604
-90.723572 -13.765424 132.32962 7564651
-104.58086 -13.779436 127.94855 9341571
-105.19518 -13.780166 127.44325 9341571
-105.9601 -13.781075 126.80786 9341571
-106.56915 -13.7818 126.29608 11183260
-118.38121 -13.793766 122.50238 8748148
-119.11586 -13.794675 121.78738 7958377
-119.70085 -13.795403 121.21263 8813686
-130.39027 -13.80619 117.89142 8484720
-131.097 -13.8071 117.10433 7958633
-141.76155 -13.817934 113.44949 8289140
-142.30595 -13.818662 112.76562 9143163
-148.22302 -13.64559 111.19372 12433069
-149.11214 -13.448199 110.74266 8748917
-149.91942 -13.473656 110.22627 8091243
-150.72957 -13.499516 109.70789 7762022
-151.54271 -13.525829 109.1875 8418928
-152.31563 -13.475002 108.72629 7827303
39.499897 -12.313638 182.46326 8879478
38.649857 -12.377243 182.42455 8813685
37.731533 -12.364899 182.41512 8550769
37.025826 -12.580619 182.31758 7037274
29.056562 -12.740003 179.29536 8288366
28.102133 -12.699566 178.85172 8617331
27.167837 -12.442377 178.50523 8552050
26.46034 -12.413305 178.17595 8092011
25.521925 -12.375004 177.73911 8092011
24.740007 -12.415253 177.34602 8092011
23.893732 -12.309008 176.98105 8879991
22.959425 -12.486332 176.45921 8486260
22.043009 -12.449306 176.03249 8880759
21.13212 -12.412792 175.60822 9800836
20.267698 -12.463485 175.17113 9406078
19.316668 -12.553084 174.67664 9669250
18.499617 -12.450093 174.32443 9867398
17.541708 -12.271791 173.93471 11841188
16.657007 -12.237733 173.52205 9011838
-43.235535 -12.220199 150.53615 9144190
-44.193207 -12.499472 150.26274 7959918
-45.248306 -12.618077 150.03134 9538692
-46.268726 -12.574593 149.86601 9932936
-47.125393 -12.574957 149.71361 8748664
-48.185001 -12.498541 149.55348 6578268
-48.993618 -12.660102 149.34998 6446938
-150.25493 -12.651339 110.37917 9275261
-151.02406 -12.598507 109.9212 8748917
-151.83932 -12.623123 109.40018 8748148
-152.65762 -12.648142 108.87711 7103835
-153.47903 -12.673513 108.35196 8353646
-154.37947 -12.471941 107.87745 9142651
40.501911 -11.422371 182.83655 9537664
39.648125 -11.486888 182.79735 8681843
38.72596 -11.475224 182.78767 9076857
38.016815 -11.692296 182.68948 8815222
25.093588 -11.707243 177.80222 8092011
24.394831 -11.680535 177.47624 8089963
23.467913 -11.645321 177.04366 8814454
22.558249 -11.395658 176.70599 8749174
21.642061 -11.361981 176.278 9208699
20.731356 -11.328827 175.85249 9537664
19.865068 -11.425509 175.39597 8814197
19.066015 -11.481719 174.98817 9670019
18.115217 -11.50767 174.51945 10854292
17.133017 -11.41161 174.08485 10920086
16.24888 -11.380065 173.67151 9801605
15.362154 -11.558971 173.17192 8617331
14.563311 -11.46056 172.82661 8090987
13.626036 -11.288288 172.44449 8682867
12.76132 -11.258409 172.03975 10392461
-41.484592 -11.068064 151.27293 9406331
-42.443836 -11.346592 150.99962 7893610
-43.499691 -11.463756 150.76869 8881019
-44.43412 -11.47189 150.59958 7368295
-45.369839 -11.480526 150.43007 9669252
-46.428761 -11.599551 150.19781 7761771
-47.390263 -11.881356 149.92284 6511962
-151.85802 -11.938421 109.69061 9471616
-152.75197 -11.735056 109.22098 7432800
-153.67241 -11.715444 108.65369 7958889
-154.60771 -11.788465 108.03619 9537666
-155.39403 -11.734578 107.56799 9866631
-156.25549 -11.258655 107.23893 9406337
42.341091 -9.9282284 183.4648 9735041
41.601429 -10.375486 183.27376 10260868
40.652554 -10.591852 183.1721 9735043
39.726402 -10.580867 183.16212 9274492
39.013874 -10.799467 183.06337 10459022
20.763048 -10.687077 176.12674 8682867
19.856249 -10.656191 175.70219 9801091
18.886106 -10.481204 175.30524 10261898
18.067606 -10.383114 174.95036 9209467
17.176023 -10.354089 174.5323 10130827
16.289522 -10.32548 174.11664 10394255
15.400347 -10.507849 173.61452 8617332
14.52421 -10.479431 173.20372 8617074
13.652922 -10.451407 172.79512 9603457
12.695665 -10.361259 172.37013 10195082
11.709822 -10.390001 171.88339 10260874
10.762106 -10.609682 171.33801 11379353
9.7897434 -10.330353 170.98213 8024943
8.9436359 -10.304404 170.58479 8090991
-39.878788 -10.296818 151.84306 7038298
-40.685223 -10.454135 151.64168 7038298
-41.540279 -10.498018 151.47357 8617072
-42.474552 -10.504795 151.30502 8156267
-43.59705 -10.513412 151.1024 8749432
-44.533611 -10.521006 150.93314 8223090
-45.263485 -10.718009 150.73068 9537667
-152.97682 -11.052905 109.38123 7761509
-153.71431 -10.919242 108.97878 8748660
-154.57423 -10.634594 108.56629 8355190
-155.4054 -10.656577 108.03654 8091505
-156.31712 -10.449198 107.55753 8880250
-157.15546 -10.471364 107.02316 9537409
-157.95306 -10.414971 106.54891 8287080
43.360474 -9.023777 183.84364 9735041
42.501858 -9.1979408 183.76033 8617078
41.380226 -9.3841734 183.66814 10656399
40.490898 -9.7931366 183.49016 10656401
16.313944 -9.6904926 174.38466 10065291
15.216181 -9.5166903 173.92577 8880764
14.252657 -9.4602728 173.48413 9669250
13.251589 -9.3892708 173.03038 10655633
12.385138 -9.3645697 172.62268 9208699
11.523275 -9.3402872 172.21716 9932676
10.660887 -9.524559 171.72716 11642524
9.8086414 -9.5003834 171.32611 8288114
8.9607525 -9.4765539 170.92708 8813942
8.0282612 -9.3916264 170.51199 9406591
7.0689449 -9.4243698 170.03642 8617074
6.1529293 -9.3171682 169.63817 9537920
5.2688999 -9.2387152 169.24382 6510930
4.5791912 -9.3571348 168.86363 5392706
-37.930809 -9.1424932 152.61542 10261391
-38.660412 -9.3369713 152.41399 10261391
-39.576618 -9.5326843 152.17889 8156780
-40.697884 -9.5393219 151.9772 7367263
-41.633266 -9.5451794 151.80882 6445906
-42.518032 -9.5988951 151.63177 6379601
-43.571568 -9.8453655 151.35356 8090732
-155.83397 -9.5863409 108.24054 8683641
-156.62724 -9.5280037 107.76991 8616820
-157.46786 -9.5482969 107.23494 9142649
-158.31197 -9.5688944 106.69772 9339768
-158.94716 -9.584506 106.29337 10457990
44.386379 -8.1141195 184.22411 9735041
43.425522 -8.3350391 184.12096 9340541
42.254704 -8.3236818 184.1073 7893871
41.533184 -8.5463676 184.00667 9933193
12.403368 -8.7350359 172.88553 9011576
11.540186 -8.7124062 172.47865 9537920
10.68675 -8.4808111 172.1608 9406335
9.7055378 -8.414505 171.71466 9866887
8.6850414 -8.4724836 171.19945 10590608
7.7153606 -8.4069252 170.75854 9538177
6.8761082 -8.3865185 170.36227 8287597
6.0410824 -8.3663578 169.96802 7958632
5.1673794 -8.4688425 169.50555 6510930
4.2936764 -8.4714146 169.08347 6050892
3.3025608 -8.5574112 168.57106 6708309
2.3336849 -8.2792578 168.21637 7760741
1.5205746 -8.2606745 167.83197 9933194
0.61050224 -8.1386051 167.44267 9998983
-0.49627495 -8.0128193 166.96001 8814709
-36.775604 -8.4683933 153.06953 7498083
-37.794918 -8.5684891 152.85149 9932683
-38.729698 -8.5729151 152.68376 9801094
-39.665314 -8.5776253 152.51575 8551538
-40.789108 -8.5837069 152.31381 8617331
-41.707951 -8.780735 152.0778 5392706
-157.28123 -8.8444805 107.66225 9142649
-158.31546 -8.6806917 107.08743 7826791
-159.14954 -8.5742283 106.61249 11708059
45.182583 -7.1971207 184.60344 9735299
44.354271 -7.4674602 184.48273 9603713
43.277077 -7.4118543 184.48883 9735041
42.551929 -7.6363173 184.38771 9735041
8.5711536 -7.8032012 171.41461 10722194
7.7262897 -7.7840509 171.01515 10722194
6.8890553 -7.5575385 170.70306 8222316
5.9278202 -7.4954324 170.26488 6774102
4.9289722 -7.5567484 169.7587 6511186
3.9785099 -7.4953165 169.32544 6906712
3.1559772 -7.4781175 168.936 8484976
2.3374538 -7.4611402 168.54834 8748150
1.4010448 -7.4011774 168.12126 8880509
0.42894173 -7.4631052 167.62772 8880507
-0.49761009 -7.4037619 167.20514 8024681
-1.2993336 -7.3879156 166.82513 9866374
-2.2170658 -7.3296146 166.40636 9076858
-3.090765 -7.2860413 166.0029 9340541
-4.0797367 -7.1330261 165.58795 8682867
-33.995113 -7.2156343 154.08836 13024949
-34.980114 -7.3695631 153.79678 11314590
-35.965256 -7.5550089 153.55078 10459535
-36.858624 -7.6611133 153.35286 6774102
-37.879696 -7.6103697 153.19017 9011578
-38.896984 -7.614799 153.0078 9209468
-39.727573 -7.9068904 152.75232 8880503
-40.468685 -8.0066919 152.58382 9341054
-158.65295 -7.9381757 107.20387 7563619
-159.41496 -7.7969728 106.78932 10721167
46.126106 -6.4312086 184.92439 9340285
45.250378 -6.5019369 184.88295 9735299
44.305737 -6.4947181 184.87172 8946039
43.576977 -6.7209601 184.77013 9735555
4.8115025 -6.8929911 169.97003 6511954
3.9837971 -6.8770232 169.57748 8090986
3.1614285 -6.6551952 169.27068 8090986
2.2188053 -6.5968895 168.83997 8616824
1.2055607 -6.4731069 168.40155 8090995
0.30745506 -6.3988853 167.99866 8880252
-0.49985313 -6.3850632 167.61513 10129546
-1.3699017 -6.4382844 167.17435 9208444
-2.3811016 -6.5972662 166.62285 8616307
-3.2953548 -6.5410805 166.20491 9209467
