# .PCD v0.7 - Point Cloud Data file format
VERSION 0.7
FIELDS x y z rgb
SIZE 4 4 4 4
TYPE F F F U
COUNT 1 1 1 1
WIDTH 1195
HEIGHT 1
VIEWPOINT 0 0 0 1 0 0 0
POINTS 1195
DATA ascii
5.180645 -21.832678 -186.93993 10721674
5.9354591 -22.318214 -186.69965 10262666
6.7411461 -22.275112 -186.71059 9078137
4.2942848 -20.723019 -187.44012 11708313
5.0534935 -20.984491 -187.26523 9931902
6.0353508 -21.245552 -187.0838 10458246
3.6268272 -19.832048 -187.83699 8617075
4.2987022 -20.050196 -187.68723 10129281
5.1955757 -20.04196 -187.59734 9208435
5.8656731 -20.260437 -187.44754 10458246
3.4055138 -19.159504 -188.10747 8814196
4.4397621 -19.105032 -188.02037 8945781
4.9767723 -19.370216 -187.86722 9208435
2.583744 -18.190248 -188.54926 9208435
3.4098167 -18.257877 -188.43878 8485233
4.2349968 -18.325758 -188.32832 8814453
1.6833992 -16.840733 -189.13907 9801601
2.6089516 -17.069771 -188.95895 8484973
3.414196 -17.353903 -188.77098 7826791
0.70218277 -15.801877 -189.78125 10262151
1.7458534 -15.969727 -189.55009 10196102
2.5145988 -16.228216 -189.27841 8287338
0.018482208 -15.032472 -190.4422 7301470
0.92990494 -15.246629 -190.18335 11512217
1.8394966 -15.349935 -190.00955 14077885
-7.7097206 -14.33522 -195.20761 9735812
-6.7746773 -14.334315 -195.24448 7433055
-2.5106773 -14.548264 -191.78696 8616560
-1.5913048 -14.540897 -191.71242 9734270
-0.90242386 -14.535586 -191.65608 8090987
30.807419 -41.79081 -171.69644 10196104
31.829739 -41.783863 -171.48732 9538175
32.616825 -41.740143 -171.15846 11314583
33.551971 -41.629375 -170.51143 9669505
29.265461 -40.809277 -172.60294 10459019
30.098087 -41.043381 -172.49872 11051415
31.061745 -41.345474 -172.33319 9867139
34.479527 -41.516769 -169.8521 10853004
35.221134 -41.432236 -169.34354 10063750
35.958973 -41.347961 -168.8331 9734782
36.87558 -41.242935 -168.19157 8551537
37.786419 -41.138245 -167.54672 8288365
38.510513 -41.054771 -167.02823 7762796
39.230736 -40.971451 -166.50751 7301475
40.125229 -40.867649 -165.85329 9010549
41.014019 -40.764202 -165.19609 9932676
41.720509 -40.681633 -164.66774 9142905
42.4231 -40.599369 -164.13736 9471359
29.316074 -39.974995 -172.90936 9669245
30.170033 -40.009483 -172.92296 11445658
42.947536 -40.537788 -163.73828 9931910
50.658226 -39.72945 -159.93484 14605784
51.319309 -39.648968 -159.37036 12169640
52.140858 -39.548599 -158.66269 8682867
28.374111 -39.03141 -173.22525 9208693
29.366539 -39.139477 -173.21613 9340023
52.793484 -39.46859 -158.0946 9538175
53.603462 -39.368958 -157.38205 10261896
54.407757 -39.269638 -156.66707 10262411
55.046604 -39.190487 -156.09332 10656913
59.956646 -38.690357 -153.98055 10590347
60.570705 -38.61219 -153.38464 10722451
61.181519 -38.534256 -152.78764 12038823
27.730698 -37.820782 -173.64752 9537144
28.523293 -38.006897 -173.60379 10391942
29.190449 -38.503864 -173.44278 9537659
61.485256 -38.495411 -152.48859 12038823
62.089565 -38.417854 -151.8895 11248021
62.83997 -38.321251 -151.1389 9735812
66.696182 -37.938763 -149.69844 10261132
67.276337 -37.862305 -149.07961 8419700
67.996704 -37.767059 -148.30473 9734782
68.710495 -37.672218 -147.52811 10919055
69.277603 -37.596668 -146.90576 11379348
27.438393 -36.929935 -173.96378 9339765
28.420616 -37.006466 -173.96582 10983822
72.476471 -37.289516 -145.92699 10525072
73.16452 -37.195812 -145.1292 8091245
73.846893 -37.102512 -144.33015 8880246
74.388199 -37.028183 -143.68993 11907239
77.53299 -36.719799 -142.59093 8288109
78.189209 -36.62775 -141.77211 8156268
78.838928 -36.536114 -140.95226 9537150
26.830204 -36.041763 -174.26941 9931646
27.611496 -36.137966 -174.25813 9537144
28.242565 -36.369877 -174.19275 10654857
81.812759 -36.244728 -139.91827 14208707
82.316559 -36.172081 -139.24841 9998983
83.065369 -36.063622 -138.2428 7827302
85.878891 -35.789005 -137.2868 9537662
86.482559 -35.699528 -136.43225 8682098
87.080521 -35.610497 -135.57727 8287341
25.977402 -34.613525 -174.76466 9735812
26.720425 -35.05743 -174.62527 9735555
27.557293 -35.189861 -174.60254 9340279
89.628113 -35.36998 -134.88542 6971738
89.976944 -35.31699 -134.36317 8089962
90.553497 -35.228889 -133.49243 8089962
93.422134 -34.934185 -132.20505 7958888
93.964127 -34.84211 -131.30037 8814199
96.188553 -34.606117 -130.73923 8682867
96.595459 -34.528221 -129.98694 10195334
96.9991 -34.450684 -129.23502 11905692
25.884117 -33.937294 -175.00867 10130570
26.794022 -34.077484 -174.98526 9735812
99.310593 -34.193764 -128.43361 9603969
99.797379 -34.097858 -127.48191 10261895
101.90953 -33.877441 -127.01937 8682867
102.38007 -33.782459 -126.05608 8682867
104.67538 -33.522285 -125.16653 9209467
104.94734 -33.465897 -124.58191 9209467
24.991848 -32.900002 -175.36 11709858
25.840088 -33.135258 -175.30005 12038823
26.688747 -33.371441 -175.2397 11709858
105.21736 -33.409702 -123.99773 9209467
107.32361 -33.185551 -123.45433 7564651
107.58517 -33.129761 -122.86327 9208703
107.84474 -33.074177 -122.27261 10853262
109.77988 -32.885113 -122.08907 8616563
110.11583 -32.811401 -121.29233 8221805
112.38785 -32.54681 -120.2782 11182228
112.62981 -32.492126 -119.67457 11182228
112.86986 -32.437645 -119.07153 7038298
24.195381 -31.61252 -175.80569 9537918
25.034412 -32.057297 -175.66888 11907237
26.023857 -32.366749 -175.58615 14999764
114.83371 -32.249001 -118.8416 11182228
115.1394 -32.175827 -118.02452 12037279
117.65335 -31.901924 -116.62714 6511442
117.94263 -31.829494 -115.80125 6510930
120.29652 -31.589828 -114.76576 5524292
24.244129 -30.890079 -176.17018 7827303
25.086445 -31.112637 -176.04622 10064265
122.78529 -31.311878 -113.27149 7630179
125.2643 -31.031881 -111.73145 9867396
125.51096 -30.960827 -110.87866 9735297
127.73318 -30.749743 -110.14589 9603968
130.08139 -30.500702 -108.9503 8682867
130.2469 -30.448093 -108.2971 8090736
21.619263 -29.599882 -177.52362 8484461
22.673836 -29.7013 -177.33354 8813425
23.3708 -30.131832 -176.7184 7564130
24.294624 -30.392626 -176.5457 7892840
132.53635 -30.214317 -107.27824 8813686
132.69121 -30.162109 -106.61871 10129289
134.93181 -29.943241 -105.78288 9405822
135.07693 -29.891384 -105.11685 8092019
137.36856 -29.652767 -104.02231 6774614
137.50287 -29.601318 -103.35034 7037274
139.71088 -29.394457 -102.66906 7038307
11.532612 -28.948746 -184.33081 9144189
12.41914 -28.957502 -184.33815 10130571
15.106144 -29.296965 -181.90576 6511962
15.977032 -29.295998 -181.83307 7564392
20.011395 -29.288193 -178.56247 9733499
20.868275 -29.29064 -178.48718 9340283
21.516457 -29.299967 -178.47426 7037274
139.83554 -29.343306 -101.99054 11906725
142.13252 -29.099751 -100.82208 10919574
144.10548 -28.811567 -99.647324 8617075
146.09106 -28.545736 -98.706909 8089963
146.13713 -28.485909 -97.97715 8089967
10.753178 -28.017611 -184.66232 9538433
11.697475 -28.143547 -184.62726 9473412
148.15396 -28.223469 -97.028152 9536888
150.19177 -27.938484 -95.80909 12432037
150.20973 -27.899307 -95.316238 10984593
152.24091 -27.631561 -94.315369 11378324
154.3752 -27.376848 -93.345688 8616048
9.7958946 -26.951914 -185.04143 10064521
10.680645 -27.179483 -184.96835 10327695
11.565029 -27.407652 -184.89508 9144448
154.36403 -27.335379 -92.835922 9734014
156.89558 -27.125145 -91.811859 9406590
156.87508 -27.083784 -91.297333 7959144
159.42079 -26.869493 -90.234039 7563619
159.39087 -26.828234 -89.714867 7563619
161.95085 -26.610088 -88.611938 12433066
161.9113 -26.568932 -88.088242 9735558
164.48601 -26.346725 -86.945267 7761253
8.9285088 -25.619938 -185.51912 9735555
9.8680992 -26.013458 -185.38593 9866885
10.811115 -26.186443 -185.33354 11117208
164.43669 -26.305672 -86.417122 10656401
167.02629 -26.079304 -85.233597 8682867
166.96725 -26.038458 -84.700989 10459278
169.57222 -25.808027 -83.476555 6511954
169.5031 -25.767187 -82.939728 6511954
172.08405 -25.512276 -81.40329 9340539
9.0288353 -24.911793 -185.77965 9275004
9.9783134 -25.036364 -185.74509 10064521
174.73317 -25.274408 -80.101257 10195587
177.37596 -25.000864 -78.239685 9340797
180.02876 -24.723053 -76.329788 11708313
182.85997 -24.499159 -75.204819 10262671
8.2863274 -23.841917 -186.16235 10854036
9.0416756 -24.112951 -186.07234 9472383
9.8426247 -24.295773 -186.01471 8682867
8.1624184 -23.129381 -186.42134 10459278
9.1149864 -23.253504 -186.38794 10459278
7.3204384 -21.99098 -186.82442 9537664
8.2660103 -22.149046 -186.7822 10064520
8.9776115 -22.509985 -186.65866 10854036
6.6075706 -20.859333 -187.22667 10326668
7.4299583 -20.937656 -187.21207 8945271
8.1005898 -21.164925 -187.14041 8089963
5.8699684 -19.811819 -187.6122 9208435
6.5418205 -20.037292 -187.52664 9208187
7.3654366 -20.115557 -187.51205 9405566
5.6520424 -19.139547 -187.88213 8945011
6.5516701 -19.138681 -187.85583 9208187
7.2247047 -19.366343 -187.78394 9405566
4.8361855 -18.170277 -188.32333 8090219
5.6603203 -18.238693 -188.21271 8550769
6.3358879 -18.236998 -188.18225 9405566
3.9801598 -17.009432 -188.83908 8090219
4.8662376 -17.050812 -188.73209 8945782
5.6686745 -17.335562 -188.54417 9537659
3.0452309 -15.929435 -189.4433 10655883
4.0111198 -15.951355 -189.32602 8155754
4.7758141 -16.210018 -189.05084 8156011
1.3860664 -14.910031 -190.39398 14077885
2.2960854 -15.013662 -190.21994 11445141
3.2035179 -15.228396 -189.96103 11445141
4.1101723 -15.33238 -189.78696 8287338
-6.0734138 -14.333633 -195.26942 10261124
-5.1383553 -14.332718 -195.29802 9735037
-0.21377182 -14.530424 -191.59921 8090987
0.70344925 -14.523756 -191.52278 14405828
1.3912468 -14.518945 -191.46495 15721430
31.484409 -40.856621 -172.63266 10064518
32.278099 -41.254906 -172.38145 8946039
33.196461 -41.501328 -171.96883 9998215
34.171722 -41.436443 -171.50426 10458509
35.145061 -41.372444 -171.03812 10063750
43.648922 -40.568855 -165.61398 9471359
30.744682 -39.963371 -172.95741 11050642
31.537079 -40.108601 -172.92862 10195591
32.297817 -40.309273 -172.87859 10459275
44.351105 -40.485928 -165.06877 9471359
45.049343 -40.403149 -164.52158 10788500
45.916367 -40.300091 -163.83472 11511967
46.777565 -40.19733 -163.14503 13024949
47.461876 -40.115406 -162.59111 10459279
48.311432 -40.013359 -161.89594 10064520
49.155228 -39.911613 -161.1981 9735555
49.825615 -39.83054 -160.63774 10263180
50.325912 -39.769909 -160.21634 10263180
30.717541 -39.103348 -173.27054 9274747
31.508316 -39.225746 -173.25003 9406332
56.186451 -39.164944 -157.52542 9210491
56.983898 -39.065319 -156.79129 9209467
57.617123 -38.985851 -156.20227 10064006
58.402889 -38.887024 -155.46379 12366245
59.182877 -38.78849 -154.72325 9340545
59.647907 -38.729511 -154.27791 10590347
29.795406 -37.967331 -173.65706 10458506
30.640717 -38.210236 -173.59422 9406332
63.884487 -38.305885 -152.62184 11972511
64.48381 -38.228134 -152.00862 11511962
65.227203 -38.131268 -151.24028 10459276
65.964783 -38.034782 -150.47025 7038307
66.404465 -37.977108 -150.00737 8090736
70.374451 -37.573357 -148.31184 8353907
70.940704 -37.497261 -147.67712 8814200
29.063717 -37.029648 -173.97696 9538176
29.9226 -37.061462 -173.99158 10919059
71.222107 -37.459312 -147.3595 11379865
71.781784 -37.383728 -146.72336 11905951
75.528397 -36.998768 -145.0408 11052188
76.202591 -36.905334 -144.22527 8815226
76.871124 -36.812347 -143.40871 7893608
80.017776 -36.501404 -142.25833 10064265
28.26685 -35.95023 -174.34662 10654857
29.035366 -36.061165 -174.32961 10064006
29.758755 -36.213486 -174.29608 9735555
80.406372 -36.446144 -141.75739 10064265
81.049057 -36.35434 -140.92188 11379869
81.559311 -36.281158 -140.25304 14208707
84.280563 -36.023956 -139.50577 8090218
84.652985 -35.969498 -138.99403 8945781
85.268768 -35.879032 -138.14073 8287337
88.329926 -35.566074 -136.79918 6905688
88.805359 -35.494499 -136.10347 6643029
28.148075 -35.019997 -174.68256 9603454
28.960812 -35.13176 -174.66658 9538176
89.276901 -35.42329 -135.40749 6182734
91.835159 -35.180416 -134.6839 9735812
92.179199 -35.127316 -134.15285 9275262
92.747681 -35.03928 -133.26759 6972249
95.153122 -34.802513 -132.62263 13023917
95.569946 -34.723694 -131.86896 11182226
95.983429 -34.645157 -131.11574 8682867
27.375061 -33.955135 -175.04764 9735812
28.292309 -34.01265 -175.05467 8092019
28.794865 -34.28241 -174.97156 9209467
98.218704 -34.406822 -130.53072 9340289
98.718567 -34.309601 -129.57689 8090994
101.04707 -34.050045 -128.75629 11379348
101.43251 -33.97311 -127.98383 9866625
103.75273 -33.71204 -127.11893 8682867
104.03192 -33.654789 -126.5327 8682867
104.40094 -33.578934 -125.75177 9735046
27.219242 -33.134346 -175.34247 9998985
28.132744 -33.275372 -175.31891 8749435
106.61497 -33.335503 -125.03331 9867141
107.05962 -33.241596 -124.04604 8617080
109.18205 -33.015057 -123.48599 12827567
109.52498 -32.940609 -122.68739 8879991
111.81483 -32.675198 -121.68938 8485235
112.14365 -32.601646 -120.88263 9932419
26.425705 -31.842779 -175.78969 14210504
27.308876 -32.182693 -175.69257 9932937
28.028873 -32.567265 -175.57414 9143936
114.28842 -32.377979 -120.2742 10261383
114.60141 -32.304134 -119.45518 9340539
116.98918 -32.066269 -118.48947 8287850
117.28694 -31.993023 -117.66105 6511954
119.5959 -31.771021 -116.8578 9734788
119.87883 -31.698313 -116.02008 6708566
122.11868 -31.491989 -115.38701 7761253
122.32123 -31.437714 -114.75143 8090474
25.761372 -30.826994 -176.25699 10064265
26.472431 -31.088814 -176.10933 14276297
27.235184 -31.273083 -176.02234 11379356
122.52173 -31.383638 -114.11655 8485232
124.88763 -31.138922 -113.01347 9538432
127.3774 -30.85611 -111.44112 9735297
129.74384 -30.606535 -110.25983 9932419
129.91356 -30.553568 -109.60468 8682867
23.771503 -29.633898 -177.47615 7563618
24.59259 -29.823898 -177.15512 8089963
25.610985 -30.224617 -176.71429 9406079
26.453671 -30.445599 -176.57008 12038823
132.22003 -30.319338 -108.60036 7563619
132.37914 -30.266724 -107.93882 8813686
134.63568 -30.047659 -107.11818 6511954
134.78487 -29.995298 -106.44998 10853012
137.09413 -29.756277 -105.3696 8616819
137.23253 -29.70442 -104.6953 8616819
139.4985 -29.480145 -103.80262 9932681
13.012341 -28.890455 -184.36967 9208700
13.837887 -29.016991 -184.33316 9603970
17.064846 -29.294788 -181.73608 8222321
18.152164 -29.293566 -181.633 9669508
22.16481 -29.309593 -178.46039 9208182
23.246494 -29.326204 -178.43555 10918799
141.89931 -29.2017 -102.19405 8289140
142.01711 -29.150648 -101.50735 9012606
144.024 -28.963875 -101.38136 7564643
144.05997 -28.89834 -100.63672 10261131
146.04297 -28.605967 -99.438889 9340286
11.99995 -27.852736 -184.7373 9144448
12.883602 -28.081837 -184.66393 8880763
13.77261 -28.091263 -184.67097 9603714
148.07732 -28.342791 -98.501579 9340286
148.10371 -28.302803 -98.009369 9536888
150.15346 -28.017282 -96.797882 9603198
152.20256 -27.748697 -95.808441 8813428
152.22258 -27.68998 -95.06073 11378324
154.39021 -27.439154 -94.112305 9275262
12.10442 -27.147825 -184.99646 8881533
13.05106 -27.274759 -184.96115 8749947
156.92458 -27.187397 -92.585693 10851980
159.46394 -26.93169 -91.014999 8681835
162.0085 -26.672075 -89.399796 13155253
164.55833 -26.408506 -87.73996 7038307
11.374821 -25.859264 -185.45993 8815226
12.16486 -26.150507 -185.36246 8486776
12.9202 -26.536861 -185.22966 9144448
167.1136 -26.140978 -86.034798 8945527
169.67458 -25.869389 -84.284218 8485488
172.24141 -25.593748 -82.487709 11182228
174.9025 -25.354681 -81.193069 10524813
10.504436 -24.744377 -185.85809 9932934
11.258297 -25.016254 -185.76732 9340797
12.063168 -24.978418 -185.7905 9011832
177.60118 -25.099195 -79.610275 9735812
177.51164 -25.059761 -79.060959 9735812
180.23064 -24.801306 -77.434219 8945264
183.02644 -24.557791 -76.042068 11841445
10.383671 -24.032804 -186.11729 9932934
11.335323 -24.158274 -186.08243 8682867
9.7141685 -23.108665 -186.44798 10327692
10.533794 -23.188173 -186.42841 8551281
11.201237 -23.415684 -186.35281 8090987
8.7673302 -21.615616 -186.98383 9011320
9.5613136 -22.066742 -186.82779 9406078
10.474453 -22.370117 -186.72731 9801348
8.6434975 -20.898891 -187.24472 9077113
9.600338 -21.023252 -187.21039 9142907
7.96735 -19.968784 -187.57626 8879222
8.7914314 -20.0474 -187.5584 8879474
9.4630165 -20.275232 -187.4827 9142907
7.2302437 -18.916426 -187.94888 8681843
7.9035835 -19.14431 -187.87708 9734531
8.7289238 -19.222939 -187.85959 9602681
7.012867 -18.239498 -188.19307 8681843
7.9157982 -18.243151 -188.20737 9734271
6.2359505 -16.994442 -188.63974 8617073
7.1231804 -17.110256 -188.60857 8879731
7.6989098 -17.564825 -188.45203 10129289
5.3081779 -15.91232 -189.21909 8814195
6.1359138 -15.981496 -189.09915 8945781
7.0368919 -16.2038 -188.93906 8090987
3.6616859 -14.892473 -190.17094 11905692
4.5689049 -14.996854 -189.99658 8946806
5.4725151 -15.212145 -189.73746 8683123
-3.9689064 -14.331569 -195.32814 10457993
-3.0337257 -14.330644 -195.34708 9997699
2.078167 -14.514283 -191.40669 10063747
2.9936256 -14.508267 -191.32832 8287338
32.908871 -40.750713 -172.70976 8090475
33.56633 -40.967499 -172.34256 10063753
34.484432 -40.88559 -172.00778 10326668
35.473869 -40.838913 -171.60803 10524043
36.280117 -40.969479 -171.02632 9537923
37.018562 -41.136051 -170.41537 7762539
37.834251 -41.107338 -169.98611 7235936
38.615211 -41.148697 -169.34158 8748916
39.53336 -41.050434 -168.70853 6445394
40.439476 -40.945122 -168.04187 9734014
41.159664 -40.861134 -167.50598 9734014
41.875912 -40.777348 -166.96803 9207924
42.765293 -40.672905 -166.29256 9471357
32.826439 -40.076046 -172.95834 9669506
33.760647 -40.099598 -172.68707 9405823
34.756912 -40.056458 -172.30252 8155756
35.735706 -40.22366 -171.84235 10853008
50.936726 -39.811905 -162.16629 9210491
51.606747 -39.730106 -161.59184 9604225
52.439205 -39.628311 -160.87163 9801604
52.935596 -39.567417 -160.43826 9209467
32.032646 -38.897369 -173.38586 9274748
32.927277 -39.130726 -173.30418 9932166
33.818947 -39.261265 -172.99303 11050391
34.403248 -39.445221 -172.68524 11379356
53.265263 -39.526852 -160.14877 9209467
53.921162 -39.445992 -159.56845 9604992
54.736057 -39.34528 -158.84113 10459787
55.383251 -39.264954 -158.25732 10459787
60.360889 -38.758389 -156.12413 9340539
60.827881 -38.698795 -155.66969 9932675
61.601185 -38.599957 -154.91068 8879989
62.215816 -38.521137 -154.30217 8089963
31.173195 -37.740639 -173.78185 8682867
32.020885 -37.985092 -173.71848 8814197
32.869225 -38.230675 -173.65474 9735043
62.521488 -38.481876 -153.99725 8813683
62.977993 -38.423046 -153.53951 8813683
63.432487 -38.36441 -153.08105 10063747
67.632248 -37.938499 -151.31323 9143166
68.362488 -37.841743 -150.52562 7564643
69.086807 -37.745483 -149.7364 8420464
69.661697 -37.668781 -149.10391 7564651
31.213631 -37.110611 -174.01303 10064006
32.215443 -37.220268 -174.00363 7893608
73.467789 -37.281742 -147.47983 9144191
74.161041 -37.186954 -146.6682 10262155
74.84758 -37.092636 -145.85504 10459793
78.44046 -36.724277 -144.25812 7695716
79.102051 -36.631115 -143.42557 6510930
79.62674 -36.55687 -142.75873 9209467
30.316505 -35.917664 -174.42107 10458766
31.223537 -36.10952 -174.37872 9406589
82.767944 -36.243645 -141.54988 7564131
83.402573 -36.151794 -140.69865 8616819
83.905731 -36.078617 -140.01718 9670019
86.880051 -35.782566 -138.88443 12497063
87.488281 -35.692043 -138.01585 8879989
87.970917 -35.619926 -137.32072 7366239
29.619781 -34.943623 -174.75534 10655889
30.483398 -34.974079 -174.77063 10129800
31.334785 -35.216137 -174.70827 9537918
90.554489 -35.376633 -136.6302 7103324
91.02356 -35.304996 -135.92256 7234910
91.488785 -35.233723 -135.21481 8879991
94.057678 -34.98851 -134.45908 6511954
94.396713 -34.935402 -133.91928 8092019
94.83754 -34.861973 -133.18829 8881020
97.303131 -34.583511 -132.25012 9735296
97.712265 -34.504757 -131.4856 9538177
29.454739 -34.093266 -175.0607 9932678
30.319393 -34.122761 -175.07632 9866884
100.06526 -34.244339 -130.6906 7564651
100.36226 -34.185829 -130.10985 8419702
100.75497 -34.108097 -129.33617 9735552
103.0923 -33.846321 -128.48878 9537918
103.47105 -33.769444 -127.70564 8682867
105.7083 -33.525139 -127.01218 10261132
105.98276 -33.467983 -126.41788 9735555
28.700954 -32.926743 -175.46349 8881021
29.610832 -33.040688 -175.44965 8289140
30.141891 -33.481819 -175.3049 9537918
106.25536 -33.411034 -125.82407 10261643
108.39644 -33.183949 -125.28665 7038307
108.74774 -33.108616 -124.48574 9932937
111.23009 -32.804897 -123.10398 9998215
111.56586 -32.73064 -122.29508 7038307
113.81148 -32.48941 -121.50481 9932419
114.05122 -32.43362 -120.88924 11182228
28.076824 -31.721573 -175.88431 9143936
28.581978 -31.991207 -175.80132 9143936
29.364471 -31.97296 -175.83183 8092019
116.5352 -32.176891 -119.73434 9340539
116.7635 -32.121449 -119.11154 9340539
119.09059 -31.899305 -118.32727 8092016
119.38075 -31.825855 -117.48706 8222832
121.70697 -31.601257 -116.66063 9405566
121.91377 -31.546522 -116.02344 7958120
27.777168 -31.043375 -176.18007 9275522
28.691452 -31.178764 -176.12979 8749435
124.24103 -31.31938 -115.15753 9209467
124.50238 -31.246904 -114.29884 8617331
126.82777 -31.01725 -113.39075 8814198
127.07457 -30.945415 -112.52323 8419696
129.3391 -30.731241 -111.79254 9143675
129.57173 -30.659855 -110.91608 9932419
131.84032 -30.443134 -110.14815 11379863
25.28038 -29.659376 -177.43774 8089963
26.143929 -29.674673 -177.41371 10788245
27.001759 -30.131262 -176.86459 12236717
27.91309 -30.350021 -176.6871 9868428
132.05864 -30.372255 -109.26305 8813686
134.33118 -30.152887 -108.4577 7563619
134.48462 -30.100122 -107.78734 6511954
136.81142 -29.860651 -106.7213 8682867
136.95393 -29.808338 -106.04482 8616819
139.19212 -29.601084 -105.39484 9143163
139.32503 -29.54912 -104.71149 9932681
15.082729 -28.987829 -184.35854 10064777
15.971867 -28.999138 -184.36499 9670277
19.238796 -29.292343 -181.52284 9208701
20.324863 -29.291109 -181.40674 11510678
20.976223 -29.290369 -181.33391 11182481
24.328987 -29.343395 -178.40857 8089963
25.195961 -29.35779 -178.38536 8089963
141.65807 -29.304556 -103.57089 7038307
141.77986 -29.252951 -102.88181 9012606
143.98608 -29.02976 -102.12849 9144449
145.95778 -28.730438 -100.9198 9603458
145.99333 -28.666401 -100.17267 10261132
147.99348 -28.46336 -99.983566 9340286
148.03615 -28.402872 -99.241592 9340286
14.439846 -28.098768 -184.67615 8617847
15.330082 -28.109299 -184.68285 9670277
150.10185 -28.11656 -98.038635 9208953
152.16566 -27.847309 -97.05925 8089963
152.18102 -27.807722 -96.55809 8089963
154.41461 -27.564781 -95.652107 7893614
154.40347 -27.501762 -94.880859 8814713
13.5779 -26.98562 -185.07314 12630447
14.328686 -27.258755 -184.9821 10459535
15.132305 -27.223564 -185.00446 8091760
156.96895 -27.291727 -93.880318 10261132
156.95187 -27.249851 -93.361702 10851980
159.51891 -27.014973 -92.059975 14075837
162.101 -26.776033 -90.718315 7038307
162.06468 -26.734369 -90.190033 7038307
164.67535 -26.51215 -89.069885 7038307
164.6292 -26.470592 -88.536995 9735558
13.434071 -26.043829 -185.41624 11117465
14.378468 -26.219484 -185.36295 9867398
167.25557 -26.244307 -87.375885 9208443
167.19933 -26.202854 -86.838531 9208443
169.80865 -25.951733 -85.365334 10459278
172.39604 -25.675781 -83.577286 8616559
175.07668 -25.436703 -82.293671 10788499
12.733494 -24.984196 -185.79617 9472641
13.627888 -24.992374 -185.8036 8946296
177.73427 -25.158602 -80.436798 12103335
180.42995 -24.880119 -78.544006 9734531
183.19177 -24.616825 -76.882164 9012088
11.863697 -23.865831 -186.19565 8551281
12.618946 -24.138885 -186.10443 7631211
13.420574 -24.323885 -186.04602 8090987
11.744518 -23.152269 -186.45564 9011832
12.698437 -23.278545 -186.42046 9736070
10.931789 -21.926208 -186.89517 10590864
11.902119 -22.081808 -186.84949 12037794
12.565983 -22.533787 -186.6916 14076861
10.202511 -20.877275 -187.27084 8748149
11.025951 -20.95686 -187.25128 9142907
11.696308 -21.18532 -187.1754 12432037
9.4705086 -19.826113 -187.64732 9142907
10.142376 -20.054218 -187.57158 8879735
10.967052 -20.133787 -187.55203 7695720
9.3326302 -19.075665 -187.92056 11049615
10.158588 -19.15473 -187.9012 10655373
10.831348 -19.383535 -187.82527 8089963
8.5932426 -18.245897 -188.21584 10128769
9.2708931 -18.248741 -188.22267 10128769
9.9487648 -18.251842 -188.2294 9405302
7.710865 -16.659592 -188.78381 9538177
8.3837624 -17.114946 -188.62749 9011058
9.2424431 -17.208834 -188.60318 8945007
6.8211861 -15.762545 -189.26834 8814195
7.5737267 -15.911836 -189.16895 9538177
8.5135918 -16.098724 -189.04358 8945782
5.9329491 -14.877016 -189.94666 8814195
6.7479439 -15.055012 -189.80756 9077368
7.514431 -15.32309 -189.61646 9538177
-8.3596077 -13.891937 -199.3022 9010550
-7.3996162 -13.881783 -199.20642 8353135
-6.6770515 -14.114342 -199.04605 7563619
-2.3319435 -14.329946 -195.35837 10457993
-1.6303749 -14.329245 -195.36694 10064009
-0.92847824 -14.328541 -195.37321 14077894
4.1373634 -14.501196 -191.22928 8288621
5.2801247 -14.494473 -191.12903 9999751
-8.3762703 -12.92966 -199.65752 8813683
-7.654789 -12.922447 -199.5854 8616307
-8.4719887 -12.045805 -199.99228 9537403
-8.6469002 -11.240973 -200.30615 9208955
37.278152 -40.56522 -171.02888 8880507
38.395023 -40.897869 -170.26266 7367263
39.177578 -40.863461 -169.93881 6445394
40.139889 -40.807724 -169.47539 6445394
41.096542 -40.749996 -168.99884 8616048
41.858978 -40.704636 -168.61693 9208180
42.809475 -40.648827 -168.13817 9734782
43.757439 -40.593872 -167.65811 10787985
44.323021 -40.561321 -167.36903 9931910
35.766521 -39.80555 -171.9942 11116696
36.667065 -39.935692 -171.58009 10853012
37.654152 -40.074593 -171.11594 9735302
38.501923 -40.107891 -170.74483 7762024
39.443398 -40.021534 -170.40179 6182222
40.323696 -40.280525 -169.89529 5919050
41.197433 -40.400524 -169.42188 6445394
41.782211 -40.377659 -169.18071 8681835
44.700069 -40.538921 -167.17239 9734529
45.428051 -40.474674 -166.69606 10260872
46.306026 -40.37011 -165.99631 8089963
47.003716 -40.286709 -165.43416 10788500
47.697311 -40.20351 -164.87015 7235421
48.558388 -40.099953 -164.16248 9867141
49.413612 -39.996716 -163.4521 8682867
50.093006 -39.914379 -162.8817 10788244
50.60004 -39.852871 -162.45284 9210491
34.155243 -38.724033 -173.06853 9471359
35.031448 -39.000965 -172.6066 7892840
35.81282 -39.177868 -172.22217 10656401
36.806545 -39.13829 -171.83725 10261388
37.798367 -39.100002 -171.45259 10655633
38.518806 -39.142403 -171.14551 9603457
39.166649 -39.257397 -170.83923 9406078
56.541832 -39.239861 -159.73077 9735555
57.188114 -39.15892 -159.13316 10195849
57.990929 -39.058167 -158.38434 11904668
58.628403 -38.977829 -157.78349 10524043
59.419411 -38.877808 -157.03044 9274748
60.048119 -38.798145 -156.42668 10590347
33.38409 -37.976772 -173.64786 9932422
34.307072 -37.98494 -173.29776 8550770
35.10701 -37.952358 -172.98817 7037274
36.089386 -38.122482 -172.52541 9274492
37.068966 -38.29351 -172.0634 9735300
37.847279 -38.472839 -171.67931 9800838
64.799194 -38.309841 -154.29053 11511446
65.553726 -38.211449 -153.50952 10590347
66.152649 -38.133133 -152.88344 8090987
66.895355 -38.035595 -152.09912 8090987
70.777512 -37.646 -150.55238 8880501
71.351486 -37.568737 -149.90724 9340539
71.779465 -37.510998 -149.42274 11182228
32.522148 -36.951248 -174.11115 7564643
33.355808 -37.177532 -173.95691 10458510
34.366245 -37.143982 -173.60429 8486263
35.284531 -37.149349 -173.23215 7037274
72.204834 -37.453465 -148.93779 10261383
72.768753 -37.376957 -148.29039 9538176
76.008133 -37.063538 -147.24704 11314844
76.555359 -36.987667 -146.58401 11906724
77.234482 -36.89315 -145.75433 8682867
77.772995 -36.817947 -145.08978 8682867
80.827621 -36.522026 -144.09888 6510930
31.740353 -35.653851 -174.56085 9537918
32.578506 -36.108551 -174.42046 8616818
33.589817 -36.208866 -174.28467 11445404
34.410706 -36.512474 -173.83456 10065291
81.480453 -36.42878 -143.24998 7564130
82.127487 -36.33593 -142.40038 8090987
85.143753 -36.038631 -141.31337 7563618
85.644806 -35.965084 -140.61989 10985367
86.265335 -35.873627 -139.75238 12102305
89.244003 -35.5751 -138.57506 6577746
89.843506 -35.484608 -137.69127 5262144
31.641518 -34.945446 -174.81638 8551281
32.559258 -35.092472 -174.79071 8880247
90.200195 -35.430492 -137.16078 6643029
92.795013 -35.184738 -136.43803 7433064
93.257584 -35.113102 -135.71855 8354163
93.716217 -35.041821 -134.99887 9275262
96.261993 -34.782139 -134.16412 9735814
96.576843 -34.722267 -133.58954 9735814
96.993362 -34.64278 -132.82393 9735296
30.968925 -34.14534 -175.08791 8814452
31.836437 -34.176243 -175.10312 8090987
32.691132 -34.419338 -175.04041 8090987
99.363174 -34.38179 -132.04733 8616563
99.765823 -34.303104 -131.27184 7959408
102.03047 -34.059895 -130.64642 9011577
102.41977 -33.981873 -129.86115 9537918
102.80577 -33.904232 -129.07654 9537918
105.15199 -33.64019 -128.20238 8682868
105.52391 -33.563377 -127.40863 10261132
30.193718 -32.635925 -175.61517 9537406
30.915501 -33.023399 -175.49577 8683123
31.673889 -33.322315 -175.40981 9143417
107.7718 -33.31673 -126.69083 10392461
108.13016 -33.240753 -125.88805 8550257
110.37502 -32.992271 -125.13072 7038307
110.71977 -32.917068 -124.31921 9866627
113.07925 -32.658112 -123.355 7038307
113.40694 -32.582912 -122.53211 10984850
30.015522 -31.99354 -175.84421 9537406
30.884945 -32.021603 -175.8605 9537406
115.99403 -32.306995 -121.19013 9537918
116.30504 -32.232533 -120.35776 9340539
118.64793 -32.010185 -119.58984 9736582
118.8705 -31.954643 -118.95806 8092016
121.21516 -31.72975 -118.15054 9011320
121.49759 -31.656145 -117.29861 9405566
123.84114 -31.428757 -116.44853 7037274
29.282303 -31.058661 -176.21523 8222833
30.072582 -31.150795 -176.18752 8551283
30.706959 -31.377945 -176.08998 10851980
124.04211 -31.373917 -115.80269 8485232
126.45044 -31.125767 -114.69516 8089963
126.64035 -31.071384 -114.04243 8089963
128.98299 -30.839003 -113.11044 9143675
129.16228 -30.785019 -112.45087 8617331
131.50572 -30.550089 -111.47915 10656398
131.67419 -30.49651 -110.81309 10656398
27.440437 -29.698317 -177.37532 9868428
28.364197 -29.867682 -177.16745 8486262
29.161983 -30.356951 -176.71933 7499624
29.924675 -30.538721 -176.60297 8288368
134.01826 -30.259033 -109.80154 10063753
134.17583 -30.205862 -109.12901 7563619
136.47119 -29.983599 -108.30415 5919050
136.61833 -29.930775 -107.62507 6379600
138.92046 -29.705816 -106.76489 8287856
139.05745 -29.653345 -106.07928 8287856
141.40868 -29.408333 -104.95285 15721430
16.639339 -29.008089 -184.36958 8090733
17.529972 -29.020546 -184.37561 7563619
18.190945 -29.250664 -184.29919 7038307
21.627026 -29.289621 -181.25839 9932158
22.494503 -29.288626 -181.15436 8681835
23.144924 -29.287872 -181.07364 8092019
25.846596 -29.368759 -178.36713 8089963
26.714798 -29.383953 -178.34131 9868428
27.583759 -29.399441 -178.31424 7565675
141.53455 -29.35627 -104.2612 9932681
143.84735 -29.125996 -103.32762 10196879
145.90692 -28.840071 -102.17792 9011320
145.92784 -28.796078 -101.67381 7761509
147.94884 -28.524153 -100.72787 9340286
16.444019 -28.123312 -184.69087 8222318
17.335934 -28.135181 -184.69713 7563619
150.03331 -28.236834 -99.535675 9208955
150.0685 -28.176498 -98.785912 8682867
152.13246 -27.926918 -98.064713 9143161
154.42894 -27.670282 -96.942139 9341819
154.42397 -27.627901 -96.425392 7893614
157.01506 -27.418158 -95.443008 10853012
157.0006 -27.375877 -94.921066 10853012
15.801517 -27.231516 -185.00949 8486518
16.694469 -27.242571 -185.01602 8617075
156.98517 -27.333702 -94.400208 9734529
159.57051 -27.098816 -93.109238 8945008
162.15385 -26.838831 -91.513016 11511196
164.74304 -26.574837 -89.871582 8287859
14.94611 -25.893232 -185.48897 8485745
15.736568 -26.186962 -185.39078 11578015
16.491604 -26.575876 -185.25745 10855060
167.3383 -26.306742 -88.184509 9208443
169.93987 -26.034636 -86.451508 9472383
172.54787 -25.758324 -84.672119 10128513
175.24821 -25.51919 -83.399559 8089963
14.304996 -24.776812 -185.89041 9867398
14.835232 -25.048727 -185.79697 8551795
15.642757 -25.012775 -185.81958 10262929
177.95277 -25.258253 -81.82048 14604238
177.86583 -25.218313 -81.265976 14604238
180.62666 -24.959436 -79.659241 9208187
183.30106 -24.656258 -77.444092 9012088
13.965054 -24.06179 -186.14832 8617589
14.995373 -24.116177 -186.14038 8354675
13.300213 -23.134869 -186.48004 9012605
14.121494 -23.216349 -186.45975 8091761
14.789356 -23.445585 -186.38353 8684155
12.586407 -21.639542 -187.01938 14076861
13.154308 -22.09124 -186.86057 9736070
14.035061 -22.210228 -186.82726 8157809
12.242428 -20.920025 -187.27893 10524815
13.200771 -21.046509 -187.2437 9998985
11.571232 -19.987644 -187.61258 7038307
12.396687 -20.067812 -187.59282 8814201
13.068356 -20.297218 -187.51654 10590351
10.840038 -18.933115 -187.9903 10590351
11.513119 -19.162123 -187.91423 9274750
12.339863 -19.242222 -187.89452 10590351
10.62701 -18.255135 -188.23611 9997955
11.53178 -18.259905 -188.24484 10655886
9.857296 -17.007524 -188.68405 9405302
10.745518 -17.124821 -188.65146 10064264
11.319279 -17.580603 -188.49121 9011320
8.8646889 -15.769053 -189.29379 8090987
9.765583 -15.992813 -189.1373 8682353
10.665485 -16.217224 -188.98286 9932678
8.0539131 -15.02939 -189.85017 9998728
9.021801 -15.150484 -189.76872 9538433
-6.4410133 -13.871926 -199.11069 8089963
-5.2415504 -14.099825 -198.9026 11116182
-0.22688675 -14.327832 -195.37668 12038055
0.7088356 -14.326887 -195.37755 9208956
6.4229622 -14.490823 -191.06293 9341564
7.339077 -14.492468 -191.06781 8682867
-7.0153618 -12.83606 -199.55086 8221549
-6.0740547 -13.147722 -199.33876 8616307
-5.0893593 -13.458787 -199.12236 9471102
-7.8321495 -11.878751 -199.98729 9142907
-6.948307 -11.951304 -199.86906 9537409
-6.0658455 -12.02396 -199.75087 8287085
-8.6554909 -10.756086 -200.48526 9208955
-7.9269676 -10.992313 -200.32292 8814197
-7.0416222 -11.065597 -200.20418 9208955
-7.4558754 -10.260837 -200.54286 9208955
40.512672 -39.625301 -170.15222 5919050
41.40324 -39.760799 -169.74008 6576723
42.344852 -39.966419 -169.22185 8155750
43.180294 -40.134087 -168.75749 10787985
44.081223 -40.063396 -168.41476 9800834
44.997971 -40.107231 -167.97133 7958376
45.815262 -40.101105 -167.59393 10260872
46.79549 -40.172939 -166.97968 8616306
47.73378 -40.12212 -166.49191 8090986
48.296555 -40.092068 -166.19812 6511954
52.070183 -39.792679 -163.72318 10328715
52.744347 -39.710079 -163.13632 9210491
53.414478 -39.627682 -162.54785 11380380
53.914478 -39.566021 -162.1055 10262414
39.002682 -38.847118 -171.06656 9406078
39.776031 -39.027554 -170.68398 7563875
40.565033 -39.000103 -170.37674 6313808
41.549652 -38.967018 -169.99297 8024169
42.532673 -38.935211 -169.60925 9998215
43.358307 -39.186096 -169.17793 9800832
44.240788 -39.504883 -168.69705 9669762
54.246475 -39.525047 -161.80997 11380380
54.907066 -39.443237 -161.21776 9867913
55.727673 -39.341331 -160.47546 9802371
56.217007 -39.280327 -160.02896 8682867
61.247704 -38.767712 -157.85893 10590093
61.87505 -38.68742 -157.24136 9734527
62.653324 -38.587452 -156.46748 8879479
37.116863 -37.665024 -172.29103 9932678
38.018654 -37.798782 -171.87503 10261131
38.917107 -38.068821 -171.40683 9471871
39.861774 -37.983524 -171.05963 9735043
40.832306 -38.159019 -170.59952 8419184
41.818363 -38.12677 -170.2148 9471871
42.587631 -38.310432 -169.83263 13024949
63.425621 -38.487892 -155.6918 10787729
64.038712 -38.408615 -155.06976 8813683
67.995941 -38.016685 -153.60358 7762027
68.588852 -37.938095 -152.96301 8485747
69.324905 -37.840298 -152.16113 9341822
70.054184 -37.742947 -151.35745 9605250
35.783138 -36.878437 -173.13759 7037274
36.366959 -37.065697 -172.82874 7366239
37.164875 -37.035812 -172.51891 8287854
38.1604 -36.999718 -172.13187 9866886
39.154045 -36.964787 -171.74513 10261131
39.947624 -36.937809 -171.43593 10195338
40.794926 -37.43124 -170.90056 9076857
73.918427 -37.350826 -149.7263 10261388
74.481232 -37.273754 -149.06622 9340798
75.178772 -37.177971 -148.24002 10262155
75.732819 -37.101589 -147.57823 11314844
78.965546 -36.78566 -146.47092 12630447
79.502609 -36.709949 -145.79387 9471871
80.168045 -36.615746 -144.94684 7103067
33.866417 -35.692883 -174.37595 14077885
34.656124 -35.872402 -173.98712 10722963
35.554165 -36.107975 -173.53264 7630440
36.445362 -36.014633 -173.21014 6839895
37.378296 -36.100582 -172.80038 7234909
38.425434 -36.153423 -172.3576 9735812
39.204678 -36.335995 -171.97182 9406078
83.74501 -36.242516 -143.21852 7629411
84.384689 -36.149536 -142.35295 6510930
84.765518 -36.094013 -141.83328 8090218
87.533295 -35.831215 -141.04761 9208443
87.9039 -35.775986 -140.5181 10326666
88.516693 -35.684406 -139.63515 11774107
33.09745 -34.858559 -174.8925 9537918
33.832394 -35.020161 -174.65395 10854549
34.793457 -35.067547 -174.24803 12433321
35.721245 -34.990776 -173.90427 9078655
36.640942 -34.999577 -173.53014 7827818
37.620899 -35.412922 -172.97278 7169117
91.621353 -35.365177 -138.2364 4342073
92.093796 -35.292782 -137.51715 5591369
92.445633 -35.238613 -136.97772 6840666
95.166092 -34.972485 -136.0397 10065294
95.507477 -34.918865 -135.49115 9078656
95.944626 -34.842171 -134.73912 8881020
98.339142 -34.580288 -133.98923 9603969
98.75177 -34.500584 -133.21199 9406847
33.159763 -33.887836 -175.23029 8683126
34.040836 -34.14003 -174.9158 9012605
34.97739 -34.175537 -174.52438 12038820
35.710579 -34.21907 -174.21178 10328463
99.058792 -34.441059 -132.62944 9143419
101.4382 -34.177711 -131.8259 8287598
101.83412 -34.099049 -131.03938 9011577
104.20612 -33.833977 -130.19041 10261132
104.58722 -33.756145 -129.39455 9011321
106.9512 -33.489471 -128.50063 9405566
107.13535 -33.450829 -128.09804 9405566
32.238361 -33.02346 -175.53612 11116179
33.134079 -32.98925 -175.56284 9800835
34.229389 -33.3582 -175.14697 8157297
34.820774 -33.548046 -174.83408 12038820
107.31842 -33.412384 -127.69563 9931910
107.50058 -33.374039 -127.29349 9931910
109.84988 -33.106056 -126.3502 7367013
110.20105 -33.030113 -125.53679 7038307
112.49533 -32.790596 -124.79774 8814201
112.83047 -32.714764 -123.97298 7038307
115.20024 -32.494774 -123.2757 8682867
115.36104 -32.457039 -122.85797 8682867
31.537975 -32.043053 -175.8726 11642008
32.325851 -32.02697 -175.9025 11181459
33.051167 -32.307465 -175.82228 9406335
115.6003 -32.400581 -122.23196 9275004
117.96729 -32.178036 -121.48895 9933705
118.19633 -32.121834 -120.85521 7038307
118.42339 -32.065933 -120.22218 11381404
120.78419 -31.840794 -119.43087 8682867
121.00089 -31.785196 -118.79032 8682867
123.43217 -31.539042 -117.74306 8879478
123.70592 -31.465384 -116.87968 6510930
30.743141 -30.963051 -176.30247 10851980
31.402462 -30.988058 -176.34152 9866112
32.251141 -31.218197 -176.21591 10063232
126.06433 -31.235195 -116.00309 8485747
126.25864 -31.180353 -115.34863 7762027
128.61827 -30.947668 -114.43216 9142907
128.8018 -30.893183 -113.77075 9142907
131.16243 -30.657957 -112.81433 8419702
131.33536 -30.603872 -112.14619 8419702
29.605309 -29.740143 -177.30379 8090734
30.538906 -30.155952 -176.92719 8090990
31.285557 -30.175806 -176.92191 8288368
133.69682 -30.366144 -111.14977 13550517
133.85872 -30.31251 -110.47508 11379356
136.17033 -30.089951 -109.66581 9735812
136.3217 -30.036671 -108.9845 8024940
138.64041 -29.811411 -108.13977 10984849
138.78163 -29.758488 -107.45171 10984849
141.15108 -29.513021 -106.33981 8287856
141.28102 -29.460501 -105.64563 12827055
18.735188 -28.994284 -184.39944 7301478
19.683018 -29.126789 -184.3622 8024422
23.794983 -29.287119 -180.99034 8092019
24.87756 -29.28586 -180.84634 8089963
28.236122 -29.411602 -178.29372 7565675
29.106804 -29.428192 -178.26556 9340030
143.61099 -29.229929 -104.72717 7697261
145.86244 -28.928633 -103.18964 8353903
147.85971 -28.647747 -102.2262 7761509
147.90263 -28.585249 -101.474 9011320
18.005489 -28.144535 -184.7016 8090219
18.89896 -28.157536 -184.70744 6709078
19.56142 -28.388655 -184.63075 5393730
149.9838 -28.317776 -100.53854 11379356
152.08713 -28.027117 -99.326401 11313813
154.43474 -27.733961 -97.719452 10525835
157.03511 -27.481779 -96.227921 10261129
17.371944 -27.030008 -185.10175 7563619
17.945042 -27.100792 -185.08269 8485232
18.706646 -27.269623 -185.02992 9734788
159.61879 -27.183163 -94.162956 9471355
162.22165 -26.923023 -92.576431 12168866
164.85225 -26.679907 -91.213242 13023917
164.8091 -26.637737 -90.675606 6511954
167.47273 -26.411547 -89.537796 9537667
167.41959 -26.369484 -88.995499 9537667
17.010639 -26.083364 -185.44374 9604226
18.003269 -26.003469 -185.48473 9340798
170.06813 -26.118095 -87.542725 8090987
172.69701 -25.841473 -85.772087 11247507
175.41704 -25.602282 -84.510902 9997699
178.12453 -25.338545 -82.933525 16776175
16.31522 -25.020201 -185.82462 9473414
17.212513 -25.030598 -185.83128 8684155
178.03893 -25.298397 -82.376343 14604238
180.86905 -25.059334 -81.060699 10853012
180.77266 -25.019295 -80.499069 10853012
15.675091 -23.900309 -186.22734 10262929
16.206234 -24.173262 -186.13354 9933964
17.016323 -24.137568 -186.15602 8684155
15.336033 -23.183046 -186.48605 9736582
16.292103 -23.311705 -186.45006 10262929
14.648113 -22.014162 -186.90614 11051924
15.501675 -22.111326 -186.88048 10920338
16.164478 -22.565475 -186.72186 8684155
13.805599 -20.901564 -187.30386 9933702
14.630802 -20.982922 -187.28363 11315096
15.301579 -21.213102 -187.20715 10065286
13.079044 -19.847595 -187.68137 12432037
13.75111 -20.077253 -187.6051 9998471
14.577496 -20.158501 -187.58493 9933189
12.946117 -19.095842 -187.95515 11182230
13.773716 -19.176531 -187.9352 9734788
14.446743 -19.406912 -187.8587 9734788
12.210712 -18.263723 -188.25136 8814201
12.890034 -18.267796 -188.25774 9669252
13.718906 -18.348413 -188.23788 10458253
11.337605 -16.674362 -188.82333 9011320
12.008739 -17.131067 -188.66379 9142906
12.86887 -17.226501 -188.63885 9537409
10.455372 -15.774706 -189.30615 8089963
11.207287 -15.925095 -189.20404 8089963
12.146725 -16.113659 -189.078 7695206
9.5780983 -14.886258 -189.97675 9736836
10.392422 -15.066424 -189.84744 8091247
11.156345 -15.335437 -189.64964 9471871
-4.0472679 -14.088279 -198.78311 10656658
-3.0930748 -14.079351 -198.68745 8485494
-2.3781471 -14.072898 -198.61569 9012344
1.8785591 -14.325695 -195.37204 8353907
2.8143806 -14.324737 -195.36305 9735302
7.7973595 -14.493608 -191.07182 9538177
8.714016 -14.495617 -191.07469 9275262
-4.9368858 -12.816751 -199.34253 8681843
-3.9542427 -13.059649 -199.15143 10129031
-3.1775398 -13.4414 -198.93063 9604227
-5.7495918 -11.699505 -199.83734 8681843
-4.7866249 -11.932668 -199.65184 9931395
-3.8255882 -12.165734 -199.46658 8681843
-6.4839821 -10.738187 -200.26671 9208699
-5.6617546 -11.022107 -200.07718 9865859
-4.635891 -11.046286 -199.96194 11181204
-6.4939995 -10.010553 -200.53517 10392717
-5.5296364 -10.003415 -200.43784 8089962
46.320572 -39.834522 -167.60603 8879478
47.094196 -39.809624 -167.28264 7300958
47.866177 -39.785515 -166.95926 7367263
48.790142 -39.835487 -166.41656 8354158
49.566845 -39.911179 -165.825 8485489
50.589867 -39.81424 -165.48926 9867145
51.051071 -39.91721 -164.60022 11512476
51.561859 -39.854839 -164.16219 11512476
43.728901 -38.690838 -169.22324 10525070
44.493778 -38.875629 -168.84229 9406591
45.346455 -38.999329 -168.45007 8090218
46.277599 -39.08477 -168.04118 8353390
47.209118 -39.008572 -167.69571 6906712
48.127697 -39.036366 -167.30917 7038298
49.103081 -39.367779 -166.74919 8814709
49.681263 -39.351212 -166.5058 9406590
57.396927 -39.255047 -161.53583 9209211
58.211193 -39.152752 -160.77391 10064521
59.019421 -39.050766 -160.00989 11248536
59.661274 -38.969566 -159.39708 10261132
60.457489 -38.868443 -158.62895 9340286
42.62429 -37.893471 -169.98166 13024949
43.588879 -38.072105 -169.52266 11643295
44.5704 -38.043488 -169.13838 9670019
45.550289 -38.016254 -168.75415 9143419
46.528835 -37.990257 -168.37003 9669763
47.290325 -38.178223 -167.98923 8288365
65.275543 -38.373707 -156.47237 9011830
65.734619 -38.313793 -155.99577 10459273
66.494553 -38.214355 -155.20007 8025193
67.248489 -38.115253 -154.40269 9340539
67.697769 -38.056049 -153.92339 7762027
71.771439 -37.642193 -152.194 9012607
72.493698 -37.54459 -151.37282 10130058
40.559452 -36.708889 -171.27927 10261132
41.135754 -36.898876 -170.97237 8287341
41.908405 -37.082901 -170.58867 9669250
42.89476 -37.052769 -170.20296 11380124
43.879593 -37.023827 -169.81744 10525071
44.750473 -36.999355 -169.47604 9274748
45.609089 -37.39185 -168.97581 8748661
73.06662 -37.466869 -150.71481 9340539
73.493835 -37.408772 -150.22079 13023917
77.053879 -37.052986 -148.83521 9077625
77.605194 -36.976265 -148.16052 8682867
78.152374 -36.899788 -147.48521 14604238
78.560181 -36.842651 -146.9782 14604238
81.789017 -36.5242 -145.81093 8287341
39.238415 -35.916431 -172.12305 9406078
40.214897 -36.093353 -171.65999 8616306
41.206573 -36.061646 -171.27278 8089962
42.196365 -36.031296 -170.88577 8551285
43.18457 -36.002087 -170.49896 8486519
43.955078 -36.188675 -170.11514 8092019
82.44722 -36.429798 -144.94751 8881019
83.099503 -36.335911 -144.08337 8287341
86.154282 -36.035065 -142.98782 10788245
86.659195 -35.960651 -142.28256 10985367
87.16011 -35.886543 -141.577 10064009
90.301285 -35.566021 -140.21353 7827300
90.785065 -35.492657 -139.49474 6511954
37.141014 -34.729599 -173.43463 6510930
37.797432 -34.846985 -173.12402 8617075
38.508213 -35.102661 -172.73709 9341054
39.505207 -35.069675 -172.34824 9077369
40.500454 -35.037842 -171.95963 8089962
41.2953 -35.013283 -171.64897 9142651
42.186081 -35.23769 -171.20177 9143163
91.02533 -35.456207 -139.13528 4342073
91.264526 -35.419746 -138.77568 4342073
93.894699 -35.171013 -138.05122 5919050
94.360458 -35.098511 -137.31984 8815484
94.822235 -35.026413 -136.58836 10065294
97.289703 -34.781414 -135.93533 7038298
97.712509 -34.700699 -135.15637 8288108
98.0271 -34.640419 -134.57266 9537918
36.200569 -33.920658 -174.13153 9012606
36.864765 -34.150253 -173.77367 8091504
37.790421 -34.076492 -173.4296 8880247
38.791084 -34.04343 -173.03928 9867141
39.789898 -34.011505 -172.64923 9011832
40.570168 -34.197292 -172.26181 8090474
100.53355 -34.356174 -133.59837 10262415
100.93825 -34.276566 -132.81012 8814713
103.235 -34.030327 -132.18413 9011577
103.62614 -33.951527 -131.38605 7563619
104.01387 -33.873024 -130.58868 10261132
106.299 -33.625191 -129.9118 9340286
106.67313 -33.547493 -129.10501 8879991
33.665955 -32.744003 -175.61545 8814712
34.33131 -32.860878 -175.3013 8354675
35.197506 -32.970936 -174.90898 10327949
36.107994 -33.132767 -174.47842 9801607
37.068062 -33.047253 -174.12509 9604485
37.95779 -33.017925 -173.77803 9998985
38.849525 -33.305302 -173.30576 10393485
39.641445 -33.385624 -172.95506 9011832
108.95592 -33.297714 -128.38792 9010808
109.31625 -33.220753 -127.57208 9602945
111.72646 -32.96254 -126.65717 7037274
111.98503 -32.905014 -126.03678 8090218
112.24146 -32.84771 -125.41693 7037274
114.71118 -32.608635 -124.53061 9736067
115.03833 -32.532612 -123.69372 9736067
33.572426 -32.034149 -175.89304 9209212
34.44268 -32.037796 -175.5798 8880248
35.408569 -32.088997 -175.17041 9472385
36.34111 -32.015091 -174.82362 10393486
37.075375 -32.061394 -174.50954 9933193
117.42352 -32.309872 -122.9705 10064006
117.73564 -32.234394 -122.1235 9275006
120.12091 -32.009007 -121.35715 7038307
120.41795 -31.934063 -120.50029 7038819
123.01457 -31.650173 -119.04079 9142650
32.105457 -30.602331 -176.61978 9208435
32.833981 -30.930695 -176.42418 10457736
33.742264 -30.996639 -176.31509 9997957
34.661308 -31.268921 -175.81015 8880246
35.524422 -31.267916 -175.46259 10261387
36.185936 -31.384907 -175.13379 11379356
125.60248 -31.364037 -117.53363 9012088
125.86812 -31.290241 -116.65832 7762027
128.24474 -31.057257 -115.75773 9142907
128.43268 -31.002361 -115.09441 9142907
130.81065 -30.766783 -114.15354 7564643
130.98769 -30.71224 -113.48331 7564643
133.36679 -30.474066 -112.5023 10656398
133.53294 -30.419977 -111.82548 13550517
31.340916 -29.775612 -177.24037 9931646
31.96917 -29.99402 -177.08185 10260355
32.76342 -30.084772 -177.03613 10391941
135.86095 -30.19722 -111.03194 7564651
136.01659 -30.143482 -110.3484 9341055
138.35201 -29.917974 -109.51938 10261383
138.49741 -29.864542 -108.82895 9537918
140.88518 -29.618624 -107.73174 10984849
141.01923 -29.565647 -107.03511 8287856
20.284206 -28.98938 -184.41956 11378324
21.09972 -29.074717 -184.38467 10852237
21.75124 -29.29286 -184.21651 9339768
25.959446 -29.284592 -180.69626 10591380
27.040337 -29.283321 -180.53926 9999243
27.90432 -29.282295 -180.40936 8815227
30.196377 -29.449659 -178.22836 9208444
