# .PCD v0.7 - Point Cloud Data file format
VERSION 0.7
FIELDS x y z rgb
SIZE 4 4 4 4
TYPE F F F U
COUNT 1 1 1 1
WIDTH 1204
HEIGHT 1
VIEWPOINT 0 0 0 1 0 0 0
POINTS 1204
DATA ascii
-95.41114 -15.968436 126.40715 9735297
-91.083229 -14.376881 129.52354 9143681
-91.746223 -14.483119 129.14085 9538947
-92.46347 -14.6282 128.70171 9275776
-93.381729 -14.647962 128.27832 8288627
-94.091591 -14.812737 127.82584 9735297
-76.9039 -13.370516 144.12872 7826791
-77.83886 -13.461776 143.92952 9866116
-83.904015 -13.74929 136.75531 9208435
-84.561134 -13.750694 136.34947 10655371
-85.543304 -13.752805 135.73512 9275004
-86.358528 -13.754564 135.21793 11380380
-87.170418 -13.756324 134.6955 10459278
-89.643661 -14.022696 131.13075 9406078
-90.336662 -14.033783 130.78845 10129545
-91.203476 -14.048052 130.35896 9670024
-91.897652 -14.059709 130.01419 10788247
-76.235985 -12.561215 144.54539 7563619
-77.047249 -12.581491 144.39423 7695973
-75.638092 -11.356833 145.09526 11182489
-76.37207 -11.522322 144.90431 8221805
-77.04332 -11.852934 144.66351 6445906
-75.461731 -10.517884 145.43585 8814707
-76.388588 -10.577018 145.24988 9143674
-74.77253 -9.3482265 145.98915 10525067
-75.549492 -9.5622501 145.77264 9932931
-76.291885 -9.976285 145.48845 10788244
-74.135223 -8.3383598 146.47437 7565675
-74.91227 -8.5512085 146.25824 10525067
-75.725723 -8.5650187 146.1091 11511964
-74.125084 -7.4566374 146.80122 8157298
-74.960854 -7.6067419 146.59787 9275520
-73.465294 -6.3228216 147.33607 9143679
-74.114937 -6.5724926 147.129 9735302
-74.854759 -6.5419478 147.00922 8683383
-72.654991 -5.1048832 147.92868 9209467
-73.458824 -5.4663305 147.65303 9472386
-74.298119 -5.6271281 147.4451 10195595
-72.632851 -4.4312677 148.18095 9932678
-73.482857 -4.5470538 147.98773 10195594
-72.022873 -3.2107584 148.73895 9932678
-72.885292 -3.4366961 148.5029 10918805
-73.470573 -3.8982747 148.22905 9932678
-71.963394 -2.4244945 149.03925 8748916
-72.814911 -2.5379817 148.84662 10655889
-71.279045 -1.1365253 149.63495 8420464
-72.086617 -1.4969655 149.35915 8420464
-72.792618 -1.8578638 149.10126 9341822
-70.476723 -0.21385261 150.26932 9012091
-71.429718 -0.4206745 149.94814 7959657
-72.179298 -0.62764508 149.66309 8420464
-69.958687 0.47207713 150.89044 8288371
-70.684074 0.40271592 150.70869 8814713
-71.227333 0.19591814 150.45285 8288371
-60.010605 1.7850087 160.82956 9339771
-60.879025 1.6716403 160.63417 9998470
-68.497627 1.0268184 152.19337 9209211
-69.316231 1.026809 152.05176 9538433
-59.925144 2.6094582 161.14865 9734528
-60.794739 2.4964809 160.95314 10063493
-59.326015 3.4213798 161.55391 9471356
-60.274681 3.3803425 161.37097 9273979
-58.688805 4.9233007 162.22031 12431013
-59.301865 4.4411426 161.93407 8157548
-60.059944 4.2818294 161.74123 8681843
-58.563385 5.5702243 162.4809 9340796
-59.524738 5.5019827 162.28571 8552049
-57.840855 6.4325714 162.92661 8617327
-58.673111 6.4365034 162.78084 9012343
-57.175205 7.9476194 163.5365 10261129
-57.968277 7.5185499 163.27951 9537402
-58.781849 7.306181 163.0784 9603710
-57.109177 8.6725721 163.7655 9340022
-57.992607 8.5629797 163.59268 10261129
-56.512894 9.6864843 164.16571 9932681
-57.330482 9.474719 163.97237 10261129
-58.148685 9.2627859 163.77899 10261129
-56.441528 10.649887 164.46747 8420727
-57.315258 10.507545 164.28624 10064266
-55.86974 11.655596 164.86122 8552056
-56.631363 11.707438 164.75632 8814971
-57.110004 11.447811 164.60226 9932681
-55.74651 12.536796 165.14644 9669766
-56.588829 12.546006 165.0159 10590097
-55.223419 13.63812 165.56133 10854036
-55.703022 13.377613 165.40686 9933193
-56.466232 13.430881 165.30209 9012350
-54.288189 15.014409 166.75163 8025457
-55.102417 14.451018 165.99275 9735814
-55.855347 14.241339 165.67918 10525072
-52.174599 15.983807 168.48294 10129545
-53.030937 15.996315 168.37503 10656659
-53.622478 15.492108 167.43854 9867401
-54.466423 15.501662 167.297 8682867
-48.75341 16.652872 171.976 8682867
-49.620087 16.664639 171.87497 9208954
-48.026951 18.029087 172.56656 9735296
-48.683434 17.668081 172.35504 9209210
-49.47472 17.35532 172.14468 10261641
-47.959549 18.802212 172.85645 9341052
-48.949787 18.584455 172.65683 9735297
-47.343334 19.881229 173.32455 9735296
-48.107521 19.706125 173.16789 9932674
-48.601345 19.433254 173.00847 9209467
-46.646996 20.843264 174.06201 9734788
-47.383354 20.654322 173.79523 9734788
-48.055099 20.365902 173.46107 10261382
-45.793613 21.84049 175.07895 9735812
-46.58218 21.587677 174.65625 10919060
-47.394791 21.347134 174.32919 9734788
-44.491753 22.761456 176.74278 7366751
-45.359444 22.393108 176.00906 8880502
-134.96205 -43.438351 87.09726 8814453
-135.48499 -43.50655 86.743225 8419440
-136.25211 -43.406422 86.311874 8550769
-137.13086 -43.52282 85.716209 8616562
-138.01353 -43.641159 85.117287 8813686
-138.61603 -43.887218 84.342094 8089960
-139.12096 -43.888885 83.506203 8090736
-139.62045 -43.890549 82.667091 8090736
-140.0168 -43.891876 81.993843 10261132
-142.58818 -43.896984 80.755936 7038298
-142.97482 -43.898308 80.06813 7563619
-143.45387 -43.899971 79.206062 7563619
-143.92752 -43.901627 78.340942 7761254
-146.68158 -43.90749 76.663879 8485494
-147.04846 -43.90881 75.956444 9603459
-147.59277 -43.910789 74.892166 9208960
-147.95171 -43.912109 74.180679 10064011
-150.68726 -43.91806 72.400032 12432554
-151.2058 -43.920036 71.309586 11248282
-151.54741 -43.921345 70.580734 9734531
-153.93933 -43.926071 69.451553 12235690
-154.1888 -43.927055 68.894928 10064266
-154.6001 -43.928696 67.965454 9011581
-154.92554 -43.929996 67.220291 9735046
-157.32501 -43.934811 66.021873 8486262
-157.64052 -43.936119 65.263367 10196364
-158.0303 -43.937748 64.313278 10787988
-160.66727 -43.94363 62.473412 12893872
-161.04028 -43.945248 61.505222 10788756
-161.26118 -43.946217 60.92321 12038821
-162.959 -43.694466 60.370945 6511954
-163.36826 -43.658241 59.703808 8682355
-163.89377 -43.705017 58.780006 9274493
-164.40932 -43.680172 57.9245 9011065
-164.93022 -43.587524 57.142483 8089963
-165.7341 -43.252068 56.305428 11378324
-134.01157 -42.518356 88.090233 8353391
-134.76216 -42.669903 87.558548 8089963
-135.63942 -42.674435 87.012939 8287598
-136.52296 -42.637394 86.481689 8682868
-137.31975 -42.781353 85.924698 8945783
-138.04298 -43.038143 85.363777 9537406
-163.69264 -43.040524 59.597996 9011320
-164.13046 -42.906479 58.952747 8353391
-164.72763 -42.646656 58.127769 8682100
-165.23132 -42.750294 57.245304 8089963
-165.75955 -42.728992 56.580212 9207924
-166.45984 -42.643604 55.747082 9076597
-167.10941 -42.552143 54.982044 8813683
-132.77393 -41.371105 89.349297 9866371
-133.29607 -41.554493 88.956841 8945782
-134.10225 -41.732113 88.379234 8089963
-135.03946 -41.647724 87.835526 8089963
-135.91487 -41.756641 87.245193 8287598
-136.72632 -42.059986 86.609253 8814453
-164.40762 -42.240166 58.961788 8089963
-164.97774 -41.858177 58.27039 9274237
-165.55466 -41.65358 57.489326 8682872
-166.14041 -41.768555 56.66394 8813683
-166.67375 -41.835651 55.951385 8813683
-167.3676 -41.759045 55.121197 6511186
-168.05719 -41.729885 54.269081 6577747
-168.71046 -41.657211 53.488304 7563870
-169.33064 -41.517162 52.788681 8616563
-131.7921 -40.247559 90.308769 9340281
-132.63675 -40.64204 89.719719 9603457
-133.56271 -40.671661 89.179214 8748405
-134.46094 -40.692875 88.613281 10195335
-135.22551 -40.937138 88.032265 10984593
-135.76514 -41.136425 87.610344 8089963
-165.83875 -41.073982 57.45277 9143166
-166.44897 -40.929104 56.767704 9997699
-167.06142 -40.784595 56.079727 10787214
-167.67592 -40.640629 55.388756 7629410
-168.21434 -40.708057 54.669685 7235162
-168.82014 -40.82946 53.834904 7761248
-169.57568 -40.734547 52.938263 9011320
-170.19189 -40.740799 52.157959 8287597
-170.81802 -40.600365 51.451077 9734787
-171.34727 -40.596169 50.786533 7367007
-171.85895 -40.515381 50.188869 8288621
-131.32535 -39.527378 90.841835 9208952
-131.99144 -39.678322 90.444 9340282
-132.99779 -39.608376 89.961502 9274493
-133.82506 -39.906448 89.352646 9274493
-134.28181 -40.158871 88.95871 8617075
-167.90999 -40.008057 55.464981 9997699
-168.54688 -39.939102 54.701645 8814453
-169.14389 -39.806633 54.026173 8419439
-169.69189 -39.786655 53.346985 8814453
-170.38284 -39.696438 52.528961 9668994
-171.0721 -39.695614 51.660839 10260875
-171.6881 -39.820366 50.811386 7367007
-172.31575 -39.76836 50.050777 6840151
-172.87881 -39.663216 49.402699 7367007
-173.49182 -39.53484 48.705292 7564134
-174.0108 -39.454037 48.098457 7038307
-130.46623 -38.630001 91.645844 9208952
-131.38353 -38.611202 91.19178 9077367
-132.32419 -38.728119 90.669823 9537406
-132.89101 -38.799294 90.354942 8617075
-170.14519 -38.954353 53.263191 8814453
-170.55557 -39.005463 52.716049 8682355
-171.18417 -38.861164 52.008358 10129289
-171.85129 -38.785767 51.211708 8748660
-172.48698 -38.728115 50.444286 8946296
-173.21414 -38.626995 49.587063 8880246
-173.83847 -38.753403 48.726078 9011578
-174.39745 -38.827248 47.978302 7432807
-174.95825 -38.90218 47.227638 9537407
-175.68738 -38.545853 46.517372 8879475
-176.19476 -38.386475 45.971283 8090216
-129.16101 -37.162632 92.910347 9208955
-129.866 -37.525982 92.405045 9866629
-130.709 -37.738678 91.892586 9734786
-131.52519 -37.639034 91.522888 9274235
-132.21286 -37.920513 91.060196 9866369
-172.69165 -37.930962 50.653336 9209211
-173.32895 -37.78619 49.934818 9209211
-173.95444 -37.910797 49.073528 9801349
-174.68869 -37.809189 48.207565 7038307
-175.33603 -37.752766 47.424789 9537406
-176.0209 -37.679916 46.604256 8945269
-176.55391 -37.74752 45.836914 7629666
-176.94127 -37.560955 45.255783 7169373
-128.49014 -36.302074 93.604385 10457479
-129.16815 -36.574722 93.150146 8945783
-130.01212 -36.710873 92.668915 9932166
-130.9548 -36.649036 92.219894 9867909
-131.53471 -37.046345 91.763481 9537406
-174.27286 -37.228619 49.071815 8617078
-174.77638 -37.065804 48.532566 7038307
-175.5248 -36.782562 47.755135 7762026
-176.13966 -36.830574 46.952049 7893352
-176.81841 -36.823704 46.040413 6906201
-177.27959 -36.915504 45.113953 6643544
-177.83414 -36.441448 44.419441 6447193
-127.81924 -35.445732 94.296585 9405819
-128.31079 -35.694916 93.946007 9537405
-129.30347 -35.608387 93.48204 9537662
-130.17365 -35.784069 92.97123 9209724
-130.66919 -36.155499 92.56797 10262667
-176.46358 -36.14307 46.946556 5919050
-176.9791 -36.054646 46.323769 7564131
-177.53136 -35.864155 45.460869 6511957
-178.11604 -35.591526 44.549294 6249814
-178.55869 -35.604488 43.686775 6973280
-126.92517 -34.310543 95.216736 10787988
-127.70258 -34.651924 94.683975 9997442
-128.62906 -34.750439 94.176781 9011575
-129.49936 -34.746014 93.740417 8748917
-177.89464 -34.935162 45.495461 8419696
-178.27814 -34.74398 44.907898 7104350
-178.7854 -34.792282 43.893013 8288109
-179.28659 -34.765099 42.949638 9011323
-126.29577 -33.435684 95.895721 9734787
-127.09315 -33.613274 95.420738 9997959
-128.01831 -33.707859 94.91581 8814197
-128.86449 -33.860706 94.426559 9866884
-178.61977 -34.094131 44.764458 6511954
-179.00513 -33.902477 44.174194 10458505
-179.54913 -33.856155 43.16349 6840926
-180.09186 -33.625427 42.30117 8682359
-180.57565 -33.367134 41.574409 9011323
-125.58431 -32.621189 96.591042 9275003
-126.48326 -32.578812 96.156013 10458766
-127.40653 -32.669273 95.653755 8813429
-128.00238 -32.989231 95.221321 8681843
-179.34842 -33.250809 44.028923 8485229
-179.81638 -32.837456 43.455177 6775130
-180.30682 -32.65448 42.655708 7038307
-180.76257 -32.743435 41.708015 9011323
-181.21014 -32.51091 41.030571 7761510
-124.28483 -31.208452 97.830154 8682867
-124.95498 -31.608524 97.327126 8682867
-125.81059 -31.736763 96.843269 10459275
-126.70779 -31.665897 96.420891 12038308
-180.63896 -31.845608 42.656448 9735555
-181.04333 -31.80633 41.909119 8682867
-181.50111 -31.895195 40.957672 9143163
-181.95074 -31.661724 40.276939 8287342
-123.36805 -30.373289 98.801208 9603199
-124.24337 -30.595015 98.183975 9208694
-125.08213 -30.593447 97.775146 8682867
-125.86985 -30.813 97.224838 9735553
-126.61088 -31.033348 96.731514 12235684
-181.39993 -30.998871 41.913689 10788243
-181.81259 -30.960276 41.164612 11511966
-182.36215 -30.720083 40.46534 9801093
-182.79782 -30.733232 39.586723 10130058
-183.45743 -30.4319 38.759201 9735555
-121.06371 -29.150583 101.58276 9142651
-121.53909 -29.283504 100.98934 9142651
-122.23178 -29.350098 100.47511 8945015
-122.98921 -29.614407 99.716537 9734786
-123.71437 -29.849602 99.077133 9734785
-124.51095 -29.951807 98.588669 9668990
-183.28287 -29.965279 39.875275 10459023
-183.85208 -29.790295 39.073006 9208699
-184.33086 -29.788334 38.15535 7629924
-185.17075 -29.542891 37.338242 9273980
-185.91269 -29.325834 36.944168 10853012
-186.26236 -29.354458 36.082298 9405822
-105.07597 -28.342953 117.14434 9142907
-106.07138 -28.440748 116.66255 9208700
-106.8952 -28.554882 116.25053 9274237
-107.46387 -28.717827 115.93241 9537664
-119.30128 -29.047941 102.82593 9735812
-119.94176 -29.08482 102.37562 10853012
-120.58266 -29.122255 101.92326 9209467
-187.65518 -29.064669 35.414864 8485232
-188.00543 -29.094051 34.544441 10655633
-188.26761 -29.116365 33.890533 8485232
-104.36844 -27.514601 117.79057 9142651
-105.18881 -27.625061 117.38152 9669251
-106.16405 -27.618206 116.95064 9471359
-103.78907 -26.466951 118.46759 8418928
-104.53346 -26.634274 118.06956 8418928
-105.37474 -26.728632 117.65773 9273980
-103.05715 -25.539894 119.16421 7827822
-103.94872 -25.567446 118.75668 8484722
-104.76772 -25.577471 118.3885 8418928
-105.2662 -25.910089 118.03366 8089963
-101.70367 -24.204794 120.30052 8092019
-102.19254 -24.418215 119.9978 8879995
-103.0399 -24.649616 119.52855 8485495
-104.01391 -24.697811 119.07643 9866375
-101.56792 -23.589451 120.6083 8092019
-102.42833 -23.47604 120.27183 8025457
-103.26869 -23.562809 119.86372 7762029
-103.94913 -23.929832 119.41396 9340289
-100.79884 -22.514452 121.38216 10131599
-101.72118 -22.681139 120.90551 9868427
-102.73093 -22.630129 120.47761 7960177
-100.28727 -21.41313 122.05222 9735044
-101.01629 -21.560505 121.66924 9868427
-101.85165 -21.667799 121.25508 11973800
-99.474571 -20.555246 122.75815 8682871
-100.37214 -20.607222 122.33865 8156273
-101.26371 -20.623518 121.9362 9143423
-98.261848 -19.112497 123.87685 7564651
-98.760124 -19.435015 123.52589 8222065
-99.599342 -19.540852 123.11065 8353907
-100.52366 -19.70183 122.63546 7893358
-98.120697 -18.496426 124.18733 8814201
-98.933029 -18.561232 123.80048 8682867
-99.747421 -18.626867 123.41245 9472385
-96.570801 -17.148623 125.41759 11378324
-97.34304 -17.426367 124.96298 9602942
-98.265442 -17.581963 124.49076 8945783
-99.106346 -17.684956 124.0759 8682867
-99.607048 -18.008217 123.72354 10261899
-96.035164 -16.368031 125.96932 8090216
-96.525414 -16.572977 125.66924 8090216
-97.417542 -16.598104 125.26302 9405563
-98.410362 -16.665182 124.79511 8682612
-95.157883 -15.209731 127.02029 9735297
-95.953682 -15.556891 126.41111 7893351
-96.897102 -15.675323 125.91481 8024424
-97.776573 -15.839798 125.41067 8155756
-98.267982 -16.045725 125.10746 7563619
-92.418564 -14.068703 129.75473 10855060
-93.28772 -14.083996 129.32089 9736326
-94.075081 -14.211738 128.66443 9472128
-94.63047 -14.518885 127.91137 10327177
-95.420059 -14.656269 127.36826 12168866
-96.176575 -14.767544 126.93996 9735297
-78.378975 -13.340343 143.8228 10260617
-79.030876 -13.41257 143.50839 9405823
-79.934372 -13.421296 143.10432 8879481
-80.62162 -13.626558 142.71751 7563619
-88.140594 -13.758435 134.06236 9802121
-88.945702 -13.760198 133.52957 8881278
-89.747375 -13.761959 132.99165 8092019
-90.54599 -13.763723 132.44914 8091249
-91.341141 -13.765487 131.9016 8617337
-78.252571 -12.610055 144.13766 8946038
-79.3535 -12.622043 143.68164 9142652
-80.041817 -12.827172 143.29448 10260617
-77.66346 -11.442589 144.70499 5920074
-78.470238 -11.668135 144.43115 7104347
-79.242294 -11.891832 144.02315 11312789
-76.999321 -10.589953 145.13696 9210491
-77.816063 -10.607487 144.98584 7170396
-78.584625 -10.82294 144.74246 5920074
-76.831123 -9.5367403 145.55508 9801348
-77.737724 -9.6846619 145.33994 8815478
-76.337593 -8.5755291 145.99684 9735555
-77.155403 -8.589756 145.84676 10788244
-75.529999 -7.3568964 146.58917 9801349
-76.311905 -7.5698423 146.37219 10261900
-77.094933 -7.7836976 146.15469 10788244
-75.467186 -6.5500832 146.89775 9143675
-76.285744 -6.5610342 146.7487 9209468
-74.880714 -5.451828 147.40652 9670019
-75.78907 -5.5938044 147.19334 9406847
-74.013695 -4.3087883 147.98148 9209467
-74.796822 -4.5188966 147.76535 9472640
-75.616508 -4.5268145 147.61726 10262156
-74.172783 -3.3809936 148.29541 9275261
-74.944405 -3.6661527 148.05359 9932935
-73.382698 -2.4053612 148.79498 10327693
-74.327301 -2.4788454 148.60065 10064521
-72.929573 -1.03995 149.37833 11379868
-73.387764 -1.4512025 149.14569 11248539
-74.176384 -1.55694 148.96707 10524816
-72.752327 -0.38266382 149.74307 10129801
-73.591454 -0.49428898 149.5128 12432812
-71.367516 0.60834593 150.74707 8288371
-72.049599 0.44276053 150.49852 7893097
-72.867729 0.19371951 150.16179 9734787
-61.410748 1.927532 160.63443 7696491
-62.212944 1.7146245 160.41406 7762025
-63.015656 1.501316 160.19348 7564643
-70.547882 1.0267558 151.83891 8485749
-71.371513 1.0268052 151.69659 9735812
-61.367424 2.6396649 160.90466 9339771
-62.239693 2.5266371 160.70871 8485746
-60.807266 3.638834 161.37207 10787214
-61.533813 3.4688289 161.18085 9274490
-62.207451 3.2125046 160.96721 8682867
-60.631397 4.5606055 161.74295 9932163
-61.493259 4.4155278 161.53702 9603712
-60.098991 5.6485982 162.23817 8092011
-60.854706 5.5797353 162.07913 8880502
-61.452751 5.3656888 161.89445 9538176
-59.924007 6.442699 162.56186 10195592
-60.75975 6.4470263 162.41565 9932166
-59.311794 7.6722822 163.10922 9603710
-60.115028 7.3868918 162.87396 10064008
-58.524075 8.8288288 163.58873 10261129
-59.343376 8.6171923 163.39517 9800834
-60.163334 8.4052229 163.20152 9011576
-58.603745 9.5950346 163.80714 10261129
-59.424046 9.3833046 163.61343 10196361
-57.885471 10.795383 164.28279 10524302
-58.633049 10.457346 164.0625 10392972
-59.504925 10.151785 163.83234 9933702
-57.895992 11.720809 164.56017 10195852
-58.788734 11.377463 164.31532 11051160
-57.221497 12.553157 164.91791 10853012
-58.066498 12.562921 164.78706 9472131
-57.099785 13.438555 165.20413 9209472
-57.94574 13.449036 165.07343 8880252
-56.447636 14.400846 165.67691 9604485
-57.211945 14.335526 165.52402 11314845
-57.80201 14.114795 165.29694 10459281
-54.319023 16.015873 168.21562 9735555
-55.126915 15.6826 167.49757 9735296
-55.862297 15.277384 166.79868 10393486
-56.63158 15.047961 166.43198 9933193
-50.922573 16.683052 171.72336 8880246
-50.126209 17.36474 172.069 8682867
-50.904247 17.329985 171.9617 9077369
-49.42453 18.979565 172.74315 10261382
-50.199238 18.584465 172.50507 10129800
-50.852261 18.071133 172.23849 9735043
-49.414131 19.726891 173.01675 9603968
-50.215641 19.615274 172.87871 9932934
-48.627216 20.701813 173.62819 9735296
-49.523521 20.582214 173.39546 9143161
-47.279224 21.8435 174.7317 9734788
-48.120701 21.729307 174.50589 10524303
-48.910156 21.365763 174.09593 9537665
-45.128883 22.94791 176.87181 7366751
-45.987549 22.950289 176.68193 7104097
-46.567844 22.582003 176.01305 12366503
-47.498272 22.400656 175.53854 10261131
-138.79222 -43.5439 84.677399 8089955
-139.75366 -43.471611 84.113388 7892837
-140.64981 -43.594807 83.503983 7301222
-141.40314 -43.730259 82.895935 7235685
-142.03416 -43.747875 82.258453 7695718
-142.29581 -43.895985 81.270348 7564386
-145.17889 -43.902161 79.474968 9011577
-145.65443 -43.903835 78.599716 7630184
-146.12427 -43.905499 77.721298 7038307
-146.49683 -43.906826 77.016838 7038307
-149.26614 -43.912769 75.289215 7564651
-149.80559 -43.914757 74.208969 7169627
-150.24934 -43.916416 73.305939 11445143
-152.92065 -43.922112 71.668022 8616307
-153.34903 -43.923714 70.746292 8682867
-153.68764 -43.925083 70.006966 14077894
-156.4377 -43.931202 68.099503 9143681
-156.84421 -43.932846 67.156517 8157042
-157.16585 -43.934158 66.400558 8486262
-159.59291 -43.939045 65.172607 13023917
-159.82692 -43.940033 64.595688 11181972
-160.38074 -43.873981 63.699112 10721422
-161.37628 -43.494656 63.19558 7893868
-161.89978 -43.535503 62.2794 8289139
-162.36732 -43.616295 61.429386 8748918
-162.8111 -43.395569 60.8363 8353647
-137.82617 -42.605267 85.688225 7038298
-138.34509 -42.53854 85.395966 8747889
-139.07019 -42.769394 84.845268 8155749
-140.03423 -42.695023 84.280533 8156009
-140.93295 -42.816246 83.670372 7301222
-141.584 -43.109959 83.137955 7038307
-162.11131 -42.738529 62.493687 7038298
-162.60886 -42.734978 61.653477 7959144
-163.13448 -42.777977 60.732277 9603458
-163.6499 -42.749649 59.879501 7301214
-136.29245 -41.201443 87.254967 8419440
-136.92989 -41.481915 86.736877 8222316
-137.56902 -41.764236 86.216866 8617074
-138.52571 -41.684628 85.659004 8156265
-139.424 -41.678791 85.104858 9076853
-140.05196 -41.950603 84.596397 8287335
-140.60442 -42.159496 84.162285 8089955
-162.51083 -42.0839 62.287342 7959144
-162.90999 -41.97208 61.691498 7959144
-163.39336 -41.724133 61.05088 9406079
-163.92094 -41.767326 60.126083 8156267
-164.45731 -41.72628 59.24688 9011320
-165.01944 -41.429218 58.507988 9669253
-134.98056 -40.241207 88.489578 10984593
-135.52032 -40.438961 88.068245 9011063
-136.14249 -40.580757 87.620483 7958377
-137.02484 -40.688492 87.026382 8156267
-137.97961 -40.604504 86.471603 8090730
-138.71661 -40.939415 85.867867 8288109
-163.79066 -40.895325 60.973278 7761509
-164.18109 -40.711155 60.44405 9143166
-164.71068 -40.754597 59.515701 8090736
-165.2408 -40.799347 58.585396 9143166
-165.65921 -40.764156 57.911755 9143166
-166.4957 -40.422752 57.006306 10458508
-134.02206 -39.331806 89.482849 9734788
-134.65469 -39.60387 88.971336 8551281
-135.53134 -39.706127 88.383224 8747891
-136.47913 -39.617195 87.834953 7760998
-137.3031 -39.765724 87.259132 9142907
-164.90959 -39.978863 59.735897 7696236
-165.50391 -39.739403 58.901112 7959150
-166.04803 -39.787144 57.971226 8945787
-166.57172 -39.759064 57.300404 10129801
-167.24609 -39.751522 56.453697 12103073
-167.93149 -39.56963 55.695511 11117208
-168.47121 -39.635117 54.975761 8814453
-169.17021 -39.278282 54.303345 8814453
-133.23334 -38.576912 90.274712 9668994
-134.12294 -38.660263 89.71521 9340285
-134.98584 -38.643276 89.187958 8814451
-135.86543 -38.743328 88.598938 8287342
-136.74884 -38.845154 88.006813 7563619
-165.79959 -38.897434 59.004967 8090736
-166.34332 -38.770954 58.207264 7433320
-166.95367 -38.79427 57.38522 10459537
-167.4915 -38.856594 56.669804 12104103
-168.14432 -38.775925 55.893272 11643552
-168.7852 -38.789036 55.076687 10393485
-169.47723 -38.606495 54.310505 8024681
-170.06923 -38.648602 53.538647 8814453
-170.715 -38.579685 52.764614 10129289
-132.68359 -37.514259 90.991402 9668991
-133.48317 -37.677635 90.519966 9866371
-134.34616 -37.724174 89.9879 9275003
-135.23669 -37.738689 89.429657 9011571
-135.77969 -37.932281 89.008163 9011571
-167.15726 -38.048988 57.566181 10788502
-167.80238 -38.012234 56.77359 12104103
-168.49951 -37.651085 56.105976 13551549
-169.04237 -37.713581 55.384045 11446173
-169.58676 -37.777103 54.659618 9801348
-170.26947 -37.857971 53.750488 8156523
-171.03447 -37.727024 52.861919 9866373
-171.58501 -37.793873 52.128353 8353903
-172.21809 -37.647854 51.415886 9998471
-172.85376 -37.502045 50.700195 9209211
-131.42123 -36.241646 92.153717 9143931
-131.91946 -36.616238 91.747833 9274235
-132.78604 -36.683914 91.283546 9866625
-133.8154 -36.719769 90.743103 10788244
-134.46115 -36.98904 90.23941 9011571
-169.27835 -37.077087 55.460278 11446173
-169.90302 -36.926899 54.760128 10129801
-170.53 -36.776936 54.056877 8551281
-171.08392 -36.752205 53.372322 8025194
-171.77754 -36.744606 52.501369 8617075
-172.47411 -36.737953 51.626423 9932422
-173.09726 -36.857964 50.770538 8617331
-173.73219 -36.80043 50.004013 8419952
-174.30176 -36.690109 49.3508 8485747
-174.92188 -36.555969 48.647854 7235684
-175.44687 -36.470379 48.036201 7367269
-130.55443 -35.353592 92.957787 9143931
-131.24173 -35.627918 92.498169 10262667
-132.26392 -35.624596 91.984917 10261899
-133.03136 -35.76548 91.540215 9867140
-133.83215 -36.12394 90.988632 9143675
-171.53737 -36.002094 53.240826 7564643
-172.05183 -35.912304 52.644264 9340541
-172.6635 -35.774078 51.953465 9800581
-173.26138 -35.818405 51.1731 7630180
-173.90414 -35.755116 50.399666 7564390
-174.63974 -35.647308 49.535606 7433062
-175.27167 -35.768715 48.668083 7367269
-175.83743 -35.837833 47.914497 7367269
-176.38559 -35.829712 47.228424 6708822
-177.11066 -35.462696 46.509193 9275261
-129.87637 -34.491524 93.655945 8682867
-130.62698 -34.572338 93.244598 8617331
-131.50618 -34.717724 92.741798 8485745
-132.3277 -34.758705 92.311226 9406595
-174.11044 -34.953259 50.609642 6511962
-174.75493 -34.802376 49.885361 6774877
-175.38797 -34.921955 49.017487 7367269
-176.07797 -34.822285 48.206245 8814458
-176.68059 -34.803406 47.457779 8090476
-177.3893 -34.613514 46.641808 7959145
-177.86627 -34.630154 45.791908 10393485
-128.57999 -33.178009 94.852417 10854036
-129.15924 -33.367928 94.482124 10130313
-129.94731 -33.711685 93.943054 9472383
-130.95267 -33.62006 93.474815 9012089
-131.62402 -33.757069 93.080124 8419700
-175.56766 -34.217987 49.203316 7367269
-176.19897 -33.988434 48.542076 12169898
-176.97592 -33.775249 47.687698 7103836
-177.52905 -33.763851 46.997284 6775383
-178.091 -33.819046 46.000862 11051415
-178.59119 -33.788395 45.061478 9800831
-128.48528 -32.541519 95.163521 10854036
-129.33165 -32.66518 94.686234 10130313
-130.15857 -32.630329 94.284355 9209211
-130.75113 -32.874935 93.884811 8682867
-177.92465 -33.124367 46.872002 7696485
-178.30856 -32.930496 46.284775 10459278
-178.81635 -32.8125 45.40033 7893349
-179.3515 -32.664909 44.486763 8748401
-179.87564 -32.386242 43.698219 6511954
-127.70075 -31.590931 95.952034 9275520
-128.52869 -31.604837 95.529427 10393486
-129.40167 -31.738474 95.034599 9275262
-130.08748 -32.150356 94.518768 9406590
-178.65007 -32.278522 46.142982 9538432
-179.20419 -31.719093 45.518921 7038043
-179.60605 -31.677685 44.778038 7169629
-180.11841 -31.722572 43.755959 8024680
-180.61023 -31.537632 42.955475 8682867
-125.56228 -30.187567 97.857521 8682867
-126.31178 -30.344049 97.346741 9932933
-127.04688 -30.614868 96.773262 10985621
-127.86224 -30.715887 96.292114 9012606
-128.79382 -30.719078 95.804688 9275777
-129.345 -30.89728 95.411339 9012606
-179.8481 -31.013918 44.837326 7893096
-180.39093 -30.835958 44.050903 7432289
-180.83298 -30.918951 43.09938 12235689
-181.32309 -30.690298 42.432365 11906724
-182.04904 -30.306293 41.678123 12696241
-124.11951 -29.337549 99.400269 9866371
-124.98949 -29.491568 98.746201 9734783
-125.73739 -29.645271 98.236008 8682867
-126.63853 -29.720125 97.718277 9209726
-127.42281 -29.973051 97.106339 9670277
-127.967 -30.019638 96.792923 9933193
-181.24658 -30.238373 43.335297 11051415
-181.81038 -30.06225 42.545395 12301482
-182.58295 -29.682928 41.799355 10590609
-182.96039 -29.71314 40.959702 9538179
-183.51151 -29.534464 40.15593 8814971
-107.20197 -28.318539 116.20872 8089963
-107.9582 -28.51886 115.79223 9011064
-108.94953 -28.617085 115.28787 8485235
-109.65007 -28.700436 114.73198 10853012
-110.29026 -28.813061 113.92889 9537921
-110.97372 -28.814796 113.26308 9537921
-111.65296 -28.816528 112.5928 8813942
-112.46276 -28.818609 111.78334 9866887
-113.13333 -28.820337 111.10446 8880507
-113.79951 -28.822069 110.42124 9801351
-114.46182 -28.823795 109.73434 10129801
-115.11976 -28.825523 109.04325 9142650
-115.90388 -28.827593 108.2088 8814709
-116.55282 -28.829315 107.50928 10064777
-117.1973 -28.831036 106.80558 9209467
-117.96524 -28.833099 105.95621 8419440
-118.60063 -28.834818 105.2444 10787219
-119.23148 -28.836529 104.52837 10590865
-119.85824 -28.838245 103.80888 10853012
-120.48917 -28.842024 103.0929 9735299
-121.40014 -28.884361 102.36292 10260875
-122.20755 -28.931803 101.7919 10787219
-123.0158 -28.98008 101.2174 9406078
-123.82494 -29.029135 100.63977 10853012
-124.63506 -29.079025 100.05869 9603197
-184.68494 -29.229944 39.946426 11116184
-185.12453 -29.263462 38.876762 6971738
-185.47536 -29.290899 38.019096 7563618
-186.87842 -29.009291 37.603333 10853012
-187.12811 -29.021597 36.717094 10853012
-187.39188 -29.042957 36.066521 6511954
-190.97205 -29.019892 33.428261 7564642
-106.62324 -27.262304 116.88888 10853012
-107.22017 -27.552963 116.5071 9142394
-108.12663 -27.607517 116.08218 9931910
-109.06301 -27.793354 115.59136 9143166
-105.88979 -26.326891 117.58949 10853012
-106.56339 -26.55625 117.19815 9931910
-107.46899 -26.607988 116.77477 8747636
-108.26173 -26.750343 116.36523 9340542
-105.10021 -25.135818 118.41785 8089963
-105.78203 -25.506901 117.96595 9339773
-106.81065 -25.610458 117.4674 9602945
-107.59148 -25.91011 117.0001 8089963
-104.57317 -24.343233 118.97065 10853012
-105.06593 -24.559441 118.66484 9208187
-105.97018 -24.605667 118.24464 10063496
-106.80019 -24.712999 117.83294 10524047
-103.78101 -23.156256 119.79968 8681843
-104.46326 -23.523586 119.34904 9997703
-105.30973 -23.612371 118.93744 9537152
-106.06246 -23.777676 118.53668 10392461
-103.07188 -22.35807 120.43559 8354163
-103.74475 -22.579603 120.04769 8813429
-104.64809 -22.620771 119.63003 9405566
-105.47729 -22.72336 119.22053 10326668
-102.30505 -21.303684 121.20018 11710372
-103.08228 -21.591703 120.73921 8222320
-103.98491 -21.630363 120.32279 9273980
-104.7373 -21.791636 119.92383 9405566
-101.56542 -20.379797 121.9002 8813945
-102.23815 -20.597933 121.51371 10328208
-103.32063 -20.641407 121.01553 9274237
-103.99628 -20.861639 120.6269 9537409
-100.9754 -19.334808 122.58247 8813945
-101.57276 -19.612513 122.20547 8551029
-102.47429 -19.646389 121.79152 9208957
-103.25433 -19.933146 121.32976 9011065
-100.23307 -18.413015 123.28277 8813945
-100.90617 -18.628187 122.89738 9405824
-101.87148 -18.546364 122.50156 8485747
-102.45386 -18.747086 122.16221 9209467
-99.610634 -17.239727 124.03098 10261899
-100.16087 -17.641754 123.625 12367276
-101.13882 -17.673681 123.17787 7564393
-101.81429 -17.889153 122.79128 7367271
-98.895134 -16.448524 124.66697 8682867
-99.647804 -16.518747 124.30445 10261899
-100.51521 -16.496578 123.92815 10787473
-101.11541 -16.772655 123.5506 7695720
-97.468109 -15.266424 125.9485 8813686
-98.003349 -15.280128 125.69973 10721426
-98.807159 -15.63137 125.09367 8748149
-99.720879 -15.640059 124.67461 9932677
-100.51972 -15.723958 124.23682 12432037
-95.203651 -14.119195 128.3607 13023917
-96.076248 -14.135865 127.92117 10787727
-96.763191 -14.324511 127.23478 8945782
-97.393913 -14.625622 126.56846 9471615
-98.400658 -14.690112 126.01937 9537409
-99.080399 -14.932941 125.51487 8353135
-81.099373 -13.393542 142.599 8024169
-82.041374 -13.403717 142.17728 8747891
-82.813232 -13.551509 141.77594 9537406
-92.291069 -13.767604 131.23845 11840933
-93.079079 -13.76937 130.68073 10130829
-93.886177 -13.774399 130.14928 8024944
-94.930389 -13.791943 129.61383 8485493
-80.439735 -12.30056 143.3287 11708316
-81.237839 -12.490682 142.89883 8155756
-82.14505 -12.582965 142.45973 9866370
-79.676277 -11.496831 143.98878 8879734
-80.656853 -11.438909 143.57727 9866371
-81.492912 -11.5131 143.17688 8682099
-79.09153 -10.426707 144.67621 7499108
-79.83989 -10.489571 144.31929 8222065
-80.692535 -10.572823 143.90797 9537407
-78.324112 -9.5155611 145.29842 9210491
-79.124367 -9.575201 145.00238 9735556
-80.035133 -9.4981604 144.62944 10195851
-77.806808 -8.3999233 145.80135 9735555
-78.256172 -8.6494665 145.62979 9341055
-79.259064 -8.6614971 145.30826 9801093
-77.669624 -7.5333247 146.14514 9406334
-78.609322 -7.7402987 145.8905 8616308
-76.901161 -6.569375 146.63669 9735555
-77.724159 -6.5807004 146.48672 9866885
-78.512238 -6.7946177 146.26831 9734787
-76.331123 -5.1437459 147.26324 9538433
-77.039833 -5.506875 147.00385 9406334
-77.720566 -5.8368192 146.76163 10064008
-76.233063 -4.5327563 147.50586 9341054
-77.057213 -4.5408649 147.35692 8945272
-75.567719 -3.2360327 148.10175 9077882
-76.249245 -3.5644319 147.85999 8485233
-76.995827 -3.7239504 147.66895 8089963
-75.561081 -2.4861941 148.37943 9538176
-76.386284 -2.4911869 148.23145 9340028
-74.76339 -1.3747648 148.9303 10787732
-75.678871 -1.5120797 148.71762 9537662
-74.18644 -0.35845464 149.50806 10787731
-75.029366 -0.47031945 149.27707 9077625
-73.423561 0.60709733 150.38284 10787731
-74.140198 0.2957409 150.01599 11774626
-74.930382 0.19102621 149.79588 9932937
-63.47657 1.8218659 160.23013 8880503
-64.374031 1.6726532 160.01636 9341054
-71.990837 1.0267396 151.58971 9537409
-73.025978 1.0268593 151.41113 8089963
-62.774639 2.7844443 160.70909 7564643
-63.580196 2.5712812 160.48804 9012089
-64.38633 2.3578172 160.26672 10262156
-62.733124 3.5001757 160.98027 9209211
-63.60931 3.3875215 160.78378 9670019
-62.082989 4.6117401 161.50504 9538176
-62.950096 4.4527979 161.29306 10525071
-63.788307 4.0775132 161.00642 9341054
-61.510281 5.7992735 162.04411 9538176
-62.240978 5.6293812 161.85223 9867141
-62.918255 5.3721313 161.63757 9998727
-61.387585 6.4503956 162.30583 9011576
-62.34613 6.4120932 162.12215 9603969
-60.800346 7.8279133 162.91562 9932166
-61.433975 7.478538 162.67657 9274492
-62.132996 7.3267326 162.49701 9932166
-60.698353 8.6720238 163.19727 9734787
-61.588161 8.5628967 163.02351 9603457
-60.092339 9.7182341 163.60863 10656913
-60.783409 9.4614944 163.42184 9538176
-61.526783 9.2928104 163.25333 9932166
-60.040314 10.421027 163.82878 10459790
-60.931393 10.31279 163.65508 9407870
-59.24398 11.69153 164.33797 10656913
-60.068134 11.480054 164.14374 10854292
-60.869225 11.046973 163.88638 9933702
-59.336819 12.578231 164.59064 11577760
-60.185558 12.588757 164.45946 9210491
-58.581093 13.457106 164.97522 9011838
-59.42989 13.468266 164.8443 10196109
-57.897068 14.57416 165.56641 7564651
-58.626549 14.401721 165.3502 7564651
-59.287254 14.13499 165.0679 9011838
-56.582283 15.527307 166.94342 9012606
-57.236904 15.376224 166.67334 12170664
-58.061562 15.189234 166.35526 11381149
-52.228405 16.702393 171.57167 8880246
-53.100773 16.715818 171.4705 8682867
-55.827717 16.040268 168.03352 9208953
-56.476303 16.051296 167.95679 8682867
-51.456585 17.616388 171.99908 9406078
-52.304138 17.397993 171.81638 8682867
-53.152119 17.179527 171.63358 9931910
-51.570671 18.681505 172.37386 9406078
-52.251183 18.248924 172.13339 9143162
-50.806286 19.703276 172.839 9932934
-51.588837 19.670004 172.73184 10064008
-50.104866 20.885366 173.52939 9932934
-50.9263 20.652838 173.24152 10327692
-51.756828 20.424166 172.98624 12433069
-49.231873 21.86809 174.43163 9340289
-50.167603 21.581804 174.05743 9143418
-47.276566 22.954973 176.39862 9340801
-48.136635 22.958988 176.21075 9866374
-48.783543 22.407082 175.25854 9735045
-49.64114 22.412069 175.07274 9340289
-142.68492 -43.39986 82.328415 7169373
-143.32919 -43.559265 81.859192 9536894
-144.06113 -43.663441 81.359909 10326409
-144.79111 -43.674835 80.70282 9800836
-145.73871 -43.593494 80.351059 9011321
-147.60153 -43.90675 78.506264 7959144
-147.88376 -43.907761 77.972565 6511954
-148.34982 -43.909435 77.080841 8024941
-148.81091 -43.911102 76.186493 8814203
-151.60303 -43.917122 74.417961 8550512
-151.95929 -43.918461 73.687012 11511193
-152.39948 -43.920124 72.770828 9734531
-155.18391 -43.926231 70.913429 8092019
-155.52292 -43.927559 70.165192 10591380
-155.9422 -43.929222 69.227753 9933196
-156.19115 -43.93021 68.664154 9143681
-158.71667 -43.935417 67.280357 9208443
-159.14468 -43.706753 66.694275 11775395
-159.54688 -43.763248 65.82663 13090739
-160.25919 -43.625118 64.994072 10589836
-160.84219 -43.383266 64.180321 8155755
-141.14554 -42.231689 83.795296 7169888
-141.79813 -42.524357 83.262405 6906711
-142.5374 -42.762226 82.699821 6643540
-143.60753 -42.635258 82.092468 8616049
-144.36121 -42.753895 81.573311 10786703
-144.90665 -42.954803 81.147095 12431013
-159.46133 -43.145103 66.690475 11643552
-160.01387 -42.841942 65.972397 13749697
-160.46429 -42.848656 65.204506 10392457
-161.03494 -42.615143 64.40564 8155755
-161.55914 -42.653576 63.490135 8024938
-161.94598 -42.468922 62.96759 6511954
-139.80635 -41.240334 85.060364 10261132
-140.35895 -41.447483 84.627052 8682095
-141.17763 -41.622612 84.042831 8090214
-142.08397 -41.742535 83.428543 7827298
-142.88461 -41.643955 82.975693 8090470
-143.54414 -41.938858 82.437515 7695460
-160.72528 -41.95372 65.405487 8418927
-161.26526 -41.82056 64.586426 9340027
-161.79831 -41.773369 63.71743 9208697
-162.26756 -41.850952 62.866764 7235421
-162.9113 -41.428371 62.07996 7959144
-138.83035 -40.305378 86.075729 8616818
-139.65695 -40.6115 85.429138 9800581
-140.55669 -40.725513 84.821556 8747893
-141.35074 -40.622784 84.374573 7826791
-142.16672 -40.845196 83.771263 7761505
-161.53682 -41.156193 64.603836 11181972
-162.0607 -40.887661 63.909279 11774108
-162.60452 -40.743374 63.091797 9472126
-163.17258 -40.675411 62.178226 7038298
-163.68863 -40.564541 61.383713 6643542
-138.22925 -39.584522 86.764793 8485488
-139.03773 -39.722885 86.203033 8485232
-139.94307 -39.681602 85.66011 8353135
-140.85115 -39.68462 85.0961 7958633
-141.63437 -39.840755 84.542145 8353135
-163.00218 -39.832626 63.072414 9406591
-163.41434 -39.791077 62.403992 9142908
-163.88696 -39.86964 61.546902 7038307
-164.48764 -39.729298 60.630005 9472130
-165.03496 -39.412788 59.930183 9472130
-136.88383 -38.458652 88.092789 8616307
-137.52669 -38.734268 87.573471 9011065
-138.48724 -38.644718 87.017517 9011321
-139.38385 -38.75061 86.415413 9340798
-140.09065 -38.699623 85.999863 8616563
-140.64664 -38.90218 85.566437 9142907
-163.71645 -39.024864 62.442616 8287859
-164.19502 -38.859016 61.750973 7235686
-164.6738 -38.808781 60.975956 8682616
-165.29121 -38.597244 60.081902 9340544
-165.75601 -38.60508 59.288792 9537666
-166.16122 -38.493412 58.682655 7565675
-135.56018 -37.5075 89.330658 9011571
-136.17859 -37.575661 88.917595 9076856
-136.97668 -37.664635 88.383942 9011065
-137.86713 -37.765072 87.788048 9208442
-138.65129 -37.652367 87.351593 9142905
-139.30095 -37.929665 86.827316 9143419
-165.00609 -37.826252 61.118767 7169635
-165.52866 -37.793591 60.256996 7695463
-166.06297 -37.83493 59.322109 8814199
-166.49089 -37.869015 58.572594 8289140
-167.14853 -37.499176 57.900269 9736071
-167.90076 -37.363045 57.030933 11051930
-134.72453 -36.538292 90.274101 9209207
-135.53421 -36.654121 89.721512 8681835
-136.34947 -36.711498 89.191109 8681835
-137.31465 -36.695889 88.599869 9077112
-138.13992 -36.988464 87.960052 9734527
-165.64301 -37.15295 60.523468 7563619
-166.284 -36.891701 59.62516 8682356
-166.84061 -36.748928 58.790424 9801865
-167.45796 -36.654621 58.006046 8289140
-167.99878 -36.713406 57.288857 9078398
-168.67685 -36.788315 56.389057 13420219
-169.43581 -36.652252 55.511131 10722193
-170.14053 -36.28833 54.83556 9932166
-133.33678 -35.269348 91.591782 9143675
-134.05115 -35.634647 91.068687 8880503
-134.9223 -35.640312 90.54586 9209723
-135.88528 -35.653938 89.943092 8747886
-136.69359 -35.824619 89.367264 9011318
-137.16055 -36.075314 88.967812 8682867
-167.09459 -35.852474 59.007534 10459537
-167.70222 -35.757835 58.224716 7762285
-168.31024 -35.866215 57.393646 9077626
-168.93228 -35.712345 56.698933 11051411
-169.51389 -35.838783 55.890594 10722190
-170.1705 -35.670418 55.160908 9800834
-170.8615 -35.658291 54.295849 8419696
-171.46022 -35.695831 53.518158 7893608
-171.97444 -35.605473 52.922272 8617075
-132.65059 -34.396957 92.298416 10261391
-133.34686 -34.672791 91.833694 9143675
-134.38972 -34.637329 91.30481 10327949
-135.19067 -34.748241 90.771225 9077881
-135.81357 -34.997871 90.275635 9077368
-168.00073 -35.173275 58.191441 7564651
-168.64156 -35.093067 57.429775 9998212
-169.34381 -34.725067 56.759762 9142643
-169.87189 -34.706947 56.103909 8681835
-170.42087 -34.765453 55.376656 9406075
-171.03822 -34.876736 54.532085 8419696
-171.7332 -34.863873 53.662437 8617075
-172.39896 -34.694962 52.921467 8221805
-172.99672 -34.736111 52.142845 8418927
-173.6319 -34.673279 51.378071 7563878
-174.27432 -34.521389 50.65657 6511962
-131.96455 -33.52898 93.00309 8617081
-132.72606 -33.609947 92.586235 8287860
-133.68208 -33.71265 92.062378 11774883
-134.35182 -33.78495 91.691666 11577760
-170.246 -34.081326 55.999298 10129795
-170.65883 -34.124638 55.452869 9998212
-171.29033 -33.968811 54.747337 8748660
-171.92432 -33.813202 54.038681 9275260
-172.56067 -33.657898 53.326801 11379095
-173.1861 -33.770397 52.471348 9405564
-173.89055 -33.757782 51.589649 8484978
-174.52046 -33.872765 50.727028 7038049
-175.1622 -33.809311 49.954308 8156528
-175.81616 -33.566471 49.27195 8814200
-176.46848 -33.413586 48.539268 10195082
-176.89679 -33.462543 47.970718 9537408
-131.25963 -32.531612 93.770874 8946810
-132.03833 -32.743309 93.291229 8090737
-133.05869 -32.650288 92.81604 9669511
-133.75854 -32.922798 92.350883 11905701
-172.80284 -33.012188 53.400551 13023917
-173.46271 -32.932369 52.614624 9142649
-174.08138 -32.788345 51.918446 8616048
-174.68617 -32.827675 51.132038 8024686
-175.27553 -32.736691 50.441666 7301478
-175.93274 -32.718075 49.623108 8484979
-176.64972 -32.706516 48.725166 10326668
-177.29132 -32.823826 47.847572 7103579
-177.84265 -32.809929 47.155128 8946295
-129.96883 -31.350546 94.909653 8682867
-130.47 -31.596443 94.555534 8946295
-131.41673 -31.689615 94.040359 8552562
-132.36966 -31.665222 93.570686 9932682
-133.0668 -32.053757 93.058907 9406340
-175.11922 -31.90653 51.12664 7038307
-175.54453 -31.951427 50.563507 7038307
-176.19626 -31.794086 49.833412 9208444
-176.76712 -31.855259 49.076973 8879478
-177.4093 -31.970648 48.198868 10063752
-178.09219 -31.771284 47.449249 9801348
-178.65207 -31.694399 46.60157 9538176
-179.17502 -31.413145 45.81736 8616819
-129.18088 -30.500643 95.770485 9012606
-130.00429 -30.528963 95.353966 8947067
-130.85822 -30.654766 94.83461 7697253
-131.59502 -30.955105 94.262207 8749941
-132.1252 -30.767311 94.06543 10263180
-177.01797 -31.199696 49.145576 7629411
-177.70166 -31.120489 48.338242 9537408
-178.34003 -30.883764 47.667122 8551283
-178.97508 -30.720404 46.91449 8879735
-179.41145 -30.799641 45.968834 8484977
-180.02383 -30.582199 45.11058 7564131
-126.25944 -29.181486 98.887398 9340282
-127.0733 -29.233908 98.296837 8091760
-127.79856 -29.420118 97.537331 9341568
-128.59387 -29.700802 96.780312 8881020
-129.44672 -29.717449 96.31089 9341571
-130.22275 -29.838648 95.814247 8684155
-179.84412 -30.125765 46.217033 8616819
-180.40527 -29.947975 45.436127 7432289
-180.83435 -30.026564 44.48098 8222317
-181.63956 -29.567877 44.029633 8748660
-182.06506 -29.570353 43.14373 11249051
-182.52628 -29.46043 42.480309 11906725
-110.16081 -28.31259 114.89531 9011582
-110.89373 -28.360205 114.55035 9011836
-111.81263 -28.420702 114.11749 9142907
-112.31304 -28.648127 113.80401 8813686
-124.92715 -28.848402 101.2852 9406078
-125.41286 -28.849783 100.68227 9734784
-125.79218 -29.004477 99.74826 9602940
-183.53589 -29.146229 42.714676 8288365
-183.89029 -29.171459 41.864738 9012091
-184.33228 -29.203627 40.800209 7565675
-186.46054 -29.00642 39.625717 9208187
-186.60226 -29.00738 38.952072 9208187
-186.74173 -29.008337 38.27803 7563618
-190.64197 -29.017357 35.265816 9011064
-190.76779 -29.018311 34.577042 8814197
-109.52967 -27.436768 115.52661 9932169
-110.11608 -27.653267 115.17912 10655633
-111.10124 -27.599617 114.76257 8814201
-111.78529 -27.837336 114.36313 8813686
-108.70528 -26.358847 116.32503 9472641
-109.52444 -26.535686 115.8902 8946044
-110.44138 -26.590675 115.46082 9274753
-111.04655 -26.885965 115.0733 8748664
-107.84669 -25.411015 117.08747 7762029
-108.59801 -25.661646 116.65303 9275262
-109.69708 -25.618155 116.18242 8090993
-110.46446 -25.817553 115.76149 8090995
-107.38221 -24.486862 117.66539 9735302
-108.02072 -24.520582 117.36826 8354164
-108.87714 -24.61499 116.94997 9341055
-109.56731 -24.991539 116.49206 7564651
-106.52464 -23.41564 118.47697 9603459
-107.27568 -23.661856 118.04447 9472387
-108.27282 -23.56785 117.63948 9143934
-108.7721 -23.787245 117.32959 9735812
-106.02271 -22.41498 119.10233 10590096
-106.69526 -22.523769 118.7599 10064010
-107.55061 -22.613142 118.3441 9932681
-108.24095 -22.98575 117.88773 9012350
-105.19759 -21.426632 119.8662 9405566
-105.95771 -21.607204 119.45605 9208957
-106.94363 -21.568964 119.03355 9735302
-107.44283 -21.785559 118.72477 9932681
-104.32958 -20.412884 120.65934 9471616
-105.18285 -20.525362 120.2352 9537665
-106.21922 -20.617626 119.73784 8551542
-106.90985 -20.98666 119.28279 7564651
-103.71243 -19.565451 121.27421 10261132
-104.51572 -19.532373 120.93076 9669251
-105.34418 -19.603893 120.53411 8880247
-106.10874 -19.789762 120.11982 9012091
-102.49088 -18.105467 122.4038 8485747
-102.99493 -18.432074 122.04862 8419697
-103.84758 -18.540224 121.62646 9208444
-104.70227 -18.649351 121.20304 9735555
-105.20832 -18.978745 120.84589 9735555
-102.35245 -17.482533 122.71578 7564649
-103.17788 -17.549074 122.32244 8814711
-104.00565 -17.616411 121.9278 9011577
-101.57083 -16.400122 123.49818 7761513
-102.50715 -16.558418 123.01875 7498856
-103.36127 -16.663465 122.59717 8485234
-103.86778 -16.990839 122.24059 9011577
-100.33195 -15.34166 124.61578 12432037
-100.87494 -15.482404 124.2668 8089963
-101.68977 -15.568623 123.8425 9011063
-102.64665 -15.691769 123.33456 7695977
-97.999893 -14.174073 126.94721 10590094
-98.876205 -14.192174 126.5012 8353135
-99.598228 -14.388206 125.85748 9208444
-100.25513 -14.695853 125.2221 8813685
-101.24236 -14.838756 124.63548 8089963
-101.96241 -15.009515 124.17299 8089963
-83.231964 -13.258368 141.70761 9537406
-83.921089 -13.465364 141.31924 8682867
-85.012108 -13.478973 140.83008 9143162
-85.701843 -13.687157 140.44096 8090987
-95.807655 -13.807905 129.17389 10195593
-96.686035 -13.82437 128.73192 10327176
-97.741608 -13.844629 128.19893 10327176
-82.582397 -12.189088 142.42339 11445402
-83.288437 -12.405376 142.02383 11116183
-84.145897 -12.521859 141.59711 8617074
-84.909134 -12.747095 141.16856 10195338
-81.784393 -11.249449 143.15317 8089963
-82.475853 -11.455885 142.76404 8287854
-83.569214 -11.466881 142.27489 9143419
-84.261002 -11.674353 141.88518 8090987
-81.129639 -10.175726 143.87305 8682099
-81.895348 -10.399333 143.44411 8879735
-82.755203 -10.514432 143.01685 10854293
-83.463509 -10.731379 142.616 8419952
-80.508965 -9.2337141 144.52518 12432037
-81.086037 -9.4792547 144.17108 8945270
-82.116302 -9.4471989 143.72714 8813685
-82.810402 -9.6542234 143.33661 11380380
-79.740211 -8.422905 145.1904 7564651
-80.435127 -8.6290817 144.79984 9669508
-81.407944 -8.5148277 144.41425 9274746
-82.007973 -8.7076397 144.07112 9142907
-79.075829 -7.3414326 145.9127 8681843
-79.701256 -7.6148157 145.53104 7564651
-80.616684 -7.6205134 145.12289 9077370
-81.312904 -7.8274436 144.73141 9471867
-79.034851 -6.5571809 146.22574 9471615
-80.06485 -6.604084 145.77426 7761254
-80.762428 -6.8110657 145.38214 8485229
-78.350044 -5.410357 146.80737 10787988
-79.169647 -5.6328435 146.53458 10787988
-79.952629 -5.8581629 146.1225 8813941
-77.676811 -4.5470619 147.2449 10261132
-78.50547 -4.5553617 147.09505 10129802
-79.286903 -4.7673793 146.85411 11906725
-77.574806 -3.4655533 147.66168 8550514
-78.42672 -3.6130178 147.45644 9340030
-77.007088 -2.4949849 148.12006 9668995
-77.954185 -2.5419567 147.935 8945272
-76.224815 -1.0511743 148.7908 9932163
-76.981956 -1.4661473 148.50381 10326665
-77.776207 -1.6760348 148.2858 10261132
-75.610542 -0.22405133 149.35583 8682867
-76.300224 -0.39068282 149.11162 8682867
-76.919807 -0.64049715 148.81903 9932163
-74.871048 0.60623324 150.12651 10656402
-75.626869 0.39801043 149.83261 8880250
-76.364143 0.327921 149.6485 9471869
-65.162956 1.9298623 159.9716 9341054
-65.629341 1.673169 159.79454 9209467
-66.390434 1.7163552 159.67583 10459790
-74.272789 1.0269818 151.19621 7695720
-75.106804 1.0270811 151.05251 7038307
-64.925087 2.616158 160.26669 9143675
-65.803703 2.5028462 160.06952 8090987
-64.147652 3.647244 160.78424 9341054
-64.956596 3.4339252 160.56255 9012089
-65.766212 3.2202053 160.34053 9341054
