# .PCD v0.7 - Point Cloud Data file format
VERSION 0.7
FIELDS x y z rgb
SIZE 4 4 4 4
TYPE F F F U
COUNT 1 1 1 1
WIDTH 1169
HEIGHT 1
VIEWPOINT 0 0 0 1 0 0 0
POINTS 1169
DATA ascii
-84.520782 -53.538116 -145.6703 7037792
-83.139168 -53.31509 -147.32832 9866883
-82.277237 -53.215485 -147.45432 9538174
-81.731346 -53.089687 -148.97688 13022893
-80.867424 -52.992508 -149.09808 9011832
-80.315529 -52.87355 -150.64857 7565675
-79.45153 -52.780231 -150.76982 11577501
-179.00394 -52.02964 -54.177017 12433069
-178.72939 -52.256104 -54.800228 10788500
-178.464 -52.33279 -55.582737 8354418
-78.22702 -52.589348 -152.40677 9274235
-77.357536 -52.496037 -152.51384 8617334
-76.133904 -52.323437 -154.19749 9142648
-75.275803 -52.241737 -154.32455 9208435
-74.716377 -52.160194 -156.00516 12103071
-73.850838 -52.078102 -156.11978 9538173
-72.614624 -51.932442 -157.88454 8288621
-71.742462 -51.849911 -157.98431 9341055
-70.912804 -51.74287 -159.69383 8288365
-70.25338 -51.680649 -159.75897 9011579
-179.74013 -50.673145 -53.454704 13551549
-179.38589 -51.12524 -54.056358 12301483
-179.12489 -51.125694 -54.920921 9604484
-178.77074 -51.579033 -55.520409 8092019
-69.594559 -51.618523 -159.82214 9208955
-68.956467 -51.529694 -161.50893 9734788
-68.071037 -51.446392 -161.58078 9734272
-66.740974 -51.292526 -163.31871 8616048
-66.072212 -51.229805 -163.36166 8682867
-65.359291 -51.116474 -164.99139 9537918
-64.484337 -51.050472 -165.09436 8748660
-63.813999 -50.829212 -166.30495 9866371
-62.963337 -50.78632 -166.47357 9932678
-180.04361 -49.994232 -53.308609 12301224
-179.78238 -49.993652 -54.175285 11051155
-179.50702 -50.220337 -54.801086 8092019
-63.122581 -50.333023 -167.08923 9274235
-62.26981 -50.18631 -167.45872 7893614
-61.54195 -49.887722 -167.92023 7038307
-180.62776 -49.013794 -52.614059 9734781
-180.33824 -49.042557 -53.537354 9603195
-180.02046 -49.314144 -54.246677 9735296
-62.380646 -49.219559 -167.95485 7893614
-61.66264 -49.129623 -168.24373 7367271
-60.775761 -49.089085 -168.57291 7367271
-60.003815 -48.779282 -168.96703 10854036
-181.21779 -47.957222 -51.996544 10261132
-180.94177 -48.1824 -52.62632 9274492
-180.67992 -48.180874 -53.496178 8681835
-61.681538 -48.354168 -168.54121 7038307
-60.973057 -48.178921 -168.86023 8025200
-60.009449 -48.090126 -169.23555 10590864
-181.52284 -47.276749 -51.847115 8090736
-181.20557 -47.319492 -52.844734 7630442
-61.007412 -47.273594 -169.20403 10853012
-60.193901 -47.271477 -169.49229 11314844
-59.253498 -47.198269 -169.85335 12630447
-182.70279 -45.731384 -50.519302 8682867
-182.28352 -45.985371 -51.351151 7893356
-181.84102 -46.276878 -52.174484 7761772
-181.43471 -46.592117 -53.006195 8090736
-60.29409 -46.520432 -169.76949 12169896
-59.418789 -46.207481 -170.25708 9867398
-58.570095 -46.123615 -170.60153 8486776
-57.971878 -45.788757 -170.99043 9144448
-183.48468 -44.872219 -49.783089 8682867
-183.15764 -45.099686 -50.643715 8946039
-182.68643 -45.308022 -51.700874 8682867
-58.888252 -45.154522 -170.98586 9867913
-57.861839 -45.152805 -171.33655 10262414
-57.277248 -44.94038 -171.63887 10262414
-188.89546 -44.301586 -44.929085 9867142
-188.68108 -44.302864 -45.840378 10262156
-185.91426 -44.3027 -47.797356 7037274
-185.68573 -44.30394 -48.694122 8813941
-184.41513 -44.556496 -49.316887 7432548
-184.2964 -44.571209 -49.999458 7893614
-58.089401 -44.616573 -172.00041 8618105
-57.264328 -44.61581 -172.27959 8881278
-56.465885 -44.532124 -172.87123 8420469
-55.897625 -44.365608 -173.70715 9932679
-55.066353 -44.366432 -173.98219 9933196
-53.125175 -44.354317 -176.62102 9143166
-52.298985 -44.130878 -176.94592 8353651
-52.157089 -43.348724 -177.24185 6709340
-51.720932 -42.979549 -177.32961 5919050
-52.269894 -42.360683 -177.61797 8090736
-51.621078 -42.173817 -177.6151 6642772
-51.358372 -41.25116 -177.92563 8156266
-50.783623 -40.688374 -178.06926 9538686
-51.544147 -40.304474 -178.29449 10985361
-50.856705 -40.028866 -178.32005 9144185
-50.806984 -39.181557 -178.6264 8617842
-50.266289 -38.874508 -178.67969 8090986
-50.813812 -38.248592 -178.9705 8092011
-50.1012 -38.196293 -178.91107 9735555
-50.05938 -37.259979 -179.25102 10722450
-50.078968 -36.192677 -179.64594 11445917
-49.422405 -36.058624 -179.62285 8354158
-49.336132 -35.072918 -179.97603 7762278
-48.793247 -34.769836 -180.02768 6972762
-49.339481 -34.136322 -180.32106 5920074
-48.712246 -34.021755 -180.29401 6578004
-48.579914 -33.150681 -180.59995 6117453
-48.723774 -32.384766 -180.89771 6972762
-47.944653 -32.188824 -180.88377 7696485
-48.641888 -31.633783 -181.16493 11181460
-47.989292 -31.157619 -181.33528 8090986
-47.353191 -30.693344 -181.56778 8682867
-47.916515 -30.299475 -181.93147 7958888
-47.251102 -30.054306 -182.06203 8288109
-46.601055 -29.819557 -182.25012 7234909
-46.396252 -29.489424 -183.26482 6510930
-45.695957 -29.462694 -183.26912 8682867
-43.177189 -29.358406 -186.40868 7892840
-42.059589 -29.357441 -186.66791 7958376
-40.034245 -28.942806 -189.25171 9340285
-39.308598 -28.9098 -189.18367 9143417
-39.383015 -27.989733 -189.53093 9603458
-39.214817 -27.057198 -189.85596 10326924
-38.506588 -26.796211 -189.87379 9734788
-38.661808 -26.061415 -190.16173 10392460
-38.533344 -25.220995 -190.4572 10853011
-38.688694 -24.483021 -190.74625 10129545
-37.978138 -24.223728 -190.76331 10458510
-37.80695 -23.286325 -191.0898 9668995
-37.878185 -22.355478 -191.44067 9011065
-37.235416 -22.255875 -191.40633 9471873
-37.132206 -21.161646 -191.79805 9274493
-36.541042 -20.674995 -191.91206 10458507
-37.080433 -19.988157 -192.22479 10458507
-36.436298 -19.890697 -192.18956 9932421
-36.418369 -19.029173 -192.50534 9142907
-35.704319 -18.774071 -192.52058 9011579
-36.400219 -18.16573 -192.82179 9734014
-35.755016 -18.069736 -192.78596 9997186
-35.721882 -17.173199 -193.11302 10391687
-35.629307 -16.414843 -193.38243 10260358
-35.095928 -16.092604 -193.52103 9865857
-35.034267 -15.360804 -194.0518 9405307
-34.349751 -14.999804 -194.25075 7892840
-33.560627 -14.570415 -195.22606 9603970
-166.879 -63.751526 -67.268677 9143422
-166.55974 -63.753731 -68.074814 8748921
-166.11864 -63.742271 -69.065491 9669509
-164.76082 -63.816349 -69.207001 8091248
-164.23892 -63.743973 -69.921799 9734784
-163.58319 -63.653641 -70.811142 8681843
-167.53287 -63.127304 -66.594406 9669509
-167.34093 -63.113842 -67.359612 9143422
-166.98669 -63.38438 -68.013237 8749178
-163.0555 -63.581631 -71.518845 8681843
-162.39235 -63.491859 -72.398796 10197130
-161.72563 -63.40234 -73.274002 10855060
-161.32375 -63.348824 -73.796684 7038307
-158.76051 -63.184265 -74.960068 8682867
-158.35677 -63.131626 -75.471268 6512986
-157.81648 -63.061604 -76.150162 10064262
-157.1378 -62.974312 -76.994186 8880503
-156.45573 -62.887348 -77.833427 11380380
-155.90746 -62.818043 -78.501083 12959669
-155.21881 -62.73164 -79.330956 15657694
-154.52689 -62.645565 -80.156113 15723495
-168.17 -61.998043 -65.910484 10261132
-167.93724 -62.117424 -66.660782 9077886
-167.6993 -62.280113 -67.362244 10261132
-153.97081 -62.576931 -80.812462 9342086
-153.55226 -62.525581 -81.302696 10984593
-168.90144 -60.655258 -65.259155 10788759
-168.57091 -61.024975 -65.879471 9472386
-168.32283 -61.144009 -66.67205 7762797
-145.20378 -61.571053 -88.004272 8813936
-144.76645 -61.520416 -88.456551 8419693
-144.03508 -61.436153 -89.206192 8156523
-143.3008 -61.352215 -89.950897 9142907
-142.5632 -61.268524 -90.690094 9077372
-141.82278 -61.185051 -91.424362 7433832
-141.22824 -61.118496 -92.007881 7695976
-140.48219 -61.035576 -92.732285 8221805
-139.73346 -60.95282 -93.451958 8879992
-138.98164 -60.870388 -94.165901 11906725
-138.22708 -60.788185 -94.875023 7039331
-137.46959 -60.706284 -95.578491 7367522
-136.86177 -60.640862 -96.13797 7959144
-169.72275 -59.841034 -64.636299 9144449
-169.39333 -60.055973 -65.213104 9078398
-169.12642 -60.146515 -65.969437 9603457
-136.55711 -60.608353 -96.416168 8682867
-136.09932 -60.559483 -96.831993 7959144
-135.64056 -60.510708 -97.246094 5392706
-134.35446 -60.206917 -99.79007 6510930
-133.66261 -60.112171 -100.27966 7761253
-132.79645 -59.994061 -100.88661 6183250
-132.10239 -59.899857 -101.36755 6249815
-131.23341 -59.782509 -101.96308 7040355
-130.36314 -59.665527 -102.55289 6973538
-174.76149 -58.82534 -59.637112 8090987
-174.44672 -59.103355 -60.328888 8288367
-174.15831 -59.144638 -61.233181 8880508
-172.05989 -59.310261 -62.451488 9473157
-171.76091 -59.311298 -63.281532 8354934
-170.95828 -59.463551 -63.847488 7565675
-170.40694 -59.554985 -64.658844 9144449
-129.84026 -59.595512 -102.9038 7170917
-129.38712 -59.379597 -104.58296 6512986
-128.62328 -59.260193 -104.995 6578779
-127.70773 -59.129353 -105.5368 7434088
-126.82961 -59.016758 -106.10349 8156524
-125.97086 -58.91396 -106.68174 7893096
-125.07124 -58.695808 -108.78893 8419184
-124.7224 -58.654747 -109.01447 10064265
-175.05006 -58.103714 -59.59391 9209725
-174.73463 -58.159386 -60.569305 8814710
-124.19872 -58.593216 -109.35088 9669250
-123.49973 -58.511444 -109.79633 9340027
-122.62456 -58.409531 -110.34763 9932163
-121.75904 -58.313126 -110.90318 8156787
-121.07761 -58.242031 -111.35437 9406851
-119.98775 -58.036503 -113.58564 7039331
-119.29504 -57.965431 -114.02441 7039331
-118.42284 -57.874443 -114.5628 7367522
-117.52186 -57.770412 -115.06932 7564386
-116.97757 -57.706589 -115.36719 9209723
-175.56804 -57.241165 -58.968334 12434096
-175.30737 -57.249264 -59.822525 13157820
-175.03369 -57.481285 -60.436428 10986393
-116.45647 -57.540642 -117.07759 7564651
-115.72172 -57.45557 -117.465 7432291
-114.80276 -57.349525 -117.94448 7761509
-113.88299 -57.243973 -118.41748 8682867
-113.31527 -57.075535 -120.11166 7564651
-112.75695 -57.012302 -120.38808 8353908
-111.82691 -56.90757 -120.84487 7696230
-110.9185 -56.814468 -121.3201 8813936
-109.85232 -56.637531 -123.38402 11379607
-176.29778 -55.882492 -58.26865 9538432
-175.96437 -56.178261 -58.999874 11117721
-175.61526 -56.422413 -59.848362 10986393
-109.12495 -56.567997 -123.76141 10261384
-108.21488 -56.481251 -124.22837 8880246
-107.48589 -56.41206 -124.59747 8090987
-106.35758 -56.232437 -126.62897 6511954
-105.43394 -56.145836 -127.07404 7235163
-104.50924 -56.059517 -127.51276 11904668
-103.5132 -55.894226 -129.43155 9142393
-102.57038 -55.80444 -129.8466 6972506
-101.81445 -55.732189 -130.17265 7367264
-176.95038 -54.749577 -57.539188 7037274
-176.63454 -55.024906 -58.237968 7563874
-176.34554 -55.061913 -59.149437 7958888
-100.56752 -55.539242 -132.13322 6972247
-99.611488 -55.448963 -132.52379 8287334
-99.037674 -55.394928 -132.75528 8682867
-98.32312 -55.253937 -134.46614 5920074
-97.549644 -55.181839 -134.76424 5919562
-96.582512 -55.091972 -135.13191 9208955
-96.026741 -54.966747 -136.76167 5920074
-95.44046 -54.912819 -136.97478 6510930
-94.463036 -54.823032 -137.32516 6510930
-93.481888 -54.659889 -139.08679 9736326
-177.24083 -54.026939 -57.491619 6314581
-176.92458 -54.078232 -58.474911 7037274
-92.494598 -54.570248 -139.42108 9736326
-91.704681 -54.49876 -139.68477 10460303
-91.082222 -54.369331 -141.3019 10460303
-90.28463 -54.297802 -141.55521 8288877
-89.686554 -54.244324 -141.74272 7564643
-89.035545 -54.112946 -143.35684 9932676
-88.00351 -54.008011 -143.61441 11379607
-86.879219 -53.813084 -145.2728 9801091
-86.020645 -53.712852 -145.42105 9275005
-177.76164 -53.165531 -56.8563 7301218
-177.50027 -53.169842 -57.717197 5920082
-177.22545 -53.399574 -58.337181 5920082
-85.298882 -53.565525 -146.9968 7366237
-84.434219 -53.465134 -147.13225 11576728
-83.253448 -53.265053 -148.76723 8813680
-82.383186 -53.164711 -148.88841 13022893
-81.613747 -53.014061 -150.45876 9143934
-80.964355 -52.94381 -150.55473 9143934
-79.75164 -52.753326 -152.20952 12695466
-78.879906 -52.659485 -152.32391 10458508
-178.34258 -52.183743 -56.174183 7564904
-178.07658 -52.262001 -56.956554 6380375
-177.81044 -52.341194 -57.738621 5920082
-78.07592 -52.513523 -153.91362 10326922
-77.207512 -52.425785 -154.03319 9142651
-76.016335 -52.283829 -155.8244 9076852
-75.149483 -52.201435 -155.94612 12103071
-73.706299 -52.035828 -157.75357 8288621
-72.233459 -51.867603 -159.55592 10064777
-71.57283 -51.805241 -159.62578 8288365
-70.286858 -51.654972 -161.39262 7564386
-179.00795 -50.900562 -55.593769 7697004
-178.73273 -51.128387 -56.217667 7433575
-178.45229 -51.221798 -57.028717 5919566
-69.843132 -51.613174 -161.43248 8616819
-69.399734 -51.571384 -161.47121 9734788
-68.751198 -51.48127 -163.17598 9734788
-67.857063 -51.397251 -163.24178 8616048
-66.652573 -51.199978 -164.77779 9208697
-65.945801 -51.025894 -165.3054 8682355
-65.282082 -50.888504 -165.94771 10655630
-64.44622 -50.856915 -166.16118 9866371
-179.66553 -49.767418 -54.84927 9209467
-179.38986 -49.994759 -55.47501 7170145
-179.12775 -49.99683 -56.341351 6775130
-65.196022 -50.500362 -166.31084 12629418
-64.562843 -50.085567 -166.7917 12366245
-63.718998 -49.991554 -167.12552 11313815
-62.931488 -49.653889 -167.58998 7564135
-179.97353 -49.012062 -54.78487 8419952
-179.70671 -49.088577 -55.572575 6774872
-179.4306 -49.316616 -56.198795 6643287
-64.406357 -49.234787 -167.23335 13550517
-63.827389 -49.014297 -167.52434 12629416
-62.900719 -48.964382 -167.87117 7958892
-180.48329 -48.180355 -54.148491 8090730
-180.28653 -48.180492 -54.800659 8353902
-180.01927 -48.256989 -55.589592 6971994
-63.865246 -48.224033 -167.82086 11050643
-63.003036 -48.189075 -168.13919 9735555
-62.129414 -48.033028 -168.50903 9012091
-181.14388 -47.045906 -53.395706 7038307
-180.86723 -47.272484 -54.025749 5919306
-180.60443 -47.272484 -54.896908 6445394
-63.167217 -47.356052 -168.40849 9603713
-62.227673 -47.278763 -168.77089 8946040
-61.414177 -47.275017 -169.05977 10853012
-182.04964 -45.724087 -52.708801 8090736
-181.62575 -46.006977 -53.457573 8419182
-181.13712 -46.410591 -54.248558 5919818
-62.472813 -46.493076 -169.0141 10853012
-61.617527 -46.265671 -169.45361 10129801
-60.820034 -45.900681 -169.95073 10327692
-60.021221 -45.794151 -170.28926 9867398
-182.99687 -44.888012 -51.787849 8682867
-182.51373 -45.095177 -52.841576 10721422
-182.09613 -45.30378 -53.673981 12431013
-61.727917 -45.378853 -169.909 8617075
-60.940781 -45.162163 -170.28249 9538433
-59.914547 -45.157574 -170.63454 8946296
-188.517 -44.303814 -46.52298 8879995
-188.29463 -44.305084 -47.432335 8419702
-185.51164 -44.304863 -49.366081 7038307
-185.33488 -44.305786 -50.037277 7433064
-184.49263 -44.490627 -50.688019 12300966
-183.9127 -44.582439 -51.564957 8682867
-183.7195 -44.581173 -52.228043 8682867
-60.149559 -44.620869 -171.2941 9867398
-59.325977 -44.618763 -171.57799 9144448
-58.651264 -44.492077 -172.2951 8881276
-57.972939 -44.365894 -173.01134 10854036
-57.143314 -44.365372 -173.29108 9142907
-55.237259 -44.355865 -175.96281 7564651
-54.315392 -44.201958 -176.42406 8485751
-53.451565 -43.96772 -176.93031 7367271
-54.510746 -43.383488 -176.84972 7564651
-53.604599 -43.349617 -177.12494 8090736
-52.895363 -43.071079 -177.38631 7564393
-53.73978 -42.310364 -177.4875 8419702
-52.901489 -42.119312 -177.73341 7893359
-53.036366 -41.156864 -178.10469 9340545
-52.270542 -40.954651 -178.13545 11379609
-52.973927 -40.417675 -178.41072 7564651
-52.145359 -40.085033 -178.44167 10393481
-52.295715 -39.32497 -178.73804 8552305
-51.667931 -39.202534 -178.7137 8815220
-52.245049 -38.355152 -179.08932 9077367
-51.591217 -38.172508 -179.08434 9472637
-51.403477 -37.267082 -179.39684 10590604
-50.809093 -36.838238 -179.48904 13024949
-51.511711 -36.292732 -179.76735 10852750
-50.818741 -36.021019 -179.7908 11248538
-50.767841 -35.168812 -180.09882 8748916
-50.222698 -34.864151 -180.15079 8288365
-50.773754 -34.229702 -180.44505 7104091
-50.055767 -34.182793 -180.38307 6511954
-50.003262 -33.329304 -180.69141 6117453
-49.457355 -33.026493 -180.74251 5920074
-50.031384 -32.165535 -181.12277 6380625
-49.369869 -32.035748 -181.09749 7893351
-49.356625 -31.085754 -181.49855 9340283
-48.73402 -30.979422 -181.50136 9340283
-48.676647 -30.127001 -182.14755 7959401
-48.005344 -29.87895 -182.26295 7958888
-47.800579 -29.543776 -183.25362 6510930
-47.097904 -29.516449 -183.25957 7234909
-45.184711 -29.360117 -185.92497 13683130
-44.293079 -29.359365 -186.14236 8419183
-41.40263 -29.083208 -189.35124 9536894
-40.761326 -28.976263 -189.31973 8812912
-40.737469 -28.096029 -189.64148 9273978
-40.672161 -27.119396 -189.99408 10063494
-39.942585 -27.088058 -189.92497 9734788
-40.018314 -26.163134 -190.27419 10261131
-39.92506 -25.306698 -190.57939 10129543
-39.381702 -24.97517 -190.64157 11971487
-40.15057 -24.539005 -190.88725 12432037
-39.295078 -24.226561 -190.90782 10721935
-39.258816 -23.45532 -191.188 7893096
-38.798473 -23.088453 -191.27231 7563619
-39.342228 -22.406021 -191.58379 7563619
-38.528355 -22.076996 -191.6151 8024170
-38.631466 -21.053852 -192.00346 9011065
-37.985744 -20.954763 -191.96867 9011065
-38.529102 -20.26763 -192.28185 7563619
-37.813206 -20.010427 -192.29753 10721678
-37.884869 -19.071394 -192.65175 9537406
-37.150761 -19.050097 -192.57849 8616048
-37.693493 -18.358616 -192.89354 10851980
-37.230251 -17.991745 -192.97765 10851980
-37.046726 -17.159882 -193.26422 9734014
-36.329098 -16.905149 -193.27892 9734014
-37.099514 -16.451 -193.53149 8616048
-36.404865 -16.084558 -193.67046 8616049
-36.242146 -15.503146 -194.07727 8616049
-35.819477 -15.031242 -194.38969 9142392
-35.024387 -14.596507 -195.31058 9471355
-34.291859 -14.583361 -195.26851 6510930
-165.67242 -63.731308 -70.053917 12432812
-165.11656 -63.680393 -70.994911 10853012
-164.71793 -63.625851 -71.530991 8681843
-167.01299 -63.132744 -68.570953 10261132
-166.67975 -63.236229 -69.531525 10985111
-166.26794 -63.457611 -70.302399 13551549
-164.45134 -63.589516 -71.887238 9405566
-164.05023 -63.535217 -72.420013 9405566
-163.64789 -63.481014 -72.951202 9405566
-161.05507 -63.313171 -74.144127 8682867
-160.6508 -63.259846 -74.663635 10261641
-159.97406 -63.171192 -75.525345 10787728
-159.29387 -63.082809 -76.382324 10919570
-158.74698 -63.012432 -77.064224 8157037
-158.06 -62.924606 -77.911705 9538688
-157.36967 -62.83712 -78.754456 10788755
-156.81468 -62.767406 -79.424889 13749441
-156.39717 -62.715229 -79.92569 11380380
-167.67867 -61.9729 -67.940437 9537923
-167.37993 -62.178566 -68.818764 9012092
-167.00101 -62.606155 -69.664352 7565675
-153.13255 -62.474335 -81.790924 9997699
-152.57095 -62.406277 -82.439163 9736836
-152.00722 -62.338318 -83.084244 10262666
-151.26703 -62.240463 -83.867935 10327946
-150.47328 -62.122242 -84.618523 9077882
-149.8362 -62.027752 -85.214424 8814710
-149.1976 -61.933605 -85.806442 8288109
-148.39973 -61.817371 -86.542549 7104091
-147.6472 -61.721336 -87.300919 6840919
-147.06282 -61.652901 -87.915192 7367005
-168.23152 -60.949055 -67.339783 10261132
-168.00595 -60.985065 -68.190125 9669765
-167.70432 -61.244125 -69.010208 9538688
-146.62318 -61.601669 -88.373711 9209214
-146.18236 -61.550587 -88.830208 9209214
-145.59288 -61.482632 -89.435959 7827816
-144.85301 -61.397892 -90.188354 7169885
-144.11029 -61.313404 -90.93573 8616819
-143.51385 -61.24601 -91.529732 9734788
-142.76535 -61.161961 -92.267258 8814457
-142.0141 -61.078228 -92.99984 7959663
-141.25974 -60.994709 -93.726791 8617334
-140.50266 -60.911484 -94.44883 6709597
-139.89474 -60.845089 -95.022446 9472900
-139.13225 -60.762375 -95.734497 8618105
-138.36708 -60.679874 -96.441696 6775642
-137.90671 -60.630516 -96.86348 6511954
-169.06491 -60.033901 -66.57135 9011576
-168.78879 -60.090786 -67.466644 10063752
-168.41531 -60.355206 -68.118866 10261132
-137.44521 -60.581299 -97.283066 7959144
-136.82835 -60.515713 -97.839661 6511954
-136.20982 -60.450428 -98.392937 5919050
-135.3902 -60.349552 -99.047691 6839893
-134.70004 -60.254429 -99.543747 7760736
-133.7018 -59.986843 -101.81948 5920074
-133.00008 -59.891979 -102.30182 4473145
-132.12177 -59.773689 -102.89969 5921618
-131.41803 -59.679302 -103.3734 7105636
-174.03596 -59.00235 -61.819031 8092019
-173.76689 -59.087727 -62.589352 8092019
-173.47612 -59.166981 -63.35178 9275777
-171.30594 -59.313187 -64.524323 9144449
-170.75447 -59.405556 -65.337524 9735041
-170.27998 -59.498524 -65.942207 9669249
-169.73924 -59.597107 -66.755173 9932166
-130.88969 -59.608738 -103.72624 7170917
-130.35805 -59.53706 -104.07436 6841951
-129.78291 -59.445866 -104.38635 6512986
-129.30836 -59.22472 -106.06536 7039331
-128.56894 -59.119827 -106.49963 7302502
-127.67945 -59.005371 -107.06673 7894124
-126.9853 -58.922531 -107.53122 7893096
-126.11608 -58.819267 -108.10616 8813942
-125.4198 -58.736866 -108.5624 8419184
-174.61659 -57.942024 -61.236084 8682867
-174.36632 -58.219032 -61.715328 10327949
-174.07671 -58.262089 -62.621399 9867657
-124.49352 -58.516731 -110.67005 8813942
-123.61193 -58.415077 -111.22624 9932163
-122.74721 -58.322338 -111.79325 11511452
-121.88682 -58.232727 -112.35963 10064779
-121.02474 -58.143375 -112.9205 9801348
-120.50661 -58.089844 -113.25425 7039331
-119.38306 -57.880283 -115.48151 10065033
-118.47388 -57.775833 -115.99121 9999495
-117.74072 -57.690086 -116.38961 8354158
-174.97031 -57.217033 -60.981178 10787985
-174.65363 -57.274654 -61.9585 15458517
-174.3792 -57.508991 -62.571678 13550517
-117.19057 -57.6259 -116.686 7564651
-116.82352 -57.583271 -116.8823 7564651
-116.28873 -57.415615 -118.6004 7366240
-115.73179 -57.351555 -118.88847 6642517
-114.80284 -57.245071 -119.36353 5919050
-113.87334 -57.139061 -119.83296 8419697
-112.75259 -56.916988 -121.83427 7959656
-111.84774 -56.829403 -122.32536 8616563
-110.94144 -56.742065 -122.80991 8945784
-110.21558 -56.672371 -123.19375 11379607
-175.64067 -55.976036 -60.32951 8880246
-175.30496 -56.136742 -61.239372 9998470
-175.03038 -56.37019 -61.854282 16774119
-109.67364 -56.545918 -124.97771 9735297
-109.12198 -56.4935 -125.25828 8880246
-108.20163 -56.406223 -125.72108 8090987
-107.28014 -56.319241 -126.17822 7301470
-106.31819 -56.155193 -128.12823 9405304
-105.38447 -56.068111 -128.56897 9273463
-104.44975 -55.981277 -129.00392 7563619
-103.43223 -55.811615 -130.92575 8485232
-102.47794 -55.720558 -131.33418 8484716
-101.71414 -55.647839 -131.65704 7037274
-176.22327 -54.916607 -59.738907 7695202
-175.95706 -54.999557 -60.516705 10590347
-175.76031 -55.00658 -61.160278 8682867
-101.33202 -55.611626 -131.81683 7037274
-100.64184 -55.47134 -133.54732 8155749
-99.482788 -55.362427 -134.01097 6972248
-98.709755 -55.29007 -134.31548 7761765
-98.371178 -55.183815 -135.88693 5919050
-97.589813 -55.111259 -136.18208 5919562
-96.613014 -55.020874 -136.54617 5920074
-96.048302 -54.894402 -138.18871 8484205
-95.456184 -54.840061 -138.39951 10457481
-94.469078 -54.749855 -138.74596 11773083
-176.80667 -53.85733 -59.145588 6510930
-176.5555 -54.132591 -59.629944 6971480
-176.26535 -54.171387 -60.54311 8879474
-93.474892 -54.585117 -140.5188 7564651
-92.477928 -54.495022 -140.84917 7564904
-91.680389 -54.423061 -141.10951 10460303
-91.048393 -54.292336 -142.7393 9406846
-90.243195 -54.220444 -142.98921 8353902
-89.639305 -54.166595 -143.17421 9143417
-88.978638 -54.033932 -144.80092 9472126
-87.949028 -53.935787 -145.07329 9274235
-86.815254 -53.741962 -146.74916 8747885
-86.165001 -53.666176 -146.85686 9208435
-177.16246 -53.132286 -58.884594 6642774
-176.84502 -53.185429 -59.869583 6905688
-176.56963 -53.417313 -60.48877 10063747
-85.73185 -53.615852 -146.92738 7366237
-85.215981 -53.492039 -148.47975 8681835
-84.343124 -53.390961 -148.60979 9471351
-83.147339 -53.188892 -150.2538 9011317
-82.268929 -53.087883 -150.36943 9997699
-81.061272 -52.894577 -152.03076 7959917
-79.834846 -52.702282 -153.69852 9274747
-177.6881 -52.193916 -58.330627 6380374
-177.42131 -52.274689 -59.112717 7366751
-177.22424 -52.279797 -59.759594 7366238
-79.174637 -52.631336 -153.7812 11182228
-78.734856 -52.584175 -153.83507 9932419
-77.318069 -52.407745 -155.63431 8813686
-75.893761 -52.243378 -157.4724 9208435
-75.018105 -52.160263 -157.58786 12563622
-73.777039 -52.013599 -159.38277 8090736
-72.894608 -51.930115 -159.4832 9735046
-71.619926 -51.780609 -161.26648 7104091
-70.731033 -51.696762 -161.35182 6511954
-178.42281 -50.832199 -57.619965 6116687
-178.08267 -51.20232 -58.278694 6445651
-177.80769 -51.256348 -59.121807 7366751
-70.093727 -51.606773 -163.06635 6511954
-69.422707 -51.544327 -163.12358 7564386
-68.782021 -51.319485 -164.3372 9143675
-67.989372 -51.196976 -164.65846 9406076
-67.325142 -50.934666 -165.29005 8616819
-66.508926 -50.916386 -165.55705 8681843
-178.93092 -49.999039 -56.991081 5919050
-178.73381 -50.001839 -57.6408 5525066
-178.46637 -50.081562 -58.426254 6972252
-67.463676 -50.443459 -165.62502 8485745
-66.666176 -50.061855 -166.08459 9405821
-65.75042 -50.018547 -166.42622 14603206
-65.15799 -49.673187 -166.79601 12629418
-179.58894 -48.863297 -56.248112 6643287
-179.31265 -49.092018 -56.874317 5787722
-179.04951 -49.095589 -57.742119 5591117
-178.77306 -49.325577 -58.367332 7170661
-66.635376 -49.258942 -166.4366 9668736
-65.982048 -48.992249 -166.77193 11839903
-64.927711 -48.981075 -167.14873 11642523
-179.89687 -48.106915 -56.185478 6248015
-179.60542 -48.14003 -57.10973 5459274
-179.35237 -48.414307 -57.60099 5393738
-65.895584 -48.243164 -167.09619 9406079
-65.160919 -48.163544 -167.38698 8945785
-64.42601 -48.084793 -167.67743 9866371
-180.4071 -47.273098 -55.550186 6445394
-180.20961 -47.274384 -56.2034 5787464
-179.94151 -47.352348 -56.99334 5392964
-65.859253 -47.522987 -167.39182 7038307
-65.255516 -47.171329 -167.74342 9275006
-64.261528 -47.292183 -168.04706 8156780
-63.476574 -47.070312 -168.41162 9341054
-181.33409 -45.861629 -54.719658 5920074
-180.94058 -46.090591 -55.57724 5919307
-180.4783 -46.412975 -56.429852 5458499
-64.589546 -46.436562 -168.29393 12103847
-63.657215 -46.277252 -168.73148 11972261
-62.866047 -45.912628 -169.23959 10524303
-182.21458 -45.023598 -54.026505 10984080
-181.85075 -45.135464 -54.937607 6314576
-63.779316 -45.394642 -169.20204 9341054
-62.993191 -45.175598 -169.57632 9537664
-62.046627 -45.097839 -169.93672 9735043
-188.01024 -44.30666 -48.567467 8551287
-187.77834 -44.307907 -49.474335 8814715
-184.97438 -44.307613 -51.377792 8748662
-184.72862 -44.308819 -52.270081 9209211
-183.52504 -44.580303 -52.890579 9735812
-183.2643 -44.579624 -53.773758 8222316
-62.411469 -44.629528 -170.50362 9735043
-61.589447 -44.62595 -170.79259 9209212
-60.836838 -44.455585 -171.70506 8617075
-60.044308 -44.369553 -172.30391 8617589
-59.216248 -44.367695 -172.58827 8091761
-57.341274 -44.357353 -175.27925 9142907
-56.430672 -44.207775 -175.76884 8156014
-55.578239 -43.977734 -176.30222 7564651
-56.507908 -43.322319 -176.29182 8813683
-55.894215 -43.096943 -176.55913 7564135
-55.095749 -43.239471 -176.73619 7564651
-55.806995 -41.989468 -177.01358 8682099
-55.042164 -42.269466 -177.12657 7563619
-54.3106 -41.980843 -177.44972 7564135
-55.185604 -41.172665 -177.50902 9866116
-54.275417 -41.138367 -177.78551 10458766
-53.576405 -40.869236 -178.09169 10261388
-54.506992 -40.207188 -178.07846 10721681
-53.524158 -40.158089 -178.37819 10458510
-54.365971 -39.539871 -178.37711 7564651
-53.745831 -39.314941 -178.64342 7564651
-52.949684 -39.226475 -178.84441 7696747
-53.762985 -38.498955 -178.95381 8090219
-52.985142 -38.184902 -179.21968 8484718
-52.320297 -37.691235 -179.34198 8681840
-53.023056 -37.143661 -179.60442 10129028
-52.24419 -36.940887 -179.60971 10129028
-52.952164 -36.394951 -179.88875 10852750
-52.117096 -36.067009 -179.91725 9536892
-52.267822 -35.300976 -180.21577 7234396
-51.635178 -35.182903 -180.18947 6510930
-52.190731 -34.548107 -180.48436 6510930
-51.493874 -34.277214 -180.50716 5920074
-51.559193 -33.249123 -180.89267 6183246
-50.895321 -33.116852 -180.86806 5920074
-51.474842 -32.254601 -181.24931 5920074
-50.713894 -32.117527 -181.21581 7038299
-50.796932 -31.169239 -181.6165 7564643
-50.024632 -30.981392 -181.65337 10524043
-50.0172 -30.269924 -182.18663 11181460
-49.393772 -30.165239 -182.19769 13022893
-49.208828 -29.599329 -183.23917 9340283
-48.504131 -29.571402 -183.24683 7037786
-46.520054 -29.361235 -185.58997 9603457
-45.630001 -29.360493 -185.8145 16248798
-42.688427 -29.298407 -189.41402 8088931
-42.230877 -28.929022 -189.49956 8220774
-42.1991 -28.162106 -189.77864 8615533
-41.344578 -27.845066 -189.8011 10261132
-42.116238 -27.414955 -190.04478 9866117
-41.572628 -27.081007 -190.10776 9997703
-41.380062 -26.266428 -190.38661 9735299
-41.390499 -25.365685 -190.71968 9275004
-40.751202 -25.184408 -190.71581 9143417
-40.760509 -24.28249 -191.04918 9143417
-40.622829 -23.271334 -191.40654 9143417
-40.114208 -22.979731 -191.45775 7564643
-39.944988 -22.036343 -191.78664 8090730
-39.944996 -21.018463 -192.16173 8222316
-39.296841 -20.918934 -192.12679 8287598
-40.001728 -20.314137 -192.42752 9340798
-39.283314 -20.055807 -192.44331 8156268
-38.565563 -19.798275 -192.45889 7563619
-39.269611 -19.190845 -192.76067 7563619
-38.62048 -19.092899 -192.72505 8419440
-39.167591 -18.400225 -193.04102 9340798
-38.599392 -18.100288 -193.08882 9142648
-38.521145 -17.198441 -193.41283 8089705
-37.783031 -17.178984 -193.33842 9734014
-37.96822 -16.192049 -193.77959 8221548
-37.71706 -15.536692 -194.21524 8155755
-37.031368 -15.173542 -194.41568 7695205
-36.493153 -14.623201 -195.3936 8550256
-35.757961 -14.609752 -195.35231 9010806
-166.88799 -62.626534 -70.08934 11512481
-166.45628 -62.948872 -70.853813 11512481
-165.8844 -63.182697 -71.636627 9077628
-165.33463 -63.282951 -72.426208 8681843
-164.73846 -63.366951 -73.193817 10062980
-163.24391 -63.426857 -73.480286 9932162
-162.70335 -63.354862 -74.183014 8287600
-162.16045 -63.283073 -74.882492 7630185
-161.47821 -63.193642 -75.752098 11510936
-160.79251 -63.104492 -76.616852 11050900
-160.24123 -63.033375 -77.304939 9537662
-159.68756 -62.96254 -77.989609 9143931
-159.13161 -62.891895 -78.671051 9143931
-155.9781 -62.663151 -80.424454 15394522
-167.43219 -61.704498 -69.37056 9538688
-167.16496 -61.916779 -70.110611 7762796
-166.8085 -62.09758 -71.002708 8026225
-155.41756 -62.593922 -81.086678 14603466
-154.85484 -62.524929 -81.745705 9010805
-154.14822 -62.438919 -82.564674 7694947
-153.43846 -62.353271 -83.378845 9341052
-152.86819 -62.284912 -84.026382 9012088
-152.12971 -62.190735 -84.818649 8879478
-151.33185 -62.073799 -85.574356 7893608
-150.68718 -61.978806 -86.171898 9735812
-150.04094 -61.884048 -86.765656 8354159
-149.24913 -61.773422 -87.512764 7498337
-148.50676 -61.684601 -88.284775 7037274
-148.0636 -61.632927 -88.747635 7037274
-167.73376 -60.962521 -69.337204 9209723
-167.45139 -61.122639 -70.229874 8222831
-147.76741 -61.598572 -89.055061 10854036
-147.17337 -61.52993 -89.667076 9209214
-146.42833 -61.444366 -90.427811 7564648
-145.82993 -61.376091 -91.032448 7564386
-145.07901 -61.291027 -91.783257 7564386
-144.32533 -61.206139 -92.528999 8880504
-143.72003 -61.138535 -93.121674 8420470
-142.96063 -61.05418 -93.857521 8683385
-142.19855 -60.970112 -94.588348 6709597
-141.43329 -60.886292 -95.313477 6446425
-140.66536 -60.802734 -96.033585 7301989
-140.04886 -60.73613 -96.605675 8618105
-139.43057 -60.669666 -97.17437 8156522
-169.53638 -59.610573 -67.383698 10853012
-169.33214 -59.624477 -68.012047 9472383
-168.70203 -59.9226 -68.753494 9933959
-168.13353 -60.249638 -69.564087 10065288
-138.96576 -60.619999 -97.598694 9340283
-138.49983 -60.570335 -98.02092 6511954
-137.72115 -60.487839 -98.720291 6511954
-136.9399 -60.405685 -99.414719 7760736
-136.3098 -60.338772 -99.964058 6839893
-135.45155 -60.225296 -100.5954 7300443
-134.57748 -60.105858 -101.21056 6182734
-134.05229 -60.034374 -101.5768 5920074
-132.84395 -59.740864 -103.96815 4276281
-132.31035 -59.669548 -104.32431 5921618
-173.35664 -59.027927 -63.939941 13550517
-173.06151 -59.107731 -64.701111 12563368
-172.62202 -59.316132 -65.487213 8682867
-170.61896 -59.347736 -66.6231 8090987
-170.27443 -59.368057 -67.673279 9275005
-131.95433 -59.622101 -104.5604 7170917
-131.41995 -59.551125 -104.91259 6710366
-130.45923 -59.401939 -105.43941 6512987
-129.67807 -59.277313 -105.84662 7039331
-128.71559 -59.014683 -107.92594 9735812
-127.83886 -58.910324 -108.50887 7959144
-126.96066 -58.806252 -109.08615 9210491
-126.08078 -58.702591 -109.65697 9208700
-174.02708 -57.969444 -63.156513 8092019
-173.71065 -58.251804 -63.848286 9209727
-173.41965 -58.298126 -64.754807 9603711
-125.19957 -58.599209 -110.22234 9406335
-124.27032 -58.385956 -112.35181 8616307
-123.5761 -58.313564 -112.81053 7563619
-122.70686 -58.223228 -113.37927 8287853
-121.83575 -58.133221 -113.94171 8287853
-120.96297 -58.043434 -114.49866 7039331
-120.26346 -57.97176 -114.93982 8814969
-119.25456 -57.759678 -117.02673 11182230
-118.51397 -57.673225 -117.42622 12432037
-174.36565 -57.066616 -63.176929 9670021
-174.05644 -57.17144 -64.06974 10064262
-118.14349 -57.630199 -117.62444 12432037
-117.58732 -57.565647 -117.91963 10590093
-116.84553 -57.479774 -118.3101 6642517
-116.11145 -57.289101 -120.13335 6840151
-115.54839 -57.224819 -120.41824 8682867
-114.7973 -57.139317 -120.79468 8682867
-113.85781 -57.032803 -121.25962 7696231
-112.79102 -56.844578 -123.34573 8813941
-112.05885 -56.774067 -123.736 8089963
-111.14239 -56.68618 -124.21819 10787729
-174.96158 -56.087799 -62.440083 12892847
-174.72571 -55.940556 -63.408798 8551282
-110.22477 -56.59848 -124.69472 12168866
-109.29924 -56.435436 -126.67648 8748658
-108.36885 -56.347645 -127.13663 7301214
-107.43739 -56.260044 -127.59109 6511954
-106.878 -56.207596 -127.86086 6511954
-106.27289 -56.076962 -129.6413 9405304
-105.51774 -56.006832 -129.99097 8155498
-104.57314 -55.919399 -130.42311 9406847
-104.00452 -55.866364 -130.67778 9143675
-103.34347 -55.727016 -132.43166 8813680
-102.76489 -55.672092 -132.6747 9274229
-175.56328 -55.014301 -61.80402 10656399
-175.30013 -55.025585 -62.662392 9669249
-175.02473 -55.26041 -63.278416 8287853
-102.18613 -55.617172 -132.91585 9734779
-101.60722 -55.562397 -133.15451 8813678
-100.51839 -55.384212 -135.054 8681835
-99.542587 -55.292957 -135.43604 8682355
-98.761726 -55.220154 -135.73773 7563618
-98.416183 -55.112617 -137.32283 5920074
-97.627068 -55.039711 -137.6151 5920074
-96.640434 -54.948784 -137.97539 6972762
-95.468605 -54.766327 -139.8394 8484205
-94.471748 -54.675598 -140.18193 11380377
-176.21619 -53.875721 -61.080425 10063747
-175.89893 -54.155071 -61.778854 10721679
-175.60757 -54.19688 -62.692284 10853012
-93.464325 -54.509365 -141.96613 7761515
-92.457687 -54.418713 -142.29237 7170399
-91.652351 -54.346371 -142.54941 9406846
-91.01078 -54.214306 -144.192 10064518
-90.197868 -54.141949 -144.43852 8353902
-89.588234 -54.087887 -144.62105 9143417
-88.917732 -53.953789 -146.26045 9209467
-88.097374 -53.881649 -146.49371 8288365
-87.466179 -53.817852 -146.63942 6511954
-86.74691 -53.669621 -148.24159 6510930
-176.72615 -52.965496 -60.542065 6510930
-176.45055 -53.198105 -61.161274 9142646
-176.18707 -53.208008 -62.022572 9077627
-85.871712 -53.568047 -148.37914 7366237
-84.687843 -53.366428 -150.04132 9471351
-83.807007 -53.264828 -150.16458 9011317
-83.036552 -53.111465 -151.75655 9143417
-82.154572 -53.012802 -151.87502 7301987
-80.936729 -52.820812 -153.55563 8486003
-177.0607 -52.150269 -60.465664 6510930
-176.8416 -52.067993 -61.296181 7433060
-176.48729 -52.527386 -61.88895 8814457
-79.491539 -52.615017 -155.29633 9932419
-78.621643 -52.531982 -155.43456 8287597
-77.428276 -52.389297 -157.25926 10064777
-76.551056 -52.305847 -157.3826 8616303
-75.323708 -52.160194 -159.19641 8287856
-74.439476 -52.076359 -159.30476 9735046
-73.846977 -51.990952 -161.03577 6511962
-72.955437 -51.906693 -161.13109 8880505
-71.601173 -51.709198 -162.78596 8288365
-70.954933 -51.665089 -162.90721 6511954
-177.70067 -51.057159 -59.728836 7169372
-177.46336 -51.063808 -60.50708 7037788
-177.22078 -51.161018 -61.188046 7039331
-70.700676 -51.525394 -163.38965 7761252
-70.183052 -51.233498 -164.12936 8813427
-69.326042 -51.073303 -164.5229 9274234
-68.549858 -50.963623 -164.88817 9143675
-178.34329 -49.934216 -59.020969 7959144
-178.07526 -50.015476 -59.806492 8485488
-177.80696 -50.09758 -60.591717 8485492
-69.643585 -50.454826 -164.90179 10195076
-68.737808 -50.149616 -165.33313 8683124
-67.837585 -49.850639 -165.77983 8222573
-178.9308 -48.872265 -58.418613 6249303
-178.65407 -49.102882 -59.043827 8354933
-178.38989 -49.109016 -59.91164 9340797
-68.881264 -49.183098 -165.67305 9143675
-68.010246 -49.018627 -166.04515 8683124
-67.148674 -48.977837 -166.36549 8616819
-179.23358 -48.190605 -58.278267 6249303
-178.96941 -48.195633 -59.147526 7828847
-178.69225 -48.426971 -59.773304 8092019
-68.120583 -48.242561 -166.31053 9011833
-67.192039 -48.186649 -166.66043 8353392
-66.457115 -48.105618 -166.95183 7564136
-179.81834 -47.203072 -57.590652 5393223
-179.5497 -47.282532 -58.380516 7368040
-179.28082 -47.362785 -59.170135 8092019
-67.422226 -47.170826 -166.97809 8090221
-66.529335 -47.098248 -167.32207 7367271
-65.822472 -46.802479 -167.68813 9537666
-180.67375 -45.865013 -56.904633 5392706
-180.27014 -46.15715 -57.65469 6248786
-179.8669 -46.450184 -58.403351 7763054
-67.273453 -46.250034 -167.4301 10261132
-66.632729 -46.11121 -167.77106 8748665
-65.771263 -46.076889 -168.10513 8288370
-64.939339 -45.831005 -168.59464 11183001
-181.87727 -44.883747 -55.519772 5919309
-181.52443 -45.094669 -56.130604 6511961
-181.18852 -45.139019 -57.128986 6248786
-65.992271 -45.276508 -168.50505 9208958
-65.121132 -45.23814 -168.8206 10393742
-64.242439 -45.080338 -169.19676 8880503
-187.6606 -44.308529 -49.927422 7038307
-187.42152 -44.309769 -50.832474 8156785
-184.41525 -44.310318 -53.383553 7564899
-184.09557 -44.311798 -54.495377 5920074
-182.93587 -44.579659 -54.876587 6643284
-182.6713 -44.580257 -55.758537 5392706
-64.671608 -44.643871 -169.70518 7959144
-63.644184 -44.636509 -170.06841 8024426
-62.899437 -44.46402 -170.9819 10195082
-62.111984 -44.376541 -171.58464 9274492
-61.492107 -44.374081 -171.80167 8682867
-60.063919 -44.359219 -174.35298 10854036
-59.436886 -44.358795 -174.57045 9144191
-58.541225 -44.215893 -175.0974 9933192
-57.704494 -43.992908 -175.66927 9142907
-58.637451 -43.339535 -175.65709 10327434
-58.025623 -43.113308 -175.92848 9340027
-57.089256 -43.042469 -176.23138 10524298
-57.919155 -42.227932 -176.31044 8813683
-57.303661 -42.000809 -176.57625 8813683
-56.448395 -41.99398 -176.82626 8747891
-57.327114 -41.187561 -176.88371 8813683
-56.416756 -41.151028 -177.16122 9866116
-55.718781 -40.879982 -177.46788 9866116
-56.652374 -40.219883 -177.4529 9866116
-55.660477 -40.257835 -177.72519 10786961
-55.175415 -39.988396 -177.96968 9866116
-56.514202 -39.551815 -177.75114 9866116
-55.866974 -39.19157 -178.07758 8090730
-54.911179 -39.275478 -178.32158 8024426
-55.805519 -38.211246 -178.47423 5920074
-55.159389 -38.207703 -178.66249 6445394
-54.242287 -38.05508 -178.9868 6971738
-55.067932 -37.091763 -179.12025 10261644
-54.420357 -37.089069 -179.30864 7498338
-53.636944 -37.011868 -179.56503 6839895
-54.43829 -36.269802 -179.62007 7366496
-53.653633 -36.192619 -179.87685 8353133
-53.003021 -35.9501 -180.05809 8681840
-54.375748 -35.523716 -179.92654 10261644
-53.750454 -35.297729 -180.19473 9603456
-52.927124 -35.196865 -180.32693 8682097
-53.60627 -34.625011 -180.49644 8682867
-52.861736 -34.143673 -180.70731 10459020
-52.290932 -33.656208 -180.82362 8682867
-52.850056 -33.017216 -181.12051 11182486
-52.213428 -32.901371 -181.0929 9866884
-52.22464 -32.076027 -181.39787 8288109
-51.524189 -31.807455 -181.41939 5920074
-52.244678 -31.254698 -181.73438 6841176
-51.466015 -31.063696 -181.76131 6117453
-51.459736 -30.34868 -182.28615 6314832
-50.689007 -30.163969 -182.34209 8024937
-50.621372 -29.65608 -183.22153 8616566
-49.914593 -29.627554 -183.23068 9800322
-48.740215 -29.36305 -185.01086 10590093
-47.631107 -29.362146 -185.30394 10525071
-44.14912 -29.364927 -189.52124 9734531
-43.593288 -29.063284 -189.60066 9076601
-43.524464 -28.176645 -189.91975 10524047
-42.809757 -27.91115 -189.93861 8812912
-43.340664 -27.469795 -190.15988 10853012
-42.880917 -27.099762 -190.24541 10260873
-42.84972 -26.328978 -190.52599 10327949
-41.990795 -26.01255 -190.54768 8090987
-42.767132 -25.578148 -190.79355 9341054
-42.220821 -25.243898 -190.85631 9341054
-42.054974 -24.301548 -191.1852 8683124
-41.698116 -23.663198 -191.38098 9143417
-42.230015 -23.214151 -191.60519 8090987
-41.450466 -23.091017 -191.56444 9143417
-41.334011 -22.124161 -191.90785 8353900
-40.870838 -21.755291 -191.99252 8090728
-41.422131 -21.067722 -192.30679 10261382
-40.682804 -21.042942 -192.23424 8090728
-40.759983 -20.102318 -192.58937 8090728
-40.039738 -19.843683 -192.60501 9340798
-40.590275 -19.151617 -192.92101 6972505
-39.938671 -19.053299 -192.88527 9011833
-40.070499 -18.236633 -193.20105 9472640
-39.913265 -17.314886 -193.52367 9076599
-39.26067 -17.2181 -193.4872 8156269
-39.239681 -16.317173 -193.85057 8682098
-39.445507 -15.576844 -194.37617 10851980
-38.59943 -15.278484 -194.50963 8550511
-37.966808 -14.650598 -195.47496 8155755
-37.229336 -14.636849 -195.43446 8813683
-166.08087 -62.643562 -72.115898 7565675
-165.65178 -62.73822 -72.880737 8681327
-165.14714 -62.868912 -73.706558 9470327
-164.34964 -63.200699 -74.304802 10260102
-163.63016 -63.282955 -75.075623 7630185
-163.13933 -63.233376 -75.804871 10851980
-162.4514 -63.144478 -76.679588 10787470
-161.89642 -63.072731 -77.375031 9537662
-158.71321 -62.838985 -79.180084 10262667
-158.29337 -62.78627 -79.686981 9143931
-157.73174 -62.716106 -80.360245 10919832
-157.16791 -62.64613 -81.030136 9011839
-166.74538 -61.762367 -71.450592 9538950
-166.35698 -61.933514 -72.140015 8946813
-165.88893 -62.014961 -73.079727 9405307
-165.50046 -62.18824 -73.767426 8680811
-156.74352 -62.5938 -81.530525 10459284
-156.31787 -62.541603 -82.028816 11906472
-155.74841 -62.472164 -82.690437 9010805
-155.03345 -62.385712 -83.512711 6839895
-154.31535 -62.299549 -84.330116 6510930
-153.73833 -62.230827 -84.980225 6510930
-153.15863 -62.162094 -85.626633 6510930
-152.36232 -62.048779 -86.391373 7563874
-151.54718 -61.929188 -87.141243 9801093
-150.89345 -61.833828 -87.73671 7038298
-150.12073 -61.734173 -88.502602 7432288
-149.37593 -61.647331 -89.281235 11116692
-167.41078 -60.88187 -70.782043 7565675
-167.06195 -61.097767 -71.347618 9538950
-166.60516 -61.088474 -72.342323 9603716
-166.23944 -61.082302 -73.137733 10261132
-148.77763 -61.578033 -89.900162 9735040
-148.17734 -61.508923 -90.515518 5920082
-147.42398 -61.42276 -91.279846 7169888
-146.66768 -61.336857 -92.03907 7433313
-145.90814 -61.251213 -92.792542 6709590
-145.14571 -61.165794 -93.540947 8420211
-144.53348 -61.097725 -94.135719 7565675
-143.7655 -61.012821 -94.874069 8091762
-142.99467 -60.928249 -95.607353 7564648
-142.37595 -60.860806 -96.189911 7564651
-141.59972 -60.776661 -96.913147 8945787
-140.82091 -60.692799 -97.63134 11708060
-140.35233 -60.642635 -98.059662 9340283
-168.85103 -59.658169 -69.477638 9538688
-168.4814 -59.792522 -70.118195 9802116
-168.01047 -60.068035 -70.795166 9143675
-167.41989 -60.297287 -71.642075 10064266
-166.90974 -60.450314 -72.473587 8092019
-140.03929 -60.609226 -98.344017 9340283
-139.41182 -60.542629 -98.909927 8946039
-138.62521 -60.459599 -99.612892 11183001
-137.99396 -60.393353 -100.17126 8814709
-137.20238 -60.310829 -100.86419 7235162
-136.38824 -60.219749 -101.53714 6511954
-135.5043 -60.099411 -102.15411 7169884
-134.61903 -59.979504 -102.76514 8090986
-133.90964 -59.883839 -103.24929 5328453
-133.37714 -59.812279 -103.60997 3749937
-172.74324 -59.020351 -65.889465 9406076
-172.34079 -59.131077 -66.808823 8682867
-171.83052 -59.318676 -67.566116 9604480
-169.92995 -59.390495 -68.72419 8092011
-169.65376 -59.409878 -69.565353 9276028
-132.31369 -59.540062 -105.87767 6117714
-131.34492 -59.39082 -106.40784 6644573
-130.37564 -59.242233 -106.93072 7039331
-129.44109 -59.109886 -107.4759 7894382
-128.52644 -58.876881 -109.61684 8091498
-127.99389 -58.813995 -109.96414 8618098
-127.10508 -58.70945 -110.53802 7695717
-173.29541 -58.158737 -65.34333 8551282
-173.02753 -58.249668 -66.116653 9406076
-172.82907 -58.263306 -66.757477 10129542
-126.21484 -58.60524 -111.10629 10064265
-125.32318 -58.501389 -111.66813 7563619
-124.61691 -58.422203 -112.1208 7563619
-123.5379 -58.213634 -114.41305 7038298
-122.83383 -58.141022 -114.86491 9142906
-121.95238 -58.050507 -115.42499 8287853
-121.06916 -57.96019 -115.97868 7039331
-120.17816 -57.867184 -116.52087 11511194
-119.29741 -57.656151 -118.47699 9669508
-174.02376 -56.789997 -64.661125 8288624
-173.68459 -57.167843 -65.307579 8288624
-173.40825 -57.232639 -66.141731 10064006
-118.36121 -57.547798 -118.97131 9471871
-117.42429 -57.439713 -119.45986 5919050
-116.67428 -57.353569 -119.84612 5919050
-115.73472 -57.13961 -121.7704 8419696
-114.80016 -57.03931 -122.25243 9011576
-113.88757 -56.950603 -122.75295 7762277
-113.33954 -56.897564 -123.0506 9011576
-112.08342 -56.700237 -125.25858 9011319
-174.60548 -55.725143 -64.080025 10064262
-174.35399 -56.004543 -64.560509 8946296
-174.06163 -56.050987 -65.471329 9472382
-111.15656 -56.611683 -125.73745 9736064
-110.22844 -56.523441 -126.20983 9736064
-109.09885 -56.341133 -128.29411 7103835
-108.34615 -56.270454 -128.65872 9011320
-107.40436 -56.182343 -129.10878 9734270
-106.65014 -56.112038 -129.46492 9405304
-106.03071 -55.979801 -131.25558 9735812
-105.45813 -55.927025 -131.515 9406847
-104.49983 -55.837303 -131.93822 8090987
-103.72905 -55.763721 -132.26823 7892581
-103.44302 -55.659786 -133.8705 8813680
-174.95961 -54.997478 -63.827156 9274492
-174.64011 -55.058754 -64.809326 8880505
-174.36395 -55.295929 -65.424843 10064262
-102.66354 -55.586044 -134.19128 8287336
-101.49369 -55.475811 -134.66548 7958370
-100.58521 -55.314247 -136.498 7169116
-99.599487 -55.22245 -136.87642 6971738
-98.810684 -55.149166 -137.17514 7563618
-97.661148 -54.967129 -139.06346 11709346
-96.465309 -54.857437 -139.49028 10392202
-95.477737 -54.69162 -141.29482 7760997
-175.48355 -54.054295 -63.284191 9077369
-175.21527 -54.141357 -64.063484 10524047
-174.9391 -54.377583 -64.680244 8287853
-94.471085 -54.600304 -141.63332 9405565
-93.246948 -54.414188 -143.49408 10854036
-92.433762 -54.34137 -143.75099 9406846
-91.620598 -54.268604 -144.00471 9406846
-91.174606 -54.153358 -145.59911 9537918
-90.353783 -54.080601 -145.84277 8551281
-89.533165 -54.008011 -146.08316 8090987
-88.852737 -53.872566 -147.73576 7367263
-88.024605 -53.800007 -147.9653 6511954
-87.403564 -53.745716 -148.13506 7366237
-176.06715 -52.990128 -62.696281 8814457
-175.815 -53.26828 -63.180069 8551025
-175.52249 -53.311722 -64.095352 8287853
-86.674202 -53.596138 -149.75023 8287336
-85.790535 -53.493851 -149.88228 9537400
-84.591682 -53.290215 -151.55397 10787727
-83.702415 -53.187958 -151.67143 9143417
-83.145958 -53.059242 -153.25131 12432037
-82.261444 -52.963669 -153.3759 10721934
-81.02993 -52.769772 -155.06992 7828331
-80.144508 -52.677357 -155.18935 8682867
-176.79997 -51.622871 -61.998112 8814457
-176.47363 -52.081833 -62.498508 8288370
-176.16266 -52.18417 -63.400074 8353904
-79.404884 -52.577538 -156.96587 8288371
-78.74559 -52.514679 -157.06599 10064777
-78.086693 -52.451916 -157.16393 8090987
-77.538116 -52.370289 -158.90788 8090987
-76.651726 -52.286171 -159.02634 9932418
-75.186348 -52.117687 -160.88426 8090736
-74.516365 -52.054222 -160.96107 8879995
-73.724495 -51.834549 -162.29578 8879991
-72.882622 -51.789703 -162.51178 6511954
-72.247742 -51.753605 -162.66318 6511954
-177.15617 -50.894852 -61.739349 7959663
-176.83601 -50.951553 -62.728916 7696747
-73.123596 -51.482304 -163.043 8090987
-72.359894 -51.140835 -163.5407 9537660
-71.441612 -51.196499 -163.79842 10063747
-177.68304 -49.951931 -61.187244 8946044
-177.41411 -50.035568 -61.97266 8682873
-177.13701 -50.269508 -62.595146 7894126
-71.727226 -50.294617 -164.23187 9932161
-70.767204 -50.188698 -164.61249 10195076
-69.863632 -49.883694 -165.05125 9931905
-178.19153 -49.114285 -60.562622 9735046
-177.99286 -49.120163 -61.213596 9735046
-177.72363 -49.203701 -62.000217 9735046
-71.051773 -49.18541 -164.90546 10853004
-70.114723 -49.095943 -165.27148 10524040
