# .PCD v0.7 - Point Cloud Data file format
VERSION 0.7
FIELDS x y z rgb
SIZE 4 4 4 4
TYPE F F F U
COUNT 1 1 1 1
WIDTH 1211
HEIGHT 1
VIEWPOINT 0 0 0 1 0 0 0
POINTS 1211
DATA ascii
140.47348 -29.072206 -71.753815 7564651
140.54565 -28.209642 -87.569206 13024949
140.61107 -28.118418 -86.446808 12301479
140.6722 -28.027939 -85.32885 10327947
140.71786 -27.956182 -84.437958 10854292
140.76074 -27.88488 -83.550072 9537921
140.8101 -27.796482 -82.444565 9735556
140.85551 -27.708765 -81.343361 10787467
140.88864 -27.639189 -80.465843 10261123
140.92607 -27.552896 -79.37323 9406073
139.90446 -27.697947 -73.165344 10065291
140.19852 -28.030832 -72.606331 9209728
140.56454 -26.826365 -76.099228 10853012
140.49736 -26.745024 -75.196167 9602945
140.25328 -27.126451 -74.37632 8418928
140.30461 -27.392097 -73.58744 9077627
135.43275 -74.325104 22.664993 8616822
135.34082 -74.367821 23.653927 10392714
135.24435 -74.411957 24.643139 8681843
135.14323 -74.457581 25.632816 8681843
135.58134 -74.328667 26.394339 9012089
135.47247 -74.376823 27.388454 8485745
135.25574 -74.489037 28.445574 8748404
135.27171 -74.430122 29.589378 5920073
135.24219 -74.398483 30.572479 5525316
135.20869 -74.373695 31.420834 7433313
135.13884 -74.353493 32.434025 7301470
134.93867 -74.375755 33.416836 7104348
134.73405 -74.399452 34.399265 8353902
134.59528 -74.416 35.053761 9735302
134.74115 -74.295921 36.829456 9735302
134.5946 -74.314857 37.485847 10458511
134.44626 -74.334373 38.142075 9208443
137.19188 -73.618469 -5.2495675 9407363
137.43993 -73.826752 -4.2672048 9275515
137.18265 -74.049881 -3.365984 9210491
137.25758 -74.048286 -2.2851739 9933957
136.86073 -74.047424 -1.2951387 9341821
136.86159 -74.046051 -0.30980003 8618355
136.85541 -74.044685 0.67547309 9012857
136.84213 -74.04332 1.6607093 8551026
136.8217 -74.041962 2.6458054 7761254
136.79408 -74.040619 3.6307278 7168861
136.75945 -74.039291 4.615416 9010807
136.7177 -74.037971 5.599834 7563619
136.66881 -74.036659 6.5839782 9537663
136.61284 -74.035362 7.5676866 9735812
136.54977 -74.034065 8.550992 10656402
136.4796 -74.032784 9.5338583 9669507
136.40228 -74.031517 10.516086 8550514
136.31795 -74.030251 11.49778 9537665
136.2265 -74.028999 12.478834 9801604
136.12799 -74.027763 13.45922 8486000
136.02901 -74.030128 14.439619 7498849
135.96864 -74.057259 15.424785 7498849
136.25166 -74.056023 16.453993 9670530
136.15627 -74.072105 17.438766 10920597
136.0088 -74.102127 18.511614 12498600
135.94836 -74.119659 19.573753 9210491
135.87071 -74.157639 20.56329 7762283
135.78851 -74.19709 21.55319 8682873
135.97092 -74.150963 22.421946 8353909
135.88022 -74.1931 23.414421 8419444
135.78514 -74.236801 24.407314 10655886
135.68552 -74.282013 25.400555 9997701
135.98294 -74.215935 27.494383 8485745
135.86942 -74.265709 28.492777 8222061
135.74284 -74.292686 29.318674 6972250
135.64378 -74.188904 32.55793 6906712
135.44299 -74.211166 33.544415 8156779
135.2377 -74.234856 34.530476 7565416
135.21594 -74.195656 35.636272 9012093
135.13091 -74.185707 36.519199 9472387
135.09883 -74.14959 37.628941 9602945
134.87466 -74.179169 38.617008 9076601
134.93719 -74.122017 39.515057 9142907
134.7043 -74.154335 40.504131 9604225
134.63283 -74.140938 41.36779 10459278
134.78926 -74.061485 42.484657 9143674
134.51369 -74.08226 43.466911 9340542
134.44589 -73.999245 44.519791 9273980
134.31223 -73.994484 45.554161 9734529
134.67749 -73.983597 46.404839 9866110
134.33408 -73.982712 47.373158 10589576
134.28467 -73.981163 48.522785 9471615
134.43591 -73.979454 49.605915 8881278
134.06937 -73.978584 50.572422 9341571
134.16544 -73.977112 51.53455 8946043
134.25438 -73.975639 52.499542 9208443
133.86693 -73.974808 53.464619 10261643
134.10423 -73.973129 54.437569 11380381
134.01866 -73.971878 55.408005 10590353
133.61023 -73.971085 56.371323 11511711
133.94658 -73.969368 57.277634 11446174
133.65675 -73.968056 58.490726 10526352
133.79651 -73.966248 59.645329 9605252
133.67877 -73.965042 60.625195 9143419
133.2327 -73.964294 61.585896 10129545
133.75153 -73.962166 62.613766 9603457
133.48888 -73.800377 63.472805 9537920
133.11119 -73.691917 64.277725 9012088
137.1532 -72.643723 -6.238502 13025456
137.45023 -72.846382 -5.3580556 9801862
137.72292 -73.090408 -4.4962945 9340283
133.80734 -72.93792 63.665424 10130570
133.40602 -72.831787 64.421379 9538432
133.00407 -72.727654 65.176834 9933446
137.23969 -71.524307 -7.0686083 10065291
137.41022 -71.850014 -6.3700242 10788756
137.73181 -71.959435 -5.5183177 10065291
133.68117 -71.801811 64.687988 9998984
133.25378 -71.693779 65.489433 10393997
132.88995 -71.623955 66.156059 9208443
137.16974 -70.450203 -8.2221651 13023917
137.356 -70.864456 -7.4052973 10195595
137.79613 -70.864281 -6.3777332 9867399
133.5656 -70.824287 65.57972 10590864
133.06468 -70.803223 66.44397 9208443
132.90436 -70.453407 66.964638 9208443
137.41451 -69.725105 -8.31915 12365988
137.73108 -69.95285 -7.3698297 10590095
133.74602 -70.10833 65.783592 10262667
133.47343 -69.751877 66.499329 9471871
133.01019 -69.631134 67.370575 10787987
132.73584 -69.278358 68.08683 13026229
137.36743 -68.704651 -9.3698072 8287342
137.66728 -68.958504 -8.435545 10063750
137.95729 -69.126274 -7.6035709 9735299
133.68103 -68.804733 66.821655 9538688
133.28122 -68.72036 67.559425 10590608
132.83034 -68.700233 68.338089 11380636
137.40938 -67.670113 -10.225712 9866630
137.71306 -67.827629 -9.3713064 9208700
137.95792 -68.162956 -8.4904404 8287598
133.49728 -68.050545 67.669922 9735555
133.16809 -67.745232 68.445534 10130057
132.79546 -67.498337 69.253815 9208443
137.36938 -66.573921 -11.329631 8814453
137.61609 -66.900703 -10.452346 9406335
138.0063 -66.953789 -9.4922094 9537665
133.4875 -66.828941 68.557091 10130056
132.99208 -66.771172 69.438759 9537664
132.69019 -66.567711 70.096001 11380380
137.36169 -65.632835 -12.215378 7563619
137.66763 -65.781456 -11.363805 8156269
138.00081 -66.004112 -10.38046 9866630
133.53905 -66.211929 68.909546 9208443
133.30566 -65.865311 69.552765 10195850
132.84007 -65.716042 70.449158 10130313
132.50951 -65.407066 71.230339 9932934
137.39969 -64.449493 -13.217302 8419702
137.59576 -64.837059 -12.402322 8090737
137.95474 -64.979446 -11.432767 9143166
133.54294 -65.053688 69.728966 10656657
133.26222 -64.707367 70.452232 10064776
132.79034 -64.597694 71.331093 9998727
132.50769 -64.25473 72.055153 9932934
137.62979 -63.73436 -13.322383 7367528
137.96072 -63.937702 -12.379294 7959151
138.14027 -64.311661 -11.61532 10261132
133.46277 -63.767395 70.78231 9670018
133.05577 -63.692177 71.526505 10261899
132.59752 -63.681396 72.311722 9735555
137.55313 -62.783642 -14.288599 7696747
137.87196 -62.980648 -13.447671 8156530
138.17624 -63.12862 -12.621764 7564651
133.26802 -63.02573 71.641647 10459278
132.93028 -62.730312 72.425308 10525071
132.54878 -62.493233 73.241692 10261643
137.65833 -61.50721 -15.135661 7038307
137.87132 -61.875473 -14.387178 8156529
138.1588 -62.199589 -13.51299 9735812
133.24475 -61.817413 72.542793 9604225
132.74065 -61.769741 73.432152 9998727
132.43149 -61.573975 74.096176 8682867
137.63858 -60.604321 -16.249243 10063753
137.92604 -60.795906 -15.367544 9011580
138.21397 -61.069935 -14.38474 8485492
133.29045 -61.205692 72.901558 9932934
133.02269 -60.934601 73.589592 10129801
132.63466 -60.783356 74.420937 9669506
132.43384 -60.476395 75.149864 9406590
137.96223 -59.469391 -18.236095 8222317
138.03288 -59.663517 -17.345133 7827046
138.02878 -60.058292 -16.406118 8748406
138.37128 -60.077614 -15.660827 9143166
133.12772 -60.061939 74.595093 9538176
132.77948 -59.848022 75.506828 9735813
132.66737 -59.50705 76.467491 11511967
132.50244 -59.312267 77.425247 10591121
132.16081 -59.240307 78.189232 9735812
138.81834 -58.73769 -36.335278 9208699
139.11024 -58.80027 -35.415062 13880259
139.26587 -58.902878 -34.449245 11381154
138.786 -59.089771 -33.392994 9012863
139.05673 -59.087776 -32.225933 15064533
139.24409 -59.086353 -31.390984 14209224
138.45805 -59.085953 -30.346985 8684155
138.66852 -59.084274 -29.349247 9142393
138.87178 -59.0826 -28.35006 9931394
138.72624 -59.081467 -27.39909 10260873
138.23279 -59.080872 -26.501436 9669251
138.4155 -59.079231 -25.505415 9011579
138.59097 -59.077602 -24.508135 10920086
138.75928 -59.075974 -23.50956 10065035
137.96523 -59.075436 -22.359482 9011832
138.11804 -59.073841 -21.365494 7236189
138.09232 -59.15694 -20.27828 6775894
138.21394 -59.23732 -19.416306 7169884
138.18849 -59.346069 -18.670044 7893096
132.69971 -59.043903 78.511543 10260870
132.39948 -58.99094 79.487564 8944240
132.48688 -58.938751 80.559319 10063236
132.09442 -58.938393 81.19442 8681835
132.58476 -58.935757 82.606316 9470843
132.08093 -58.935322 83.400185 9931137
132.66652 -58.932755 84.673241 9931137
132.25375 -58.932419 85.308853 8880503
131.83853 -58.932087 85.942863 9341054
132.20306 -58.929348 87.554794 10985879
131.98924 -58.847443 88.56308 9931909
131.82927 -58.510365 89.480721 10326668
138.8497 -57.733017 -37.36565 5919562
139.13362 -57.841263 -36.417831 9735040
139.39026 -58.005875 -35.48653 8880506
139.51755 -58.282372 -34.807125 16248807
132.17271 -57.796696 89.476456 9931910
131.6151 -57.727158 90.165504 10063497
138.96465 -56.657326 -38.231979 6314576
139.22359 -56.8172 -37.299263 6906711
139.50818 -56.925377 -36.349461 11182994
132.28575 -57.028664 89.771126 9602945
131.84689 -56.699394 90.465858 9077114
131.40623 -56.318325 91.191521 8090987
138.92744 -55.905849 -39.179478 7761509
139.24231 -55.864471 -38.308567 6117196
139.53786 -55.921646 -37.383774 6248782
132.20398 -55.757622 90.572319 9077370
131.64343 -55.690662 91.263321 8288366
138.97029 -54.814381 -40.273365 7038297
139.22408 -54.949383 -39.383442 8419440
139.52618 -55.013355 -38.431927 6840663
139.65091 -55.342243 -37.701511 5393730
132.25604 -55.160572 90.843109 8813686
131.875 -54.743122 91.51947 9538433
131.43462 -54.523838 92.154922 11906725
139.01038 -53.726223 -41.371616 10852239
139.26572 -53.858704 -40.479866 9932419
139.56955 -53.919937 -39.526638 12300708
139.69571 -54.246613 -38.794376 11708828
132.16803 -53.758209 91.724586 9866886
131.66809 -53.736294 92.319901 9932678
139.1165 -52.660717 -42.252186 8813172
139.38165 -52.810635 -41.312504 8616049
139.67242 -52.908497 -40.356377 9340795
131.91412 -52.799377 92.553276 8221549
131.42529 -52.62989 93.21756 9142907
139.14996 -51.801258 -43.114468 10918546
139.39125 -51.86908 -42.335857 8747379
139.6926 -51.916611 -41.404987 8616049
132.1937 -51.963169 92.691521 9142907
131.74977 -51.74596 93.329948 10064264
131.30539 -51.529774 93.968361 11380380
139.18298 -50.720573 -44.22485 9012603
139.36378 -50.965115 -43.425232 10393996
139.67184 -51.019409 -42.467106 9405821
139.80193 -51.340782 -41.72953 7563619
131.95993 -50.890285 93.559937 9538949
131.47894 -50.568939 94.299492 10130572
139.26155 -49.613007 -45.232475 9341823
139.45233 -49.886036 -44.371918 8551798
139.77603 -49.938637 -43.370155 10524556
139.89323 -50.258076 -42.672092 9866371
131.82712 -49.756031 94.344757 8355190
131.25757 -49.670021 95.056915 10459536
139.27646 -48.685879 -46.224216 9603458
139.53893 -48.808407 -45.322815 9012603
139.84996 -48.858711 -44.360493 8288627
139.98254 -49.177074 -43.618671 9866371
131.93289 -48.962582 94.662247 8092019
131.46848 -48.659454 95.372238 9209471
139.27647 -47.909393 -47.09103 8617075
139.50494 -47.910637 -46.424038 10524816
139.84717 -47.914143 -45.423237 11380381
140.01315 -48.0965 -44.73597 10459279
131.83842 -47.803757 95.416321 8814454
131.26677 -47.746204 96.114838 10524047
139.43724 -46.662907 -48.078892 9735043
139.54816 -46.972279 -47.369595 8485489
139.84071 -47.05732 -46.411915 12038055
139.97511 -47.376633 -45.650612 14801361
131.94368 -47.036438 95.71994 7827558
131.45618 -46.809532 96.437614 10195338
131.20889 -46.366497 97.049431 10195338
139.49261 -45.698402 -50.164391 9932161
139.57794 -45.927376 -49.38718 9537404
139.84328 -46.017925 -48.405785 9735043
140.02742 -46.211861 -47.41959 9077369
140.18681 -46.341949 -46.650913 9735043
131.80896 -46.017288 96.760193 9537664
131.46033 -45.747936 97.483025 9932678
131.18086 -45.36367 98.260147 11511452
139.70628 -44.570255 -54.052929 8813685
139.95102 -44.565853 -53.377773 9997959
140.04883 -44.643837 -52.341656 9866373
139.73363 -44.976257 -51.333607 9339773
139.93935 -45.098869 -50.371677 8353134
140.14081 -45.240612 -49.337208 8024168
131.53258 -44.829475 98.525993 10788243
131.18111 -44.6544 99.253784 12103334
131.3244 -44.318871 100.36527 12497575
140.33507 -43.86512 -63.110897 9142390
140.78059 -43.908936 -62.501095 9207928
140.95084 -44.126293 -61.635349 9340027
140.07776 -44.125271 -60.062607 7563619
140.36148 -44.123947 -59.389275 9603713
140.71216 -44.122295 -58.545879 11840675
140.12007 -44.126835 -56.344189 7037274
140.07388 -44.308582 -55.354015 7037274
140.3147 -44.360527 -54.286278 7037274
140.56087 -44.355984 -53.608032 8813685
131.36322 -44.056461 101.40522 13023917
130.79501 -44.031158 101.97549 13023917
131.37724 -43.908562 103.20219 9274744
140.56642 -42.952972 -63.35046 10457479
140.48941 -41.632736 -64.062065 9011064
140.80334 -42.023636 -63.593494 9734529
140.61157 -40.87735 -64.322006 8550513
141.12502 -41.139507 -63.739399 9011064
140.36432 -39.881126 -65.026459 8221548
140.84305 -39.998241 -64.545364 7366239
140.76695 -38.886555 -65.154556 9405822
140.51274 -37.782776 -65.917595 8616566
140.80219 -38.065197 -65.523567 8419187
140.69829 -36.842972 -66.211266 7827308
141.07013 -37.07922 -65.766762 7038307
140.36485 -35.652122 -67.086952 8617843
140.81346 -35.976879 -66.531303 7433064
140.73126 -34.869202 -67.143929 10196362
141.14871 -35.162273 -66.631332 8616566
140.43291 -33.739437 -67.950706 11708831
140.98627 -33.907585 -67.384773 9340801
140.7337 -32.846714 -68.096733 12629675
141.03726 -33.160557 -67.687225 13287347
140.91133 -31.863304 -68.392075 8419701
140.70045 -30.816158 -69.057396 7367269
141.15451 -30.987583 -68.580704 7038307
140.59471 -29.556065 -70.125565 8682867
140.95642 -30.015059 -69.51516 8682869
141.37663 -30.378996 -68.828445 7038307
140.99237 -28.873713 -71.380112 10130314
141.14639 -29.286551 -70.609856 11117208
142.24484 -28.163395 -89.094757 12235690
142.29524 -28.089447 -88.180916 13419706
142.34273 -28.015961 -87.270294 7039331
142.38734 -27.943031 -86.362732 9933193
141.08681 -27.723318 -72.237801 9538948
141.35822 -28.06542 -71.636391 9670277
141.25679 -26.784849 -74.299774 9077365
141.08362 -27.188046 -73.348686 11512476
140.93486 -27.427513 -72.843735 11381404
138.03772 -73.602852 -3.2888303 11116435
138.3914 -73.780991 -2.298667 11446426
138.07921 -74.045799 -1.3006228 8815477
138.08014 -74.044403 -0.30653226 8092011
138.07387 -74.04303 0.68756521 9078398
137.97987 -74.041855 1.6137246 8288883
137.6313 -74.040848 2.6655331 7761254
137.60353 -74.039505 3.6563215 8156012
137.56865 -74.038162 4.6468725 10458251
137.52663 -74.036835 5.6371169 7563619
137.47743 -74.035507 6.6270547 8485233
137.42113 -74.034203 7.6166196 9867142
137.35767 -74.032906 8.6057453 9801348
137.28711 -74.031609 9.5943995 8089963
137.20935 -74.030334 10.582478 9011321
137.1245 -74.029068 11.570051 9537665
137.35156 -74.027245 12.654575 9208435
137.33987 -74.025963 13.585424 11840413
137.23335 -74.024719 14.573818 8946294
137.11966 -74.023483 15.561404 7762021
137.40425 -74.021652 16.599262 9407358
137.27596 -74.020439 17.588039 13486781
137.14052 -74.019234 18.575872 9143674
136.99796 -74.018044 19.562698 8815221
136.84824 -74.016869 20.548452 7695980
136.69145 -74.015701 21.533134 9011838
136.52756 -74.014549 22.516611 10327696
136.78003 -74.022141 23.574236 8288116
136.64281 -74.043411 24.56601 9998473
136.49976 -74.065422 25.557348 10327178
136.35507 -74.090508 26.549049 9209468
136.49594 -74.054306 27.600819 8288366
136.3815 -74.103661 28.602867 8156012
136.50929 -74.067451 29.660223 8156268
136.3042 -74.07589 30.646242 7959145
136.0959 -74.086449 31.631798 9472640
136.15117 -74.023491 32.682468 7762021
135.94983 -74.045815 33.672665 8551537
136.12793 -74.033661 34.587826 8157041
136.09181 -74.019104 35.451855 8617079
135.98965 -73.995728 36.475052 10853012
135.71783 -73.994728 37.453125 8682100
135.85541 -73.997879 38.549713 8681843
135.96635 -73.991333 39.645008 9076857
135.67172 -73.990356 40.622822 9209467
135.57439 -73.989037 41.662502 9801604
135.98106 -73.987305 42.507568 8946295
135.66571 -73.986366 43.485367 8156780
135.34335 -73.98542 44.460899 8222317
135.52696 -73.983673 45.537407 9471355
135.49353 -73.982117 46.69096 9537144
135.14801 -73.981216 47.665138 9537144
135.42122 -73.979507 48.621002 9275005
135.37471 -73.978203 49.587826 8946813
135.00829 -73.977341 50.561108 8881277
135.26657 -73.975632 51.528648 9208957
135.20203 -73.974373 52.500675 10392717
134.81453 -73.973526 53.47263 10392717
135.05759 -73.971832 54.451752 14802646
134.97485 -73.970581 55.428761 10919318
134.73842 -73.969292 56.568123 10787732
134.9752 -73.967354 57.723991 10394253
134.55008 -73.966576 58.694202 10855060
134.7666 -73.964882 59.694927 9999496
134.7644 -73.91127 60.733059 9932166
134.61034 -73.674591 61.575634 9866373
134.28166 -73.486862 62.470585 9406078
133.99036 -73.266724 63.12104 10129545
137.98122 -72.787437 -4.1724954 9537405
138.36711 -72.812119 -3.2486777 10918544
138.57248 -73.078346 -2.5236888 10721423
134.92816 -72.813332 61.853905 9603457
134.53516 -72.715912 62.589573 8880246
134.14172 -72.620316 63.32465 9867398
137.99251 -71.798302 -5.0580578 10524557
138.31589 -71.809029 -4.2930131 11115666
138.57277 -72.017433 -3.5009894 10984080
134.77983 -71.879272 62.770275 9077881
134.37679 -71.718071 63.568394 9933191
134.05499 -71.400856 64.339699 9867398
138.05373 -70.559723 -6.0570316 9340797
138.23878 -70.924652 -5.2884378 9340798
138.62817 -70.935539 -4.3690958 10458507
134.76236 -70.801285 63.567249 9604225
134.27458 -70.728485 64.446007 9604226
133.97945 -70.513481 65.09938 10262156
138.05862 -69.585419 -6.9437404 9735299
138.27513 -69.799759 -6.2406468 10327180
138.62407 -69.888077 -5.3445048 9669507
138.75642 -70.317055 -4.6401048 10459023
134.82072 -70.176605 63.913013 9538432
134.58798 -69.76886 64.597748 9670018
134.08797 -69.68882 65.502388 10394253
133.81538 -69.331429 66.21891 10262667
138.11215 -68.36396 -7.9448309 9735299
138.24673 -68.782967 -7.2443361 9998215
138.57664 -68.924759 -6.3433356 10392717
138.81448 -69.080978 -5.6440635 11906725
134.74864 -68.996056 64.87542 9736579
134.45164 -68.782501 65.530975 11512222
134.03284 -68.661087 66.327454 9999495
138.23524 -67.755653 -8.2182617 10656655
138.62511 -67.803688 -7.26369 10985622
138.81656 -68.109024 -6.5353365 8091757
134.68697 -67.918114 65.747353 11841188
134.31224 -67.799812 66.466896 9868165
133.87193 -67.647652 67.321686 8618354
138.27687 -66.707016 -9.0879087 9208956
138.53938 -66.8937 -8.3027802 10327948
138.81133 -67.004189 -7.5660653 12170148
134.58267 -66.776726 66.736649 9868164
134.13174 -66.735725 67.530479 10065286
133.77879 -66.608871 68.219673 10065286
138.25711 -65.696556 -10.065581 8814198
138.51724 -65.864082 -9.3037271 8814198
138.86325 -65.931808 -8.4335938 8091503
134.41849 -65.862854 67.666389 10920338
133.97829 -65.800301 68.457886 8815221
133.78458 -65.448616 69.0373 9866630
138.298 -64.502319 -11.071057 10261643
138.49179 -64.842087 -10.305327 9209468
138.82199 -64.966454 -9.4198313 8617331
134.63516 -65.097954 67.844322 12630698
134.35616 -64.747269 68.567726 10985621
133.88571 -64.63221 69.448006 10656401
133.60489 -64.284981 70.171982 9932934
138.28658 -63.564751 -11.962155 7564651
138.46341 -63.82729 -11.307186 9274751
138.86485 -63.822174 -10.374743 9012089
139.00613 -64.226776 -9.6718969 8617331
134.55956 -63.805824 68.893982 11051160
134.15372 -63.726078 69.639481 10129802
133.74733 -63.64793 70.384605 9669506
138.32069 -62.385319 -12.969901 7564642
138.46396 -62.780979 -12.270508 7630443
138.79924 -62.947445 -11.334352 8025197
139.0443 -63.034336 -10.682035 9735555
134.47476 -62.870445 69.704803 9866630
134.093 -62.76125 70.430481 9801348
133.64423 -62.619759 71.29287 10525071
138.43533 -61.791809 -13.248903 8156780
138.83278 -61.766384 -12.344825 8485745
139.10121 -61.937176 -11.560711 9011576
134.34889 -61.846359 70.648781 9144186
133.8461 -61.793438 71.539619 9999239
133.53842 -61.593933 72.203835 9932934
138.5472 -60.658703 -14.267392 7827818
138.7677 -60.959496 -13.347501 7301470
139.12325 -60.975838 -12.454635 7564642
134.39659 -61.232956 71.00528 9012344
134.15623 -60.977276 71.637543 10065288
133.76599 -60.804783 72.466934 10985622
133.54227 -60.489765 73.249985 10984854
138.62721 -59.442493 -17.037653 7893096
138.72263 -59.54652 -16.289711 9735812
138.81215 -59.792274 -15.329967 8814457
139.0648 -59.960541 -14.428824 7038047
139.15988 -60.320503 -13.552846 6511954
134.23624 -60.078861 72.689705 10327436
133.89195 -59.860741 73.60144 9998471
133.73198 -59.555424 74.478424 9406846
133.77394 -59.322292 75.279587 10195851
133.44174 -59.269436 76.154297 9012350
139.60794 -58.66288 -34.118977 7565675
139.76109 -58.865437 -33.446548 8091248
140.0824 -58.900658 -32.459366 12103591
139.93303 -59.085396 -31.367973 9998215
139.4975 -59.084377 -30.220093 9669248
139.70705 -59.082687 -29.214903 9932675
139.90929 -59.081009 -28.208082 8353904
139.58609 -59.080135 -27.27585 9537407
139.25664 -59.079277 -26.347219 10984852
139.43817 -59.077629 -25.343857 11116694
139.61247 -59.075993 -24.339193 9670278
139.7795 -59.07436 -23.333244 7960176
138.92035 -59.074356 -22.509794 8157041
139.07422 -59.07275 -21.508936 6248784
139.24432 -59.070889 -20.339842 6512978
139.21762 -59.091373 -19.144501 7234653
139.10594 -59.144936 -18.382317 7169116
139.09912 -59.25444 -17.432295 7037274
139.36031 -59.313747 -16.446447 8748920
133.88895 -59.071064 76.626999 8486263
133.49896 -59.036533 77.690063 9933191
133.64644 -58.939877 78.643181 10853004
133.16679 -58.9394 79.443718 8680811
133.77379 -58.936844 80.68856 9404790
133.28154 -58.936382 81.489616 9076084
132.88475 -58.936024 82.128532 8089963
133.4819 -58.933449 83.395561 10194308
132.97374 -58.93301 84.195023 9931137
133.46364 -58.930328 85.642059 7826791
132.83687 -58.929829 86.6007 10591121
133.35695 -58.627712 87.633522 11116694
132.80014 -58.553867 88.324051 11444631
139.71635 -57.559719 -35.034855 7563619
139.83965 -57.901577 -34.294113 8486263
140.15323 -58.012966 -33.256199 9998987
140.27716 -58.362923 -32.504639 14209224
133.47258 -57.8311 87.94101 10063238
133.03809 -57.719364 88.509933 8287858
132.54106 -57.576431 89.16909 7564651
139.74384 -56.575977 -36.053173 11906716
139.91483 -56.837444 -35.263165 8089962
140.24239 -56.868572 -34.274277 8221547
140.41205 -57.133778 -33.484016 10853006
133.18318 -56.91098 88.789619 7564651
132.81226 -56.675613 89.353004 8616566
139.74533 -55.716446 -37.008636 9735550
139.90202 -55.912991 -36.33276 11182994
140.29427 -55.761864 -35.35899 10326919
140.46545 -56.02446 -34.567162 7563619
133.07498 -55.802711 89.531242 10523788
132.57726 -55.776447 90.126472 9866374
139.79161 -54.618706 -38.099613 5393730
139.91621 -54.948368 -37.368477 5920073
140.21719 -55.017296 -36.414806 9209463
140.51601 -54.919079 -35.654179 11379348
133.20949 -55.075413 89.778252 9997960
132.80273 -54.743259 90.43718 9076858
132.49155 -54.372429 91.006111 10261132
139.89062 -53.527634 -39.029438 12892844
140.01952 -53.860672 -38.282104 9406589
140.33971 -53.960106 -37.238369 5986640
140.54807 -54.184258 -36.381065 7565157
133.10645 -53.842552 90.583168 8221549
132.54306 -53.775421 91.277504 9537409
139.90866 -52.556267 -40.061367 9340795
140.08525 -52.808819 -39.265011 10130054
140.41878 -52.828964 -38.270931 8814709
140.59396 -53.084991 -37.474644 8814966
133.22043 -53.207882 90.802589 9142651
132.83728 -52.790031 91.481598 9010807
132.45312 -52.373367 92.16111 9537150
139.90161 -51.707561 -41.029449 9339515
140.06299 -51.896774 -40.348095 7762021
140.39792 -51.9142 -39.352871 7038298
140.63715 -51.989037 -38.572418 10065031
133.13142 -51.80402 91.68602 9537150
132.56528 -51.739346 92.382431 8879221
139.938 -50.621365 -42.136101 8089963
140.06798 -50.943478 -41.397827 9208699
140.40973 -50.967724 -40.375256 8486000
140.61324 -51.233044 -39.486187 7235933
133.18225 -51.206665 91.958504 8089963
132.86716 -50.838032 92.530838 8879221
132.45433 -50.510586 93.19413 9735042
140.08482 -49.541061 -42.914448 9866371
140.216 -49.861881 -42.174202 8945271
140.52422 -49.919025 -41.212486 9340798
140.70335 -50.169189 -40.411327 7565410
133.0894 -49.804096 92.84623 12432037
132.5844 -49.784134 93.446083 9538176
140.11681 -48.458874 -44.029564 8288627
140.24934 -48.778053 -43.287167 8945271
140.55907 -48.832783 -42.323601 11050643
140.78214 -48.931454 -41.563625 10721935
132.84323 -48.910168 93.629967 10129798
132.41705 -48.620758 94.287697 9012347
140.22377 -47.884537 -44.359116 8090987
140.58856 -47.852039 -43.33268 10195339
140.8347 -47.973042 -42.480572 11116441
133.11053 -48.007359 93.820023 9537918
132.66164 -47.791512 94.463287 9077625
132.21239 -47.576672 95.106506 7038298
140.18054 -46.665318 -45.903843 13353915
140.31131 -46.920856 -45.202705 11248795
140.57799 -47.027939 -44.298298 8748661
140.81891 -47.153217 -43.448013 12695473
132.91299 -46.963875 94.643745 8485745
132.49364 -46.679062 95.310532 7762021
132.09293 -46.389587 95.991684 8287853
140.39133 -45.775085 -47.373638 9143163
140.57704 -45.979179 -46.359631 9867142
140.83348 -46.063427 -45.416847 8617331
140.92699 -46.350601 -44.470032 7564643
132.87654 -45.955273 95.58844 9209211
132.53372 -45.625175 96.375885 8353646
132.09378 -45.415554 97.135056 8880246
140.67665 -44.555702 -51.349209 8616306
140.88129 -44.604347 -50.279198 6313808
140.73236 -44.774193 -49.392548 8484719
140.69272 -45.056709 -48.321072 9932419
140.93356 -45.142731 -47.327427 9537918
141.05507 -45.371605 -46.375927 8419440
132.85635 -44.946529 96.796944 8617331
132.38538 -44.795414 97.581413 9735811
132.43468 -44.465981 98.460655 10262155
132.10721 -44.337978 99.46003 12301225
141.48204 -43.671425 -62.189209 8945270
141.42096 -44.073639 -61.302471 8747891
141.53053 -44.123619 -60.278923 10195849
141.81581 -44.122288 -59.598827 10656657
140.92004 -44.121304 -58.038898 8288365
141.19408 -44.119987 -57.361511 7498852
141.53249 -44.118347 -56.513145 9011318
140.74155 -44.152889 -55.031834 7037274
141.05156 -44.146896 -54.180832 7629411
141.05183 -44.247375 -53.214149 11510943
141.04813 -44.348763 -52.25034 8353134
141.34956 -44.345234 -51.400776 5919050
132.70825 -44.098267 99.916954 13024949
132.1965 -44.08963 100.53292 13024175
132.61813 -43.909111 101.61803 11708313
131.99989 -43.908825 102.41182 10853004
132.5864 -43.905228 104.42066 9932934
141.16795 -42.694336 -62.943626 10261132
141.68138 -42.962162 -62.35833 9208701
141.43413 -41.827354 -63.130363 10129546
141.80661 -42.203049 -62.617287 10524047
141.67964 -40.876022 -63.376503 9076857
141.43805 -39.943417 -64.044998 8747892
141.96249 -39.960876 -63.571915 9011064
141.6389 -38.886246 -64.382278 9931650
142.08989 -39.331356 -63.765827 8616048
141.50836 -37.839237 -65.008102 9142135
141.85455 -38.010662 -64.617943 10786445
141.26978 -36.524582 -65.860207 10260617
141.72313 -36.963829 -65.244507 7037792
142.17656 -37.405243 -64.627724 10260358
141.46976 -35.969147 -65.95372 11049874
141.92159 -35.905258 -65.584595 8748408
141.73517 -34.948845 -66.215813 9011835
141.60298 -33.605846 -66.985275 8683384
141.91403 -34.024811 -66.507668 8683384
141.71068 -32.87019 -67.230965 8946299
142.23576 -32.963554 -66.728737 8288627
141.48387 -31.533852 -68.042068 7038307
141.90193 -32.010075 -67.457886 7564650
141.84747 -30.799398 -68.097382 7301478
142.27238 -31.030951 -67.582474 7038307
141.6485 -29.779245 -69.100769 7038307
141.97917 -30.060287 -68.595261 7564393
141.81332 -28.617218 -70.942169 11051415
142.02324 -29.071127 -70.338623 8946039
142.19186 -29.360851 -69.4347 7038307
142.42908 -27.870558 -85.458298 10656142
142.47719 -27.780752 -84.332359 10655625
142.52118 -27.691639 -83.210823 9208435
142.5531 -27.620945 -82.3172 11116433
142.58234 -27.55076 -81.426643 11840156
142.6088 -27.481085 -80.539101 11313812
141.69501 -27.471739 -71.949043 10065291
142.05016 -27.875286 -71.273926 9406590
142.44064 -28.287169 -70.616051 10261899
142.62697 -27.429079 -79.875366 9932934
142.64342 -27.377382 -79.213478 8485488
142.66315 -27.308922 -78.333466 7761765
142.67622 -27.257832 -77.675339 7038298
142.41104 -26.59341 -74.902794 8813936
142.18633 -26.502388 -74.135246 9735296
142.2285 -26.770884 -73.335815 10787726
142.10405 -27.163076 -72.369469 10524555
138.80368 -73.55616 -1.3045005 9078650
138.99353 -73.654411 -0.30451715 9078650
139.18277 -73.756119 0.69825518 10394000
139.18365 -73.908203 1.7003101 9144448
138.86064 -74.039154 2.6954894 8157555
138.83266 -74.037788 3.6951294 11840416
138.79747 -74.036438 4.6945624 11248023
138.7551 -74.035103 5.6936841 8484976
138.70546 -74.033768 6.6924934 9209468
138.64865 -74.032448 7.6909118 9341054
138.58467 -74.031136 8.6889219 9077627
138.51343 -74.029839 9.6864014 11380123
138.43498 -74.028549 10.683372 10459023
138.3494 -74.027267 11.679718 9208693
138.4698 -74.025803 12.612647 9471607
138.56682 -74.024132 13.713186 10458246
138.4593 -74.022881 14.710456 10722966
138.3446 -74.021629 15.706883 8946553
138.2227 -74.020409 16.702431 10525583
138.09366 -74.019188 17.697136 12368044
137.95737 -74.017982 18.690865 9143674
137.81393 -74.016785 19.683584 7696487
137.66341 -74.015594 20.675234 8354165
137.82353 -74.013832 21.785732 9801352
137.75113 -74.012611 22.725063 12038055
137.98848 -74.010811 23.789066 7564651
137.8082 -74.009666 24.781824 7564651
137.62082 -74.00853 25.773314 7760997
137.4263 -74.007408 26.76343 9209468
137.22462 -74.006287 27.752068 8748917
137.35869 -74.004723 28.743877 8616563
137.69336 -74.003098 29.577375 9537665
137.47131 -74.002007 30.567926 8089963
137.24219 -74.000938 31.556805 8420726
137.00589 -73.99987 32.544044 9406846
137.17393 -73.998123 33.632732 8090990
137.33334 -73.996384 34.725571 7038307
137.07419 -73.995346 35.713341 7367271
136.80786 -73.994324 36.69923 9932424
136.74065 -73.992966 37.74128 9208444
137.17154 -73.991203 38.574291 8353135
136.88455 -73.990211 39.560844 9143162
136.59047 -73.989235 40.545223 10130311
136.80516 -73.987442 41.615974 11051413
136.80502 -73.985817 42.770004 8814710
136.48776 -73.984871 43.753769 8485745
136.37048 -73.983566 44.804478 8090987
136.76991 -73.981819 45.669128 8483689
136.4317 -73.980904 46.652565 9208180
136.08644 -73.979988 47.633537 9208435
136.47418 -73.978233 48.510857 9669509
136.3221 -73.976967 49.568481 9735302
135.95583 -73.976082 50.548553 8289141
136.22 -73.974365 51.522202 9603457
136.1584 -73.973076 52.50071 12761778
135.94676 -73.971764 53.644978 11446173
136.0199 -73.97052 54.464909 11710884
135.93991 -73.969246 55.448555 12500657
135.70561 -73.967957 56.595863 9603457
135.94897 -73.965988 57.759296 9407102
135.89503 -73.729218 58.704975 9999239
135.7135 -73.638008 59.598705 9998983
135.39211 -73.541916 60.548946 9931910
138.83273 -72.776665 -2.1943007 9142650
139.07489 -72.82531 -1.3067774 9274236
139.33344 -72.740044 -0.30485857 10262155
139.4292 -73.053398 0.63271677 10459792
136.0123 -72.852661 59.809448 9932166
135.59978 -72.80555 60.72097 9800324
135.20712 -72.704796 61.458271 9800580
138.84563 -71.778259 -3.0846934 9734784
139.16908 -71.793282 -2.3106236 8681843
139.41345 -71.913078 -1.3095745 9076601
139.5412 -71.976799 -0.64036167 9405822
135.99063 -71.978737 60.635735 9997703
135.51526 -71.846542 61.546848 10129545
135.18214 -71.581741 62.300022 9735556
138.9091 -70.52906 -4.0881262 10195594
139.09464 -70.900291 -3.312706 9208698
139.48271 -70.915504 -2.3826022 9208443
139.61975 -71.152901 -1.6468138 9405822
135.84332 -70.779884 61.749966 9867400
135.34641 -70.805588 62.57412 9012861
135.05244 -70.586143 63.228619 9538432
138.91556 -69.545929 -4.9794312 10459023
139.13298 -69.765465 -4.2695422 10459023
139.48376 -69.859955 -3.3634968 9077113
139.61618 -70.294937 -2.653276 9340027
136.02052 -69.873138 62.09494 9868169
135.66267 -69.8451 62.721607 8815483
135.16365 -69.759048 63.628849 11249048
139.106 -68.73896 -5.278862 10590609
139.43759 -68.887001 -4.3684068 9537665
139.67653 -69.048256 -3.6619244 9011321
135.91551 -69.077232 62.839527 9868169
135.64435 -68.713707 63.557949 12696493
135.18248 -68.698143 64.352051 10789010
139.0753 -67.804192 -6.2123151 8354675
139.48805 -67.756424 -5.2928362 9406334
139.68008 -68.067368 -4.557899 9011321
135.8562 -67.764633 63.874393 11380380
135.38721 -67.814774 64.633781 9603714
134.9865 -67.760307 65.351891 11972774
139.13031 -66.723366 -7.0803294 8947326
139.40331 -66.837006 -6.3383741 8420725
139.67653 -66.952408 -5.5940671 9538431
135.65837 -66.943108 64.794579 9011577
135.28755 -66.686241 65.606056 9933191
134.95851 -66.375443 66.385063 9933446
139.12135 -65.625267 -8.1136503 8683898
139.31592 -65.925003 -7.38309 9868169
139.73035 -65.871231 -6.4651604 11841183
135.67105 -65.773743 65.605492 9735559
135.17574 -65.706871 66.492889 9801862
134.81291 -65.687927 67.121826 10065286
139.11452 -64.672493 -9.0078764 8617331
139.35869 -64.766708 -8.3510847 9670277
139.69295 -64.948975 -7.4027781 10459791
135.72514 -65.153931 65.954971 9538438
135.44785 -64.798889 66.678612 10788759
134.97867 -64.678391 67.560638 11841183
134.69965 -64.326859 68.284782 13551549
139.15448 -63.475563 -10.018119 8617331
139.29623 -63.881031 -9.3135176 9998727
139.72882 -63.805878 -8.3729095 8880246
139.87672 -64.153259 -7.707356 9932934
135.6432 -63.984432 66.92794 12499119
135.34052 -63.775822 67.590286 11380637
134.91513 -63.659714 68.394897 11709089
139.33699 -62.73877 -10.271333 9077625
139.67081 -62.8601 -9.3803015 8156780
139.91704 -62.951088 -8.7215929 8090987
135.57272 -62.915874 67.809547 9735812
135.19203 -62.802299 68.536469 9801093
134.77721 -62.708305 69.307373 8418928
139.3279 -61.83643 -11.124547 8287854
139.63916 -61.845566 -10.389527 8090474
139.99092 -61.904297 -9.5142431 7695973
135.45058 -61.886566 68.750839 9143419
135.05922 -61.601349 69.618279 8090475
134.70377 -61.434731 70.340271 8090987
139.3264 -60.371792 -13.062471 7564642
139.4726 -60.569653 -12.333188 6709333
139.66205 -60.862965 -11.403808 7761509
139.93208 -61.018398 -10.523922 8156267
135.38744 -60.765545 69.734062 8287851
134.93553 -60.772396 70.521492 8748916
134.60268 -60.62603 71.253784 9933702
139.66039 -59.384663 -15.293208 8617335
139.82376 -59.489117 -14.259054 7234911
139.78081 -59.758846 -13.328933 6314319
139.91536 -59.985779 -12.438664 6709077
140.07056 -60.226006 -11.605382 7761509
135.32854 -60.19054 70.669769 10197130
135.06766 -59.884842 71.571884 10591888
134.83743 -59.610485 72.493607 10063752
134.8799 -59.333492 73.358025 9602942
134.55161 -59.276783 74.232658 10655889
140.42967 -58.568378 -31.830713 11708833
140.60123 -58.665276 -31.161079 9405821
140.80574 -58.786552 -30.262581 8157039
140.7968 -59.023262 -29.438017 8091503
140.89235 -59.079956 -28.401943 9011576
140.59644 -59.0788 -27.293983 9340027
140.29196 -59.077667 -26.190384 13023917
140.47234 -59.076012 -25.179501 9209984
140.64546 -59.074364 -24.167362 7565675
140.78424 -59.072998 -23.322998 7565675
139.93932 -59.072731 -22.326176 5392706
140.0918 -59.071117 -21.317883 5392706
140.23703 -59.069511 -20.308605 6248786
140.37502 -59.067909 -19.298265 7828330
140.27338 -59.066475 -18.172781 8814454
139.74922 -59.104443 -17.170635 8617076
140.01102 -59.164398 -16.180145 9472641
140.08487 -59.257755 -15.337159 8617077
135.0047 -59.078041 74.69828 10524303
134.62387 -59.040771 75.763603 9735559
134.77814 -58.941059 76.71048 9012350
134.31017 -58.940563 77.517868 9012350
134.9351 -58.937992 78.753769 10458510
134.45444 -58.937508 79.561897 10128769
134.06674 -58.937126 80.206482 10128769
134.6823 -58.934536 81.464752 9602941
134.08557 -58.933983 82.432358 10655371
134.59499 -58.931286 83.872963 9010550
134.08356 -58.93084 84.678886 8024170
134.65721 -58.914082 85.957787 9340030
134.22276 -58.683262 86.592735 10261132
133.72795 -58.651009 87.187843 10393230
140.54955 -57.913723 -32.212662 12367020
140.90202 -57.876312 -31.227753 11116695
141.13319 -57.968838 -30.451143 8946296
134.3614 -57.953915 86.836037 10261132
134.01245 -57.61314 87.432373 9997959
133.65216 -57.239388 88.060272 8813944
140.64816 -56.786575 -33.183956 10326921
140.89598 -56.938709 -32.292187 9339771
141.14319 -57.093029 -31.399818 11445144
134.26704 -56.714138 87.634605 9143162
133.70737 -56.640293 88.328506 9077115
140.70169 -55.676472 -34.26762 7760997
140.95108 -55.825615 -33.374546 8024170
141.19983 -55.976955 -32.480953 8089963
134.3846 -56.078003 87.850761 9471871
134.00633 -55.654072 88.527428 9734787
133.62708 -55.231422 89.204552 9800323
140.75189 -54.785889 -35.115688 10392455
141.00928 -54.929115 -34.206013 7563619
141.28436 -54.992104 -33.334347 9537150
134.30521 -54.667458 88.726677 8419951
133.74263 -54.596321 89.422455 8945528
140.78456 -53.834953 -36.082249 8485486
141.03653 -53.979393 -35.18681 8945007
141.31731 -54.058105 -34.281036 10261125
134.35954 -54.068432 88.995995 8288365
133.99472 -53.697697 89.62738 7761509
133.64017 -53.362114 90.227341 8089963
140.83058 -52.73484 -37.176281 13288371
141.08415 -52.876575 -36.279373 9537660
141.38643 -52.947693 -35.319386 9602937
141.51041 -53.282181 -34.58485 8681835
134.27586 -52.660011 89.875801 7827814
133.77397 -52.634666 90.475189 10063752
140.87396 -51.638039 -38.274395 12630442
141.12904 -51.777199 -37.375931 12170149
141.43291 -51.845444 -36.414516 9472123
141.55826 -52.177746 -35.678356 9931902
134.0367 -51.760784 90.654366 11510939
133.61476 -51.466179 91.310013 10984593
140.91637 -50.757301 -39.134205 9144186
141.17949 -50.890598 -38.218929 15065045
141.52019 -50.923813 -37.189281 12104616
134.30806 -50.858322 90.839493 9537408
133.86311 -50.637356 91.481071 8945270
133.4178 -50.417423 92.122498 8089963
140.94054 -49.81678 -40.113903 7170908
141.19814 -49.95179 -39.212654 10262412
141.50456 -50.015572 -38.248703 13157048
141.63231 -50.34441 -37.509529 10986391
134.07736 -49.779736 91.707848 8484721
133.59808 -49.568333 92.384102 8484976
140.99055 -48.776581 -41.129417 8815222
141.23624 -48.86031 -40.320316 7039322
141.54419 -48.921486 -39.354774 8025962
141.67334 -49.248405 -38.613728 10986391
133.85062 -48.721916 92.559975 8880245
133.37666 -48.550362 93.207977 9011831
141.13863 -47.494293 -42.129608 9734788
141.32843 -47.773647 -41.264843 10524297
141.5883 -47.906166 -40.359867 9405814
141.71182 -48.155102 -39.722088 9208435
134.05717 -47.844383 92.806831 8156779
133.5921 -47.537189 93.51976 8551281
141.11772 -46.801174 -42.985004 12103336
141.35918 -46.868404 -42.195599 9997960
141.66254 -46.915474 -41.252174 12497573
133.97626 -46.683674 93.566246 10656141
133.40765 -46.624226 94.272446 9406847
141.28146 -45.702156 -44.953831 7564643
141.35095 -45.93779 -44.204151 10129802
141.54384 -46.076973 -43.314892 13813441
141.73355 -46.238693 -42.380898 11050647
141.88586 -46.375511 -41.612301 13023917
134.08414 -46.084862 94.028328 10261899
133.77103 -45.829704 94.693123 10985622
133.48251 -45.478226 95.442368 9538433
141.44685 -44.550045 -49.146282 10524555
141.73854 -44.549408 -48.297554 10327176
141.8152 -44.632538 -47.26421 8485489
141.47803 -44.969521 -46.272762 8156268
141.6743 -45.100147 -45.311974 7301215
141.87054 -45.252129 -44.280548 9801350
133.91414 -44.855938 95.688675 9867141
133.44672 -44.749027 96.39447 8091246
133.45804 -44.420815 97.486649 12103587
133.10956 -44.353004 98.220055 12104103
142.5009 -43.834312 -61.20731 7235424
142.02733 -44.121284 -59.087734 5920074
142.37573 -44.119621 -58.23418 6314577
142.71944 -44.117966 -57.378716 10853004
141.7332 -44.117367 -56.003117 9011318
141.99725 -44.116055 -55.321884 9142648
142.38783 -44.114094 -54.297775 7958888
141.54274 -44.138962 -52.817661 10590097
141.78564 -44.135914 -52.135189 8024169
141.9929 -44.185036 -51.055676 7103324
141.9222 -44.288902 -50.264179 9274235
142.12161 -44.340073 -49.187836 11971743
133.58971 -44.111355 98.827286 12827826
133.08647 -44.103714 99.450287 12827826
133.47533 -43.909519 100.50013 11906468
132.98676 -43.909283 101.13992 13024949
133.34174 -43.905556 103.46302 10722450
132.839 -43.905334 104.1022 9932934
142.29301 -42.758957 -61.915512 8880507
142.71394 -42.995922 -61.427227 7499625
142.54956 -41.854591 -62.128998 10195339
142.89795 -42.164131 -61.669575 10853012
142.32275 -40.655941 -62.914051 8683128
142.68205 -41.075695 -62.391212 9011836
142.61705 -39.853516 -63.044441 9603458
142.99362 -40.228302 -62.528183 10261387
142.29253 -38.775856 -63.857098 10260358
142.72922 -39.026157 -63.348263 10260616
142.61101 -37.797707 -64.051666 10260358
142.93767 -38.275681 -63.529316 8616048
142.67397 -36.884281 -64.440964 7563361
142.52411 -35.842239 -65.081573 8222572
143.05244 -36.056213 -64.509262 7960168
142.75751 -34.955711 -65.306877 11249052
142.55492 -33.810299 -66.044518 7762284
142.94911 -34.08543 -65.561234 10591122
142.84528 -32.88224 -66.23159 8814970
142.51126 -31.926359 -66.963028 8354165
143.0696 -31.886076 -66.492882 7893615
142.82774 -30.845665 -67.216766 10656660
143.11107 -31.307617 -66.721672 7038307
142.85049 -29.768261 -68.156677 8222322
143.21384 -29.986519 -67.608315 10591124
142.92441 -28.819435 -70.002251 9208957
142.86642 -29.26136 -69.339211 8090736
142.8457 -29.408337 -68.695747 7038307
144.01314 -28.078459 -90.195847 8682867
144.05949 -28.003801 -89.267754 7828331
144.10286 -27.929695 -88.342888 7039331
144.15297 -27.837702 -87.191612 13748156
144.19882 -27.74655 -86.045013 12432036
144.23228 -27.674179 -85.131493 9208435
144.26292 -27.602362 -84.221207 11379348
142.77405 -27.561201 -70.994324 9143163
143.06325 -28.07217 -70.314056 10129803
143.07794 -26.550659 -73.078651 10064260
143.1703 -26.806545 -72.262955 9011576
143.12907 -27.138968 -71.384018 8945784
143.50682 -27.246277 -70.715019 10261132
139.57103 -73.530113 2.04182 11380380
139.69649 -73.602814 2.7153497 10130313
139.88423 -73.7146 3.7280173 8682867
140.06529 -73.82682 4.7435942 9538176
140.06534 -73.956146 5.6696062 10195335
139.94885 -74.032005 6.7587399 8748660
139.89149 -74.03067 7.7661414 9209468
139.8269 -74.02935 8.7730989 9209214
139.75504 -74.02803 9.7795734 12762030
139.67586 -74.026741 10.785466 12630444
139.58948 -74.025452 11.790815 9077109
139.49586 -74.02417 12.795485 9603193
139.39493 -74.022903 13.799474 9011829
139.28687 -74.021637 14.802688 10328208
139.17145 -74.020386 15.805081 9078656
139.04878 -74.01915 16.806629 10394257
138.91896 -74.017929 17.807268 10196619
138.78188 -74.016716 18.806929 8090730
138.63762 -74.015511 19.805613 9275262
138.92712 -74.013863 20.700603 8946556
139.00357 -74.012558 21.56753 9209727
139.04645 -74.011047 22.602488 13945540
138.87476 -74.00988 23.603014 9011838
138.69588 -74.008713 24.602165 7564651
138.50972 -74.007568 25.600103 7300446
138.31644 -74.006432 26.596598 8550513
138.53146 -74.004631 27.676975 10261388
138.5482 -74.003265 28.634993 8089963
138.52193 -74.00174 29.76001 9011321
138.29857 -74.000641 30.756428 7696747
138.06804 -73.999557 31.751335 7565675
138.03844 -73.998138 32.795101 8486260
138.49913 -73.996368 33.612003 7170405
138.24794 -73.995308 34.608204 7367271
137.98958 -73.994263 35.602665 7038307
137.72403 -73.993233 36.595184 10459534
137.96951 -73.991417 37.659252 10985620
138.0027 -73.989769 38.812794 8089963
137.71399 -73.988762 39.805294 9209467
137.41815 -73.98777 40.79575 13550517
138.05132 -73.985634 41.711773 9274748
137.74164 -73.984665 42.704548 6971481
137.4249 -73.983704 43.695049 7301470
137.41637 -73.982353 44.666134 8353644
137.71631 -73.980614 45.622414 10589577
137.37846 -73.979675 46.612621 9339254
137.03349 -73.978767 47.600456 9931649
137.63733 -73.976616 48.55817 9340287
137.27829 -73.975708 49.547768 9998217
137.09148 -73.974358 50.696358 8354675
137.19965 -73.972832 51.678532 9735555
136.99532 -73.971497 52.828556 11248539
136.93027 -73.9702 53.816555 10393485
137.23827 -73.884331 54.832062 11710884
137.03885 -73.672745 55.710674 9210491
136.76479 -73.60376 56.608467 10789269
136.51523 -73.513084 57.615009 10196106
136.3396 -73.342087 58.315544 9933446
139.64163 -72.574829 0.78493822 10656141
139.72238 -72.894592 1.6666983 9802120
140.00897 -72.795654 2.7699661 9801348
140.17957 -72.895958 3.6880603 8682867
140.2469 -73.258698 4.5812664 9077625
137.36119 -73.070198 55.650768 9210491
137.13252 -72.711769 56.713902 10590865
136.77299 -72.741913 57.724766 10261899
136.41206 -72.775169 58.736023 10591632
136.23459 -72.606071 59.438519 9931910
139.6992 -71.797012 -0.23819292 10064004
139.93198 -71.743996 0.70290387 10261382
140.12265 -71.846817 1.7140185 9735296
140.26891 -72.002113 2.6147771 9077371
137.26625 -72.138794 56.963367 9735555
137.07198 -71.905533 57.787186 9538176
136.85449 -71.753677 58.586494 10261899
136.49057 -71.83532 59.551296 10853524
136.28281 -71.602585 60.374012 10655633
139.75066 -70.501862 -2.09583 9603200
139.84399 -70.778519 -1.2712125 9998215
140.01175 -70.915344 -0.3055886 9998468
140.27176 -70.831459 0.70503914 9866882
140.39821 -70.971062 1.4927155 9209467
137.11177 -70.937111 58.746582 9472383
136.87427 -70.680283 59.720142 10590865
136.47115 -70.698318 60.720444 10129545
136.14905 -70.410278 61.49482 8091248
139.7774 -69.518982 -2.992291 9340027
139.93437 -69.805893 -2.3224602 9932163
140.21529 -69.778206 -1.2741045 10918801
140.39285 -69.864426 -0.34819257 9932676
140.47783 -70.141045 0.48117316 10064004
137.06889 -69.917015 60.002434 10327949
136.92691 -69.70166 60.60915 9472640
136.4418 -69.710823 61.496319 7894640
136.14735 -69.489082 62.153336 9868169
139.97215 -68.761108 -3.2364497 10129285
140.28021 -68.903641 -2.3278065 10129542
140.49448 -68.931786 -1.4310516 10261128
136.99092 -69.165337 60.953796 8682867
136.75961 -68.750908 61.640812 9538946
136.25951 -68.661377 62.552383 8684154
135.98828 -68.296936 63.271526 7565675
139.94075 -67.763565 -4.2294784 8353390
140.28828 -67.848892 -3.3395591 10918801
140.59285 -68.029678 -2.4002724 11905438
136.93607 -67.845886 61.985836 10460046
136.53735 -67.749023 62.730759 8223603
136.1382 -67.653938 63.475025 8354162
139.9413 -66.788315 -5.1273022 10656398
140.27211 -66.79229 -4.3514152 9472639
140.53711 -66.992455 -3.5482635 7563619
136.80261 -66.944527 62.85371 9143162
136.43199 -66.760612 63.612965 9340542
136.06161 -66.500465 64.426071 9801093
139.9904 -65.565628 -6.1399002 11577243
140.18359 -65.921791 -5.3606482 9801347
140.58188 -65.92453 -4.4283748 10064518
136.75789 -65.843994 63.712971 10129802
136.26341 -65.7715 64.602814 9801093
135.96346 -65.557373 65.263725 8813942
139.98506 -64.60437 -7.0386267 9932934
140.22859 -64.753372 -6.332777 12234916
140.5663 -64.891365 -5.4171882 9932933
140.70615 -65.311836 -4.7031474 10656398
136.81393 -65.222015 64.060555 10261132
136.57632 -64.816093 64.752426 8024170
136.06958 -64.736336 65.668449 8748923
135.79218 -64.380333 66.392868 11512225
140.02713 -63.397636 -8.0530682 8090987
140.16893 -63.808487 -7.3430734 9669762
140.52759 -63.883778 -6.4365525 9603458
140.75238 -64.091003 -5.7206774 9537409
136.82648 -64.052078 64.872139 7564651
136.54897 -63.694668 65.597824 8157043
136.02736 -63.771996 66.42762 11906982
140.24809 -62.751396 -8.1328554 8090987
140.61356 -62.846188 -7.1924438 8419696
140.86816 -63.179947 -6.2904916 8813686
136.71658 -62.684048 66.034164 9538438
136.28903 -62.854786 66.637825 10920088
135.8752 -62.756145 67.410316 9012345
140.30287 -61.581562 -9.0835667 7563618
140.51086 -61.959747 -8.249402 7695973
140.90787 -61.973045 -7.3103781 8090987
136.55032 -61.938015 66.848267 9801605
136.17264 -61.686993 67.66806 8222829
135.83699 -61.381817 68.4552 6512211
140.44592 -60.542007 -10.10912 9011320
140.63065 -60.840317 -9.1718893 8879479
140.87894 -61.126873 -8.1689825 7563618
136.547 -60.842392 67.685066 6512211
136.09418 -60.734032 68.586029 5920074
135.70232 -60.660591 69.346794 8550764
140.82185 -59.359493 -12.856315 5919050
140.63156 -59.544872 -12.111331 6642772
140.59396 -59.885555 -11.137799 6774870
140.89346 -59.955296 -10.20814 7630180
141.03854 -60.159161 -9.4696732 8616307
136.42537 -60.227177 68.75473 7630177
136.16861 -59.917435 69.656441 10194818
135.93893 -59.637444 70.575279 10524554
