# .PCD v0.7 - Point Cloud Data file format
VERSION 0.7
FIELDS x y z rgb
SIZE 4 4 4 4
TYPE F F F U
COUNT 1 1 1 1
WIDTH 1175
HEIGHT 1
VIEWPOINT 0 0 0 1 0 0 0
POINTS 1175
DATA ascii
-124.90494 -76.930519 -52.638885 7433318
-124.63799 -76.864166 -53.539303 8879989
-124.31698 -76.95134 -54.424068 9340795
-123.93712 -77.137184 -55.37302 13353398
-123.55415 -77.370766 -56.276226 11183257
-123.19308 -77.400681 -57.190041 7564651
-122.73679 -77.375084 -58.060226 9012861
-122.33677 -77.167198 -58.956837 9012601
-121.87518 -77.146141 -59.823673 7235421
-121.43843 -76.99028 -60.748077 8354158
-121.00917 -76.930771 -61.584766 9537918
-120.54472 -76.919716 -62.449223 11906724
-120.03639 -76.948265 -63.36409 9143675
-119.52459 -76.873756 -64.364471 7432798
-118.98946 -76.906731 -65.325356 8221800
-118.52065 -76.909966 -66.186821 8090218
-118.0507 -76.916573 -67.047821 8681582
-117.57964 -76.926407 -67.908363 8878705
-117.10738 -76.93959 -68.768555 8813428
-116.66776 -76.909264 -69.601028 7038307
-116.20898 -76.649307 -70.422867 7630187
-128.64311 -75.573875 -43.176102 8287856
-128.25967 -75.721443 -44.150536 6248015
-127.94977 -75.759605 -45.011841 8024169
-127.54894 -75.936028 -45.909637 7103067
-127.23817 -75.950119 -46.839378 7629923
-126.92556 -75.967125 -47.768848 8287341
-126.58809 -75.958893 -48.816608 9537150
-126.19324 -76.050385 -49.86829 11247762
-125.87003 -76.044922 -50.865738 11247767
-125.45763 -76.239372 -51.756897 9669509
-125.17471 -76.236679 -52.630898 5262401
-124.99128 -76.11898 -53.33485 8089963
-120.70506 -76.185692 -62.716755 10985623
-120.31635 -76.179581 -63.437782 8288365
-119.84904 -76.175125 -64.302422 6511954
-119.34615 -76.034576 -65.414169 8419696
-118.84399 -76.01445 -66.367119 8090218
-118.37216 -76.020546 -67.230095 8945783
-117.95199 -75.911766 -68.170387 11444891
-117.52037 -75.883743 -69.010506 10655633
-117.04289 -75.898483 -69.871994 7038307
-116.48775 -75.867012 -70.68718 8814202
-115.94816 -75.81736 -71.401199 8879993
-115.39403 -75.769188 -72.132416 8485232
-130.28468 -74.519569 -39.573921 7038307
-130.05504 -74.553406 -40.533234 9932422
-129.64313 -74.705231 -41.435795 10590096
-129.30788 -74.904747 -42.361221 7696747
-129.09976 -74.963081 -43.328564 5919051
-128.81665 -74.982132 -44.272087 5655878
-128.39578 -75.144051 -45.167984 9340030
-128.08469 -75.154625 -46.101635 7235421
-127.74224 -75.243759 -46.936687 8682355
-127.29279 -75.341095 -48.08152 9076857
-127.02853 -75.356842 -48.857925 8089963
-116.88605 -75.244621 -70.927689 10326925
-116.26058 -75.136749 -71.831673 8551281
-115.69844 -75.145508 -72.515404 8222061
-115.2386 -74.968765 -73.392105 9866631
-114.83188 -74.761757 -74.25502 8420470
-114.32475 -74.632446 -75.15271 9012093
-113.96318 -74.533089 -76.098763 9537409
-113.3854 -74.515755 -76.903015 8813686
-112.90141 -74.50238 -77.571121 10261132
-134.07195 -73.781479 -31.430479 9339510
-133.96439 -73.884102 -32.360165 9273717
-133.85361 -73.953598 -33.359039 8550252
-133.15692 -74.141273 -34.211105 8353901
-132.51369 -74.14222 -35.070496 6972762
-132.25961 -74.143677 -36.028564 8682355
-131.76035 -74.196205 -36.987007 10656398
-131.47647 -74.22216 -37.866573 12169892
-131.24664 -74.248558 -38.829964 9208952
-130.7742 -74.360672 -39.721092 7827564
-130.54388 -74.394554 -40.684097 9537664
-130.34862 -74.423851 -41.486198 10853012
-114.39082 -74.372574 -76.382408 9471873
-113.81088 -74.355255 -77.189636 9274237
-113.22739 -74.339363 -77.993889 10261132
-112.88229 -74.264076 -78.963333 8880503
-112.30127 -74.258049 -79.771042 9209468
-111.97496 -74.205132 -80.76104 9143419
-111.39156 -74.206055 -81.569633 8089963
-111.10757 -74.207466 -82.516129 8354165
-111.06764 -74.209023 -83.400887 8617080
-110.3641 -74.210007 -84.335953 9932169
-109.653 -74.211067 -85.26532 7827306
-109.46832 -74.212509 -86.181816 8024937
-109.27634 -74.213997 -87.099052 10985622
-108.64725 -74.214828 -87.887955 9537664
-108.12186 -74.216095 -88.870621 11774882
-107.91137 -74.217529 -89.789146 11511711
-107.36974 -74.218781 -90.767639 9405823
-106.97684 -74.192757 -91.677109 7826791
-106.73696 -73.970192 -92.455147 6906461
-106.00574 -73.908241 -93.299034 7235428
-105.52509 -73.666695 -93.878815 7827561
-134.52158 -72.730698 -30.492804 9866112
-134.39037 -72.89917 -31.437235 9536889
-134.27142 -73.012764 -32.472706 9207924
-134.07428 -73.396072 -33.242737 8352358
-106.84326 -73.238266 -92.846985 6840926
-106.34268 -72.958412 -93.465271 9471616
-105.60941 -72.919174 -94.181244 8485491
-105.17184 -72.709496 -94.703812 9735297
-157.3633 -71.533195 19.389404 7038298
-157.36252 -71.482086 18.426392 9736323
-156.66748 -71.444855 17.641708 8617333
-156.28873 -71.389664 16.771099 8089963
-134.87703 -71.923279 -29.615177 10391942
-134.81223 -71.919136 -30.510315 9537919
-134.72124 -71.945847 -31.600582 9076853
-106.42156 -72.08519 -93.837234 9011322
-105.867 -71.99366 -94.410316 8353649
-105.10983 -72.037224 -95.10659 8289139
-104.69238 -71.750999 -95.649254 8092019
-157.95773 -70.707558 21.011654 12169379
-158.06291 -71.008263 20.299263 8420207
-157.99104 -71.3442 19.467403 9736323
-156.25035 -71.345551 16.195019 10261132
-156.20992 -71.301704 15.619564 10261132
-155.44339 -71.277878 14.973347 9340030
-155.11365 -71.197716 13.808514 9405822
-155.03471 -71.125702 12.859238 8681843
-154.03268 -71.110229 12.212917 10260875
-153.93019 -71.02533 11.084084 7498337
-153.53474 -70.9701 10.18602 8419183
-152.84749 -70.942978 9.5220757 8419183
-152.73387 -70.861473 8.4055328 8682355
-152.33156 -70.807739 7.5223885 10326922
-151.64491 -70.781937 6.8762093 8354158
-151.51643 -70.701859 5.7716179 9274745
-150.94722 -70.649986 4.8371048 10195590
-150.37433 -70.598747 3.909889 11511448
-150.2538 -70.533264 2.9998853 10459273
-149.90309 -70.475555 2.0878217 8682866
-149.12529 -70.446304 1.3556517 8288109
-149.01985 -70.394867 0.63548648 6510930
-135.26869 -70.79007 -28.769514 8747888
-135.23846 -70.912903 -29.64966 8550767
-135.07706 -71.138916 -30.722706 9472640
-106.00804 -71.188553 -94.688431 9602943
-105.38708 -71.034233 -95.356689 9341314
-104.6931 -70.957222 -96.054718 9801863
-104.25885 -70.613266 -96.642746 9012606
-158.36041 -69.787659 21.064011 7827302
-158.48882 -70.203697 20.498993 8551538
-148.93851 -70.356354 0.096149296 7366751
-148.57753 -70.300179 -0.80083477 7432288
-147.77841 -70.262764 -1.5113145 7959146
-147.573 -70.171623 -2.3998339 8682867
-147.36086 -70.079941 -3.285702 7433572
-147.10068 -69.97052 -4.3455849 7301475
-146.37764 -69.906334 -5.1037979 6577755
-145.7755 -69.816177 -6.0698204 9012090
-145.5477 -69.726685 -6.9402924 8156783
-145.31526 -69.637558 -7.8080521 8814454
-145.03072 -69.531143 -8.8461761 7893352
-144.30283 -69.470558 -9.5726128 7234909
-143.78522 -69.418999 -10.166466 7037274
-135.58678 -69.660194 -27.951502 8813942
-135.6109 -69.853142 -28.877174 10130314
-135.55382 -69.988785 -29.878803 8155754
-105.61655 -70.203766 -95.563782 9801093
-105.07675 -69.900681 -96.231186 10393486
-104.22276 -70.016075 -96.98262 9604229
-158.42801 -68.610893 21.849716 10260870
-158.55042 -68.936295 21.366287 8353132
-144.64195 -69.390076 -10.224785 10984593
-143.63797 -69.366669 -10.678696 7037274
-143.38921 -69.279778 -11.530334 7694947
-143.08253 -69.174606 -12.548763 8880505
-142.8214 -69.08683 -13.394581 8091760
-142.55588 -68.999588 -14.237652 6512986
-141.92082 -68.915009 -15.144497 7104607
-141.49287 -68.838661 -15.928532 8222573
-140.85252 -68.755844 -16.821518 8813942
-140.51639 -68.653717 -17.813915 10787986
-140.1745 -68.552071 -18.802483 9406587
-139.8269 -68.451103 -19.787201 8419693
-136.02495 -68.50074 -27.018877 8813942
-135.8889 -68.856606 -27.843708 9537921
-135.8997 -69.048401 -28.846096 10458765
-105.27167 -69.039299 -96.486946 10788246
-104.66144 -69.139526 -97.014755 8748924
-103.96339 -69.068222 -97.71376 9143422
-103.5249 -68.729263 -98.303246 7563619
-158.71709 -67.757835 21.966404 11247763
-158.83199 -68.060509 21.514828 8616304
-139.47363 -68.350731 -20.768047 6839895
-139.11481 -68.250877 -21.744972 10458249
-138.81165 -68.168129 -22.556179 8484461
-138.2896 -67.980827 -23.328758 10984850
-137.42734 -67.64328 -24.209345 8616819
-137.00072 -67.521927 -25.15851 8616819
-136.73846 -67.696541 -26.133905 10129544
-136.46558 -67.953033 -26.992132 9077112
-136.33978 -68.154694 -28.038212 8550770
-104.84673 -68.155388 -97.342392 7564651
-104.21925 -68.009926 -98.012405 7564394
-103.51868 -67.941887 -98.712082 8813684
-103.07771 -67.605843 -99.302582 10261132
-158.9552 -66.923935 22.164314 10985367
-137.26637 -67.318047 -26.23361 11576729
-104.40196 -67.027756 -98.34156 8288371
-103.77925 -66.991272 -98.951164 8485748
-103.0284 -67.008759 -99.637787 8683128
-158.9944 -65.878365 22.901768 9537665
-159.25523 -65.95269 22.352135 10195595
-103.91149 -66.211723 -99.224503 9801094
-103.27145 -66.090645 -99.871933 8946043
-102.60724 -65.978416 -100.40759 7302246
-159.29062 -64.853203 23.139145 10853781
-103.64932 -65.159248 -100.01186 9143422
-102.88432 -65.012878 -100.65332 7564903
-102.34891 -64.674164 -101.16343 8485743
-159.42429 -63.696651 23.785454 6774873
-159.61253 -64.012787 23.185051 8748151
-103.13179 -64.101219 -100.89484 6840662
-102.33798 -63.988365 -101.47716 8485743
-101.81339 -63.753403 -101.93369 10788756
-159.70552 -62.75877 23.983715 6577492
-103.1093 -63.313911 -101.26164 8287592
-102.58318 -63.078335 -101.71947 8748143
-101.84889 -62.887585 -102.29634 10262155
-159.7429 -61.816772 24.644955 7038039
-160.02625 -61.919472 24.031036 7235424
-102.6196 -62.211979 -102.08208 7367005
-102.10679 -61.917549 -102.55414 8617073
-101.38479 -62.039921 -102.97984 10459278
-160.01665 -60.450272 25.60828 7038298
-160.1454 -60.850521 24.788441 7432541
-102.14455 -61.176289 -102.85527 7432799
-101.45179 -61.034027 -103.37808 6709333
-160.81947 -59.42564 26.532967 7038298
-160.52791 -59.858753 25.689911 8156521
-160.6244 -60.176456 24.911957 9011573
-101.88342 -60.096401 -103.54668 6972505
-101.12767 -59.950508 -104.14836 7959144
-100.65376 -59.619019 -104.72598 7563619
-163.00977 -59.05312 30.344467 7367263
-161.87944 -59.053925 29.324284 6511954
-162.02058 -59.055439 28.543308 8288365
-161.25365 -59.174553 27.404991 7827299
-101.43485 -59.43676 -104.77663 9735043
-100.75933 -59.410671 -105.33937 6511962
-100.51511 -59.111668 -106.16321 8616822
-99.821701 -58.979546 -106.90197 6906460
-99.309196 -58.771339 -107.38442 6643282
-100.63852 -58.339157 -106.57045 7564392
-100.06375 -58.074188 -107.16026 8748151
-99.348167 -57.919117 -107.77187 7695458
-100.35255 -57.40403 -107.4682 10064265
-99.706032 -57.26511 -108.07124 7695204
-99.117744 -56.955456 -108.86882 7892582
-98.507423 -56.706413 -109.64584 8418925
-99.376488 -56.483852 -109.54684 8616301
-98.789642 -56.450096 -109.95839 8813683
-98.055885 -56.408955 -110.47117 9734788
-97.745239 -56.270981 -111.7308 9143422
-97.238556 -56.337296 -113.8802 8814196
-96.495682 -56.224651 -114.11923 7564643
-96.425949 -56.161476 -115.43181 7235427
-95.926682 -56.063484 -116.24736 8353646
-95.428909 -55.969963 -117.06796 6510930
-94.956543 -55.893711 -117.92857 8023912
-94.473198 -55.814888 -118.78 9734531
-94.351631 -55.738628 -120.09747 9734531
-93.66124 -55.672157 -120.40717 8616307
-93.526329 -55.594524 -121.73176 7037785
-93.018723 -55.513512 -122.58887 8024167
-92.49865 -55.429008 -123.43419 7563619
-92.169235 -55.335243 -124.85689 7367008
-91.609001 -55.26926 -125.03996 9340286
-91.258331 -55.170723 -126.45993 8353647
-90.686935 -55.101063 -126.62923 9340286
-90.319931 -55.000568 -128.05278 7301726
-90.330276 -54.945438 -129.37852 9012344
-89.553726 -54.851547 -129.59045 8485745
-89.356873 -54.77121 -130.97678 8879734
-88.768982 -54.700455 -131.12959 12959151
-88.559113 -54.61845 -132.52289 10657425
-87.96579 -54.547375 -132.66956 12039079
-87.942291 -54.487362 -134.02287 10065033
-87.343658 -54.415977 -134.16383 10065033
-87.31041 -54.354424 -135.5276 8089963
-86.706329 -54.282677 -135.66325 8091242
-86.257111 -54.171608 -137.12405 10262667
-86.206017 -54.107197 -138.51041 6511954
-85.590996 -54.034664 -138.63516 7959404
-85.116379 -53.920109 -140.11148 7564651
-84.496338 -53.847416 -140.22905 7564651
-84.212654 -53.755184 -141.67152 11511196
-83.920837 -53.661556 -143.1261 7564651
-83.500145 -53.612507 -143.19719 9340545
-83.079681 -53.563652 -143.26727 13023917
-124.33582 -76.556374 -54.834194 9340795
-124.12183 -76.587852 -55.455528 11708574
-123.73837 -76.820862 -56.360119 10523792
-123.37631 -76.850311 -57.275116 7564651
-122.91905 -76.824722 -58.146439 8749433
-122.51825 -76.617172 -59.044304 11182746
-122.05592 -76.596199 -59.912395 9406334
-121.7473 -76.584023 -60.490513 8682867
-125.73595 -75.747223 -51.871349 9208699
-125.47565 -75.656898 -52.899292 5261887
-125.10111 -75.77803 -53.78244 5919561
-124.76183 -75.854416 -54.663357 9077367
-124.4328 -75.895905 -55.594242 8615794
-124.10173 -75.940338 -56.525414 8549745
-123.73299 -75.965988 -57.440491 6905692
-123.27834 -75.943138 -58.316193 8353649
-122.81979 -75.921654 -59.189342 11577760
-122.35989 -75.90313 -60.061264 10656402
-121.89858 -75.887505 -60.931961 10590608
-121.43584 -75.874878 -61.801521 9801860
-121.04781 -75.77359 -62.65659 10065031
-120.60082 -75.697853 -63.587231 7104091
-120.13377 -75.694321 -64.454559 6774870
-119.75592 -75.616302 -65.276978 9405821
-119.21889 -75.54184 -66.387589 8353390
-118.6665 -75.548042 -67.396591 9472640
-118.34976 -75.553291 -67.972557 9143419
-130.06969 -74.466614 -42.608639 6906713
-129.77225 -74.504425 -43.726364 6445138
-129.41602 -74.513741 -44.825165 7760998
-128.91451 -74.600349 -45.524094 8155756
-128.54218 -74.62207 -46.515339 6511954
-128.0759 -74.754425 -47.496693 8879734
-127.7547 -74.76889 -48.430817 9405822
-127.32861 -74.891396 -49.356869 9932161
-126.89651 -75.026428 -50.180042 10326916
-126.5003 -75.103203 -51.11935 11050383
-126.17551 -75.131119 -52.051914 9142647
-125.92677 -75.072205 -52.966309 4867385
-125.62875 -75.041107 -53.963573 5393473
-125.18763 -75.231522 -54.84911 7761257
-124.85381 -75.270447 -55.781487 6707541
-124.51765 -75.312126 -56.714073 9865605
-124.0709 -75.333015 -57.778252 9405566
-123.69032 -75.31424 -58.510277 7629411
-123.23212 -75.294075 -59.387215 10590609
-122.77228 -75.276665 -60.262882 11182746
-122.31075 -75.262024 -61.137123 12169896
-121.9537 -75.095734 -62.063923 8486512
-121.48827 -75.086639 -62.936409 8092011
-121.0211 -75.080269 -63.807755 7038554
-120.55214 -75.076599 -64.678009 7826790
-120.11364 -75.015686 -65.618454 9931907
-119.73594 -74.937302 -66.485565 8879991
-119.26016 -74.941383 -67.353165 9406591
-118.72731 -74.978027 -68.264221 9603457
-118.21911 -74.957397 -69.227631 7038307
-117.71036 -74.970825 -70.140396 7235686
-117.35758 -74.749626 -71.115829 8748406
-117.02172 -74.635109 -71.91069 8287597
-116.23927 -74.616417 -72.852554 7761253
-115.86391 -74.600914 -73.396889 7761253
-133.98796 -73.459373 -34.07914 6972762
-133.85371 -73.713852 -34.634224 6643797
-133.59964 -73.898918 -35.584633 6117453
-133.27837 -74.041557 -36.450539 6906969
-132.69731 -74.146759 -37.522995 7630434
-132.42552 -74.148216 -38.482277 8748914
-132.14687 -74.149681 -39.439629 8156779
-131.56392 -74.176163 -40.132111 9274748
-131.26843 -74.201904 -40.977283 8287853
-130.65376 -74.309517 -41.96381 7104091
-130.47849 -74.31974 -43.089478 5920074
-130.21361 -74.347809 -44.048309 8747893
-129.95316 -74.351555 -44.834431 6839896
-117.23878 -74.480499 -72.302605 7037274
-116.86398 -74.46405 -72.85067 7037274
-116.2729 -74.403816 -73.889397 8946039
-115.85301 -74.334396 -74.762497 10129545
-115.27945 -74.314003 -75.577477 8880507
-115.01395 -74.217415 -76.396767 9603716
-114.34399 -74.202324 -77.348457 9668995
-114.12451 -74.20285 -78.405006 10195850
-113.99208 -74.204391 -79.327019 9472383
-113.41902 -74.205345 -80.150177 9472640
-112.83996 -74.206245 -80.969177 9735812
-112.3744 -74.207649 -81.974129 9735045
-112.21706 -74.209152 -82.89682 8879995
-111.73516 -74.210464 -83.898529 9340545
-111.12916 -74.211403 -84.705322 9866376
-110.68394 -74.212639 -85.635719 9011320
-110.60423 -74.213943 -86.42659 8353646
-110.14503 -74.215225 -87.355064 9800836
-109.40816 -74.216217 -88.282196 8353135
-109.2301 -74.217896 -89.314194 7301213
-109.00341 -73.978516 -90.359711 8353645
-108.27483 -74.022964 -91.083038 9076858
-107.63263 -73.885857 -91.766525 10524816
-134.36876 -72.639954 -32.972641 8352358
-134.18988 -72.96331 -33.786777 7892063
-134.13628 -72.887794 -34.855396 7892834
-134.00179 -73.074448 -35.737431 7433056
-108.92448 -73.501251 -90.737228 8089963
-108.4985 -73.139832 -91.326492 8945528
-107.8091 -73.046585 -92.028442 8616562
-107.19218 -72.882179 -92.698029 7432547
-158.24336 -71.378014 17.950821 9735557
-157.29207 -71.393036 17.264843 8420470
-134.80855 -71.598076 -32.106976 8287081
-134.64417 -71.896896 -32.868713 8023650
-134.54219 -71.970833 -33.875893 7760477
-134.43333 -72.105247 -34.676048 8813421
-108.14688 -72.077446 -92.203773 8353646
-107.47137 -71.894333 -92.938538 8156268
-106.78287 -71.979797 -93.548233 8616822
-158.61829 -70.690323 19.739277 7301474
-158.61647 -71.016914 18.984558 7828072
-157.22743 -71.319153 16.298424 8157298
-157.14317 -71.230873 15.14077 7564901
-156.12372 -71.214111 14.470242 8681843
-156.04599 -71.141487 13.514137 8681843
-155.96346 -71.069168 12.559479 8681843
-154.95045 -71.054016 11.911568 8616307
-154.84642 -70.970139 10.776577 10063753
-154.75543 -70.901039 9.8325424 10129289
-153.74956 -70.887878 9.2079811 7958888
-153.63174 -70.806007 8.0852623 9603457
-153.20927 -70.743233 7.0742874 9997958
-152.5071 -70.713043 6.3642769 9471867
-152.3958 -70.646111 5.4389954 9472125
-152.02556 -70.573494 4.3236275 10129798
-151.23819 -70.542931 3.5693243 10787727
-151.08849 -70.464081 2.4716947 9734784
-150.98511 -70.411766 1.741207 9209467
-149.99788 -70.403214 1.1847304 7827302
-135.21423 -70.675949 -31.115875 9735812
-135.06709 -70.914116 -31.939772 8353647
-135.01076 -70.85038 -33.001724 8089958
-134.85883 -71.088997 -33.886852 7892063
-107.73875 -71.095146 -93.093719 7958633
-106.98425 -71.114693 -93.799736 8945528
-106.44724 -70.804848 -94.467911 9997702
-158.94313 -69.839272 19.924728 7104352
-150.93204 -70.385666 1.3763236 7366751
-150.39784 -70.362 0.82664478 6905944
-149.8071 -70.312859 -0.08182922 7959144
-149.63628 -70.235855 -1.1648523 8090474
-148.82243 -70.195885 -1.8784791 7367266
-148.38409 -70.109695 -2.7689631 7564902
-148.16774 -70.017708 -3.6591761 7236452
-147.90236 -69.907791 -4.7242737 7367269
-147.40897 -69.805206 -5.7776375 7498855
-146.78242 -69.746368 -6.4638557 7564390
-146.32901 -69.663376 -7.3293114 8814454
-146.0923 -69.573906 -8.2011566 7366752
-145.80264 -69.467094 -9.2441521 6051409
-135.65001 -69.645813 -30.243067 9011062
-135.48808 -69.937424 -31.007467 9209212
-135.38892 -70.003555 -32.016273 7695717
-135.31384 -70.055191 -32.773884 8288109
-107.80701 -70.410141 -93.379379 8617072
-107.37447 -70.057808 -93.970131 7958885
-106.67892 -69.974396 -94.672951 9339769
-106.05565 -69.81945 -95.343727 9471355
-159.02892 -68.719208 20.632095 8354160
-159.20758 -68.924789 20.135532 6643802
-145.50679 -69.360817 -10.283459 8091504
-144.82379 -69.287453 -11.115269 7365982
-144.13893 -69.214569 -11.938446 7958890
-143.87856 -69.125999 -12.791294 9933707
-143.61366 -69.037872 -13.641315 9736071
-143.29045 -68.932648 -14.657967 9012090
-142.96138 -68.828018 -15.670803 7893607
-142.41771 -68.732285 -16.655956 7564642
-141.92622 -68.654488 -17.467911 7301216
-141.43291 -68.577446 -18.27404 7959142
-140.87828 -68.484077 -19.240692 6511954
-136.03593 -68.745209 -29.413395 11378324
-135.95816 -68.836411 -30.126064 9208182
-135.8744 -68.84771 -31.096363 8748147
-135.70415 -69.126152 -32.022106 7037530
-107.37858 -69.262131 -94.373337 9208182
-106.93604 -69.052628 -94.900536 9208182
-106.19472 -69.017181 -95.622238 9866372
-105.63493 -68.930283 -96.197937 11511711
-159.33517 -67.820107 20.752106 6314579
-159.52443 -68.271637 20.044807 5393738
-140.58487 -68.399544 -20.065193 6511954
-140.28726 -68.315483 -20.886803 6841181
-139.92506 -68.215164 -21.869225 7168603
-139.55733 -68.115417 -22.847687 8484461
-139.18404 -68.016273 -23.822147 8089963
-138.65837 -67.846237 -24.766727 8616307
-137.96986 -67.584824 -25.505018 9142907
-136.80717 -67.64521 -27.51594 8682867
-136.76167 -67.702362 -28.330523 9274749
-136.56328 -67.961174 -29.151516 9274233
-136.40161 -68.062805 -30.06621 7958886
-136.26566 -68.151451 -30.840548 7038298
-106.95937 -68.369209 -95.228058 10064005
-106.44965 -68.096931 -95.85112 10919829
-105.70631 -68.064903 -96.572952 10459281
-105.19517 -67.796921 -97.195267 7564651
-159.37204 -66.655304 21.586491 10524560
-159.5692 -66.84774 21.065273 8156524
-137.38637 -67.376694 -26.255903 10064006
-137.39587 -67.279015 -27.461084 9866626
-137.20424 -67.3274 -28.168751 10590092
-106.65339 -67.361229 -96.034119 11906725
-106.07277 -67.124092 -96.706543 8683125
-105.38829 -66.938309 -97.45121 8156787
-104.84156 -66.640938 -98.122284 8288628
-159.68083 -65.852722 21.627205 7958889
-105.70388 -66.060074 -97.601059 8749176
-105.01609 -65.998962 -98.28508 8749176
-104.45094 -65.919357 -98.862198 8749176
-159.63982 -64.950836 22.404972 7563619
-159.99478 -64.892715 21.781006 7300703
-105.66486 -65.46595 -97.942139 9012347
-105.2215 -65.127266 -98.53614 9078140
-104.51546 -65.059418 -99.240929 8552054
-103.99765 -64.79924 -99.865494 8814457
-160.0685 -63.834778 22.46376 7564135
-105.21399 -64.341827 -98.94519 9012347
-104.76822 -64.005859 -99.540115 8354160
-104.05966 -63.941128 -100.24564 7564384
-103.58591 -63.733585 -100.75478 6906711
-160.13364 -62.652252 23.259342 7564392
-160.2955 -62.990498 22.691589 7367013
-104.49597 -63.068256 -100.27818 6446417
-103.6591 -63.037018 -101.00758 7827298
-160.46198 -61.710873 23.371681 7367013
-160.57341 -62.181477 22.796097 7564392
-104.45166 -62.478325 -100.62206 10261124
-103.97824 -62.132637 -101.19598 8024678
-103.21415 -61.971085 -101.79134 6906455
-160.66856 -60.606693 24.126541 10063235
-160.70711 -60.870167 23.657001 8156269
-103.99078 -61.156719 -101.63478 8089963
-103.45946 -60.921486 -102.0937 8221549
-102.74966 -60.981571 -102.53902 12431781
-161.24828 -59.504383 25.208042 11971487
-161.0636 -59.93327 24.516468 9997955
-161.11461 -60.294582 23.796413 10063235
-103.50718 -60.063129 -102.46852 9142649
-102.79702 -60.125031 -102.91504 8813684
-102.34336 -59.729973 -103.45174 6511954
-164.26573 -59.053467 30.785969 7367263
-163.11974 -59.054268 29.754799 8288365
-163.26266 -59.055801 28.967834 7696228
-162.12413 -59.05658 27.957218 7367263
-162.25832 -59.05809 27.175056 7037274
-161.81705 -59.195656 26.298363 7038042
-161.8728 -59.286121 25.506741 7038298
-103.32023 -59.516125 -103.18806 8879478
-102.51314 -59.481098 -103.87105 8353646
-102.27946 -59.023647 -104.94234 8485489
-101.4973 -59.063873 -105.59827 9011322
-101.82928 -58.204361 -105.77267 9603458
-101.12296 -57.97715 -106.44569 7827563
-101.48926 -57.396896 -106.7379 8090477
-100.89197 -57.145123 -107.52455 9669764
-100.28601 -56.892044 -108.30504 7695204
-100.23228 -56.596088 -109.16248 8419183
-99.320839 -56.633488 -111.61725 8681835
-99.670105 -56.501148 -109.3404 7563619
-98.66169 -56.487621 -111.68681 7039331
-98.593483 -56.488575 -113.24068 7039331
-97.916206 -56.412788 -113.56217 9143422
-97.623672 -56.29388 -114.88428 7959405
-97.494446 -56.192593 -116.13632 8091248
-96.803551 -56.116627 -116.44687 8748919
-96.341293 -55.992634 -117.89165 8353647
-95.664925 -55.929214 -118.22069 7761253
-95.558319 -55.855263 -119.5467 9471359
-94.869003 -55.788574 -119.86297 10853012
-94.746246 -55.711552 -121.19269 9142651
-94.08934 -55.583042 -122.76401 8024169
-93.561157 -55.532669 -122.99198 8287342
-93.592896 -55.469963 -124.26411 8287342
-92.881195 -55.402489 -124.56197 8024170
-92.72319 -55.321629 -125.91765 8813686
-92.004135 -55.253944 -126.20883 9340286
-91.832291 -55.1717 -127.57169 8814971
-91.279755 -55.082588 -128.42487 11446941
-90.911118 -55.014812 -129.21402 11512735
-90.532211 -54.912357 -130.66306 11380380
-89.944992 -54.84206 -130.82196 14078918
-89.548431 -54.737125 -132.27341 10394253
-88.940819 -54.606632 -133.78262 9209723
-88.341629 -54.535049 -133.92757 8090987
-88.519714 -54.498413 -135.24992 8089963
-87.914894 -54.426373 -135.39003 8089963
-87.680092 -54.340145 -136.81604 10984855
-87.069954 -54.267792 -136.94977 11381404
-86.821556 -54.179821 -138.38327 7301470
-86.565216 -54.090462 -139.82875 7762533
-85.943939 -54.017372 -139.95129 7630696
-85.464828 -53.901703 -141.44316 8617080
-84.83844 -53.828388 -141.55861 11905953
-84.763092 -53.759754 -142.98058 13352882
-84.045471 -53.615856 -144.52339 8353647
-127.38845 -74.568436 -50.586308 10524039
-127.10179 -74.580078 -51.360882 11116176
-126.75395 -74.595238 -52.289131 8682095
-126.40186 -74.611877 -53.215916 4867385
-126.21037 -74.566635 -54.283855 6445907
-125.74885 -74.686821 -55.093498 7301222
-125.39361 -74.713737 -56.021305 6247762
-125.03666 -74.74366 -56.949142 8615795
-124.61862 -74.820656 -57.813263 8353394
-124.20456 -74.744934 -58.752129 8222063
-123.75447 -74.730942 -59.637489 7826790
-123.30238 -74.719521 -60.521523 8946042
-122.84708 -74.709976 -61.403648 12038308
-122.55293 -74.582771 -62.366928 8881270
-122.09323 -74.578606 -63.247871 8092011
-121.62958 -74.575821 -64.126579 7959402
-121.16198 -74.574493 -65.003166 8550513
-120.76698 -74.558365 -65.843895 9800321
-120.43951 -74.495377 -66.873619 8419184
-119.95905 -74.498291 -67.745316 9603458
-119.47462 -74.50264 -68.614853 9340286
-118.9863 -74.508415 -69.482231 7367267
-118.49389 -74.515572 -70.347466 7761773
-118.07357 -74.518234 -71.06266 9735043
-133.63785 -73.819687 -36.976616 6709333
-133.52687 -73.947365 -37.755127 8156522
-133.44084 -73.832314 -38.774399 9801347
-133.05678 -74.093239 -39.620754 10262156
-132.65083 -74.152153 -40.634014 9406846
-132.13495 -74.153526 -41.611065 8748404
-131.66249 -74.154541 -42.424435 7630436
-130.97534 -74.162201 -43.252052 5656902
-130.70255 -74.186272 -44.212158 7300959
-130.23885 -74.231079 -45.195137 7761510
-129.82416 -74.276489 -46.017952 7827814
-129.50038 -74.283104 -46.959679 6708565
-129.17233 -74.291191 -47.899895 8616562
-128.83997 -74.30072 -48.838818 9471616
-128.50328 -74.311653 -49.776382 9142651
-127.92253 -74.40506 -50.618542 9734779
-127.57781 -74.418793 -51.551586 11247762
-127.22878 -74.433998 -52.483292 8682095
-126.8754 -74.450653 -53.413666 4998716
-126.63764 -74.462502 -54.033131 4867385
-120.89098 -74.333221 -67.12252 8353135
-120.40885 -74.336174 -67.997452 10261132
-119.92257 -74.340523 -68.870316 8419696
-119.43243 -74.346306 -69.740936 9340286
-118.93826 -74.353508 -70.609459 9932168
-118.42522 -74.352852 -71.466904 9866630
-118.11353 -74.2621 -72.447075 9669251
-117.56936 -74.250153 -73.287415 8682867
-117.11516 -74.232338 -74.105392 9603713
-116.76755 -74.199417 -75.150261 10589581
-116.22456 -74.200424 -75.993568 9012093
-115.67552 -74.201431 -76.832962 10261132
-115.46626 -74.203171 -77.900047 9077371
-115.24766 -74.204849 -78.967995 9340797
-114.67712 -74.205818 -79.800217 8617331
-114.10061 -74.20681 -80.628365 8025194
-113.51808 -74.207748 -81.452301 9406590
-113.49653 -74.20932 -82.348442 8880246
-113.21274 -74.210754 -83.311951 8617076
-112.61092 -74.2117 -84.129379 8617080
-112.00317 -74.212601 -84.942474 8485494
-111.83514 -74.214348 -86.006546 9340287
-111.44048 -74.215858 -87.0755 7761509
-110.92326 -74.179695 -87.968033 6906456
-110.57591 -73.968086 -88.780495 7892838
-109.92513 -73.739853 -89.665588 10325893
-109.41299 -73.537239 -90.25528 9536891
-134.16147 -72.592308 -35.935997 8222572
-133.96571 -72.944244 -36.836243 7498593
-133.8573 -73.0317 -37.848839 7827814
-133.81546 -72.97953 -38.650414 8419439
-110.86093 -73.144577 -89.081985 7563617
-110.30795 -73.036545 -89.662048 10457479
-109.4964 -73.001503 -90.450226 8221545
-109.01566 -72.749916 -91.035156 7892838
-134.50166 -71.821556 -35.131828 8484456
-134.39775 -71.944969 -35.912849 7104092
-134.35577 -71.845222 -36.943878 7959144
-134.18509 -72.156258 -37.709137 8156523
-110.34242 -72.342789 -89.984314 8287594
-109.84181 -72.052353 -90.608025 8550507
-109.106 -71.999741 -91.33329 9668990
-108.60422 -71.714005 -91.955696 9472640
-159.33054 -70.580833 18.464413 9208954
-159.09248 -71.079987 17.737659 8420470
-158.44525 -71.2948 16.813679 9800838
-158.17291 -71.247948 15.819992 9340801
-158.0984 -71.174118 14.849918 8879989
-157.06741 -71.157639 14.177563 8681843
-156.98607 -71.084724 13.216099 12563882
-156.57126 -71.017044 12.166561 10853780
-155.86041 -70.984123 11.416241 8485235
-155.77071 -70.914467 10.465401 8485235
-155.35027 -70.84996 9.4329491 8748406
-154.63943 -70.818504 8.7017593 9406078
-154.53694 -70.750061 7.7611694 10326924
-154.17162 -70.675598 6.623848 9537920
-153.37439 -70.643631 5.8466835 8814709
-153.25887 -70.576401 4.9165688 9735297
-153.13805 -70.509491 3.988178 11905694
-152.10901 -70.486557 3.2248609 10261384
-151.98125 -70.420601 2.3049924 8616560
-135.01741 -70.607536 -34.08252 8352614
-134.82625 -70.951439 -34.98584 9011572
-134.72177 -71.031052 -35.999775 6380625
-134.68243 -70.973106 -36.801395 5920074
-109.92755 -71.175568 -90.97525 9142386
-109.44214 -70.937042 -91.557999 10721419
-108.6339 -71.024849 -92.280075 8222061
-108.19463 -70.808975 -92.807419 7037274
-159.32492 -69.791084 19.241825 9209467
-159.62029 -69.932037 18.575333 9801088
-151.90234 -70.381149 1.7538947 9734270
-151.82144 -70.341759 1.2034682 9142647
-151.11041 -70.314621 0.52820194 7761508
-150.65523 -70.255943 -0.44358078 8222060
-150.47934 -70.178314 -1.5323602 7366239
-149.89684 -70.094902 -2.54052 7234653
-149.20129 -70.047249 -3.1421854 6512986
-148.98065 -69.954842 -4.0367737 8288370
-148.71002 -69.844536 -5.1070709 7367269
-148.43307 -69.734787 -6.1737137 7827304
-147.91594 -69.659042 -6.9877434 6774358
-147.38625 -69.610428 -7.5576057 6774359
-146.875 -69.509705 -8.5984001 5919050
-146.67931 -69.438156 -9.2976036 5393738
-135.3519 -69.845795 -33.272598 7630179
-135.27399 -69.888611 -34.110527 7037015
-135.21265 -69.856499 -35.086502 7827814
-135.04591 -70.160652 -35.854324 5920074
-109.45185 -70.13649 -91.958397 10129025
-108.89715 -70.100647 -92.503159 8419437
-108.20154 -70.011101 -93.209137 8222058
-107.76869 -69.657776 -93.800667 7038298
-159.68654 -68.773796 19.349197 7038559
-159.84224 -69.125412 18.78265 7696229
-146.53055 -69.384651 -9.8207397 6446682
-146.27911 -69.295807 -10.690556 7894640
-146.02202 -69.206535 -11.55785 7565418
-145.43317 -69.136459 -12.324924 10131087
-144.89705 -69.069038 -13.055092 9933707
-144.35861 -68.970787 -14.061329 11972775
-144.03029 -68.865173 -15.082603 9012089
-143.696 -68.760185 -16.09996 8288365
-143.41312 -68.673126 -16.94487 8090986
-143.12584 -68.586502 -17.786896 10591634
-142.56686 -68.491714 -18.766865 8880759
-141.76395 -68.466431 -19.185158 9406587
-135.86261 -68.645691 -32.21521 6905944
-135.67426 -68.981079 -33.121334 7037786
-135.59746 -68.974609 -34.181511 7037786
-135.4872 -69.114784 -34.98386 5393730
-109.10015 -69.211273 -92.765549 8353646
-108.53078 -68.914452 -93.457794 9077366
-107.77296 -68.862457 -94.203575 9603709
-159.8353 -67.466537 20.083 5920074
-159.90862 -67.864548 19.635921 6577752
-142.21205 -68.389023 -19.768333 6643798
-141.55681 -68.338676 -20.37516 6907486
-140.9872 -68.2463 -21.336445 7894638
-140.61984 -68.145599 -22.323116 8879989
-140.24684 -68.045547 -23.305702 8879221
-139.86832 -67.946053 -24.284342 8747893
-139.54871 -67.863617 -25.096838 8089963
-139.19576 -67.767426 -25.900925 8419183
-138.58307 -67.547318 -26.653759 9406332
-136.94124 -67.488457 -29.608183 11378324
-136.74075 -67.567818 -30.463066 7564385
-136.44598 -67.816772 -31.400076 8945009
-136.28645 -67.905426 -32.4025 7300443
-136.00064 -68.166359 -33.374817 6774358
-135.82968 -68.325043 -34.201416 6510930
-108.79675 -68.093071 -93.625671 10261382
-108.15753 -68.02179 -94.26873 9274745
-107.37852 -67.981285 -95.028786 8090215
-159.9814 -66.836601 20.296455 5920074
-160.27528 -67.00071 19.61488 8024682
-138.15845 -67.388573 -27.091906 10129798
-137.85463 -67.155014 -28.831003 10064264
-137.42303 -67.084595 -29.711498 9800063
-137.24648 -67.105049 -30.713648 9208182
-136.90646 -67.262589 -31.678942 7563613
-108.26012 -67.315498 -94.5327 8419182
-107.74927 -67.040627 -95.158218 7761254
-107.04757 -66.960518 -95.865143 9801605
-106.49152 -66.734497 -96.508522 8090987
-160.30638 -65.911972 20.401958 7564387
-107.82297 -66.174889 -95.531219 8747891
-107.30971 -65.903152 -96.157333 8814709
-106.51129 -66.054504 -96.837631 9735812
-106.06334 -65.851074 -97.36692 9341054
-160.40726 -64.724159 21.134296 7169629
-160.53468 -64.984085 20.692204 7564387
-107.38049 -65.039307 -96.531372 10130570
-106.76416 -65.137398 -97.066879 9472640
-106.05853 -65.063812 -97.774261 9077882
-105.61494 -64.724258 -98.368896 8288883
-160.62897 -63.896259 21.359421 7169892
-160.90376 -64.197266 20.607746 7038307
-106.99102 -64.312195 -97.272537 10591121
-106.44083 -64.013779 -97.948158 9801605
-105.70171 -63.942028 -98.686813 8223090
-105.28712 -63.605938 -99.252289 8156780
-160.82416 -62.544044 22.04171 9340287
-160.93474 -63.018272 21.464935 9012091
-106.63158 -63.157001 -98.202347 10591121
-106.13203 -62.940399 -98.78952 9209469
-105.31007 -63.053539 -99.513092 7564384
-104.85674 -62.85656 -100.04414 5920074
-161.04787 -61.793076 22.203308 8616822
-106.12206 -62.155293 -99.197647 9932934
-105.55701 -62.13924 -99.745697 7169626
-104.84533 -62.074261 -100.45526 7893092
-104.39519 -61.741741 -101.05254 7367005
-161.282 -60.654003 22.928165 6774871
-161.32826 -61.030483 22.320511 7564645
-105.74149 -61.259468 -100.01584 7038297
-105.1552 -60.987396 -100.71478 8616815
-104.41448 -60.949986 -101.41882 7892838
-161.74817 -59.617935 23.989685 9142646
-161.71902 -59.949944 23.222115 8287594
-105.41222 -60.17503 -100.89559 10854036
-104.84341 -59.963425 -101.58244 9274492
-104.13389 -59.787506 -102.26425 9405821
-103.72322 -59.534225 -102.84514 11379095
-165.57692 -59.054199 31.034321 10591374
-164.34023 -59.054237 30.389797 8288365
-164.48619 -59.055779 29.596989 9209467
-164.62892 -59.05732 28.80349 9209467
-163.47032 -59.058086 27.786171 6840151
-163.60439 -59.059616 26.997669 7037274
-162.5081 -59.069096 25.808678 7038298
-162.40192 -59.216309 24.989098 8090472
-162.23915 -59.355183 24.3633 10063235
-104.13811 -59.189999 -103.53793 9142648
-103.35862 -58.982124 -104.22144 8024936
-102.88792 -58.579922 -104.75028 7564643
-103.73374 -58.143311 -104.44777 11247764
-103.04865 -57.902561 -105.16522 8156523
-102.55571 -57.700718 -105.67448 7564643
-102.64319 -57.302444 -106.19977 9077627
-102.16774 -57.06036 -106.90646 7894126
-101.60254 -56.908005 -107.49958 8156012
-101.34045 -56.849354 -109.04189 9208700
-100.71178 -56.814758 -111.00881 10260867
-100.04237 -56.738747 -111.34334 8681835
-99.777733 -56.621643 -112.66968 8484972
-99.101227 -56.545448 -112.99748 7039331
-99.503662 -56.503304 -114.00334 9143422
-98.820328 -56.426933 -114.32661 8682867
-98.702576 -56.326195 -115.58376 7827819
-98.012314 -56.24979 -115.90071 7038307
-97.707397 -56.128555 -117.24129 8091248
-97.016975 -56.056099 -117.55905 10262668
-96.927277 -55.984428 -118.89432 9011063
-96.451859 -55.908138 -119.77378 9537150
-95.964645 -55.828976 -120.64321 11379352
-95.672272 -55.734619 -122.06854 9209467
-94.969025 -55.667175 -122.37961 7761253
-94.837044 -55.588287 -123.73347 9209467
-94.126274 -55.520592 -124.03803 8287342
-93.980606 -55.440334 -125.39925 8747893
-93.262268 -55.372417 -125.69704 8287342
-93.102798 -55.290733 -127.06574 8090221
-92.936745 -55.20792 -128.44681 7564651
-92.20359 -55.139538 -128.73329 9209728
-92.023376 -55.055336 -130.12189 11446941
-91.282852 -54.986713 -130.40138 11512735
-91.08847 -54.901054 -131.79742 10131085
-90.340485 -54.832336 -132.06979 9539206
-90.124817 -54.741077 -133.46304 9802118
-89.915825 -54.656979 -134.88976 10458761
-89.528564 -54.618748 -135.01167 10458761
-89.124962 -54.570557 -135.10768 7367005
-89.105438 -54.50951 -136.49568 13880003
-88.494339 -54.43681 -136.63441 15327449
-88.053879 -54.325562 -138.12227 12432557
-87.437447 -54.252644 -138.25395 8091242
-87.394363 -54.18821 -139.66118 8157291
-86.928329 -54.073372 -141.16547 7762533
-86.300774 -53.999725 -141.28593 7630696
-86.028229 -53.907593 -142.75522 8288116
-85.108734 -53.739594 -144.34625 8551026
-85.028313 -53.669018 -145.80159 8814454
-84.598846 -53.619156 -145.87054 7037274
-133.4463 -73.738289 -39.893616 7959400
-133.328 -73.866905 -40.839676 7301470
-133.2041 -73.963242 -41.856667 9537408
-132.93715 -74.080643 -42.742386 8682612
-132.14317 -74.157135 -43.633507 6117197
-131.76971 -74.15834 -44.498444 5985867
-131.11072 -74.159363 -45.406483 9210491
-130.78207 -74.160759 -46.354195 7630435
-130.44661 -74.16214 -47.299427 7695972
-130.10437 -74.163513 -48.242271 8222060
-129.75526 -74.164871 -49.182568 8418928
-129.39938 -74.166222 -50.120319 9142651
-128.71939 -74.205254 -50.931103 8024422
-128.36177 -74.21283 -51.865658 8353130
-127.99861 -74.221092 -52.798203 6050379
-127.62994 -74.23008 -53.72871 5458755
-127.25571 -74.239761 -54.657116 7103842
-126.87605 -74.250168 -55.583443 8485237
-126.49873 -74.265877 -56.511242 9537667
-126.12614 -74.288284 -57.441574 9997959
-125.57439 -74.340027 -58.382126 7038307
-125.28603 -74.289116 -59.259911 8222065
-124.83878 -74.279251 -60.156166 9209212
-124.38753 -74.270775 -61.050282 8947067
-123.93331 -74.264359 -61.942642 7038307
-123.47925 -74.261864 -62.834938 7894123
-123.02058 -74.260368 -63.724766 8749174
-122.55666 -74.25959 -64.611816 9866631
-122.08754 -74.259521 -65.496147 9866371
-121.61326 -74.260155 -66.377693 10260871
-121.37666 -74.189743 -67.390282 8353135
-120.88957 -74.190887 -68.267059 8879735
-120.39617 -74.191994 -69.140343 8748405
-119.89648 -74.1931 -70.010025 9603458
-119.64335 -74.194817 -71.103096 9931910
-119.23579 -74.196182 -71.952499 9800836
-119.07106 -74.197739 -73.029976 9011576
-118.5433 -74.198761 -73.890015 10786702
-118.00934 -74.199844 -74.746201 9143678
-117.46925 -74.200867 -75.598495 8420726
-116.92299 -74.201897 -76.446869 9012093
-116.68854 -74.203415 -77.419853 9011836
-116.69842 -74.204956 -78.317986 9406080
-116.13255 -74.206017 -79.16069 8682869
-115.56062 -74.206985 -79.99939 8946296
-114.98266 -74.207932 -80.833832 8814709
-114.74472 -74.209656 -81.909477 9471869
-114.49731 -74.211357 -82.985779 9932163
-113.89777 -74.212296 -83.812546 9932163
-113.29234 -74.213211 -84.634918 7893615
-112.97975 -74.204193 -85.592209 8945788
-112.97789 -74.010376 -86.534378 9340289
-112.2908 -73.970673 -87.302124 7958890
-111.61737 -73.870979 -87.992462 7629666
-133.80978 -72.898117 -39.114742 9011832
-133.76656 -72.849121 -39.919518 6972249
-133.65398 -72.946396 -40.939789 7301214
-133.47859 -73.269875 -41.707649 9603202
-112.93864 -73.452492 -86.936203 8419702
-112.52044 -73.081596 -87.534653 7498337
-111.83142 -72.972961 -88.248047 8155752
-111.21461 -72.793251 -88.926132 7168859
-134.27873 -71.819336 -38.084778 7235165
-134.13786 -72.021393 -38.977367 6971481
-134.0719 -71.966263 -40.11142 6774358
-133.91449 -72.21077 -41.019737 8418928
-112.53762 -72.269798 -87.92897 8814710
-112.04276 -72.074875 -88.50206 8813680
-111.36813 -71.981285 -89.194962 7760995
-110.69557 -71.990868 -89.829193 9076851
-159.74428 -70.774643 17.265022 8353902
-159.59106 -71.046883 16.392418 9209213
-159.12457 -71.176071 15.335804 10853520
-159.04572 -71.101929 14.360348 12498087
-158.00233 -71.085899 13.687744 12169122
-157.91756 -71.0131 12.721092 12432040
-157.58556 -70.949287 11.737507 9208701
-156.77757 -70.914238 10.915245 8485235
-156.68355 -70.844299 9.9593048 6511962
-156.34227 -70.781906 8.9905434 9668995
-155.53484 -70.748436 8.1896935 9866373
-155.42802 -70.679756 7.2441292 10129545
-155.31593 -70.611427 6.3003006 6840151
-154.27101 -70.586937 5.5101967 7301215
-154.12726 -70.506065 4.3883057 8419951
-154.00209 -70.438911 3.455116 9997955
-153.22125 -70.421967 2.8812673 9866112
-134.67804 -70.888603 -37.26548 8748916
-134.61885 -70.848137 -38.240204 6576979
-134.47418 -71.02375 -39.309715 7432288
-134.28688 -71.380524 -40.075157 7563874
-112.01933 -71.462845 -88.834259 7892581
-111.59235 -71.095802 -89.429283 9340025
-110.90044 -70.995224 -90.142517 9471612
-110.28044 -70.823158 -90.820663 8879214
-160.09003 -69.660217 17.900223 9735037
-160.20045 -70.030807 17.392014 7893348
-152.82841 -70.350189 1.7668341 10062978
-152.6629 -70.271233 0.65987766 8945268
-151.95271 -70.24855 0.043994755 7958889
-151.51006 -70.198471 -0.80947888 9472640
-151.32596 -70.11882 -1.9038888 7366239
-151.07907 -70.013901 -2.9947703 7958888
-150.31642 -69.969078 -3.5863307 8682867
-149.79968 -69.891357 -4.4185295 7235425
-149.5238 -69.780624 -5.49403 6116946
-149.24156 -69.670418 -6.5658302 8024168
-149.00163 -69.579063 -7.4562073 11181972
-148.41779 -69.506836 -8.2541275 8419182
-147.6635 -69.444908 -8.9998322 5919823
-135.1304 -69.818558 -36.371033 6314832
-134.96159 -70.076164 -37.391037 6775383
-134.91872 -69.979263 -38.430817 7235422
-111.60459 -70.289627 -89.825485 9340286
-111.16629 -70.067398 -90.358131 9471872
-110.42898 -70.014839 -91.09124 8681835
-109.87191 -69.913551 -91.673798 9142386
-160.28099 -68.833725 18.181393 8813936
-147.3634 -69.337204 -10.052803 5393738
-147.10831 -69.247787 -10.927406 6446682
-146.84572 -69.157356 -11.798954 8353651
-146.5247 -69.049217 -12.841305 9407107
-145.87167 -68.961655 -13.778969 8946813
-145.32591 -68.894806 -14.506725 8025196
-144.77539 -68.797043 -15.511482 10262156
-144.49289 -68.709167 -16.363491 8090987
-144.20607 -68.621742 -17.212547 6841693
-143.85678 -68.51741 -18.227898 12433322
-143.62079 -68.448105 -18.902718 12433322
-135.53085 -68.858208 -35.634483 7170141
-135.4593 -68.867767 -36.547413 6051660
-135.34183 -68.991875 -37.522926 6183246
-135.15353 -69.371193 -38.216499 5393730
-111.32529 -69.510956 -90.487221 9340286
-110.83307 -69.182266 -91.125504 9997955
-110.11745 -69.050377 -91.877914 9273977
-109.57217 -68.789963 -92.532196 8089963
-160.27968 -67.829391 18.963203 6906715
-160.57791 -67.968712 18.292595 8090728
-143.442 -68.396393 -19.40749 7039331
-143.14067 -68.310463 -20.246559 6841693
-142.41696 -68.242966 -21.022373 7039331
-142.10918 -68.158142 -21.85347 11512478
-141.8429 -68.059868 -22.794369 13419963
-141.06781 -68.008385 -23.439682 12762034
-140.68576 -67.908401 -24.423826 11380637
-140.29823 -67.809021 -25.403894 9077370
-139.90521 -67.710243 -26.379808 8682867
-139.4933 -67.60556 -27.348993 9340283
-139.04317 -67.452812 -27.958847 11576729
-136.28291 -67.731415 -33.704857 6510930
-136.01846 -67.98468 -34.641033 6249039
-135.93579 -67.970726 -35.585514 7367264
-135.77905 -68.052261 -36.546104 6051660
-110.90247 -68.348251 -91.481003 9142907
-110.46942 -67.990326 -92.077255 8747892
-109.79028 -67.948097 -92.74971 8945271
-109.1616 -67.989304 -93.331421 9537405
-160.71236 -66.777832 18.964073 8156268
-160.86424 -67.333542 18.246147 7761509
-138.75345 -67.345772 -28.249611 11576729
-139.05949 -67.199051 -29.709398 8090218
-138.62363 -67.041618 -30.141932 8090218
-137.91745 -66.790367 -30.861729 8024422
-137.3887 -66.857658 -31.789518 7168856
-137.0455 -67.01738 -32.755997 6576720
-136.83887 -67.082291 -33.710361 6050890
-136.55222 -67.228394 -34.732681 5920074
-136.3418 -67.421494 -35.379547 7169885
-110.47479 -67.191429 -92.476425 13550517
-109.91453 -67.095062 -93.062256 9274235
-109.23733 -67.118889 -93.699448 8222060
-108.61137 -66.960571 -94.379402 7958632
-160.71082 -65.708031 19.797871 8419440
-160.97429 -65.787086 19.239864 7432801
-109.93901 -66.408966 -93.386002 8089963
-109.50192 -66.057144 -93.983047 7498600
-108.80125 -65.97374 -94.696991 8353133
-108.17316 -65.818817 -95.377487 9668735
-161.00307 -64.852455 19.911472 9208444
-161.20876 -65.182671 19.267246 6840663
-109.50262 -65.262657 -94.384361 7038307
-109.09579 -65.092628 -94.860474 8155755
-108.38811 -64.994827 -95.588387 10392457
-107.74596 -64.930763 -96.236404 10984851
-161.13667 -63.59433 20.636929 7433064
-161.33954 -63.939796 19.986084 9209469
-109.20904 -64.50148 -95.051102 7563619
-108.76814 -64.15461 -95.649231 8550770
-108.06372 -64.076836 -96.363876 10787473
-107.43185 -63.927303 -97.045341 8946297
-161.42741 -62.740341 20.752113 7696235
-161.54674 -63.041409 20.293304 8814713
-108.76477 -63.363758 -96.052673 10984852
-108.32153 -63.019756 -96.651642 9011579
-107.61488 -62.945293 -97.366791 8288370
-106.98065 -62.798832 -98.04892 11446174
-161.6662 -61.905781 20.950169 8025199
-108.3157 -62.230949 -97.056427 9011579
-107.86424 -62.028339 -97.591782 8354163
-107.1118 -62.00161 -98.326614 9866885
-106.54294 -61.921631 -98.912476 9866885
-161.8777 -60.729527 21.692455 7564649
-161.89243 -61.134884 21.127762 7696236
-107.88818 -61.47377 -97.849442 9142907
-107.47255 -61.135605 -98.418999 7892839
-106.73058 -61.065765 -99.165619 9077369
-106.17509 -60.773193 -99.846291 9932677
-162.54141 -59.413857 23.407913 8287594
-162.42642 -59.697216 22.552284 9339769
-162.36781 -60.040665 21.852974 8288373
-107.55832 -60.353851 -98.735474 7958632
-107.12604 -60.026279 -99.352478 7958632
-106.42007 -59.963902 -100.0759 7761509
-105.79318 -59.832844 -100.77318 9603713
-166.66891 -58.501812 31.24017 15721430
-166.08281 -58.985752 30.923321 11840928
-165.79915 -59.05653 29.835892 8092011
-164.73308 -59.058472 28.207947 7037274
-164.86879 -59.060005 27.413345 8484718
-163.7021 -59.06076 26.405838 7037274
-163.86012 -59.062656 25.418587 9143163
-162.99246 -59.158607 24.276608 6511954
-163.17516 -59.193794 23.70105 6511954
-106.31578 -59.468533 -101.43014 7958632
-105.87396 -59.143002 -102.04727 7761253
-105.15434 -59.083435 -102.76624 8287597
-104.582 -58.806011 -103.36131 9537405
-166.82439 -58.087002 31.268734 15721430
-105.43893 -58.259197 -103.14241 8025194
-104.78102 -58.063171 -103.82645 9011574
-104.24928 -57.730412 -104.56187 8485229
-104.54299 -57.401478 -104.90514 8485229
-103.87514 -57.31139 -105.62367 8222314
-103.42129 -57.061817 -106.3059 8090731
-102.77979 -57.140072 -108.73689 8815227
-102.19275 -57.032135 -108.90191 10064265
-102.04892 -56.967644 -110.32857 9208435
-101.21349 -56.872005 -110.75536 10590088
-101.12946 -56.774502 -112.00426 10787211
-100.66138 -56.677223 -112.84238 8681835
-100.3571 -56.598991 -113.59386 8681835
-99.845215 -56.541515 -113.84027 8091248
-100.08195 -56.479683 -114.93938 9998727
-99.392487 -56.402847 -115.26334 8682867
-98.926849 -56.262802 -116.69127 10262412
-98.230164 -56.186005 -117.0071 7038307
-98.120331 -56.096527 -118.30859 8813682
-98.037102 -56.024452 -119.66084 9011318
-97.34848 -55.960068 -119.9935 8089963
-97.07708 -55.870056 -121.43495 9537150
-96.374954 -55.802292 -121.75326 10392713
-96.257294 -55.724102 -123.11361 8090474
-95.547417 -55.656124 -123.42537 8090474
-95.595428 -55.59362 -124.71677 7761253
-95.057465 -55.542389 -124.9465 8485232
-94.897865 -55.493546 -125.6736 10260616
-94.372261 -55.410267 -126.549 7892583
-94.035698 -55.310825 -128.0096 7563619
-93.48632 -55.259373 -128.22923 7564651
-93.318771 -55.175755 -129.62401 10065291
-92.763672 -55.124088 -129.83867 11381404
-92.396942 -55.02179 -131.31262 10459793
-91.836197 -54.970001 -131.52193 9539206
-91.453247 -54.86623 -133.00172 9539206
-90.678284 -54.726429 -134.62514 9406330
-90.462357 -54.637348 -136.05714 7367005
-89.88504 -54.58498 -136.25285 13550517
-89.500122 -54.550159 -136.38208 13550517
-89.656265 -54.494587 -137.69376 13880003
-88.872009 -54.420364 -137.93639 16775151
-88.629013 -54.328865 -139.38637 12368300
-87.765961 -54.171928 -141.00075 7302238
-87.507111 -54.08083 -142.48097 9077880
-86.872879 -54.00647 -142.60027 7564651
-86.599983 -53.913475 -144.08806 11708316
-85.960373 -53.838802 -144.20044 11708316
-85.673233 -53.743954 -145.69612 9801091
-85.377472 -53.647633 -147.20493 9208435
-133.23117 -73.66098 -43.102364 8287598
-133.06488 -73.860466 -44.189152 7762022
-132.71866 -73.927261 -45.243656 7827302
-132.30737 -74.032593 -45.995613 7629923
-131.75127 -74.153954 -46.694195 8025449
-131.23026 -74.163345 -47.58075 6511186
-130.88596 -74.164719 -48.529205 8880502
-130.53477 -74.166092 -49.475151 9406335
