# .PCD v0.7 - Point Cloud Data file format
VERSION 0.7
FIELDS x y z rgb
SIZE 4 4 4 4
TYPE F F F U
COUNT 1 1 1 1
WIDTH 1172
HEIGHT 1
VIEWPOINT 0 0 0 1 0 0 0
POINTS 1172
DATA ascii
-169.1754 -66.133545 -42.632591 7170658
-168.69231 -66.046928 -43.594418 7104091
-168.30244 -65.977859 -44.360783 8485744
-167.81068 -65.891731 -45.314957 15327710
-167.31473 -65.805923 -46.265289 14210771
-166.91452 -65.73748 -47.022438 11710119
-166.41 -65.652199 -47.965054 9406333
-165.87172 -65.555519 -48.895153 9011574
-171.9335 -64.885262 -37.494114 9537150
-171.85036 -64.960625 -38.402325 10655629
-171.74443 -65.118408 -39.190205 9734272
-165.40652 -65.466171 -49.626667 9011574
-164.82161 -65.354858 -50.536465 8485748
-164.2576 -65.253639 -51.449345 7564651
-163.82713 -65.18232 -52.183498 10064779
-163.50244 -65.128929 -52.732288 7564651
-161.71443 -64.650391 -58.027054 7565675
-161.25562 -64.579872 -58.741768 8815227
-160.90982 -64.527077 -59.275974 7565675
-172.3147 -63.974354 -36.708824 9011063
-172.22691 -64.084877 -37.486019 9142393
-172.133 -64.177818 -38.465687 10721421
-160.56238 -64.474335 -59.808323 8157555
-160.09685 -64.404236 -60.515713 8157555
-159.62871 -64.334274 -61.22015 7565675
-159.03973 -64.247055 -62.096428 9012606
-158.4469 -64.16008 -62.968342 11183003
-157.84982 -64.073387 -63.835331 11050900
-157.24905 -63.986988 -64.698044 11905951
-156.76546 -63.918079 -65.384659 9735297
-156.40123 -63.866436 -65.897873 8617075
-155.95686 -63.634731 -68.602951 8092019
-155.45569 -63.566044 -69.278969 8092019
-172.76863 -62.907578 -35.647297 9734529
-172.6785 -63.003788 -36.551388 8616821
-172.59056 -63.082779 -37.521992 7827049
-172.41129 -63.464504 -38.179413 10984593
-154.82567 -63.480438 -70.119583 10721166
-154.19221 -63.395138 -70.955734 8682867
-153.68263 -63.327072 -71.621078 10129542
-153.0423 -63.242268 -72.448364 8156267
-152.52757 -63.174534 -73.107079 6511954
-152.61278 -63.026184 -74.960884 9142393
-152.21779 -62.975521 -75.451263 8352878
-151.55678 -62.891304 -76.264542 8287085
-150.89244 -62.807362 -77.073227 7563619
-150.22441 -62.723701 -77.876869 9340028
-149.55316 -62.640301 -78.675865 9011320
-173.22569 -61.784256 -34.87273 12168610
-173.10532 -61.982296 -35.662876 10721423
-173.01532 -62.077763 -36.568638 9998215
-149.29402 -62.456783 -80.846268 9537667
-148.70145 -62.372688 -81.454948 10261387
-147.93095 -62.256458 -82.195732 10458766
-147.313 -62.163799 -82.78463 10787732
-147.35181 -62.000767 -84.444756 7564643
-146.72305 -61.908188 -85.026787 11050388
-145.93507 -61.792839 -85.748955 10129542
-145.41991 -61.585976 -88.054428 6643539
-173.86447 -60.712124 -33.912849 10524299
-173.65042 -60.899982 -34.871315 12497574
-173.46761 -61.073231 -35.792137 9998215
-144.83495 -61.518475 -88.65696 8813936
-144.10071 -61.434364 -89.405159 7893608
-143.36365 -61.350502 -90.148453 7564386
-143.12292 -61.194138 -92.171814 9011578
-142.37007 -61.110355 -92.905052 8814457
-141.61407 -61.02684 -93.632607 8551286
-141.32726 -60.86861 -95.655441 5920082
-140.55569 -60.785248 -96.372604 6841183
-139.62628 -60.685535 -97.226273 7565159
-175.28786 -59.543476 -31.129353 8880503
-175.15904 -59.565117 -32.196163 9603455
-174.59685 -59.924244 -33.088844 8089962
-174.3159 -60.134529 -34.000313 10524299
-174.09764 -60.361511 -34.829517 12958381
-139.29063 -60.525536 -99.246201 9340283
-138.5006 -60.442646 -99.946167 10393485
-137.70802 -60.360077 -100.64101 11183001
-137.32611 -60.198368 -102.65785 6840919
-136.5108 -60.11248 -103.33576 8616819
-135.98183 -60.044239 -103.71059 9734788
-135.83673 -59.89156 -105.41714 7760994
-135.10832 -59.794708 -105.89906 8484714
-134.94041 -59.639816 -107.6104 6510930
-134.57129 -59.591278 -107.84753 7761253
-180.11063 -58.906582 -22.514988 8155756
-180.07687 -58.987209 -23.525051 8287341
-179.80904 -59.186142 -24.372414 9010550
-178.03249 -59.187492 -26.105675 8090987
-177.90678 -59.188889 -26.964115 9275261
-177.74449 -59.19062 -28.036263 8814710
-176.23593 -59.273399 -29.546257 12169640
-176.13728 -59.289257 -30.403248 9735555
-176.03653 -59.305717 -31.260288 9735555
-134.20189 -59.542942 -108.08349 6510930
-133.6474 -59.470432 -108.43552 7368038
-133.36613 -59.276161 -110.07916 6510930
-132.78465 -59.194782 -110.40855 6510930
-132.20312 -59.113598 -110.73576 6510930
-132.14807 -58.969742 -112.31793 7498081
-131.21477 -58.855461 -112.89295 7563619
-130.63695 -58.669834 -114.87634 13156789
-180.46086 -57.792957 -21.588535 9341054
-180.42294 -58.062737 -22.466293 8484975
-180.38454 -58.333885 -23.344391 8089963
-129.89806 -58.586617 -115.3412 8484976
-129.9023 -58.485195 -117.02735 8484976
-129.17041 -58.40966 -117.49976 9734788
-128.43767 -58.334343 -117.96884 9011065
-128.41463 -58.23061 -119.66243 8616307
-127.6712 -58.155079 -120.12341 8550763
-126.92702 -58.079704 -120.58116 9208435
-126.8764 -57.973751 -122.28168 7367005
-126.1218 -57.898224 -122.73118 9011832
-125.42445 -57.708561 -124.72002 13880253
-124.82516 -57.640125 -125.02426 9932937
-180.74358 -57.037716 -21.686039 9735298
-180.72952 -57.258995 -22.652153 9734014
-124.42552 -57.594597 -125.22569 7038307
-123.9669 -57.458748 -127.18303 8090989
-123.19226 -57.383526 -127.61215 11379609
-123.11421 -57.291168 -129.38081 13550517
-122.32877 -57.215652 -129.80093 12103586
-121.63467 -57.064423 -131.89062 9208958
-120.83818 -56.988731 -132.29955 7564135
-120.10904 -56.835144 -134.38817 8090219
-119.30176 -56.759243 -134.78558 8090987
-181.11931 -55.825104 -20.71006 8419437
-181.08255 -56.092209 -21.590202 9669249
-119.19574 -56.604362 -136.30319 8616307
-118.55589 -56.474308 -137.00552 7563619
-118.33141 -56.08205 -137.96753 8418671
-117.6118 -56.055569 -138.47098 8879478
-117.03606 -55.853504 -139.14322 9735044
-181.45055 -54.744667 -19.789394 8813679
-181.47652 -54.869553 -20.825294 9076850
-117.89954 -55.317822 -138.92044 9011321
-117.1124 -55.232784 -139.57285 8484977
-116.32408 -55.148842 -140.22377 7695205
-181.7925 -53.67662 -19.088875 8616301
-181.76888 -53.891525 -19.883862 8616301
-181.70998 -54.193958 -20.630585 8879472
-117.49242 -54.219643 -139.75131 7826791
-116.68642 -54.12233 -140.42996 8418927
-115.95095 -53.820541 -141.14835 10985362
-182.02534 -53.002171 -18.892159 8748403
-182.06252 -53.09404 -19.916336 7958375
-117.0433 -53.092113 -140.62881 9142904
-116.25484 -53.011181 -141.2861 10393225
-115.46594 -52.931686 -141.94312 8617329
-182.33536 -52.006088 -18.111084 7958631
-182.36327 -52.126213 -19.149849 8222060
-116.43535 -52.23724 -141.5045 8551280
-115.71022 -52.076977 -142.14902 8156779
-115.077 -52.117767 -142.62775 9143673
-182.75752 -50.718792 -17.41288 9208435
-182.74039 -50.909473 -18.173298 8024425
-182.64679 -51.299911 -18.883423 7234909
-115.97437 -51.236584 -142.33267 8880501
-115.10764 -51.23193 -143.01607 8353902
-114.63823 -51.008614 -143.48897 8681835
-183.11674 -49.574127 -16.557819 8813680
-183.07169 -49.822803 -17.220875 8945267
-183.12012 -49.859692 -18.116096 8945271
-116.1284 -50.572235 -142.52086 9143673
-115.47998 -50.180622 -143.21281 8616307
-114.6674 -50.122211 -143.87869 8945011
-114.09727 -49.825485 -144.46494 9010802
-183.38051 -48.828926 -16.433548 8155752
-183.39822 -48.935219 -17.252144 8813684
-183.35303 -49.184448 -17.916405 9340030
-115.01526 -49.058506 -144.10046 9734530
-114.2242 -49.012478 -144.74368 9734529
-113.70146 -49.0121 -145.15469 8681835
-183.6385 -47.986786 -15.714091 7892581
-183.67577 -48.012135 -16.386192 8089959
-183.69373 -48.117989 -17.205887 8418928
-114.8989 -48.347782 -144.52293 9208182
-114.54088 -48.080662 -144.92859 9142907
-113.72782 -48.124592 -145.54718 7301222
-113.25386 -47.90295 -146.02278 8090736
-183.96141 -47.041031 -15.385146 9668730
-184.00258 -47.123371 -16.415909 8418923
-114.5529 -47.310448 -145.27768 8748665
-113.92862 -47.236141 -145.80298 8353651
-113.22474 -47.235104 -146.34717 6774618
-184.63109 -45.527576 -14.008769 9931902
-184.43535 -45.881805 -14.709376 8879214
-184.37239 -46.077396 -15.509452 9405558
-184.23538 -46.447887 -16.213326 9931902
-114.06076 -46.423481 -146.09158 7696235
-113.45177 -46.225292 -146.71198 8616565
-112.73695 -45.972401 -147.29425 6313807
-185.22478 -44.679893 -12.931514 8814457
-185.09431 -44.907566 -13.819186 9011057
-185.08 -45.001053 -14.640536 8616299
-113.11461 -45.152588 -147.78476 5788232
-112.42231 -45.055389 -148.22945 5393730
-111.94611 -44.835835 -148.71136 5393730
-192.00862 -43.842327 -0.48247826 9208435
-192.03963 -43.984764 -1.4698898 8157554
-189.701 -44.160915 -4.751956 7432032
-189.6723 -44.162899 -5.8953657 8681843
-187.41927 -44.166615 -9.2255888 8879479
-187.36372 -44.168552 -10.355144 7959145
-186.08684 -44.372898 -11.412982 9734788
-186.09612 -44.385845 -12.088984 9734788
-186.10448 -44.399101 -12.765376 7894126
-112.0966 -44.550941 -149.65469 5393730
-111.32442 -44.530334 -150.12344 5854281
-110.81889 -44.345119 -152.09317 8617331
-109.90488 -44.345417 -152.75909 7498857
-108.35563 -44.350475 -156.46948 8813942
-107.53184 -44.274303 -157.28989 9405307
-107.24901 -44.019176 -158.09384 9142135
-106.61697 -43.99379 -158.38913 8616048
-192.23085 -42.72665 0.28804481 9734788
-192.36186 -43.006462 -0.63864434 9274493
-107.39355 -43.333939 -158.30594 7563619
-106.54982 -43.300652 -158.69983 9405306
-192.53484 -41.92054 0.28779304 9734788
-192.57367 -42.303898 -0.40774071 8879735
-107.32693 -42.639771 -158.61682 8616048
-106.78915 -42.157799 -159.05435 9340284
-106.07366 -42.015865 -159.43433 10129800
-192.6996 -40.834557 1.2158707 7563619
-192.83922 -41.113361 0.28757942 9603202
-106.76906 -41.234379 -159.43698 9143419
-106.31863 -40.941097 -159.75873 9208956
-105.59494 -40.730953 -160.17007 9340286
-193.09538 -39.83812 1.1399506 8945272
-193.12074 -40.25856 0.44254768 9340030
-106.37254 -40.065624 -160.08868 8616819
-105.61145 -39.962433 -160.47357 8682868
-193.39859 -38.490192 1.9175385 9668995
-193.37286 -38.982037 1.3116959 9997960
-106.30328 -39.369934 -160.40143 7037274
-105.8511 -39.077248 -160.72366 9011832
-105.12518 -38.868599 -161.13531 10853004
-193.64304 -37.742859 2.0592775 9800581
-193.74442 -38.060452 1.2204026 9142651
-105.90363 -38.199982 -161.05493 9603711
-105.14046 -38.098549 -161.44008 10458504
-193.82739 -36.752186 2.7767763 8813942
-193.96072 -36.942047 1.9998292 9471616
-105.45518 -37.259743 -161.63812 9538174
-104.60581 -37.234234 -162.03378 9735296
-194.11092 -35.845421 2.9983644 9471616
-194.21349 -36.161247 2.1578417 9734788
-105.38713 -36.563549 -161.95787 9735296
-104.72354 -36.266918 -162.38545 9998725
-194.29472 -34.854542 3.718564 9274237
-194.42903 -35.042477 2.9402971 8748405
-104.93719 -35.315884 -162.68652 9472386
-104.22807 -34.956985 -163.16098 8617848
-194.50912 -33.737194 4.5031939 10853004
-194.59558 -33.998264 3.801755 7958633
-194.6819 -34.260132 3.0999269 7564643
-104.50545 -34.036667 -163.42007 9143678
-103.83858 -33.741398 -163.84857 8420726
-194.76155 -32.954613 4.6649828 9010806
-194.94553 -33.066086 3.8079119 7827303
-104.62222 -33.063763 -163.77455 8420726
-103.8636 -32.998817 -164.14844 9735557
-194.97546 -31.836357 5.4527788 9931905
-195.11537 -32.054798 4.609868 8221549
-195.15007 -32.356705 4.0465822 8089963
-104.08641 -32.19772 -164.38242 8091761
-103.31924 -32.102448 -164.77301 7039331
-195.49684 -30.763294 5.5453157 9406334
-195.43549 -31.164749 4.7582979 9143162
-104.10355 -31.421597 -164.69998 7039331
-103.39128 -31.224485 -165.15042 8354933
-102.75345 -30.940145 -165.63214 8090736
-196.26317 -29.563053 7.1461611 9077626
-195.91899 -30.004314 6.4240999 8419440
-196.02249 -30.01829 5.7180758 9340798
-103.57802 -30.514517 -165.62326 10262415
-103.02861 -30.281609 -166.07294 7564393
-102.32253 -30.061443 -166.71768 8616821
-102.04057 -29.66024 -167.60677 8090987
-197.03526 -29.187254 8.8415422 9537918
-197.17213 -29.203833 8.1333666 9537918
-101.61842 -29.65451 -167.81989 10129030
-101.33185 -29.366928 -169.63068 12300195
-100.51675 -29.367006 -170.11806 11840157
-171.27289 -65.721161 -40.532543 10853012
-171.16452 -65.755554 -41.378712 8222573
-170.70168 -65.960258 -42.226662 7433056
-170.44937 -65.980682 -43.095142 7301470
-169.83456 -66.017342 -44.103928 7762021
-169.34099 -65.930603 -45.06741 10262156
-168.94238 -65.861328 -45.835083 15657446
-168.43993 -65.77491 -46.790787 12499893
-167.93315 -65.688873 -47.742622 9209467
-167.52347 -65.619919 -48.50074 8551281
-167.06895 -65.534737 -49.243862 9011574
-171.72453 -65.076492 -39.766273 9735043
-171.6476 -65.120956 -40.620846 10655633
-171.50764 -65.238144 -41.606934 8288109
-171.34845 -65.407036 -42.297482 7958629
-166.71655 -65.467125 -49.796459 9932161
-166.36942 -65.40242 -50.349064 10392454
-165.93556 -65.328522 -51.092762 8090987
-165.50327 -65.256462 -51.834911 9472386
-164.95868 -65.166603 -52.758461 9669766
-164.40993 -65.077011 -53.677776 9406851
-163.96761 -65.005531 -54.409912 8156784
-163.41064 -64.916374 -55.32082 9209985
-162.84966 -64.827454 -56.227562 8091762
-162.2841 -64.738808 -57.129436 11380639
-172.26466 -63.725597 -39.018383 10062979
-172.13451 -63.976833 -39.643288 9010549
-172.03244 -64.086243 -40.657467 9405821
-161.18367 -64.383034 -61.144146 10262415
-160.70981 -64.312561 -61.852318 10854295
-160.11418 -64.224762 -62.73386 9736071
-159.51418 -64.137222 -63.610481 12169123
-158.91051 -64.049942 -64.482651 8090475
-158.42455 -63.980301 -65.176941 9735297
-157.81339 -63.893539 -66.040352 10458763
-157.19855 -63.807018 -66.899406 14077381
-156.70381 -63.737995 -67.583122 12629674
-156.33128 -63.686344 -68.094025 9867657
-172.74133 -62.583912 -38.034626 9537150
-172.55429 -62.982063 -38.720451 9273978
-172.50073 -62.93877 -39.859291 9010550
-155.9803 -63.469994 -70.637634 9076855
-155.3405 -63.38401 -71.479263 10852751
-154.69675 -63.298347 -72.315773 9143161
-154.04958 -63.212967 -73.147797 8813171
-153.52905 -63.144936 -73.809799 9931652
-153.00632 -63.076992 -74.468719 8352878
-152.54901 -62.859604 -76.989479 10327435
-152.01196 -62.791985 -77.640167 8550512
-151.33751 -62.707748 -78.448891 8221548
-150.65977 -62.623779 -79.253059 9866373
-150.25153 -62.573536 -79.733185 9537667
-173.13857 -61.662872 -37.030586 7038307
-172.99312 -61.921051 -37.872028 7103843
-172.90846 -61.973656 -38.946037 8024171
-172.77893 -62.224014 -39.573181 8813171
-149.84196 -62.523438 -80.211304 10195339
-149.84082 -62.369572 -82.073837 7630187
-149.07292 -62.256893 -82.824944 9998727
-148.29205 -62.140217 -83.564781 7959912
-147.82239 -62.070339 -84.005974 9406846
-147.85606 -61.905922 -85.677986 7630436
-147.05981 -61.789738 -86.404449 6840919
-146.29362 -61.687454 -87.14444 7564385
-145.85738 -61.636593 -87.600464 8813936
-173.64635 -60.799011 -36.265076 7038307
-173.46368 -60.986992 -37.012917 7038307
-173.32161 -61.111694 -38.031689 7498857
-173.16046 -61.310078 -38.783875 7038307
-145.80856 -61.49778 -89.489174 9209214
-145.36371 -61.446995 -89.941025 8354163
-144.6198 -61.362453 -90.689789 6511954
-143.87302 -61.278107 -91.43364 8616819
-143.47177 -61.103527 -93.618332 8880507
-142.86136 -61.036171 -94.204689 9340801
-142.09563 -60.952248 -94.932587 7828076
-141.48802 -60.759136 -97.257027 7564651
-140.86246 -60.692146 -97.829674 9603459
-140.07784 -60.608749 -98.540512 10918801
-174.88525 -59.609219 -34.328896 9142648
-174.44225 -59.933086 -35.262226 9932418
-174.24092 -60.104897 -36.125622 7103838
-173.97778 -60.355797 -37.099876 7038307
-139.73332 -60.44735 -100.57433 7104091
-138.93352 -60.364105 -101.27422 6511954
-138.13123 -60.281075 -101.96899 7235421
-137.74022 -60.118061 -103.99961 6840919
-136.91643 -60.032394 -104.67818 7563873
-136.38257 -59.96439 -105.05328 7760994
-136.2309 -59.810078 -106.77246 7760994
-135.49373 -59.712669 -107.25279 7037274
-180.2849 -58.854797 -24.65741 9471097
-179.82817 -59.117989 -25.479103 9405302
-179.50873 -59.189674 -26.538769 9405560
-179.41367 -59.190727 -27.187859 8814710
-177.60983 -59.192005 -28.8932 13022893
-177.43558 -59.193726 -29.963417 8419693
-177.25528 -59.195438 -31.0327 8880503
-175.9595 -59.318535 -31.90303 9340286
-175.8813 -59.331688 -32.546047 9340286
-175.74825 -59.354588 -33.617573 8813685
-135.31921 -59.55629 -108.97693 7170402
-134.75885 -59.48312 -109.33072 6972766
-133.991 -59.377037 -109.78271 6510930
-133.90761 -59.212639 -111.33546 8880243
-133.12352 -59.103458 -111.77301 7367005
-132.49611 -58.885654 -113.71107 7563619
-131.56721 -58.777573 -114.29707 11906463
-131.18008 -58.617641 -116.19039 8484976
-180.54939 -57.998619 -23.955959 8221548
-180.588 -58.066956 -24.876442 8878961
-130.63295 -58.560848 -116.5507 8484976
-130.26776 -58.522923 -116.78951 10459022
-129.52736 -58.344246 -118.96251 9011064
-128.78584 -58.268459 -119.4303 8616307
-128.7585 -58.163544 -121.13963 7563619
-128.00633 -58.087532 -121.59914 8287592
-127.25333 -58.011616 -122.05536 8287592
-127.19839 -57.904488 -123.77185 7563619
-126.42108 -57.822208 -124.2061 10985620
-125.70675 -57.628349 -126.20324 11248792
-180.97559 -56.64753 -22.978741 10523272
-180.89658 -57.029469 -23.854828 9536636
-124.9341 -57.552929 -126.6414 8682867
-124.29053 -57.404705 -128.74182 8222321
-123.50655 -57.328972 -129.16895 9208958
-123.42383 -57.23534 -130.95531 10590097
-122.8279 -57.178326 -131.26942 12958385
-122.23151 -57.1213 -131.58136 11379609
-122.12456 -57.02557 -133.37726 9208958
-121.31889 -56.949314 -133.78458 8419185
-121.0453 -56.70752 -135.10291 8617331
-120.3069 -56.666313 -135.58606 8090987
-119.75141 -56.635117 -135.9455 8090987
-181.29903 -55.602421 -22.133141 9734014
-181.26167 -55.871696 -23.015514 10260101
-181.22379 -56.142258 -23.898201 10851980
-120.67957 -56.349003 -136.0033 8880503
-120.08275 -56.130154 -136.64874 8419440
-119.3839 -56.110863 -137.1788 8287342
-118.96053 -55.898933 -137.69164 9734788
-181.55603 -54.888561 -22.076275 10590095
-181.54791 -55.095356 -23.052227 9405564
-120.15504 -55.502972 -137.06183 8090987
-119.69292 -55.272377 -137.53224 8682612
-118.83363 -55.257851 -138.21426 8617331
-118.19875 -55.026596 -138.82083 9011321
-181.84546 -53.924068 -21.16399 10063493
-181.87114 -54.050442 -22.203979 11182230
-119.68062 -54.60651 -137.85175 9143675
-119.21458 -54.243645 -138.38673 8485745
-118.40903 -54.14291 -139.06668 8748661
-117.82455 -53.691753 -139.73579 9011321
-182.18831 -52.85323 -20.463364 8089960
-182.16444 -53.069508 -21.261078 9931909
-182.10516 -53.373375 -22.010231 11510938
-119.30966 -53.268661 -138.76561 8090987
-118.84465 -53.039902 -139.23749 9406847
-117.98145 -53.028625 -139.92108 10524815
-117.34285 -52.799587 -140.52951 8486003
-182.63174 -51.481068 -19.623276 9209467
-182.50352 -51.955482 -20.276707 8880246
-182.49939 -52.149311 -21.2411 9076858
-118.82997 -52.373802 -139.55894 10261641
-118.19081 -52.14378 -140.1683 9275261
-117.32602 -52.134319 -140.85239 8091503
-116.8588 -51.908226 -141.3248 9932675
-182.86505 -50.805317 -19.425972 8090474
-182.90302 -50.896137 -20.455544 8485233
-118.34797 -51.479645 -140.35387 8486003
-117.70733 -51.250771 -140.96402 8222832
-116.84093 -51.242775 -141.64871 8486003
-183.15622 -49.888046 -18.788239 8089962
-183.19208 -49.917068 -19.461235 8814453
-183.22786 -49.946636 -20.134861 8879479
-117.78276 -50.437374 -141.28339 8486003
-117.2429 -50.080933 -141.87364 8814456
-116.46018 -50.041809 -142.50708 9800580
-115.98613 -49.683922 -143.04623 9011065
-183.51659 -48.740231 -17.932667 9340030
-183.47119 -48.990086 -18.597794 8616307
-183.48811 -49.098927 -19.418594 10261132
-117.30679 -49.248466 -142.21098 8616822
-116.77713 -48.978024 -142.75317 8156014
-115.96587 -49.017754 -143.37231 9142651
-115.4944 -48.793659 -143.84717 9734788
-183.78093 -47.993469 -17.809952 8418928
-183.79851 -48.100811 -18.631493 7563619
-183.75307 -48.351269 -19.297821 7563619
-116.79309 -48.207523 -143.0993 7892841
-116.17081 -48.13007 -143.6245 8616307
-115.47304 -48.127247 -144.17426 9734788
-184.12167 -46.926334 -17.097534 7827306
-184.15886 -46.952347 -17.772572 8616564
-184.09473 -47.281872 -18.587238 7826791
-116.3759 -47.241512 -143.87695 8813941
-115.67689 -47.238708 -144.42763 9931649
-115.05289 -47.162991 -144.9534 8945527
-184.72292 -45.59193 -16.032108 8090217
-184.51588 -45.962666 -16.761139 7958891
-184.48729 -46.061832 -17.80481 8616822
-116.35484 -46.573715 -144.20435 8682867
-115.8903 -46.352982 -144.69279 10260357
-115.27499 -46.142204 -145.35098 9077114
-114.63788 -46.056 -145.91168 8288115
-114.04069 -45.723541 -146.66864 9669253
-185.31512 -44.744347 -15.183398 8222057
-185.1601 -45.014706 -15.934848 8418924
-185.06973 -45.205406 -16.735924 7564392
-114.94334 -45.177128 -146.49075 7893612
-114.20534 -45.150112 -147.09715 8748661
-113.7039 -44.897923 -147.69305 7630180
-192.26491 -43.737865 -2.0277891 9143934
-192.15758 -43.916695 -2.8608198 9604226
-191.89636 -44.161064 -3.6437407 8354160
-191.8839 -44.162273 -4.337718 7564643
-189.63628 -44.164886 -7.038455 10853012
-189.59389 -44.166859 -8.1814375 9471871
-187.30092 -44.170483 -11.484347 8551539
-187.23178 -44.172409 -12.613109 7039331
-186.11162 -44.412796 -13.441966 8485229
-186.11969 -44.431454 -14.344707 7368037
-186.12453 -44.445797 -15.022227 7762280
-114.02449 -44.605209 -148.47446 8682867
-113.4464 -44.588581 -148.82971 6643285
-112.67507 -44.566879 -149.30194 5393730
-112.63475 -44.344482 -150.74454 8748404
-111.72879 -44.344803 -151.4214 6840919
-110.22433 -44.349941 -155.15018 9209215
-109.29179 -44.350212 -155.81242 9077629
-109.1488 -44.098732 -157.20517 8813942
-108.51488 -44.071644 -157.50191 8089963
-192.50403 -43.040916 -1.7988464 9340799
-192.56242 -43.057365 -2.727809 9143934
-109.24706 -43.641167 -157.34598 9537921
-108.71027 -43.156761 -157.784 8287598
-107.99419 -43.012119 -158.16537 8089706
-192.80049 -42.02145 -0.95034325 9011577
-192.83452 -42.164761 -1.9420425 9537921
-108.69379 -42.232189 -158.16544 8813942
-108.10683 -41.977875 -158.53305 9668993
-107.47159 -41.953186 -158.82944 9143419
-193.22502 -40.884995 -1.0504791 8945784
-193.09695 -41.421722 -1.8056136 10262156
-108.21416 -41.13459 -158.82585 9340028
-107.45267 -41.02874 -159.21198 8616818
-193.46581 -39.831905 -0.25614464 9208445
-193.56181 -40.019489 -1.1111099 8813945
-108.23447 -40.364243 -159.12839 8090218
-107.64559 -40.111053 -159.49628 8616818
-107.00871 -40.088089 -159.79279 9143419
-193.68425 -38.546417 0.75379646 9142651
-193.7852 -38.865993 -0.086100698 9537409
-107.75173 -39.266117 -159.79036 7695460
-106.98817 -39.162067 -160.1767 6905944
-193.9868 -37.809116 0.66079414 9142908
-194.08815 -38.128452 -0.18018639 9734788
-107.29819 -38.292561 -160.3887 7761509
-106.5415 -38.220791 -160.75888 9011320
-194.2113 -36.657536 1.456189 9340286
-194.25258 -37.038582 0.75470436 9142908
-107.32413 -37.551342 -160.67696 9603458
-106.65686 -37.251076 -161.09926 9537921
-194.45676 -35.907471 1.5980119 9406079
-194.55925 -36.22485 0.7554673 9734788
-106.82994 -36.421364 -161.35944 9801093
-106.14191 -36.029663 -161.83673 9406590
-194.68063 -34.75552 2.3964891 9011321
-194.72281 -35.135303 1.6934327 9340286
-106.19241 -35.118938 -162.1955 9143423
-105.51454 -34.945259 -162.57803 10261132
-194.92621 -34.003948 2.5398073 8485232
-195.1176 -34.086178 1.6961793 7893352
-106.51431 -34.276257 -162.40164 8420470
-105.70927 -34.021774 -162.87622 9340801
-195.12 -33.094189 3.1059999 8419695
-195.2946 -33.122818 2.4028063 8419695
-105.87988 -33.212193 -163.13763 8420470
-105.20792 -33.0009 -163.53323 9012093
-195.4772 -32.0117 3.2992067 11511193
-195.58794 -32.178001 2.6414461 9340539
-106.05071 -32.401169 -163.39957 7565675
-105.2431 -32.147835 -163.8748 7038560
-104.43544 -31.895397 -164.34972 7039331
-195.87994 -30.786175 4.0608644 9340796
-195.7916 -31.135572 3.4297686 10524555
-105.45775 -31.225273 -164.20737 6445394
-104.70202 -31.162655 -164.59264 7631467
-196.48604 -29.591993 5.9691515 9340798
-196.54457 -29.722239 5.0228701 9537664
-196.35786 -30.065601 4.3076601 10261129
-105.07433 -30.545748 -164.91273 10262415
-104.31126 -30.307365 -165.46463 7828590
-103.88116 -29.816275 -166.40018 7894125
-103.09644 -29.67511 -167.0723 11379607
-197.35352 -29.226324 7.1882219 8090475
-103.15697 -29.366718 -168.51987 13023917
-102.34714 -29.366821 -169.0157 11510680
-170.78157 -65.825356 -43.688938 7762021
-170.70638 -65.719559 -44.620575 8551537
-170.26108 -65.81189 -45.528942 10260876
-169.95534 -65.801186 -46.5462 10260876
-169.57892 -65.743507 -47.323338 11117471
-169.06557 -65.656944 -48.280567 10985626
-168.51802 -65.55899 -49.225216 7958888
-171.74455 -64.679985 -41.810474 8550767
-171.54314 -64.966988 -42.838974 7235163
-171.36925 -65.15229 -43.794563 10260100
-171.07068 -65.500626 -44.421627 9012088
-168.0679 -65.477539 -49.974915 10853012
-167.63676 -65.404655 -50.728092 9932161
-167.09348 -65.313713 -51.665302 9143418
-166.54597 -65.223053 -52.598316 10130057
-166.10458 -65.150688 -53.341343 9472386
-165.54866 -65.060486 -54.265888 8156526
-164.98868 -64.970474 -55.186188 7893096
-164.53737 -64.898689 -55.918987 7037274
-163.96924 -64.809158 -56.830761 12104361
-163.39714 -64.719894 -57.738224 8947327
-162.93617 -64.648674 -58.460804 8092019
-162.47247 -64.577553 -59.18037 9933707
-172.17001 -63.622566 -41.182968 7563619
-172.03868 -63.876625 -41.809258 7038042
-171.94151 -63.9772 -42.795727 6511954
-162.12299 -64.524414 -59.718269 11380380
-161.77199 -64.471275 -60.254223 10788501
-161.41962 -64.418228 -60.788738 10262415
-160.59482 -64.113968 -64.26123 10129030
-160.10641 -64.043686 -64.963196 10129030
-159.49222 -63.956024 -65.83625 9011063
-158.87433 -63.868683 -66.704865 8681843
-158.37708 -63.798969 -67.396149 16775151
-157.75183 -63.712124 -68.255882 12038570
-157.12277 -63.625389 -69.111053 8947070
-156.61653 -63.556259 -69.791504 9405307
-172.55342 -62.704548 -40.397293 10062979
-172.42303 -62.957153 -41.024345 7432291
-172.33543 -63.016796 -42.101574 6906720
-156.37419 -63.355484 -72.178581 13022893
-155.85367 -63.286537 -72.8517 11904668
-155.20009 -63.200569 -73.689186 7563619
-154.54257 -63.114895 -74.521439 8484463
-153.88171 -63.029488 -75.349144 9142393
-153.35034 -62.961388 -76.007607 8879734
-152.95038 -62.910419 -76.49955 11183001
-153.01033 -62.759388 -78.377808 13550517
-152.46512 -62.691513 -79.028412 9011834
-151.78084 -62.606991 -79.837753 8092019
-151.36865 -62.556347 -80.320938 8092019
-172.83174 -61.98941 -40.11158 8287084
-172.73662 -62.085316 -41.099255 7892843
-172.64658 -62.201027 -41.884125 7038307
-150.95511 -62.505947 -80.802177 8879995
-150.40189 -62.438793 -81.441124 8879995
-150.07301 -62.233757 -83.612259 10656398
-149.44145 -62.139748 -84.207108 8683379
-148.64986 -62.022625 -84.945282 7433824
-148.03885 -61.763256 -87.214561 6840919
-147.4296 -61.685078 -87.815704 6840919
-146.84193 -61.616848 -88.427177 7103834
-146.39981 -61.565773 -88.883629 7367005
-173.76991 -60.509327 -38.480404 8288371
-173.46519 -60.819168 -39.290966 7696236
-173.21294 -61.107674 -40.185524 8221549
-173.04338 -61.286888 -41.099052 9406336
-146.10442 -61.531723 -89.186806 9209214
-146.34492 -61.425678 -90.78656 9209214
-145.74359 -61.357567 -91.388916 7893354
-144.98933 -61.272617 -92.13755 7564386
-144.23198 -61.18795 -92.880463 8090987
-143.97224 -61.02877 -94.931564 7565675
-143.19901 -60.944199 -95.664062 7828590
-142.42305 -60.859901 -96.391464 6709597
-141.95616 -60.809521 -96.825317 7564651
-141.95822 -60.682079 -98.584938 9735043
-141.32466 -60.614834 -99.157707 14075837
-174.56543 -59.661461 -36.675209 9471867
-174.32353 -59.88522 -37.502483 7630443
-174.1422 -60.054756 -38.415791 9735814
-174.00708 -60.165802 -39.412884 7038307
-140.53033 -60.530922 -99.868561 8551024
-140.17688 -60.368145 -101.9165 8682867
-139.36723 -60.284515 -102.61626 7432800
-138.5551 -60.201149 -103.31087 7761765
-138.1548 -60.036724 -105.35545 8616048
-137.32228 -59.951172 -106.03459 8155753
-136.78322 -59.883366 -106.40967 7760994
-136.62517 -59.72752 -108.14178 7563615
-135.87915 -59.629543 -108.62044 7564645
-180.44029 -58.727253 -26.23032 9734527
-180.4088 -58.759201 -27.114082 10260873
-179.6273 -59.124195 -27.810043 8485487
-179.18228 -59.193172 -28.701176 9208435
-179.00909 -59.194912 -29.780865 9997695
-177.06807 -59.19714 -32.10075 9011577
-176.87492 -59.198837 -33.167702 8419696
-176.67496 -59.200523 -34.233475 7695972
-175.61203 -59.378464 -34.689377 8024424
-175.47214 -59.403439 -35.761417 8485229
-175.32918 -59.429424 -36.8335 10458505
-135.31493 -59.420223 -110.58839 6840666
-134.50163 -59.297394 -111.00967 8617843
-134.25484 -59.120556 -112.71609 7367005
-133.46167 -59.010815 -113.15118 6511954
-132.85942 -58.80722 -115.13222 9406590
-131.9196 -58.69846 -115.71626 8682867
-180.79726 -57.550194 -25.17186 8681835
-180.71959 -57.91674 -25.98576 9142388
-180.67618 -58.088886 -26.931942 8681835
-131.37663 -58.534561 -117.77644 7826790
-130.45296 -58.43924 -118.37288 8484976
-130.07213 -58.296967 -120.32494 8089963
-129.32188 -58.220669 -120.79196 8089963
-129.10258 -58.095409 -122.63354 7563619
-128.53195 -58.038021 -122.97769 11378324
-127.77026 -57.961643 -123.43297 9470843
-127.10563 -57.78307 -125.4744 13880253
-126.29819 -57.690849 -125.8846 13880253
-181.04305 -56.884281 -25.206562 8945008
-181.06549 -57.019787 -26.247772 9142387
-126.24677 -57.594627 -127.6566 10656142
-125.46487 -57.518585 -128.09369 12629674
-124.81249 -57.368858 -130.21263 7761509
-124.01933 -57.2925 -130.63857 9668995
-123.27209 -57.113094 -132.69412 10524301
-122.7681 -56.896687 -133.64636 9340544
-122.15138 -56.77034 -134.37311 9406079
-121.59866 -56.738758 -134.73849 8090987
-181.3475 -55.86293 -24.211052 9734015
-181.3709 -55.995907 -25.252659 9800322
-122.4253 -56.404682 -134.67253 8879991
-121.95411 -56.146099 -135.26073 8485745
-121.22337 -56.096622 -135.84552 9341054
-120.70879 -55.946774 -136.36508 9735812
-181.69287 -54.786232 -23.515633 9734014
-181.65517 -55.057056 -24.401138 9800065
-181.61696 -55.329185 -25.287155 9734529
-122.02402 -55.395157 -135.64319 8946296
-121.46587 -55.085903 -136.22577 9143675
-120.70423 -55.069794 -136.83177 8353903
-181.92734 -54.108345 -23.323601 9734788
-181.96217 -54.207829 -24.353539 9932167
-121.50979 -54.197662 -136.60446 8617075
-121.04672 -53.965752 -137.07628 8748661
-120.18794 -54.116024 -137.68121 9340542
-119.54864 -53.716396 -138.36951 10261899
-182.32663 -52.865192 -22.527588 10392716
-182.32497 -53.061813 -23.542572 9274236
-121.03545 -53.298603 -137.39548 9736836
-120.45693 -53.110085 -137.93785 9209724
-119.73443 -52.942322 -138.58365 10788243
-182.6862 -51.726601 -21.709259 8813686
-182.72447 -51.80294 -22.666901 9932166
-182.65355 -52.096684 -23.194168 10590095
-120.70969 -52.254963 -138.13702 9539201
-119.92033 -52.167721 -138.79794 11183000
-119.13078 -52.081852 -139.45839 8814453
-183.02943 -50.654186 -21.005699 8616307
-182.98273 -50.908009 -21.670486 8616307
-182.99797 -51.021606 -22.492184 8945272
-120.23073 -51.357433 -138.93106 10393485
-119.43994 -51.27161 -139.5925 9998469
-118.64885 -51.18718 -140.25357 11248021
-183.2634 -49.97691 -20.809353 8484721
-183.30121 -50.069103 -21.843018 8287342
-119.62513 -50.496052 -139.80801 11905951
-118.97974 -50.098534 -140.5004 10853521
-118.25455 -50.03479 -141.09995 8091503
-183.57474 -48.976543 -20.024353 11708319
-183.59125 -49.086967 -20.847057 8747892
-183.62691 -49.117268 -21.523491 8089963
-119.19304 -49.08902 -140.80267 7959404
-118.403 -49.0359 -141.44836 8616822
-117.78206 -48.955952 -141.97357 8222321
-183.91689 -47.906151 -19.315269 7563619
-183.95329 -47.93446 -19.991539 11905952
-183.95444 -48.079762 -20.776562 9735298
-118.70638 -48.193382 -141.60214 7564392
-117.91478 -48.14151 -142.24841 7564392
-117.29263 -48.062561 -142.77417 7893356
-184.28325 -46.85458 -19.055138 8550770
-184.36362 -46.820225 -20.036736 8682867
-118.59482 -47.479614 -142.02213 6511962
-118.12302 -47.252754 -142.49854 7301220
-117.42422 -47.247501 -143.05017 9142909
-116.90016 -47.244183 -143.46371 9340030
-184.73959 -45.767635 -18.165844 9406080
-184.71008 -45.907867 -19.174622 9340023
-184.59784 -46.141724 -19.837612 8682867
-118.10437 -46.584259 -142.82443 7564392
-117.65666 -46.235428 -143.40224 9670019
-117.02626 -46.148014 -143.96976 9866370
-116.36037 -45.828594 -144.74281 10457479
-186.13138 -44.48069 -16.603996 8090218
-185.28383 -44.977562 -17.295361 7959149
-185.24126 -45.120045 -18.252331 8222321
-117.22125 -45.319271 -144.56163 10851980
-116.70163 -45.180233 -145.10556 10589065
-115.96495 -45.150959 -145.71324 10260357
-115.48401 -44.903778 -146.33188 9734527
-192.39569 -43.777275 -4.1165876 7893608
-192.16103 -43.979897 -5.0388517 8090987
-191.8448 -44.165092 -5.9568129 8814198
-189.54413 -44.168823 -9.3240614 7893096
-189.48793 -44.170788 -10.46638 8420208
-187.15541 -44.17432 -13.741481 8222315
-187.07268 -44.176235 -14.869411 8813936
-186.12814 -44.460545 -15.699862 8550765
-115.81253 -44.610615 -147.10739 8682867
-115.2819 -44.610596 -147.52507 11905951
-114.57365 -44.611092 -148.08047 8682867
-114.43428 -44.343788 -149.37418 8287853
-113.53639 -44.344139 -150.06189 7893096
-112.0769 -44.349342 -153.80847 8617331
-111.15255 -44.349651 -154.48189 7169890
-110.59326 -44.008156 -156.59052 8748917
-109.83289 -43.897461 -156.97815 10262156
-192.60609 -43.070259 -3.4249525 8617331
-192.64957 -43.083778 -4.1224928 8814710
-192.69295 -43.097801 -4.8203917 9012089
-110.61785 -43.238083 -156.89102 8090987
-109.89375 -43.021698 -157.30504 8814198
-109.4438 -42.725254 -157.62781 8089963
-192.97139 -41.896683 -2.5018492 10262156
-192.99013 -42.004257 -3.3396711 9340286
-192.95552 -42.233822 -4.0521116 9340798
-110.14165 -42.137424 -157.55109 8287853
-109.2617 -41.977757 -158.01241 10195593
-193.33304 -40.874058 -2.320857 9801349
-193.35486 -40.982204 -3.2067671 8551282
-110.16499 -41.366142 -157.8526 8682867
-109.576 -41.110676 -158.22147 9340540
-108.81287 -41.003513 -158.60895 13156019
-193.69493 -39.714767 -1.423381 8485236
-193.7128 -39.854736 -2.4196119 8222062
-109.56003 -40.182991 -158.6041 8682867
-108.92124 -40.158501 -158.90195 9340540
-108.33159 -39.904785 -159.27051 8682867
-194.02754 -38.615814 -0.64724267 8813945
-194.02792 -38.817303 -1.4889632 7498857
-193.97623 -39.108902 -2.2831678 8880250
-109.11697 -39.238415 -159.18605 8682867
-108.35169 -39.133106 -159.57362 8090474
-194.31436 -37.799217 -0.64894402 7630443
-194.31499 -38.050846 -1.585353 7235685
-109.0993 -38.309055 -159.56998 10458505
-108.45891 -38.286312 -159.86792 9077111
-107.86742 -38.033646 -160.23677 6511954
-194.4991 -36.711823 0.28699958 9011323
-194.61148 -36.983414 -0.65057671 8682615
-108.64003 -37.223927 -160.21613 10063750
-107.88628 -37.260494 -160.54118 9406078
-194.80309 -35.971474 0.19291389 9142908
-194.98061 -36.054935 -0.65229332 9340287
-108.13303 -36.183674 -160.86658 7893095
-107.32368 -35.848522 -161.37268 9406078
-194.97014 -34.806309 1.2257432 9011321
-195.11406 -35.081287 0.28651893 8748408
-108.02546 -35.250275 -161.30273 10591127
-107.57246 -34.957672 -161.63246 9341061
-106.84302 -34.750462 -162.0527 7564651
-195.29193 -34.116432 0.99190223 7696233
-195.46634 -34.147095 0.28651893 9011323
-107.63274 -34.07518 -161.97488 12104365
-106.86478 -33.975834 -162.36743 8156530
-195.6454 -32.683926 1.6997727 7564643
-195.6348 -33.096664 1.1498994 8484720
-107.18857 -33.130692 -162.57376 9143681
-106.38099 -32.875969 -163.04953 7565675
-195.85202 -31.475449 2.6444521 11182228
-195.87505 -31.876175 1.9842118 8946038
-196.02699 -32.000313 1.2303284 14077894
-107.22694 -32.276112 -162.91444 8551284
-106.55295 -32.064095 -163.3114 7696230
-196.24217 -30.708401 2.8073092 10721422
-196.31027 -30.884323 2.019742 10721423
-106.70933 -31.369539 -163.54977 7235422
-106.05122 -31.162947 -163.9727 5919050
-196.82573 -29.761633 3.6064196 9274747
-196.69315 -30.114416 2.8928576 9932163
-106.19145 -30.458946 -164.47578 7235166
-105.56642 -30.011326 -165.24359 9538948
-105.20773 -29.706837 -165.99585 8618105
-104.57442 -29.697002 -166.31999 8618105
-104.7692 -29.366493 -167.51587 8814710
-104.16569 -29.366585 -167.89401 8419952
-103.56102 -29.366665 -168.27028 9735297
-170.95769 -65.540215 -45.272373 8089963
-170.8698 -65.569801 -45.91037 8089963
-170.66307 -65.57637 -46.737988 10260876
-170.36394 -65.571175 -47.761372 9142910
-170.06178 -65.567047 -48.783627 6511954
-171.60675 -64.670799 -44.119473 9405304
-171.42097 -64.929962 -44.953129 8747634
-171.3044 -64.989525 -46.026573 8089963
-171.05113 -65.227165 -46.843372 8089963
-168.59682 -65.353653 -51.680546 9010806
-168.26614 -65.298729 -52.245777 10130057
-167.71135 -65.207382 -53.184155 8682867
-167.1525 -65.116356 -54.118252 9603193
-166.70189 -65.043686 -54.862057 9406331
-166.1347 -64.953064 -55.787552 8156524
-165.56332 -64.862663 -56.708744 9735812
-165.10306 -64.790558 -57.442211 12958897
-164.52362 -64.700714 -58.354763 9276035
-163.94017 -64.611053 -59.26292 8947327
-163.58801 -64.557381 -59.805561 11709860
-171.99315 -63.745598 -43.33691 6511954
-171.86565 -63.966816 -44.098057 7958629
-171.74738 -64.117996 -45.127308 9405049
-171.61874 -64.342033 -45.88953 9734014
-163.35242 -64.52169 -60.166393 11181972
-162.99767 -64.468201 -60.706059 9472900
-162.403 -64.379242 -61.601791 9670535
-161.80446 -64.290504 -62.493107 11051674
-161.20152 -64.202126 -63.379379 9208700
-160.44865 -63.913792 -66.679565 7563619
-160.07349 -63.861004 -67.203537 9471615
-159.44499 -63.773285 -68.072815 11379612
-158.81299 -63.685856 -68.93766 11379612
-158.30409 -63.615982 -69.625771 12169638
-157.92094 -63.563671 -70.139969 8616048
-172.24696 -63.078339 -43.180588 6840662
-172.15742 -63.142147 -44.261539 6971736
-172.00655 -63.413128 -45.106937 9734014
-157.53618 -63.511452 -70.652122 8616048
-157.02119 -63.442013 -71.332512 7037274
-156.6335 -63.390137 -71.84079 11904668
-156.36572 -63.187901 -74.237671 8813171
-155.70171 -63.101612 -75.075432 10918030
-155.03426 -63.015575 -75.908508 10261383
-154.36302 -62.92989 -76.736359 8682867
-153.68845 -62.844498 -77.559624 13683136
-153.28204 -62.793373 -78.051147 13683136
-153.3318 -62.641052 -79.942184 13157824
-152.91664 -62.58997 -80.430077 10592153
-172.70143 -61.944065 -42.522064 8353651
-172.63972 -61.986897 -43.2794 7301478
-172.54071 -62.121914 -44.094601 8155755
-152.22198 -62.505116 -81.239319 8092019
-151.52426 -62.420631 -82.043816 11248024
-150.96358 -62.353218 -82.68367 11906207
-150.54169 -62.302753 -83.161545 11906207
-150.60672 -62.139313 -84.858337 10065031
-149.80673 -62.021286 -85.600922 8814710
-149.00447 -61.903687 -86.338081 7893608
-148.52209 -61.833401 -86.777405 8682867
-148.58138 -61.682686 -88.496185 7037274
-147.98778 -61.613903 -89.111626 7037274
-173.55843 -60.602226 -40.632492 6511954
-173.33176 -60.79599 -41.549648 10524299
-173.09944 -61.079403 -42.362465 8814201
-172.9536 -61.113403 -43.358398 8287600
-147.24281 -61.528236 -89.875961 10261900
-146.64478 -61.459831 -90.483963 9209214
-146.27371 -61.284122 -92.700798 7762278
-145.50967 -61.19873 -93.449913 7170141
-144.74232 -61.113617 -94.193268 8091502
-144.31773 -60.936047 -96.405991 10065291
-143.69096 -60.86808 -96.991562 9012605
-142.90512 -60.78336 -97.719246 8288115
-142.43217 -60.73262 -98.153191 10458507
-142.42957 -60.604042 -99.927116 9735039
-174.34093 -59.756878 -39.046783 9538435
-174.35213 -59.817379 -39.821587 8288371
-174.03798 -60.031029 -40.744076 7170141
-173.77971 -60.273876 -41.789135 7630181
-141.78813 -60.536434 -100.49995 7368037
-140.98372 -60.45216 -101.21078 7368037
-140.62128 -60.28801 -103.27292 7959144
-139.80161 -60.203922 -103.97252 8353907
-138.9796 -60.12019 -104.66695 8090221
-138.57004 -59.954369 -106.72567 9339513
-137.72858 -59.868874 -107.40517 9273719
-137.18417 -59.801163 -107.7802 7037274
-137.01952 -59.643681 -109.52545 7826786
-180.28348 -58.7281 -28.296101 8945526
-180.14636 -58.785728 -29.298626 9208435
-180.04051 -58.798466 -30.172863 10129025
-178.82993 -59.196644 -30.859585 10063493
-178.68163 -59.198021 -31.721725 9997960
-178.49028 -59.199734 -32.79837 9011577
-178.33305 -59.201099 -33.65892 8419696
-176.46893 -59.202206 -35.298058 10458505
-176.29936 -59.203541 -36.148762 8485229
-176.08176 -59.205307 -37.211071 7168859
-175.37054 -59.396626 -37.946129 7365983
-175.02942 -59.483463 -38.977757 9538435
-174.935 -59.499756 -39.620689 7038307
-136.26457 -59.545204 -110.00236 6840666
-135.65977 -59.32127 -111.95834 7564392
-134.84959 -59.203148 -112.38706 6511954
-134.80205 -59.054852 -114.002 8287592
-134.00371 -58.94619 -114.43864 7169627
-133.41292 -58.749592 -116.45185 6511954
-132.48276 -58.649208 -117.05278 6511442
-180.74855 -57.79493 -27.239841 9142388
-180.59937 -57.880684 -28.256943 8945784
-180.46764 -57.89468 -29.351318 7564386
-180.30791 -58.126831 -29.994686 9208435
-131.94298 -58.488617 -119.13976 8221541
-131.00835 -58.392658 -119.73531 7366493
-130.43184 -58.229698 -121.82155 7564130
-129.67267 -58.152939 -122.28705 7038298
-129.06187 -57.98777 -124.37325 8352877
-128.09875 -57.891712 -124.9412 10062979
-127.4174 -57.709076 -126.9922 7039331
-126.63727 -57.632713 -127.43636 8815227
-181.18904 -56.741226 -26.563011 8681835
-181.026 -56.979618 -27.430882 7761250
-180.89473 -56.991909 -28.526943 9406079
-180.73515 -57.22319 -29.171635 8616819
-126.59406 -57.541149 -129.23895 8682867
-126.00064 -57.483608 -129.56584 9669504
-125.40691 -57.426163 -129.89064 8486000
-125.29098 -57.23875 -131.33749 8617074
-124.48901 -57.110519 -132.07834 7892583
-124.13482 -56.870319 -132.97635 9997959
-123.4374 -56.844059 -133.51164 9208958
-181.43594 -56.020813 -26.510456 8945268
-181.32135 -56.133457 -27.565563 6775125
-181.16238 -56.320541 -28.34584 6511954
-124.30141 -56.366558 -133.31384 8353905
-123.56331 -56.236134 -133.96844 8222317
-122.96094 -56.149014 -134.5007 8945784
-181.80287 -54.909893 -25.759987 9866115
-181.78125 -55.083313 -26.650753 7498591
-181.58951 -55.418892 -27.517048 5920074
-123.89516 -55.295368 -134.21916 7893868
-123.18623 -55.127537 -134.85443 9537409
-122.47688 -54.96122 -135.48921 8945784
-182.18924 -53.665592 -24.771454 9011065
-182.14912 -53.961105 -25.753601 9405821
-123.38481 -54.093315 -135.17952 9143163
-122.77074 -54.003754 -135.70374 9077114
-121.98837 -53.9412 -136.34766 9077626
-182.53494 -52.587624 -24.073036 7563619
-182.50969 -52.808388 -24.875309 8747893
-182.44897 -53.116882 -25.628193 8879479
-122.91331 -53.19062 -135.97003 8550514
-122.18367 -53.144398 -136.56491 8221549
-121.46146 -52.97348 -137.21193 8485233
-182.76979 -51.908459 -23.880466 8418928
-182.80547 -52.006748 -24.915966 8418928
-122.43954 -52.28896 -136.76178 8089963
-121.65023 -52.198425 -137.42421 8748917
-121.01182 -51.963806 -138.03513 9736836
-183.0835 -50.902496 -23.099979 9142907
-183.1216 -50.980042 -24.061596 8287598
-183.0504 -51.274925 -24.590454 7563619
-122.50513 -51.547703 -137.05518 8813686
-121.94182 -51.239216 -137.64133 8814967
-121.19654 -51.021248 -138.32843 10394257
-120.5329 -51.065651 -138.82935 10788759
-183.42781 -49.827217 -22.396221 8089963
-183.38071 -50.082249 -23.063168 8617075
-183.39584 -50.196949 -23.888187 8617075
-121.46812 -50.079529 -138.55341 9144449
-120.66261 -50.113884 -139.1705 9933449
-120.00679 -49.870956 -139.79906 12432294
-183.71404 -49.016636 -22.251984 8484977
-183.75638 -49.054657 -23.065945 8617075
-183.66223 -49.446171 -23.773338 8617075
-120.93343 -49.112595 -139.4238 10788759
-120.14345 -49.056534 -140.0708 11050900
-119.67422 -48.827644 -140.54619 6511962
-184.06075 -47.905857 -21.395206 8682867
-184.10384 -47.942101 -22.209797 8156268
-184.10887 -48.064411 -22.930561 9734788
-120.53026 -48.17057 -140.1792 8090992
-119.6584 -48.159275 -140.86972 7301220
-119.18791 -47.931091 -141.3457 7564392
-184.48232 -46.625481 -20.724506 8682867
-184.41278 -46.916389 -21.256721 8682867
-184.47273 -46.907097 -22.074451 7826791
-120.51532 -47.50132 -140.5025 9734788
-119.98527 -47.226963 -141.04689 8814200
-119.17113 -47.262447 -141.67024 9142909
-118.69943 -47.034939 -142.14691 6511962
-184.79756 -45.913666 -20.399593 8748401
-184.76991 -46.064205 -21.3582 8287853
-120.00958 -46.455326 -141.3959 8945786
-119.40562 -46.249199 -142.01697 9537665
-118.69723 -46.157482 -142.64005 9406592
-118.24949 -45.735523 -143.34821 9077882
-186.1328 -44.50666 -17.735012 6511962
-185.80362 -44.699257 -18.834442 7564390
-185.31772 -45.13887 -19.553341 8156267
-185.23366 -45.341549 -20.582996 8484973
-119.15111 -45.330978 -143.03299 9998471
-118.54997 -45.120846 -143.71069 10064777
-117.76204 -45.075165 -144.37459 8090987
-117.06825 -44.907547 -145.08336 10851980
-192.49632 -43.811237 -5.7435713 9012089
-192.53917 -43.826611 -6.4416227 8879479
-192.0018 -44.085968 -7.1198072 8616819
-191.7655 -44.16909 -8.2690077 9471871
-189.42445 -44.172737 -11.608401 7564899
-189.35454 -44.174679 -12.749988 8287597
-187.02011 -44.186943 -15.999782 8813679
-187.02318 -44.212185 -17.135597 8089960
-117.75256 -44.613407 -145.56903 10458250
-116.8717 -44.611618 -146.26964 9604737
-116.45728 -44.47678 -147.1946 9012344
-116.03946 -44.343117 -148.12209 9604224
-115.14941 -44.343498 -148.81987 9472126
-113.91333 -44.348701 -152.44452 9144190
-112.99708 -44.34903 -153.12912 6840919
-111.81703 -44.033054 -156.0287 11710114
-111.15498 -43.724972 -156.45184 12039079
-192.73619 -43.11235 -5.5188246 8617075
-192.79358 -43.132519 -6.4506559 8155756
-111.94373 -43.065372 -156.36308 10065033
-111.18787 -42.985355 -156.7363 9670019
-193.13943 -41.843819 -4.6461515 9011577
-193.16043 -41.954338 -5.5318174 7893096
-193.03383 -42.432701 -6.2262831 7563619
-111.50615 -42.118301 -156.94359 9538689
-110.7419 -42.008251 -157.33267 8222315
-193.48372 -40.762997 -3.9088392 8879991
-193.5275 -40.776199 -4.6096525 8879991
-193.57109 -40.789852 -5.3109999 8682867
-111.4937 -41.189335 -157.3251 7038298
-110.73582 -41.111416 -157.69827 9011573
-193.85037 -39.585464 -2.9822645 8419696
-193.8094 -39.830032 -3.6824369 8879991
-193.83476 -39.923161 -4.5396299 9340286
-110.96552 -40.316025 -157.91656 8485229
-110.19958 -40.208023 -158.30556 9932676
-194.12445 -38.807758 -2.8310423 9406846
-194.14198 -38.948978 -3.8297834 9472127
-110.98936 -39.542381 -158.21881 8485229
-110.25981 -39.328011 -158.63452 8879988
-109.80629 -39.031944 -158.95877 8682867
-194.47278 -37.708626 -2.0556898 10655889
-194.45815 -37.908478 -2.8992491 9932678
-194.40614 -38.20145 -3.694911 9209467
-110.51411 -38.244675 -158.95819 8946038
-109.74048 -38.332367 -159.27148 9735296
-194.71402 -37.005573 -1.8240539 8880250
-194.77382 -37.020084 -2.7636747 10064264
-109.98709 -37.177746 -159.62747 9801089
-109.26172 -37.035885 -160.01187 9998211
-195.01079 -36.061493 -1.1224319 9340287
-195.07098 -36.075161 -2.0632582 9406335
-110.01924 -36.013435 -160.08409 9077624
-109.37524 -35.991638 -160.38324 8682867
-108.78059 -35.738926 -160.75357 8682867
-195.35318 -35.126236 -1.1251937 9406079
-195.32788 -35.373562 -2.0664473 9208955
-109.48538 -35.140472 -160.68176 7959144
-108.71707 -35.038811 -161.07538 7038302
-195.73761 -33.845867 -0.37364495 9471616
-195.71338 -34.142319 -1.1279708 9142908
-109.51115 -34.36425 -160.99536 7761509
-108.91809 -34.1129 -161.37173 8551540
-108.27503 -34.093811 -161.67355 16775151
-196.02592 -32.498413 0.52216041 8681843
-195.99197 -32.991451 -0.091540456 9340029
-109.0311 -33.26049 -161.67743 7630185
-108.26059 -33.160477 -162.07135 10591127
-196.27379 -31.74168 0.66411293 9734787
-196.37877 -32.058449 -0.18677056 10458510
-108.57976 -32.281666 -162.29401 7564651
-107.81596 -32.213978 -162.67136 8156525
-196.57687 -30.75979 1.3910722 9603196
-196.65205 -30.937983 0.60197914 8681843
-108.03006 -31.287861 -162.99255 8287849
-107.23787 -31.038479 -163.4989 5919050
-197.05904 -29.836966 2.3444719 11575961
-197.12785 -30.013426 1.5536088 8550763
-108.28851 -30.619177 -163.38037 8813936
-107.52561 -30.377941 -163.93463 6511442
-107.13316 -29.87355 -164.7691 8419952
-106.47442 -29.727303 -165.34518 8617330
-106.21481 -29.378075 -166.69174 8222573
-105.3744 -29.367262 -167.14011 8814710
-169.76665 -65.54493 -49.585644 8682355
-171.22823 -64.95356 -47.224186 8089964
-171.02412 -65.098602 -48.166931 7301222
-170.82014 -65.173553 -49.13229 7630185
-170.30103 -65.298447 -50.18549 9405822
-169.54668 -65.387054 -50.720829 9997701
-169.28372 -65.321503 -51.44347 9010806
-166.25063 -64.771744 -58.061577 8617079
