# .PCD v0.7 - Point Cloud Data file format
VERSION 0.7
FIELDS x y z rgb
SIZE 4 4 4 4
TYPE F F F U
COUNT 1 1 1 1
WIDTH 1178
HEIGHT 1
VIEWPOINT 0 0 0 1 0 0 0
POINTS 1178
DATA ascii
-127.16066 -61.272415 -77.453224 9734788
-126.78097 -61.141712 -78.131401 8616307
-126.56103 -61.016254 -79.897659 7563619
-126.06674 -60.871513 -80.012405 7563619
-125.18855 -60.86898 -83.308708 9208442
-124.59077 -60.686993 -85.310173 9143166
-123.85582 -60.580132 -85.907333 8945529
-166.1008 -59.465397 16.43672 9011323
-165.93539 -59.749844 15.572355 8748665
-165.85934 -60.066898 14.678148 8617337
-123.58209 -60.482979 -86.823387 10851980
-123.30045 -60.385475 -87.73632 10851980
-122.70949 -60.263016 -88.658424 9734269
-122.41685 -60.146011 -89.796623 7497824
-121.65693 -60.038994 -90.371452 10655626
-121.80733 -59.947437 -91.621918 11445653
-121.03652 -59.840218 -92.188972 10589577
-121.01695 -59.725487 -93.559029 9931647
-120.39137 -59.639565 -94.005714 8089959
-169.77118 -58.852188 24.914564 7958886
-169.49606 -59.072845 24.039389 7958884
-169.61206 -59.074398 23.22188 7367005
-168.38979 -59.075443 22.018217 7300958
-168.49576 -59.076973 21.205969 8550257
-168.57281 -59.078125 20.596552 10853012
-167.32747 -59.078739 19.622816 8418927
-167.44508 -59.080635 18.613886 7038307
-166.53651 -59.190113 17.495028 8551287
-166.76805 -59.243515 16.707113 7038307
-120.29485 -59.493183 -95.333199 8813945
-119.58827 -59.37133 -95.715446 9734788
-119.46041 -59.215954 -97.032852 7893353
-118.93932 -59.087433 -98.043655 8813940
-118.60351 -58.996231 -98.968803 10261132
-117.97224 -58.919689 -99.410118 10261132
-117.91478 -58.812546 -100.82235 7630443
-117.27482 -58.735744 -101.25727 7038307
-117.20102 -58.627026 -102.67571 10261644
-116.55231 -58.550171 -103.1041 12432037
-169.90836 -57.685665 25.770845 9144186
-170.11525 -58.006939 25.131929 7629923
-116.22761 -58.511761 -103.31683 12432037
-116.46226 -58.439846 -104.52856 8946044
-115.6404 -58.34367 -105.05495 8880250
-115.69839 -58.250954 -106.38078 8090475
-114.86576 -58.154602 -106.89866 7563619
-114.91251 -58.061878 -108.23493 9011320
-114.08946 -57.975559 -108.76331 7169629
-114.15253 -57.896904 -110.13707 7761510
-113.31948 -57.810928 -110.6581 8616820
-113.33907 -57.716099 -112.0124 9537406
-112.63795 -57.633965 -112.39725 13550517
-170.24377 -56.806255 25.820646 11249306
-112.4624 -57.514477 -113.84936 7629670
-111.75304 -57.432217 -114.22655 7893358
-111.91892 -57.352352 -115.49772 8880502
-111.20168 -57.269936 -115.86906 6511954
-110.99545 -57.147247 -117.33318 9537918
-110.52488 -57.043957 -118.25191 12761259
-110.04655 -56.94038 -119.16579 8419698
-109.81322 -56.814568 -120.64445 7038298
-109.25744 -56.752434 -120.90797 8813936
-109.25321 -56.675423 -122.36972 7893349
-108.71172 -56.623737 -122.6517 8419439
-170.18274 -55.884171 26.650343 8092011
-170.46806 -55.947021 26.064013 8092011
-108.16989 -56.572151 -122.93171 8090987
-108.34085 -56.515965 -124.32158 9735297
-107.79255 -56.464115 -124.59772 9735297
-107.77101 -56.3894 -126.09223 8090987
-107.03118 -56.319981 -126.45376 8090987
-106.80863 -56.226307 -128.04828 6511954
-106.24708 -56.174076 -128.31396 6511954
-106.19749 -56.09623 -129.83009 9405304
-105.43998 -56.026299 -130.17741 9405304
-104.8014 -55.894352 -131.95981 9538433
-104.52927 -55.794888 -133.57983 8090987
-103.94326 -55.739441 -133.82355 8617331
-103.84525 -55.653446 -135.36409 9208694
-103.45042 -55.616371 -135.52353 9208694
-170.58104 -54.837425 26.711351 6971737
-103.05543 -55.579296 -135.68193 7564384
-103.14207 -55.510288 -137.15469 5920074
-102.54339 -55.454468 -137.38808 5919562
-102.41956 -55.365429 -138.95166 7366751
-101.81451 -55.309399 -139.17975 6905944
-101.47372 -55.200012 -140.82932 7893612
-100.86225 -55.143764 -141.05154 7564651
-100.70989 -55.05154 -142.63713 9538438
-100.09219 -54.995171 -142.85385 9538438
-99.926353 -54.901253 -144.45123 7564643
-99.302238 -54.844776 -144.66245 7564643
-99.122841 -54.749218 -146.27167 10459279
-98.492424 -54.692566 -146.47717 11906725
-98.511429 -54.614441 -148.03157 8617334
-170.59679 -53.709885 27.555864 7366751
-170.88379 -53.769634 26.968702 7169116
-98.086891 -54.576401 -148.16541 7039331
-97.662476 -54.538555 -148.29819 7039331
-97.455284 -54.43977 -149.93159 9537663
-97.383507 -54.217709 -151.00594 8617331
-96.915489 -54.018379 -151.47626 7564643
-96.275093 -53.826126 -152.08061 8617331
-170.9147 -52.872322 27.606043 8090730
-97.024612 -53.454037 -152.04758 9735555
-96.298546 -53.215145 -152.52135 8814454
-170.84859 -51.957691 28.440233 8748660
-171.21629 -51.805199 27.865438 8551281
-96.601326 -52.243084 -152.79599 8880503
-96.139412 -52.120842 -153.08186 8617331
-171.29091 -50.790665 28.51235 7169885
-96.354576 -51.029778 -153.42281 9735296
-171.25636 -49.789631 29.354685 8090987
-171.54613 -49.843807 28.766333 12892591
-171.61302 -48.846367 29.414602 10327434
-171.78445 -49.21442 28.805578 11577245
-171.66074 -47.623512 30.274019 8617590
-171.8918 -47.952099 29.583296 9275262
-171.95432 -46.735428 30.410009 9603969
-172.1902 -47.044704 29.725199 7039331
-172.0771 -45.693329 31.201368 8617590
-172.27054 -45.987476 30.465216 9603969
-172.63261 -44.605724 32.162197 8813171
-172.56015 -45.052467 31.360346 9340285
-175.31665 -44.052177 38.61364 7039331
-175.50253 -44.053841 37.767982 8089963
-173.9413 -44.055771 35.894707 10261132
-174.11385 -44.057415 35.055519 9997703
-173.26428 -44.227314 33.14642 9207928
-163.70918 -69.800858 7.9938645 7958377
-163.58371 -70.095795 7.0127854 8418928
-163.16917 -70.302666 6.0749345 7695205
-163.08093 -70.251144 5.0868058 8616307
-161.93939 -70.227783 4.266871 7563619
-161.7977 -70.157623 3.2867455 8353393
-161.65112 -70.087845 2.3084207 8353651
-161.49913 -70.018356 1.3320527 8156267
-160.39314 -70.011208 0.74003834 7761509
-160.23495 -69.942627 -0.2270599 7696490
-160.03864 -69.860809 -1.3851142 7039331
-159.8698 -69.792931 -2.3480544 8946555
-159.38794 -69.746315 -3.1749053 9866371
-158.58829 -69.717415 -3.8626075 9932163
-158.34335 -69.622414 -4.8125052 11905692
-158.03619 -69.505844 -5.9484992 9011833
-157.828 -69.428482 -6.703733 11380380
-164.00633 -68.888092 8.6418018 9405823
-164.20139 -68.955223 7.938086 9142651
-157.7227 -69.389854 -7.0805602 10985628
-157.50954 -69.312988 -7.8326926 14802909
-157.23784 -69.216415 -8.7704411 10855060
-156.95871 -69.119247 -9.7048931 8288627
-156.18835 -69.039146 -10.604734 7696486
-155.47391 -68.979248 -11.311422 10459278
-155.18547 -68.883812 -12.231859 9207928
-154.89302 -68.788879 -13.149504 11378324
-154.59587 -68.694435 -14.063906 8484719
-154.2338 -68.581657 -15.157385 7826791
-153.92755 -68.488136 -16.065405 7563619
-153.74164 -68.432289 -16.608732 8418928
-164.14142 -67.681595 9.679636 7630180
-164.28769 -67.903374 8.943449 8550514
-153.55417 -68.376579 -17.150816 7564651
-153.26149 -68.294449 -18.054613 9011581
-152.9798 -68.219315 -18.957525 7037790
-152.69298 -68.14444 -19.857626 7827302
-152.34279 -68.054901 -20.934244 7169628
-151.55635 -67.988365 -21.759611 9472383
-150.82819 -67.937202 -22.399603 9736329
-150.52577 -67.863785 -23.283241 9341571
-150.15709 -67.776001 -24.340059 9736328
-149.84488 -67.703178 -25.217749 11249052
-149.52798 -67.630539 -26.092487 10656916
-149.14188 -67.543747 -27.138601 10590608
-148.81541 -67.471657 -28.007317 10129801
-164.44391 -66.810371 9.7759991 8682356
-164.60674 -66.986198 9.0429134 7563619
-148.46057 -67.389252 -28.868479 8418927
-147.99529 -67.275345 -29.89113 11313046
-147.60341 -67.180862 -30.739687 10261132
-147.20735 -67.086876 -31.584566 9340284
-146.72716 -66.974579 -32.594002 7958890
-146.24142 -66.862854 -33.598362 8090989
-146.33105 -66.741447 -34.659683 8090220
-146.02592 -66.657974 -35.407089 7892584
-145.82495 -66.537354 -36.475887 8616307
-145.48552 -66.463829 -37.137783 7038307
-164.5397 -65.966751 10.497564 9011321
-164.79221 -65.947456 9.7161617 9077114
-145.22932 -66.408875 -37.632484 7827565
-144.88568 -66.33593 -38.290199 9143167
-144.45264 -66.245071 -39.108994 8946044
-143.92844 -66.136597 -40.087036 9077886
-143.399 -66.028763 -41.059883 10591383
-142.95401 -65.939293 -41.866783 9077889
-142.68086 -65.83271 -42.815845 11577503
-142.68431 -65.734184 -43.754799 10985364
-142.35156 -65.63118 -44.874977 9932677
-141.81854 -65.537102 -45.837372 13880252
-164.90813 -64.819801 10.719305 9339771
-165.02019 -65.121376 9.9949055 9734788
-141.33464 -65.442589 -46.624046 12959151
-140.84406 -65.347084 -47.405567 10195335
-140.2511 -65.233017 -48.338379 7300957
-140.10242 -65.108803 -49.423027 8156008
-140.04613 -65.00341 -50.352394 9536891
-139.53633 -64.909111 -51.121014 6314578
-138.92032 -64.79641 -52.038212 7893356
-138.40349 -64.702965 -52.798317 9734788
-138.55734 -64.548012 -54.197479 7565675
-165.03311 -63.830032 11.52569 9734014
-165.25436 -63.895248 10.740976 9734014
-138.02818 -64.455002 -54.952244 7038307
-136.75171 -63.930519 -57.522255 7630443
-136.17006 -63.652901 -59.803303 6511954
-135.7428 -63.521282 -60.007141 6511954
-165.3334 -62.909794 11.688623 9536636
-165.50668 -63.05724 10.95693 10260101
-135.31537 -63.389656 -60.209511 6511954
-134.91187 -63.216393 -62.575962 9538694
-134.15192 -63.002987 -63.012604 9538694
-133.88805 -62.916599 -65.463417 8419952
-133.09795 -62.694988 -65.875137 8156780
-132.51506 -62.519661 -68.389809 9537664
-165.51497 -61.773743 12.493017 9405820
-165.63762 -62.049232 11.76663 9142135
-131.90111 -62.34753 -68.678986 10853012
-131.51018 -62.245689 -71.110939 10262155
-130.77562 -62.020767 -71.327583 10262155
-130.42207 -61.957397 -73.803047 8814709
-129.80304 -61.748753 -73.868172 6511954
-129.12421 -61.594421 -76.388702 9405046
-165.79323 -60.656536 13.384432 8617337
-165.87534 -60.897396 12.586424 9537921
-165.9753 -61.146427 11.789854 9011579
-128.48466 -61.378223 -76.430855 9405046
-128.28906 -61.476074 -79.266243 8287342
-127.53669 -61.299492 -79.653679 8024170
-126.98061 -61.157871 -81.877113 7498598
-126.11909 -61.029121 -82.618553 7498598
-126.19999 -60.923172 -83.977348 7761512
-125.61593 -60.837147 -84.46479 8024942
-125.03071 -60.751347 -84.949333 7038307
-125.08774 -60.643147 -86.311546 10261132
-124.49335 -60.55703 -86.790237 9143166
-166.38545 -59.520916 15.048368 8617337
-166.44267 -59.633293 14.244783 8617337
-166.28685 -60.036575 13.424078 9077630
-166.28378 -60.346539 12.617338 10458507
-124.19569 -60.514091 -87.02813 8287600
-124.23299 -60.404045 -88.395256 6905689
-123.47765 -60.296314 -88.983147 8484205
-123.49715 -60.184364 -90.355782 7760739
-122.73015 -60.076504 -90.93457 9274745
-122.7317 -59.962654 -92.312645 10459017
-122.10907 -59.876266 -92.768745 10524041
-121.78993 -59.775398 -93.687187 11642008
-121.46297 -59.674114 -94.602173 7958118
-120.82476 -59.584793 -95.04425 8813945
-170.34669 -58.427166 24.370165 7037274
-170.51018 -58.810085 23.765253 7038041
-169.69604 -59.075562 22.60829 8616561
-169.83128 -59.077496 21.585081 9010808
-168.64737 -59.079273 19.986704 10853012
-168.76677 -59.081188 18.969801 9077373
-167.51276 -59.081768 18.008307 7038307
-167.59911 -59.083279 17.200296 10130059
-167.29706 -59.176079 16.149881 10656658
-167.08757 -59.303997 15.113039 7564643
-120.69576 -59.423038 -96.358208 7038307
-120.37898 -59.22979 -97.774422 7038307
-119.70728 -59.131477 -98.190033 7367012
-119.6694 -59.024464 -99.609154 9011320
-118.87295 -58.927959 -100.16383 10261132
-118.9799 -58.839413 -101.48036 11380124
-118.17226 -58.742702 -102.0269 9932937
-118.10149 -58.633186 -103.45971 7038307
-117.61042 -58.575024 -103.78271 8288112
-170.58769 -57.797745 24.403936 8024169
-170.87263 -57.86507 23.814871 9011320
-117.11881 -58.517056 -104.10387 9537918
-117.35938 -58.444538 -105.32883 8485494
-116.69561 -58.36697 -105.7521 7498857
-116.59177 -58.254169 -107.19727 10262156
-115.91951 -58.17651 -107.61372 9208956
-115.80946 -58.067299 -109.07464 6511954
-115.1475 -57.999069 -109.5021 7564130
-114.7142 -57.8685 -111.20803 9011576
-114.03959 -57.798443 -111.62452 8090987
-113.87945 -57.679691 -113.08427 8221548
-113.17132 -57.596935 -113.46903 7563619
-170.81404 -56.936256 24.645323 9669250
-112.99393 -57.476444 -114.93406 7169632
-112.80713 -57.354523 -116.40893 7367263
-112.08278 -57.271442 -116.78123 7367263
-112.06159 -57.168579 -118.16936 9340796
-111.3292 -57.085381 -118.53504 9537918
-111.29446 -56.980927 -119.93095 10787729
-110.55402 -56.897629 -120.28931 9471867
-110.51472 -56.796165 -121.703 7433055
-109.79414 -56.727158 -122.08533 9734779
-109.61839 -56.637306 -123.66842 9997957
-109.07117 -56.585262 -123.94988 11379607
-170.92928 -55.822063 25.291925 9735301
-171.13535 -56.096455 24.690977 10985366
-108.70608 -56.550568 -124.13624 11379607
-108.87937 -56.493813 -125.54212 9735297
-108.32537 -56.441612 -125.81812 8880246
-108.30422 -56.366074 -127.32898 7761509
-107.55669 -56.296078 -127.69025 7761509
-107.33254 -56.2015 -129.30132 9011320
-106.76511 -56.148815 -129.56673 9931650
-106.71555 -56.070236 -131.09955 9538171
-105.95027 -55.999805 -131.44638 9736064
-106.07983 -55.937374 -132.90495 9867907
-105.30573 -55.866589 -133.24542 8617331
-105.02946 -55.765038 -134.8799 8814710
-104.43741 -55.709194 -135.12305 8814710
-104.33907 -55.622318 -136.68086 7564384
-171.17278 -54.835762 25.597715 7827306
-103.74063 -55.566254 -136.91882 5920074
-103.62933 -55.477791 -138.48834 6445650
-103.02453 -55.421566 -138.72101 6906200
-102.90016 -55.331554 -140.30225 6510930
-102.28884 -55.275063 -140.52963 6510930
-102.15124 -55.183514 -142.12283 9209467
-101.53354 -55.126854 -142.34465 7564651
-101.38254 -55.033665 -143.94983 8617331
-100.75846 -54.976837 -144.16618 7564643
-100.59382 -54.882011 -145.78348 7564643
-99.963387 -54.825073 -145.9942 8288110
-99.785027 -54.728657 -147.62366 7564651
-99.148132 -54.671455 -147.82861 9341312
-171.26711 -53.850445 26.183897 6905944
-171.55501 -53.911877 25.593775 7038307
-98.955894 -54.573391 -149.47046 10260873
-98.408318 -54.440414 -149.94504 9669250
-98.108536 -54.0756 -150.93134 10064006
-97.640526 -53.875744 -151.40256 8617331
-171.55272 -52.906555 26.377413 8419698
-98.241753 -53.279213 -151.53217 10129542
-97.552116 -53.212635 -151.90463 9932934
-171.61409 -51.794296 27.124117 10984599
-171.8026 -52.035912 26.58153 9866373
-97.824898 -52.256363 -152.16702 8617331
-97.162819 -52.061432 -152.5849 9012089
-171.90416 -50.813309 27.338655 11248027
-97.431847 -51.10305 -152.84358 9735296
-96.742271 -51.040062 -153.22099 10787726
-171.92732 -49.840858 28.049826 8879990
-172.13252 -50.030392 27.515993 8287853
-97.498245 -50.182007 -153.19022 10261383
-96.720993 -50.161228 -153.59471 10787726
-172.27895 -48.800407 28.194803 7432801
-172.46358 -49.34198 27.426161 6511954
-97.072517 -49.126682 -153.84369 9077367
-172.33537 -47.668163 28.967379 8616817
-172.54204 -47.855164 28.432558 5392706
-97.305748 -48.197937 -154.10933 8682867
-96.958862 -47.969112 -154.38062 8617075
-172.6172 -46.850437 29.070898 7038816
-172.8732 -47.165318 28.343832 7169629
-97.088791 -47.312092 -154.58647 8617075
-172.85927 -45.495369 30.053804 7433063
-172.84373 -46.083786 29.279573 7039073
-173.13835 -44.710953 30.819151 9669506
-173.31717 -44.91946 30.133383 8617078
-177.34097 -43.639893 39.736416 9011576
-177.13115 -44.052284 39.465393 8353646
-175.63937 -44.055092 37.133156 9537409
-175.77376 -44.056335 36.497791 9537409
-175.90611 -44.057587 35.861958 10261132
-174.36545 -44.059875 33.795456 10128773
-174.56844 -44.06192 32.744064 10062979
-173.71423 -44.283436 31.932009 8419183
-174.01262 -44.321507 31.120478 10261385
-177.50198 -43.203773 39.77198 9011576
-164.2885 -69.58815 6.5141969 8484721
-164.01419 -69.988289 5.7908807 8089963
-163.88931 -70.113319 4.7180696 10853012
-162.94135 -70.180367 4.0989442 9734531
-162.7672 -70.095848 2.9159532 8156529
-162.61659 -70.025726 1.9321122 8353651
-162.46049 -69.956032 0.95037311 8156527
-161.34222 -69.949181 0.35758442 6775642
-161.17999 -69.880371 -0.61486202 8683640
-160.97885 -69.798172 -1.7793097 9933448
-160.80583 -69.73011 -2.7474608 9734788
-160.31731 -69.683388 -3.5779662 8551028
-159.50151 -69.651695 -4.2675567 8682099
-159.24559 -69.55368 -5.2221007 10195078
-158.98532 -69.456078 -6.1739898 7696485
-164.41777 -68.820648 7.4123292 9537409
-164.61006 -68.927635 6.6591325 8879479
-158.72012 -69.358948 -7.1227355 8880759
-158.39505 -69.242523 -8.2574368 8091246
-158.11615 -69.144608 -9.1996937 7038307
-157.83205 -69.047073 -10.138746 7433064
-157.54381 -68.949928 -11.074987 8748919
-156.63272 -68.917618 -11.582552 10064006
-156.03612 -68.811188 -12.675337 9602685
-155.73872 -68.715927 -13.597349 10062979
-155.43665 -68.621094 -14.5161 8814710
-155.1306 -68.526741 -15.432058 9275261
-154.88248 -68.451523 -16.162504 9340030
-164.68608 -67.863808 7.7216249 8024170
-164.90387 -67.939201 6.9356294 8155756
-154.71025 -68.402122 -16.710733 7564651
-154.48853 -68.34137 -17.441156 10458767
-154.2076 -68.265594 -18.352015 9735302
-153.92159 -68.190041 -19.259977 8617336
-153.5723 -68.099693 -20.346052 9275004
-153.2762 -68.02475 -21.248224 9472383
-152.97514 -67.949959 -22.147425 9669504
-151.74425 -67.906548 -22.719877 13485239
-151.37627 -67.817963 -23.785992 8092019
-151.06467 -67.744446 -24.671432 9341571
-150.74821 -67.671181 -25.553856 7697005
-150.3627 -67.583603 -26.6092 8551545
-150.03664 -67.51091 -27.48562 10919575
-149.83882 -67.467422 -28.010107 8681843
-164.83287 -66.983696 8.3250599 7563619
-165.08714 -66.929832 7.5801797 7826791
-149.63057 -67.420105 -28.531776 10260359
-149.24367 -67.325233 -29.391777 10918031
-148.85106 -67.229851 -30.248194 10457481
-148.45433 -67.134911 -31.100876 10523787
-147.9733 -67.021584 -32.119633 8879733
-147.7962 -66.899185 -33.202721 7432804
-147.49681 -66.814819 -33.958076 7103837
-147.58575 -66.692429 -35.027786 7169628
-147.0798 -66.58062 -36.033882 9011064
-146.65421 -66.487946 -36.868515 9208703
-165.10069 -65.453018 9.3347645 9734788
-165.1656 -65.935593 8.540308 8484721
-165.38516 -66.007767 7.7527719 7563619
-146.22456 -66.395714 -37.699272 9406082
-145.70441 -66.285583 -38.691616 9406082
-145.26689 -66.194252 -39.514732 8485751
-144.82561 -66.103401 -40.334045 7827822
-144.29135 -65.994904 -41.312508 9735816
-143.75208 -65.887032 -42.285744 7696235
-143.83688 -65.772202 -43.442551 9012088
-143.71793 -65.691437 -44.352016 9538175
-143.28615 -65.61779 -45.166424 8880761
-142.74083 -65.519653 -46.132317 13551545
-165.36992 -64.801628 9.2692966 9405824
-165.5529 -64.905647 8.5594807 9734788
-142.24937 -65.423233 -46.922626 10261385
-141.7543 -65.327126 -47.708767 8419183
-141.15579 -65.212395 -48.646999 7367263
-141.2847 -65.091469 -49.740105 7695714
-140.84778 -64.962265 -50.829166 7892837
-140.33289 -64.867424 -51.601715 6511954
-139.81445 -64.773003 -52.369923 6511959
-139.18822 -64.660263 -53.286644 7893356
-139.44983 -64.523033 -54.543335 10920087
-165.42029 -63.945042 10.151415 9734014
-165.67459 -63.924679 9.3655796 9142394
-138.91599 -64.42942 -55.302349 9012606
-138.37883 -64.336227 -56.057068 10787478
-137.73022 -64.224937 -56.957481 10393486
-137.95825 -64.086456 -58.220512 9998729
-137.29509 -63.975712 -59.114075 7696232
-136.59729 -63.784615 -59.596966 6511954
-136.82887 -63.725994 -61.271156 10261132
-136.42921 -63.643669 -61.685387 8353647
-165.73734 -62.44117 10.971518 10851980
-165.79604 -62.849186 10.287867 9207928
-165.90231 -63.098774 9.6450825 10391687
-135.8584 -63.482357 -62.021297 7564651
-135.48026 -63.376118 -62.244461 10262156
-135.26512 -63.30302 -64.725883 14605262
-134.48129 -63.083473 -65.15081 10985369
-134.10098 -62.955437 -67.576096 9341054
-133.44511 -62.801502 -68.054466 10261388
-132.87495 -62.606709 -70.404381 10195338
-132.48767 -62.544537 -70.813965 10853012
-165.95657 -61.746109 11.119326 8221806
-166.15347 -61.924282 10.274801 8747379
-132.10728 -62.446068 -71.021263 10262155
-131.85146 -62.298077 -72.940704 9998212
-131.183 -62.19088 -73.606934 10984849
-130.64442 -61.967636 -75.594917 8221546
-129.93538 -61.84827 -76.23362 8813683
-129.79558 -61.697887 -77.838966 9734015
-129.12894 -61.604836 -78.50061 9470844
-128.56956 -61.519081 -79.012047 9010550
-166.48973 -60.400326 11.826162 10458507
-166.35619 -60.806087 11.298693 8156529
-166.41472 -61.120121 10.478174 8682357
-128.6937 -61.416401 -80.371277 7958634
-127.83884 -61.286983 -81.127998 11182230
-127.94341 -61.182293 -82.493652 7038307
-127.36362 -61.09576 -82.991341 7761512
-126.63704 -60.987751 -83.609138 7761512
-126.86322 -60.902454 -84.855629 9011321
-125.97705 -60.772629 -85.587494 8090736
-125.88805 -60.641994 -87.083305 8616823
-125.28735 -60.555264 -87.563461 6972762
-166.81026 -59.608475 12.859358 10458507
-166.73712 -59.9534 12.180193 9471872
-166.87849 -60.063839 11.449686 7564651
-124.83602 -60.490341 -87.921432 6116431
-125.17792 -60.422771 -89.063133 6116431
-124.56772 -60.335903 -89.536034 8484205
-123.95645 -60.249256 -90.005928 8484205
-123.97343 -60.136227 -91.389122 7958120
-123.1979 -60.02771 -91.967972 9735039
-123.35397 -59.934589 -93.241844 9471868
-122.5673 -59.825813 -93.812775 10589577
-122.54996 -59.709229 -95.207085 9931136
-121.74434 -59.596729 -95.762444 7497568
-170.89349 -58.711761 23.119398 6840666
-171.20067 -58.904839 22.265471 8682359
-169.96069 -59.07943 20.561064 9931910
-170.05962 -59.080975 19.741274 8616819
-168.90221 -59.083473 17.748663 7038307
-169.00854 -59.085373 16.730406 8354163
-167.76114 -59.086292 15.583044 14077894
-167.87393 -59.10112 14.777487 9735556
-167.3185 -59.349728 13.914797 9143676
-167.47029 -59.381016 13.11466 10458507
-121.81981 -59.475517 -97.010612 8156013
-121.09823 -59.351906 -97.393578 9341313
-120.7998 -59.168903 -98.837746 8683384
-120.14651 -59.082493 -99.27372 10261132
-120.10765 -58.975292 -100.70553 9340542
-119.46377 -58.897507 -101.14979 9735555
-119.40833 -58.788673 -102.58807 8353906
-118.59214 -58.691399 -103.13453 7761772
-118.68372 -58.6003 -104.47055 7038307
-171.23145 -57.904949 23.107992 9735557
-171.36275 -58.212627 22.621984 7038307
-117.85645 -58.502815 -105.00864 9209215
-117.9336 -58.410206 -106.35263 7959407
-117.09548 -58.312611 -106.88226 10656658
-117.15817 -58.218319 -108.23444 10261132
-116.47924 -58.140285 -108.65147 9406079
-116.38824 -58.040115 -110.14431 7761509
-115.71941 -57.971348 -110.57236 10195338
-115.6207 -57.874065 -112.08157 8090987
-114.93658 -57.80209 -112.4968 8880503
-114.78287 -57.684376 -113.97613 13550517
-114.24657 -57.621861 -114.26595 13550517
-171.35631 -56.60429 23.880896 10985366
-171.44472 -57.006866 23.402346 9537922
-113.70998 -57.559437 -114.55383 7563619
-114.07339 -57.500484 -115.74749 11183004
-113.35001 -57.416962 -116.12679 7893610
-113.34219 -57.314777 -117.52026 7367263
-112.79353 -57.252029 -117.79984 9209467
-112.58932 -57.1273 -119.29401 8880248
-111.84954 -57.043594 -119.65935 9143422
-111.62765 -56.917149 -121.1587 9143422
-111.0667 -56.854271 -121.42708 7038298
-111.07543 -56.776356 -122.90762 8616563
-110.34737 -56.706738 -123.28995 9143163
-110.17029 -56.616016 -124.88914 11906208
-171.55815 -55.768406 24.148714 11182747
-171.78987 -56.017616 23.518854 9011320
-109.43289 -56.546165 -125.26366 12168866
-109.61062 -56.488796 -126.68654 9736064
-108.86434 -56.418583 -127.05497 9736064
-108.6549 -56.324669 -128.6731 7761509
-107.89941 -56.25423 -129.03346 7761509
-107.86234 -56.176228 -130.5714 9011574
-107.28907 -56.123234 -130.83646 9274744
-107.23975 -56.043793 -132.38637 9538171
-106.65983 -55.990536 -132.6467 9538171
-106.598 -55.909649 -134.20886 7564643
-105.81572 -55.838219 -134.54832 7893608
-105.53544 -55.73473 -136.19791 9735812
-104.93731 -55.678425 -136.4404 9735812
-171.69823 -54.625813 24.770605 7038307
-171.83211 -54.929359 24.282988 10459283
-104.83866 -55.590633 -138.01584 6445650
-104.23411 -55.534164 -138.25316 6445650
-104.12237 -55.444729 -139.8405 6445650
-103.51125 -55.388096 -140.07245 7893351
-103.38641 -55.297119 -141.67184 7366751
-102.76884 -55.240276 -141.89838 7366751
-102.63052 -55.147701 -143.51001 7563619
-102.00658 -55.090591 -143.73102 8617331
-101.85479 -54.996384 -145.35489 10854036
-101.2243 -54.939198 -145.57022 8090987
-101.05883 -54.843353 -147.20644 11381404
-100.42194 -54.785912 -147.41608 8814971
-100.382 -54.667183 -148.88583 8814971
-99.775352 -54.629047 -149.1436 11381404
-171.8434 -53.974159 25.002111 7038307
-172.1322 -54.037144 24.409266 8090994
-99.796761 -54.447632 -149.69176 9735044
-99.438927 -54.101593 -150.35254 10786959
-98.811874 -53.920856 -150.81876 11576217
-172.11674 -52.440777 25.675947 11380383
-172.15323 -52.959694 25.20479 8090994
-99.516304 -53.394409 -150.83517 9143161
-98.961937 -53.020004 -151.27226 8682867
-98.374138 -52.624588 -151.73508 8682867
-172.26086 -51.789841 25.90888 9537667
-172.55132 -51.849651 25.315271 7038307
-99.088005 -51.987823 -151.63426 9406076
-98.391762 -51.892792 -152.02827 9143161
-172.48509 -50.928627 26.154085 8419701
-98.682869 -51.095654 -152.20915 9800579
-97.949989 -50.854084 -152.68239 9735296
-172.59499 -49.818771 26.808271 8879734
-172.88675 -49.87571 26.214067 7432808
-98.772881 -50.262489 -152.50766 9471872
-98.081429 -50.198315 -152.88638 8682867
-172.89867 -48.747501 27.067526 6577236
-98.992416 -49.56472 -152.68469 9734788
-98.301109 -49.10466 -153.22711 9735297
-97.608788 -48.645809 -153.76962 9735296
-172.92638 -47.85033 27.711771 7169629
-173.21953 -47.904449 27.117071 7169629
-98.376091 -48.079178 -153.61331 10064007
-97.761543 -47.879448 -154.009 9143162
-173.26759 -46.860901 27.836615 7433057
-173.46049 -47.271751 27.154039 10855060
-97.91436 -47.112431 -154.24866 9143163
-97.175392 -46.873711 -154.72382 8617075
-173.40526 -45.65015 28.773008 8222831
-173.37865 -46.205288 28.139627 8354415
-98.106003 -46.242729 -154.54935 9143163
-97.519371 -46.228981 -154.85674 9143163
-174.30983 -44.360416 30.307299 10261385
-173.9306 -44.701641 29.593241 8617078
-173.96251 -44.987694 28.808008 7959917
-97.736778 -45.479336 -155.33801 9735043
-177.62895 -43.783981 38.902466 10656401
-177.46065 -44.055237 37.969494 8221548
-176.03578 -44.058826 35.225716 8616566
-176.20535 -44.060486 34.376587 11049874
-174.76735 -44.064598 31.691874 10787471
-174.58034 -44.213451 30.788691 9406335
-177.8456 -42.562096 39.622963 10262156
-177.9826 -42.961727 39.054085 10854037
-178.0994 -41.816441 39.723728 8222060
-178.39397 -41.94582 39.068104 7039331
-178.4301 -40.881168 39.826508 8156011
-178.71196 -39.923126 40.039085 7761253
-164.61559 -69.589096 5.3355927 9866630
-164.67575 -69.772102 4.4636636 10195594
-164.17491 -70.031975 3.6570153 8353392
-163.74529 -70.033386 2.5406175 7038307
-163.59058 -69.96302 1.5513749 8813945
-163.46289 -69.90696 0.76135486 11380895
-162.29961 -69.886581 -0.029492915 9077883
-162.13327 -69.817513 -1.0073256 8683640
-161.92712 -69.735031 -2.1780868 7697004
-161.75002 -69.666626 -3.1515899 8814457
-161.25467 -69.619881 -3.985765 9077372
-160.41602 -69.582642 -4.6769385 9209212
-160.15518 -69.484192 -5.6363921 9867140
-164.88744 -68.636192 6.1396737 8089963
-165.02585 -68.922226 5.3485322 8550514
-165.13922 -69.19973 4.55617 9537665
-159.88992 -69.386169 -6.5930305 7696485
-159.61971 -69.288635 -7.5466285 8880759
-159.3423 -69.190353 -8.4972248 5392706
-159.05862 -69.091835 -9.4445171 5919309
-158.71236 -68.974159 -10.577398 8485494
-158.41908 -68.876694 -11.518141 9932934
-157.54155 -68.828781 -12.156569 10393485
-156.95369 -68.75705 -12.93804 9405307
-156.65184 -68.661354 -13.864923 9208954
-156.28624 -68.547997 -14.973387 9406847
-156.00386 -68.465805 -15.896559 8354159
-165.19974 -67.809608 6.1502557 8221550
-165.27705 -68.150497 5.4889627 8550514
-155.7283 -68.389069 -16.817881 7892843
-155.4482 -68.312614 -17.736704 8617080
-155.16298 -68.236382 -18.652723 12629418
-154.81459 -68.145248 -19.748369 9143418
-154.51921 -68.069565 -20.658476 9538432
-154.21883 -67.994125 -21.565653 9867141
-153.85229 -67.904007 -22.650606 12037793
-152.60788 -67.860626 -23.222879 9406589
-152.29684 -67.786407 -24.116175 8090987
-151.98094 -67.712509 -25.006399 7697005
-151.6608 -67.63884 -25.89403 9341060
-151.33577 -67.565399 -26.778587 10919834
-150.93991 -67.477692 -27.836353 10130319
-165.30479 -66.794525 7.0511956 8616564
-165.50148 -66.901505 6.2938714 8616822
-150.58374 -67.395279 -28.710728 9800062
-150.19099 -67.298912 -29.57552 10457481
-149.71469 -67.183914 -30.608828 11378581
-149.31355 -67.088486 -31.466213 9537659
-148.90828 -66.993477 -32.319759 6775130
-149.01395 -66.870178 -33.396751 6906461
-148.85539 -66.737587 -34.56855 7498592
-148.43335 -66.643501 -35.415287 8484973
-148.00719 -66.549812 -36.258183 10852496
-147.66386 -66.475212 -36.930229 9932169
-165.65344 -65.787987 7.1648927 7892842
-165.76921 -66.137871 6.3700585 7564392
-147.4046 -66.419456 -37.43248 9932169
-147.05696 -66.345337 -38.100235 11379356
-146.61882 -66.253052 -38.931591 7498601
-146.08852 -66.142937 -39.924526 9341057
-145.64268 -66.051628 -40.748051 8880507
-145.19298 -65.960747 -41.567711 8419958
-144.65646 -65.855751 -42.548882 6249039
-144.9026 -65.763283 -43.665352 10985621
-144.57983 -65.663521 -44.805717 12366761
-144.14348 -65.589432 -45.624672 9341313
-143.76892 -65.520134 -46.270073 9341313
-165.71822 -64.959038 7.9674821 8616307
-165.97426 -64.904091 7.2181649 7827304
-143.47215 -65.461769 -46.748131 9341313
-143.07423 -65.384239 -47.382835 11116949
-142.57405 -65.287643 -48.173038 8486003
-142.07031 -65.191475 -48.959007 7170658
-142.38023 -65.054741 -50.217834 9406334
-141.76097 -64.939758 -51.155521 8616303
-141.24138 -64.844322 -51.932575 6511954
-140.7182 -64.749344 -52.705257 6511956
-140.25999 -64.620239 -53.790279 10525074
-140.45946 -64.516602 -54.739853 11906725
-165.98416 -63.429626 8.9814434 10851980
-166.05083 -63.911106 8.1828899 8287600
-166.27211 -63.982101 7.3908296 8090469
-140.13705 -64.459976 -55.198921 10459537
-139.8134 -64.403549 -55.65638 9736071
-139.27141 -64.309792 -56.415371 9801351
-138.61707 -64.197807 -57.320923 8683128
-138.84885 -64.05838 -58.592968 9538435
-138.17982 -63.946976 -59.491653 7169117
-137.61906 -63.854561 -60.236073 7761509
-137.3533 -63.754375 -61.10844 10261132
-137.29282 -63.640377 -62.271614 6510930
-136.72939 -63.554237 -63.01239 8748407
-166.25397 -62.777958 8.9149761 10325894
-166.44975 -62.961292 8.0677471 8287600
-136.36493 -63.491325 -63.443398 9538694
-135.99936 -63.428467 -63.872471 9538694
-136.02713 -63.329189 -64.887413 11774883
-135.60315 -63.205982 -65.891022 8814200
-134.85403 -63.080524 -66.736862 8748917
-134.70186 -62.978996 -67.674179 9406591
-134.5419 -62.877197 -68.609596 9801092
-133.77475 -62.752052 -69.44191 9077369
-133.60365 -62.649662 -70.377296 8287853
-133.42479 -62.547058 -71.310738 8089963
-166.37996 -61.716717 9.8057079 9536894
-166.52586 -61.98904 9.0092411 9734016
-166.6714 -62.262901 8.212038 8287600
-132.63997 -62.422344 -72.129242 8551025
-132.6521 -62.278004 -73.588684 12432037
-131.98535 -62.174206 -74.262291 12695209
-131.31621 -62.070744 -74.931206 10590092
-131.56924 -61.966045 -76.126007 7037274
-130.75246 -61.841919 -76.920631 8090219
-130.5295 -61.737217 -77.850754 11051418
-130.32605 -61.644997 -78.794777 8023913
-129.68135 -61.565346 -79.475616 8287084
-166.79768 -60.483311 10.636602 7564651
-166.81219 -60.805294 9.8303928 8747892
-166.77406 -61.223782 9.1563244 10590091
-129.26183 -61.502907 -79.86277 7563619
-129.67368 -61.442856 -80.978981 8682611
-129.09837 -61.355873 -81.487038 8222065
-128.37723 -61.247311 -82.117783 7893358
-128.4798 -61.141544 -83.493858 8814201
-127.74634 -61.032734 -84.11602 7762022
-127.68211 -60.903263 -85.621773 9011321
-126.936 -60.794228 -86.234406 9537410
-126.66923 -60.695854 -87.171669 8617333
-126.39436 -60.597095 -88.105865 6643540
-167.54533 -59.396893 12.714334 9011579
-167.56165 -59.496826 11.801939 9340543
-167.33679 -59.822803 10.806089 11247763
-167.2383 -60.161625 10.057825 9932163
-125.63466 -60.488098 -88.705772 5985356
-125.82738 -60.39801 -89.977638 8747633
-124.90175 -60.266911 -90.687386 9865600
-125.07872 -60.174934 -91.966896 7563619
-124.29578 -60.065502 -92.54969 7563619
-124.30007 -59.949863 -93.952393 7037274
-123.66451 -59.862206 -94.411552 10786445
-123.02811 -59.774651 -94.867683 9931136
-123.00795 -59.65699 -96.272652 7497568
-122.36089 -59.568539 -96.720879 8484205
-171.58153 -58.727665 21.810556 8617337
-171.53763 -58.967674 21.049086 8287600
-171.41872 -59.081532 20.111567 10262156
-170.1313 -59.082127 19.126192 5920074
-170.22302 -59.083664 18.305628 6841176
-170.33276 -59.085587 17.279268 8156524
-169.06941 -59.08651 16.119196 9735556
-169.12782 -59.08765 15.507582 10788244
-169.20255 -59.089161 14.691813 12959413
-168.06537 -59.139076 13.77424 8090987
-168.25516 -59.178562 12.769335 8024936
-122.04928 -59.373051 -98.152863 8683641
-121.91668 -59.210926 -99.501762 8881019
-121.07392 -59.093334 -100.03469 8485494
-121.19836 -59.003693 -101.3668 8090987
-120.38573 -58.905804 -101.92518 8090987
-120.33361 -58.796139 -103.37812 13024949
-119.67439 -58.717655 -103.81763 7038307
-119.43882 -58.586594 -105.38575 7038307
-171.86269 -57.931606 21.89794 8419958
-118.93768 -58.527725 -105.71026 9209217
-118.60328 -58.48851 -105.92547 8485494
-118.51377 -58.375328 -107.38923 9143419
-117.66701 -58.277065 -107.91923 10261383
-117.7309 -58.182217 -109.28461 7827559
-116.88902 -58.09174 -109.8207 9011320
-116.97309 -58.012424 -111.22726 8287342
-116.12837 -57.9259 -111.76286 9341054
-116.0261 -57.827461 -113.28454 9341054
-115.31885 -57.747086 -113.68394 9998728
-115.51855 -57.668159 -114.97746 11907236
-114.97684 -57.605141 -115.26809 13024949
-171.84178 -56.832882 22.789022 8222579
-172.15877 -56.870049 22.163046 8617337
-114.61561 -57.563255 -115.4606 13024949
-114.6213 -57.461697 -116.85934 10261903
-113.8906 -57.377666 -117.23843 8354161
-113.88283 -57.274487 -118.64531 8024937
-113.14382 -57.19025 -119.01762 8682867
-112.93566 -57.064377 -120.52413 8156527
-112.18839 -56.980118 -120.88841 7564651
-112.34996 -56.899647 -122.23154 7301982
-111.6211 -56.828682 -122.61849 7762277
-111.45881 -56.738586 -124.22417 7892584
-110.72285 -56.668503 -124.60583 8616563
-110.91479 -56.612003 -126.03232 9735297
-172.25485 -55.89616 22.737001 8222322
-110.54241 -56.576706 -126.22055 9735297
-110.16984 -56.541508 -126.40771 9736064
-110.1637 -56.466019 -127.94054 14604998
-109.40961 -56.395248 -128.30875 11315351
-109.19857 -56.300354 -129.94373 9011574
-108.43523 -56.229416 -130.30383 8090987
-108.39848 -56.150585 -131.85883 10853004
-107.81922 -56.097191 -132.12361 10525324
-107.77005 -56.016979 -133.69106 9339769
-107.18415 -55.963264 -133.95094 8879475
-107.12245 -55.881561 -135.53084 8419438
-106.33132 -55.809189 -135.86884 9077882
-105.64463 -55.666084 -137.69547 7630694
-172.19423 -54.965031 23.573103 9209217
-172.51247 -54.899837 23.023954 9076859
-105.34428 -55.558388 -139.36952 6445650
-104.73341 -55.501553 -139.60603 6445650
-104.62128 -55.411209 -141.21165 7564130
-104.00393 -55.354118 -141.44283 8485488
-103.87846 -55.262119 -143.06085 7563619
-103.25457 -55.204865 -143.28644 8813683
-103.11575 -55.111229 -144.91684 8813683
-102.48532 -55.05381 -145.1369 10261899
-102.33277 -54.958534 -146.77994 8090987
-101.6958 -54.900898 -146.99422 8880246
-101.59657 -54.744495 -148.36577 10064521
-100.98949 -54.705612 -148.62639 8814971
-172.37408 -53.405598 24.442865 7038307
-172.5437 -53.899399 23.740644 9471873
-101.18133 -54.41996 -149.29173 7564651
-100.72376 -54.099667 -149.77681 8354161
-172.61626 -52.773705 24.476595 7038307
-172.90686 -52.836243 23.880537 8550772
-100.7575 -53.364719 -150.21492 9208955
-100.18684 -52.9776 -150.66557 9274748
-172.91676 -51.880398 24.602968 8551030
-173.05269 -52.182587 24.112486 10853012
-100.35977 -52.073887 -150.95068 9472128
-99.669945 -52.00663 -151.32994 9406076
-172.95396 -50.796261 25.373125 7827565
-173.19424 -50.93631 24.811964 9537667
-100.48194 -51.226463 -151.23851 9011576
-99.7799 -51.085918 -151.65417 9011576
-173.26534 -49.799263 25.559645 8287859
-173.47169 -49.991848 25.021395 8287859
-100.02778 -50.257107 -151.87079 9077114
-99.293282 -50.013988 -152.34549 9734788
-173.28897 -48.821808 26.273932 8090987
-173.58238 -48.878433 25.676836 8090987
-100.20712 -49.381245 -152.14198 8353903
-99.531143 -49.085129 -152.6088 8945784
-173.6205 -47.843616 26.408411 8222573
-173.8073 -48.014793 25.923304 8090987
-99.671608 -48.152428 -152.92328 9274493
-99.056908 -47.951073 -153.3197 8748661
-173.70164 -46.638401 27.191149 10855060
-173.91606 -46.903309 26.581232 13091254
-99.82756 -47.384811 -153.16165 8090987
-99.088676 -47.143448 -153.63777 9603457
-174.04143 -45.728764 27.458113 8288882
-174.14 -46.039833 26.829321 10855060
-99.391167 -46.34655 -153.83501 8682867
-98.768715 -46.052036 -154.35939 9866373
-98.333534 -45.628269 -154.90578 9735043
-174.68007 -44.410046 29.288172 8486003
-174.4604 -44.785053 28.387144 7762539
-174.52103 -45.080395 27.605787 7499624
-98.892982 -45.233665 -154.96118 8090987
-98.399193 -45.022789 -155.41978 8354161
-97.913658 -44.816746 -155.89311 7565675
-178.4493 -43.674942 37.619621 9274492
-177.73326 -44.057758 36.685184 7037789
-177.91023 -44.059433 35.827965 7039331
-176.33 -44.061726 33.739285 7038307
-176.49203 -44.063381 32.88863 8551031
-175.22333 -44.115284 30.249784 7038307
-175.44658 -44.144821 29.635622 7762539
-98.377663 -44.544865 -156.62825 10064262
-178.45737 -42.642326 38.407173 11972262
-178.59099 -43.004635 37.873657 10130058
-178.73674 -41.714935 38.601402 8617848
-178.7574 -40.769142 39.296829 6841181
-179.04549 -40.958485 38.607048 7039331
-179.02032 -39.96064 39.428963 10656401
-179.24777 -40.218258 38.800533 9012606
-179.11665 -38.825615 40.128464 8682867
-179.37292 -38.947716 39.550831 9538177
-179.61816 -37.660561 40.087719 8880502
-179.64767 -37.970051 39.791939 8288109
-179.84703 -36.844845 40.289619 6510930
-165.02663 -69.624748 3.7570138 7037274
-165.04597 -69.746727 2.9613061 8879737
-164.63962 -69.931297 2.1591973 8813945
-164.57307 -69.899681 1.165957 8682867
-164.08315 -69.850632 0.30428547 8682867
-163.26527 -69.823341 -0.42119747 8682867
-163.0948 -69.753983 -1.4044051 10459536
-162.88371 -69.67115 -2.5816283 9077372
-162.7023 -69.602554 -3.5603843 8814457
-162.04216 -69.566475 -4.3288054 9274494
-161.3382 -69.512848 -5.0910239 8814198
-161.12592 -69.433716 -5.8628173 8288109
-165.44417 -68.841713 4.050982 8221548
-165.50748 -69.181038 3.235724 8747893
-160.96484 -69.374596 -6.4404616 7696485
-160.80194 -69.315643 -7.0169196 6775383
-160.52495 -69.216927 -7.9751792 6116941
-160.24101 -69.117569 -8.9304905 5919309
-159.95218 -69.018639 -9.8824444 6840671
-159.65918 -68.920181 -10.831579 9340542
-159.36136 -68.822281 -11.777372 9406846
-158.56071 -68.742691 -12.68165 10262155
-157.81883 -68.683067 -13.390268 8353647
-157.52626 -68.593147 -14.322855 7564643
-157.25554 -68.514969 -15.255091 8814710
-157.03642 -68.453003 -15.998983 8880247
-165.59695 -67.796417 4.9000688 8287342
-165.74457 -68.008301 4.1717095 7300446
-156.87004 -68.406685 -16.555796 9011320
-156.64507 -68.345039 -17.296515 10525071
-156.36 -68.268143 -18.220209 9932678
-156.06978 -68.191559 -19.14097 10327435
-155.7751 -68.115166 -20.059134 8288365
-155.47537 -68.039116 -20.974337 8288365
-155.1096 -67.94809 -22.068956 10590864
-154.79974 -67.872574 -22.978151 9801091
-153.89844 -67.828529 -23.541975 10722191
-153.22647 -67.754532 -24.449923 8090987
-152.90681 -67.680229 -25.345421 7894126
-152.58217 -67.606133 -26.237873 9143680
-152.18683 -67.517601 -27.305094 13288379
-151.91988 -67.458778 -28.014364 8484714
-165.77748 -66.608238 5.7708459 7564392
-165.91832 -66.893166 4.9753518 7630186
-166.05864 -67.17971 4.1790872 7893358
-151.78111 -67.427589 -28.367483 7037274
-151.46594 -67.349846 -29.065405 8682093
-150.98871 -67.233742 -30.108362 7826789
-150.58681 -67.137405 -30.97368 7695970
-150.18071 -67.041542 -31.835239 7695970
-150.29327 -66.91732 -32.919956 8551022
-150.13878 -66.7836 -34.101204 8484973
-149.71573 -66.688583 -34.955921 9931648
-149.28859 -66.594063 -35.806747 10391942
-148.85791 -66.499878 -36.654144 9734788
-166.11205 -65.789322 5.7013535 7301477
-166.1689 -66.121559 5.115809 6840926
-148.4232 -66.406288 -37.497742 8879738
-147.89679 -66.294403 -38.505249 9406082
-147.45418 -66.201683 -39.340981 9537150
-147.00763 -66.109467 -40.17276 11050901
-146.46712 -65.999275 -41.166237 7827822
-146.03334 -65.917175 -41.995972 7893868
-145.6107 -65.842293 -42.826382 8288622
-146.06151 -65.73999 -44.106255 12105128
-145.53836 -65.650192 -45.099598 10590609
-145.09705 -65.575211 -45.923298 7565675
-144.70923 -65.50106 -46.56955 7565675
-166.19322 -64.767914 6.6860032 8353650
-166.37099 -64.944412 5.9044824 7564392
-144.40965 -65.442352 -47.050354 7565675
-144.00793 -65.364342 -47.688885 10656656
-143.40167 -65.247803 -48.642094 9801347
-142.8927 -65.151009 -49.432167 8486003
-143.30911 -65.032684 -50.542244 11049873
-142.68408 -64.917 -51.485413 8090216
-142.05434 -64.801796 -52.422611 8090216
-141.52599 -64.706322 -53.199253 8090476
-141.29947 -64.602875 -54.088093 9867145
-141.48058 -64.510117 -54.938244 9012606
-166.54207 -63.761356 6.7993188 7301467
-166.65965 -64.110016 6.0001473 5920074
-141.15555 -64.453094 -55.400333 8289140
-140.61124 -64.358452 -56.167023 9735302
-140.06406 -64.264229 -56.92989 9537408
-139.68427 -64.154091 -57.857136 7038307
-139.74905 -64.030014 -58.969517 7366754
-139.187 -63.93655 -59.72327 8090474
-138.62172 -63.843597 -60.472515 6905944
-138.0536 -63.750942 -61.217789 9011320
-138.23065 -63.631966 -62.693363 7432032
-137.68452 -63.555573 -63.448792 7958120
-137.33485 -63.500492 -63.890816 7958120
-166.6498 -62.870605 7.5406899 8484973
-166.84549 -63.056839 6.6903405 6512210
-136.96573 -63.43718 -64.32254 9538694
-136.83279 -63.335835 -65.26889 10065038
-136.56787 -63.213177 -66.355919 9274753
-135.93799 -63.10783 -67.065666 10064266
-135.4319 -63.023769 -67.629898 10262156
-135.49883 -62.882107 -69.093674 10130057
-134.72427 -62.756065 -69.930901 8682611
-134.2059 -62.672291 -70.485466 7038298
-134.37343 -62.549587 -71.813759 9274235
-166.86992 -61.404945 8.6241207 9536894
-166.97154 -61.838238 7.7726083 8616302
-167.08357 -62.16153 7.0218225 6972503
-133.58107 -62.423981 -72.637016 10853008
-133.39056 -62.32 -73.577171 12234915
-133.19229 -62.215866 -74.515205 12695209
-132.38249 -62.090675 -75.324165 10129541
-132.50537 -61.964428 -76.66378 7037274
-131.95596 -61.881084 -77.197098 9670023
-131.26727 -61.777096 -77.859688 11906725
-131.25623 -61.642582 -79.353004 7169635
-130.61432 -61.566433 -80.043213 8090219
-130.22777 -61.520821 -80.455185 8682611
-167.21725 -60.780544 8.5609417 10590091
-167.37369 -60.947693 7.7064233 7564392
-129.96072 -61.486458 -80.723602 8682611
-130.0854 -61.382015 -82.105522 8090733
-129.211 -61.250683 -82.865921 8222065
-129.31589 -61.144142 -84.254524 10261132
-128.72293 -61.056404 -84.754509 8616563
-128.12877 -60.968849 -85.251587 9011321
-128.20941 -60.860031 -86.644043 8287854
-127.45461 -60.750256 -87.257179 9077626
-127.51721 -60.639542 -88.655937 8617330
-127.05734 -60.573475 -89.019196 8090986
-167.94981 -59.487473 10.507322 9932163
-167.76985 -59.794487 9.5489941 9340027
-167.66885 -60.171684 8.6649456 8353135
-126.5967 -60.507607 -89.380341 6972762
-126.79469 -60.416962 -90.664894 7958120
-126.17167 -60.328781 -91.141174 8813171
-125.54763 -60.240833 -91.614632 7563619
-125.5676 -60.12598 -93.022461 8352877
-124.77591 -60.01582 -93.605339 7563619
-124.77759 -59.899128 -95.018867 7037274
-123.97416 -59.788879 -95.592064 7037274
-124.12019 -59.692421 -96.897499 7037274
-123.46867 -59.604 -97.349953 7564651
-172.29062 -58.628048 20.551851 10393230
-172.00223 -59.025921 19.760714 10196106
-171.56198 -59.083858 18.871233 7827815
-171.65309 -59.085411 18.043764 7367264
-170.39558 -59.086731 16.663187 9011576
-170.45596 -59.087879 16.046919 7103323
-170.53313 -59.089405 15.224779 7103323
-169.25594 -59.090298 14.079847 14077894
-169.32336 -59.091805 13.263475 7235677
-169.38759 -59.093311 12.446802 8814451
-168.47899 -59.227337 11.561628 12761002
-168.62598 -59.260628 10.755301 8092019
-122.96066 -59.528866 -97.672295 7564651
-123.19759 -59.425724 -98.827629 6117973
-122.64494 -59.331741 -99.115013 7038307
-122.35343 -59.151035 -100.59175 7563874
-121.68521 -59.062576 -101.02912 6510930
-121.81299 -58.973282 -102.3754 9471871
-120.99169 -58.874771 -102.93449 9735555
-120.93896 -58.764088 -104.40035 14076870
-120.27281 -58.685108 -104.84029 12235436
-120.20326 -58.572727 -106.31284 7038307
-172.26125 -57.509762 21.474073 8617337
-172.5085 -57.848457 20.745657 11248797
-119.52818 -58.493622 -106.74595 8222323
-119.44184 -58.379539 -108.22517 9537918
-118.7578 -58.300381 -108.65125 10458762
-118.65752 -58.186131 -110.1396 8090987
-117.98454 -58.116547 -110.57725 7103579
-117.90536 -58.019257 -112.10844 9011065
-117.22301 -57.949474 -112.53922 9011065
-116.53982 -57.879852 -112.96697 9341054
-116.77614 -57.81321 -114.28608 7696229
-116.05993 -57.731274 -114.68485 7564386
-116.08138 -57.630535 -116.08974 8354419
-172.56068 -56.84388 21.426077 8946045
-172.80875 -57.181728 20.696714 11577503
-115.53407 -57.567108 -116.38026 7564651
-115.16908 -57.524925 -116.57264 13024949
-114.99056 -57.401169 -118.08001 7432291
-114.42916 -57.233597 -119.78465 5919050
-113.6826 -57.148849 -120.15659 5919050
-113.47259 -57.021801 -121.67709 7959403
-112.92834 -56.87925 -123.44981 8156779
-112.19409 -56.808861 -123.83935 9011576
-112.03077 -56.717926 -125.46159 7563619
-111.28698 -56.647305 -125.84317 9735297
-111.48164 -56.590134 -127.28657 9735297
-172.86732 -55.941658 21.547728 8748666
-111.10532 -56.55463 -127.47469 9735297
-110.72886 -56.519127 -127.66186 16249822
-110.72324 -56.442825 -129.21164 9736064
-109.96123 -56.371552 -129.57962 6511954
-109.74866 -56.275684 -131.23184 9011574
-108.97732 -56.204178 -131.59154 10392454
-108.94099 -56.124592 -133.16415 9932161
-108.35564 -56.07074 -133.42857 9867138
-108.30671 -55.989601 -135.01389 7564643
-107.71468 -55.935535 -135.27332 7959144
-107.65321 -55.852917 -136.87135 10260100
-106.85246 -55.779324 -137.20702 8814710
-106.3621 -55.653488 -138.96979 10985364
-172.94023 -54.75285 22.331923 10260616
-173.06226 -55.164433 21.782995 10063238
-105.7514 -55.596367 -139.21051 9012347
-105.44439 -55.487492 -140.89937 7169372
-104.71037 -55.338722 -142.75583 9077370
-103.95631 -55.188084 -144.61937 10063747
-103.18211 -55.035683 -146.48997 8551024
-102.80984 -54.822338 -147.83754 11379607
-102.20342 -54.783272 -148.10246 11379607
-172.95442 -53.532627 23.25123 10063238
-173.20573 -53.86393 22.520815 10589067
-102.59364 -54.383537 -148.66502 10919313
-101.97102 -53.929657 -149.29315 8946041
-173.28981 -52.843197 23.153704 10457738
-173.49469 -53.041073 22.614222 10457738
-102.06171 -53.046169 -149.68188 8814197
-101.42085 -52.992645 -150.03059 9472128
-173.5594 -51.891041 23.383837 9274237
-102.3442 -52.321766 -149.83714 9142907
-101.61221 -52.074089 -150.31241 9208955
-100.88006 -51.827545 -150.78729 9735043
-173.60341 -50.747139 24.18762 8813945
-173.8315 -50.977173 23.579542 8089963
-101.77187 -51.308044 -150.54764 9603457
-101.16074 -51.102673 -150.94386 10063753
-173.94398 -49.85957 24.23403 9011067
-101.93185 -50.541576 -150.7834 9011065
-101.2801 -50.1329 -151.28442 9340030
-100.94279 -49.625359 -151.66629 9011065
-173.87611 -48.935707 25.078569 8090987
-174.17043 -48.993778 24.478754 7959404
-101.46961 -48.980572 -151.66484 8287342
-100.73775 -49.030479 -152.01691 8682100
-174.2813 -47.878353 25.135679 8090987
-100.93737 -48.124516 -152.29024 9011065
-100.32561 -47.84087 -152.71921 9734788
-174.29211 -46.746201 25.994307 10788244
-174.58804 -46.801056 25.393648 8090987
-101.04845 -47.200035 -152.61626 10261132
-100.35149 -47.135086 -152.99809 9274749
-174.66223 -45.911415 26.048468 9077631
-100.65702 -46.184097 -153.30179 9208699
-99.925423 -45.941807 -153.84811 8814453
-175.12163 -44.470821 28.061899 8486003
-175.11205 -44.818604 27.051054 8880250
-175.00751 -45.309566 26.315527 7564651
-100.25709 -45.130112 -154.35612 9603457
-99.567139 -45.045628 -154.78278 8090987
-99.0728 -44.834026 -155.24109 8090987
-178.92845 -43.396084 36.933067 7037274
-179.0759 -43.693363 36.423996 8025196
