# .PCD v0.7 - Point Cloud Data file format
VERSION 0.7
FIELDS x y z rgb
SIZE 4 4 4 4
TYPE F F F U
COUNT 1 1 1 1
WIDTH 1232
HEIGHT 1
VIEWPOINT 0 0 0 1 0 0 0
POINTS 1232
DATA ascii
54.174587 -22.504377 167.46707 9407616
53.239407 -22.332567 167.55716 8618104
87.64608 -21.182596 152.64099 9011832
87.075447 -21.177965 152.92374 8485238
86.31485 -21.172159 153.30054 9932169
85.251175 -21.270651 153.78471 10722453
84.378044 -21.370998 154.17421 9604231
83.511909 -21.324009 154.61932 9209217
82.586464 -21.404177 155.0426 10393485
81.720772 -21.358416 155.48709 9932934
80.772148 -21.355354 155.95523 9341054
79.823555 -21.352966 156.42302 9011832
79.064751 -21.351616 156.79707 9209467
78.116135 -21.350624 157.2643 10262155
77.16745 -21.350317 157.73135 10525071
76.408417 -21.350645 158.10481 9208443
75.459396 -21.351732 158.57147 10787988
74.510162 -21.353504 159.03795 10788247
73.560493 -21.356091 159.50432 10195595
72.610497 -21.359341 159.97052 9931651
71.850182 -21.362492 160.34354 8090479
70.899208 -21.367155 160.80968 8682867
69.917473 -21.583883 161.20592 9274747
69.156075 -21.588741 161.57857 9275004
68.203644 -21.595524 162.04425 9209467
54.225925 -21.519815 167.85796 9736838
53.289509 -21.461639 167.9028 8486775
52.340618 -21.284166 167.99553 8880761
95.144783 -19.988289 149.42831 11182486
94.76091 -19.983231 149.61932 11182486
92.571571 -20.382574 150.53697 8354159
91.806549 -20.373764 150.91711 9143675
90.851082 -20.363461 151.39165 9011838
89.857315 -20.565964 151.79967 8551288
89.094429 -20.558681 152.17822 9604226
88.141335 -20.550325 152.65077 9406847
87.188835 -20.542564 153.12283 8485238
86.320465 -20.49375 153.56996 9011581
85.392067 -20.572435 153.99545 9406852
84.524399 -20.524794 154.44165 9012095
83.573463 -20.519825 154.91168 9735559
82.622803 -20.515533 155.38132 9603969
81.862419 -20.512611 155.7567 9932934
80.912117 -20.509634 156.22566 9077882
79.961884 -20.50733 156.69423 9143675
79.201691 -20.506006 157.06889 11314844
78.25145 -20.505062 157.53693 10262155
77.301125 -20.504759 158.00482 10525071
76.540779 -20.505058 158.37889 9998215
75.557404 -20.717718 158.77759 11314588
74.60688 -20.719444 159.24472 10788247
73.846222 -20.721346 159.61832 10788247
53.449917 -20.648291 168.22305 8552568
52.431042 -20.546974 168.287 9144188
51.414478 -20.446665 168.35057 12170148
99.942039 -19.202311 147.38316 10393229
98.974785 -19.18693 147.86534 9208699
98.202065 -19.175112 148.25038 9208699
97.280342 -19.33316 148.64052 9275775
96.338615 -19.405535 149.07486 9802118
95.461861 -19.350811 149.52829 14077887
94.551033 -19.410349 149.95265 10590607
93.633575 -19.595024 150.33012 9143420
92.732903 -19.531017 150.79915 9604227
91.895821 -19.460836 151.23944 9143933
90.951515 -19.565407 151.66243 9604229
90.052803 -19.503368 152.12979 9538179
89.154503 -19.442032 152.59666 10261387
88.212776 -19.548288 153.01762 9603969
87.378296 -19.481052 153.45549 8551288
86.424179 -19.474405 153.92787 8222323
85.470528 -19.468391 154.3998 7630444
84.707855 -19.464087 154.7769 7367272
83.788559 -19.580986 155.18248 8288371
82.766136 -19.667654 155.65092 9472126
82.004402 -19.664829 156.02695 9801091
81.017281 -19.874136 156.42877 8682867
80.065765 -19.871925 156.89803 9209211
79.304588 -19.870626 157.27321 10262155
52.396122 -19.627607 168.65393 9341309
51.459579 -19.459938 168.74246 10064775
50.52483 -19.293392 168.83046 12433066
107.43191 -18.04085 144.16368 7366754
106.44984 -18.021557 144.65469 7630443
105.37324 -18.145674 145.13467 6840925
104.64041 -18.204384 145.47176 7564646
103.81326 -18.405941 145.79793 10196106
102.72451 -18.559479 146.272 9603713
101.82059 -18.587114 146.7058 10590609
101.04355 -18.574144 147.09337 11511967
100.07361 -18.558565 147.57692 10787987
99.105034 -18.543674 148.05966 9866372
98.331169 -18.532209 148.44507 9011576
97.365044 -18.51852 148.92603 8748660
96.400002 -18.505493 149.40616 9735812
95.628876 -18.495529 149.78963 11380380
94.666008 -18.483723 150.26828 9407621
93.704102 -18.472496 150.74615 9473414
92.935226 -18.464058 151.12793 9604743
91.975105 -18.454081 151.60446 9538948
91.015709 -18.444735 152.08047 9735812
90.248886 -18.437721 152.46082 9012089
89.367332 -18.537066 152.85495 10261387
88.295265 -18.635355 153.34331 9472383
87.53019 -18.629795 153.7222 10261903
86.95665 -18.625814 154.00616 10261903
51.504543 -18.470381 169.13553 9209467
50.569263 -18.417904 169.1781 10525328
49.620651 -18.245478 169.26874 11511967
48.756519 -18.118319 169.3394 10591121
112.57372 -17.275146 141.94072 8485747
111.97666 -17.262047 142.23985 7827563
110.98341 -17.240778 142.73721 9340542
109.94346 -17.437748 143.16991 11511452
109.15252 -17.421518 143.56569 13353397
108.36294 -17.405716 143.96062 9801347
107.46596 -17.344719 144.42651 11643811
106.50294 -17.413637 144.87277 8090993
105.60921 -17.353699 145.33667 7564649
104.82517 -17.339773 145.7281 8090992
103.80097 -17.53899 146.15213 8683126
102.82459 -17.522562 146.63922 9275004
102.04467 -17.509926 147.02812 10196106
101.13094 -17.441578 147.50525 11578016
100.16982 -17.542881 147.93755 10656914
99.322609 -17.468845 148.38425 9866373
98.476143 -17.395428 148.83029 8682867
97.519341 -17.498226 149.25987 8814710
96.568878 -17.647655 149.66757 9143675
95.796288 -17.638119 150.05165 8617847
94.900505 -17.670574 150.47945 8092019
93.826881 -17.830465 150.9436 9802122
93.057007 -17.822302 151.32576 9276035
92.287689 -17.814489 151.70744 9933707
50.724182 -17.599461 169.50041 9867398
49.706181 -17.503986 169.56207 10459279
48.609432 -17.47821 169.59775 10721938
47.97646 -17.251469 169.70274 10261129
118.01193 -16.064651 139.59221 9538950
117.42146 -16.052731 139.91531 8089963
116.53548 -16.182579 140.33969 6116429
115.692 -16.195629 140.78894 6051148
114.65624 -16.44031 141.2433 6709846
113.79344 -16.510054 141.64778 7630950
112.92384 -16.623543 142.03021 8090991
112.1263 -16.606684 142.42944 7038307
111.13152 -16.586176 142.92723 9735043
110.13883 -16.566256 143.42377 8617075
109.34629 -16.550827 143.81999 14537413
108.5551 -16.535772 144.21542 8682867
107.56803 -16.517532 144.70851 11183001
106.58277 -16.499861 145.20047 8814715
105.79597 -16.486189 145.59314 7564649
104.81419 -16.469664 146.08295 8617335
103.83407 -16.453732 146.57175 9998729
103.05123 -16.441431 146.96191 9932934
102.31955 -16.50264 147.29739 9932934
101.2491 -16.631462 147.77249 9867397
100.27514 -16.617514 148.25739 9209467
49.502491 -16.718508 169.87961 10196363
48.729057 -16.416992 170.01761 10393229
47.771057 -16.467392 170.01979 10326923
122.07151 -15.267511 137.87148 15196118
121.27923 -15.251155 138.31259 10984852
120.29094 -15.231272 138.86235 8485750
119.20444 -15.42743 139.29338 11512481
118.41589 -15.411936 139.72815 9538950
117.62869 -15.396821 140.16193 7892584
116.74607 -15.337085 140.6848 6642517
115.76331 -15.405483 141.15221 5919818
114.88396 -15.346741 141.67259 5920074
114.00514 -15.460779 142.05074 7564902
113.21773 -15.532618 142.39919 7762027
112.13367 -15.727859 142.7914 8156528
111.13915 -15.708752 143.29227 9735043
110.34522 -15.69389 143.692 8879991
109.55254 -15.679428 144.09076 10985364
108.56359 -15.661894 144.58798 8682867
107.51345 -15.860797 144.99911 12433069
106.7243 -15.847273 145.3929 10591124
105.93637 -15.834147 145.786 7564649
105.14959 -15.821323 146.17833 8090992
48.60503 -15.560872 170.3614 9209467
47.725986 -15.630719 170.38683 10129798
46.882755 -15.410055 170.53621 9735296
45.847935 -15.093962 170.79115 9341308
131.30774 -14.156319 134.00418 8813941
130.51743 -14.140244 134.48665 10590609
129.5311 -14.120646 135.0872 9208443
128.54636 -14.101421 135.68544 9208443
127.62117 -14.338982 135.8175 9538944
126.74807 -14.278517 136.39349 8749428
125.95397 -14.26268 136.85435 11051671
124.8019 -14.668426 136.91911 11840931
124.00255 -14.651688 137.3647 8880246
123.20484 -14.63528 137.80905 8682867
122.3117 -14.573623 138.34396 10393229
121.3138 -14.641442 138.82327 9406080
120.42443 -14.580658 139.35526 8024943
119.66271 -14.639018 139.7153 8223348
118.73476 -14.767028 140.10445 7565675
117.75036 -14.749182 140.65031 7366240
116.96416 -14.73527 141.08606 5919050
46.812271 -14.696606 171.08896 9538686
45.980495 -14.473874 171.28755 10590860
45.105545 -14.458981 171.32033 9670017
44.056698 -14.234121 171.52634 10393228
149.67322 -13.315756 126.20001 9472124
148.80862 -13.305258 127.01107 8813943
148.29039 -13.299201 127.4971 9537152
146.73886 -13.699141 127.39547 8681843
146.12239 -13.697765 128.09938 9010808
145.50323 -13.6964 128.80072 8089963
134.95312 -13.801917 132.52187 8090737
134.26294 -13.795766 133.11996 8616564
133.40005 -13.788567 133.86618 10063496
43.233074 -13.859161 172.63336 11905701
42.364437 -13.848065 172.6917 9735299
41.672722 -13.826669 172.56369 9209467
33.864334 -13.400004 176.51057 8749429
33.232586 -13.300853 176.27531 11315352
150.97411 -12.377234 125.44183 8288627
150.38812 -12.608966 125.87584 8880247
149.69489 -12.600694 126.52605 8616819
149.00233 -12.592774 127.17545 8090221
148.4189 -12.824561 127.60709 9537152
33.763145 -12.670419 176.75372 8092011
33.062965 -12.424954 176.54636 8092011
151.93509 -11.4311 125.00754 9538947
151.34528 -11.663686 125.44164 7630699
150.64978 -11.655686 126.09355 7827820
149.95514 -11.647913 126.74477 7827306
149.36971 -11.880724 127.17771 7038307
33.046261 -11.625717 176.85367 8092011
32.41534 -11.530199 176.61736 8092011
153.04193 -10.001399 124.68579 13550517
152.37241 -10.379082 125.12006 12235943
151.61279 -10.707318 125.66211 9012091
150.91383 -10.699724 126.31329 8748406
150.32466 -10.933389 126.74634 8089963
32.943951 -10.89416 177.0977 7564643
32.164013 -10.368796 176.96616 8682868
154.01843 -9.0461521 124.25136 12629935
153.42226 -9.2816124 124.68771 13880258
152.6277 -9.2252254 125.45134 12761777
151.8824 -9.7481432 125.88432 9471871
151.28976 -9.9828329 126.31776 9932678
32.106266 -9.3352833 177.34879 7564643
31.476202 -9.2444878 177.11092 9143162
154.99971 -8.0869055 123.81459 9735299
154.40106 -8.3235397 124.25256 9603458
153.51988 -8.3150921 125.07284 9603458
152.74771 -8.5498991 125.67245 15196118
31.317499 -8.392828 177.37801 9735043
155.98564 -7.1233597 123.37553 9209467
155.29231 -7.3118196 123.92488 9472128
154.41595 -7.4013228 124.69256 7958377
153.72537 -7.5896463 125.23943 10064009
31.04571 -7.5513034 177.59183 9866886
30.348543 -7.316144 177.38187 11906725
156.57941 -6.150969 123.23235 13156786
156.10242 -6.4411373 123.58919 9735298
155.30847 -6.3861094 124.36546 7826791
154.70773 -6.6251936 124.80418 9735299
30.412043 -6.4371915 177.75613 9801093
157.43582 -5.1749697 122.68191 13156786
156.93248 -5.4186206 123.20357 13617337
156.29799 -5.4158859 123.92636 9670017
155.69476 -5.656343 124.36668 7563619
30.168432 -5.4025736 178.05843 10459023
29.540503 -5.3192129 177.8186 10459023
157.57564 -4.6853213 122.79037 15196110
157.14172 -4.6844244 123.36682 15196110
156.68671 -4.6830945 123.92686 9209467
30.062017 -4.6628165 178.30396 9011321
29.364916 -4.432312 178.09218 11182746
29.341745 -3.6188211 178.40303 9341059
28.714636 -3.5388131 178.16223 9933195
29.234194 -2.8763642 178.64911 9209467
28.552588 -2.4261632 178.53073 8946299
27.872282 -1.977795 178.41208 9341059
28.389513 -1.3098954 178.90024 8288365
27.763136 -1.2342737 178.658 9866883
27.513098 -0.41436014 178.94788 8813942
26.680143 0.48196304 179.2851 9734788
25.480276 1.1600913 180.16914 8681835
24.773577 1.1560476 179.85564 10064263
18.29143 1.6305333 183.21831 10261132
17.59601 1.6260427 182.93733 9142651
18.308149 2.0884385 183.39061 9537667
17.456491 2.5970402 183.23238 9208958
17.27891 3.6088648 183.52692 8420727
16.666525 3.7547393 183.33359 8223093
16.540228 4.596632 183.5873 9078655
16.338472 5.5167937 183.83897 8618105
15.651839 5.7361026 183.64238 8814201
15.767444 6.4787707 183.95746 9537665
15.470458 7.3550739 184.155 7433064
14.784068 7.5724306 183.95784 7038307
15.419082 8.2079716 184.44275 7630186
14.738845 8.6584463 184.33238 7169633
14.613536 9.6685886 184.64729 7563876
13.920424 9.6496134 184.36197 6511701
14.408465 10.602034 184.90242 9734531
13.71514 10.581409 184.61719 6511701
13.741744 11.524961 184.98872 8814199
13.049502 11.503077 184.70787 6510930
13.537333 12.465366 185.2738 8683379
12.844752 12.441875 184.99213 6511442
12.870028 13.392477 185.37154 7959656
12.178199 13.367437 185.0896 7630435
12.658629 14.1006 185.57695 10855060
11.974704 14.315853 185.42209 7762021
11.08771 15.020075 185.61043 6117970
11.781234 15.050413 185.92694 7564643
10.884822 15.514355 185.98688 6117970
10.222449 15.996004 186.22672 6381139
10.022281 16.503674 186.7095 7367520
9.2674055 16.650877 186.65988 6381393
8.4533072 16.983932 186.94888 6644309
8.2370481 17.4713 187.17288 8288109
7.3478341 17.97353 187.56775 7564642
6.2313333 18.487728 188.06761 7038298
58.088848 -22.983377 166.46053 9866373
57.126228 -22.999685 166.92732 9406078
56.547916 -23.009871 167.20766 9209467
64.520851 -22.051153 163.67221 8089963
63.564919 -22.061773 164.13806 8813683
62.608051 -22.073076 164.60411 9471359
61.75983 -22.224651 164.96022 9010808
60.856018 -22.307224 165.37152 8418928
59.896111 -22.320869 165.83809 9537409
59.127159 -22.332405 166.21164 10063753
58.164707 -22.34753 166.67885 9866373
57.200874 -22.363415 167.14642 9735043
56.405743 -22.367695 167.4521 9209467
55.774326 -22.135998 167.57669 10656398
69.977974 -21.161129 161.34573 9274747
69.215973 -21.165884 161.71886 9275004
68.262802 -21.1726 162.1852 9209467
67.279671 -21.391457 162.58069 10195594
66.51619 -21.397915 162.95354 9341054
65.560997 -21.406723 163.41974 8617331
64.604927 -21.416237 163.88611 8156271
63.839344 -21.424397 164.25935 8156271
62.881306 -21.435308 164.72606 8550514
61.922283 -21.44692 165.19305 8089963
60.961918 -21.459347 165.66037 8550514
60.00037 -21.472473 166.12791 9142651
59.230171 -21.483557 166.50223 9537409
58.266064 -21.498117 166.97047 9274492
57.30064 -21.513409 167.43913 9932166
56.51088 -21.5201 167.76567 10261897
55.414196 -21.487902 167.84312 12563879
54.556259 -21.248035 167.95854 10263180
75.622833 -20.294424 158.91522 12433325
74.671494 -20.296087 159.38283 9143681
73.608749 -20.404696 159.86227 8748408
72.736259 -20.513348 160.24806 9208187
71.974617 -20.516428 160.62172 7761515
71.022034 -20.520842 161.08875 8682867
70.068932 -20.525991 161.55582 9274747
69.305954 -20.530647 161.92946 9275004
68.351585 -20.537077 162.39656 9932678
67.396484 -20.544237 162.86374 10787988
66.63179 -20.550446 163.23744 8946039
65.674973 -20.558956 163.70456 9012089
64.717239 -20.568039 164.17186 8419957
63.950352 -20.575895 164.54588 8419957
62.990742 -20.586397 165.01357 8617076
62.030014 -20.597544 165.48154 8617075
61.238068 -20.479782 165.91841 8879734
60.363995 -20.52755 166.32903 8945015
59.333393 -20.632729 166.79353 9076601
58.560989 -20.643887 167.16893 8682099
57.678356 -20.763575 167.55486 9471871
56.589943 -20.883026 168.0014 9932932
55.48914 -20.481094 168.24236 10656398
54.476494 -20.481462 168.26564 9342081
53.779507 -20.375475 168.32402 8815739
83.636742 -19.033627 155.47682 7827564
82.873856 -19.030422 155.85359 9735041
82.111122 -19.027718 156.2301 9735041
81.122704 -19.237352 156.63242 8879991
80.16996 -19.235168 157.10222 8880247
79.407768 -19.233917 157.47783 10327948
78.421082 -19.445215 157.87869 12038311
77.468651 -19.44492 158.34756 10656914
76.571983 -19.392233 158.81004 9998472
75.635605 -19.506926 159.22491 11446688
74.800926 -19.447741 159.65945 8090994
73.847626 -19.450037 160.12772 8024944
72.893898 -19.452997 160.59593 7958893
72.130623 -19.455883 160.97044 8682357
71.175987 -19.460083 161.43858 9208954
70.220856 -19.464941 161.90674 10919313
69.456261 -19.469349 162.28131 10129799
68.499832 -19.475473 162.74957 10130057
67.542717 -19.482262 163.21791 10656402
66.8032 -19.572992 163.54547 8946039
65.789154 -19.709097 163.98991 8880504
64.829849 -19.717888 164.4583 8419957
64.061676 -19.725395 164.83308 9012091
63.072952 -19.948469 165.22964 8616819
62.11105 -19.959274 165.69832 8090219
61.533333 -19.966053 165.97968 8617075
54.633934 -19.479181 168.66116 10130570
53.664776 -19.522034 168.66661 10065546
52.889294 -19.216595 168.8062 9868166
89.138222 -18.214659 153.09717 10261387
88.372078 -18.208748 153.47664 9472383
87.606285 -18.203291 153.85587 10261903
86.543098 -18.3671 154.31361 9603974
85.656204 -18.404501 154.73528 9998729
84.891869 -18.400398 155.11314 7433064
83.936691 -18.395903 155.58504 8419956
82.981766 -18.391987 156.05658 9735041
82.218056 -18.389334 156.43358 9735041
81.263535 -18.386623 156.90443 8945784
80.309059 -18.384529 157.37505 8748149
79.545555 -18.383301 157.75133 9801604
78.591148 -18.382399 158.22141 11511710
77.636673 -18.382101 158.69131 9735555
76.682014 -18.382454 159.161 9998727
75.727203 -18.383453 159.63054 9735300
74.963142 -18.384678 160.00609 8092019
74.007751 -18.386854 160.47545 9077885
73.051994 -18.389658 160.94473 9209467
72.340378 -18.463156 161.2655 9538175
71.299477 -18.609446 161.71912 9669504
70.342682 -18.614073 162.18819 11774364
69.76828 -18.617149 162.46965 11182228
54.436733 -18.691559 168.97946 9209467
53.797653 -18.460421 169.08632 10655889
52.690411 -18.43066 169.12381 9341056
51.832478 -18.195232 169.23744 9209467
96.695801 -17.002951 149.86406 8617331
95.922157 -16.993736 150.24847 9407106
94.928558 -17.125942 150.68439 8092019
93.90892 -17.401707 151.07539 11906726
93.138306 -17.393694 151.45787 11183260
92.0597 -17.490406 151.94984 9209983
91.174553 -17.589495 152.3457 9406847
90.406219 -17.582762 152.72649 8617331
89.44651 -17.574984 153.20201 9735299
88.487473 -17.567787 153.67702 9998471
87.720703 -17.562458 154.0567 11906725
86.762703 -17.556442 154.53076 8090993
85.805183 -17.550945 155.00439 7433064
85.039436 -17.547039 155.38284 8354163
84.082565 -17.542706 155.85555 8814456
83.125999 -17.538975 156.32791 9735041
82.360878 -17.536398 156.70543 9143163
81.404678 -17.533794 157.17714 8419184
80.448547 -17.531767 157.64853 9143419
79.4925 -17.530388 158.11963 9801604
78.536385 -17.529564 158.59055 10722450
77.823967 -17.600527 158.91267 9867141
76.781822 -17.743181 159.36838 10130313
75.825768 -17.744093 159.83856 9275006
75.252022 -17.744915 160.12064 10853012
53.65538 -17.815702 169.34636 10853012
52.79472 -17.579769 169.46025 10261902
51.688446 -17.552042 169.49693 9341571
51.051472 -17.323275 169.60287 9341571
102.11904 -16.210129 147.51358 9932934
101.33822 -16.198875 147.90237 9867397
100.36333 -16.185257 148.38759 9735811
99.540825 -16.39082 148.70985 9208955
98.569054 -16.378155 149.19313 9011576
97.598518 -16.366026 149.67564 8617331
96.823021 -16.356791 150.061 8617331
95.854706 -16.345787 150.54193 9998986
94.823952 -16.463951 151.00177 11051674
94.073296 -16.54241 151.33968 11051674
93.16674 -16.479654 151.81102 9933707
92.215355 -16.586136 152.23642 8946812
91.373711 -16.517303 152.67828 9341054
90.469139 -16.456156 153.14801 9011833
89.520569 -16.564062 153.57149 9735299
88.680382 -16.49674 154.01198 10195338
87.77726 -16.437263 154.48036 9867144
86.831085 -16.546644 154.90224 8683128
86.015427 -16.566784 155.29575 7959407
85.079765 -16.648129 155.72371 7696235
84.144829 -16.729876 156.15103 7959407
83.322403 -16.755295 156.54561 7564651
82.276703 -16.894844 157.00429 9734784
81.31926 -16.89238 157.47653 8879991
80.744896 -16.891203 157.7597 9143419
52.872944 -16.939943 169.71329 10591380
51.959843 -16.612139 169.86494 10196623
50.931499 -16.465988 169.94702 9472898
49.991829 -16.302551 170.03392 9867398
112.79398 -15.091543 142.92285 9209467
112.19616 -15.080482 143.22563 7630439
111.40006 -15.065988 143.62862 9735043
110.60531 -15.051894 144.03062 9143163
109.61366 -15.034767 144.53186 8682867
108.62386 -15.018144 145.03175 8682867
107.73641 -15.217097 145.29974 11511968
106.94805 -15.204434 145.69771 10591124
106.19471 -15.263647 146.01808 8880508
104.95327 -15.494441 146.46227 8880506
104.03796 -15.588485 146.85921 10261900
103.25463 -15.576931 147.25166 9932934
102.27681 -15.563055 147.74112 9341053
101.3005 -15.549691 148.22958 9209467
100.52043 -15.539392 148.61961 9209467
99.638367 -15.485527 149.08826 9932422
98.676857 -15.559209 149.51274 9406078
97.796921 -15.506268 149.97975 9012091
97.0205 -15.497598 150.36694 8486004
96.051071 -15.487267 150.8502 10722708
95.082558 -15.477453 151.33266 13419707
94.308563 -15.470035 151.71802 10261899
93.405067 -15.504074 152.13733 9275004
92.305527 -15.663698 152.56258 9735043
91.53344 -15.65729 152.94505 9997959
90.569199 -15.64985 153.42259 10261132
89.605614 -15.642916 153.8996 9997959
89.027817 -15.639034 154.18555 9735043
51.0322 -15.611863 170.28485 9538432
49.972164 -15.380585 170.47456 9801605
48.958874 -15.290777 170.5643 9209467
48.256275 -15.138567 170.69838 9209467
125.21014 -14.039705 137.7003 6511954
124.23204 -14.022471 138.28764 8682867
123.4506 -14.009078 138.75577 8682867
122.66999 -13.995988 139.22246 8814455
122.08517 -13.986335 139.5715 9011579
119.54496 -14.346371 140.03233 7565675
118.75492 -14.332219 140.47061 7565675
117.76893 -14.31496 141.01721 6642517
116.84504 -14.443825 141.40335 6840152
116.08956 -14.503439 141.7588 8092011
115.20712 -14.445424 142.28123 6906968
114.20576 -14.513797 142.72279 7367269
113.30514 -14.454025 143.21568 9406848
112.50521 -14.439806 143.62038 8288624
111.70664 -14.425887 144.02409 9735811
110.71416 -14.4095 144.53239 9670018
109.72855 -14.394222 145.04604 9209467
108.96667 -14.453484 145.36784 10130569
108.03027 -14.580555 145.69627 9735043
107.04185 -14.565401 146.19421 10129545
105.95861 -14.762665 146.5575 9538690
105.17127 -14.751131 146.95372 9802117
104.38491 -14.739948 147.34914 10657167
103.59953 -14.729116 147.74377 9210491
102.52615 -14.92742 148.10139 9341565
101.54813 -14.914692 148.59222 10261132
100.76675 -14.904915 148.98409 9471871
99.791573 -14.893236 149.47333 10129545
98.817513 -14.881997 149.96165 9406078
49.144184 -14.634914 171.08286 9669504
48.176003 -14.51269 171.2041 9735296
47.209171 -14.39124 171.32466 9472637
147.94507 -13.295231 127.82077 9537152
147.42743 -13.289474 128.30615 10918805
146.56538 -13.280283 129.11412 9932424
145.53419 -13.484467 129.45508 9011579
144.72398 -13.69471 129.67303 9076857
144.09694 -13.693373 130.36745 8879479
132.53694 -13.781722 134.61096 9800580
131.77267 -13.769119 135.12956 9669507
130.97675 -13.753544 135.61342 10590609
129.98352 -13.734466 136.21579 11511452
128.99184 -13.715826 136.81573 9208443
128.19983 -13.701265 137.29384 15724510
121.6954 -13.979967 139.80382 9011579
120.9167 -13.967535 140.26704 9143678
119.9443 -13.952323 140.84439 7565675
46.283398 -13.900162 172.42149 9538686
45.410149 -13.88811 172.48315 8815220
44.320644 -13.873433 172.55898 9735299
35.153374 -13.382064 177.07716 8551538
34.516499 -13.282454 176.8399 8419952
148.27425 -12.505252 127.8965 9076858
147.44641 -12.57591 128.63391 10458510
146.61969 -12.646869 129.37024 9932681
34.361595 -12.432298 177.10718 8814966
149.12027 -11.519494 127.58527 8089963
148.31258 -11.678514 128.26105 9142907
147.56561 -11.702925 128.94553 9472128
34.332993 -11.599552 177.42265 11511449
33.697109 -11.503663 177.18434 9537918
149.98608 -10.642072 127.20338 8089963
149.17351 -10.682033 127.94104 8089963
148.51559 -10.755615 128.51866 8748149
33.458755 -10.473312 177.48727 8946038
151.63095 -9.1833057 126.39514 8682355
150.89911 -9.4974737 126.91838 8353391
150.19949 -9.490881 127.56962 8418927
149.47058 -9.804903 128.09061 8747892
33.219326 -9.4407215 177.79057 9537918
32.584713 -9.3489828 177.55115 8617075
152.60405 -8.2259817 125.96486 9340285
151.93703 -8.3006639 126.54591 8550513
151.23486 -8.2945919 127.19922 8287342
150.64166 -8.5310593 127.63226 8089963
32.553848 -8.5125046 177.86768 9208955
153.58171 -7.2645597 125.53246 8353391
152.91243 -7.3399553 126.11526 8155756
152.20807 -7.3342304 126.77045 8222061
151.61269 -7.5719967 127.20482 8089963
32.395214 -7.6556954 178.13675 10853012
31.761465 -7.5675263 177.89632 10261131
154.56403 -6.2989726 125.09775 9340541
153.89244 -6.3750734 125.68232 8222317
153.18579 -6.3698211 126.33942 7565667
152.58807 -6.6088347 126.77539 9538689
32.291313 -6.9162669 178.38336 9735043
31.605074 -6.4596028 178.26546 9998215
30.920156 -6.0048041 178.14732 9011321
155.55115 -5.3290205 124.66074 9472385
154.78455 -5.3564692 125.35723 10459537
153.95654 -5.5219626 126.04269 9078394
31.44763 -5.3483448 178.63539 9998729
30.814745 -5.2647786 178.39349 9011321
156.22253 -4.4345961 124.47898 9209467
155.60345 -4.4798951 125.03003 10985881
154.83594 -4.5079832 125.72714 8486519
30.654001 -4.4037871 178.66328 8288114
155.54227 -3.6936598 125.47356 10459537
30.618853 -3.5566888 178.98213 8288371
29.986834 -3.4765911 178.7393 7433062
29.741655 -2.4332376 179.04433 7367264
29.564791 -1.5368797 179.32112 7367263
29.028646 -1.2364554 179.20677 8551537
28.837229 -0.4582369 179.49013 7762021
28.013605 -0.18945688 179.32863 7564643
28.549406 0.26255059 179.9191 7564643
27.86479 0.48650694 179.80087 8813942
27.181467 0.70941401 179.68242 9734788
26.903776 1.1684016 180.80061 9011321
26.190638 1.1642432 180.48428 9537147
19.456751 1.6380807 183.68913 8287856
18.756636 1.6335305 183.40631 7038307
18.791296 2.5516028 183.75217 8287859
18.600657 3.7013669 184.09128 10853012
17.900988 3.6929131 183.80719 8420214
17.934225 4.6167812 184.15459 9538948
17.733461 5.5403743 184.40791 10657684
17.034491 5.5284934 184.12282 11907749
17.532305 6.4666185 184.66196 8618361
16.833109 6.4530606 184.37622 8223347
16.864092 7.3853331 184.72577 9078143
16.165846 7.3701253 184.43979 7893358
16.661547 8.3158541 184.98085 12433839
16.019804 8.6279707 184.83589 8814459
15.926936 9.6265116 185.15967 8814972
15.308898 9.6878195 184.93355 8156013
15.795817 10.407698 185.38951 7038307
15.104636 10.622941 185.18962 8353134
15.053187 11.48771 185.49028 8089962
14.436118 11.547005 185.27052 9997703
14.922744 12.274834 185.7448 7563618
14.232608 12.489162 185.55661 9669250
14.025058 13.315234 185.79599 8222572
13.570842 13.6564 185.74983 9407358
14.050395 14.154006 186.14792 6511954
13.22742 14.415223 185.99275 8814965
13.176513 15.112213 186.56439 6511954
12.357039 15.378933 186.47243 6709334
10.91682 16.028723 186.55304 6117970
11.548381 16.231808 187.04315 7301472
10.718307 16.537449 187.03767 6841178
9.604949 17.031181 187.39062 6644309
10.29914 17.059933 187.65698 7367520
9.3923445 17.525579 187.67638 6973018
8.2780218 18.033972 188.1371 8090987
8.7456465 18.064548 188.42375 7367520
7.3961129 18.571297 188.84636 7564642
6.9288583 18.53754 188.5322 7564642
60.18346 -19.983044 166.63673 9997703
59.410976 -19.993351 167.01244 9076857
58.637585 -20.004162 167.38846 8813685
57.571941 -20.190281 167.83771 9538433
56.669147 -20.244627 168.23764 9866886
56.051472 -20.019348 168.41327 9538176
66.642525 -19.064032 163.8287 9209211
65.874825 -19.070436 164.20403 8880248
64.914383 -19.07892 164.67337 8288371
64.145271 -19.086226 165.04893 9012091
63.155346 -19.309225 165.44612 8682868
62.1922 -19.319702 165.91554 7826791
61.420788 -19.328583 166.29132 8353135
60.455357 -19.340334 166.76138 10063753
59.488701 -19.352732 167.23181 8879222
58.714359 -19.363188 167.6084 9077113
57.745014 -19.376898 168.07959 9340798
56.773785 -19.391066 168.5497 9669763
55.912193 -19.374653 168.67316 9603969
55.271702 -19.142385 168.78056 9209467
72.127075 -18.179977 161.48412 10261641
71.361313 -18.183216 161.85971 9406846
70.403687 -18.187761 162.32919 10261387
69.553162 -18.334379 162.68901 9932420
68.648506 -18.410843 163.10355 9800833
67.689362 -18.417231 163.57307 10590095
66.921387 -18.422863 163.94876 9735555
65.960648 -18.430458 164.41856 9143419
64.999023 -18.438702 164.88861 9341055
64.22892 -18.44573 165.26476 9735812
63.265354 -18.455164 165.73517 9011832
62.300636 -18.465197 166.20576 8090219
61.527943 -18.473701 166.58237 8484721
60.560863 -18.48494 167.05341 10261132
59.592571 -18.496822 167.5249 8879222
58.816864 -18.506752 167.90228 9143163
57.845921 -18.519894 168.37451 9143419
56.873547 -18.533596 168.8472 9341053
56.023357 -18.52211 169.01012 9932679
55.003193 -18.450779 169.06219 9801092
77.613838 -17.315952 159.13023 10459278
76.848473 -17.316252 159.50682 11380380
75.891594 -17.317179 159.97748 9275006
75.040367 -17.460777 160.33878 10853012
74.136238 -17.533905 160.75444 9735557
73.178833 -17.536537 161.22461 10261641
72.41259 -17.539091 161.60071 11314071
71.454231 -17.542894 162.07085 10130057
70.495407 -17.547272 162.54103 10261387
69.727875 -17.551201 162.91721 10458508
68.767769 -17.556684 163.38753 9668731
67.806984 -17.56278 163.85796 10195079
67.037735 -17.568136 164.23439 9932166
66.075356 -17.575365 164.7052 10326924
65.112038 -17.58322 165.17613 11576992
64.340691 -17.589949 165.5531 9735299
63.375454 -17.598949 166.02454 8089963
62.409164 -17.608513 166.49631 9274492
61.635269 -17.616667 166.87393 9866373
60.666592 -17.627399 167.34615 10129543
59.752724 -17.709551 167.76262 9537407
58.89397 -17.863174 168.1232 9340798
57.921772 -17.875792 168.59618 9669762
57.143009 -17.886364 168.9749 9538176
56.050961 -17.736406 169.32242 10129546
55.045227 -17.423281 169.4704 9735299
54.042278 -17.397392 169.50397 9866629
85.874725 -16.051161 155.57191 9538176
85.106674 -16.047623 155.9514 9275004
84.146866 -16.043726 156.42534 9077369
83.291176 -16.183668 156.79037 8024428
82.384094 -16.252405 157.20921 9932421
81.425354 -16.25004 157.68199 9209212
80.599113 -16.376938 158.03773 9143675
79.66526 -16.461325 158.46353 9735811
78.707062 -16.460546 158.93544 10459278
77.940468 -16.460361 159.31281 10130313
76.982063 -16.460657 159.78436 11117208
76.023491 -16.461493 160.25586 8814969
75.256454 -16.462591 160.63293 9932681
74.297318 -16.464508 161.1042 9472386
73.337822 -16.466976 161.57547 10261641
72.569923 -16.469378 161.95245 11116692
71.609566 -16.472902 162.42371 10064264
70.648651 -16.477001 162.895 9998471
69.879448 -16.480701 163.27209 10721681
68.95797 -16.539221 163.7021 9997698
67.924889 -16.706181 164.14359 9471611
67.15435 -16.711283 164.5208 9208699
66.1903 -16.718151 164.99254 10064009
65.197021 -16.940298 165.3923 11905701
64.424706 -16.946753 165.76981 9735299
63.458214 -16.955416 166.24199 9931910
54.874599 -16.416182 169.87547 10655889
54.004353 -16.452236 169.88126 9735299
53.202595 -16.433144 169.90741 10065037
52.31123 -16.069235 170.07303 11249052
93.025917 -15.246985 152.50687 9735299
92.446434 -15.242198 152.79575 9735043
91.674217 -15.236131 153.18057 9997959
90.709656 -15.229069 153.6608 9735043
89.745651 -15.222443 154.14038 9208955
88.864098 -15.357178 154.47435 9866630
87.942291 -15.421887 154.87932 9603713
86.980026 -15.416643 155.35588 10459278
86.210556 -15.412834 155.73685 9472383
85.249008 -15.408575 156.2123 10130313
84.287621 -15.404817 156.68719 9537664
83.518684 -15.402138 157.06674 9537408
82.557732 -15.39939 157.54083 9866629
81.596893 -15.397101 158.01457 9341054
80.828308 -15.395698 158.39328 9143675
79.867531 -15.394412 158.86627 10130570
78.906738 -15.393618 159.33908 10064777
78.137993 -15.393366 159.71709 9801605
77.177071 -15.393608 160.18973 10196106
76.155685 -15.603935 160.53481 9538177
75.387268 -15.604985 160.91263 9932681
74.426514 -15.606791 161.3848 9735557
73.465355 -15.609086 161.85687 10261641
72.696121 -15.611385 162.23457 10787728
71.926552 -15.613984 162.61227 9932678
53.922192 -15.675936 170.19231 9735811
53.29707 -15.450875 170.35495 9538691
52.185444 -15.426847 170.39526 10328465
51.121822 -15.194922 170.5854 9735811
108.86478 -14.168856 145.71919 9209467
108.27917 -14.160954 146.03233 8682867
107.30396 -14.148192 146.55272 10129545
106.32964 -14.135815 147.0713 9736067
105.5508 -14.126223 147.4848 9736067
104.57803 -14.114653 147.99991 9736835
103.43883 -14.238929 148.4001 9604736
102.67252 -14.298524 148.6958 9867141
101.89225 -14.289471 149.09647 10261132
101.02885 -14.239032 149.60544 9208955
100.02799 -14.309581 149.98489 9208955
99.166145 -14.259974 150.49153 9932166
98.272095 -14.459291 150.70927 10261389
97.154289 -14.652614 150.97343 8223091
96.182274 -14.642968 151.45908 10261899
95.405357 -14.635649 151.84682 10261899
94.529358 -14.585572 152.31927 9932678
93.565239 -14.661777 152.72893 10985111
92.690636 -14.612558 153.19989 9340541
91.816139 -14.563842 153.67015 9406078
90.85527 -14.64137 154.07764 9274748
89.981865 -14.59348 154.54671 8945783
89.208916 -14.588765 154.93071 9471871
88.243217 -14.583367 155.4101 9143418
87.2015 -14.788324 155.75214 10130313
86.430328 -14.784713 156.13445 10656657
85.466545 -14.780627 156.61151 8946039
84.502754 -14.776943 157.08771 9998215
83.731812 -14.774437 157.46828 10853012
82.768379 -14.771789 157.9435 9537664
52.330997 -14.801332 170.87288 9275260
51.270344 -14.570665 171.08334 9670019
50.383686 -14.553651 171.11829 9867398
49.546741 -14.32887 171.31857 10327433
145.53204 -13.269844 130.08244 9012350
145.01584 -13.264941 130.56601 8879479
144.09344 -13.403197 131.10236 9340030
143.37082 -13.545593 131.49998 9932161
142.51465 -13.69008 132.09032 11379348
127.43419 -13.689654 137.79807 9538944
126.59507 -13.687701 138.55467 9538432
125.7578 -13.686393 139.31329 11314840
119.16719 -13.940448 141.30463 6511954
118.39083 -13.928875 141.76344 7039331
117.42129 -13.914845 142.33504 8486262
116.45277 -13.901183 142.90465 11445917
115.67684 -13.89043 143.35646 9471871
114.88756 -13.878243 143.78951 7761513
113.89857 -13.86307 144.32439 8748921
112.91077 -13.848248 144.85725 9407361
112.12133 -13.836786 145.28203 10855060
111.52988 -13.828328 145.59972 9736836
49.570621 -13.947953 172.18169 10261382
48.692142 -13.934814 172.24695 9866882
47.595852 -13.918766 172.32719 8617843
46.939083 -13.909438 172.37462 8092011
36.75013 -13.518552 177.64189 7893615
35.880184 -13.413104 177.38042 8288366
146.47415 -12.328195 129.66022 9012350
145.8934 -12.560513 130.08902 8749435
145.20407 -12.5542 130.73466 8682100
144.55179 -12.627624 131.3071 9932167
35.712772 -12.5294 177.6555 8156780
147.42014 -11.383247 129.23584 9142907
146.83755 -11.616488 129.66603 8552056
146.05539 -11.561776 130.42169 9143936
145.39273 -11.842055 130.90361 9340030
35.544266 -11.643978 177.93117 8090987
34.996452 -11.403755 177.78802 9209468
148.37019 -10.434903 128.80949 8089963
147.78557 -10.669141 129.24101 8616307
147.00134 -10.614447 129.99855 8814971
146.33655 -10.895803 130.48201 9012350
34.769661 -10.516025 178.03967 10853777
33.975677 -10.050419 177.87859 9537918
149.53081 -9.1642075 128.34966 11379608
148.74719 -9.409338 128.95625 8156013
147.89661 -9.6082497 129.65123 9998729
147.11081 -9.944768 130.22075 9012350
34.669693 -9.4832363 178.40369 11511449
33.874069 -9.3127861 178.12535 9537918
150.39169 -8.1667709 128.04306 9800322
149.57443 -8.3292093 128.72003 12300453
148.81943 -8.3554277 129.4064 8354165
34.56834 -8.7425346 178.65175 10853012
33.858742 -8.5021706 178.43848 9866627
33.151367 -8.2630568 178.22559 8617075
151.36246 -7.2065067 127.61649 8815222
150.54248 -7.3699198 128.29552 9208184
149.78517 -7.3965564 128.9838 9208184
33.843204 -7.6893392 178.7523 9011576
33.048607 -7.523191 178.47278 8814456
152.72444 -6.123179 126.88795 8420720
152.12732 -6.3622193 127.32345 8618099
151.42273 -6.3573203 127.97841 9144187
150.75516 -6.4338198 128.55902 9208184
33.740585 -6.9463701 179.00085 7039331
32.945763 -6.4853411 178.83748 8683640
32.359093 -6.0301251 178.7623 10262156
153.70566 -5.1539178 126.45611 8420720
153.10628 -5.3942814 126.89307 8420720
152.39941 -5.3898048 127.54994 8092011
151.72964 -5.4669514 128.13226 8289390
32.893688 -5.3707466 179.25455 9144190
32.16914 -5.3594742 178.94435 9933448
154.69157 -4.1802592 126.02203 9012606
154.08975 -4.4219952 126.46049 8881015
153.38063 -4.4180408 127.11922 9078394
152.70863 -4.4959183 127.70331 9604482
31.995745 -4.4649515 179.22188 10393742
155.00836 -3.6908908 125.96944 8289140
154.22189 -3.441628 126.87885 8881272
153.58704 -3.6837769 127.28931 9801605
31.89617 -3.6435223 179.50267 9998729
31.264536 -3.4882226 179.2896 9933192
31.116472 -2.4972448 179.61617 9538435
30.251276 -1.9880043 179.44124 7367263
30.935392 -1.3906112 179.97404 9406848
30.144262 -1.2387381 179.69037 7696228
30.274195 -0.45733523 180.11378 9801090
29.444128 -0.18737143 179.94885 8288365
29.987646 0.26675808 180.54437 8089963
29.298239 0.49178112 180.42491 7958888
28.610006 0.71570444 180.30515 8287854
27.620653 1.1726688 181.11879 9077114
20.864855 1.6472989 184.25813 9537664
20.159319 1.6426367 183.97308 8287853
20.648325 2.106657 184.33719 9537664
20.062487 2.5632443 184.267 7695978
19.276049 3.0166578 184.11505 8287859
19.926207 3.6401863 184.6017 7038307
19.302752 3.7098756 184.37637 8287859
19.799799 4.4116073 184.82982 8485494
19.103716 4.6338472 184.63054 7958895
19.057673 5.485322 184.91992 8551800
18.434774 5.5523596 184.69391 10262927
18.930094 6.2602439 185.14888 10460308
18.234396 6.4803329 184.94899 9802378
18.26816 7.4162397 185.30095 8092019
17.564573 7.4006953 185.01268 12828597
18.066622 8.3502913 185.55772 8092019
17.214827 8.5640564 185.29286 14276041
17.402998 9.5103865 185.71065 9736073
16.554422 9.8010311 185.47484 7893871
17.200197 10.449742 185.96883 7038307
16.365667 10.708424 185.72711 7103842
16.297113 11.488358 185.98355 7300962
15.607219 11.822083 185.83821 7563618
16.325029 12.32265 186.31519 8089963
15.491931 12.580293 186.08751 7234653
15.332603 13.4349 186.3569 6774103
14.500754 13.691004 186.12923 5919050
15.452285 14.208637 186.72348 8089963
14.627639 14.47344 186.6059 7827302
13.661689 15.387553 187.02521 7367263
12.675155 16.242933 187.52579 6511958
11.884055 16.594519 187.58789 6445653
11.461402 17.109793 188.11592 6972256
10.865676 17.438795 188.31532 7103839
10.09402 17.568121 188.0788 6644309
9.6855078 18.126425 189.00067 7367005
9.2147894 18.095333 188.71164 6644309
7.8650537 18.60536 189.16194 7564642
62.297047 -16.966539 166.80896 10853012
61.715805 -16.972517 167.09274 10853012
60.745991 -16.982847 167.56589 10195077
59.692776 -17.137941 168.02184 9932421
58.971188 -17.218172 168.34453 10129801
57.997768 -17.230354 168.81831 9735556
56.969013 -17.37285 169.26698 9932679
56.274776 -17.169058 169.54312 10261132
68.591911 -16.05888 164.07501 10655630
68.013519 -16.062307 164.35829 9274489
67.241982 -16.067211 164.7361 8682867
66.276741 -16.073854 165.2085 10458510
65.28215 -16.295923 165.60889 11313820
64.508827 -16.302181 165.98701 9998215
63.541134 -16.310514 166.45993 10195082
62.594784 -16.448088 166.87051 10063496
61.796494 -16.326941 167.31203 10655631
60.825478 -16.336893 167.78595 9932160
59.853138 -16.347425 168.26024 10458251
59.074284 -16.356304 168.64006 9735299
58.099312 -16.367893 169.11511 10261387
57.122814 -16.380016 169.59045 10261388
56.302841 -16.37953 169.85693 10261388
55.489685 -16.287596 169.91238 10656657
76.276169 -15.184743 160.78949 9538177
75.506332 -15.185644 161.1673 9406078
74.543686 -15.187354 161.63939 9669506
73.580589 -15.189497 162.11139 10261899
72.809753 -15.1916 162.48877 10788243
71.721542 -15.300124 162.9442 10459278
70.826294 -15.408446 163.30544 10919317
70.054909 -15.411853 163.68294 11379356
69.090004 -15.416605 164.15482 10392457
68.124359 -15.42186 164.6268 9997956
67.35125 -15.426438 165.00441 10129545
66.383972 -15.432705 165.47659 10524303
65.415787 -15.439453 165.94887 10261387
64.640488 -15.445257 166.32683 10261387
63.670364 -15.453041 166.79951 10063496
62.699146 -15.461298 167.27242 9668738
61.921253 -15.468354 167.65092 10326665
60.947697 -15.477631 168.12433 9932160
59.972931 -15.487448 168.59804 10458251
59.191998 -15.495706 168.97734 9735299
58.410137 -15.504336 169.35681 10261387
57.510548 -15.621138 169.72795 10656402
56.33971 -15.590367 170.19849 10393230
55.38821 -15.539944 170.25079 10459534
54.434086 -15.370212 170.38213 9998983
97.980423 -14.047303 151.45596 9735302
97.399445 -14.042282 151.7571 9735302
96.625099 -14.035873 152.15773 9998472
95.657326 -14.028227 152.65709 9209211
94.689857 -14.020987 153.15495 9208955
93.916145 -14.015486 153.55212 11313820
93.142494 -14.010338 153.9483 8682867
92.175545 -14.004225 154.44212 9208955
91.208794 -13.998481 154.93456 10261132
90.435425 -13.994242 155.32747 9208955
89.468681 -13.989205 155.81728 8814453
88.501968 -13.984655 156.3058 10130313
87.541512 -14.174935 156.36057 10459278
86.689713 -14.132505 156.87233 10393485
85.687454 -14.206263 157.19823 9143418
84.835342 -14.164505 157.70755 9208955
84.065392 -14.226625 157.94321 7826790
82.91333 -14.352324 158.22063 8419440
81.876625 -14.55986 158.55727 9143675
81.10527 -14.558456 158.9371 9143675
80.141106 -14.557227 159.41151 9472639
79.176781 -14.556426 159.88562 9275260
78.405266 -14.556174 160.26459 9801604
77.440659 -14.556273 160.73801 10459278
76.475845 -14.556899 161.2112 9209211
75.703712 -14.557726 161.58957 8682867
74.738251 -14.559279 162.0623 9669506
73.772362 -14.561282 162.53485 9670019
72.999237 -14.56326 162.91273 10261899
72.032379 -14.566157 163.38498 10261899
71.064919 -14.569548 163.85713 10196106
70.290443 -14.572678 164.23479 10327436
69.261108 -14.787028 164.56242 10261387
68.292732 -14.79196 165.03474 10458251
67.517349 -14.796268 165.41258 10261127
66.547241 -14.802167 165.88496 9735554
65.576302 -14.808535 166.35739 9735299
64.798805 -14.814042 166.73537 10261387
64.215179 -14.818324 167.01891 9931910
55.457439 -14.866234 170.74577 10854036
54.514187 -14.677824 170.91957 10262155
53.496258 -14.614813 170.99457 9538432
52.656086 -14.257318 171.44633 9406846
51.827206 -14.080232 171.8165 9998983
50.891415 -13.968114 172.082 9735812
143.29688 -13.249603 132.1757 10261123
142.61 -13.244071 132.81865 10261123
141.7988 -13.508593 133.15108 8879475
140.9118 -13.686859 133.79395 12037537
140.42703 -13.685909 134.30138 10063750
125.08453 -13.68536 139.91626 8551540
124.23878 -13.684084 140.66533 10327696
123.38879 -13.682829 141.40961 8551284
111.13573 -13.822824 145.81116 12038821
110.34805 -13.81195 146.23279 11117208
109.36431 -13.798715 146.75827 10656657
108.57809 -13.788516 147.17714 9406078
107.79247 -13.778519 147.59471 10129545
106.81125 -13.766463 148.11496 9604225
105.83083 -13.754742 148.63341 9209467
105.04729 -13.745755 149.04671 10000007
104.26405 -13.737022 149.45894 10459275
103.28567 -13.72643 149.97247 9407101
102.30801 -13.716325 150.48428 9208955
101.52634 -13.708503 150.89247 9208955
100.74505 -13.700933 151.29948 9011576
50.450706 -13.961361 172.11552 10064777
50.010487 -13.954606 172.14871 10064777
42.57412 -13.664852 176.31468 8419952
41.723656 -13.665131 176.51649 8222316
40.659367 -13.665497 176.76375 7563619
39.806858 -13.665802 176.95674 7563619
38.739883 -13.666201 177.19206 8551285
37.650753 -13.533552 177.67699 9341057
37.118488 -13.246484 177.98357 8617336
144.1344 -12.465685 131.77463 10261132
143.48273 -12.539557 132.34631 9734779
142.79492 -12.534175 132.99004 9208435
142.21782 -12.767124 133.41513 9208435
37.075626 -12.628128 178.20828 9669763
145.07407 -11.521663 131.35583 9340030
144.42065 -11.59585 131.92903 9340030
143.73111 -11.590513 132.57428 9011573
143.15225 -11.824262 133.00061 8682867
36.897377 -11.583469 178.54271 10261387
36.181953 -11.336538 178.32942 9472127
146.01749 -10.574407 130.93509 9538435
145.36227 -10.648919 131.50972 9011321
144.67102 -10.643704 132.1566 9011577
144.09045 -10.878302 132.58417 9143419
36.145767 -10.340255 178.70667 9471871
35.431473 -10.096123 178.4928 9012089
147.71436 -8.9890451 130.12088 11380380
147.05612 -9.3683453 130.55087 9341054
146.30777 -9.6987391 131.0885 9538433
145.61472 -9.6936474 131.73695 8748149
145.03229 -9.9290419 132.1658 9143419
35.976875 -9.447732 178.98537 8090987
35.33123 -9.3549862 178.74153 9932166
148.67438 -8.032876 129.69949 8814715
148.08418 -8.2695732 130.12961 8485751
147.3862 -8.2645826 130.77921 8748663
146.63535 -8.5962772 131.31697 9143419
145.978 -8.9765844 131.74557 9143419
35.175594 -8.492341 179.01421 9735043
149.64006 -7.0729032 129.27739 9208184
149.04787 -7.3107495 129.70888 9406851
148.25568 -7.2570753 130.46896 7564651
147.44022 -7.4208717 131.14363 7958635
35.148045 -7.6455655 179.33629 9011576
34.556099 -7.4090447 179.17253 10129545
150.61017 -6.1090312 128.85318 9208184
150.01579 -6.3480515 129.28603 11181973
149.22137 -6.294539 130.0481 11380124
148.40335 -6.4593177 130.72473 8156787
34.188042 -6.4351516 179.3968 8682869
151.58461 -5.1410623 128.42685 8092011
150.89587 -5.3320913 128.97086 8879989
150.02383 -5.4244876 129.73305 10590606
149.26463 -5.4526687 130.42229 9275519
34.09153 -5.6136484 179.67892 8617847
33.546986 -5.3063021 179.56369 8749689
152.38672 -4.1680055 128.16277 9867654
151.70392 -4.4579625 128.65253 8354927
150.90521 -4.4049845 129.41826 8354673
150.23605 -4.4830251 129.99963 7893870
33.348831 -4.5269585 179.78505 8289138
153.40651 -3.1922646 127.76335 9736580
152.68738 -3.4831829 128.22662 9078393
151.88322 -3.4304862 128.99196 8420719
151.21198 -3.5092826 129.57498 9407357
33.18935 -3.6564541 180.05916 8813942
32.546947 -3.5751619 179.81226 8683384
152.76869 -2.6990271 128.79678 8092011
152.39893 -2.6973987 129.114 9538686
33.085232 -2.9046125 180.31055 8681843
32.390148 -2.4485354 180.18851 8814454
31.696451 -1.9942898 180.06644 9537920
32.232349 -1.3181896 180.56589 9537920
31.590807 -1.2415503 180.31749 10129801
31.493876 -0.48685241 180.62151 10458510
30.888063 -0.18515593 180.57498 10063750
30.502844 0.49604404 180.94914 10063750
28.822733 1.1797637 181.65236 8089963
22.046541 1.6550816 184.73566 9537664
21.572901 1.6519662 184.5442 8287853
22.066923 2.1177993 184.91116 10853012
21.376276 2.5752592 184.79912 8616818
20.686575 3.0311871 184.6869 9537664
21.343504 3.6573324 185.17719 9406078
20.561113 3.8026094 184.91545 9274496
21.218248 4.4317584 185.40697 8682867
20.517347 4.6547394 185.20598 7761772
19.818159 4.8768234 185.00542 7038307
20.473307 5.5095043 185.49738 7498857
19.691599 5.6516466 185.2347 7038307
20.346949 6.287499 185.72787 7038307
19.50667 6.5521755 185.48607 7235942
19.442087 7.3248291 185.7395 8881277
18.982893 7.6667976 185.67873 8092019
19.473524 8.1491404 186.05014 8092019
18.77342 8.3677435 185.84799 9868171
18.496363 9.383234 186.10387 10262928
17.889902 9.9967022 186.08202 7038307
17.775141 10.7519 186.30904 7038819
17.476072 11.646057 186.51244 7565160
16.777948 11.860899 186.31386 8091245
17.737711 12.371591 186.89003 8091245
16.899302 12.629703 186.66045 8287854
16.601519 13.530315 186.8933 8089963
15.904155 13.744026 186.70195 8089963
16.392645 14.24567 187.1097 8089963
15.789363 14.55573 187.14359 12301482
15.52669 15.218307 187.63995 15723486
14.838454 15.442255 187.57262 15920609
14.150065 15.664726 187.49635 13354682
13.894286 16.346085 188.14973 7630435
13.057879 16.652765 188.14273 7038302
12.86756 17.174372 188.70702 6445653
12.104426 17.324884 188.68622 7367015
11.511001 17.65979 188.94548 6445653
10.394782 18.173414 189.43672 5920074
57.27319 -15.304568 170.03886 9734788
56.684322 -15.311403 170.32288 9734788
83.858116 -13.968326 158.62878 7629411
73.956535 -13.964736 163.46608 8090987
73.372192 -13.965824 163.74745 8617331
72.398003 -13.968203 164.21684 8946039
71.422897 -13.970968 164.68533 9538176
70.642235 -13.973441 165.05937 8814453
69.523865 -14.17201 165.18881 10064008
68.549797 -14.176314 165.65807 10261129
67.769836 -14.180108 166.03316 9735297
66.7939 -14.185306 166.50165 9603969
65.816948 -14.190885 166.96985 10459278
65.034531 -14.195758 167.34415 10459278
63.973362 -14.407434 167.59499 9472127
62.905823 -14.618374 167.82573 9997703
62.124897 -14.624884 168.20415 10063750
61.343136 -14.631743 168.58284 10261130
60.364765 -14.640806 169.05669 10064007
59.385132 -14.65037 169.53081 9209467
58.600311 -14.658379 169.91029 9735299
57.617809 -14.668895 170.38499 9734788
56.620823 -14.676609 170.82043 9866374
55.813099 -14.456631 171.14153 10262155
54.935627 -14.133907 171.60175 9735811
53.765385 -14.014225 171.85844 9867398
53.10062 -14.003291 171.91093 9209467
141.23738 -13.233809 134.10313 12037537
140.31082 -13.342381 134.83839 8880246
139.51236 -13.568952 135.36942 9603713
138.79773 -13.682787 135.9798 16248807
122.70549 -13.681837 142.00127 8683124
122.01927 -13.680859 142.58957 8090987
121.15749 -13.679652 143.32013 7893607
120.46532 -13.6787 143.90128 7564642
99.76886 -13.691855 151.80672 9603457
98.793259 -13.683268 152.31226 9735302
