# .PCD v0.7 - Point Cloud Data file format
VERSION 0.7
FIELDS x y z rgb
SIZE 4 4 4 4
TYPE F F F U
COUNT 1 1 1 1
WIDTH 1195
HEIGHT 1
VIEWPOINT 0 0 0 1 0 0 0
POINTS 1195
DATA ascii
-9.5874281 -12.908963 -199.80122 9340022
-8.4295607 -12.993243 -199.64967 9208184
-7.3205523 -13.174586 -199.46756 8616307
112.32981 -13.399269 -163.72519 7894376
113.18354 -13.405895 -163.28795 9406847
114.05695 -13.111698 -162.71231 8815222
114.66747 -13.149272 -162.09277 8092011
-11.195899 -12.249505 -200.21118 8682867
-10.233783 -11.997459 -200.20366 9405815
-9.2629576 -12.229577 -200.01726 9208435
114.35274 -12.199114 -162.88733 9472384
115.0346 -11.880818 -162.37933 7893356
115.7945 -11.619118 -161.7657 7762027
115.2982 -10.986957 -162.57643 7564390
115.94691 -10.689841 -162.09027 7630441
116.60941 -10.489133 -161.54128 9209467
116.13224 -9.8216438 -162.35124 8748660
116.93723 -9.7636118 -161.58937 9208435
117.03086 -8.8462687 -161.96559 10260870
117.79595 -8.7091436 -161.28333 9471608
117.12814 -8.0713091 -162.26549 10984596
117.87256 -7.8215108 -161.66115 10392457
118.56397 -7.8147683 -160.98474 9077109
118.20309 -7.0908298 -161.70914 9997958
118.8547 -6.7934785 -161.22025 9011320
119.51963 -6.5936403 -160.66843 9142651
118.96015 -5.9896908 -161.52687 8353646
119.75909 -5.812932 -160.83151 8484976
119.86607 -5.006958 -161.13785 8682355
120.61248 -4.7575955 -160.53122 9668991
120.92028 -4.1440043 -160.54175 10392454
121.43984 -4.1409698 -160.03249 9931905
35.637211 -22.866066 -186.77138 8813939
36.286983 -22.852066 -186.5358 8813939
34.083988 -21.930849 -187.14096 10984849
34.846222 -22.097343 -187.08868 9537405
35.683788 -22.185276 -187.02243 7827815
36.547802 -22.165243 -186.69119 11378324
37.530125 -22.090071 -186.26357 11050129
38.689861 -21.874886 -185.80966 9932676
33.215923 -21.004932 -187.46992 9931904
33.896393 -21.244894 -187.38983 8813425
34.879696 -21.126488 -187.44431 10064262
35.76152 -21.047861 -187.44189 8419695
36.578678 -21.121277 -187.0976 9800320
37.677654 -21.225412 -186.5433 9273980
38.740627 -21.194942 -186.06003 9537662
39.588821 -21.171183 -185.67426 10787983
40.452839 -20.921558 -185.3721 9143163
41.086678 -20.904612 -185.08344 10261132
31.679035 -19.611704 -187.96223 7037274
32.870991 -20.03027 -187.8226 9537147
33.969608 -20.106098 -187.80739 9406588
34.783184 -20.120485 -187.81137 10064519
37.169289 -20.407606 -187.10992 9010808
38.009605 -20.171972 -186.81322 8616050
38.825497 -20.058865 -186.47852 9734786
39.675468 -20.036276 -186.09134 10656142
40.505909 -20.241308 -185.62157 9406079
41.351875 -20.219427 -185.23599 8879990
42.326237 -20.149639 -184.80994 8156008
43.267864 -19.945728 -184.45319 10786699
30.874931 -18.83839 -188.23607 9537918
31.951885 -18.930784 -188.21451 7695715
33.112637 -18.948887 -188.2211 9734782
33.795605 -19.188868 -188.14107 9209467
39.744995 -19.126015 -186.42583 9340281
40.62994 -19.194696 -185.98563 9143163
41.442375 -19.083891 -185.65158 8419695
42.49955 -19.058632 -185.16895 7630953
43.554237 -19.034019 -184.68715 9734267
44.346176 -19.106531 -184.28877 9734267
45.23613 -18.996376 -183.91835 11512225
45.865276 -18.982586 -183.63054 9538438
29.238028 -17.74889 -188.61684 8090987
30.00107 -17.911552 -188.56578 8090987
30.846382 -17.999413 -188.54298 8617330
32.006996 -18.015974 -188.54996 7893607
32.922817 -18.258863 -188.47137 8090986
41.727024 -18.168142 -185.88802 7565675
42.689117 -18.032656 -185.49413 8420727
43.649506 -17.897776 -185.1008 9077885
44.523521 -18.015062 -184.6461 10655888
45.315258 -18.088991 -184.24716 10525331
46.155296 -18.071518 -183.86269 7893615
47.155048 -17.922047 -183.45685 9800834
48.2071 -17.729189 -183.04422 11378324
49.126225 -17.561115 -182.6834 9536888
28.361872 -16.821989 -188.9467 8682867
29.04414 -17.059422 -188.86729 9275261
29.971148 -17.071112 -188.8734 8090986
30.899565 -17.083126 -188.87932 8617330
31.583206 -17.32193 -188.79945 9143675
44.551491 -17.196642 -184.96294 8551544
45.414398 -16.95174 -184.65941 9012095
46.256214 -16.935265 -184.27365 9538438
47.306229 -16.915243 -183.79219 8944498
48.354042 -16.895838 -183.31161 10457478
49.19059 -16.880747 -182.92767 9536888
50.025768 -16.866081 -182.54431 9077367
50.881771 -16.625048 -182.24236 10787983
51.506565 -16.614714 -181.95534 13023917
27.26705 -15.900283 -189.3774 9932676
28.174002 -16.13545 -189.24658 9735555
29.101217 -16.145937 -189.25095 10261899
29.945633 -16.231205 -189.21188 8682867
30.706911 -16.391432 -189.1306 9143675
46.527447 -16.247774 -184.42433 10853012
47.368275 -16.23238 -184.03854 9010291
48.513763 -16.064482 -183.62596 9536888
49.295746 -15.977495 -183.32535 9077109
50.133251 -15.963702 -182.94315 11314583
50.969391 -15.950239 -182.56134 12893356
52.012707 -15.933984 -182.08467 9406332
53.100716 -15.698161 -181.76942 10458510
53.933712 -15.686303 -181.39052 9735043
54.765518 -15.67475 -181.01184 9538177
25.043671 -14.985471 -190.04681 11380375
26.179075 -15.219343 -189.87997 11248790
27.338161 -15.230434 -189.88353 10196106
28.242151 -15.463558 -189.71613 11314588
28.938883 -15.470853 -189.71808 11906725
51.102207 -15.286985 -183.04219 10459275
52.148964 -15.271527 -182.56651 10195593
53.294525 -15.107944 -182.1673 9866373
54.075497 -15.023641 -181.87257 10261131
54.909431 -15.012507 -181.49265 9735298
55.742214 -15.001725 -181.11292 9998211
56.781834 -14.988777 -180.6391 9735296
57.874779 -14.756615 -180.3383 9998727
58.709213 -14.748275 -179.9738 9538176
59.542713 -14.740236 -179.6088 9077625
-5.1510997 -14.112889 -198.89677 11181204
-4.434402 -14.105715 -198.82474 11380380
-3.4797015 -14.096467 -198.72871 9209215
-2.5261912 -14.08752 -198.63275 8748919
-1.5736346 -14.078823 -198.53668 9012344
-0.6221385 -14.070528 -198.44078 9012344
7.1129117 -14.330163 -195.25407 8090987
7.8142095 -14.329267 -195.22856 10721934
8.9826975 -14.327764 -195.1805 12103329
10.150994 -14.326255 -195.12584 9932932
10.851872 -14.325346 -195.08972 9933193
21.684067 -14.555187 -190.9758 7565675
22.377789 -14.559319 -190.96649 8813941
23.303564 -14.565164 -190.9541 8814970
24.230112 -14.571354 -190.94116 9801604
62.219524 -14.340893 -179.73218 8682867
62.846245 -14.335719 -179.4549 9077112
63.680485 -14.328972 -179.08501 12104104
64.513855 -14.322477 -178.71465 12104104
65.346687 -14.316331 -178.34355 10262415
66.386009 -14.308946 -177.87917 7894635
67.424614 -14.301943 -177.41386 8092011
68.25428 -14.296649 -177.04108 11052696
68.876358 -14.292827 -176.761 14078918
98.326843 -14.184415 -168.93048 8486512
98.932404 -14.18322 -168.57596 8486512
99.938889 -14.181226 -167.98019 8947063
100.94199 -14.179229 -167.3788 9603459
101.54214 -14.178028 -167.01506 9734788
105.30067 -13.815066 -166.83328 8814454
105.9473 -13.820034 -166.52989 9801091
106.81045 -13.826959 -166.12495 9208953
107.67458 -13.83413 -165.71942 8682867
108.53988 -13.841648 -165.3132 8353647
109.4063 -13.849467 -164.90634 9538435
110.27395 -13.857631 -164.4989 8288371
110.92533 -13.863991 -164.19283 7038307
-7.3280711 -12.69307 -199.64539 8616307
-6.313972 -13.068084 -199.40192 7958377
-5.4018245 -13.155379 -199.27483 9405565
-4.4442821 -13.146376 -199.17841 9537151
-3.4878726 -13.137675 -199.08206 9932166
-2.5797267 -13.225613 -198.95517 9012344
-1.6562724 -13.441401 -198.77963 9012344
106.25661 -13.346162 -166.57672 9735296
106.90467 -13.351178 -166.27283 10787726
107.81725 -13.11966 -165.94083 9735296
108.68372 -13.126702 -165.53415 8485489
109.55138 -13.134041 -165.12686 9209471
110.42017 -13.14168 -164.71884 8288371
111.2902 -13.14964 -164.31017 7038307
112.10545 -13.077374 -163.95929 7565667
113.08418 -12.926934 -163.56367 8814966
-9.2722654 -11.746015 -200.19591 9208435
-8.3028479 -11.978434 -200.00957 9734783
-7.3394313 -11.969348 -199.91257 9274493
-6.3772616 -11.960514 -199.81563 8616307
-5.4163966 -11.951982 -199.71875 9273723
-4.5358157 -12.024689 -199.60033 9471102
-3.7355342 -12.178558 -199.46046 8681843
108.82772 -12.410355 -165.75531 8682867
109.7451 -12.177776 -165.42133 10196106
110.68861 -12.04111 -165.03654 9406850
111.53678 -11.951918 -164.67717 7564393
112.41021 -11.959256 -164.26714 7828075
113.28497 -11.96684 -163.85638 8486257
113.99656 -11.84535 -163.41812 9735300
-9.2815771 -11.261653 -200.37502 11906725
-8.3196936 -11.010431 -200.36716 9077369
-7.3545146 -11.001993 -200.26979 9077369
-6.469852 -11.075135 -200.15079 8682355
-5.6655078 -11.229735 -200.01021 8681843
111.95325 -10.99248 -164.86909 8090736
112.71615 -10.837303 -164.57597 8419700
113.53669 -10.763062 -164.22342 9735043
114.31094 -10.760499 -163.66278 9932423
114.96285 -10.671226 -163.0674 8748661
-7.3658862 -10.274599 -200.53835 8945783
114.55518 -9.8739824 -163.87517 8090730
115.20792 -9.7851067 -163.27878 8616818
115.77883 -9.5368032 -162.84419 9143163
114.84086 -9.0652313 -164.00711 7038298
115.41293 -8.8164244 -163.5717 7958888
116.10659 -8.808363 -162.89378 9405566
116.67796 -8.5602083 -162.45866 10063747
115.74085 -8.0860348 -163.62204 8681843
116.31339 -7.8373017 -163.18617 8813429
116.96661 -7.7497821 -162.58853 9931909
116.5615 -6.9439406 -163.39832 10129289
117.21555 -6.8566761 -162.79965 9800323
117.86904 -6.7697144 -162.20152 9208699
117.37241 -6.1245613 -163.0192 9537152
118.1196 -5.8744226 -162.41222 9142906
118.69301 -5.6260133 -161.97528 6511954
118.97243 -5.1354375 -161.95091 6511954
35.162666 -19.66988 -187.98053 9209467
35.839485 -19.907072 -187.86258 9209467
36.839756 -19.840235 -187.49231 9339772
37.793388 -19.631962 -187.13167 9010808
34.125526 -18.888941 -188.25458 9209467
34.975132 -18.97933 -188.23111 10985364
35.902031 -18.991673 -188.20013 9932933
36.986858 -18.969255 -187.77481 11905697
38.056839 -18.941235 -187.28731 9931910
38.910591 -18.91939 -186.89813 9734783
39.779781 -18.669882 -186.59348 9076849
40.417809 -18.654278 -186.3024 10261132
33.252193 -17.957903 -188.58528 9143161
34.101997 -18.047375 -188.56221 9604225
35.035755 -18.062006 -188.56747 13221811
36.184002 -18.070396 -188.46231 10985106
37.266537 -18.047178 -188.01613 12629674
38.123631 -18.025881 -187.62511 9931910
38.978855 -18.004957 -187.23492 10195842
39.832153 -17.984488 -186.84541 9274484
40.683559 -17.964472 -186.45657 10130052
41.468536 -17.870466 -186.12854 10261902
42.399498 -17.697704 -185.76414 9341571
31.610403 -16.862907 -188.96791 9143675
32.29501 -17.101965 -188.888 7564642
33.227245 -17.114948 -188.89363 9406076
34.16106 -17.128378 -188.89922 12628392
35.013454 -17.217831 -188.87613 9472382
37.530468 -17.353106 -188.17288 8682867
38.173893 -17.33774 -187.87907 9538172
39.04731 -17.088053 -187.5726 10459014
39.902073 -17.068552 -187.18198 9537656
40.754948 -17.049459 -186.7921 10590600
41.818436 -17.026207 -186.30571 11906724
42.879299 -17.00351 -185.82036 9801865
43.726009 -16.985876 -185.43274 7828332
44.590481 -16.740503 -185.12859 7300962
30.282175 -15.933175 -189.38463 8682867
31.289701 -16.126545 -189.28581 9012089
32.357487 -16.185213 -189.26462 9143675
33.291206 -16.197292 -189.26805 8682867
33.971565 -16.434332 -189.15128 10129542
39.954639 -16.380033 -187.43503 9998207
40.808617 -16.361687 -187.0443 9800828
41.982304 -16.157341 -186.62524 10919312
42.966728 -16.092667 -186.20706 10722709
43.815662 -16.076132 -185.8212 7169374
44.663097 -16.059925 -185.43581 8879991
45.50882 -16.044121 -185.05098 13288634
46.294933 -15.955634 -184.74747 11248796
47.443729 -15.787364 -184.33548 9602685
48.285778 -15.773111 -183.95435 9931651
27.712938 -14.59674 -190.88522 8815227
28.253874 -14.877403 -190.32954 9735814
29.282881 -15.175415 -189.94507 11183001
30.361403 -15.261784 -189.89079 9801091
31.500477 -15.499252 -189.72386 10984852
32.200916 -15.507439 -189.72513 10129542
44.1381 -15.402658 -186.19643 7037274
44.775448 -15.39116 -185.90848 7037274
45.623898 -15.376129 -185.5249 9537920
46.723499 -15.135151 -185.21121 10392203
47.645191 -15.164216 -184.75702 9931651
48.624077 -15.10397 -184.35007 10589581
49.466473 -15.090672 -183.96796 10064005
50.307507 -15.077701 -183.5862 9998725
51.191971 -14.843236 -183.36743 10459275
52.240501 -14.828123 -182.89058 9800837
53.077843 -14.816375 -182.50952 10853012
0.32837346 -14.062486 -198.34471 8354671
1.5151944 -14.052921 -198.22469 9603458
2.7006917 -14.043807 -198.10457 9932678
3.6481748 -14.036868 -198.00847 9011320
4.594872 -14.030229 -197.91237 10195593
11.319043 -14.324738 -195.06418 9933193
12.019563 -14.323821 -195.02354 8486262
12.953462 -14.322597 -194.96558 8748406
14.12032 -14.321059 -194.88664 7038307
15.053529 -14.319823 -194.81894 7038307
25.389702 -14.579387 -190.92383 11577755
26.550568 -14.58785 -190.9052 9604995
27.247877 -14.593123 -190.89339 10065035
54.658638 -14.415295 -183.03844 9011832
55.292007 -14.408269 -182.76421 9472383
56.135799 -14.399115 -182.39816 9011832
57.188564 -14.388088 -181.94008 9604225
58.240051 -14.377511 -181.48135 9998727
59.079716 -14.369262 -181.11391 8682867
59.918343 -14.361362 -180.74614 9538176
60.756058 -14.353713 -180.37778 8682867
61.59296 -14.346266 -180.00894 8682867
94.666252 -14.191558 -171.01089 9933707
95.483421 -14.189976 -170.55513 11577503
96.502121 -14.187992 -169.98047 11182489
97.314445 -14.186403 -169.51616 9208443
98.391945 -13.980015 -169.5076 9735302
99.503571 -13.778147 -169.54921 11380378
100.36002 -13.782685 -169.14833 7038814
101.21726 -13.787569 -168.74693 7038307
102.07523 -13.792804 -168.345 8287859
102.93412 -13.798285 -167.94264 5919050
104.00901 -13.805623 -167.43887 6840408
104.86979 -13.811853 -167.03531 8814454
-2.297008 -12.647377 -199.13831 9012344
-1.5797267 -12.88139 -198.97755 9012344
-0.48177287 -13.303895 -198.70792 9670530
0.66029024 -13.390498 -198.55717 9210491
1.7532735 -13.334281 -198.46402 9406591
2.7028279 -13.327363 -198.36772 9932678
3.572125 -13.400885 -198.25017 9932678
4.3611226 -13.55477 -198.11143 10854036
100.44813 -13.308866 -169.29822 8287859
101.35068 -13.076214 -168.97142 8879995
102.20992 -13.081047 -168.56917 8879995
103.07001 -13.086176 -168.16629 5919306
103.931 -13.091604 -167.76297 5919050
104.91294 -13.145814 -167.28354 8485489
105.89491 -12.985881 -166.89049 9998728
106.99897 -12.87465 -166.42078 9735296
-4.219276 -11.700641 -199.68657 11181204
-3.4190364 -11.854677 -199.54654 8288627
-2.3975329 -11.878613 -199.43138 8618364
-1.2651439 -12.078218 -199.2401 13223096
-0.25323436 -12.219257 -199.08286 11776162
0.75453997 -12.239303 -198.97055 9210491
1.6749997 -12.456811 -198.79477 9143930
2.4673619 -12.611193 -198.65553 9011321
102.56005 -12.369096 -168.69292 7695970
103.3083 -12.214178 -168.40659 5919562
104.1141 -12.139256 -168.06117 5919050
104.97756 -12.144431 -167.65665 7630182
105.842 -12.149851 -167.2516 9407621
106.82794 -12.204283 -166.7702 9275003
107.88703 -12.115937 -166.31215 10064261
108.92387 -11.931823 -165.903 9998727
110.10853 -11.460303 -165.5406 10854036
110.54443 -11.463508 -165.33612 10854036
-6.1530833 -10.749722 -200.23743 9734531
-5.3488536 -10.904552 -200.09679 10655118
-4.3230166 -10.928683 -199.98106 10260874
-3.1701999 -11.016447 -199.82878 8420470
-2.0681109 -10.959901 -199.7348 13882064
-1.1900439 -11.034019 -199.61612 16777215
-0.39234874 -11.189257 -199.476 11381404
104.46766 -11.424301 -168.18402 5919050
105.11627 -11.427967 -167.88026 6709594
106.02879 -11.193549 -167.54932 10065294
106.94313 -10.95886 -167.21764 9999244
107.81174 -10.964044 -166.81073 10327691
108.76089 -11.038746 -166.33829 9538176
109.71367 -10.896244 -165.95158 9998727
110.78867 -10.694855 -165.5316 9669251
111.72784 -10.669188 -165.10423 9143166
112.49056 -10.513745 -164.81125 9143166
-6.6487727 -9.7831488 -200.64433 9208955
-6.1628222 -10.022274 -200.50589 9208443
-5.1019549 -10.062746 -200.38052 8945014
-3.9954829 -10.006124 -200.28615 8156526
-3.0340648 -9.999342 -200.18852 9539466
-2.3121829 -10.236619 -200.02614 13882064
108.22013 -10.004285 -167.00656 11380380
108.9788 -9.8476505 -166.71596 9275004
109.79508 -9.7718353 -166.36603 9340796
110.66923 -9.776989 -165.95653 9735038
111.66612 -9.8314543 -165.47006 9143166
112.73846 -9.7415066 -165.00648 9142907
113.73879 -9.796586 -164.5181 10391944
114.39156 -9.554327 -164.19937 7038298
-4.9661822 -9.2846842 -200.65244 6510930
-4.0023303 -9.2780714 -200.55453 8089963
110.81664 -9.0521383 -166.17946 9208435
111.74302 -8.8146467 -165.84331 9734783
112.62141 -8.8194942 -165.43199 10129029
113.50115 -8.8245144 -165.01996 9142647
114.47111 -8.7780285 -164.48326 7958887
112.77192 -8.0912657 -165.65483 9208183
113.76029 -7.9338112 -165.25758 8616560
114.55719 -7.8548112 -164.86147 9471356
115.38554 -7.7986197 -164.11824 9076601
115.59926 -7.115612 -164.25677 9800324
116.22489 -6.6223812 -163.89339 9734531
35.345974 -16.91543 -188.99052 8682867
36.247395 -17.150333 -188.80212 9340540
37.265888 -17.053371 -188.41701 9998213
38.207443 -16.878212 -188.04872 9538175
34.311466 -16.134848 -189.31142 10129542
35.397968 -16.225813 -189.27527 9406333
36.541401 -16.229097 -189.12079 10656142
37.404335 -16.20969 -188.73018 8485745
38.265209 -16.190636 -188.34029 8682867
39.124184 -16.171936 -187.951 10459017
40.008003 -15.927291 -187.68971 9998207
40.864491 -15.909897 -187.30443 9734779
41.505653 -15.89704 -187.01578 9208435
28.643915 -14.604172 -190.86826 9735555
29.576288 -14.611899 -190.85046 10524814
30.742785 -14.621881 -190.82706 8682867
31.616425 -14.840233 -190.43477 13089971
32.550335 -15.211562 -189.95137 9801092
33.399502 -15.296679 -189.89636 8682867
34.337551 -15.308149 -189.89767 10721422
35.246174 -15.545241 -189.72906 9209211
37.493717 -15.533187 -189.18907 11314328
38.357403 -15.515131 -188.80096 8090987
39.218929 -15.497428 -188.4135 10459276
40.114159 -15.255774 -188.19569 9603450
41.108692 -15.191763 -187.78459 10853261
42.121761 -15.261744 -187.25389 10655882
43.111633 -15.198693 -186.84418 9800832
43.906033 -15.109988 -186.5468 8682611
44.854416 -14.944783 -186.24091 8287597
45.704369 -14.930148 -185.85643 7300962
46.340836 -14.91935 -185.56831 7564651
5.5408101 -14.023942 -197.81619 9537150
6.4864697 -14.01882 -197.73283 10590347
7.6719861 -14.020652 -197.74161 9669760
8.6210375 -14.022967 -197.75612 10064777
15.520078 -14.319202 -194.78328 9932937
16.219566 -14.31827 -194.72749 10853012
17.152016 -14.317021 -194.64934 8682867
18.084057 -14.315767 -194.56668 9341057
19.015709 -14.314509 -194.4796 11512224
19.946735 -14.313245 -194.38795 9670535
46.999363 -14.511648 -186.31468 9866632
48.069981 -14.496889 -185.86118 10392203
48.924644 -14.485424 -185.49797 9471355
49.777866 -14.474265 -185.13454 9471355
50.629753 -14.463354 -184.77083 9735296
51.480618 -14.452694 -184.40665 11248280
52.541573 -14.43986 -183.9512 8748405
53.60112 -14.427327 -183.49515 9011576
54.235886 -14.420049 -183.22121 8682867
90.339844 -14.199836 -173.33704 8616307
91.168388 -14.198264 -172.90237 10260875
91.994926 -14.19669 -172.46378 10854036
92.959663 -13.97422 -172.28198 8090479
93.796837 -13.974606 -171.85974 12433068
94.62204 -13.902962 -171.57678 9999243
95.657669 -13.761214 -171.34795 8684155
96.511299 -13.764408 -170.94899 8946299
97.579033 -13.768891 -170.44965 10721938
98.433876 -13.772799 -170.04979 11379609
3.8898892 -13.080133 -198.33502 9932678
4.678906 -13.234184 -198.19621 9668992
5.5466847 -13.30829 -198.0786 10260871
6.4935842 -13.303368 -197.99495 11247764
7.5849957 -13.352572 -197.98392 9275261
94.034401 -13.283166 -172.29704 9999243
94.986534 -13.12811 -171.91582 9078656
95.783394 -13.051721 -171.57536 9604743
96.6381 -13.054662 -171.17589 9209727
97.493446 -13.057927 -170.77602 8880252
98.56353 -13.062457 -170.2756 11050902
99.63459 -13.067347 -169.77461 12695722
100.53636 -12.834395 -169.44835 10195339
1.0403485 -11.660883 -199.1535 9210491
1.8344007 -11.815627 -199.01389 9011321
2.7541432 -12.033531 -198.83803 9143163
3.657166 -12.123647 -198.71088 8682356
4.6072164 -12.117769 -198.61409 8813428
5.6581616 -12.111586 -198.50694 9274235
6.7395101 -12.466799 -198.298 9537662
96.123222 -12.341539 -171.70317 9933707
96.765251 -12.343569 -171.40323 10262670
97.664589 -12.108975 -171.0787 10130315
98.522133 -12.112111 -170.6779 10129802
99.500366 -12.163716 -170.20131 12234917
100.54882 -12.073071 -169.74927 11182232
101.52901 -12.125324 -169.27148 10853012
102.33311 -12.049906 -168.92714 9800579
103.08126 -11.894889 -168.6409 5920074
-0.87223387 -10.710134 -199.70209 16777215
-0.074607342 -10.865541 -199.56194 10855318
0.80149508 -10.940094 -199.4433 10263179
1.7561307 -10.93392 -199.34618 9011321
2.7098775 -10.928046 -199.24902 9011321
3.6628156 -10.922399 -199.1519 9801091
4.6134191 -11.157591 -198.96646 8550255
98.651978 -11.398362 -170.90495 11379609
99.612144 -11.242709 -170.52003 9867657
100.53574 -11.214534 -170.10097 9538692
101.58725 -11.123303 -169.64758 10195595
102.57008 -11.175486 -169.16856 9537659
103.43336 -11.179634 -168.76453 5920074
104.24088 -11.10391 -168.41866 5919562
105.3122 -10.789919 -168.04565 9210242
106.1692 -10.474484 -167.77315 11315104
-1.9943194 -9.9115362 -200.1125 14803423
-1.1145434 -9.9864264 -199.99338 13224129
-0.15634486 -9.9802723 -199.89589 10263438
0.80091524 -9.9744186 -199.79837 12104617
1.7572598 -9.9687157 -199.70087 9735044
2.8315854 -10.083346 -199.54689 9340286
100.76344 -10.450447 -170.30217 9867657
101.51209 -10.293463 -170.01649 9998473
102.53476 -10.217555 -169.5704 9537659
103.58172 -9.9131155 -169.20499 7761764
104.52773 -9.9857578 -168.73483 7498856
105.37019 -9.8934364 -168.37938 8157555
106.31002 -9.7535696 -167.99765 14538189
107.17962 -9.7578068 -167.59062 12301482
107.99366 -9.6816301 -167.24188 10722450
108.75222 -9.5247612 -166.95151 10459278
-4.006927 -8.7917042 -200.73378 9932163
-3.0415492 -9.0286779 -200.54611 10788502
-2.0795131 -9.0226421 -200.44818 9934222
-1.1185565 -9.0168085 -200.35028 10855576
-0.15861079 -9.0111771 -200.25243 9736836
0.72052813 -9.0870161 -200.13297 11511706
1.518826 -9.2442541 -199.99203 10261382
104.49541 -9.0233727 -169.1371 8485749
105.62797 -8.7864304 -168.70467 9604484
106.49822 -8.7898922 -168.29764 9669763
107.36951 -8.7935286 -167.89009 9077625
108.24186 -8.7973614 -167.48196 10196106
109.11539 -8.8013916 -167.0733 9538175
109.99004 -8.8055973 -166.66393 9998211
110.91514 -8.5679073 -166.3284 9471608
-2.8061023 -8.2972965 -200.79047 10590091
-2.0837817 -8.2931623 -200.71678 9538431
-1.2024264 -8.1257553 -200.6866 9012601
-0.40050456 -8.28372 -200.54495 9736836
106.63978 -8.0652037 -168.52327 9538176
107.61692 -7.9071875 -168.13141 9538176
108.43407 -7.8293786 -167.78191 9538176
109.30927 -7.8327823 -167.37263 9801346
110.18565 -7.8363085 -166.9628 10129798
111.0632 -7.8400569 -166.55229 9866624
111.94205 -7.8439531 -166.14113 9340539
112.87244 -7.6048298 -165.80374 7564643
113.53371 -7.6078234 -165.49431 7564643
108.79759 -7.102212 -167.90508 11182742
109.56072 -6.9423695 -167.61371 11840415
110.38184 -6.8638964 -167.26262 10721933
111.26114 -6.8669424 -166.85156 10261899
112.1417 -6.8701115 -166.43985 8814453
112.9332 -6.9545512 -166.03705 8551281
113.63508 -7.1202869 -165.64323 8616560
111.41003 -6.1350937 -167.07666 9735555
112.07127 -6.1370378 -166.76767 8682867
32.613201 -14.638824 -190.78682 10591124
33.550076 -14.647642 -190.76549 7893615
34.810398 -14.767317 -190.57011 9735555
35.860912 -15.019561 -190.25677 9472384
36.660656 -15.32642 -189.74893 10919572
37.625706 -14.869829 -189.86539 13222322
38.495361 -14.853558 -189.49054 8090987
39.363159 -14.837688 -189.11591 10459276
40.525913 -14.609195 -189.028 8419439
41.611416 -14.591835 -188.5766 9208435
42.477604 -14.57821 -188.21533 10261639
9.0957804 -14.024088 -197.7608 10064777
9.8079615 -14.02597 -197.76767 11051160
10.758019 -14.028659 -197.77681 7039331
11.708657 -14.0316 -197.78584 9933193
12.422025 -14.034028 -197.7925 13353397
20.644878 -14.312293 -194.3165 8815227
21.34268 -14.311339 -194.24216 8420213
22.272654 -14.310062 -194.13933 7038307
23.202162 -14.308782 -194.03212 9669507
24.131121 -14.307495 -193.92033 11379356
25.059656 -14.306203 -193.80412 10787475
25.987427 -14.304906 -193.68346 8617075
43.342113 -14.564937 -187.85388 11183001
44.205513 -14.551965 -187.49202 13881026
45.066807 -14.539247 -187.13008 10788500
45.926613 -14.526777 -186.76791 7564651
84.904129 -14.209987 -176.06453 9998727
85.745926 -14.208432 -175.65599 9998215
86.653244 -13.976191 -175.38087 9537152
87.497047 -13.975436 -174.97462 8550513
88.339897 -13.97483 -174.56619 8089963
89.181847 -13.974398 -174.1557 8616819
89.986412 -13.89871 -173.84227 8419185
91.184547 -13.74922 -173.43703 9274493
92.248543 -13.75133 -172.94041 9538435
8.1589708 -13.067373 -198.09985 9209467
8.8686609 -13.307671 -198.01971 10722707
9.819459 -13.309861 -198.02901 10656146
10.770795 -13.312325 -198.03824 8617335
11.480065 -13.553399 -197.95782 7039331
87.859627 -13.273922 -175.17775 9011320
88.594391 -13.116696 -174.8988 8090734
89.387596 -13.038508 -174.5607 7827563
90.239189 -13.039307 -174.16356 8353648
91.091072 -13.040454 -173.76624 8748407
92.156395 -13.042259 -173.26907 8288371
93.222298 -13.044491 -172.77159 7630443
94.116638 -12.810006 -172.44931 9407106
94.757149 -12.811788 -172.15021 8684155
7.2190137 -12.108051 -198.43117 8090987
7.9332852 -12.109322 -198.4453 8683124
8.8857775 -12.111028 -198.45634 10130570
9.789464 -12.20878 -198.4303 9800838
10.545407 -12.594082 -198.29781 10261132
90.357536 -12.329751 -174.39439 8090734
91.250473 -12.093645 -174.0735 9340543
92.104225 -12.094838 -173.67522 8551543
93.171997 -12.096708 -173.17696 8551542
94.240349 -12.098969 -172.67825 9735813
95.095619 -12.10106 -172.2789 9604743
95.894112 -12.024084 -171.93793 9078656
96.850136 -11.868556 -171.5551 10262670
4.3784299 -10.677585 -199.16731 9932931
5.1705861 -10.833731 -199.02751 9274747
6.0879788 -11.053196 -198.85129 8287598
6.9913754 -11.147569 -198.77748 8485745
7.9483685 -10.908875 -198.88396 10591121
8.6608934 -11.150545 -198.80431 11906725
92.43898 -11.383142 -173.80603 9538435
93.179092 -11.225606 -173.5247 9472385
94.191582 -11.148068 -173.08417 11051159
95.262497 -11.150265 -172.5843 9998986
96.119789 -11.152327 -172.18396 9341314
96.977707 -11.154612 -171.78325 9143936
97.836151 -11.157147 -171.38219 9999242
98.738564 -10.921497 -171.0564 10590865
99.383621 -10.92372 -170.75488 9867657
3.1910634 -9.7190514 -199.64334 10195849
4.1443677 -9.9554396 -199.45723 10591631
5.0978398 -9.9505157 -199.35971 9669503
6.0505605 -9.9457684 -199.26225 9077111
7.0044065 -9.9438372 -199.21799 10262156
7.7184949 -10.186139 -199.14494 9341054
95.173332 -10.434943 -172.91377 11051159
96.168098 -10.150314 -172.56468 8814716
97.148018 -10.200264 -172.08788 8090995
98.051109 -9.963171 -171.76237 8419958
98.912193 -9.9655018 -171.36015 10327950
99.773964 -9.9679956 -170.9575 9538949
100.61107 -9.8748188 -170.60484 9473156
101.48734 -9.6539345 -170.28539 10064009
102.454 -9.497201 -169.89787 9800834
1.2796292 -8.7605562 -200.19472 11313813
2.2370915 -8.9979382 -200.00778 6709078
3.1938558 -8.9929848 -199.91 8287083
4.1497769 -8.9882326 -199.81221 9208439
5.1049314 -8.9836559 -199.71443 9010803
5.9790807 -9.0603199 -199.59526 8156267
6.7729878 -9.2191248 -199.47801 9011320
96.630478 -9.4813728 -172.61835 8090995
97.276085 -9.4827461 -172.31693 8090995
98.223595 -9.0050621 -172.06747 8683124
99.129959 -8.7667065 -171.74097 9933191
99.993729 -8.7687302 -171.33762 11248795
100.85824 -8.7709045 -170.93381 10458768
101.72354 -8.7732773 -170.52956 10984855
102.58962 -8.7758732 -170.12491 9011575
103.45658 -8.7786674 -169.71971 10458761
104.37048 -8.5406961 -169.38954 8617335
105.02227 -8.5429573 -169.08488 8288371
-0.64236403 -7.7980256 -200.74873 12039853
0.31959203 -8.0364513 -200.5609 9998981
1.2798085 -8.0315695 -200.46272 10787470
2.2391362 -8.0268869 -200.36459 6972505
3.1975369 -8.022357 -200.26643 6445136
4.0749135 -8.0992985 -200.14677 7365466
4.8712468 -8.257638 -200.00565 8088931
100.34236 -8.0473385 -171.46545 11182489
101.09368 -7.888083 -171.17926 10655890
101.90322 -7.8094654 -170.83359 9603458
102.77099 -7.8115578 -170.42841 8156524
103.63958 -7.8138237 -170.02267 9735555
104.50907 -7.8162885 -169.61641 8617335
105.37955 -7.8189006 -169.20972 8814713
106.194 -7.7407637 -168.86157 9011065
107.17083 -7.5824814 -168.46997 9538176
0.31849721 -7.3055439 -200.82967 8090728
1.3602719 -7.1379499 -200.78287 8814194
2.1608624 -7.134326 -200.70084 5920074
2.9605031 -7.2933941 -200.55902 5919050
102.90737 -7.0864034 -170.65662 8682867
103.82314 -6.8459072 -170.32658 10261899
104.69431 -6.8478189 -169.91977 9012091
105.56641 -6.8499036 -169.5125 10326924
106.43952 -6.8521118 -169.10469 8747893
107.31363 -6.8544674 -168.69635 9406334
108.18884 -6.8569708 -168.28741 8814453
109.11368 -6.6163826 -167.95317 12169380
105.05186 -6.1199379 -170.04608 9010808
105.81116 -5.959003 -169.75684 8682100
106.62867 -5.8793616 -169.40788 8747636
107.50452 -5.881115 -168.99901 9274492
108.38144 -5.8829908 -168.58955 9209467
109.25945 -5.8850398 -168.17952 12169380
110.13866 -5.887136 -167.76891 12169380
110.96218 -5.8077922 -167.41704 10327435
107.64808 -5.1491013 -169.22665 9274492
108.57465 -4.9058108 -168.89265 9077625
109.36474 -4.988688 -168.49107 11840415
110.28605 -5.1536913 -167.99536 11906209
36.815479 -14.671607 -190.56065 8946039
13.13572 -14.036657 -197.79921 9801347
14.087953 -14.040442 -197.80792 13353397
15.040891 -14.044478 -197.81659 12958897
15.756074 -14.047757 -197.82303 9341054
26.683096 -14.30393 -193.59012 9537918
27.378067 -14.302953 -193.49409 9801348
28.304478 -14.301643 -193.36223 9407363
29.23012 -14.30033 -193.22589 9209215
30.155096 -14.299012 -193.08524 9209215
31.079424 -14.297688 -192.93996 7039331
32.233856 -14.296027 -192.75197 10591124
33.156498 -14.294694 -192.59721 7038307
78.315567 -14.221939 -179.09245 7564651
79.171883 -14.220406 -178.71521 9670278
80.29464 -13.986474 -178.36105 10064011
81.145615 -13.984631 -177.9705 10195338
81.995552 -13.982911 -177.57785 10129545
82.844574 -13.981364 -177.18312 9668991
83.692635 -13.979942 -176.78633 8550769
84.488426 -13.901467 -176.46114 9209211
85.658737 -13.745825 -176.01306 9668994
11.963128 -13.1963 -198.0932 9537923
13.007733 -13.367182 -198.04198 9603712
14.105165 -13.323329 -198.06969 10393227
14.814687 -13.565427 -197.98894 10262156
81.482307 -13.280339 -178.1467 8814203
82.214745 -13.121386 -177.8694 9932163
83.006401 -13.041284 -177.53282 8418927
83.856964 -13.039985 -177.13705 8221549
84.707542 -13.03896 -176.74115 8419441
85.67823 -13.085392 -176.27014 9931910
86.71418 -12.990475 -175.82567 9668738
87.627075 -12.95894 -175.41309 9471615
88.362045 -12.801646 -175.13408 9143161
10.084874 -11.633686 -198.64316 10261132
10.954011 -11.955527 -198.53505 10063753
12.043248 -12.178271 -198.46538 9208444
13.128339 -12.217464 -198.46263 7892327
13.883607 -12.604007 -198.3297 8682867
83.966736 -12.330996 -177.37164 8813683
84.855492 -12.093148 -177.05338 8419444
85.707649 -12.09237 -176.65663 9997961
86.772949 -12.091754 -176.16054 9405566
87.838432 -12.091538 -175.66414 9800836
88.691086 -12.091685 -175.2668 9669504
89.543953 -12.092053 -174.86928 9406075
90.436592 -11.855748 -174.54855 9208955
8.9836168 -10.830167 -198.92456 10919573
10.00213 -10.863943 -198.92307 11380380
11.147298 -10.962481 -198.89929 9340287
12.003961 -11.157065 -198.83748 9208187
86.033318 -11.381015 -176.7916 7564651
86.769829 -11.222187 -176.51241 9405566
87.778694 -11.142654 -176.07442 9208443
88.846352 -11.142586 -175.57697 10130313
89.700737 -11.142829 -175.1788 10064004
90.555389 -11.143295 -174.78036 9603714
91.410362 -11.144038 -174.38171 8682356
92.207878 -11.065624 -174.04169 8550771
92.948097 -10.908056 -173.76035 8682867
8.0410891 -9.8647957 -199.2663 9341054
9.0609789 -9.8981552 -199.2653 9669506
10.207665 -9.9963312 -199.24173 10261643
11.065644 -10.191056 -199.17989 10459022
88.875694 -10.309833 -175.89886 9471871
89.857964 -10.190753 -175.48917 9932678
90.714149 -10.191043 -175.09004 11248539
91.570656 -10.191557 -174.69077 9603714
92.42749 -10.19227 -174.29114 10459023
93.284683 -10.193257 -173.89125 9340797
94.142357 -10.194443 -173.49106 10853780
95.042084 -9.9570742 -173.16725 10130057
6.3001599 -8.7362661 -199.68092 6511954
7.0955319 -8.8968191 -199.60294 9800837
8.116971 -8.9300747 -199.60794 9735044
9.1683435 -9.1005716 -199.55737 9076857
10.124665 -9.2228498 -199.5229 9537664
90.833443 -9.4749889 -175.32262 11248539
91.731255 -9.2361507 -175.00031 9274493
92.657005 -9.0929718 -174.62645 9668993
93.489441 -8.997777 -174.27678 9077113
94.349022 -8.9986086 -173.87585 9011576
95.209106 -8.9996395 -173.47462 9866885
96.069733 -9.0008726 -173.07303 9998215
97.188927 -8.7629051 -172.64713 8682872
98.310112 -8.5246983 -172.22044 9341054
4.396008 -7.7740111 -200.23296 8088931
5.1923261 -7.9324841 -200.09178 7957859
6.0682034 -8.0097456 -199.97217 7432544
7.169888 -7.9594507 -199.94685 7235421
8.2230997 -8.1301994 -199.90102 9471609
93.86895 -8.0385399 -174.48589 9208443
94.514915 -8.039012 -174.18463 9274236
95.418526 -7.7990875 -173.86003 10261643
96.281113 -7.7999401 -173.45767 10459022
97.144264 -7.8009663 -173.05502 8814197
98.128929 -7.850492 -172.57616 8814710
99.183784 -7.7557788 -172.12268 8288366
100.1128 -7.7252536 -171.70195 11380125
100.8642 -7.5658331 -171.41589 10064009
2.4818349 -6.8077731 -200.78745 5919050
3.2815137 -6.9669414 -200.64568 5919050
4.1606183 -7.0445976 -200.52557 7695202
5.1191869 -7.040791 -200.42719 7629665
6.2212682 -6.9880128 -200.33632 6709333
7.2748113 -7.1572251 -200.24226 9142649
96.408363 -7.0770512 -173.68919 9405822
97.373428 -6.9168577 -173.30396 9011832
98.180939 -6.837069 -172.95969 8617331
99.046944 -6.8380404 -172.55566 8354159
100.13042 -6.839457 -172.05016 8945528
101.21494 -6.8410635 -171.54404 10918805
102.0835 -6.842504 -171.13864 10524304
102.99848 -6.6019344 -170.8091 10261899
3.4443822 -6.3152885 -200.86829 5919050
4.1647191 -6.3126068 -200.79424 5919050
5.4618878 -6.1123505 -200.73277 6511954
6.3233991 -6.3048654 -200.57242 6511954
98.527725 -6.1115313 -173.08992 11906725
99.178246 -6.1119952 -172.78662 9011320
100.09037 -5.8701568 -172.45882 8681843
101.08083 -5.9196963 -171.97726 9405822
102.14284 -5.8237495 -171.52097 10195851
103.1354 -5.8735805 -171.03827 9209211
104.00732 -5.8748412 -170.63142 9998727
104.82294 -5.7949872 -170.28343 8748404
105.58224 -5.6339188 -169.99437 8089963
101.09357 -5.1419497 -172.28426 8681843
102.06744 -4.980123 -171.89552 8681843
103.00385 -4.9483457 -171.47186 8880246
104.07028 -4.8516531 -171.01375 10064264
105.0666 -4.9014063 -170.52939 7037274
105.94209 -4.9023361 -170.12102 8089963
106.81853 -4.9033875 -169.7121 9010808
107.74403 -4.6599755 -169.37874 8682867
103.23769 -4.1673374 -171.67709 8682867
103.89355 -4.1675425 -171.37137 9998727
104.93757 -3.9721196 -170.96339 7432288
106.00861 -3.8745577 -170.50349 8089962
107.009 -3.9240892 -170.01735 8748404
107.84008 -4.1700497 -169.53105 9274747
108.49989 -4.1706467 -169.22334 8682867
105.8335 -3.1875067 -170.86159 8616818
16.233082 -14.049973 -197.82722 9341054
16.949062 -14.053498 -197.83356 10195850
17.904427 -14.058532 -197.84193 9406334
18.860661 -14.063812 -197.85008 8682355
33.61771 -14.294025 -192.51791 8814715
34.308933 -14.293019 -192.3968 9866371
35.229927 -14.291675 -192.23164 13550517
36.150051 -14.290327 -192.06201 10788244
37.06942 -14.288973 -191.88795 9735554
37.987873 -14.287615 -191.70943 10261641
39.134731 -14.285911 -191.47992 10458250
40.280235 -14.2842 -191.24403 9143419
41.195591 -14.282826 -191.05009 8090218
42.110004 -14.281447 -190.85178 7169371
43.023407 -14.280066 -190.64903 9537402
43.935925 -14.278679 -190.44194 11183001
68.122833 -14.239712 -183.20892 9997699
68.999191 -14.238216 -182.88107 8682867
69.873978 -14.236717 -182.54901 9998983
70.747139 -14.235215 -182.21277 11116696
71.618629 -14.233711 -181.87228 9998215
72.705635 -14.231825 -181.44061 9735299
73.921036 -14.079686 -181.11749 9866373
74.738625 -14.002172 -180.84915 7958888
75.596237 -13.999335 -180.47206 8288109
76.452797 -13.996676 -180.09283 8551283
77.308319 -13.994139 -179.71165 9998732
78.111893 -13.915051 -179.40694 9604230
79.28701 -13.757628 -178.97716 10525073
15.140935 -13.247607 -198.10826 10262156
16.014309 -13.331171 -198.08713 10262156
17.02216 -13.191886 -198.14862 9670018
18.042561 -13.460689 -198.06143 9077625
75.099602 -13.302958 -181.11151 9405822
75.738564 -13.299994 -180.81494 9406078
76.623581 -13.060004 -180.49927 7959408
77.475304 -13.056581 -180.10381 9143681
78.326744 -13.053454 -179.70842 9933196
79.177925 -13.05058 -179.31291 8814459
80.241646 -13.047452 -178.81857 8814203
81.246086 -12.966196 -178.38335 9208960
81.978813 -12.807175 -178.10594 9537403
13.427953 -11.642005 -198.67567 9208187
14.183934 -12.028746 -198.54266 8550769
15.090222 -12.12797 -198.51617 9011833
16.047314 -12.131535 -198.52501 9801605
16.758698 -12.374856 -198.44383 9801605
77.576637 -12.347332 -180.34248 9143681
78.523125 -12.186154 -179.96642 10130575
79.316109 -12.104661 -179.62978 8683131
80.289391 -12.14921 -179.15833 8024945
81.326263 -12.051888 -178.71442 8617079
82.299232 -12.097079 -178.24287 8813941
83.151299 -12.095503 -177.84647 8813683
84.040062 -11.857404 -177.52831 9537403
12.329225 -10.836683 -198.95775 6971738
13.204991 -10.919188 -198.93697 7563618
14.162713 -10.921767 -198.94623 7629411
15.039155 -11.004801 -198.92526 7695204
79.633415 -11.392871 -179.76877 7564651
80.273666 -11.391055 -179.47124 7564651
81.375931 -11.150868 -179.05438 8353905
82.443039 -11.148576 -178.55811 8616819
83.296654 -11.14697 -178.16101 8616817
84.150261 -11.145617 -177.76381 10130056
85.003868 -11.144511 -177.36655 9340802
85.798897 -11.064569 -177.02835 8025201
86.535667 -10.905642 -176.7491 9405566
11.390801 -9.8695736 -199.30054 7564651
12.267659 -9.9517765 -199.27989 6314066
13.226415 -9.9538555 -199.28932 5919050
14.103909 -10.036522 -199.26843 6510930
82.337532 -10.435798 -178.89456 9011577
83.442436 -10.195565 -178.4765 9801094
84.297554 -10.194209 -178.0786 10854295
85.152687 -10.193075 -177.68065 9340802
86.007881 -10.192167 -177.28255 7893615
86.863182 -10.19146 -176.88432 8222319
87.718544 -10.191002 -176.48589 9076857
88.612991 -9.9523926 -176.16537 9471871
9.6531153 -8.7378502 -199.69484 9537664
10.449605 -8.9002686 -199.64404 10459022
11.327626 -8.9822445 -199.62347 8683130
12.287446 -8.983798 -199.63309 7564651
13.242517 -9.2279949 -199.5542 6182222
84.408318 -9.4787951 -178.31531 9078143
85.360893 -9.3182249 -177.93613 9472388
86.224144 -9.0940924 -177.62402 8485491
87.053551 -8.997653 -177.27635 8353647
87.910851 -8.9970264 -176.87706 9077113
88.768318 -8.9965963 -176.47757 9077369
89.777 -9.0562286 -175.98352 9340797
90.832069 -8.7092133 -175.63142 9866885
91.852013 -8.5177202 -175.23311 9866630
92.496643 -8.5179958 -174.9326 9208443
8.7078295 -7.7662506 -200.03914 9208435
9.4244585 -8.0096388 -199.95799 9011062
10.384809 -8.0105429 -199.96793 9274494
11.34578 -8.01157 -199.97774 12235687
12.06199 -8.2556343 -199.89632 7564651
88.065025 -8.0389166 -177.19069 8814454
88.963089 -7.798152 -176.869 9867398
89.822746 -7.7977362 -176.46854 9209211
90.803596 -7.8455238 -175.99216 9735555
91.851997 -7.749342 -175.54222 9340029
92.833801 -7.797574 -175.06528 10327179
93.636894 -7.7177258 -174.72313 10721937
94.598061 -7.5579057 -174.33943 9668990
7.7596326 -6.7920561 -200.38348 7367005
8.4776049 -7.0359182 -200.3031 8945264
9.439187 -7.0364208 -200.31313 7827298
10.401319 -7.0370474 -200.32315 7235167
11.11876 -7.2814345 -200.24158 9867401
90.15641 -7.0761948 -176.60339 8682867
90.900635 -6.9151201 -176.32132 9472383
91.825089 -6.8827524 -175.90347 9735299
92.875954 -6.7861657 -175.45253 13090994
93.859932 -6.8344936 -174.97453 11775138
94.723083 -6.8347216 -174.57214 9405815
95.586708 -6.8350725 -174.16951 9537664
96.49337 -6.5941429 -173.84395 9537920
97.142143 -6.5945101 -173.54143 8682867
6.6465688 -5.9783936 -200.67337 6906456
7.5278478 -6.0596766 -200.64757 7367005
8.4093599 -6.1412644 -200.62871 6775125
9.4503336 -6.3045197 -200.58025 7367005
92.904175 -6.1100793 -175.71141 10195591
93.904015 -5.8195057 -175.36237 10787984
94.89019 -5.8678341 -174.88335 9800831
95.75544 -5.8679318 -174.48 9735041
96.621223 -5.8681293 -174.07645 9209211
97.487549 -5.8684506 -173.67255 10261899
98.296745 -5.7880173 -173.32776 10788244
99.265938 -5.6269321 -172.9409 8681843
95.015907 -5.1406746 -175.11729 10064003
95.924736 -4.8975925 -174.79155 9471614
96.792076 -4.8974872 -174.38737 9669506
97.660057 -4.8974299 -173.98285 10525071
98.528603 -4.897522 -173.578 10590865
99.39782 -4.8977132 -173.17279 9735299
100.26775 -4.8980041 -172.7673 11182489
101.1832 -4.6548333 -172.43843 9932166
101.83703 -4.6550422 -172.13364 8681843
97.137779 -4.1673536 -174.51999 9735555
97.891159 -4.0044308 -174.23441 9932934
98.7033 -3.9228506 -173.88873 11380380
99.574135 -3.9226637 -173.48299 10656657
100.44567 -3.9225254 -173.07681 10722194
101.318 -3.9224858 -172.67029 9405308
102.19109 -3.9224949 -172.26338 10457995
103.00747 -3.8410571 -171.9157 9997701
103.98605 -3.6780729 -171.52521 10262156
99.706795 -3.1892705 -173.71623 10459278
100.62428 -2.9437485 -173.38742 9866884
101.49824 -2.9432561 -172.9803 11181716
102.37298 -2.942812 -172.57278 11576473
103.24854 -2.942467 -172.16489 8879735
104.12499 -2.9421201 -171.75655 9670277
104.91361 -3.0237994 -171.35616 9143419
101.85268 -2.2064602 -173.11154 11576473
102.50977 -2.2059133 -172.80556 10129030
103.38663 -2.2051656 -172.3972 8618361
19.578373 -14.067986 -197.85626 6510930
20.296715 -14.072307 -197.86226 7038302
21.255356 -14.078386 -197.87025 9736071
22.21501 -14.084763 -197.87817 8289140
44.847393 -14.277287 -190.23045 12893103
45.98518 -14.275542 -189.95969 11314844
47.121494 -14.273791 -189.68254 9735559
48.029202 -14.272385 -189.45569 8089963
48.935886 -14.270974 -189.22453 9471871
49.841412 -14.26956 -188.98901 10393229
50.745789 -14.268142 -188.74908 10393485
51.649055 -14.266719 -188.50479 9275004
52.776321 -14.264935 -188.19319 11183001
53.901855 -14.263145 -187.87517 11314071
54.800838 -14.261709 -187.61583 9538174
55.698528 -14.260269 -187.35201 8814452
56.594955 -14.258824 -187.08392 9143675
57.490124 -14.257377 -186.81148 10261899
58.383926 -14.255924 -186.53482 9537667
59.49926 -14.254105 -186.18269 9208956
60.612633 -14.252279 -185.8243 9077624
61.501575 -14.250814 -185.53261 8353647
62.389225 -14.249344 -185.2366 11050387
63.275448 -14.247871 -184.93633 11050644
64.160141 -14.246396 -184.63181 8090987
65.04335 -14.244917 -184.32303 9538177
66.145294 -14.243062 -183.93085 12958637
67.423264 -14.101278 -183.79268 10655628
68.421761 -13.816515 -184.01601 10720653
69.276917 -13.810108 -183.6201 8090991
70.131416 -13.804004 -183.22441 8682867
70.985344 -13.798203 -182.82893 10853012
71.838661 -13.7927 -182.43349 9472383
72.691399 -13.787548 -182.03821 9209467
73.54377 -13.782649 -181.64308 10853012
17.709457 -12.619333 -198.3647 8814709
18.420631 -12.86288 -198.28351 7235421
19.371357 -13.107648 -198.2043 9143163
20.330738 -13.112926 -198.2126 9736071
21.199064 -13.4384 -198.1031 10920087
21.993486 -13.603455 -198.0513 7565675
68.695488 -13.342008 -184.07967 11378324
69.337349 -13.33734 -183.78252 8090991
70.22316 -13.094775 -183.4675 9077625
71.078156 -13.089192 -183.0714 10129801
71.932564 -13.083915 -182.6754 9603713
72.786499 -13.078937 -182.2795 9340797
73.853188 -13.073112 -181.78485 9142906
74.859055 -12.989289 -181.34998 7432800
75.804558 -12.827466 -180.97462 8485236
16.779488 -11.653413 -198.70712 11183001
17.491699 -11.896957 -198.6259 10590864
18.451305 -11.90111 -198.6346 8222572
19.411854 -11.905512 -198.64322 11511967
20.124409 -12.150005 -198.56165 9012606
71.171165 -12.378787 -183.31435 10261387
72.118996 -12.215243 -182.93864 9341053
72.913528 -12.131789 -182.60204 9406081
73.768456 -12.127333 -182.20552 8748406
74.836418 -12.122107 -181.71001 7235421
75.903824 -12.117323 -181.21458 8287853
76.757294 -12.113744 -180.81836 7630442
77.644348 -11.873549 -180.5018 9933196
78.284348 -11.871285 -180.20453 9143681
15.367188 -10.684183 -199.0457 8287597
16.320358 -10.928575 -198.96669 9406590
17.520729 -10.932843 -198.97792 11775138
18.399334 -11.016731 -198.95662 10393485
73.223106 -11.418638 -182.74522 10261132
73.865044 -11.41542 -182.44743 8156527
74.967125 -11.172651 -182.03171 8156267
76.03643 -11.168089 -181.53539 7959144
76.891411 -11.164682 -181.13834 9669764
77.746094 -11.161527 -180.74135 11183004
78.60054 -11.158622 -180.34442 12827829
79.395088 -11.077 -180.0071 10656663
80.343758 -10.916019 -179.62999 7564651
14.43171 -9.7148705 -199.38925 6510930
15.386182 -9.9592447 -199.31027 8287597
16.587704 -9.9627523 -199.32182 10789011
17.467201 -10.046216 -199.30069 9670275
76.136139 -10.454371 -181.77649 7959144
77.025932 -10.212798 -181.45929 7959144
77.882088 -10.209766 -181.06154 10985368
78.738014 -10.206982 -180.66389 14012101
79.593697 -10.204398 -180.26624 10459284
80.449181 -10.202043 -179.86858 7564649
81.304543 -10.199908 -179.4709 9143163
82.409538 -9.959343 -179.05295 9537665
13.25332 -8.7431068 -199.7312 8353651
14.449491 -8.9879694 -199.65457 7103067
15.652154 -8.9906931 -199.6664 11117208
16.608318 -9.2358885 -199.58714 14078661
78.198608 -9.493453 -181.2028 11379356
78.935898 -9.3318596 -180.92439 13025208
79.733116 -9.2499313 -180.58592 10459284
80.62542 -9.0083961 -180.26749 8814199
81.482628 -9.0063515 -179.86885 7959401
82.421204 -9.0726032 -179.40486 8682868
83.473701 -8.9425726 -178.96678 9407107
84.519279 -8.7615595 -178.55243 11578018
85.31768 -8.6806612 -178.21284 9011838
86.057358 -8.5202293 -177.93272 8814454
12.389092 -7.9318519 -200.01788 8288373
13.510182 -8.0145798 -199.99965 10195596
14.714059 -8.0165863 -200.0117 8747892
15.430596 -8.2614241 -199.93008 11906725
81.625488 -8.0485458 -180.188 7564643
82.579796 -7.8864894 -179.80843 8419955
83.379158 -7.804924 -179.46866 8354934
84.452744 -7.8030691 -178.96904 11314846
85.526405 -7.8015127 -178.46935 10590607
86.385353 -7.8003979 -178.06946 9735812
87.244453 -7.7994828 -177.66943 7893096
88.142319 -7.5585699 -177.34789 8617075
11.445718 -6.9565859 -200.3636 11446173
12.568192 -7.0389619 -200.3455 11051160
13.691041 -7.1216044 -200.32729 11839907
14.491017 -7.2854209 -200.27603 9208443
83.703865 -7.0835495 -179.60768 7565675
84.348869 -7.0824246 -179.30742 9933708
85.461487 -6.8398705 -178.88651 9998470
86.537086 -6.8384118 -178.38576 8551025
87.397713 -6.8373685 -177.98511 7234653
88.258507 -6.8365259 -177.5843 8288109
89.119469 -6.8358326 -177.1833 9472383
89.922127 -6.7549524 -176.84181 9340797
90.666634 -6.5939112 -176.55969 8089963
10.413701 -6.304945 -200.5903 7037274
11.136575 -6.3053641 -200.59785 7037274
86.005013 -6.1158485 -178.92453 8682867
86.651207 -6.1149721 -178.6237 8287853
87.551521 -5.8721547 -178.30177 7564386
88.413841 -5.8712087 -177.90028 7959144
89.276344 -5.870338 -177.49864 9735555
90.139153 -5.8696408 -177.09685 9275004
91.002129 -5.8690186 -176.69485 9669506
91.865471 -5.8685451 -176.29266 10393229
92.770027 -5.6262703 -175.96863 9932678
88.530678 -5.1451907 -178.13792 8682867
89.492714 -4.98247 -177.75507 9866882
90.298134 -4.900794 -177.41257 9669247
91.162697 -4.9000692 -177.00989 10393229
92.027626 -4.8993931 -176.60706 10130057
92.892906 -4.8987918 -176.20406 8946039
93.758553 -4.8982892 -175.8008 9076851
94.75396 -4.7764878 -175.38594 9800831
91.283447 -4.1712704 -177.24689 9998983
92.190277 -3.9269168 -176.92253 9866629
93.057121 -3.9261377 -176.51884 9011576
93.924393 -3.9254079 -176.11496 9537406
94.792061 -3.9247522 -175.71082 9274487
95.782059 -3.9729235 -175.23009 9932167
96.767693 -3.8017144 -174.83963 9866374
97.658882 -3.6792529 -174.47357 9735555
93.397766 -3.1943645 -176.65457 9406078
94.149376 -3.030612 -176.37018 9406078
94.960091 -2.9482675 -176.02538 9142651
95.829887 -2.9474084 -175.62038 9668995
96.700233 -2.9466226 -175.21509 8945272
97.788963 -2.9457388 -174.70804 9142906
98.878609 -2.9448786 -174.20055 9998727
99.795403 -2.6992581 -173.87209 11380380
95.957466 -2.21275 -175.85651 8813686
96.872032 -1.966134 -175.5295 8813942
97.74453 -1.9650446 -175.12331 8616563
98.739876 -2.0130112 -174.64011 9735299
99.806335 -1.9134786 -174.18315 8814710
100.80346 -1.9615469 -173.6991 8748660
101.62119 -1.8786157 -173.35136 10524300
98.093575 -1.2269094 -175.25769 10459023
