# .PCD v0.7 - Point Cloud Data file format
VERSION 0.7
FIELDS x y z rgb
SIZE 4 4 4 4
TYPE F F F U
COUNT 1 1 1 1
WIDTH 1202
HEIGHT 1
VIEWPOINT 0 0 0 1 0 0 0
POINTS 1202
DATA ascii
-170.15689 -32.75407 56.889622 10853012
-170.71239 -32.720638 56.208294 9735043
-171.34082 -32.650524 55.456429 9932934
-171.87617 -32.630577 54.792622 9406846
-172.53279 -32.549095 54.01194 9736067
-139.51535 -31.602257 89.470963 8879990
-140.16055 -31.731123 89.014244 8550256
-140.96156 -31.603645 88.572968 8550513
-141.81706 -31.737268 87.983582 10523529
-142.54851 -31.962429 87.431175 8682867
-167.95094 -32.111973 60.227345 9011579
-168.48039 -31.93152 59.502796 11248021
-169.09752 -31.76754 58.806133 9406589
-169.64661 -31.819092 58.082981 10064262
-170.41414 -31.670668 57.20166 9340542
-171.10536 -31.737192 56.290272 9143163
-171.66019 -31.791416 55.558262 9538176
-172.21667 -31.846518 54.823692 10262667
-172.77473 -31.902498 54.086536 10130825
-173.45259 -31.811108 53.284874 9931649
-174.12727 -31.636145 52.536243 8812910
-174.80554 -31.548119 51.732082 8484979
-175.55519 -31.513041 50.806702 7038307
-138.34915 -30.364563 90.930038 9734788
-138.84837 -30.525385 90.494469 9471872
-139.48161 -30.659809 90.000931 9077370
-140.304 -30.78265 89.399643 8813685
-141.24008 -30.813053 88.746132 8616049
-170.09882 -30.976059 58.007736 10064262
-170.51311 -31.014542 57.462368 8617075
-171.20546 -31.079689 56.550354 8617075
-171.95004 -30.886297 55.787655 8682611
-172.55791 -30.987839 54.93082 10787988
-173.24475 -30.834194 54.23175 11116697
-173.90279 -30.67536 53.51936 11576728
-174.4557 -30.728996 52.771309 8746860
-175.01164 -30.783766 52.021049 8352102
-175.62791 -30.88994 51.147591 8024687
-176.36011 -30.786213 50.348904 10063753
-176.96706 -30.683584 49.678123 8945271
-177.65822 -30.60437 48.873756 8617077
-178.17601 -30.582859 48.247871 8486003
-178.89481 -30.505146 47.365082 8616819
-135.44838 -29.205093 94.249275 8880503
-136.26997 -29.261932 93.608963 8617331
-136.73766 -29.505859 92.820747 7695976
-137.50945 -29.662926 92.147766 8222065
-138.21526 -29.771431 91.556877 8353651
-139.07266 -29.745392 91.044601 9142907
-139.8047 -29.904478 90.446213 9931910
-175.47827 -30.168673 52.158634 7300446
-176.02785 -30.221512 51.400841 7630187
-176.74324 -30.069862 50.686897 11116697
-177.4613 -29.918468 49.969173 9933193
-178.01682 -29.973083 49.20174 7762539
-178.74091 -29.821682 48.476372 7762539
-179.27509 -29.873455 47.695793 8879735
-179.7187 -29.952446 46.749931 8353903
-180.57776 -29.587128 46.045601 7037530
-181.27312 -29.38776 45.433052 7893096
-181.62901 -29.411652 44.593903 8814454
-181.89543 -29.429857 43.963501 8682867
-120.2353 -28.399927 110.1217 12959154
-121.0601 -28.648115 109.54523 14274500
-121.96282 -28.576263 108.98118 9801604
-122.37308 -28.771656 108.21522 9341053
-122.93187 -28.841866 107.26748 9209467
-123.57478 -28.843735 106.52535 8419440
-124.21348 -28.8456 105.7796 10261132
-134.11131 -29.110416 95.248917 9143163
-134.61229 -29.14563 94.875168 8090987
-182.98964 -29.122059 43.994186 6511954
-183.34558 -29.14666 43.147011 7367263
-183.70052 -29.171663 42.298141 9143420
-186.25478 -29.018339 40.531097 11116184
-186.49489 -29.020039 39.409294 9208187
-190.50069 -29.030289 35.962196 7760997
-190.6711 -29.031641 35.044472 8879734
-194.70525 -29.04212 31.440718 5919050
-194.81721 -29.043125 30.737371 5919562
-194.92705 -29.044128 30.033682 7367005
-119.70279 -27.44072 110.78503 11380893
-120.46297 -27.622465 110.32806 10196107
-121.32626 -27.729733 109.84989 10196107
-122.07069 -27.929419 109.39341 10459278
-118.98549 -26.471914 111.54521 12697009
-119.8252 -26.590233 111.07439 10590865
-120.74812 -26.64859 110.58652 9472127
-121.24621 -26.879442 110.241 8682867
-118.26745 -25.505907 112.30464 9340539
-119.00227 -25.549141 111.9175 10327692
-120.048 -25.661524 111.3456 10590609
-120.7343 -26.051445 110.83989 10985367
-117.54877 -24.542486 113.06328 10195590
-118.30661 -24.716736 112.61053 10327432
-119.28297 -24.574202 112.1787 9472642
-119.96516 -24.812292 111.73767 9537665
-116.82922 -23.581493 113.82139 11774364
-117.74225 -23.610931 113.35038 8880502
-118.58177 -23.622179 112.92384 10130312
-119.08223 -23.967295 112.53002 9143934
-116.2469 -22.495022 114.53065 9341307
-117.02408 -22.668512 114.1001 9933187
-117.83752 -22.710009 113.67422 8353903
-115.491 -21.531698 115.25362 9866630
-116.35957 -21.643166 114.82316 9998724
-117.29884 -21.691219 114.36519 9537404
-117.79575 -21.91404 114.02357 9931905
-114.89729 -20.44702 115.9534 8945783
-115.68348 -20.617575 115.53573 8945783
-116.57464 -20.711956 115.1021 9537662
-117.27987 -21.094736 114.62083 9010806
-114.14007 -19.488098 116.67517 7564643
-115.00681 -19.594206 116.24767 9077369
-115.9582 -19.638943 115.80726 8945783
-116.47562 -19.862572 115.48765 8287342
-113.54425 -18.406364 117.37469 8880503
-114.32911 -18.572285 116.95947 9012089
-115.21829 -18.661245 116.52898 8419696
-115.93237 -19.041454 116.05897 8287342
-112.78568 -17.451193 118.0956 9011575
-113.65075 -17.55221 117.67088 9077882
-114.59992 -17.591333 117.23373 8617331
-115.11674 -17.811882 116.91557 7564643
-112.40411 -16.511789 118.64275 11050131
-112.97133 -16.533289 118.38223 10852751
-113.8587 -16.617121 117.95456 9077882
-114.57235 -16.993467 117.48637 9012089
-111.50793 -15.301175 119.69704 9735297
-112.31161 -15.605952 119.11517 8682867
-113.18869 -15.617291 118.70269 10129542
-113.75462 -15.767491 118.3424 8682867
-109.65409 -14.114848 122.04862 9472383
-110.45277 -14.254959 121.36236 9603711
-110.98473 -14.665848 120.46399 9603711
-111.82563 -14.731361 120.03638 8485488
-112.47026 -14.946358 119.5696 8682867
-96.441902 -13.459831 135.76883 7564643
-97.418411 -13.27651 135.40935 9143163
-98.121201 -13.492665 135.01137 8813686
-100.65349 -13.77935 131.05598 8682867
-101.12591 -13.78051 130.69148 8090991
-101.91025 -13.78244 130.08029 9998730
-102.69116 -13.784373 129.46465 9208703
-103.4681 -13.786304 128.84399 9406082
-104.39559 -13.788623 128.09332 9998474
-105.16453 -13.790554 127.46274 8420727
-105.62396 -13.791713 127.08215 9341571
-108.75369 -14.091785 122.52185 8682867
-95.838684 -12.505966 136.41783 8879737
-96.61747 -12.654562 136.01318 7169891
-97.331665 -12.532712 135.74536 8353647
-95.047569 -11.548326 137.15161 9142652
-95.903427 -11.629665 136.73976 11575960
-96.837608 -11.645137 136.3195 9734015
-97.354744 -11.857004 136.00551 7563619
-94.4076 -10.45682 137.87199 7826790
-95.2799 -10.546695 137.4494 8945015
-96.096962 -10.7333 137.01259 9274237
-96.782684 -11.034632 136.5881 9340027
-93.765686 -9.3637056 138.59395 9142649
-94.469566 -9.5763273 138.19684 9142649
-95.508018 -9.6309719 137.71468 11116179
-93.121559 -8.2683563 139.31766 9537150
-93.900719 -8.4982615 138.88028 8945014
-94.718704 -8.6952906 138.43892 8089962
-95.347527 -8.9756899 138.04794 9142649
-92.509628 -7.3076849 139.97324 12432037
-93.094414 -7.5591421 139.61345 9208442
-94.067513 -7.5693178 139.17799 8945014
-91.674622 -6.2064862 140.78392 9735046
-92.491486 -6.4871511 140.30954 10326666
-93.373367 -6.577332 139.8826 9208442
-93.904922 -6.9112287 139.51343 8089963
-91.093536 -5.3795938 141.3723 9472128
-91.765831 -5.453217 141.04488 9669253
-92.702972 -5.4604077 140.62659 10261132
-93.411034 -5.6723204 140.22803 12432037
-90.996651 -4.6232171 141.71788 8419699
-92.054924 -4.5889039 141.26263 8485495
-92.64238 -4.8409863 140.90131 9537667
-89.787865 -3.1687453 142.83658 7893608
-90.420273 -3.4480343 142.44444 7630442
-91.242126 -3.6424246 142.00249 8485238
-92.026062 -3.871536 141.56339 8814203
-89.202621 -2.3360393 143.43037 9011838
-89.724312 -2.5459418 143.11507 9209215
-90.663437 -2.5500746 142.69765 8090994
-91.373688 -2.7613256 142.29836 8419702
-88.322128 -1.0837232 144.32352 9011838
-89.048752 -1.4507115 143.85426 7827565
-89.931343 -1.5057645 143.44142 8813943
-90.565727 -1.7862917 143.04785 9011581
-87.622841 -0.24608742 145.13185 10524559
-88.424469 -0.41524029 144.6441 9077117
-89.295845 -0.50107902 144.19141 7761255
-89.909103 -0.67020285 143.78714 10261132
-86.974518 0.49033087 146.0341 9274237
-87.745125 0.34168303 145.56934 10063752
-88.681366 0.27679634 145.10146 8879737
-75.519737 1.7282751 158.06493 10392973
-76.303902 1.7725421 157.94266 9669762
-76.778969 1.5118766 157.76262 9932934
-85.068443 1.0251578 148.05222 10985623
-85.825218 1.0241466 147.71846 10524039
-86.582817 1.0231336 147.38445 9273972
-75.447014 2.5983584 158.3985 10195850
-76.311417 2.6003468 158.24644 8946039
-74.977562 3.6883824 158.88332 9341054
-75.453484 3.4278555 158.70308 9801349
-76.203354 3.2553475 158.50688 8682867
-74.67585 4.4901791 159.23213 9143675
-75.649696 4.2755637 158.98083 10196107
-74.155907 5.7326493 159.78197 8617331
-74.890213 5.3704882 159.51866 8880503
-75.62513 5.0079265 159.25511 9341054
-74.141228 6.5416126 160.08275 7695718
-74.972633 6.3269472 159.85667 8090987
-73.283241 7.4933481 160.58524 7169376
-74.188957 7.3834004 160.38455 7563619
-72.759331 8.7471304 161.13995 7563877
-73.528603 8.4771776 160.90446 7563619
-74.389397 8.096343 160.61192 9340027
-72.066338 9.8547783 161.67073 9341310
-72.819252 9.6852255 161.4751 8221291
-73.515404 9.4251041 161.25621 8418927
-72.037117 10.60099 161.95096 9931906
-72.945122 10.493361 161.75069 9273720
-71.454994 11.638773 162.3885 9341310
-72.082634 11.424385 162.22456 9142135
-72.738869 11.434378 162.12161 10851980
-71.40461 12.626575 162.69429 9143163
-72.225761 12.550518 162.54144 9800322
-71.272408 13.661412 163.02718 8748404
-72.149712 13.677603 162.89322 8090987
-70.765511 14.69549 163.73924 8814451
-71.576881 14.345883 163.18533 8090987
-69.260765 15.73659 164.86366 9933702
-70.063126 15.514852 164.55119 9275256
-70.865318 15.292878 164.2386 9208435
-64.596252 16.93614 170.15221 10064003
-65.270607 16.95071 170.07561 10064003
-67.936531 16.297457 166.74394 10788247
-64.048058 17.862965 170.55696 10064003
-64.549973 17.592321 170.39723 10656656
-65.334549 17.421606 170.23964 10064003
-63.91745 18.56679 170.82967 10129797
-64.732277 18.507093 170.70891 10327176
-63.398788 19.736872 171.31967 10655883
-63.901817 19.464867 171.15927 10853262
-64.68792 19.294306 171.00154 10064003
-63.267242 20.446321 171.59445 10064261
-63.943607 20.463467 171.51857 10655883
-62.520973 21.619465 172.11252 9932675
-63.25058 21.351961 171.92647 10195590
-61.879189 22.607073 172.93042 7762027
-62.556652 22.319183 172.595 8880503
-63.30505 22.133911 172.32732 9209467
-60.511551 23.649246 174.37862 7826790
-61.375076 23.657101 174.15532 7038307
-61.789989 23.112539 173.3356 7235685
-59.695438 24.209776 175.4245 9669507
-60.577507 24.223473 175.24605 10261644
-154.35912 -43.293301 75.093445 8485747
-154.72241 -43.320469 74.58049 9208443
-153.15881 -42.259918 76.340469 8090991
-153.84959 -42.705475 75.716797 8485747
-154.58243 -42.678967 75.20079 8485747
-155.08069 -42.749008 74.384224 9537665
-155.51753 -42.516201 73.811775 13024949
-152.3228 -41.426434 77.223976 7695979
-153.00815 -41.596085 76.724457 8024687
-153.88939 -41.766979 76.102844 9209467
-154.88072 -41.64389 75.442535 8354161
-155.37468 -41.670738 74.661072 9208955
-155.89711 -41.692936 73.760376 10524559
-156.42633 -41.632553 72.907394 9208443
-156.97627 -41.321705 72.199287 11511711
-151.07925 -40.259701 78.506248 6709341
-151.77255 -40.567863 77.941162 9208445
-152.54729 -40.676155 77.413071 9011323
-153.32573 -40.785889 76.881973 7038307
-154.10805 -40.897026 76.347862 8617333
-154.61665 -41.18483 75.90625 7038307
-155.72998 -40.705578 74.752785 8156527
-156.13689 -40.652336 74.10186 9208443
-156.66069 -40.675171 73.19838 10261130
-157.18459 -40.699238 72.2938 11445917
-157.6911 -40.618389 71.494049 7103067
-150.23621 -39.29929 79.449722 7564392
-150.92719 -39.603142 78.888 7564392
-151.89236 -39.73378 78.23188 7564135
-152.87135 -39.739513 77.621872 7038307
-153.55212 -40.032913 77.07103 7695979
-156.44858 -40.034393 74.017944 15722454
-156.93759 -39.844833 73.32605 13879996
-157.50694 -39.599174 72.53833 13748668
-157.97748 -39.742088 71.638687 10393228
-158.51797 -39.587654 70.834229 10196104
-159.06238 -39.45443 70.007828 11182230
-149.20392 -38.321426 80.518303 8616307
-149.78976 -38.53727 80.060272 9274748
-150.46721 -38.695644 79.570572 7695720
-151.32274 -38.68058 79.046265 8222064
-152.01944 -38.772587 78.573654 5920082
-152.59412 -38.97678 78.127708 7038307
-157.81041 -38.828594 72.577805 14604229
-158.30153 -38.639793 71.881836 9998725
-158.82848 -38.665344 70.9711 10130311
-159.35561 -38.692074 70.059113 11445656
-159.77747 -38.714493 69.328445 10129801
-160.16486 -38.523075 68.809868 7038307
-148.36484 -37.375927 81.452789 8090987
-148.86003 -37.64727 81.026703 8418927
-149.81522 -37.767517 80.381393 8682355
-150.79236 -37.61974 79.839676 8024941
-151.35469 -37.963787 79.340179 5920082
-158.61681 -38.019463 71.793549 8682867
-159.01552 -37.897137 71.206238 9867139
-159.53185 -37.851982 70.364159 10459276
-160.1311 -37.670238 69.479813 9077372
-160.61594 -37.749638 68.601677 6906718
-161.19061 -37.408619 67.873398 7103322
-161.65047 -37.32822 67.152359 9735812
-147.58478 -36.548595 82.298882 9866371
-148.40086 -36.751434 81.70369 9274492
-149.23917 -36.643242 81.23085 9142907
-149.93658 -36.812851 80.723839 9143163
-150.58269 -36.808079 80.325035 10854036
-159.74341 -37.225281 70.456192 8682869
-160.3969 -36.726322 69.707886 7827298
-160.90967 -36.646446 68.89679 6511954
-161.4404 -36.675343 67.977104 7103323
-161.97145 -36.705357 67.055923 8551282
-162.46858 -36.520443 66.346741 7432289
-146.31454 -35.461563 83.562752 8617328
-146.89336 -35.667091 83.113693 10260870
-147.71324 -35.762421 82.563248 9800836
-148.65372 -35.680794 82.015366 9077370
-149.54305 -35.838463 81.394485 9998471
-161.12311 -36.017643 68.986931 6511954
-161.61981 -35.830345 68.280205 7367005
-162.15199 -35.859638 67.357712 8814454
-162.75664 -35.679729 66.462784 8419183
-163.24295 -35.636913 65.669739 8419696
-163.75531 -35.309616 65.03698 10525067
-145.66896 -34.558128 84.358803 10260870
-146.42111 -34.641533 83.855576 8617329
-147.17656 -34.726284 83.349739 8945782
-147.92731 -34.727463 82.883316 10327436
-148.69759 -34.89925 82.330154 8156012
-161.94084 -35.205849 68.18499 8287592
-162.46751 -35.063076 67.395493 9998727
-163.0676 -34.581535 66.725067 8813941
-163.5451 -34.651741 65.865662 8682611
-164.08034 -34.68354 64.936211 10525067
-164.60474 -34.64378 64.076477 9341051
-144.90276 -33.563347 85.269638 9011832
-145.58583 -33.719166 84.777588 9603712
-146.51559 -33.700752 84.208687 8879989
-147.4599 -33.783836 83.586334 9472383
-148.04407 -33.987537 83.134735 11183001
-163.44106 -34.000645 66.509628 8089963
-163.83511 -33.807652 65.980881 9143417
-164.26418 -33.832394 65.236237 9341051
-164.80112 -33.864483 64.303795 7762021
-165.412 -33.685829 63.397327 9142649
-165.90501 -33.428253 62.747288 9602941
-166.31374 -33.30994 62.140068 8813939
-143.40425 -32.253078 86.77298 9406075
-144.2563 -32.700195 86.048538 9077368
-145.19908 -32.642117 85.48893 9077624
-145.95119 -32.720169 84.988052 9537918
-146.61887 -32.859543 84.512756 9472383
-164.56721 -33.058968 65.27861 8748403
-165.08226 -32.944916 64.488113 7826790
-165.67165 -32.619427 63.723568 9077112
-166.21147 -32.652443 62.785545 8485231
-166.64381 -32.679699 62.0336 8156523
-167.15094 -32.495014 61.307297 8288115
-142.81818 -31.475565 87.476906 9011575
-143.61841 -31.656454 86.901192 9406075
-144.36458 -31.730188 86.405853 9603456
-145.30202 -31.823853 85.783165 8814452
-145.98199 -32.100262 85.240326 9537918
-165.78429 -31.976074 63.994949 9800579
-166.39883 -31.795668 63.083656 8353645
-166.9404 -31.828798 62.142429 9077111
-167.42445 -31.903038 61.269356 8090993
-168.08382 -31.574987 60.388039 10064004
-168.70987 -31.291306 59.58263 12958380
-140.9623 -30.39534 89.282379 9142392
-141.49825 -30.442509 88.907448 9142392
-142.0961 -30.694139 88.332108 8616049
-143.06297 -30.698097 87.743515 9274234
-143.89047 -30.740931 87.205902 9668994
-144.57465 -30.994003 86.608772 9537409
-145.14342 -31.18648 86.160477 8682867
-166.72914 -31.163532 62.978333 8813939
-167.25374 -30.979368 62.257488 9274491
-167.78172 -30.884048 61.489777 8682866
-168.241 -30.827341 60.786514 8485487
-168.81932 -30.691559 59.94043 12300450
-169.50493 -30.66391 59.083046 8485488
-170.09898 -30.687634 58.311981 8090987
-170.77328 -30.60359 57.549286 7564643
-171.31033 -30.651789 56.813236 9143163
-172.16272 -30.296703 56.176453 8813942
-172.70418 -30.345968 55.434528 10787732
-173.11084 -30.383305 54.876369 10787732
-139.70239 -29.391954 91.176132 9602945
-140.33549 -29.497105 90.693184 9339773
-140.82866 -29.795713 89.910477 8089963
-141.72385 -29.872576 89.285728 8945013
-142.51706 -30.007288 88.671509 8418927
-143.02682 -30.183907 88.194946 9142392
-168.89377 -30.021507 60.791214 7564643
-169.22375 -30.042439 60.220505 11181970
-169.88776 -29.953716 59.459835 12234916
-170.48091 -29.975723 58.686333 11051156
-171.18887 -29.950809 57.825764 8419184
-171.77856 -30.045753 56.967319 9867142
-172.60956 -29.644581 56.459034 10262156
-173.1776 -29.736443 55.585308 11577504
-173.72264 -29.785618 54.839008 10787732
-174.26897 -29.835619 54.090115 12169124
-174.86665 -29.93498 53.216019 8812910
-175.83888 -29.552853 52.725754 8747633
-176.37935 -29.643312 51.825241 8024940
-176.98792 -29.583366 51.141102 8682867
-177.69028 -29.498856 50.26371 8091245
-178.34877 -29.559935 49.292706 7762539
-179.99699 -29.304138 48.351021 9274747
-180.3781 -29.329906 47.523491 8090474
-180.64781 -29.347063 46.897621 7564386
-123.15663 -28.36385 108.66845 10326663
-124.00408 -28.464058 108.20124 10260615
-124.85482 -28.565634 107.73178 8616307
-130.44434 -28.85976 101.92731 9340029
-131.05527 -28.861633 101.14033 9998215
-131.66113 -28.863504 100.34946 9209211
-132.26254 -28.86537 99.555122 10524815
-132.85883 -28.867201 98.757027 11775139
-133.45064 -28.869045 97.955582 10590353
-134.03731 -28.870918 97.150383 8945784
-134.6194 -28.872808 96.341904 9734788
-135.23677 -28.883219 95.557968 9340024
-136.04535 -28.935102 94.907135 9012089
-136.86713 -28.990499 94.260681 9012089
-137.6577 -29.039896 93.588898 7564389
-138.44914 -29.090164 92.913437 8090479
-139.24121 -29.141188 92.234627 7564643
-139.71675 -29.172207 91.825638 7564643
-179.17155 -29.234608 49.751823 8486003
-179.52885 -29.264769 49.153305 9932675
-181.82076 -29.044462 46.734459 6511954
-182.09161 -29.062029 46.103691 9340027
-182.45212 -29.085781 45.261261 10590091
-182.7216 -29.103844 44.628326 8089963
-185.80528 -29.015261 42.54657 8814971
-186.00743 -29.016632 41.651398 9209472
-190.23589 -29.028255 37.337143 8419697
-190.41362 -29.029612 36.420784 7760997
-194.43352 -29.039761 33.080246 5919562
-194.59038 -29.041111 32.143639 6445909
-121.87296 -27.318697 109.74481 10459278
-122.454 -27.490622 109.38181 9275004
-123.30495 -27.615131 108.90281 10260871
-124.24091 -27.679903 108.40575 9471359
-124.74478 -27.915823 108.05517 9208187
-121.83736 -26.585827 110.06503 8946039
-122.66372 -26.572968 109.65504 10261642
-123.43462 -26.757238 109.19161 9471614
-124.23086 -27.077917 108.65913 9734531
-120.59196 -25.247145 111.24316 12433069
-121.0941 -25.596027 110.84689 10064265
-121.93173 -25.677652 110.39227 9011832
-122.87357 -25.653517 109.92893 10129541
-120.47783 -24.603428 111.56612 9800837
-121.32088 -24.69273 111.10561 8418928
-122.14804 -24.675386 110.69709 8748404
-118.93716 -23.164791 112.93389 12432037
-119.62473 -23.549923 112.42951 7960175
-120.67723 -23.657982 111.85595 8024427
-121.5509 -23.907263 111.31406 8024938
-118.42217 -22.34289 113.53184 10787985
-118.92052 -22.567265 113.18884 11182486
-119.84673 -22.6157 112.70339 8617847
-120.69512 -22.727364 112.23096 7696747
-118.33582 -21.493187 113.92577 9537148
-119.20094 -21.585464 113.45296 11182229
-119.96794 -21.757139 112.99667 10196106
-117.12969 -20.292526 115.02431 9931905
-117.63346 -20.633966 114.63327 10260869
-118.55432 -20.55723 114.20216 9142391
-119.40137 -20.663658 113.73251 8419441
-117.00137 -19.649035 115.33971 9405823
-117.90646 -19.530243 114.95143 9273977
-118.65693 -19.863277 114.43687 9010806
-115.77052 -18.238138 116.45387 8287342
-116.2942 -18.580044 116.08389 7958377
-117.19106 -18.700285 115.6352 8089963
-117.94287 -18.733095 115.26196 8287342
-115.64062 -17.595081 116.77013 7169885
-116.51044 -17.671896 116.35308 7892584
-117.19633 -17.768126 116.00985 8287342
-114.40818 -16.190344 117.88213 9012089
-114.93166 -16.529449 117.5134 6840919
-115.82801 -16.644638 117.06914 6906712
-116.64972 -16.94467 116.58366 7169373
-113.57294 -15.37146 118.72289 10129542
-114.32733 -15.554099 118.25174 8814709
-115.18259 -15.624128 117.82394 7367263
-115.85252 -15.714458 117.46805 8288365
-111.46021 -14.16236 121.0952 9143417
-112.36622 -14.186807 120.6148 8880246
-113.06812 -14.473427 119.83151 9011575
-113.70899 -14.793036 119.14991 9077369
-114.50626 -14.917383 118.69189 9275005
-115.30548 -15.042409 118.23243 10064777
-98.562851 -13.197762 134.93361 7826791
-99.356262 -13.355552 134.51881 8484464
-100.33317 -13.375856 134.07765 10130058
-106.08199 -13.792871 126.69976 9341571
-106.69054 -13.794416 126.18744 11117466
-107.4477 -13.796345 125.54285 8814711
-108.2012 -13.798274 124.89392 14078918
-108.95055 -13.800201 124.2403 9867141
-109.69617 -13.802131 123.58235 10525071
-110.43756 -13.804057 122.91972 9340797
-111.27448 -13.818157 122.36176 10392970
-97.860268 -12.40721 135.56128 9208444
-98.720276 -12.490859 135.14661 8155756
-99.659584 -12.508776 134.72311 9668995
-100.17852 -12.722348 134.40768 8090731
-97.443481 -11.452195 136.12814 7563619
-97.961525 -11.664291 135.81363 10063753
-98.887436 -11.527713 135.45789 9931910
-99.607826 -11.897277 134.99071 8813686
-96.584259 -10.217133 137.00314 11181972
-97.304161 -10.584645 136.53699 8418927
-98.185387 -10.64943 136.12048 9274235
-98.749901 -10.658716 135.86653 7563619
-96.010063 -9.3929558 137.58742 10262156
-96.528923 -9.6041546 137.27292 9340027
-97.468414 -9.617425 136.85115 8747891
-98.176506 -9.8323402 136.45126 11181972
-95.146362 -8.1549845 138.46548 7563619
-95.867874 -8.5218229 137.99895 7432032
-96.749664 -8.5839834 137.58321 9538176
-97.380653 -8.8656034 137.19084 8747891
-94.569138 -7.3284988 139.052 9537150
-95.089081 -7.5391483 138.73727 8748405
-96.02916 -7.5494866 138.31647 7695460
-96.782539 -7.55793 137.97914 8090218
-93.701027 -6.0868158 139.93359 8089963
-94.424179 -6.4533958 139.4664 8484977
-95.495201 -6.5149922 138.96706 8353647
-96.316078 -6.7980561 138.48993 8748661
-93.913628 -5.4287624 140.10268 10984850
-94.771042 -5.4769859 139.70337 8090475
-95.447868 -5.5515356 139.37357 7564131
-93.137794 -4.5687642 140.79103 10261132
-94.002365 -4.6437845 140.37814 9998472
-94.868042 -4.719142 139.96468 8814454
-92.487312 -3.459358 141.52483 9406081
-93.275436 -3.6022034 141.11852 10129547
-94.06427 -3.7454848 140.71172 9537923
-91.680931 -2.4852946 142.27324 9011581
-92.546638 -2.5586338 141.8605 9537667
-93.413422 -2.6322091 141.44724 9340545
-91.026344 -1.3703774 143.01108 8485237
-92.004753 -1.5129547 142.52068 9077629
-92.829437 -1.7948701 142.04227 9603714
-90.459473 -0.42014492 143.74112 8682100
-91.31218 -0.46415591 143.32974 9011322
-92.122032 -0.57112718 142.88774 9406591
-89.092766 0.59220999 145.18346 7827049
-89.894447 0.42230707 144.68723 7826791
-90.66658 0.27327061 144.22148 8879478
-91.38063 0.16636603 143.81664 8682867
-77.465233 1.7301961 157.72168 11578016
-78.248802 1.6582683 157.55664 10393741
-87.151604 1.0224105 147.13371 8681835
-87.720886 1.0217363 146.88284 8089963
-88.671043 1.0205767 146.46417 9011581
-76.961159 2.6018848 158.1321 12433069
-77.73542 2.5600014 157.97975 12103849
-76.767441 3.5201561 158.50481 9932934
-77.675163 3.4066377 158.30247 13090231
-76.252037 4.4249415 158.92944 10985622
-77.036873 4.3557701 158.76508 10196620
-77.653206 4.1387968 158.57622 10459796
-75.334938 5.8878202 159.63074 9341054
-76.195335 5.5077729 159.33852 9801605
-76.965919 5.2368307 159.10239 8617591
-75.537239 6.5972171 159.85641 8551538
-76.44696 6.4865694 159.65475 8814198
-74.752708 7.6551132 160.38503 7563619
-75.587578 7.4410086 160.15852 8616818
-74.096779 8.9849443 160.99117 7563619
-74.916862 8.6755428 160.73212 10655629
-75.574928 8.2575369 160.46172 11050386
-74.070244 9.7303829 161.27057 8747891
-74.981735 9.6223745 161.0696 8024170
-73.509598 10.770554 161.7531 7563619
-74.346657 10.557327 161.52649 9142135
-73.39505 11.444391 162.01506 8089705
-74.271179 11.457822 161.87132 9405565
-72.855392 12.335802 162.37703 10851980
-73.653282 12.394606 162.26857 9339771
-74.14666 12.132299 162.11142 11379356
-72.835991 13.554754 162.74767 9800323
-73.605797 13.388124 162.57558 9142650
-72.032219 14.842023 163.68513 8090987
-72.735161 14.49038 163.14926 8683381
-73.558388 14.385122 162.8837 8092019
-71.481865 15.59033 164.35928 9142900
-72.403336 15.323365 163.99086 8814198
-65.946472 16.965528 169.99883 10984852
-66.849556 16.985714 169.8965 9011838
-65.39859 17.893703 170.40413 10854036
-66.043526 17.673172 170.2453 10788244
-66.721558 17.688934 170.16866 11906725
-65.355141 18.679417 170.69612 10985364
-66.086998 18.539457 170.55611 11906725
-64.751686 19.770407 171.16754 10064003
-65.397835 19.549322 171.00835 10261898
-66.044426 19.328037 170.84909 12433069
-64.621391 20.480984 171.44264 11050898
-65.44062 20.422894 171.32191 9735812
-64.10157 21.661623 171.93602 10655883
-64.606987 21.388191 171.77502 10393227
-65.397194 21.218048 171.6171 10262156
-63.443932 22.643545 172.70244 8485747
-64.046074 22.404703 172.41692 9603968
-64.647697 22.165812 172.13133 10262156
-62.456089 23.668022 173.87772 7038307
-63.180569 23.277645 173.26979 8090991
-64.031242 23.166306 173.0112 9208443
-61.240192 24.234245 175.11272 10591121
-62.125031 24.249222 174.93553 9341054
-154.3485 -40.287006 76.465622 9340799
-155.08812 -40.641445 75.766006 7630696
-155.57712 -40.419525 75.217308 6512218
-153.29535 -39.284641 77.557823 7038307
-153.89507 -39.509056 77.087463 8288114
-154.58928 -39.676037 76.583603 8946298
-155.32475 -39.771763 76.018791 8420211
-155.88799 -39.801373 75.134872 6709596
-156.40076 -39.751747 74.302109 12827053
-152.44063 -38.317295 78.511581 7564392
-153.03809 -38.538193 78.044159 7038307
-153.92596 -38.72765 77.410271 7893614
-154.99876 -38.742832 76.73793 8551797
-155.68857 -38.824638 76.148392 8420211
-156.15215 -38.819973 75.392662 8749175
-156.69638 -38.728306 74.536835 10261642
-157.17897 -38.800827 73.667343 9866627
-157.75702 -38.509254 72.897827 11906463
-151.79446 -37.525043 79.259308 5920082
-152.48143 -37.683781 78.763512 6840925
-153.26273 -37.784637 78.234512 7170148
-154.12762 -37.682888 77.742371 7893614
-154.74422 -38.049862 77.199142 9406848
-156.50746 -37.930904 75.429581 8288109
-156.99834 -37.738739 74.736305 9011831
-157.52586 -37.75985 73.827805 6971993
-157.99727 -37.822174 72.984543 8616816
-158.51067 -37.696911 72.205116 8617074
-158.96815 -37.61216 71.49115 8682867
-150.35098 -36.35722 80.666077 10854036
-151.04599 -36.653908 80.10498 9603971
-151.91464 -36.719006 79.53746 5919309
-152.87424 -36.668182 78.964233 6840923
-153.5793 -36.970505 78.394363 6840669
-157.7265 -36.964951 74.059097 8616816
-158.29657 -36.734409 73.259315 8616816
-158.8257 -36.757355 72.346664 8617074
-159.355 -36.781471 71.432846 9275260
-159.8492 -36.592594 70.731606 8617331
-160.34398 -36.404209 70.028862 9077366
-149.69524 -35.435448 81.47641 9077114
-150.3885 -35.728325 80.918022 9471871
-151.24675 -35.703934 80.396133 11248026
-152.07741 -35.779892 79.847443 8221549
-152.79713 -35.806351 79.389206 6248272
-159.08211 -35.7784 72.615746 7169889
-159.60075 -35.730515 71.771713 8485745
-160.1317 -35.755051 70.854919 9143675
-160.66287 -35.780857 69.936661 8485229
-161.26561 -35.598038 69.047112 6511954
-148.98943 -34.652939 82.256851 7563619
-149.91069 -34.688004 81.669846 9274493
-150.77245 -34.717049 81.122375 8221549
-151.45116 -34.79591 80.666656 9668995
-152.13272 -34.875801 80.208801 8089963
-159.91841 -35.106647 71.682037 7564643
-160.42628 -34.774651 71.060242 9077882
-160.91139 -34.726257 70.273346 9340537
-161.44426 -34.752369 69.351974 7564384
-161.98476 -34.694366 68.478058 8287594
-162.46449 -34.519787 67.790894 9603713
-147.81259 -33.543678 83.472595 11183001
-148.48021 -33.616611 83.026405 10985622
-149.15044 -33.690403 82.578209 9340542
-149.91965 -33.775848 82.063454 9538177
-150.67897 -33.720161 81.616653 8222060
-161.19566 -33.885483 70.395798 9077366
-161.69423 -33.695213 69.688019 9142905
-162.22881 -33.721603 68.763535 8616305
-162.76376 -33.7491 67.837631 9011320
-163.2708 -33.733253 66.990112 8419184
-147.04362 -32.417744 84.44249 12433069
-147.73021 -32.698544 83.893562 9209211
-148.6769 -32.715218 83.298851 10459278
-149.52879 -32.680367 82.785408 8288365
-150.03122 -32.945217 82.357803 8288365
-162.01561 -33.068195 69.594124 10787983
-162.47983 -32.983521 68.86853 9142905
-163.06151 -32.636684 68.132462 9866884
-163.5535 -32.715767 67.242294 9735299
-164.04573 -32.796089 66.3508 9340283
-164.63037 -32.450897 65.608505 9142651
-165.09782 -32.369228 64.875275 7563619
-145.70839 -31.242094 85.785622 9077624
-146.38467 -31.642038 85.190933 9866626
-147.06732 -31.710968 84.737106 11774880
-147.91174 -31.671831 84.230263 8682867
-148.7775 -31.802788 83.635727 9406076
-163.52029 -31.852991 67.918388 10853004
-163.9156 -31.657501 67.389099 9405819
-164.34659 -31.679823 66.643036 9405819
-164.88585 -31.708744 65.708893 9339773
-165.42564 -31.738726 64.773071 8089963
-165.93149 -31.551035 64.05098 9800579
-144.29387 -30.297413 87.306694 9734788
-144.98985 -30.493202 86.698341 9340030
-145.61508 -30.617531 86.202042 8880245
-146.54564 -30.706093 85.565834 10129797
-147.48114 -30.796116 84.926231 10129285
-148.13548 -31.066574 84.356361 8682867
-164.56502 -31.043304 66.730362 8682354
-165.10466 -30.859797 66.024971 7761254
-165.69728 -30.801342 65.10775 8155756
-166.29924 -30.654139 64.289894 8813940
-166.76033 -30.654661 63.494183 9143162
-167.28951 -30.487318 62.805393 9011576
-167.84995 -30.380144 62.018562 7762276
-140.98674 -29.256361 90.728279 9931910
-141.46388 -29.288588 90.314583 8089963
-142.10185 -29.332323 89.761841 8089963
-142.91034 -29.486076 88.954636 8945271
-143.6194 -29.642021 88.320457 8747893
-144.42737 -29.752748 87.718964 9142651
-145.35889 -29.755711 87.138939 9011065
-146.03273 -30.056307 86.447899 8682867
-146.5835 -30.106514 86.060829 9537918
-167.17863 -29.924189 63.836433 8156779
-167.86018 -29.751715 62.94136 6512978
-168.32468 -29.819956 62.054817 7630435
-168.90054 -29.705946 61.252525 9011574
-169.76616 -29.464474 60.643032 10063748
-170.41039 -29.412611 59.948837 12695466
-171.1658 -29.368305 59.059216 9867140
-171.63737 -29.402081 58.298615 8945783
-172.10899 -29.436359 57.536068 9143163
-175.08499 -29.288704 54.573521 9734788
-175.55891 -29.32572 53.795052 9735558
-125.37793 -28.362793 107.55253 8089963
-125.88374 -28.600815 107.20016 8748148
-126.78036 -28.659937 106.65403 10459021
-127.43052 -28.743847 105.98499 10458764
-127.95428 -28.852242 105.03854 10458250
-128.58394 -28.854126 104.2665 10984337
-129.20868 -28.856007 103.49043 9405822
-129.82903 -28.857885 102.71091 9405822
-139.39024 -28.883129 93.787857 8419696
-139.95325 -28.885342 92.947899 8156524
-140.65898 -28.917713 92.201424 8222061
-141.29836 -28.959551 91.651062 10853012
-141.93849 -29.001841 91.098236 9471359
-173.54457 -29.172552 57.087658 9537921
-174.01881 -29.207695 56.316555 10787732
-174.4926 -29.243341 55.543243 10787732
-174.84796 -29.270477 54.961868 10787732
-176.90733 -29.051022 53.509514 9735558
-177.38399 -29.088589 52.722824 9209212
-177.86052 -29.126755 51.933754 11380639
-178.3374 -29.165527 51.142395 9998985
-178.81413 -29.204802 50.348667 8486003
-180.9324 -29.000031 49.068993 9340798
-181.19289 -29.005655 48.204231 8288109
-181.54933 -29.027298 47.364189 7235421
-185.49301 -29.013193 43.887451 7696228
-185.70241 -29.01457 42.993843 8814971
-189.82085 -29.025175 39.395935 8355187
-190.00819 -29.026548 38.481476 8814712
-194.06425 -29.036699 35.184746 10261124
-194.23088 -29.038067 34.249863 6380368
-125.34875 -27.556751 107.89977 9603201
-126.1858 -27.615973 107.45473 8682356
-126.96737 -27.806803 106.9832 11051156
-123.92733 -26.389194 109.09582 8813429
-124.59907 -26.621058 108.66263 9076601
-125.46123 -26.644758 108.21951 9471359
-126.42786 -26.826384 107.65875 9208183
-123.20121 -25.407097 109.86594 8089963
-123.89348 -25.651411 109.41723 8155756
-124.83525 -25.711987 108.91895 8681843
-125.50849 -25.823095 108.5348 9208187
-122.6383 -24.304253 110.60384 8682355
-123.24812 -24.607937 110.17205 9076856
-124.18903 -24.665329 109.67554 8221548
-124.99087 -24.983747 109.14123 8484464
-121.72375 -23.317068 111.47074 8222316
-122.60201 -23.567068 110.92619 7761766
-123.54155 -23.621275 110.43169 9932163
-124.21338 -23.727703 110.05013 11050385
-121.23054 -22.622789 112.00504 7761765
-121.96915 -22.609118 111.63948 7893351
-122.83184 -22.62627 111.19885 7959144
-123.52933 -23.017126 110.68703 11905692
-120.45388 -21.381723 112.90738 9405304
-121.24937 -21.688997 112.3808 6972248
-122.17193 -21.656401 111.9306 6249039
-122.75028 -21.76725 111.59428 6840919
-119.72456 -20.412325 113.67379 6511954
-120.41389 -20.645411 113.23119 9142133
-121.53674 -20.700069 112.64438 7958629
-122.23008 -20.935633 112.19882 5920074
-118.97522 -19.337517 114.49388 10655884
-119.76436 -19.612898 113.98363 7300446
-120.6377 -19.703014 113.50757 9602427
-121.49733 -19.960922 112.96917 9865598
-118.2644 -18.479826 115.20492 8945271
-119.11401 -18.582172 114.73571 11510936
-120.04741 -18.621962 114.25021 8353132
-120.55211 -18.845022 113.90458 8813683
-117.77625 -17.445374 115.87405 8682100
-118.46252 -17.552525 115.48793 8880249
-119.3344 -17.637529 115.01469 9340283
-120.03022 -18.018003 114.50797 8813683
-116.92623 -16.421724 116.67116 8353647
-117.72558 -16.606333 116.23647 8156527
-118.74191 -16.558813 115.75751 8551542
-119.24635 -16.779121 115.41306 8814713
-116.42191 -15.604145 117.28965 10064777
-117.19588 -15.58075 116.97511 9603713
-117.96134 -15.767533 116.49918 8419956
-118.72305 -15.954199 116.01652 7038307
-114.1844 -14.237157 119.64629 6510930
-115.04022 -14.413709 118.98556 9011576
-115.82845 -14.593047 118.42455 10590864
-116.56062 -14.890249 117.80448 10985623
-117.21368 -15.109616 117.33031 10459022
-100.84017 -13.142615 133.94621 8090731
-101.35983 -13.356939 133.63014 11840164
-102.30462 -13.377452 133.20316 9143422
-103.01484 -13.597123 132.80054 11380380
-112.18499 -13.84178 121.88124 9735297
-113.09734 -13.865807 121.39848 7564642
-113.82907 -13.885342 121.0105 8287853
-100.68603 -12.488166 134.27641 8090731
-101.66842 -12.507763 133.83313 8485489
-102.25582 -12.764808 133.46996 8090731
-99.412987 -11.078085 135.40486 9209467
-100.04394 -11.361157 135.01195 10459019
-100.86766 -11.563272 134.56596 8617075
-101.65311 -11.799556 134.12334 8090731
-99.256676 -10.421673 135.73676 8748661
-100.30564 -10.479695 135.24863 11905950
-101.01662 -10.696617 134.84666 9209467
-98.683083 -9.5940933 136.3221 9603713
-99.542931 -9.6478729 135.91943 9209467
-100.22158 -9.7266464 135.58713 10853520
-97.403465 -8.1819592 137.45428 13023917
-97.935722 -8.5171366 137.08423 12892331
-98.824684 -8.6109762 136.65266 9735556
-99.715141 -8.7053633 136.22021 9801349
-97.348625 -7.5643525 137.72568 9406591
-98.10453 -7.5731182 137.3871 12563623
-98.96656 -7.6246233 136.98442 10130313
-96.559807 -6.2503319 138.60107 8090218
-97.382942 -6.5336776 138.12286 9076597
-98.273979 -6.625577 137.69121 11116434
-98.808365 -6.962182 137.31953 10787985
-95.980858 -5.4181404 139.19107 7300702
-96.782318 -5.452559 138.82243 7957861
-97.584816 -5.604733 138.40602 9010289
-95.178337 -4.4449849 139.93739 8814454
-95.891006 -4.6575918 139.5365 7893096
-96.943214 -4.7071347 139.05078 9010802
-94.529327 -3.3324473 140.67189 8288116
-95.354401 -3.6146746 140.19316 8156268
-96.246674 -3.7035973 139.76248 7893093
-96.782707 -4.0405049 139.38966 8813936
-93.946648 -2.4957118 141.26607 9340545
-94.626549 -2.5685253 140.93584 8879995
-95.490265 -2.6145754 140.5349 8485490
-93.07029 -1.2378014 142.15953 9735812
-93.896996 -1.5197654 141.68027 9603460
-94.845894 -1.5232544 141.25879 8945787
-95.483902 -1.8053898 140.86293 9340798
-92.531326 -0.25717884 142.95407 9340542
-93.337189 -0.42713076 142.4642 9670019
-94.113693 -0.5762924 142.00391 9077885
-94.831596 -0.68347383 141.60258 8616563
-91.176765 0.5891059 144.26019 9142651
-91.941925 0.41893798 143.77985 8945783
-92.798683 0.37527138 143.36475 9340798
-93.470161 0.16249958 142.89021 9538177
-78.85392 1.8044064 157.50352 11380893
-79.764679 1.6889684 157.29994 12762801
-89.813164 1.0192547 145.96117 7564651
-90.766685 1.0181551 145.54141 12168868
-91.3396 1.0175737 145.28918 8682867
-78.302025 2.8240855 157.97694 12235437
-79.057487 2.6509676 157.77956 11973286
-79.754944 2.3894522 157.55988 10986135
-78.281013 3.5553427 158.25017 14076870
-79.069382 3.4852822 158.08495 11183004
-77.72728 4.5795598 158.72554 12235437
-78.3452 4.3626337 158.53633 13156025
-79.001366 4.3661866 158.42162 10459796
-77.574516 5.5252137 159.10114 8486262
-78.473801 5.379724 158.8885 9736330
-77.005363 6.7872901 159.66689 10261899
-77.704842 6.5269527 159.44727 8156012
-76.897491 7.4538035 159.93166 8945784
-77.773628 7.4625411 159.77992 8089963
-76.16938 8.3384829 160.38638 9997700
-76.950127 8.3024111 160.23506 9011577
-75.549759 9.8990011 161.07109 9537150
-76.352943 9.4605703 160.76753 10458250
-77.15641 9.0215054 160.46364 8616563
-75.578911 10.619706 161.3316 9537150
-76.280556 10.359023 161.1115 10984593
-74.927879 11.467827 161.75932 8616307
-75.710327 11.434613 161.60873 10063749
-74.838646 12.370189 162.07362 9668995
-75.640144 12.309047 161.92839 9142651
-74.228416 13.603959 162.54218 10524047
-75.074547 13.442122 162.3595 10721426
-73.572639 14.872458 163.43698 9933961
-74.226128 14.561024 162.96539 10393743
-74.886269 14.412338 162.68187 11379356
-72.869713 15.694345 164.24249 8420470
-73.724304 15.513162 163.94705 9933961
-67.528381 17.001129 169.81966 9011838
-67.981712 17.011568 169.76843 9011838
-67.401115 17.704971 170.09196 10459281
-68.199821 17.488207 169.91583 9472388
-66.712654 18.712612 170.54329 11446174
-67.533882 18.654163 170.4222 10590866
-66.628075 19.628305 170.88771 11248795
-67.439613 19.602007 170.77956 10985623
-66.067162 20.598717 171.31001 9998728
-66.889809 20.541462 171.18916 10985623
-65.981483 21.521933 171.65691 9012092
-66.794395 21.497013 171.54916 8090987
-65.271965 22.485426 172.27835 9341057
-66.193283 22.373257 172.03922 7564651
-63.972713 23.685163 173.49156 9208443
-64.777328 23.440914 173.10294 9275007
-65.382179 23.200594 172.81705 9341057
-62.789536 24.260843 174.80315 7038307
-63.455231 24.273058 174.6711 9208955
-64.12149 24.285479 174.53947 10064009
-155.7379 -38.324215 76.450485 7170146
-155.09038 -37.522007 77.215317 8814713
-155.89706 -37.688995 76.527168 7498853
-156.45883 -37.648121 75.71521 8024938
-153.81714 -36.35891 78.51445 6840669
-154.5267 -36.662106 77.941483 8551542
-155.3195 -36.762657 77.405472 8156783
-156.17599 -36.789474 76.740082 7235166
-156.7538 -36.622017 75.952927 6708309
-157.2388 -36.692345 75.080933 8419695
-157.819 -36.397575 74.310135 8616816
-153.09795 -35.558788 79.310944 7104352
-153.95297 -35.691048 78.72245 7367525
-154.93457 -35.725319 78.098335 9209468
-155.65051 -35.813881 77.61528 9143675
-156.36119 -36.023434 76.985245 7432545
-157.05531 -35.629616 76.155296 7366751
-157.58533 -35.648308 75.24424 8485488
-158.05907 -35.708439 74.398628 8814452
-158.59602 -35.644985 73.534821 9011319
-159.03404 -35.49329 72.901901 6511962
-151.8981 -34.423733 80.5522 9142651
-152.49734 -34.635078 80.087875 6642517
-153.1902 -34.787415 79.591217 7367525
-154.1196 -34.744778 79.033203 10064778
-154.84984 -34.770409 78.568832 9275005
-157.77519 -34.914402 75.449966 9275005
-158.28796 -34.827148 74.644257 9011580
-158.81929 -34.847664 73.729614 9603459
-159.4211 -34.659569 72.84552 7958893
-159.85361 -34.592823 72.160889 8419952
-160.41383 -34.276642 71.439102 8617331
-151.24771 -33.642876 81.297554 8418928
-151.9362 -33.791119 80.80542 8616307
-152.79726 -33.676006 80.321457 8287854
-153.58434 -33.765728 79.793808 10130314
-154.17708 -33.833912 79.396194 11380380
-158.49712 -34.198582 74.741608 8879995
-159.0872 -33.937553 73.929794 9800838
-159.66603 -33.605789 73.187698 9011323
-160.19936 -33.627678 72.268661 9209469
-160.73293 -33.650806 71.34819 9143418
-161.33798 -33.464527 70.457108 9274234
-150.39085 -32.702942 82.240669 8288365
-151.1537 -32.644321 81.792892 9932679
-152.06108 -32.796371 81.1633 8616308
-152.96625 -32.700939 80.643341 7696234
-159.98396 -32.979317 73.099327 8353650
-160.43196 -32.741383 72.511322 8222062
-160.90974 -32.804073 71.657028 9537405
-161.44472 -32.827583 70.733932 9602941
-161.96815 -32.780182 69.881302 9669248
-162.55215 -32.450424 69.129028 9142905
-149.32921 -31.607622 83.378792 9932163
-149.90829 -31.667372 82.993271 7367263
-150.6833 -31.748177 82.477028 8288365
-151.53915 -31.626236 81.999252 9669248
-152.24437 -31.913164 81.436066 8616819
-160.80133 -32.15831 72.30455 9405819
-161.19374 -31.960682 71.781815 9734527
-161.71951 -31.830069 70.985077 8945782
-162.27531 -31.739857 70.108353 8419183
-162.77496 -31.730644 69.268677 9142905
-163.26976 -31.625311 68.506226 12959409
-163.66495 -31.429344 67.977562 10853004
-147.8759 -30.225878 85.152138 10918032
-148.47459 -30.483644 84.548035 11181460
-149.1134 -30.750847 83.964157 8879989
-149.96033 -30.763952 83.413483 8485488
-150.8848 -30.786409 82.821434 8485231
-151.5752 -30.993912 82.253632 9537406
-162.08694 -30.926716 71.011665 8682867
-162.51726 -30.945425 70.269363 7893352
-163.13597 -30.723331 69.513229 8354159
-163.60408 -30.786184 68.644852 12499118
-164.13972 -30.811558 67.710678 8879733
-164.78636 -30.632544 66.819336 7958890
-165.60616 -30.258881 65.993134 10853012
-165.81963 -30.269655 65.616135 9734531
-145.14803 -29.221901 88.298805 9142651
-145.79401 -29.267967 87.73275 8616307
-146.4875 -29.468321 86.858635 8879477
-147.17596 -29.681351 86.121948 10391686
-147.90254 -29.757654 85.561836 10589066
-148.81668 -29.774303 84.978767 11970719
-149.65379 -29.987118 84.266586 8682867
-164.00563 -30.183277 68.812149 11512223
-164.56253 -30.070551 68.038055 7432804
-165.03706 -30.065163 67.244003 8222061
-165.70934 -29.781338 66.573341 9405563
-166.33397 -29.63092 65.725815 9668477
-166.78712 -29.694241 64.839493 8419438
-167.46832 -29.520908 63.946224 7762277
-169.61018 -29.270937 61.74017 9010806
-128.09409 -28.361694 106.18806 9537662
-128.66774 -28.404917 105.88193 9537662
-129.6274 -28.478024 105.36946 9537662
-130.33485 -28.736364 104.90731 10984337
-135.31854 -28.870054 99.576477 9734528
-135.91519 -28.871941 98.760201 10194564
-136.50668 -28.873823 97.940109 9668730
-137.09348 -28.875702 97.116699 9537144
-137.67503 -28.877579 96.289581 8814195
-138.25191 -28.879396 95.459259 10130313
-138.82347 -28.881317 94.62513 7827558
-142.41884 -29.034025 90.682251 12958639
-142.89954 -29.06641 90.264694 11708316
-143.54099 -29.110157 89.706024 9866371
-144.34393 -29.165579 89.00399 9800579
-168.31343 -29.212492 64.268341 7762277
-168.61345 -29.225544 63.686153 7104859
-169.11252 -29.247931 62.714138 9472126
-170.83075 -28.983566 61.485863 7563619
-171.2877 -29.012609 60.720261 11971743
-171.88235 -29.053568 59.769146 7564643
-172.35768 -29.086954 59.005737 8683123
-172.8327 -29.120794 58.240158 9143163
-173.18874 -29.146523 57.6646 10262156
-175.59935 -28.983179 56.360794 9274747
-175.86848 -28.984596 55.514576 10524555
-176.31116 -29.004793 54.489414 9801093
-180.32918 -28.996527 51.243423 12433069
-180.57362 -28.997932 50.374557 10064265
-180.75436 -28.998981 49.722183 10064265
-184.95183 -29.009718 46.117157 12433071
-185.22597 -29.011459 45.003128 8092011
-189.38341 -29.022072 41.450096 9210491
-189.53159 -29.023109 40.7659 9210491
-189.67757 -29.024145 40.081161 9210491
-193.88194 -28.92157 36.599762 9406331
-194.29045 -28.754072 35.869911 9669245
-127.25698 -27.288679 107.05144 11313812
-127.93249 -27.626373 106.57259 10655882
-128.91626 -27.611433 106.08438 8090987
-129.60036 -27.729935 105.69176 8551281
-194.51323 -28.130154 36.232872 8814195
-126.54922 -26.430897 107.76102 8616303
-127.24987 -26.681267 107.30561 10524295
-128.23199 -26.662983 106.81957 11774107
-129.08038 -26.87801 106.30445 10195846
-125.87144 -25.477057 108.49512 10261643
-126.6646 -25.579414 108.05434 9669250
-127.55595 -25.68915 107.56107 9537400
-128.06882 -25.926748 107.20533 9734779
-125.27653 -24.463867 109.21214 8616306
-125.95273 -24.573166 108.82722 9142907
-126.90579 -24.633245 108.32345 9669507
-127.60964 -24.881254 107.86749 9142907
-124.67435 -23.687801 109.83499 9734529
-125.40975 -23.596712 109.50296 11247766
-126.25462 -23.579721 109.08537 8418928
-126.87394 -23.887796 108.64702 8813685
-123.38708 -22.203924 111.09406 7761765
-123.89726 -22.554325 110.69314 9077111
-124.59287 -22.673933 110.29422 10787215
-125.43404 -22.721693 109.85175 9931908
-123.07938 -21.516062 111.53252 6840919
-123.94189 -21.628775 111.05254 7103834
-124.8904 -21.679579 110.55489 8879478
-125.4015 -21.909983 110.20297 8089963
-122.5956 -20.470324 112.20706 7169370
-123.28982 -20.585424 111.81069 6775126
-124.17515 -20.680712 111.32646 7695458
-124.87891 -21.071455 110.81156 9734529
-121.1881 -19.275791 113.40727 10851980
-121.85369 -19.608501 112.93546 6840662
-122.63715 -19.544249 112.56825 7564391
-123.50058 -19.65255 112.08968 6511954
-124.09396 -19.816166 111.72395 9734270
-121.07124 -18.626162 113.73401 9405562
-121.92549 -18.704062 113.27253 7959149
-122.76357 -18.674078 112.86375 9406594
-119.88232 -17.20669 114.91711 8813683
-120.55178 -17.521345 114.45086 8155755
-121.36289 -17.727636 113.95824 9274751
-122.15426 -17.784065 113.53735 9603973
-119.76377 -16.557037 115.24487 8616563
-120.80502 -16.637264 114.68876 9537666
-121.66633 -16.738369 114.2145 8222579
-118.39468 -15.249491 116.67265 7827821
-119.34238 -15.528872 115.9902 7695979
-120.12965 -15.685497 115.48331 8222064
-120.91737 -15.933889 114.93201 8617080
-116.9279 -14.31631 118.17387 10722450
-117.93734 -14.544865 117.48546 9866629
-118.78443 -14.639018 117.00806 8485749
-119.51611 -14.794339 116.50718 9011836
-103.52706 -13.363891 132.66678 7498850
-104.39206 -13.424385 132.25914 8748917
-105.07466 -13.508503 131.92297 8485745
-114.37892 -13.900235 120.71875 6510930
-115.11338 -13.920432 120.32803 8156011
-116.03333 -13.946029 119.83752 7892840
-116.77086 -13.966884 119.44326 8089963
-102.76077 -12.503012 133.35086 9932679
-103.63177 -12.589436 132.93022 6512211
-104.50451 -12.67653 132.50851 7959657
-102.12577 -11.399242 134.07393 8682612
-102.91779 -11.550784 133.66223 9208955
-103.7111 -11.703114 133.24963 9011576
-101.33138 -10.42854 134.81441 9209467
-102.20242 -10.511847 134.39497 9472127
-103.0751 -10.59572 133.97461 9537920
-100.75787 -9.5979939 135.40091 9998725
-101.43875 -9.677104 135.06744 8617330
-102.41064 -9.6042767 134.66582 8945783
-103.10597 -9.9101601 134.23523 9537920
-100.0528 -8.2157469 136.26648 9143934
-100.72063 -8.6368828 135.80193 10459019
-101.75388 -8.6515551 135.33809 8025193
-102.15021 -9.0702868 134.99493 8814709
-99.476501 -7.3830614 136.85509 9143934
-100.12406 -7.5560212 136.49879 10393485
-101.01938 -7.6498952 136.06442 11643552
-101.66851 -7.8238983 135.70708 7038298
-98.833458 -6.2727723 137.58478 8551797
-99.469727 -6.5554037 137.18967 8880762
-100.36285 -6.6169524 136.76947 9538433
-101.09206 -6.9882102 136.29744 12235172
-98.032188 -5.297585 138.3315 8088931
-98.747452 -5.5115137 137.9288 9339254
-99.699928 -5.5202842 137.50365 8945782
-100.2261 -5.7333226 137.18512 8682867
-97.452766 -4.4615898 138.92386 9339254
-97.978073 -4.6736002 138.60614 8088931
-98.930389 -4.6811624 138.18152 8549739
-99.647491 -4.8955283 137.77795 8617075
-96.581673 -3.2053914 139.81439 8813936
-97.311607 -3.5748627 139.34273 8550764
-98.205215 -3.6327648 138.92383 7891809
-98.843872 -3.915802 138.5274 8616046
-95.999451 -2.366189 140.40935 9734779
-96.648964 -2.5366914 140.05333 9142900
