# .PCD v0.7 - Point Cloud Data file format
VERSION 0.7
FIELDS x y z rgb
SIZE 4 4 4 4
TYPE F F F U
COUNT 1 1 1 1
WIDTH 1207
HEIGHT 1
VIEWPOINT 0 0 0 1 0 0 0
POINTS 1207
DATA ascii
128.15005 -61.748386 -39.627888 7432032
128.45497 -61.761181 -38.713039 9076858
128.75911 -61.776691 -37.797489 8550770
129.12236 -61.623737 -36.898048 5853257
129.42513 -61.644741 -35.980335 6314319
129.76448 -61.646442 -34.976383 6906711
130.18918 -61.533047 -33.8507 8747888
130.48975 -61.563156 -32.929058 9734014
130.73979 -61.590309 -32.160145 9142135
131.8085 -61.367783 -29.256426 6511954
135.3934 -61.399342 -19.803471 8616307
135.72749 -61.499184 -19.020565 8747893
136.10315 -61.768726 -18.0079 8682356
136.53094 -61.747734 -17.130615 8748149
136.93359 -61.876884 -16.179565 7827815
137.4037 -61.835224 -15.231277 8485237
137.81731 -61.833172 -14.367889 7301478
138.17911 -61.850513 -13.596695 9209214
138.593 -61.842514 -12.670937 8354158
139.02434 -61.791821 -11.700306 8748916
139.38956 -61.919586 -10.719547 8485232
139.8519 -61.798996 -9.7409668 7827558
140.19618 -61.809704 -8.9186363 7695717
140.53473 -61.884727 -8.0500374 7761509
141.00554 -61.758598 -7.0565686 8024682
141.37651 -61.850582 -6.0957189 8221549
141.72832 -61.920486 -5.2005467 8418928
142.10136 -61.89143 -4.3473744 9405816
142.43423 -62.067886 -3.3976521 10985621
142.85701 -61.930405 -2.2907338 9538173
143.10078 -61.838184 -1.3487285 9406590
143.31514 -61.810272 -0.43232381 9275260
143.5018 -61.892448 0.54419672 9735044
143.73375 -61.786419 1.4091374 10655374
143.98976 -61.746906 2.493629 10326409
144.20409 -61.743553 3.4511485 9932416
144.47742 -61.610741 4.4574122 9537657
125.02657 -60.550198 -47.82885 8419693
125.41969 -60.820839 -47.13385 7564640
126.03628 -60.934315 -46.375996 6840917
126.52566 -60.892994 -45.526112 8682608
126.83794 -60.888844 -44.612225 12301226
127.20055 -60.887314 -43.545307 8484976
127.66407 -60.738754 -42.511612 7762277
127.97199 -60.742893 -41.595203 9078137
128.27843 -60.749481 -40.678085 8682611
128.58351 -60.758514 -39.760342 6971481
128.88727 -60.770039 -38.841702 6971481
129.18965 -60.783997 -37.922291 8550514
129.49052 -60.800312 -37.001793 5392706
129.79005 -60.819092 -36.080418 7695714
130.08836 -60.840366 -35.157936 9537659
130.40332 -60.895142 -34.117748 8682351
130.77948 -60.867031 -33.067738 8944756
131.07362 -60.92918 -32.074608 8747377
131.41803 -60.901592 -31.12541 7959401
131.76398 -60.844494 -30.24139 8551537
132.0968 -60.783936 -29.352232 7564642
132.42996 -60.76004 -28.39501 7301470
132.71896 -60.801991 -27.459919 7498848
133.0981 -60.68779 -26.540831 8616560
133.37993 -60.732296 -25.600727 9406331
133.66458 -60.74625 -24.725727 9011576
134.16853 -60.53072 -23.754412 9603714
134.4574 -60.586952 -22.808748 8945783
134.81343 -60.676266 -21.871624 9998983
135.22462 -60.787697 -20.856718 13618367
135.62526 -60.789268 -20.035454 9405823
136.05081 -60.835384 -19.064466 9274237
136.42952 -60.946198 -18.116247 8813942
136.96927 -60.731953 -17.295063 8419440
137.34731 -60.847191 -16.338169 8945784
137.70767 -60.905422 -15.502831 9274752
138.10956 -60.895294 -14.636322 8748665
138.49463 -61.021431 -13.668335 8353904
138.84859 -61.098518 -12.760605 7301470
139.2923 -61.08984 -11.721798 7630179
139.65878 -61.216377 -10.739212 7761509
140.03423 -61.082336 -9.9781303 7761509
140.40642 -61.082031 -9.1003265 9142651
140.77504 -61.21669 -8.1051445 7168860
141.02106 -61.308136 -7.4394078 6510930
143.57253 -61.084488 -0.48945653 9538176
143.81743 -61.022785 0.44326365 10458252
144.09441 -60.945759 1.4575535 11510168
144.3018 -60.917545 2.3414874 10129285
144.64427 -60.721546 3.2752795 9274228
144.8335 -60.760464 4.252315 9603451
144.97665 -60.888287 5.2595248 9209210
145.31238 -60.69627 6.2640185 9472382
145.62938 -60.522747 7.1089396 9735555
145.88287 -60.482132 8.1067162 9735812
124.36292 -59.401031 -50.556026 10460308
124.45098 -59.5261 -49.899433 10460308
124.85554 -59.747929 -49.023232 11643290
125.35908 -59.907124 -48.217812 7432799
125.84636 -60.140919 -47.403923 7893605
126.20421 -60.35273 -46.780354 5920074
129.91159 -60.200081 -37.120094 6774358
130.21115 -60.218185 -36.195454 9011833
130.50923 -60.238689 -35.269688 12236202
130.80556 -60.261429 -34.342659 8747888
131.09966 -60.28614 -33.414253 9339513
131.51483 -60.188374 -32.41893 7563878
131.88054 -60.149651 -31.433004 6906202
132.2937 -60.088417 -30.360384 9931136
132.66205 -60.051609 -29.358368 9604226
132.98172 -60.011356 -28.510559 8683382
133.2679 -60.050941 -27.570724 8617074
133.5524 -60.092739 -26.629217 9405819
133.93283 -60.026909 -25.662477 9274234
134.23184 -60.034279 -24.76132 9010802
134.62741 -59.933945 -23.83333 12037022
134.92372 -59.992481 -22.885489 9800834
135.28523 -60.082756 -21.945732 9604225
135.65202 -60.142372 -21.070213 13025974
136.13878 -60.128159 -20.075384 9208444
136.50551 -60.229095 -19.125875 9208444
136.81071 -60.315197 -18.331944 9011321
145.27554 -60.157566 4.2240024 10130052
145.53224 -60.110279 5.2125049 9209467
145.85643 -59.935986 6.0564075 10261897
146.09721 -59.914467 7.0640025 9670018
146.35672 -59.885521 8.0914421 9538433
146.52521 -59.925114 9.0287971 8090986
146.92642 -59.742085 9.897789 10064005
147.16728 -59.693344 10.822903 8551282
147.60402 -59.523895 11.715347 8551025
147.87796 -59.479435 12.585533 7695459
148.08528 -59.429844 13.60881 7564642
116.89188 -58.653027 -69.311043 10854293
117.38192 -58.771908 -68.718056 9407106
118.03651 -58.854305 -67.967484 9209726
118.1843 -59.044197 -67.054237 10787726
118.31313 -59.11013 -65.887619 9735296
118.77909 -59.109013 -65.034637 9208695
119.23877 -59.107891 -64.178238 7893349
119.69235 -59.106773 -63.318626 11905692
120.21343 -59.105465 -62.311504 7367006
120.72639 -59.104172 -61.300243 7367006
120.75438 -59.103184 -60.23056 9208182
120.77327 -59.102207 -59.163589 9010802
121.19053 -59.101105 -58.292965 10194819
121.60149 -59.100006 -57.419415 9997184
122.00624 -59.098911 -56.542896 8746860
122.40456 -59.097816 -55.663506 9207923
122.79656 -59.096722 -54.781189 7958112
123.18211 -59.095634 -53.896141 9998469
123.38255 -59.154457 -52.86301 9077625
123.86181 -59.226307 -51.91346 9801862
124.36237 -59.289501 -51.075615 8092019
148.68048 -59.241711 13.667217 8616049
148.79047 -59.221066 14.760571 9406590
149.0611 -59.144958 15.513016 9472640
149.36279 -59.097916 16.63586 7959404
149.8727 -59.011112 17.425861 7761770
149.75966 -59.010387 18.324829 7301477
150.76164 -59.00885 19.190193 7564651
150.63762 -59.008133 20.094501 9209730
151.61716 -59.006428 21.159966 9736323
151.48132 -59.005711 22.069332 8091242
151.90077 -59.004494 23.067387 9736323
152.31337 -59.003277 24.069885 10655628
152.19157 -59.002705 24.800858 9208184
153.19817 -59.00111 25.728748 10129542
153.00174 -59.000267 26.831211 6906456
154.01147 -58.998646 27.779446 10262156
153.8354 -58.997944 28.702991 8157036
154.8123 -58.99617 29.856529 6643802
154.66203 -58.995609 30.599277 5788495
154.5087 -58.99506 31.341499 7565667
155.62181 -58.920029 32.355194 10788756
155.74469 -58.640434 33.21315 12762032
155.75085 -58.549187 34.14658 13683130
116.56905 -57.556923 -70.255554 9340801
117.00497 -57.842533 -69.630196 9998729
117.66054 -57.921074 -68.880684 9275520
118.20669 -58.10685 -68.190804 9143934
156.13965 -57.741207 33.446823 9932932
156.00325 -57.767574 34.399899 13683130
155.96352 -57.592999 35.178967 11182998
116.24245 -56.700275 -71.073875 8420470
116.67986 -56.849056 -70.52137 9603716
117.33684 -56.823265 -69.827103 9143935
117.77428 -57.109795 -69.199554 8486262
156.37206 -56.83213 34.201168 14208960
156.2675 -56.754925 35.199566 10327689
156.27271 -56.434784 36.04142 6511954
115.9126 -55.61438 -72.020409 9734531
116.28294 -55.959587 -71.433311 8157555
116.93619 -55.957058 -70.730385 9603972
117.44834 -56.014133 -70.147202 9077627
156.63268 -55.99617 34.541473 11182486
156.58977 -55.858246 35.243843 8222059
156.51732 -55.745426 36.099045 6511954
115.57887 -54.533794 -72.968269 9734531
115.95099 -54.875877 -72.380966 10524559
116.56898 -54.98278 -71.656487 9077370
117.07481 -55.106331 -71.043907 9209212
156.86758 -55.095253 35.254814 5919050
156.83195 -54.858871 36.17305 5984842
156.74202 -54.786907 37.047062 9143159
115.13245 -53.563976 -73.977295 6510930
115.57433 -53.836872 -73.352417 7433056
116.23466 -53.90057 -72.605827 10196106
116.78603 -54.072201 -71.917992 7958632
157.1768 -53.93541 36.121349 5919050
157.14047 -53.699581 37.043221 8550511
157.04987 -53.628262 37.920509 8879989
114.79409 -52.724445 -74.798958 10261132
115.24913 -52.807808 -74.263046 6510930
115.89668 -52.823277 -73.556488 7761765
116.44949 -52.99155 -72.868896 10130313
157.39157 -53.282013 36.304527 7892581
157.45528 -52.812023 37.118835 9077111
157.38136 -52.700268 37.981918 6511954
157.33633 -52.564796 38.693054 6511954
114.45001 -51.657661 -75.750511 9011064
114.8266 -51.991432 -75.162834 9603202
115.50172 -51.919415 -74.474152 6510930
116.1093 -51.915718 -73.821144 6708821
157.70024 -52.121391 37.177624 9011320
157.68846 -51.863064 37.977142 6511954
157.62027 -51.722019 38.879196 6709333
157.64381 -51.405266 39.576004 7037274
114.10216 -50.595184 -76.703621 8681843
114.48048 -50.926346 -76.115593 8681843
115.10368 -51.019794 -75.392868 8682099
115.614 -51.13179 -74.781731 6971481
158.00873 -50.960266 38.055622 6511954
157.96651 -50.786964 38.850994 6971737
157.82564 -50.818634 39.824516 7037274
113.75075 -49.536911 -77.658501 8681843
114.13071 -49.865471 -77.069969 9273979
114.75542 -49.955669 -76.34742 9405565
115.31216 -50.114685 -75.66066 8485747
158.20471 -50.066132 39.045273 8813939
158.18532 -49.827534 39.849415 10327176
158.16109 -49.651035 40.518791 13814458
113.39561 -48.482449 -78.615082 10854036
113.77728 -48.808517 -78.026085 9669506
114.40338 -48.895538 -77.303474 8419695
114.9616 -49.05151 -76.616714 9801605
158.52945 -48.875664 39.883686 10392969
158.44154 -48.858906 40.591991 12432807
113.03623 -47.431282 -79.573051 9011832
113.41974 -47.7551 -78.983604 9472383
114.10223 -47.808369 -78.218231 9538176
114.60895 -48.083965 -77.521996 8748916
158.78697 -47.942196 40.519199 8353902
113.09004 -46.718025 -79.965126 8748147
113.80425 -46.771217 -79.154198 8617331
114.28013 -47.081478 -78.420464 9932934
112.00492 -45.454113 -82.507301 9144702
112.413 -45.666519 -81.82695 9143162
112.96976 -45.913204 -80.947281 9340028
113.56806 -46.047901 -80.148918 8353644
114.05547 -46.178226 -79.475319 9011832
110.99535 -44.599792 -85.29467 9208443
111.63263 -44.576599 -84.832268 8748406
111.88258 -44.749104 -83.778992 8092016
112.21099 -45.019993 -82.776329 9276288
112.88953 -45.058884 -81.997047 9142906
113.30166 -45.203129 -81.389107 9142649
108.89562 -43.864227 -90.946007 9011573
109.53564 -43.903263 -90.373749 8551279
110.11836 -43.998547 -89.826019 8156521
109.86472 -44.136612 -88.247139 7827308
110.55091 -44.158875 -87.500443 9011322
110.89835 -44.300808 -86.617561 9932422
111.36067 -44.407303 -85.784981 8813685
108.52614 -42.79258 -91.744957 12629418
108.9937 -42.99435 -91.249443 12300452
109.71992 -43.081333 -90.581062 8024936
108.07007 -41.544388 -92.697639 9734788
108.53743 -41.87505 -92.144844 10787474
109.30732 -41.996552 -91.423149 12498088
108.17661 -40.701393 -92.981743 9405822
108.9192 -40.921535 -92.239708 10261131
109.44592 -41.268486 -91.628181 12629418
107.94461 -39.675369 -93.641052 10129546
108.45619 -39.851643 -93.118866 8814197
109.07488 -39.935345 -92.545158 9603969
107.49268 -38.723816 -94.457741 8090987
107.8994 -39.047665 -93.960602 9997960
108.71191 -38.896744 -93.323647 8945783
107.49713 -37.97641 -94.787697 8485745
108.18677 -38.056564 -94.154091 10129545
108.66 -38.25301 -93.656113 10853012
107.11382 -36.876617 -95.611115 9209467
107.73576 -36.954239 -95.037331 9143418
108.27904 -37.186951 -94.462379 9471871
106.74692 -35.560371 -96.552757 9209467
107.27159 -35.894211 -95.930046 9472382
107.95604 -36.067371 -95.247185 9406846
92.726944 -35.164265 -136.16948 7893614
93.073624 -35.110867 -135.6306 9735812
93.668198 -34.857738 -131.38998 9537666
94.188469 -34.760593 -130.46405 9735046
94.703056 -34.664043 -129.53876 10063751
95.110214 -34.587215 -128.79907 10458249
95.513481 -34.510792 -128.05992 10458249
106.50974 -34.511898 -97.268806 11707548
106.88191 -34.871059 -96.767876 13023150
107.66516 -34.941368 -96.045425 12234148
95.813545 -34.453663 -127.50581 9010806
96.111206 -34.396839 -126.95205 8089963
96.602463 -34.302574 -126.02975 8089963
97.886429 -33.870117 -120.10444 9207671
98.340469 -33.780331 -119.20092 6510930
98.789215 -33.691059 -118.29826 7760997
99.232056 -33.60236 -117.39646 9076854
99.669586 -33.514168 -116.49552 10064003
106.01134 -33.455837 -98.218147 9865859
106.48073 -33.773434 -97.651863 8945015
107.21398 -33.839809 -96.975304 11181975
107.63844 -34.201591 -96.427025 12432037
100.10118 -33.426613 -115.59547 9208439
100.5276 -33.339546 -114.69633 8090995
100.9482 -33.25312 -113.79823 9011582
101.36364 -33.167194 -112.90093 9472130
101.77331 -33.081848 -112.00478 7958632
102.17789 -32.99707 -111.10944 9932678
102.4976 -32.929577 -110.39393 9012348
106.08186 -32.880051 -98.440941 9274235
106.72854 -32.785378 -97.93792 8683127
107.25998 -33.029964 -97.328468 9012606
104.55052 -31.946943 -102.09953 9735046
104.97208 -31.927015 -101.53574 8946044
105.50132 -32.002842 -100.49805 8156525
106.08824 -32.014778 -99.711037 9274492
106.33723 -32.285126 -98.755745 9603714
107.02339 -32.127167 -98.207817 9012606
142.271 -61.383537 -4.4201741 9076852
142.64345 -61.533302 -3.4017835 11380380
142.90747 -61.640503 -2.5488706 9932416
143.20671 -61.347698 -1.6933063 10655889
126.61146 -60.441338 -46.241688 6972503
126.82956 -60.441425 -45.63409 9011573
127.14346 -60.437729 -44.71822 12301226
127.45563 -60.436333 -43.801846 8353134
127.66289 -60.436691 -43.190582 7037274
138.21191 -60.360069 -15.317493 9143166
138.45575 -60.436108 -14.671246 8748665
138.81953 -60.551582 -13.698765 7696230
139.27629 -60.544331 -12.662979 7104091
139.5605 -60.635868 -11.810524 6709333
139.87973 -60.702801 -10.924068 7761509
140.3959 -60.528465 -10.047157 8484976
140.72629 -60.603249 -9.1194344 9471616
141.05334 -60.718647 -8.119854 7563618
141.46959 -60.721386 -7.1629415 8090219
141.80333 -60.795944 -6.2829061 8024170
142.12135 -60.865765 -5.3984342 8287598
142.63852 -60.710388 -4.4298635 11182485
142.9388 -60.879856 -3.450501 10064519
143.21504 -60.93866 -2.5530782 9406332
143.57004 -60.668312 -1.6957821 9801091
143.80377 -60.64584 -0.71088827 9669761
144.07884 -60.568806 0.28976786 11312790
144.26939 -60.547009 1.0702473 11181204
144.74455 -60.336685 2.4667583 9208435
126.18102 -59.419769 -48.494961 9932163
126.42538 -59.648979 -47.500835 9669762
126.87794 -59.824734 -46.681797 8288371
127.26791 -59.853195 -45.789787 9932936
127.58382 -59.849953 -44.871029 9209212
127.89723 -59.848652 -43.9515 8814198
128.22342 -59.875359 -42.912151 7498597
128.62334 -59.824734 -41.871998 7498854
128.92479 -59.858624 -40.880035 8747890
129.22797 -59.865917 -39.956524 10326151
129.52879 -59.875206 -39.032017 8550512
129.90964 -59.840405 -38.09621 7893351
130.4373 -59.645191 -37.267643 7300702
130.73198 -59.660397 -36.337643 9801349
131.02443 -59.677616 -35.4063 12236202
131.31465 -59.696808 -34.47374 10656916
131.60255 -59.718025 -33.539898 8551545
132.02559 -59.604057 -32.637951 7564651
132.30438 -59.626984 -31.699183 7234653
132.6806 -59.634308 -30.656094 9536635
133.13417 -59.549583 -29.836836 10261129
133.49942 -59.493908 -28.857714 8617591
133.81453 -59.509884 -27.848207 8485749
134.08095 -59.542328 -26.898972 10260871
134.40486 -59.516529 -26.126003 10787214
134.75078 -59.489296 -25.187941 10721162
135.13803 -59.487698 -24.054264 11247506
135.52885 -59.468151 -23.152063 9932418
135.8326 -59.531246 -22.198769 9143418
136.15388 -59.604977 -21.245981 9472383
136.66534 -59.566833 -20.389248 7696484
136.95662 -59.638412 -19.521418 7893607
137.28914 -59.724895 -18.560904 8879991
137.62073 -59.813957 -17.597286 8419696
137.96635 -59.911957 -16.632168 8156268
138.41818 -59.924908 -15.712345 9340544
138.92888 -59.83176 -14.831409 8354163
139.25049 -59.929401 -13.907894 7038045
139.60477 -59.931343 -13.096443 6511954
139.9873 -59.970291 -12.114971 6511954
140.44009 -59.924614 -11.134293 7169628
140.82454 -59.941414 -10.191952 7367007
141.17563 -60.016041 -9.2143326 8024170
141.48843 -60.046085 -8.4152451 7958376
141.80527 -60.098957 -7.5617795 8616563
142.31395 -60.084385 -6.3881536 8156012
142.67799 -60.119263 -5.4594159 10261644
143.0782 -60.068783 -4.6131444 13550517
143.35185 -60.174187 -3.7594991 11314071
143.70723 -60.210209 -2.6453519 8354159
144.05336 -60.038071 -1.6989635 9998468
144.32243 -59.93985 -0.83467901 11905950
144.61069 -59.851021 0.13233912 10459532
144.76451 -59.917679 1.0767132 10130055
145.03416 -59.895535 2.0864062 10195334
145.38203 -59.768448 3.0629764 9603453
145.65941 -59.641033 3.957088 10787984
146.06798 -59.530403 4.7529635 10393484
146.36546 -59.470825 5.6695666 11577500
146.56029 -59.4646 6.7361445 9012088
147.06973 -59.374798 7.7367587 8354158
147.2791 -59.377125 8.7247009 7564642
147.31071 -59.403721 9.2594948 8090987
118.99174 -58.696312 -67.007881 10195590
119.48572 -58.87344 -66.235107 9537660
119.95608 -58.976124 -65.424583 6248782
120.1973 -59.107296 -64.318916 10524297
120.65186 -59.106171 -63.452351 10655883
121.10013 -59.105045 -62.582535 7103834
121.54209 -59.10392 -61.709469 8748145
121.9777 -59.102806 -60.833324 9339769
121.99626 -59.101814 -59.755253 8946036
122.00558 -59.100842 -58.680069 12432037
122.41938 -59.099731 -57.800602 10457991
122.82677 -59.098629 -56.918163 11115664
123.22782 -59.097527 -56.032787 8813165
123.6224 -59.096424 -55.144604 8813680
124.0106 -59.095333 -54.253536 10590351
124.45518 -59.094055 -53.210354 7893358
124.8913 -59.092781 -52.163662 7366499
125.15854 -59.12933 -51.136417 9208955
125.44301 -59.205906 -50.291485 7958376
125.94004 -59.272251 -49.442909 9406078
126.52315 -59.237469 -48.971809 7038307
133.21948 -59.354309 -31.071489 9931136
135.08159 -59.299557 -26.085522 11313557
135.28076 -59.32074 -25.283949 10129025
135.47765 -59.3428 -24.481049 10852748
136.93462 -59.328838 -21.195038 9011832
137.02507 -59.34668 -20.872461 8682867
147.10529 -59.249466 6.0566173 9209467
147.15413 -59.28265 6.7671351 8090986
147.82249 -59.150593 7.8697581 9735812
147.86705 -59.18544 8.5850487 7564642
147.93079 -59.238789 9.6593285 8551281
148.28239 -59.192402 10.578899 8551281
148.632 -59.146965 11.50404 7695717
148.93375 -59.129574 12.537708 8418670
149.29167 -59.043823 13.36549 8023913
149.57304 -59.048176 14.359486 8879477
150.12216 -59.012878 15.265617 10195078
150.02216 -59.012142 16.166164 7564135
151.03653 -59.010605 17.017021 5920074
150.92564 -59.009869 17.922935 6643546
151.36493 -59.008656 18.901924 7564651
151.7977 -59.007439 19.885479 7564651
151.69608 -59.006863 20.613903 12630962
152.71304 -59.005287 21.507317 8617586
152.54701 -59.004421 22.606411 9736323
153.53789 -59.002686 23.703999 7037274
153.3867 -59.001965 24.624886 8484462
154.41005 -59.000351 25.558357 11379350
154.28046 -58.999779 26.299324 7300702
154.11404 -58.999073 27.224716 7761253
155.1012 -58.997295 28.368584 8419698
154.9223 -58.99659 29.298847 8090477
155.94749 -58.99493 30.277561 5920082
155.94861 -58.829227 31.057003 6445906
156.07411 -58.452835 31.981968 9143419
118.64758 -57.831303 -67.86544 9209211
119.24548 -57.884674 -67.191727 9933189
119.85599 -57.965714 -66.489456 10788497
156.36043 -57.961666 31.180435 5919050
156.32932 -57.707558 32.113796 9537921
156.22115 -57.726284 32.875271 12169897
118.20119 -56.792904 -68.911758 10261900
118.81841 -57.036671 -68.113647 12433322
119.4794 -57.025623 -67.407051 9342083
156.67296 -56.799458 32.028801 5919050
156.57104 -56.74297 32.950542 7761511
156.53226 -56.56583 33.729694 11182486
117.87502 -55.695942 -69.860352 8748148
118.49397 -55.935421 -69.062767 12629931
119.16908 -56.025604 -68.285767 12301480
119.53955 -56.381844 -67.692513 8092019
156.91786 -55.796932 32.946182 5920081
156.81514 -55.741478 33.87088 12300710
156.77263 -55.602436 34.573002 14076861
117.60313 -54.74231 -70.67244 9472384
118.16571 -54.839729 -70.012878 8682099
118.77286 -54.991333 -69.27578 10195337
157.13104 -55.169224 33.070858 5393738
157.16202 -54.794815 33.86821 6972511
157.06248 -54.690704 34.902653 8616304
117.1984 -53.735439 -71.65667 6510930
117.66861 -54.047493 -70.979988 7761253
118.44234 -53.897175 -70.227577 8287597
157.51201 -53.810455 33.945202 5393738
157.40236 -53.830406 34.714699 5787722
157.29718 -53.789268 35.618511 6576723
116.86168 -52.65358 -72.608459 9011832
117.35376 -52.996082 -71.891548 6971993
118.06739 -53.08149 -71.075714 7761253
157.69652 -52.978374 34.847248 5721671
157.632 -52.822121 35.762241 7826788
157.64371 -52.498943 36.563747 10853262
116.54938 -51.631348 -73.501366 9077625
117.05051 -51.92205 -72.802971 9340799
117.73028 -51.996944 -72.029358 8156527
118.10651 -52.340908 -71.436531 7564651
158.02644 -51.742348 35.767918 6642772
157.92033 -51.664665 36.77951 9142905
157.9245 -51.343418 37.633068 6511954
116.1519 -50.70422 -74.434471 7170402
116.7084 -50.845982 -73.757347 8879993
117.38955 -50.917183 -72.984238 9406338
117.76744 -51.258228 -72.391251 9735046
158.27655 -50.759247 36.593075 6840664
158.15981 -50.709255 37.609829 6314576
115.75191 -49.827518 -75.342751 7565675
116.29714 -49.965195 -74.679756 8881536
117.04478 -49.841797 -73.940216 7564907
117.42442 -50.180153 -73.347153 10853012
158.5218 -50.00074 36.838467 6840664
158.47466 -49.811188 37.716255 6840664
158.42928 -49.628193 38.562672 9274489
115.40099 -48.762699 -76.299187 7762021
115.90659 -49.044128 -75.600983 10263189
116.61626 -49.023941 -74.846138 13289927
117.07726 -49.106178 -74.30407 7565675
158.83122 -48.836781 37.718613 6314576
158.72385 -48.797443 38.635719 9406331
158.68141 -48.623219 39.435398 10590348
115.04829 -47.793762 -77.205254 7301470
115.60885 -47.949787 -76.515755 6775126
116.23811 -48.041122 -75.787193 10987170
116.73035 -48.267853 -75.133072 15724526
159.04663 -48.181126 37.905506 7038298
159.06923 -47.882256 38.559162 9866626
158.96219 -47.83107 39.506512 11379607
158.98952 -47.458885 40.327183 8090987
114.71983 -46.748211 -78.1847 9472383
115.2681 -46.895748 -77.485649 9012088
115.89226 -46.981335 -76.752785 9867398
116.26705 -47.30846 -76.15332 7565675
159.35585 -47.01519 38.792385 12432037
159.31065 -46.877361 39.51321 12432037
159.31993 -46.628708 40.463654 12827051
114.00425 -45.629025 -80.14978 9274490
114.51968 -45.852505 -79.340935 9735555
115.07851 -45.962963 -78.61248 9340797
115.59124 -46.190281 -77.8022 8287598
159.63615 -46.27718 39.677353 12432037
159.89276 -45.813351 40.424595 13550517
159.8564 -45.767609 40.961628 11708828
112.26537 -44.44231 -84.782562 8814455
112.91196 -44.458485 -84.005455 7499367
113.20744 -44.567818 -83.178795 8420210
113.44115 -44.730835 -82.209404 8879987
113.93082 -44.886066 -81.289597 8747631
114.28441 -45.096321 -80.447609 9405562
114.88625 -45.159889 -79.725548 9340286
110.63217 -43.696533 -89.512634 8156525
111.20088 -43.867092 -88.877419 7235428
111.66525 -44.134979 -87.943886 10260617
111.89894 -44.170856 -86.837479 8813684
112.07987 -44.230133 -85.909958 9011064
112.74728 -44.251064 -85.143867 9471357
113.18073 -44.261642 -84.624092 8419696
110.25258 -42.836075 -90.228783 9011573
110.74458 -43.000919 -89.728691 8156267
111.42335 -43.028301 -89.128029 7037274
109.82491 -41.815884 -91.055122 11511449
110.29454 -42.019161 -90.557213 9143160
111.02436 -42.107903 -89.884956 9998211
109.83795 -40.896069 -91.454605 10788242
110.56899 -40.981838 -90.78257 9801089
111.04003 -41.18552 -90.283257 10787726
109.4642 -39.798008 -92.269005 10393485
110.12771 -39.868649 -91.662277 11446173
110.60986 -40.164574 -91.112061 11511191
109.08845 -38.623405 -93.119278 8814453
109.66406 -38.795441 -92.543434 10459278
110.30307 -39.000843 -91.897789 12169897
109.15321 -37.86813 -93.400406 10458510
109.9396 -37.877083 -92.714714 9932934
108.79972 -36.985081 -94.101158 9932166
109.49251 -37.066765 -93.464165 9208955
110.0128 -37.091404 -93.002083 8813680
108.42041 -35.882725 -94.928993 9011832
108.9812 -35.993141 -94.388405 8945526
109.64526 -36.139084 -93.746025 8549996
93.303444 -35.075371 -135.27127 8814713
93.759857 -35.004673 -134.5526 7762538
94.322578 -34.915588 -133.65009 8881020
94.749023 -34.837788 -132.90132 11379865
95.272278 -34.739559 -131.9604 11182226
95.789749 -34.641953 -131.02028 9208953
108.06241 -34.564274 -95.878807 12432037
108.48586 -34.927898 -95.33065 11840157
109.21893 -34.999851 -94.651527 9142647
97.088242 -34.208893 -125.10818 9537660
97.47242 -34.134338 -124.37157 9406843
97.947136 -34.041733 -123.45162 8814707
98.416473 -33.949657 -122.53246 8682609
98.879578 -33.8582 -121.61433 7892583
99.33728 -33.767315 -120.69699 9010808
99.788918 -33.677025 -119.78062 10458762
100.23515 -33.587284 -118.86514 8814200
100.588 -33.515953 -118.13352 9077115
108.09946 -33.792126 -96.220131 11774108
108.84689 -33.934937 -95.494072 8485235
109.19501 -34.257954 -95.031761 10458508
100.85024 -33.462616 -117.5852 7563619
101.02393 -33.42725 -117.21984 7563619
102.73524 -32.879215 -109.8577 8092019
102.97063 -32.829105 -109.32192 9341571
103.3589 -32.74596 -108.42967 13090229
103.81796 -32.646873 -107.36042 11050647
104.19498 -32.564903 -106.47044 8682867
104.56639 -32.483471 -105.58163 8287592
107.33874 -32.454838 -97.556335 10459537
107.78439 -32.715332 -97.023506 8749691
108.47511 -32.872082 -96.337616 10327179
108.96097 -33.202682 -95.748245 6511962
104.93298 -32.402599 -104.69381 9537406
105.22261 -32.338238 -103.9844 9537923
106.49537 -31.644197 -100.57124 9734788
106.91369 -31.625971 -100.00386 9208700
107.24696 -31.736086 -99.120811 9077628
107.52675 -31.968052 -98.102028 10722709
108.1479 -31.995275 -97.349854 8025969
108.63287 -32.154163 -96.617126 12432037
127.7307 -59.401962 -46.817699 8485494
128.00569 -59.401676 -46.051182 10393229
128.32547 -59.399406 -45.127861 7827047
128.64139 -59.398403 -44.203133 8682868
128.95346 -59.398701 -43.277145 8485235
129.26167 -59.400295 -42.349823 8485235
129.61635 -59.403885 -41.266132 8419182
129.96606 -59.409168 -40.180679 10457736
130.26152 -59.415138 -39.248821 9471355
130.50465 -59.420994 -38.471127 7366751
138.4615 -59.365803 -17.699947 7300702
138.67686 -59.414787 -16.882507 7432289
138.8472 -59.454662 -16.227203 9735812
139.7458 -59.368355 -14.9702 8617335
139.95235 -59.420265 -14.14328 7564133
140.18268 -59.47776 -13.147396 5919050
140.6169 -59.462852 -12.234009 6379857
141.11852 -59.40329 -11.524689 5392706
141.33603 -59.462917 -10.518322 6380113
141.79347 -59.459499 -9.4558792 6511442
142.07542 -59.512516 -8.5152054 8089962
142.34421 -59.602379 -7.5020909 7958377
142.80887 -59.572876 -6.6653371 9406335
143.20485 -59.516781 -5.8208203 8813942
143.46904 -59.612091 -4.7958875 10459020
143.9086 -59.627346 -3.8144116 9472126
144.21857 -59.637161 -2.9861226 8485488
144.44934 -59.578686 -2.0482144 8551281
144.76024 -59.495552 -1.0084804 10984849
145.26245 -59.387428 -0.31153142 8749684
145.50383 -59.383942 0.73726237 12565162
145.58081 -59.419533 1.6117321 8092011
146.35558 -59.335777 3.9099154 10065291
120.50713 -58.771091 -65.349159 5722695
121.0581 -58.833054 -64.721436 10655371
121.67693 -58.806126 -63.985615 10853779
121.98256 -59.052124 -63.125851 13550517
122.36713 -59.10368 -62.123444 8420981
122.80571 -59.102554 -61.241253 8486000
123.23795 -59.101421 -60.355938 8947063
123.24685 -59.100433 -59.269543 7827308
123.24655 -59.099461 -58.186111 8616566
123.65671 -59.098347 -57.297665 11707548
124.06043 -59.09724 -56.406315 9669254
124.52312 -59.095943 -55.362682 8156530
124.97744 -59.094658 -54.315361 11182230
125.3596 -59.093555 -53.414562 7038307
125.73527 -59.092457 -52.510971 9011576
126.10442 -59.091362 -51.604733 8353133
126.46699 -59.090263 -50.69585 7366499
126.82295 -59.089176 -49.784363 7959149
127.03172 -59.170841 -48.747555 7301478
127.43697 -59.249264 -47.924637 9406594
127.99852 -59.265686 -47.174332 8090737
128.5023 -59.232269 -46.226917 9143164
128.82336 -59.229984 -45.299915 8156012
129.1405 -59.228973 -44.371731 8156012
129.45381 -59.229305 -43.442104 6709594
129.76328 -59.230858 -42.511127 7893355
130.06889 -59.233826 -41.578808 9339771
130.4205 -59.238895 -40.4893 9405307
130.76711 -59.245697 -39.398132 9734784
131.06001 -59.253025 -38.461155 7366751
131.57266 -59.19408 -37.517235 7564130
131.89034 -59.186317 -36.652744 8287598
132.17236 -59.197556 -35.709724 13815490
132.45052 -59.210056 -34.765285 14604494
132.72476 -59.223862 -33.819382 10656663
132.99492 -59.238853 -32.871864 7695979
133.26123 -59.25515 -31.922852 8484205
133.78476 -59.188267 -31.031265 9405050
134.29491 -59.150581 -30.064451 10130569
134.5713 -59.146004 -29.179218 8486005
134.81442 -59.163597 -28.21837 7564136
135.06279 -59.186508 -27.257879 8681843
135.42004 -59.16626 -26.400936 10260871
135.81398 -59.151226 -25.38028 10129025
136.37938 -59.11842 -24.470039 9405302
136.58394 -59.133888 -23.49398 10327434
136.84158 -59.175194 -22.525625 10196106
137.15411 -59.20705 -21.631348 8617330
137.66464 -59.197014 -20.628645 6973273
138.16925 -59.159668 -19.856194 6841687
138.43347 -59.214523 -18.878044 7235421
138.93213 -59.178101 -18.09568 7300702
139.19325 -59.236755 -17.111416 7037274
139.45038 -59.296703 -16.124622 8748920
139.98698 -59.273495 -15.163502 8617335
140.47939 -59.241051 -14.36338 7563874
140.6727 -59.28857 -13.530632 5919050
140.82317 -59.326088 -12.863091 5919050
141.90845 -59.291424 -10.557415 5919050
142.05217 -59.331871 -9.8824463 6511954
143.12241 -59.306442 -7.5385747 8090987
143.19118 -59.328182 -7.1974225 8813942
145.30756 -59.302456 -1.3575939 9537918
146.08992 -59.203033 0.74389231 11644317
146.18262 -59.245903 1.7977482 8617591
146.50179 -59.214378 2.7884898 8288628
146.77165 -59.184013 3.5710826 9407363
147.16492 -59.144947 4.6440158 10459278
147.42073 -59.111664 5.4332118 12761519
147.72739 -59.083122 6.4415927 7301473
148.19003 -59.073097 7.3564296 8024940
148.53952 -59.020386 8.2703705 8288365
148.51382 -59.037144 9.3427849 8551281
149.49367 -59.017986 10.13205 9011831
149.40993 -59.017078 11.208183 8682098
149.8941 -59.016022 11.972248 8287084
150.35696 -59.014816 12.921608 9076599
150.25342 -59.01392 14.003925 8682099
151.28 -59.01239 14.840065 10590091
151.18217 -59.011639 15.747517 8550767
151.63559 -59.010426 16.720032 7498590
152.0825 -59.009205 17.697216 6578002
151.96788 -59.008469 18.609463 7367264
152.99689 -59.006897 19.48933 6380369
152.87105 -59.006157 20.407047 8156779
153.87767 -59.004425 21.490211 9538433
153.73973 -59.003693 22.413212 9407102
153.62589 -59.003113 23.15102 9208184
154.65764 -59.001507 24.074551 7037274
154.50461 -59.000786 25.002251 10260871
155.54079 -58.999149 25.945133 8353646
155.34222 -58.998287 27.064438 7432288
156.13287 -58.71767 27.865654 6116946
156.16559 -58.75869 28.958622 8222063
156.18553 -58.754982 29.870464 6972511
120.19041 -57.65369 -66.29879 11907749
120.62862 -57.952129 -65.663841 5854024
121.27796 -57.998631 -64.93853 8616303
121.84407 -58.125301 -64.259186 9800835
156.36725 -58.114872 28.219044 6972511
156.51904 -57.760258 28.747517 7235683
156.53163 -57.836639 29.808071 7103583
156.49582 -57.773685 30.679893 5919050
119.86983 -56.542328 -67.249138 8092019
120.30957 -56.837128 -66.614616 8092019
120.97316 -56.926163 -65.8507 7761251
121.41322 -57.225517 -65.213478 6840406
156.81055 -56.998062 29.080917 7038307
156.89227 -56.845081 29.682701 7498598
156.89455 -56.690964 30.661781 7234910
156.80876 -56.610863 31.526905 5919050
119.54414 -55.672882 -68.073341 8092019
119.98605 -55.829426 -67.511749 8092019
120.65155 -55.812935 -66.803276 8618362
121.09302 -56.108593 -66.166397 8156523
157.11084 -56.271881 29.920834 5919050
157.22011 -55.7491 30.805405 7300959
157.08026 -55.770187 31.798912 6313808
157.09947 -55.544464 32.275326 5393738
119.10568 -54.677029 -69.087982 8681843
119.54784 -54.965103 -68.454575 8616307
120.19949 -55.000282 -67.732903 8552569
120.76913 -54.997665 -67.120171 9342083
157.45512 -55.118458 30.773792 7169373
157.46341 -54.791203 31.612099 7366752
157.34961 -54.716347 32.673359 6117203
118.77477 -53.582077 -70.040642 8747892
119.21846 -53.866779 -69.407402 8352878
119.88486 -53.944042 -68.646889 9077114
120.44003 -54.223026 -67.896545 10986392
157.741 -53.958298 31.817078 9340286
157.70268 -53.778507 32.599674 9668995
157.60814 -53.732265 33.437458 8024684
118.4409 -52.726143 -70.866425 10064780
118.88541 -52.773716 -70.361267 8222320
119.55304 -52.847103 -69.60157 6576980
119.99826 -53.132717 -68.966103 7234910
158.01959 -52.873844 32.706303 10524304
157.91681 -52.81649 33.636787 7366752
157.87733 -52.638397 34.423321 5392706
118.10337 -51.640659 -71.820976 7564651
118.48029 -51.985313 -71.227081 8156787
119.23167 -51.800678 -70.51741 7564651
119.66432 -52.037697 -69.922035 7234910
158.29451 -51.827023 33.519806 7564387
158.15752 -51.850246 34.485699 5853257
158.11751 -51.672695 35.274868 5392706
117.76211 -50.559879 -72.776688 8617080
118.14067 -50.901634 -72.182686 9143423
118.76839 -51.00745 -71.448036 8946301
119.27094 -51.058678 -70.878075 8814715
158.47751 -51.240288 33.758682 8288110
158.49728 -50.912609 34.51128 7366752
158.43529 -50.754009 35.413891 6116429
158.42732 -50.509571 36.146706 6840664
117.41668 -49.483307 -73.733284 7564651
117.79688 -49.822334 -73.139183 8617080
118.42584 -49.924637 -72.405022 9801096
118.98599 -50.095394 -71.707932 10064780
158.78851 -50.075375 34.625999 8288110
158.8185 -49.699829 35.434406 8551282
158.71376 -49.644962 36.374264 6840664
158.73714 -49.345753 37.023632 6840664
117.44946 -48.747417 -74.097008 8814973
118.07976 -48.846298 -73.363228 7762029
118.64127 -49.013763 -72.666496 9143422
159.09943 -48.909855 35.498264 9734788
159.05882 -48.732136 36.293739 7038043
158.9525 -48.690456 37.209431 6314576
116.60915 -47.680786 -75.582268 13684685
117.0608 -47.948147 -74.949867 16250870
117.78593 -47.742214 -74.27903 10064263
118.29431 -48.02948 -73.574715 8814709
159.35385 -47.901772 36.36235 6314576
159.3094 -47.715775 37.210258 5722695
159.26201 -47.524925 38.09296 8222314
116.28366 -46.62822 -76.561996 10985367
116.64606 -46.950855 -75.953163 9603714
117.37123 -46.957108 -75.171799 10195078
117.97194 -47.010708 -74.475037 9603454
159.62694 -46.816402 37.316357 7301213
159.50758 -46.764187 38.342358 10919313
115.54529 -45.637505 -78.47506 8419696
116.03307 -45.772121 -77.796135 8550514
116.61124 -45.961712 -76.95771 11774883
117.18111 -46.176086 -76.100471 8879220
117.58119 -46.4021 -75.413948 7037274
159.97139 -46.094669 38.211983 11576729
160.02838 -45.855629 39.163715 11510936
160.1427 -45.559898 40.01078 8946295
114.19841 -44.494339 -82.44265 8681835
114.83795 -44.513947 -81.657028 9142130
115.22855 -44.629799 -80.697075 9471357
115.52015 -44.847549 -79.591972 8419696
115.90489 -45.071358 -78.79863 7958889
116.50285 -45.222855 -77.907799 8550514
116.84792 -45.402687 -77.332245 10985367
160.53342 -45.177456 39.290211 9340539
160.54768 -45.016251 40.114258 8090987
160.64845 -44.879539 40.963078 8090987
111.72901 -43.518764 -88.644096 7037274
112.1979 -43.727806 -88.144203 9931904
112.85366 -43.870956 -87.303261 8748403
113.01276 -44.132381 -86.19278 10194564
113.62529 -44.131184 -85.377426 9800322
113.81824 -44.200089 -84.463951 8156780
114.04431 -44.28458 -83.580368 9011577
114.6892 -44.303085 -82.794357 8681835
115.11804 -44.315952 -82.268761 8681835
111.77419 -42.699226 -88.970833 7234653
112.49324 -42.830303 -88.288971 8747632
112.97278 -43.134972 -87.737221 8813938
111.41877 -41.736767 -89.708763 10787726
112.06972 -41.817665 -89.10836 9076597
112.64293 -42.081268 -88.493767 9931904
111.53804 -40.961857 -89.951408 9143161
112.23336 -41.083759 -89.294243 9471354
111.14676 -39.917171 -90.757179 10524554
111.88151 -40.004528 -90.081223 8551281
112.35475 -40.209686 -89.579353 8484461
110.77299 -38.815372 -91.573196 10327434
111.37856 -38.919155 -91.001953 9538174
111.98457 -39.024231 -90.429665 7959401
110.39758 -37.636848 -92.425003 9998212
110.87269 -37.836903 -91.923767 8748146
111.56676 -37.924194 -91.283089 8156780
110.37974 -36.898758 -92.770058 8813680
111.14665 -36.796391 -92.150932 8353131
111.57726 -37.170464 -91.610588 7892581
109.99617 -35.804214 -93.591362 8549996
110.64854 -36.036873 -92.921928 8747630
111.32941 -36.101978 -92.302589 7892581
93.824921 -35.149887 -137.77736 6709594
94.28978 -35.07793 -137.04694 10065294
94.865067 -34.988472 -136.13396 9210242
96.199097 -34.56427 -130.26874 10064004
96.503723 -34.506329 -129.70543 10458249
109.74847 -34.628689 -94.365837 8088931
110.19841 -35.028286 -93.777023 8417896
110.96447 -35.14703 -93.050362 8945265
96.805847 -34.448544 -129.1425 10458249
97.205429 -34.371864 -128.39238 7563619
97.601166 -34.295589 -127.64288 9010806
98.090233 -34.20079 -126.70676 9800576
98.573708 -34.106567 -125.77155 9471871
99.050774 -34.012951 -124.83734 9340541
99.522385 -33.919914 -123.90405 9208955
99.802551 -33.864399 -123.34452 8089963
109.38617 -33.567265 -95.198135 8485235
109.81079 -33.932781 -94.647987 9076854
110.54722 -34.006165 -93.965202 9669505
101.19669 -33.391895 -116.85466 9340030
101.53929 -33.321606 -116.12477 9208702
101.96309 -33.234131 -115.21325 9471875
102.38094 -33.147297 -114.30293 10195340
102.79362 -33.060955 -113.39348 9932678
103.20051 -32.975269 -112.48521 11380380
103.60225 -32.890064 -111.5779 9932678
103.99828 -32.805458 -110.67183 7696743
104.38922 -32.721382 -109.7667 8617331
104.77452 -32.637913 -108.86279 7433060
105.15488 -32.554924 -107.95998 9275262
105.45516 -32.488949 -107.23858 7433064
109.36221 -32.824455 -95.580376 6972512
110.09967 -32.895287 -94.89698 8419183
110.57313 -33.088535 -94.386665 9406334
105.67832 -32.439747 -106.69801 7038307
105.89933 -32.39069 -106.15784 8420727
106.26352 -32.309368 -105.25861 9735302
106.69393 -32.212536 -104.1809 9011577
107.04707 -32.132378 -103.28416 7564643
107.39461 -32.052895 -102.38898 9340286
108.21599 -31.589729 -98.349747 8486519
108.88496 -31.579424 -97.54052 8486519
109.21703 -31.770187 -96.635078 8287599
109.68111 -31.991329 -95.784286 7169377
110.1656 -32.198814 -95.1838 8089963
108.64601 -31.337387 -98.738724 8025969
109.16449 -31.317038 -98.024803 7630696
144.31447 -59.33408 -4.4725575 8682867
122.57432 -58.715778 -63.150585 12892845
123.31857 -58.846478 -62.2771 7959403
123.80072 -59.024517 -61.455132 7366495
124.2221 -59.10078 -60.46471 7498596
124.64871 -59.099651 -59.569221 7038307
124.43465 -59.0989 -58.558273 10786703
124.63237 -59.097687 -57.382763 9274495
125.03669 -59.096569 -56.484375 10064011
125.43453 -59.095459 -55.583069 7959151
125.82583 -59.094349 -54.678921 8814201
126.21064 -59.093239 -53.771992 10590351
126.5889 -59.092133 -52.862251 10524041
126.96044 -59.091026 -51.949825 7958376
127.32554 -59.08992 -51.034775 7827048
127.68396 -59.088825 -50.117119 7959149
128.03574 -59.08773 -49.196838 7959149
128.38089 -59.086636 -48.274082 7038307
128.71939 -59.085545 -47.348869 7038307
129.05118 -59.084457 -46.421215 9406592
129.37628 -59.08337 -45.491203 8419440
129.69461 -59.082294 -44.55891 7827047
130.00623 -59.081219 -43.624279 6117714
130.31105 -59.080139 -42.687473 6709594
130.60913 -59.079067 -41.748386 7629669
130.90048 -59.077999 -40.807278 7563619
131.18495 -59.076927 -39.863987 7563619
131.81573 -59.07933 -38.84967 8287854
132.41504 -59.077816 -38.163738 6578008
132.89795 -59.073296 -37.269276 6708823
133.15686 -59.072239 -36.311726 12236202
133.40881 -59.071178 -35.352329 14604750
133.65387 -59.070129 -34.391171 13025208
133.93076 -59.068901 -33.267536 8682616
134.19864 -59.067688 -32.141663 9931136
134.42047 -59.066643 -31.174879 8944499
135.20346 -59.065495 -30.55681 10460306
135.69856 -59.0644 -29.756899 11907239
135.90306 -59.063366 -28.779325 8090992
136.1006 -59.062328 -27.80032 8681843
136.29106 -59.061302 -26.819811 8681843
136.50406 -59.060108 -25.674294 9405302
137.59196 -59.058701 -25.020275 7038307
137.7623 -59.057674 -24.029108 9932937
137.92551 -59.056656 -23.0368 10196106
138.0815 -59.055641 -22.043322 9011832
138.23032 -59.05463 -21.048723 7236189
139.32973 -59.053024 -20.185829 6512978
139.4651 -59.052017 -19.182264 7104092
139.59325 -59.051006 -18.177803 7037274
139.75763 -59.068287 -17.177376 8222318
140.32155 -59.095928 -16.288391 9275262
140.61458 -59.100063 -15.501472 9275263
141.0128 -59.062527 -14.585518 7564133
141.24101 -59.117058 -13.58186 5919050
141.73236 -59.121979 -12.666737 5984843
141.95081 -59.140388 -11.759312 5392706
142.4117 -59.099049 -10.935207 7760998
142.81305 -59.12981 -9.8443413 6643284
143.13924 -59.137012 -8.9170761 7958886
143.38921 -59.176704 -7.964642 7104092
143.80975 -59.165588 -7.0517774 10853012
144.28033 -59.135666 -6.20472 9668994
144.47733 -59.201035 -5.1705518 8287853
144.97176 -59.182816 -4.1405797 8288109
145.40466 -59.142105 -3.2775846 9275004
145.49504 -59.173302 -2.4058309 9274746
145.89203 -59.12151 -1.3594249 9537918
146.27878 -59.108822 -0.37780416 8618098
146.70181 -59.028877 0.39854777 13486007
146.74229 -59.049465 1.4557148 13353911
147.4167 -59.043724 2.2927279 8354421
147.70068 -59.025555 3.244678 7959408
147.67311 -59.024776 4.1308475 8485488
148.70407 -59.023159 5.0597949 9801348
148.65694 -59.022232 6.1304088 8617335
149.15036 -59.021023 7.0517802 8485494
149.63788 -59.019825 7.9780917 9406594
149.56964 -59.018898 9.0553322 8089963
150.60951 -59.017399 9.8514214 9142907
150.55557 -59.016785 10.574261 8748405
150.48384 -59.016026 11.477486 9010550
151.50798 -59.014351 12.47797 8024680
151.40729 -59.013443 13.568607 8484720
151.87466 -59.012211 14.534481 8682099
152.33569 -59.01099 15.5051 7301213
152.23421 -59.010242 16.418934 6972503
153.27585 -59.008678 17.283829 8090469
153.1633 -59.007931 18.203266 5393730
153.61542 -59.006691 19.197598 5393730
154.06088 -59.005451 20.196621 5525316
153.95763 -59.004864 20.936028 10262156
154.97523 -59.003109 22.030651 9538433
154.83415 -59.002377 22.960209 8287596
155.85982 -58.991974 23.885643 12431013
155.88947 -58.826797 24.65839 10260616
156.01875 -58.641907 25.70649 9011320
156.14082 -58.556648 26.705574 6774103
156.21063 -58.449718 27.414589 6510930
122.19832 -57.682213 -64.118484 9275262
122.86824 -57.949814 -63.250557 9538693
123.47023 -58.081337 -62.529953 8288625
156.16367 -58.276676 24.895618 9142392
156.37602 -57.77499 25.58667 8089963
156.41081 -57.809799 26.675518 8089963
156.47214 -57.763233 27.694618 7630185
156.65353 -57.333015 28.272026 7038307
121.75059 -56.914303 -65.019073 6445905
122.552 -56.821495 -64.20549 7828074
123.19737 -57.099491 -63.358479 8092019
156.61035 -57.171856 25.935387 8089963
156.71909 -56.959801 26.664707 10130058
156.82338 -56.775913 27.524887 9275266
156.8882 -56.729736 28.627453 7301479
121.42989 -55.796566 -65.973 9668734
122.09643 -56.006493 -65.140251 9537148
122.76698 -55.980495 -64.431465 9471869
157.10435 -56.00853 27.575401 8617337
157.24506 -55.72374 28.430214 7038307
157.26456 -55.799564 29.509968 6445910
157.36856 -55.504086 30.363544 7169373
121.16956 -54.659023 -66.872772 9670019
121.79356 -54.925068 -66.055252 9998213
122.44217 -55.098618 -65.261505 11050131
157.58801 -54.804775 28.640549 7433064
157.60257 -54.859108 29.427536 7761766
157.6666 -54.665653 30.373276 7300959
157.68169 -54.339684 31.213093 8419696
120.69296 -53.775208 -67.867523 11446686
121.46713 -53.814205 -67.011635 9933191
122.11709 -53.983383 -66.218895 9077625
157.91222 -54.00597 29.421333 9472640
157.99254 -53.771603 30.407837 9209212
157.92702 -53.651409 31.262711 9275005
120.39749 -52.792 -68.721092 7893096
121.02386 -53.049717 -67.905556 12696753
121.7879 -52.968517 -67.12603 9735812
158.27324 -53.011002 30.410488 9735812
158.24252 -52.766144 31.326538 9208700
158.15591 -52.68539 32.19976 9340286
120.06292 -51.695717 -69.677879 7564131
120.69081 -51.949188 -68.862953 8024682
121.34244 -52.110397 -68.07238 10459791
121.79049 -52.400211 -67.431778 9735812
158.58791 -51.845192 31.264313 6839128
158.485 -51.797485 32.16888 6709078
158.37636 -51.813904 32.940666 8353647
119.82863 -50.707008 -70.466988 11511967
120.38935 -50.860542 -69.778625 8748405
121.00661 -51.010689 -69.031151 9011833
158.79567 -50.925247 32.233288 5655878
158.71721 -50.783848 33.21228 7695717
158.75789 -50.451729 33.819641 9735812
119.43198 -49.812618 -71.380058 10064780
119.98128 -49.961605 -70.706497 12235431
120.6673 -49.916023 -69.990898 9866885
159.07776 -49.843216 33.089657 6577236
158.9603 -49.737473 34.263878 7169885
119.088 -48.822693 -72.288078 10854037
119.65086 -48.99329 -71.588142 8353391
120.26167 -49.05381 -70.896179 10327437
159.26108 -49.255543 33.328503 5920074
159.33012 -48.825203 33.994137 6446162
159.24983 -48.661587 35.050041 7762022
118.74004 -47.743702 -73.248634 8419951
119.30424 -47.911022 -72.54908 11577759
119.93862 -48.014233 -71.808571 10393230
120.32162 -48.357838 -71.208839 9537665
159.64345 -47.890388 34.213013 6972762
159.59454 -47.711987 35.07362 6512211
159.57777 -47.466892 35.87598 6511954
118.02222 -46.434109 -74.901657 9208184
118.42761 -46.684032 -74.23481 8880245
118.97504 -46.841087 -73.524033 8551537
119.57567 -46.989887 -72.76973 9801605
119.97433 -47.273769 -72.171486 12433069
159.93031 -46.791283 35.149033 6511954
159.82527 -46.747013 36.067558 6511954
159.78625 -46.568909 36.867855 6511954
117.29125 -45.431496 -76.820602 9537665
117.69936 -45.585793 -76.205627 8287340
118.19996 -45.811295 -75.4105 8221290
118.77479 -45.944275 -74.639481 10590607
119.21546 -46.205776 -73.868935 11183001
160.28084 -46.068886 36.037674 8025193
160.29659 -45.892632 36.937489 7103834
160.4059 -45.596127 37.828571 9471867
116.11015 -44.556862 -80.077072 7564643
116.74271 -44.580025 -79.282814 9274749
117.12132 -44.699188 -78.318611 9998216
117.43947 -44.916897 -77.37616 10129802
118.03315 -45.004517 -76.500336 9208184
118.48888 -45.195057 -75.79306 9208184
160.86229 -45.126064 37.121971 5920074
160.81094 -45.053379 37.926289 7103834
160.9612 -44.818272 38.781742 7761764
161.20859 -44.610428 39.665291 8090987
161.75735 -44.374352 40.630905 8090987
161.79106 -44.328148 41.469013 8090987
113.87373 -43.849792 -86.630043 9340026
114.70733 -43.94643 -85.842476 8748661
114.43303 -44.129585 -84.283585 10261132
114.83261 -44.128788 -83.733589 9340027
115.42735 -44.12759 -82.905128 8879214
115.79462 -44.233204 -81.916901 10588808
116.25684 -44.300789 -81.102318 8879991
116.82207 -44.373192 -80.153633 8748405
162.53267 -44.087212 41.663773 11183001
113.51165 -42.893665 -87.377831 9340026
114.24503 -42.991928 -86.696846 9602941
114.66351 -43.377399 -86.152725 9931649
113.09035 -41.728916 -88.263168 10655626
113.75171 -41.892757 -87.616707 8814452
114.31315 -42.021603 -87.072441 9669247
112.73452 -40.763134 -89.00296 9931904
113.25477 -40.797207 -88.536758 11708572
113.9176 -40.960003 -87.889427 9406847
112.74918 -40.007561 -89.327705 9341055
113.49006 -39.928715 -88.72065 12169380
113.96467 -40.136795 -88.216164 11511708
112.37798 -38.888691 -90.149132 7827815
113.00337 -38.979195 -89.566566 7762795
113.54768 -39.225086 -88.984901 9012605
111.96143 -37.719452 -91.032356 7564643
112.54118 -37.896244 -90.450874 8222573
113.23466 -38.086464 -89.764748 8617847
111.76109 -36.475967 -91.761406 8813680
112.14005 -36.848293 -91.266609 8222316
112.89 -36.939739 -90.5756 8748917
111.75496 -35.829922 -92.055183 8616302
112.46968 -35.807835 -91.445488 10919827
112.90194 -36.183731 -90.902908 8617331
95.428299 -34.897263 -135.21211 8881020
95.854042 -34.817356 -134.44649 9735814
96.380257 -34.71804 -133.49019 9735556
96.900589 -34.619335 -132.53468 9735296
97.312202 -34.540836 -131.77107 9406847
97.618423 -34.482239 -131.1987 9735812
111.31998 -34.812393 -92.895714 8484716
111.8461 -35.027306 -92.336327 7497825
112.51022 -34.986588 -91.7771 12959665
97.922203 -34.423847 -130.62668 9340289
98.323868 -34.346306 -129.86453 7959408
98.622658 -34.288456 -129.29338 8419702
99.987953 -33.827526 -122.97179 8089963
100.35588 -33.754044 -122.22668 9931910
100.81107 -33.662693 -121.29619 9208703
101.26007 -33.571949 -120.36678 8353907
101.61565 -33.499775 -119.6239 7564651
110.94968 -33.629116 -93.794029 10262156
