# .PCD v0.7 - Point Cloud Data file format
VERSION 0.7
FIELDS x y z rgb
SIZE 4 4 4 4
TYPE F F F U
COUNT 1 1 1 1
WIDTH 1229
HEIGHT 1
VIEWPOINT 0 0 0 1 0 0 0
POINTS 1229
DATA ascii
68.654831 -6.5804496 176.76595 9011062
67.713226 -6.5375509 177.24658 9208443
68.697044 -5.7285666 177.08762 8747889
67.950691 -5.6534109 177.48512 9142649
67.006531 -5.6100378 177.96725 10129799
68.047516 -4.5800524 177.86928 8814197
67.273148 -4.4886298 178.28703 9866628
66.444496 -4.4909978 178.69377 10787474
65.880852 -4.0244136 179.15883 10129545
67.34314 -3.394917 178.69269 9866372
66.591858 -3.3182445 179.09314 10261131
65.76059 -3.3201542 179.50137 10129545
65.165527 -3.0862918 179.88821 9208955
66.630997 -2.4550586 179.42133 9406078
65.877571 -2.377769 179.82304 9274748
65.044022 -2.3792048 180.2326 9208955
64.446869 -2.1441662 180.62088 8682867
65.915543 -1.5110638 180.15312 9471870
65.159927 -1.4330406 180.5563 9735042
64.323967 -1.4340516 180.96712 9143161
63.724888 -1.1976373 181.35703 9209467
65.24704 -0.72134054 180.79984 10063750
64.596329 -0.43625286 181.32063 10524301
63.621635 -0.48441613 181.76559 8748916
63.040749 -0.24654984 182.21684 7367263
63.996044 0.23183143 182.13397 8879989
63.131439 0.5195893 182.76685 7367263
62.239658 0.55177939 183.23315 7762021
61.571228 0.71195924 183.68515 7564386
61.118347 1.2029284 185.29817 6510930
60.481476 1.2034714 185.62051 5392706
59.63121 1.204212 186.05084 5392706
58.992691 1.204705 186.37411 5392706
53.792526 1.7311138 192.27682 9736836
142.14632 -43.417187 98.144333 8419440
141.74672 -43.403301 98.625809 8419440
141.08095 -43.381298 99.427238 8748405
140.33017 -43.497692 100.25203 8089963
139.68896 -43.549057 100.98337 8616818
139.02397 -43.531254 101.78158 8486519
138.42426 -43.474762 102.52405 10393485
137.76183 -43.543282 103.27087 9077883
137.16222 -43.489243 104.01195 10261387
136.40569 -43.448193 104.73634 10327180
135.6089 -43.395561 105.42719 12367269
135.0455 -43.289253 105.94812 11972767
134.39671 -43.108578 106.57543 11183508
147.60762 -42.385784 92.248169 9144448
147.07071 -42.359093 92.899582 9867913
146.40007 -42.32695 93.712601 9144448
145.80003 -42.510983 94.320747 9933446
145.13066 -42.481403 95.130775 9012088
144.39711 -42.577072 95.946732 8616563
143.86394 -42.639965 96.543526 8879222
143.19606 -42.614265 97.349556 8747893
142.52844 -42.589977 98.154503 8551026
141.86119 -42.567184 98.958199 9209212
141.19414 -42.545731 99.760895 9801605
140.66066 -42.529652 100.40229 8814453
140.01207 -42.563705 101.15204 9998469
139.26663 -42.701138 101.95866 8749434
138.60046 -42.685143 102.75728 10787987
137.9343 -42.67049 103.55512 11774367
137.40141 -42.659798 104.1928 12563628
136.64854 -42.621078 104.92232 11774621
135.85001 -42.569351 105.6141 7236444
135.0531 -42.519238 106.30387 8815475
134.25752 -42.470592 106.99184 11117974
133.6221 -42.43277 107.54079 11775651
132.88768 -42.181038 108.27308 11644064
132.25374 -42.145477 108.81978 11183516
151.01628 -41.274235 88.664742 7169377
150.49361 -41.475822 89.334663 8024169
149.95341 -41.44537 89.992462 8024169
149.26347 -41.567791 90.742546 9472127
148.57899 -41.64571 91.510895 10196362
148.00151 -41.555405 92.246223 9143931
147.34639 -41.576401 93.010986 9012862
146.59262 -41.70002 93.835327 8354934
146.05566 -41.675674 94.485435 9933961
145.38493 -41.646622 95.296715 9472127
144.71465 -41.618847 96.106834 10458766
144.11093 -41.552929 96.859344 8616307
143.44307 -41.612328 97.617722 9734531
142.83998 -41.548786 98.368202 10064265
142.17104 -41.526482 99.173584 9736323
141.5024 -41.505508 99.977921 9605249
140.89966 -41.445866 100.72574 10853521
140.16953 -41.607647 101.50063 10853521
139.5096 -41.87011 102.13594 8354675
138.84213 -41.854393 102.93591 9144191
138.17473 -41.839989 103.73508 11051417
137.58096 -42.037197 104.32857 12432295
136.81544 -41.830326 105.15475 8617072
136.09569 -41.616035 105.85714 6973017
135.36418 -41.607071 106.47276 8157545
134.49548 -41.645134 107.18098 10591371
133.8587 -41.608006 107.7308 12631216
133.064 -41.562954 108.41635 9538433
132.27043 -41.519268 109.10026 8879990
131.55312 -41.439342 109.7375 8288109
130.74463 -41.230873 110.51134 8353907
151.83342 -40.572926 87.757324 9143422
151.3186 -40.642708 88.597038 7630186
150.75816 -40.634979 89.490929 8945271
150.21686 -40.605091 90.149818 8748148
149.54092 -40.569038 90.971832 9538432
148.86571 -40.534283 91.792336 12104360
148.32597 -40.507561 92.447548 10788499
147.5858 -40.563374 93.294258 9144191
146.91393 -40.653904 94.040092 11314843
146.29071 -40.57349 94.82386 9011834
145.61589 -40.73922 95.530937 12959412
144.96786 -40.783539 96.2743 14209736
144.29671 -40.757778 97.084305 9866373
143.64972 -40.804424 97.825081 10195082
143.02708 -40.923363 98.496536 9800836
142.35719 -40.90134 99.302933 9210491
135.29958 -40.921967 106.84901 8749685
134.73381 -40.81876 107.37048 9473154
134.09929 -40.656471 107.97713 10920597
133.35811 -40.53157 108.65543 8748405
132.57095 -40.573029 109.29398 8682612
131.71021 -40.65379 109.97561 8945784
130.91743 -40.613766 110.65713 9406079
130.28416 -40.582798 111.20116 8617079
129.60088 -40.446392 111.83641 9340799
128.91824 -40.311096 112.47079 9209467
153.17433 -39.276981 86.372498 9538431
152.5992 -39.590778 87.1408 9604227
152.17622 -39.589378 87.873085 10196107
151.64703 -39.588898 88.788269 9143678
151.08904 -39.667881 89.637154 9866887
150.41248 -39.717381 90.414093 9735555
149.73595 -39.767635 91.188576 10919317
149.06136 -39.9044 91.912437 11841188
148.38579 -39.871616 92.732201 10262155
147.7108 -39.840103 93.550545 9736070
133.27466 -39.688416 109.12171 8089963
132.70441 -39.798389 109.54668 8419184
132.00056 -39.623028 110.21752 7432800
131.20578 -39.583923 110.90034 8222317
130.5708 -39.553715 111.44535 9209211
129.77814 -39.517185 112.12518 9538176
128.92986 -39.687664 112.75415 10458765
128.21405 -39.615345 113.3866 9209210
127.40611 -39.415878 114.15579 10129798
126.93266 -39.397041 114.56042 9538176
154.37331 -38.334309 84.978851 9932678
153.98901 -38.542469 85.493202 9472639
153.45973 -38.538361 86.411171 9669761
152.93021 -38.535435 87.328758 9538431
152.40024 -38.533867 88.246086 9669765
151.91013 -38.744781 88.94149 11379356
131.43668 -38.759071 111.0951 7959144
130.69881 -38.51593 111.82632 8880502
129.98825 -38.525887 112.41562 9209467
129.21289 -38.658966 113.00127 12234665
128.4207 -38.625847 113.67908 9603711
127.6294 -38.593983 114.35555 10853264
126.83904 -38.563545 115.03056 8946039
126.10309 -38.453407 115.69764 8880246
125.47323 -38.30687 116.29303 9603456
125.05462 -38.085476 116.74706 9932681
155.09081 -37.635078 84.241974 9209467
154.67998 -37.701035 84.904716 9604993
154.2058 -37.654011 85.7584 9999237
153.67015 -37.734768 86.626266 12366501
153.20866 -37.760506 87.40551 9669761
152.81073 -37.900265 87.992821 9209467
129.91638 -37.855038 112.79118 9209467
129.43964 -37.834888 113.19917 11314076
128.62744 -37.635059 113.9722 9998214
127.90893 -37.56525 114.60561 8089963
127.11662 -37.53558 115.28193 9011319
126.32514 -37.507095 115.95695 9603455
125.69257 -37.485325 116.49606 11444632
124.82231 -37.611919 117.16402 10261389
124.11326 -37.434376 117.84026 10853012
123.43028 -37.310627 118.46938 10327181
122.74755 -37.187859 119.09782 8814713
156.6367 -36.238716 82.575218 9932678
156.00923 -36.533264 83.44783 9998471
155.46623 -36.708267 84.260559 9407614
155.0153 -36.642189 85.087685 10263179
154.494 -36.69038 85.954102 9999750
153.81953 -37.057091 86.85614 12103329
127.91804 -36.941265 114.89135 8089963
127.23183 -36.812084 115.5258 9471613
126.54596 -36.684002 116.15939 9274747
125.91212 -36.662624 116.69931 10852751
125.12061 -36.63707 117.37299 9143679
124.3298 -36.612705 118.04559 9997959
123.53964 -36.58968 118.71696 9998984
122.75008 -36.567818 119.38724 7696235
122.17754 -36.480812 119.88399 7038307
157.65347 -35.40303 81.421242 10853012
157.26607 -35.609383 81.941643 10787219
156.84061 -35.601833 82.681999 9735299
156.30872 -35.593555 83.607025 9670019
155.77686 -35.586369 84.531616 9736323
155.28397 -35.793877 85.23423 10526351
126.07708 -36.044857 116.85191 9932163
125.26463 -35.853008 117.62134 9077113
124.54743 -35.665413 118.30907 9471615
123.80887 -35.561512 118.97536 10590864
123.01741 -35.540199 119.64697 8354163
122.1897 -35.509617 120.28091 7695977
121.29316 -35.593182 120.74694 7892581
159.13107 -34.149265 79.772659 8682867
158.72963 -34.2831 80.369621 9537664
158.1405 -34.556454 81.190331 9405566
157.60754 -34.546131 82.118385 9010808
157.13538 -34.538025 82.939827 9340542
156.54599 -34.849724 83.733116 9604226
156.08578 -34.950241 84.455666 9735812
123.70729 -34.729164 119.45161 9735812
123.23158 -34.716938 119.85505 8354163
122.46226 -34.482914 120.54898 7827562
121.48632 -34.633453 121.03603 8287600
120.79976 -34.50806 121.45766 10392461
120.29095 -34.144695 121.88107 8485238
159.94194 -33.308903 78.978004 10129545
159.44525 -33.511902 79.689583 9537664
158.91113 -33.499844 80.620903 10063752
158.37703 -33.488808 81.551552 9010808
157.94963 -33.480877 82.295486 9340030
157.27896 -33.898354 83.153038 9076857
121.86148 -33.655487 121.23444 7959150
121.01271 -33.563015 121.73013 9932169
120.08099 -33.508541 122.255 8288116
119.39081 -33.261257 122.72859 7564651
160.66698 -32.573189 78.256035 9933191
160.15036 -32.667709 79.080223 9735555
159.67191 -32.613239 79.945992 9537664
159.13054 -32.687504 80.827682 9932422
158.58321 -32.848518 81.65699 10195082
121.73743 -32.979889 121.57818 9932169
121.23063 -32.74168 121.94917 7761772
120.38402 -32.537079 122.4896 8024944
119.36557 -32.636436 122.99818 8353910
118.86128 -32.401085 123.36658 10787735
162.46388 -31.218216 76.128998 10262415
162.05881 -31.350576 76.733292 10788502
161.50842 -31.569456 77.526176 8946297
160.95355 -31.67041 78.411934 9670019
160.4984 -31.597256 79.250847 9538433
159.98724 -31.729342 80.038567 9274748
159.39449 -32.004002 80.864502 9406078
120.28667 -31.645992 122.90729 9668996
119.6334 -31.610781 123.27406 9537667
118.76214 -31.51281 123.78412 9471615
117.87919 -31.103943 124.42789 11775139
163.30081 -30.377785 75.325699 10788244
162.79337 -30.578459 76.043953 12433325
162.31714 -30.521784 76.918587 9275263
161.76939 -30.592907 77.806129 9011576
161.30009 -30.6094 78.602333 9735812
160.88478 -30.741955 79.200127 9867398
119.82166 -30.648397 123.56716 8089962
118.97334 -30.536528 124.07875 8616306
118.04811 -30.491407 124.60616 10854036
117.39401 -30.392159 125.01608 8682867
165.99181 -29.21958 72.487312 9735046
165.54227 -29.315802 73.241676 8880246
164.94727 -29.438992 74.024979 9275004
164.33784 -29.64439 74.744576 9405822
163.72394 -29.76881 75.520531 10393229
163.29594 -29.756392 76.278168 12828339
162.62056 -29.945036 77.157753 9735299
118.87311 -29.929216 124.57355 9734531
118.32861 -29.772038 125.0032 9472383
117.68832 -29.677128 125.43069 8682867
116.78692 -29.55781 126.06792 9472383
116.14978 -29.294355 126.71363 10130569
178.52425 -28.446108 59.229668 6709080
177.9182 -28.683249 60.076111 5459015
177.38838 -28.840456 60.992626 7038298
177.16634 -28.839224 61.632271 7038298
172.61748 -28.837215 65.215416 14934744
172.37996 -28.836048 65.837708 13683390
171.97917 -28.834114 66.872719 10393231
167.6317 -28.896196 70.815468 10194566
167.25603 -28.90362 71.845642 9931651
167.02946 -28.908499 72.463646 9734788
116.18922 -29.063158 127.16685 9209467
115.48631 -29.040876 127.62578 11577759
114.60771 -29.013636 128.19727 9143675
114.08065 -28.997629 128.53874 9143675
112.2356 -28.764204 131.7998 12696240
111.59876 -28.763834 132.33783 7960425
110.95938 -28.763474 132.8728 8420720
110.15651 -28.763042 133.53697 8682867
109.34975 -28.762627 134.19678 8813941
108.53893 -28.76223 134.85126 7432032
107.72433 -28.76185 135.50119 11906725
107.23371 -28.761631 135.88879 11906725
102.16428 -28.509623 142.55525 9275003
101.29575 -28.443842 143.0094 10064521
100.42832 -28.378977 143.46255 11510942
179.08275 -27.658806 58.458778 6840409
178.71249 -27.814539 59.386795 6643287
178.39195 -27.993753 60.139645 4340793
102.00136 -27.82864 142.90887 9209467
101.47273 -27.603165 143.25969 10985111
100.5186 -27.579056 143.73915 11248026
99.643784 -27.487362 144.20679 10130313
179.74852 -26.493408 57.79834 6642773
179.36951 -26.706135 58.687603 6248015
178.99344 -26.941084 59.542534 6709080
101.41446 -26.966856 143.54379 10064521
100.71294 -26.647139 144.01758 9998728
99.877365 -26.446045 144.50974 9472639
99.075417 -26.4039 144.9216 9735811
98.534164 -26.053968 145.32855 10064006
180.43828 -25.4016 56.982449 8090219
180.06657 -25.55694 57.915279 6116429
179.74467 -25.736027 58.672089 5919050
100.10677 -25.495134 144.77847 9340538
99.235977 -25.433838 145.23193 10327690
98.366074 -25.373425 145.68452 9866884
180.97946 -24.533787 56.355038 8156012
180.66826 -24.651691 57.149662 7695972
180.35005 -24.678736 58.068928 6116684
99.940033 -24.812555 145.1346 9208435
99.409027 -24.589106 145.48576 10787727
98.452522 -24.569931 145.96446 9735812
97.574982 -24.482391 146.43173 9735812
181.68414 -23.475903 55.45599 8682867
181.3163 -23.699739 56.299202 8221804
180.9529 -23.771513 57.3022 7433056
99.347366 -23.950575 145.77234 11314329
98.803162 -23.599781 146.18123 9275260
97.90107 -23.498058 146.66629 6841176
96.99955 -23.397205 147.1507 7828073
96.455002 -23.048397 147.5589 9538694
182.28998 -22.567196 54.682091 10460046
181.92137 -22.791178 55.527424 8748916
181.55965 -22.786163 56.613041 9998727
98.029068 -22.479319 147.01218 8485488
97.155609 -22.42201 147.46532 6973024
96.28302 -22.365494 147.91769 8025201
182.98442 -21.196814 54.16938 9407103
182.56633 -21.650993 54.900482 11578527
182.22801 -21.738008 55.811249 14670798
181.86925 -22.101353 56.468605 10459534
97.858543 -21.794374 147.37109 9932163
97.324951 -21.572477 147.72293 7696235
96.433975 -21.601362 148.15005 7499113
95.619774 -21.44025 148.61569 8814713
183.51172 -20.280611 53.604595 7893864
183.24876 -20.554245 54.102955 7301470
182.93321 -20.503187 55.112026 14275017
97.26001 -20.931192 148.01254 8288627
96.712585 -20.581102 148.42259 8288627
95.807236 -20.482925 148.90773 9275263
94.902451 -20.385475 149.39232 10787472
183.7787 -19.586411 53.441677 7893864
183.54369 -19.587286 54.332642 10327437
183.24535 -19.814281 54.96476 14077382
95.99527 -19.523287 149.20074 10525839
95.178055 -19.363016 149.66739 13485751
94.299301 -19.523518 150.03543 9274493
93.750198 -19.17515 150.44568 9736329
184.25388 -18.422432 52.857418 9210491
184.10225 -18.708139 53.390457 9144444
183.93729 -18.665556 54.207226 9734788
95.327438 -18.593454 149.90311 11709346
94.450035 -18.540455 150.35629 8092019
93.573242 -18.488123 150.80885 9341827
184.5219 -17.725737 52.693096 9210491
184.41203 -17.815521 53.54298 8420981
95.151932 -17.904509 150.26625 8092019
94.614868 -17.683666 150.61938 8092019
93.720245 -17.717388 151.0462 10394258
92.901375 -17.559101 151.51285 9933707
184.91643 -16.789938 52.083076 9210491
184.85063 -16.799545 52.78566 8881529
184.70239 -17.041384 53.465546 9341571
94.545731 -17.037727 150.91302 8092019
93.993729 -16.687675 151.32536 10986137
93.083801 -16.593153 151.8112 9736585
92.174225 -16.499264 152.29668 8815483
91.621323 -16.150476 152.70891 9143675
185.55211 -15.389814 51.297409 9142393
185.39035 -15.629552 51.974281 9405308
185.20236 -15.867795 52.643734 9538687
93.246323 -15.732443 152.07709 9340797
92.480721 -15.472553 152.63791 9735043
91.578583 -15.508089 153.05591 9997959
90.877075 -15.292302 153.55791 9735043
186.46205 -14.241397 50.342224 11576729
186.20422 -14.478123 51.235779 7563619
185.95314 -14.711872 51.889694 7563619
92.389679 -14.882346 153.15407 9735299
91.798889 -14.737784 153.56555 9735043
90.984436 -14.704419 153.99403 9406078
90.188843 -14.552267 154.51178 8814197
89.829178 -14.05433 155.61465 8682867
88.862228 -14.05027 156.10364 9669506
88.282188 -14.048016 156.39633 10130313
187.68842 -13.581553 48.981201 9077112
187.62083 -13.638381 49.832893 10392969
86.501053 -13.734752 159.46872 7696485
85.730881 -13.734881 159.88252 9011577
84.765953 -13.735062 160.3949 8879479
84.185432 -13.735179 160.69968 8089963
76.834549 -13.6422 169.90146 9011320
76.262466 -13.41794 170.27321 8353646
75.252739 -13.421427 170.76874 7563875
74.477074 -13.198224 171.24023 5919050
188.07956 -12.644658 49.082123 8748403
76.159988 -12.739401 170.59637 9011320
75.586349 -12.514565 170.96909 7959149
74.574455 -12.518195 171.46565 7563875
73.796623 -12.294427 171.9384 6511954
189.76955 -11.503613 46.606667 8485235
189.6234 -11.506453 47.539757 9012092
188.73717 -11.949414 48.283989 8814452
75.515732 -11.606518 171.36893 7564651
74.907486 -11.608565 171.66742 8090737
73.893372 -11.612246 172.16505 7894379
73.113419 -11.387826 172.63908 8092011
190.64108 -11.062385 46.335007 8485235
190.55844 -11.063069 46.800743 7038307
74.959801 -10.773305 171.9774 9340545
74.097443 -10.745838 172.41292 8091501
73.198555 -10.417987 172.98706 10525840
72.490692 -10.020757 173.49506 14077894
74.277054 -9.8617992 172.67989 7894379
73.60569 -9.3295908 173.22421 11051928
72.586014 -9.3331881 173.72462 11314588
71.801132 -9.1067524 174.20181 8089963
73.498375 -8.6414175 173.55365 10854036
72.917725 -8.4132805 173.93115 9735555
71.895653 -8.4167967 174.43275 9011576
71.108582 -8.1894436 174.91141 9537918
72.809235 -7.7228069 174.26218 8682867
72.226852 -7.4937706 174.64079 9537918
71.202293 -7.4971533 175.14365 9471612
70.413025 -7.2689338 175.62393 10851980
72.117111 -6.8008952 174.97351 9537918
71.533035 -6.5709829 175.35333 10458505
70.505951 -6.5741587 175.85741 9536635
69.714371 -6.3449197 176.33917 7563619
71.422104 -5.8755794 175.68776 11379348
70.836273 -5.6446662 176.06885 10260101
69.806595 -5.6476254 176.57425 8287084
69.012581 -5.4173055 177.0575 8089955
70.882248 -4.7907634 176.38986 9997700
70.167465 -4.4811592 176.86609 9537150
69.17878 -4.5420222 177.328 10721420
68.575272 -4.0175004 177.836 9011575
70.084976 -3.5457616 177.2832 10984593
69.495026 -3.3122725 177.66727 10721420
68.536102 -3.361095 178.11938 8814196
67.86731 -3.080677 178.56131 9406075
69.380211 -2.6076365 178.00737 10129539
68.788467 -2.3729968 178.39288 9011575
67.827103 -2.4216695 178.84627 10129540
67.156128 -2.1398005 179.28979 9011576
68.672401 -1.6655079 178.73465 9406075
68.078712 -1.4297175 179.12164 9670015
67.245789 -1.4306524 179.53107 8287597
66.491394 -1.3525791 179.93362 8616819
67.961288 -0.71937603 179.46533 9210491
67.301582 -0.56141949 179.90247 8287341
66.553375 -0.48266006 180.32634 9143163
65.803726 -0.40383568 180.75037 10063750
66.725548 0.23219168 180.79529 8616563
65.936722 0.47144043 181.34509 9405821
65.097427 0.4714849 181.76013 13879484
64.307938 0.7112335 182.32048 10458763
64.0802 1.2007468 183.79442 6511954
63.447517 1.2012002 184.1185 6511954
62.39006 1.2020088 184.65479 7564386
61.542572 1.2026328 185.08347 6510930
139.69196 -41.246292 102.26903 8682867
139.02359 -41.230778 103.07001 8683898
138.35527 -41.216515 103.8702 9012606
137.76064 -41.413971 104.46443 8814711
137.12402 -41.280128 105.15559 8617072
136.43292 -41.131145 105.80341 8617072
145.56151 -40.172367 95.912827 16776175
145.15794 -40.156422 96.400032 16776175
144.48582 -40.13102 97.211037 10524303
143.72746 -40.244503 98.046417 9997959
143.1519 -40.506073 98.582214 9735555
142.48134 -40.484241 99.389229 9210491
141.74934 -40.672195 100.15178 10065543
141.07964 -40.653023 100.95634 12629930
140.41002 -40.635178 101.76 9208954
139.87454 -40.621876 102.40223 8354675
139.20518 -40.606537 103.20421 9012606
138.5359 -40.592468 104.0054 9012606
137.85988 -40.577896 104.80058 8485746
137.09636 -40.539066 105.52734 8617072
136.45422 -40.49963 106.08262 10524555
135.72899 -40.414131 106.72896 10262667
134.9128 -40.198326 107.51272 9407364
134.43321 -40.171227 107.92623 10262415
151.08612 -39.153694 89.930168 9932678
150.54298 -39.125015 90.590538 9669762
149.19193 -39.484116 91.992546 11841188
148.51564 -39.451622 92.812958 10262155
147.83995 -39.420464 93.631958 9735554
147.23561 -39.606228 94.245049 14077631
146.56122 -39.577377 95.060875 10261898
145.88718 -39.549744 95.87532 12959413
145.34828 -39.528687 96.525917 12959412
144.67513 -39.50362 97.337883 9603714
144.00229 -39.479794 98.148743 9077625
143.31662 -39.615196 98.885719 9669762
142.63542 -39.706539 99.642044 9407870
142.05843 -39.629108 100.36937 11841184
141.38707 -39.610359 101.17564 9933189
140.71594 -39.592873 101.98095 8486519
140.17912 -39.579903 102.6245 8092019
139.50826 -39.564896 103.42819 11051674
138.8374 -39.551147 104.23105 11643810
138.16199 -39.537514 105.02953 8157296
137.40875 -39.585854 105.71456 7498850
136.69643 -39.669964 106.2704 6578007
135.89349 -39.622944 106.96365 7170659
135.09187 -39.577255 107.6551 11051674
134.45171 -39.541763 108.20688 9670021
133.72838 -39.46077 108.84959 9603969
132.91357 -39.250462 109.62952 9143419
151.85646 -38.463139 89.237183 10984855
151.41823 -38.527439 89.880707 10261390
150.74101 -38.492714 90.709099 9209467
149.99599 -38.669117 91.49437 9998471
149.45331 -38.642628 92.152954 9341053
148.77565 -38.610752 92.974693 9472126
148.0986 -38.580173 93.795036 9603455
147.51781 -38.494232 94.532059 10393740
146.83163 -38.579685 95.298286 10262154
146.14226 -38.711464 96.042252 9208443
145.53403 -38.645885 96.79998 9472387
144.86115 -38.706192 97.563797 9670019
144.25363 -38.642799 98.319405 9077625
143.5799 -38.620831 99.130325 9538176
142.90648 -38.600067 99.940193 10065031
142.36792 -38.584476 100.5873 13616313
141.69502 -38.566154 101.3952 6971481
140.96098 -38.75803 102.15788 8947327
140.28871 -38.742264 102.96358 9868171
139.61653 -38.727692 103.76849 10394258
137.42253 -38.867546 106.04092 5131076
136.93898 -38.839172 106.45844 4736574
136.13921 -38.635036 107.22289 6381400
135.39085 -38.540749 107.89277 7828590
134.61392 -38.551559 108.53706 9012349
133.72881 -38.662842 109.22452 9406591
133.08942 -38.630299 109.77425 8222060
132.29137 -38.590805 110.45986 6511954
131.55232 -38.346165 111.19265 7959144
131.07446 -38.324024 111.60246 7959144
153.1555 -37.477863 87.700874 9209467
152.63524 -37.645908 88.479401 7762286
152.13322 -37.687927 89.317039 9143424
151.54756 -37.675724 90.203308 8419959
150.86914 -37.641895 91.032867 9209467
150.32458 -37.615154 91.693863 10195594
149.64458 -37.583035 92.518501 8287854
148.96526 -37.552147 93.341713 10589836
148.4223 -37.52837 93.999062 9866370
147.7442 -37.499901 94.819519 9933189
147.00252 -37.682953 95.596992 9209467
146.39735 -37.871979 96.209259 8551542
145.72141 -37.846893 97.025093 8156785
144.98245 -38.032673 97.797134 9735812
144.44238 -38.014378 98.44754 10262156
143.76762 -37.992714 99.259445 9867398
135.4695 -37.701862 108.22168 8618105
134.69801 -37.661442 108.88545 7827821
134.02397 -37.627037 109.46502 8353131
133.38289 -37.595234 110.0158 7038041
132.58279 -37.556751 110.70265 6511954
131.78389 -37.519474 111.38796 8682867
130.99895 -37.603729 112.00443 9472383
130.20456 -37.588993 112.67538 9538176
129.55313 -37.422432 113.29827 11314076
129.07619 -37.402946 113.70609 9932678
154.40532 -36.211559 86.452538 9736835
154.01945 -36.42144 86.968369 10787984
153.46422 -36.577961 87.815544 10393742
152.9156 -36.69006 88.683212 8880762
152.46292 -36.629227 89.509605 8748923
151.81233 -36.8297 90.360123 8748923
151.13362 -36.796776 91.19165 9866629
150.52202 -36.981918 91.813698 9866374
149.84094 -36.950275 92.639336 9274236
149.29662 -36.925804 93.298866 12431013
133.61806 -36.766052 110.2093 6511954
132.79881 -36.559513 110.99114 7367007
132.07368 -36.484665 111.63242 10459278
131.19086 -36.603134 112.31459 9932678
130.41815 -36.622684 112.95129 8486517
129.78038 -36.596508 113.49667 10065803
128.98421 -36.564983 114.17704 10130570
128.2431 -36.453384 114.84904 8813941
127.52496 -36.260658 115.54007 8945527
155.22511 -35.473831 85.566483 9736835
154.71239 -35.575756 86.379471 9867909
154.2863 -35.572857 87.118187 9998986
153.75342 -35.570393 88.041359 8354675
153.23357 -35.639805 88.889977 9144190
152.83379 -35.780994 89.479469 9143424
131.4469 -35.828487 112.46496 8879735
130.7043 -35.588142 113.19867 9407875
130.06496 -35.56263 113.74505 8486775
129.26674 -35.531963 114.4267 9736069
128.46944 -35.502392 115.10702 8550513
127.67322 -35.474209 115.7859 9801348
126.82245 -35.653389 116.41283 8682867
126.24214 -35.426407 117.00475 9867141
125.55491 -35.301003 117.63816 8945527
124.868 -35.176624 118.27088 9208443
156.43445 -34.527653 84.157921 9735812
156.03386 -34.664993 84.751122 9603970
155.51375 -34.730522 85.602943 9999751
154.98045 -34.725864 86.528305 11051416
154.50288 -34.680122 87.386848 9472643
154.05986 -34.933514 87.970238 7302245
130.07599 -34.935265 114.03098 10065803
129.38484 -34.804703 114.67002 9538433
128.69424 -34.67514 115.30817 8682356
127.8964 -34.647495 115.98806 9932934
127.09944 -34.621059 116.66672 9077625
126.46251 -34.600761 117.20871 10261899
125.66712 -34.576515 117.88503 9735043
124.87242 -34.553394 118.56025 9932422
124.15275 -34.492001 119.19073 9669507
123.33881 -34.304718 119.95925 8354163
157.38623 -33.428722 83.306328 8550514
156.81285 -33.677322 84.117455 9077113
156.3221 -33.617725 85.008186 9143419
155.77036 -33.726433 85.882851 9341058
155.2489 -33.874653 86.677315 10261902
154.86118 -34.085365 87.195786 10261902
128.06406 -34.026722 116.13988 10064520
127.32148 -33.793663 116.87022 9077625
126.68446 -33.64867 117.47083 11906724
125.94117 -33.543228 118.14176 10590608
125.14452 -33.520767 118.81829 9142651
124.34875 -33.499477 119.49363 8814200
123.56384 -33.562683 120.12003 7827559
122.86009 -33.669319 120.64989 8616819
122.37702 -33.435944 121.04635 8287854
158.72078 -32.421196 81.727425 10260875
158.11673 -32.625294 82.62365 9866117
157.58142 -32.616749 83.554543 8353135
157.15303 -32.61076 84.298843 9669250
156.64673 -32.647457 85.146957 9275008
125.84135 -32.706333 118.61873 9209467
125.36261 -32.693348 119.02508 8617335
124.61948 -32.465538 119.75349 8617335
123.75824 -32.569214 120.42467 7630437
123.13119 -32.637657 120.91586 8616819
122.28305 -32.541649 121.46348 8879735
121.39426 -32.12479 122.11369 8485238
159.91142 -31.296135 80.481903 9406078
159.43179 -31.487471 81.172432 9997960
158.97009 -31.503315 81.958534 10063496
158.41589 -31.609053 82.8396 8879479
157.91742 -31.633585 83.68293 9602945
157.4388 -31.827606 84.369957 10195596
123.98385 -31.824829 120.58602 7301475
123.32825 -31.670967 121.20647 9011321
122.49804 -31.559671 121.74995 8813944
121.55814 -31.507017 122.27846 8550772
120.88879 -31.400608 122.68303 10063495
161.27199 -30.323492 78.908897 9867398
160.73155 -30.482117 79.701729 9604225
160.22095 -30.513874 80.55648 10261128
159.79196 -30.505379 81.30645 11050391
159.28026 -30.538506 82.158928 9340030
158.62744 -30.697298 83.131592 9142651
122.449 -30.788441 122.09248 10853012
121.78859 -30.560045 122.56924 9208186
120.83809 -30.631931 123.02542 11576473
120.14256 -30.386753 123.50093 8089962
164.19701 -29.181746 75.97818 10196108
163.49118 -29.294836 76.928986 10196108
163.02875 -29.348579 77.591713 9998471
162.43269 -29.536465 78.269058 9537920
161.68982 -29.715508 79.1129 10064776
161.15388 -29.703741 80.055824 9735296
160.58681 -29.898035 80.739967 9998211
160.26527 -29.891933 81.304359 11379356
121.10416 -29.876753 123.4156 9536894
120.30036 -29.678825 124.0216 6774102
119.56851 -29.566475 124.52864 8089962
118.93077 -29.249258 125.23665 8616562
118.12339 -29.126945 125.89525 9209467
117.41996 -29.103306 126.35917 9209467
177.80635 -28.443565 61.375599 6117202
177.30357 -28.575312 62.318428 8288371
176.71474 -28.836779 62.908615 9538435
176.40907 -28.835154 63.757896 11183260
171.57251 -28.832195 67.905479 9406852
171.24254 -28.830669 68.729836 8090479
170.82431 -28.828779 69.758064 9143423
166.80206 -28.913523 73.081535 9603714
166.42096 -28.907612 73.870834 10459278
165.90419 -28.89423 74.839172 10130313
165.38589 -28.881519 75.805931 10327694
117.69642 -28.804815 127.2715 9801347
116.98899 -28.782084 127.7347 9209467
116.31081 -28.766886 128.22841 10656657
115.53572 -28.766333 128.92496 10985622
114.75665 -28.765797 129.6171 9143675
113.97321 -28.76528 130.30431 9867141
113.18587 -28.764778 130.98703 10261899
112.71154 -28.764488 131.39433 13551549
105.54032 -28.752676 140.58192 9537667
105.03123 -28.752506 140.96143 10853012
104.16208 -28.5245 141.56552 9669249
103.20497 -28.496584 142.04805 8813939
102.67635 -28.270082 142.39926 10129798
178.39938 -27.692492 60.460457 4340793
178.03793 -27.767031 61.454636 5985361
177.67632 -27.842306 62.448399 7038307
104.07342 -27.744545 141.92226 9603711
103.38564 -27.654459 142.2971 9735297
102.5139 -27.588282 142.75296 9143418
179.11769 -26.299604 59.902294 4735293
178.67558 -26.694271 60.772575 5459016
178.27341 -26.938763 61.694775 6248532
103.48756 -26.87929 142.55809 9603711
102.68925 -26.628159 143.05199 8814453
101.85178 -26.412508 143.55096 10196107
101.20861 -26.114176 143.98741 10064521
179.75272 -25.432829 58.993443 6313808
179.39009 -25.506346 59.992302 6511187
179.0273 -25.580593 60.990643 5524549
102.83193 -25.729044 143.34259 10129798
102.10871 -25.498804 143.7912 10064521
101.1496 -25.476194 144.27255 10524817
100.61874 -25.251898 144.62407 10261382
180.35823 -24.374702 58.390629 5919050
179.99104 -24.599781 59.230511 9340287
179.62787 -24.673525 60.230824 8089963
102.01598 -24.716682 144.15083 10261647
101.32637 -24.630112 144.52515 11050906
100.45245 -24.568554 144.98024 10656398
180.9614 -23.466581 57.624058 6511954
180.59358 -23.691706 58.465874 7959145
180.23186 -23.688862 59.548908 14276046
101.42458 -23.851595 144.78931 11313821
100.7784 -23.553736 145.22707 10985107
99.87674 -23.482315 145.69974 9603194
99.13678 -23.095493 146.21936 10261382
181.24237 -22.736624 57.61652 7367007
180.8632 -22.82464 58.648155 9998213
180.53952 -23.005247 59.408722 15194062
100.76197 -22.700352 145.57776 10261382
100.03594 -22.472879 146.02666 9537401
99.074417 -22.455109 146.50717 8814193
98.541138 -22.232515 146.85913 8420208
182.33141 -21.186893 56.130253 15197142
181.92784 -21.510609 56.966251 10459534
181.52827 -21.70331 57.939629 8353901
181.14417 -22.093517 58.641861 10064006
99.974396 -21.831068 146.31479 8486262
99.371788 -21.563824 146.71878 9012091
98.477852 -21.591225 147.14778 10984591
97.943848 -21.36903 147.49995 11379348
182.56989 -20.498093 56.202564 13223096
182.20633 -20.493635 57.292797 9867397
181.90887 -20.721045 57.921906 7038307
99.34227 -20.82177 147.03148 9406334
98.693054 -20.525608 147.47006 9932163
97.788643 -20.45808 147.94238 9801091
97.044731 -20.072807 148.46338 10855060
183.21964 -19.466545 55.437328 16248807
182.84337 -19.623497 56.381908 12301482
182.51756 -19.804628 57.148464 8090987
98.672516 -19.668156 147.82471 8485235
98.01207 -19.486683 148.22272 9274748
97.103348 -19.388102 148.70961 9012604
96.443237 -19.207827 149.10699 9538947
183.76955 -18.585541 54.799023 10458511
183.45445 -18.704834 55.603718 12300971
183.1326 -18.731583 56.53405 9143163
98.071823 -18.800468 148.46907 9406078
97.341812 -18.575687 148.91873 8880246
96.37674 -18.56324 149.39871 9735812
95.839943 -18.342049 149.7518 9735812
184.41245 -17.509848 54.104546 8683899
184.06741 -17.784029 54.822418 11314334
183.74506 -17.810478 55.754742 11182234
97.239883 -17.785673 149.28632 9143675
96.587395 -17.490515 149.7261 8946296
95.731613 -17.480728 150.15129 8749433
95.125038 -17.043718 150.62544 8092019
184.69702 -16.766479 54.04216 9078656
184.36174 -16.809484 55.053555 9933707
96.562622 -16.62796 150.0849 8617331
96.023834 -16.406218 150.43918 9670277
95.056351 -16.396322 150.91939 11380639
94.324158 -16.173536 151.36932 11380639
185.58205 -15.18022 52.750866 9932675
185.27051 -15.648195 53.386589 9933449
184.98891 -15.884486 54.271313 9933707
184.677 -16.1133 54.904827 9341571
95.955978 -15.757373 150.73331 11380639
95.314644 -15.581341 151.16867 12630447
94.413673 -15.488397 151.67615 10919829
93.580399 -15.312035 152.211 9208955
186.35728 -14.262299 52.002186 7039331
186.10591 -14.496271 52.657261 7368039
185.84706 -14.730162 53.309582 7039331
94.713394 -14.900264 151.99551 10064520
93.960892 -14.640969 152.58362 10590352
93.052498 -14.676313 153.00056 10261387
92.544342 -14.264839 153.83064 8682867
91.762634 -14.063763 154.63269 9340541
90.795868 -14.058795 155.12445 9997959
187.74742 -13.367034 50.447159 8682867
187.58353 -13.608058 51.130341 8682867
187.4267 -13.850168 51.815559 8287859
89.369888 -13.73437 157.88345 8682867
88.416595 -13.734479 158.41742 9735555
87.460495 -13.734606 158.946 11380380
86.885147 -13.734691 159.26047 9538432
79.008362 -13.48627 168.89433 10327176
78.152542 -13.457951 169.32687 9998211
77.288483 -13.301912 169.81488 10261132
188.01311 -12.65741 50.274986 9735297
187.93605 -12.745784 51.144157 8551027
78.988586 -12.732301 169.20718 10064003
78.416916 -12.506865 169.57913 10129799
77.480537 -12.554369 170.02089 9997960
76.61441 -12.398039 170.50999 9077116
189.40314 -11.511155 48.940544 11576985
188.82567 -11.809733 49.600166 10327176
188.51448 -11.96429 50.408501 9998212
78.317184 -11.826397 169.90173 10261132
77.744049 -11.600387 170.27466 9931910
76.73143 -11.602941 170.77202 8945532
75.921028 -11.605253 171.16989 7564651
190.47551 -11.063854 47.266769 9932163
190.31203 -11.065685 48.199776 10655884
77.643188 -10.917894 170.59866 10260617
77.068542 -10.691283 170.9726 9668995
76.053757 -10.693937 171.47092 8222323
75.274513 -10.468116 171.94519 8617080
76.966507 -10.006689 171.298 10260617
76.369614 -9.6420364 171.73833 10129546
75.406342 -9.5530243 172.24823 8814459
74.499657 -9.2503033 172.81612 8420211
75.696548 -8.4819107 172.536 11445399
74.755539 -8.407753 173.0289 9932677
73.81366 -8.3337936 173.52213 10064520
75.012268 -7.5628653 173.24243 9340544
74.069 -7.4884071 173.73651 7564643
73.124802 -7.4141154 174.23094 7893608
74.325089 -6.6406503 173.95163 8617331
73.37957 -6.5658588 174.44693 8222316
72.433052 -6.4912009 174.94264 9537918
73.714417 -5.6375504 174.65581 8090987
72.687225 -5.639925 175.16014 8946038
71.738342 -5.5648179 175.65721 11379348
73.60643 -4.9402452 174.98946 7564643
73.021553 -4.7083564 175.37053 9538434
72.0056 -4.6104264 175.90979 10985364
71.246361 -4.128459 176.47723 10195335
72.912354 -4.0084224 175.70592 10787985
72.357697 -3.541369 176.16679 9143934
71.433197 -3.3556361 176.69635 9077370
70.545364 -3.1930351 177.19855 9142393
71.610893 -2.4474521 176.97437 7893355
70.731628 -2.4172692 177.4191 9537150
69.841309 -2.2537336 177.92288 9471613
70.908447 -1.5056556 177.69897 9208435
70.026917 -1.4750198 178.14493 9274230
69.13414 -1.3104537 178.65038 9670529
70.251465 -0.7178815 178.33914 9537657
69.474823 -0.48105708 178.89206 10986132
68.641029 -0.48151845 179.30138 9605249
67.860367 -0.2444247 179.8544 8616563
69.444489 0.23260319 179.4567 10986132
68.781471 0.39177305 179.88765 12761773
68.031128 0.47144103 180.30945 10525071
67.280273 0.55114746 180.73366 9340541
66.615311 0.71069431 181.17001 8616563
66.184418 1.1993008 182.71675 8485494
65.133141 1.1999905 183.25513 7563619
64.501564 1.2004441 183.57855 7367263
141.08359 -38.340134 102.24647 8092019
140.41068 -38.324528 103.05289 11052187
139.73792 -38.310146 103.85841 10394258
139.1393 -38.508316 104.45699 11511710
138.46455 -38.495552 105.25891 8353646
137.78012 -38.394753 105.96445 4868160
137.12106 -38.215424 106.59963 5131076
136.63725 -38.187878 107.01701 7564389
147.13075 -37.262405 95.680084 9208703
146.58882 -37.241615 96.334564 8090737
145.91194 -37.216923 97.151405 8485750
145.17213 -37.403275 97.924583 9143677
144.63133 -37.385239 98.575798 9933191
143.95563 -37.363888 99.388748 9406333
143.21788 -37.553234 100.15718 9340284
142.59232 -37.482914 100.93806 9208187
141.90877 -37.577957 101.69514 6905688
141.33157 -37.587811 102.37379 11840675
140.59387 -37.697365 103.18687 11052187
139.92014 -37.683167 103.99341 8683641
139.38123 -37.672741 104.63806 8682355
138.70699 -37.660702 105.44267 9208699
137.95036 -37.627712 106.18289 6840922
137.21854 -37.543816 106.83401 6577751
136.41948 -37.584198 107.48292 7959661
135.7639 -37.436222 108.10046 8223092
135.10634 -37.26115 108.73246 7564651
152.01123 -36.194443 90.477859 9472644
151.3322 -36.162197 91.310936 9998215
150.71974 -36.347908 91.933708 9668995
150.07906 -36.361412 92.686203 9668995
149.20213 -36.636581 93.572624 12431013
148.68169 -36.685585 94.162621 11313046
148.0022 -36.657677 94.984383 9208699
147.32326 -36.630989 95.804741 9997961
146.78052 -36.61055 96.459999 7564651
146.10258 -36.586182 97.277855 9077885
145.42509 -36.563015 98.094551 9735812
144.74803 -36.541111 98.90995 9604227
144.07111 -36.520386 99.72406 8747632
143.52983 -36.5047 100.3745 8616046
142.85336 -36.486282 101.18655 7694947
142.17723 -36.469044 101.99769 6839895
141.5726 -36.581215 102.6516 7104096
140.8996 -36.650661 103.41051 8683125
140.22429 -36.636772 104.21876 7696233
139.64348 -36.565773 104.94695 7367265
138.97447 -36.734676 105.64542 9340285
138.25636 -36.584435 106.41782 8485233
137.44571 -36.539742 107.11646 9011577
136.6447 -36.581326 107.76638 9143419
135.93022 -36.670712 108.32151 7564651
135.12425 -36.62952 109.01455 7564651
134.31956 -36.589542 109.70593 6775128
133.73567 -36.350986 110.30615 6511954
133.25397 -36.328335 110.71942 6511954
153.17969 -35.356487 89.187202 9736070
152.65694 -35.52644 89.968498 9341057
152.07903 -35.552994 90.76564 10262156
151.53102 -35.526836 91.430283 10130313
150.84688 -35.49535 92.25959 9603202
150.09682 -35.590656 93.096107 8945272
149.55193 -35.652966 93.707634 10918289
148.92046 -35.57338 94.501289 10589322
148.2289 -35.660389 95.273048 9997187
147.64461 -35.577061 96.01281 9866632
146.96454 -35.552357 96.833382 7893615
146.28502 -35.528778 97.652763 9341055
145.74355 -35.595947 98.257523 9735555
144.99995 -35.700066 99.081436 9998727
144.32195 -35.67979 99.897072 8879475
143.77972 -35.664486 100.54862 8616046
143.1438 -35.689816 101.28821 8878707
142.36272 -35.839516 102.13029 7234397
141.82123 -35.826836 102.77927 6511962
141.27979 -35.814953 103.4277 8090989
137.52676 -35.696152 107.44543 8617331
136.79726 -35.657978 108.0732 9406847
136.23065 -35.62907 108.56034 11775652
135.42255 -35.588951 109.25464 8288630
134.61578 -35.549973 109.94733 8616564
133.97137 -35.519764 110.50013 9734270
133.17966 -35.60397 111.12227 9273976
132.30594 -35.655441 111.82837 8418927
131.56229 -35.41391 112.56348 9340286
153.89955 -34.64912 88.452286 7039073
153.48557 -34.719109 89.117569 8091760
152.95096 -34.71899 90.041946 9801093
152.34563 -34.704136 90.923973 10262156
151.79651 -34.678574 91.589699 9867141
151.11087 -34.647747 92.42028 9669251
150.42603 -34.61805 93.249344 8418928
149.87874 -34.595222 93.911446 9142393
149.19521 -34.56776 94.737625 9536635
148.44762 -34.752934 95.520958 9734014
147.90204 -34.732689 96.179527 9735046
147.35684 -34.713188 96.837196 7564651
145.73259 -35.085251 98.55619 9406590
145.32497 -35.072609 99.046768 9406590
135.66156 -34.75518 109.44702 9867660
134.83882 -34.575615 110.2192 8353906
134.18138 -34.43322 110.83566 10457478
133.30946 -34.647625 111.46361 9668218
132.59679 -34.616989 112.07367 8287341
131.79337 -34.583698 112.76088 8748149
130.9911 -34.551533 113.44656 9802119
130.40491 -34.445007 113.98661 8815739
129.76651 -34.295429 114.59052 9407875
155.45058 -33.235382 86.789246 10261902
154.7713 -33.604782 87.697334 8748923
154.24623 -33.655872 88.568275 8486261
153.7542 -33.601528 89.458168 9866630
153.20224 -33.796764 90.271736 10261131
152.63626 -33.927006 91.013687 9867398
151.9959 -34.041538 91.709373 9735555
151.30916 -34.011242 92.54097 9537665
133.95903 -33.832668 111.30402 8681835
133.47478 -33.811924 111.71848 9536888
132.88815 -33.576725 112.31945 9011060
132.0827 -33.544315 113.0079 8484721
131.27835 -33.513023 113.6949 7827561
130.63577 -33.488888 114.24337 8354421
129.76344 -33.547104 114.94511 9538181
128.97586 -33.639233 115.56006 10590865
128.23198 -33.405148 116.29192 9867142
127.48824 -33.172333 117.02307 8682867
127.0088 -33.157604 117.43076 11906724
156.47093 -32.388378 85.637489 9012350
156.0816 -32.598835 86.158188 8749435
155.54553 -32.594578 87.087257 10590866
155.00926 -32.591362 88.016068 9143680
154.58022 -32.589611 88.759033 9012093
154.08427 -32.802124 89.463318 9471615
132.09532 -32.913414 113.29414 8550769
131.43571 -32.748112 113.92322 7761509
130.86473 -32.657082 114.44322 8617337
130.06082 -32.628651 115.1285 10261903
129.25795 -32.601318 115.81242 11183003
128.45615 -32.575211 116.49493 10459278
127.6552 -32.550167 117.17615 8682867
127.01512 -32.53096 117.72021 10393485
126.29067 -32.468372 118.35513 10722450
125.47179 -32.27903 119.12864 9670021
157.9529 -31.117994 83.993591 9340286
157.36058 -31.396931 84.815544 9603716
156.84975 -31.534275 85.598839 9932681
156.35234 -31.744118 86.306801 8092019
155.81532 -31.739956 87.23745 9143936
155.29146 -31.808195 88.093185 9143936
154.88838 -31.949175 88.687759 9143936
130.23158 -32.004414 115.27942 11906725
129.48409 -31.769417 116.01473 10656660
128.68265 -31.586597 116.77063 11183002
127.93398 -31.511477 117.4317 10393230
127.29233 -31.492847 117.97676 10656913
126.43597 -31.678345 118.60536 9933190
125.63577 -31.656933 119.28416 10262156
124.83644 -31.636757 119.96178 7893614
124.0917 -31.410358 120.6908 7630184
123.61262 -31.399481 121.09643 9011321
159.1319 -30.28159 82.664787 9142651
158.81032 -30.276695 83.227165 9668995
158.24338 -30.437906 84.049812 10063753
157.69077 -30.515402 84.927574 9340286
157.21472 -30.468008 85.796989 9669766
156.64133 -30.746367 86.547264 9472131
156.01796 -31.09803 87.350266 8815228
127.99663 -30.6745 117.77305 12433069
127.5145 -30.660913 118.18239 13552061
126.66755 -30.692343 118.89409 9472639
125.92402 -30.621782 119.55753 9143676
125.12426 -30.602558 120.2381 7564649
124.32502 -30.584328 120.91759 8024939
123.68613 -30.570498 121.46037 7695204
122.97037 -30.403553 122.02366 9602945
122.20672 -30.090906 122.6356 11576473
162.53409 -29.147095 79.042175 9735299
162.22035 -29.14151 79.614746 9735299
161.80116 -29.134319 80.377525 9472381
161.11064 -29.272434 81.149376 10129796
160.33751 -29.493624 81.965683 9405822
159.65166 -29.676033 82.690865 7827049
159.18477 -29.627983 83.569664 8748408
158.61595 -29.76355 84.345177 9537665
158.00995 -29.858496 85.2463 8419696
124.68233 -29.785931 121.26529 8682867
124.04366 -29.772942 121.81174 8681843
123.1841 -29.580282 122.55029 9668738
122.34702 -29.498579 123.07247 9405308
121.56255 -29.360567 123.61506 8681843
120.77918 -29.223507 124.15619 8681843
177.15895 -28.444643 63.307076 7630443
176.66266 -28.543552 64.330627 10920087
176.08415 -28.736776 65.081367 11972261
175.54655 -28.830748 66.085548 10656657
170.40031 -28.826902 70.783829 9143681
169.96983 -28.825043 71.806908 9537921
169.62146 -28.823563 72.623711 8814457
164.96999 -28.87195 76.578178 9932937
164.44878 -28.860552 77.541862 7498857
163.92601 -28.849792 78.504066 8089963
163.50641 -28.841789 79.272881 9735558
121.23667 -28.92589 124.92867 9078140
120.52819 -28.900738 125.40085 9012350
119.6429 -28.86998 125.98846 10919319
118.75797 -28.839899 126.57347 9209467
118.22717 -28.822233 126.92294 10459019
110.22398 -28.754602 136.95114 9537409
109.72798 -28.75437 137.34753 9537406
109.06451 -28.75407 137.87352 6643539
108.23152 -28.753708 138.5262 6643542
107.39481 -28.753365 139.17427 8616823
106.76868 -28.613136 139.95895 8288115
106.06569 -28.467564 140.57584 7630187
105.16684 -28.342657 141.14374 9341315
177.683 -27.541574 62.770779 8288371
177.31763 -27.76832 63.603455 7827821
176.95535 -27.845428 64.597191 12563881
106.99197 -27.974388 140.39281 9011576
106.25449 -27.578779 140.91476 8683641
105.35143 -27.498409 141.39172 9341315
104.6391 -27.392673 141.78496 9275264
178.43182 -26.335403 61.909027 6248532
178.02916 -26.580736 62.831596 6906721
177.6274 -26.789141 63.793694 7630436
106.11491 -26.669451 141.34854 9341315
105.58257 -26.440924 141.70239 8092019
104.58874 -26.554979 142.14603 9932935
103.87231 -26.287529 142.60616 10129798
179.03464 -25.277828 61.313526 5392706
178.71233 -25.459017 62.069477 5656136
178.3399 -25.618013 63.000225 6774618
105.52831 -25.799759 141.98648 8092019
104.99547 -25.571983 142.34029 11905701
104.03159 -25.546684 142.8251 10590348
103.14835 -25.453285 143.29747 9143161
179.63548 -24.36989 60.553776 8089963
179.31262 -24.550917 61.311333 6971738
178.9341 -24.641352 62.33844 5787722
104.94042 -24.930271 142.62509 11906725
104.1999 -24.537828 143.14728 8881019
103.31542 -24.548254 143.57855 8749432
102.55867 -24.587301 143.9355 10261647
179.94228 -23.687225 60.415188 8089963
179.58002 -23.685915 61.498062 7629412
179.21214 -23.913261 62.337509 5392706
103.55563 -23.543245 143.86401 7565416
102.6086 -23.653942 144.28571 8814972
101.87085 -23.320848 144.7827 11248028
180.54759 -22.700109 59.732132 8683125
180.18295 -22.774483 60.736073 8550514
179.81442 -23.001823 61.577332 8089963
103.46408 -22.756746 144.22513 6512986
102.92912 -22.531052 144.57915 7039331
101.96318 -22.510876 145.06268 9669767
101.07764 -22.421785 145.53435 10261388
181.23357 -21.481838 59.071712 10064006
180.82828 -21.68951 60.044991 7630180
180.49686 -21.859861 60.840565 8089963
102.87083 -21.887161 144.86656 7039331
102.14191 -21.658089 145.31737 9735812
101.17559 -21.63942 145.80058 10722450
100.48252 -21.55517 146.17548 8486262
181.9176 -20.413805 58.245712 8024942
181.55156 -20.487501 59.25449 9208954
181.18138 -20.715199 60.100311 7564643
102.27615 -21.017271 145.50885 10064521
101.53132 -20.627586 146.03203 9275263
100.62348 -20.557749 146.50693 7236710
99.815323 -20.401087 146.9677 8946555
182.52652 -19.496389 57.472485 11315613
182.15991 -19.569818 58.48328 8617593
181.86836 -19.567348 59.356636 9340799
101.38112 -19.711637 146.474 7039331
100.84389 -19.487494 146.82848 9209727
99.944427 -19.515947 147.25981 9932935
99.123817 -19.352869 147.72928 9537663
183.14186 -18.42251 56.858524 7037274
182.77003 -18.650167 57.709141 8880764
182.40279 -18.72389 58.721458 7038307
100.78242 -18.840649 147.1187 11380380
100.24458 -18.616831 147.47334 10985623
99.275673 -18.602472 147.95607 10063751
98.38681 -18.518137 148.42744 8880246
183.75452 -17.500504 56.079319 9734788
183.3819 -17.728506 56.932007 7892583
183.01396 -17.802006 57.9464 7037792
100.18211 -17.969061 147.76437 11314844
99.433723 -17.580677 148.28882 10064264
98.523277 -17.514545 148.76357 8682867
97.804108 -17.419109 149.1559 8617331
97.252571 -17.067497 149.5687 8617331
183.99554 -16.804636 56.151855 9274236
183.6291 -16.800329 57.249756 9866885
183.32915 -17.030127 57.883331 7037274
98.847038 -16.481754 149.01918 9077369
97.962326 -16.427797 149.47632 8682867
97.078506 -16.374506 149.9328 8814710
185.30293 -15.195639 54.604893 8881277
184.76122 -15.572836 55.494228 9077371
184.35646 -15.799617 56.34148 9208955
183.94325 -16.104017 57.103985 9537920
98.674362 -15.786741 149.38345 9406078
98.072777 -15.637836 149.77672 9209213
97.253448 -15.600602 150.20343 8814712
96.448952 -15.443634 150.7056 8486261
186.04364 -14.467251 53.947845 9932675
185.69164 -14.588189 54.880688 9340542
185.30803 -14.734822 55.576477 8089963
97.430801 -14.924919 150.6376 8617592
96.644928 -14.748315 151.17352 8617847
95.768372 -14.698118 151.64693 10261899
95.257072 -14.283613 152.46028 9472383
94.664001 -14.080936 153.14865 9208955
93.696762 -14.074809 153.64478 10458766
187.66689 -13.38415 51.881409 8287859
187.50417 -13.626019 52.566181 9603459
187.33669 -13.868098 53.249752 9932675
92.021423 -13.734166 156.35732 9340027
91.26651 -13.73421 156.79794 9735043
90.319672 -13.734281 157.34329 8814453
81.83017 -13.482741 167.50699 10392458
81.103073 -13.407948 167.89488 11049873
80.095222 -13.40919 168.39047 9734782
79.323326 -13.184352 168.8607 10064003
187.9565 -12.595525 51.798019 7827565
187.85553 -12.762259 52.582157 9142910
81.165428 -12.578205 168.19777 10261129
80.436874 -12.503444 168.58641 9997958
79.514725 -12.459466 169.05791 9866627
189.1817 -11.516359 50.343147 9932419
188.8855 -11.632561 51.23909 10130059
188.3694 -11.975182 51.829926 7630187
80.498169 -11.671301 168.89072 9340022
79.639778 -11.642188 169.32487 9603713
78.773415 -11.484559 169.81462 10064009
190.08641 -11.070051 49.605728 9472125
189.93852 -11.073343 50.544769 9538176
