# .PCD v0.7 - Point Cloud Data file format
VERSION 0.7
FIELDS x y z rgb
SIZE 4 4 4 4
TYPE F F F U
COUNT 1 1 1 1
WIDTH 1214
HEIGHT 1
VIEWPOINT 0 0 0 1 0 0 0
POINTS 1214
DATA ascii
134.10684 -75.034119 33.433159 5920074
133.94478 -75.081314 34.420628 6972505
133.85214 -75.04911 35.342098 9143679
133.7576 -75.019173 36.264854 9143934
131.89166 -75.118172 45.661491 7037274
131.67232 -75.120239 46.295765 7695204
131.40985 -74.999886 47.342892 8287854
131.12167 -74.97596 48.238705 7762026
130.89902 -74.829124 49.232037 8945787
130.56169 -74.842659 50.183102 8616307
130.22224 -74.859016 51.133846 8089963
130.05551 -74.741829 52.082424 9142650
129.85994 -74.617065 53.046139 9537408
129.66458 -74.493866 54.000847 9537408
129.37581 -74.487854 54.869385 10063496
129.16852 -74.40686 55.811512 10590353
128.85194 -74.420296 56.596554 10260875
139.62132 -73.494217 2.1499481 11380380
139.74609 -73.640625 2.9358006 9275004
139.69734 -73.847839 3.9416523 9669762
139.38708 -74.030006 4.8527126 10195336
139.14212 -74.033607 5.9309635 8748660
139.09161 -74.031998 6.9326954 9011832
139.03391 -74.030403 7.934062 9472640
138.75743 -74.029022 9.003767 9603714
138.48546 -74.027908 9.904211 12169896
137.99516 -74.027031 10.866974 9537665
137.90904 -74.02549 11.86029 9208435
137.81578 -74.023964 12.853009 10458246
137.71536 -74.022453 13.844997 13023917
137.60779 -74.020927 14.836218 7038298
137.49301 -74.01944 15.826628 7959656
137.37106 -74.01796 16.81624 10394253
136.83698 -74.017189 17.750551 12368044
136.70164 -74.015999 18.735395 9670017
136.58331 -74.027794 19.7229 8815479
136.41147 -74.052963 20.63518 7827565
136.04596 -74.119484 21.65012 9011838
135.96007 -74.160347 22.642447 7695980
135.86958 -74.202721 23.635231 9603458
135.77466 -74.246689 24.628437 9997701
135.69223 -74.284462 25.456408 10655886
129.96753 -74.227219 55.234295 8550513
129.65263 -74.239738 56.02322 10787988
129.26497 -74.252609 56.965965 9537152
129.062 -74.152809 57.993099 8089964
128.6799 -74.116386 58.866291 7235428
128.53929 -74.010628 60.003994 7893611
128.43509 -73.979378 60.786095 7893607
128.28867 -73.955971 61.779434 8156267
127.83522 -73.955101 62.701328 8682356
127.86909 -73.953217 63.792866 8814453
127.67732 -73.951591 64.930855 9011579
127.20119 -73.950768 65.848251 10392718
127.34042 -73.948898 66.832603 9932424
127.16134 -73.947563 67.783836 10722451
126.6646 -73.946777 68.697502 11314071
126.78738 -73.944916 69.691391 9208954
126.58981 -73.943611 70.645317 9735297
126.07237 -73.942856 71.554741 9735297
126.1785 -73.94101 72.558006 8682867
125.96219 -73.939728 73.514359 10590608
125.57137 -73.938477 74.610405 10195593
125.68238 -73.843689 75.809334 7300445
125.13666 -73.671654 76.598686 8287085
124.67389 -73.45565 77.261009 10063750
139.77049 -72.54483 1.2563955 10262414
139.8297 -72.798233 1.9291536 9736071
140.04973 -72.827904 2.9420891 9275004
140.07848 -73.164001 3.6162701 8682867
125.91782 -73.188194 75.952362 7563615
125.54367 -72.803558 76.604698 8813684
124.95375 -72.645958 77.383492 9932165
124.57825 -72.265602 78.035019 9734788
139.91837 -71.529396 0.24898732 10261382
140.00392 -71.737869 0.9640981 9998211
140.17111 -71.882988 1.9337407 9472126
140.23058 -72.136963 2.6086082 9274749
125.59913 -71.971107 77.002678 9734788
125.2067 -71.735962 77.593285 9932423
124.64201 -71.682655 78.284538 10590609
140.06322 -70.520683 -0.7604388 10261382
140.09601 -70.845276 -0.087295413 10064260
140.35722 -70.792969 0.97254956 9472382
140.44647 -71.006645 1.7122918 9143419
125.38599 -71.006683 77.788872 10458767
124.87983 -70.68531 78.560646 10590353
124.37227 -70.41864 79.303658 9734788
140.29327 -69.720276 -1.0567416 10524300
140.49956 -69.835289 0.035188794 9932675
140.54628 -70.186478 0.81281674 9735296
125.22956 -69.777359 78.655937 9734788
124.58877 -69.749214 79.42234 8814197
124.26605 -69.498962 79.939552 9538176
140.408 -68.833321 -1.9996337 10524299
140.69173 -68.766083 -0.86533153 9866884
140.80093 -69.018303 0.024646878 9538177
125.29191 -69.196472 78.906151 8682867
124.91064 -68.822189 79.560951 8748660
124.31373 -68.675621 80.341698 9472129
123.93111 -68.305389 80.995979 7038307
140.67738 -67.573723 -2.724947 12234659
140.78374 -67.916473 -1.8470706 9010806
140.95863 -67.953629 -1.0197543 8090987
125.07387 -67.878235 79.895393 10459278
124.56054 -67.771919 80.555428 10130313
124.04723 -67.66748 81.214684 7564648
140.75453 -66.598206 -3.4714394 7563619
140.94144 -66.773903 -2.8354092 10195082
141.14635 -66.910454 -1.8974665 7629668
124.76339 -67.10836 80.687477 10853780
124.27808 -66.780548 81.437965 10195594
123.85868 -66.491997 82.089645 12563882
140.80321 -65.366936 -4.4892406 10656398
140.94368 -65.791374 -3.7728252 9274237
141.25307 -65.907822 -2.9174805 8747893
124.62338 -65.773796 81.59446 10919318
124.064 -65.653214 82.316299 10853778
123.59043 -65.572571 82.915421 10985364
140.99365 -64.755119 -4.608427 10656398
141.29648 -64.795547 -3.8674088 10260875
141.43791 -65.220535 -3.1482334 8616307
124.27845 -64.737556 82.575157 10525071
123.67042 -64.752167 83.278709 10064520
141.05531 -63.610794 -5.5161018 8418928
141.23483 -63.889439 -4.8429317 9406078
141.5717 -63.889805 -4.0596867 9932416
124.39217 -64.084259 82.805855 9998984
124.04496 -63.676575 83.439186 10196363
123.46735 -63.512573 84.206612 10854037
141.29451 -62.748333 -5.752224 8550514
141.61784 -62.859283 -4.898901 9668992
124.2717 -62.793526 83.665558 11248795
123.75092 -62.697727 84.328445 11182746
123.2299 -62.603592 84.990639 9538174
141.35097 -61.614174 -6.6627598 8287598
141.55325 -61.911926 -5.9191093 8353135
141.80241 -62.059746 -5.2041607 8813686
123.9904 -61.800739 84.547554 11445148
123.38086 -61.670483 85.333542 9537401
122.98592 -61.314709 85.993843 9734782
141.55064 -60.482784 -7.6951027 7958376
141.66223 -60.787682 -6.9046497 8089963
141.90613 -61.011986 -6.0052929 7958377
124.02724 -60.988281 84.956841 9208435
123.71905 -60.734573 85.550636 9274228
123.22421 -60.555023 86.309296 9471609
122.90214 -60.236362 87.043564 10129540
142.0954 -59.389004 -9.6637535 6840663
142.0136 -59.602676 -8.6885452 8221549
142.0432 -59.835247 -7.8632164 8418928
142.08826 -60.146297 -7.0958099 8156012
123.601 -59.813583 86.723923 9208435
123.16562 -59.676285 87.455269 9406334
122.92695 -59.404701 88.270119 10458510
122.45518 -59.294662 89.189583 9735043
144.53775 -58.692108 -21.560493 10459278
144.38885 -59.033306 -20.673809 11051415
144.36435 -59.068729 -19.611351 10393485
144.47638 -59.067104 -18.744545 9472383
143.56361 -59.066807 -17.75489 8222317
143.68378 -59.064888 -16.720413 9340027
143.79655 -59.062977 -15.685137 7958629
142.87575 -59.062744 -14.721724 9274233
142.95798 -59.061172 -13.863937 7366495
143.05016 -59.059303 -12.833954 5392706
142.69333 -59.082001 -11.769171 7629412
142.45215 -59.155674 -10.717718 6906201
142.40749 -59.253487 -10.026825 6511954
123.06176 -59.101948 89.408127 7564643
122.46209 -59.050999 90.377213 8222061
122.37293 -58.915009 91.411377 9932422
121.81741 -58.914616 92.14402 10392461
122.26834 -58.911785 93.420593 9931910
121.7003 -58.911411 94.152306 8747631
121.57878 -58.909763 95.237785 8090736
121.44916 -58.908134 96.323959 7367271
120.86399 -58.907791 97.050972 9143166
121.29401 -58.904926 98.367439 9538176
120.69633 -58.904606 99.093208 8946039
120.69272 -58.640831 100.15272 11576729
120.19843 -58.436211 100.80637 10129798
144.53889 -57.798492 -22.397856 13156275
144.89169 -57.966999 -21.526628 9603969
120.87622 -57.959671 100.47052 11576729
120.36777 -57.656158 101.03185 7236710
144.58296 -56.598591 -23.307287 8946039
144.83488 -56.922581 -22.515404 10130314
145.06026 -57.176128 -21.837137 8880762
120.66852 -56.81041 101.1798 9275520
120.02689 -56.574696 101.81916 8683641
144.84193 -55.7421 -23.485382 9275004
145.14706 -55.945705 -22.683619 8223089
120.74773 -55.76886 101.60191 11380380
120.16412 -55.727142 102.10274 9407106
119.63467 -55.492519 102.64907 9537918
144.8152 -54.690701 -24.417669 9275004
145.12175 -54.923676 -23.588509 9275004
120.44705 -54.889771 102.26141 10196622
119.88039 -54.606236 102.86134 9473155
145.13083 -53.77113 -24.530945 8944757
145.33487 -54.155296 -23.788002 9208955
120.65051 -53.980717 102.51906 13551549
120.11846 -53.747379 103.06702 10986393
119.5328 -53.709026 103.5679 8815220
145.11177 -52.831955 -25.35379 10195079
145.4868 -52.886173 -24.531906 8221292
120.21783 -53.02961 103.32108 10460051
119.72616 -52.647423 103.90539 8618100
145.14499 -51.649193 -26.271528 8287856
145.40323 -51.960426 -25.477112 10129286
145.70099 -52.022564 -24.80858 7563619
119.99807 -51.805115 104.07543 11380122
119.39923 -51.663532 104.63554 9077369
145.39189 -50.747757 -26.51202 9735811
145.71021 -50.988705 -25.651829 9866885
120.06738 -51.046471 104.37339 11708316
119.57285 -50.666653 104.95896 7432289
145.36247 -49.76189 -27.395107 10656658
145.76254 -49.854389 -26.489548 10722451
119.86654 -49.667446 105.18454 7103325
119.2737 -49.75227 105.63367 8551025
145.50761 -48.512127 -28.207962 9209212
145.6936 -48.926189 -27.4095 10327693
145.95621 -49.167744 -26.661196 10985623
119.98223 -48.806614 105.4922 9010808
119.39037 -48.774139 105.99532 8879479
118.90405 -48.354683 106.59263 9931910
145.61516 -47.395176 -29.137337 7037274
145.7408 -47.740139 -28.389801 8156011
146.05908 -47.894341 -27.510168 8748661
119.6653 -47.764606 106.2412 10458254
119.18147 -47.516289 106.75637 10195082
145.79897 -46.791397 -29.295914 7366239
146.08011 -46.809414 -28.501875 7103836
146.23599 -47.102997 -27.803862 5920074
119.32225 -46.69231 107.0443 9668738
118.79818 -46.583954 107.53703 9340285
146.07375 -45.645813 -31.05665 10261132
146.16946 -45.830021 -30.344393 9471616
146.28812 -46.061359 -29.454472 8616306
146.23512 -46.363338 -28.896601 9142651
119.65369 -46.069515 107.26962 9209211
119.2037 -45.732914 107.97268 9538176
118.71076 -45.42572 108.68211 10196363
146.78224 -44.458588 -34.347828 5919050
146.89677 -44.525513 -33.354252 6511954
146.70406 -44.707829 -32.368988 7564642
146.5367 -45.000843 -31.417084 9275004
146.61647 -45.208786 -30.510155 9866628
119.10091 -44.815186 108.97149 9209211
118.54403 -44.606068 109.83524 9472383
118.38632 -44.336002 110.86404 8551537
149.29588 -43.821499 -46.976891 10459022
149.62352 -43.866257 -45.977551 10130058
148.74716 -44.103329 -44.154507 8879995
149.05759 -44.101059 -43.081799 10525329
148.11302 -44.099121 -41.086369 11379868
148.35373 -44.09726 -40.196411 10919318
148.54274 -44.095779 -39.483559 13353917
147.44106 -44.095043 -38.061481 7564651
147.61932 -44.093582 -37.352917 7696234
147.54851 -44.136608 -36.333424 8682867
147.17613 -44.23605 -35.370544 6708565
147.43163 -44.24876 -34.497814 7827303
118.34525 -44.088921 111.90467 7695716
118.09405 -43.979942 112.75229 7366750
117.73522 -43.884354 113.77576 8156265
117.79366 -43.880428 116.05787 8353903
117.08945 -43.880299 116.76239 9932166
117.26634 -43.876373 118.93751 13023917
116.73746 -43.749649 119.72202 11116438
116.29944 -43.505615 120.25504 9143166
149.40575 -42.723106 -47.880676 9537920
149.58481 -42.915565 -47.147572 10130057
149.85138 -42.996689 -46.284637 10459022
117.00255 -42.941647 120.11243 10261388
116.44589 -42.637146 120.53256 9340800
149.48674 -41.77607 -48.699776 9208435
149.71021 -41.84185 -47.978989 8946039
149.95367 -41.90876 -47.198872 10261899
116.5888 -41.67968 120.84849 9143163
149.70889 -40.893265 -49.038116 9932164
149.99405 -40.975193 -48.120472 8880246
116.79833 -40.872498 121.06753 9735555
116.48525 -40.645531 121.32661 10459278
149.89595 -39.693153 -49.831554 10064007
150.09798 -39.88419 -49.033405 9866629
150.19299 -40.265087 -48.334064 8682867
116.74678 -39.635578 121.60099 9735555
149.91248 -38.74482 -50.838539 14605262
150.09497 -38.934887 -50.098495 11709346
150.3616 -38.99955 -49.253696 10261644
150.05516 -37.606346 -51.692215 10262924
150.21053 -37.877216 -50.940464 10262156
150.4381 -38.04039 -50.099281 11775395
150.53831 -38.36694 -49.445473 10261644
150.29207 -36.769993 -51.936066 11841185
150.56483 -36.845432 -51.061665 8222061
150.68269 -37.226051 -50.296394 10261644
150.37234 -35.832245 -52.746784 9537918
150.64214 -35.894192 -51.896114 10458762
150.82625 -36.084175 -51.151112 9209467
150.47296 -34.563675 -53.866802 8616819
150.62529 -34.895229 -53.056393 9143417
150.91449 -34.995449 -52.106693 11379606
150.76579 -33.751328 -53.921604 7762022
151.05609 -33.850845 -52.969299 9275003
150.78783 -32.782135 -54.935612 10130060
151.0602 -32.842377 -54.078884 7235167
151.24657 -33.031502 -53.328075 10129539
150.92661 -31.634993 -55.809048 9406338
151.13466 -31.886572 -54.926014 8682872
151.38609 -31.979109 -54.094074 7564389
151.02005 -30.741638 -56.531918 8089963
151.19609 -30.891573 -55.854462 7762028
151.42905 -31.022127 -55.033901 8682872
151.45711 -29.661751 -57.733219 8682867
151.49049 -29.973825 -56.915028 7169629
151.59937 -30.231434 -56.003696 7564649
152.2375 -28.44198 -62.461132 8484973
152.44556 -28.596481 -61.778606 7564643
152.39775 -28.870073 -60.99477 8353903
152.33287 -29.124519 -59.954487 9011320
151.75284 -29.374136 -58.889439 9406591
152.08348 -29.368807 -57.970612 10130313
152.36288 -27.853439 -62.726994 8484973
152.72574 -27.849951 -61.807781 8090986
152.68782 -26.713322 -63.719692 10260357
152.79277 -26.938467 -62.904469 9602940
152.85175 -27.260452 -62.072914 7564643
153.41292 -25.462126 -65.538551 10392973
153.08189 -25.868704 -64.704567 10655630
153.13832 -26.149832 -63.692223 9931648
154.06775 -25.306309 -68.452469 12828338
153.52567 -25.192081 -67.773499 10459534
153.36426 -25.099712 -66.608078 7695717
153.3231 -25.276508 -66.153297 8616818
132.98022 -75.289345 40.731075 16777207
132.86099 -75.334396 41.394611 14078923
132.68019 -75.404259 42.390949 8682867
132.42427 -75.435776 43.364128 9406078
135.42526 -74.403877 27.942257 8288366
135.34494 -74.435051 28.604612 8156523
135.36594 -74.394287 29.699188 5920073
135.24248 -74.394875 30.627411 5525316
135.05186 -74.414421 31.609533 7564642
134.86194 -74.438309 32.592342 6577747
134.68137 -74.471336 33.578438 6775126
134.49799 -74.506821 34.564762 9143419
134.31119 -74.544472 35.551228 8420470
134.0571 -74.650246 36.569691 9406849
133.8051 -74.778679 37.49017 10130057
133.62131 -74.830093 38.480305 9405822
133.50592 -74.840607 39.527569 10458767
133.46356 -74.775833 40.498066 14012101
133.35318 -74.724899 41.549706 12367533
133.15198 -74.783226 42.543301 8682867
132.88124 -74.806709 43.515461 8945015
132.5567 -74.803955 44.470013 9471359
132.27151 -74.764229 45.393887 7168860
132.2525 -74.540024 46.3825 8748149
132.03497 -74.4673 47.29356 9603202
131.75705 -74.416077 48.294811 9208700
131.70901 -74.333672 49.178715 10261901
131.35918 -74.339729 50.130581 10130058
131.00491 -74.347252 51.081036 8484721
130.76653 -74.353088 51.71384 8089963
140.20734 -73.696655 5.161644 10392970
140.29712 -73.812431 6.0974216 10458506
139.92305 -74.030685 6.9776306 8748660
139.86494 -74.029076 7.9849968 9275262
139.79958 -74.027481 8.991888 9209214
139.72699 -74.025902 9.9983339 14604230
139.23218 -74.025002 10.969733 10064263
139.06844 -74.023689 11.897492 9208435
138.63684 -74.022598 12.933132 9997951
138.5358 -74.021072 13.931045 10656141
138.42757 -74.019562 14.928221 10328208
138.3121 -74.018051 15.924541 8486000
138.18945 -74.016563 16.920029 12565422
138.05965 -74.015083 17.91461 11315100
137.92261 -74.013626 18.908274 8090730
137.77846 -74.012169 19.900845 7367781
137.41049 -74.010963 20.942642 9011838
137.06161 -74.010017 21.816166 9669767
136.89778 -74.009338 22.802713 10525075
136.75552 -74.024124 23.79323 8485751
136.61792 -74.04538 24.785101 10327179
136.47459 -74.067368 25.776506 9932677
136.33913 -74.097542 26.770235 9012089
135.97296 -74.226501 27.71689 8288366
135.85352 -74.273102 28.714365 8156012
135.7421 -74.288994 29.372772 5920073
132.08513 -74.167915 49.683804 10591380
131.85063 -74.172272 50.320629 10985623
131.49539 -74.180031 51.274734 8879735
131.22813 -74.147751 52.356449 10130057
131.0164 -74.115356 53.279263 9208699
130.64734 -74.127396 54.230881 8024169
130.42706 -74.09771 55.154278 7892584
130.28729 -74.044121 56.300808 9932679
130.10278 -74.022621 57.152199 8748149
130.03554 -73.95961 58.059689 8484979
129.60886 -73.958679 58.994343 7762030
129.6743 -73.956749 60.084408 9341060
129.51549 -73.955063 61.227467 10459025
129.06596 -73.954178 62.15826 8682356
128.80536 -73.952835 63.18285 9669506
129.08202 -73.950882 64.09417 10854036
128.61186 -73.950035 65.02182 10655889
128.13504 -73.949196 65.945976 9537667
128.39845 -73.94725 66.868279 8287859
128.10243 -73.945976 67.894936 8814201
127.60484 -73.945175 68.815346 12563624
127.73267 -73.943291 69.816063 10261641
127.53715 -73.941978 70.776855 8682867
127.17014 -73.940666 71.881149 9406339
127.12982 -73.939339 72.703316 9603459
127.03278 -73.775017 73.899712 9998470
126.63104 -73.631676 74.730019 9011061
126.2131 -73.484146 75.441887 6510930
140.28954 -72.392944 3.2842941 8682867
140.3308 -72.765717 4.0728664 8682867
140.51218 -72.926216 5.1300621 9866370
140.65793 -73.068115 6.0003757 12432037
126.94276 -72.745628 74.997879 7103066
126.29729 -72.720215 75.768173 7695201
125.93153 -72.399162 76.375137 9734779
140.52124 -71.747276 3.2476311 8353906
140.75473 -71.771507 4.3107624 9537406
140.81136 -72.105179 5.1029224 8221546
126.95495 -72.112968 75.33567 8616301
126.63607 -71.732819 75.920731 9011058
126.07205 -71.575653 76.668678 9734524
140.65189 -70.386635 1.6019841 9209467
140.66959 -70.779915 2.3207893 8222066
140.84627 -70.8778 3.2549706 8222066
141.0323 -70.891434 4.092907 12299684
126.8625 -70.917915 76.109482 9208435
126.3782 -70.755806 76.766556 9997440
125.84515 -70.579483 77.488678 10392202
140.8176 -69.776161 1.3331834 9669504
141.0444 -69.775726 2.3269482 8222066
141.18011 -69.941223 3.1917057 7695979
126.56605 -69.805595 77.075714 11378324
126.08403 -69.660751 77.72052 9865855
125.62926 -69.618057 78.276634 9734788
141.00146 -68.686821 0.36341107 9538177
141.13034 -68.895226 1.2682515 9340798
141.32654 -68.924301 2.1757755 8946042
126.32245 -68.743019 77.952515 10260612
125.67065 -68.728081 78.723671 9603969
125.29848 -68.416542 79.332726 8682867
141.14169 -67.755234 -0.54067791 9538177
141.33145 -67.756554 0.29350865 9538177
141.51184 -67.845238 1.2289544 9603969
141.53221 -68.23381 1.9519578 9735553
126.3288 -68.117638 78.293266 10129798
126.05272 -67.745796 78.823494 11642780
125.53328 -67.527481 79.552956 9669762
125.19183 -67.239693 80.112938 10459278
141.34695 -66.577644 -1.5605677 8155499
141.41196 -66.888809 -0.76830471 9143162
141.61061 -66.9104 0.13796818 10459279
126.22433 -66.937477 79.072792 8682867
125.82462 -66.708755 79.667923 8814453
125.19465 -66.618423 80.455498 10919573
141.48204 -65.657135 -2.468853 7563619
141.60718 -65.763046 -1.7477816 7366240
141.79028 -65.843849 -0.81320369 10787219
141.81367 -66.22493 -0.08919704 11379356
126.00096 -65.881065 79.922333 9275006
125.42735 -65.705681 80.691422 10985111
124.96841 -65.41227 81.39193 10656402
141.59338 -64.452484 -3.4923954 9734531
141.69899 -64.861824 -2.7707806 8879479
141.91228 -64.884163 -1.8430403 7563618
142.01741 -65.049149 -1.1132239 8484464
125.7172 -64.759354 80.879097 11116441
125.02641 -64.707603 81.716438 10064521
141.84149 -63.72514 -3.5839214 9932416
142.077 -63.822678 -2.8209953 9998212
142.15111 -64.130043 -2.0253792 8484464
125.89097 -64.191757 80.99173 10459023
125.50179 -63.824451 81.651794 9801605
124.89577 -63.684952 82.438774 10788755
141.91484 -62.514832 -4.5250397 9932416
142.09189 -62.916706 -3.7438278 9800830
142.3497 -63.104424 -2.8266563 9208435
125.65982 -62.886482 81.989105 9735812
125.21093 -62.6465 82.648094 10657170
124.61811 -62.687382 83.319214 10789012
142.15724 -61.70689 -4.7036915 9669246
142.41896 -62.030071 -3.7985268 11117207
125.30934 -61.83477 82.984917 11184026
124.78719 -61.76276 83.636162 11118232
124.37876 -61.392029 84.320587 10788244
142.33684 -60.702309 -5.4518909 9800835
142.57498 -60.860352 -4.6605358 10985107
125.22076 -60.817665 83.724892 11315356
124.6655 -60.667492 84.516319 10656658
124.25143 -60.41124 85.258583 9208435
142.76399 -59.471413 -7.4141636 9603714
142.63124 -59.812599 -6.606905 8813942
142.72453 -60.057056 -5.7867069 10853780
124.95258 -59.991531 84.932869 10788244
124.64238 -59.739109 85.634346 9011573
124.24342 -59.543259 86.434517 9011315
123.91448 -59.328979 87.318268 7762021
145.14293 -58.749973 -20.353266 9275004
145.46362 -58.912243 -19.472626 9670018
145.03523 -59.065792 -18.461937 7827815
144.62401 -59.064838 -17.529842 8287853
144.74257 -59.062904 -16.487757 6511954
144.83577 -59.061306 -15.618736 6511954
143.90178 -59.061077 -14.64905 6511954
143.99954 -59.059185 -13.612228 5920074
144.0898 -59.057308 -12.574738 5524804
143.82692 -59.056103 -11.626417 6511187
143.21207 -59.055592 -10.772139 6709077
143.15393 -59.101959 -9.6461029 7564385
143.18152 -59.19136 -8.6986523 7498592
143.06844 -59.331112 -7.8309059 8419696
124.41386 -59.133884 87.673515 7104091
124.00695 -59.040428 88.600006 8748916
123.61675 -58.964352 89.473808 8748661
123.1437 -58.915585 90.380424 8550513
123.61303 -58.912743 91.650322 9471871
123.05567 -58.912334 92.390175 9274492
122.94984 -58.910667 93.47731 10194566
122.83584 -58.909008 94.565254 10457478
122.26124 -58.908634 95.300568 9997183
122.71038 -58.905754 96.61071 10457478
122.12316 -58.905403 97.345039 10590353
121.65054 -58.905132 97.930229 9538176
121.87411 -58.636616 99.330887 9867141
121.20245 -58.38261 100.0035 11576729
145.19118 -57.540035 -21.262526 8682867
145.44228 -57.87048 -20.466854 9669762
145.66705 -58.129566 -19.785198 10656657
122.05013 -57.755268 99.598251 11117208
121.50552 -57.61203 100.11442 9801091
145.49693 -56.747459 -21.290354 8420983
145.75024 -57.053307 -20.510658 9670536
121.63187 -56.713726 100.43065 8485488
121.11346 -56.58886 100.91666 9933193
145.49959 -55.662159 -22.190031 8486520
145.74039 -56.007736 -21.403097 10985881
121.91686 -55.856144 100.59712 6511954
121.38672 -55.617725 101.14582 9406847
145.49989 -54.716389 -22.978222 9538176
145.79587 -54.785923 -22.307276 8749692
146.02402 -55.037827 -21.624702 9144449
121.59042 -54.680935 101.41636 8814967
120.97346 -54.695911 101.91805 9144448
145.68385 -53.917122 -23.26388 9537150
146.09189 -53.909828 -22.424913 8747632
121.67724 -54.05275 101.63882 10065547
121.26001 -53.583122 102.20264 11117979
120.86678 -53.20438 102.70415 13551549
145.76996 -52.557167 -24.219866 8878965
146.02747 -52.874287 -23.421976 10655116
146.25771 -53.121994 -22.738691 9734270
121.47051 -52.651596 102.46514 8947327
120.76604 -52.670383 103.03718 10460051
146.07204 -51.767345 -24.252979 8353134
146.33153 -52.060444 -23.47122 11970463
121.54035 -51.864491 102.77597 9868171
121.00487 -51.631657 103.32652 9012350
120.46919 -51.400047 103.87653 12958639
146.06456 -50.698494 -25.160007 9471616
146.31169 -51.03138 -24.370655 7563619
121.35522 -50.731335 103.45908 7564651
120.68401 -50.62355 104.06296 11905953
146.12303 -49.586082 -25.966654 10525072
146.3566 -49.825935 -25.283144 8813686
146.61768 -50.137669 -24.482651 8418928
121.43677 -50.077248 103.69804 7564651
120.90211 -49.698639 104.31609 9406594
120.31352 -49.515705 104.887 8617080
146.28346 -48.805477 -26.285585 9867398
146.68935 -48.857857 -25.401703 8089963
121.16748 -48.874836 104.48292 11905953
120.62811 -48.645935 105.03481 8814201
120.08853 -48.418194 105.58633 7563619
146.33865 -47.697754 -27.095274 9866630
146.6044 -47.939499 -26.343609 9537664
146.74242 -48.351921 -25.71393 8418928
120.79523 -47.72472 105.32822 8813686
120.20371 -47.556862 105.89451 11116184
146.53307 -46.402554 -28.042629 6906713
146.66707 -46.798706 -27.229155 7498594
146.93669 -47.100708 -26.355389 9603457
120.81173 -46.879398 105.71025 8813686
120.36778 -46.631966 106.20227 9668738
146.85333 -45.549911 -29.018095 10261132
146.97209 -45.744606 -28.308933 8551026
147.1328 -46.013885 -27.486053 7893352
120.70274 -45.997406 106.47564 8353135
120.23447 -45.733562 107.12205 9866630
119.90938 -45.356304 107.76225 9209211
147.43047 -44.495331 -32.082161 7169629
147.56178 -44.566231 -31.000072 11050900
147.14099 -44.85405 -30.103258 12235429
147.18796 -45.060806 -29.293295 9011318
147.47424 -45.092953 -28.405205 8813936
120.55573 -45.021774 107.56006 10262156
120.06506 -44.818264 108.16581 9604226
119.83358 -44.456821 109.18696 8814453
119.39086 -44.361889 109.93037 8682867
149.98804 -43.875816 -44.910488 7564651
150.31465 -43.924324 -43.909996 12893101
149.36026 -44.098797 -42.006901 9802633
149.6553 -44.096535 -40.929768 9736327
148.68205 -44.094669 -38.948166 14801362
148.90979 -44.092827 -38.054863 13353917
149.13254 -44.090981 -37.160221 9735555
147.96649 -44.090672 -35.93335 9735555
148.13449 -44.089222 -35.222225 7038298
148.1813 -44.129478 -34.108978 9274745
147.78456 -44.267838 -33.273457 7893608
148.03389 -44.282425 -32.397587 6511954
119.93261 -44.128773 110.43343 7893614
119.21191 -44.110165 111.10354 7630179
119.51036 -43.8848 111.92536 6774358
118.83121 -43.884617 112.64053 6510930
118.77209 -43.880627 115.06413 11313820
118.2142 -43.880508 115.63318 9143419
118.26902 -43.87653 117.94813 8288627
117.97931 -43.720707 118.99306 9932424
117.65264 -43.298515 119.62137 9800838
150.07491 -42.83054 -45.821888 9801350
150.31616 -42.932133 -45.009602 7696749
150.49373 -43.128258 -44.276798 13550517
117.74169 -42.555767 119.87801 8025201
150.22372 -41.691795 -46.657635 10919829
150.46603 -41.792267 -45.843533 10327949
150.6633 -42.051682 -44.983135 8618105
117.86788 -41.770935 120.13215 8089963
117.31902 -41.731373 120.43969 8089963
150.42662 -40.839104 -47.018391 9801348
150.75665 -40.883873 -46.01207 10656400
117.84381 -41.151451 120.39839 9931910
117.4846 -40.622883 120.80537 9997703
150.54587 -39.780403 -47.850883 9275004
150.80721 -39.978104 -46.873455 9932934
117.66398 -39.696983 121.08901 10392461
117.11327 -39.659912 121.3965 10853012
150.56993 -38.874454 -48.789238 10261642
150.83606 -38.940952 -47.943909 10590605
151.08263 -38.944534 -47.225277 9735554
117.63862 -39.077045 121.35618 9931910
117.34367 -38.594009 121.71036 9406591
150.73463 -37.797253 -49.510494 12433325
150.91771 -37.941517 -48.819408 10392972
151.11162 -38.143795 -48.032299 12169122
117.45545 -37.622059 122.04874 7893611
150.96976 -36.798683 -49.940163 11841188
151.27844 -36.896069 -48.937199 10130057
117.42882 -37.001549 122.3167 7893611
117.58672 -36.39188 122.48237 7893611
151.05435 -35.855648 -50.744259 9603967
151.39003 -35.894909 -49.727673 9866882
151.15942 -34.749592 -51.670109 11708315
151.3439 -34.940262 -50.923244 9538174
151.5919 -35.036278 -50.097301 9472381
151.30161 -33.603935 -52.531994 10984849
151.48692 -33.794239 -51.783024 10590348
151.76128 -33.87051 -50.902721 9801089
151.47612 -32.800571 -52.919483 9537145
151.81497 -32.837303 -51.896118 9208182
151.61542 -31.804768 -53.623058 9208436
151.89177 -31.879478 -52.738697 9471352
152.01215 -32.26226 -51.964062 10129539
151.71727 -30.731306 -54.521679 13024949
151.90469 -30.921122 -53.767143 9405817
152.15654 -30.983234 -52.967869 8681835
152.09816 -29.740673 -55.690556 9472386
152.14517 -30.054066 -54.829845 10130315
152.28714 -30.247292 -53.971336 11840158
152.96585 -28.566828 -60.485096 9143673
153.20053 -28.670429 -59.785778 10787726
152.91977 -29.048243 -58.917561 10722192
152.83018 -29.201952 -57.764439 9406590
152.54274 -29.362501 -56.683483 8288116
152.80357 -29.359474 -55.947559 9735558
153.16072 -27.846973 -60.70467 9143673
153.47655 -27.911074 -59.837872 9340027
153.27914 -26.512812 -62.460743 7564643
153.36554 -26.773441 -61.63966 10525323
153.51952 -27.002052 -60.776608 10196359
153.6501 -27.255598 -60.047924 9340027
154.83571 -25.471045 -69.458015 10459534
153.93542 -25.481848 -64.672501 9603202
153.93108 -25.589674 -63.674534 8747892
153.6788 -25.952871 -62.623581 7564389
153.93071 -26.005093 -61.723927 10656655
154.25742 -25.151554 -65.460655 9142906
154.5331 -25.144304 -64.704659 6510930
134.7471 -74.292152 36.885464 9735302
134.56432 -74.315971 37.706108 10261131
134.34099 -74.345795 38.690575 9208443
134.15144 -74.37178 39.510532 9734787
134.14517 -74.278885 41.799984 9209467
133.98389 -74.302658 42.45771 9012088
133.71527 -74.326645 43.436115 9602945
133.3924 -74.324516 44.397163 9010808
133.06445 -74.323463 45.356464 8353135
140.64508 -73.517799 6.6772995 8813683
140.70087 -73.785507 7.3581371 8945525
140.89723 -73.753456 8.4298992 7893355
140.73148 -73.973045 9.3100262 7827820
140.53906 -74.024002 10.399185 12959152
140.45622 -74.022423 11.410881 7894126
140.15695 -74.02121 12.402604 9274746
139.86711 -74.020264 13.22323 9406588
139.36388 -74.019676 14.017926 9670019
139.25494 -74.018158 15.021043 9933707
139.13882 -74.016647 16.023388 8684155
139.01544 -74.015144 17.024839 11315100
138.88483 -74.013657 18.025381 9143674
138.74701 -74.012184 19.024939 8090730
138.60199 -74.010727 20.023518 9933193
138.44971 -74.009277 21.021009 8946556
138.29031 -74.007828 22.017328 11248797
138.12363 -74.006416 23.012486 10459281
137.94989 -74.005005 24.006416 7564651
137.76888 -74.003601 24.999153 7629929
137.58076 -74.002228 25.990458 8156011
137.38544 -74.000847 26.980371 9012089
136.83455 -74.032112 27.896313 8485489
136.66855 -74.054031 28.89012 8550514
136.47209 -74.063385 29.877821 8024681
136.26666 -74.071793 30.863819 8025450
136.0629 -74.084923 31.850508 9209467
135.86652 -74.105995 32.839535 7301470
135.6656 -74.128532 33.828175 8551794
135.46016 -74.152481 34.816227 8354676
135.25012 -74.177917 35.803883 9143679
135.17981 -74.161194 36.743916 9735302
135.0685 -74.150475 37.849583 9273980
134.84453 -74.18042 38.837894 8813685
134.61594 -74.211769 39.825706 9537920
134.38272 -74.244621 40.812984 10854036
134.60304 -74.142776 41.589565 9801604
134.48756 -74.136589 42.619659 9341054
134.21533 -74.159126 43.60099 9273980
133.89052 -74.15657 44.565361 9273980
133.5614 -74.155556 45.528267 10721168
133.40472 -74.088585 46.624447 11247253
133.13855 -74.073524 47.539448 9603202
132.79575 -74.076859 48.499767 9800837
132.52136 -74.064423 49.413509 11117466
132.34373 -74.003601 50.511318 11051673
132.16704 -74.000061 51.540035 10261643
132.14641 -73.986855 52.340054 10525071
132.06686 -73.964493 53.341633 7432288
131.67426 -73.963486 54.291065 7168860
131.27478 -73.962494 55.237644 7563619
131.37163 -73.960518 56.32539 9800837
131.2459 -73.958778 57.472546 9142907
130.82347 -73.957825 58.41589 8748923
130.39423 -73.956886 59.356228 8551545
130.89545 -73.954468 60.350574 12498864
130.45224 -73.953552 61.291378 10919575
130.00227 -73.952644 62.228916 9801093
129.86029 -73.951241 63.189632 8682356
130.02597 -73.949333 64.178047 10326921
129.55518 -73.948471 65.112434 12037024
129.07761 -73.947617 66.043404 8484980
129.5441 -73.945183 67.075096 8879737
129.05238 -73.944351 68.005928 7630186
128.70941 -73.943001 69.117889 11050644
128.68149 -73.941376 70.105644 9143419
128.32101 -73.940056 71.21666 9603459
128.3306 -73.718399 72.150063 9669510
128.01874 -73.586182 73.080025 8353909
127.54689 -73.57032 73.831215 10064266
140.88429 -72.699463 6.3917389 11708315
141.04793 -72.863289 7.3762646 9537146
141.18919 -72.957703 8.1495142 9997183
128.55832 -73.012512 72.570732 7564651
128.28571 -72.734673 73.233376 9208959
127.80029 -72.651939 74.029907 10524041
127.28635 -72.546234 74.706612 8616301
141.0125 -71.776863 5.4495964 7629410
141.20471 -71.820717 6.3637581 9405819
141.39653 -71.867302 7.2807751 8747631
128.14136 -71.779762 74.108727 8550513
127.52847 -71.780914 74.849449 7892581
127.13565 -71.539421 75.44355 8616301
141.21446 -70.700096 4.5794468 10853013
141.35834 -70.785522 5.3495922 8814202
141.52454 -70.943253 6.3354893 8090477
128.22441 -71.067093 74.432259 8089963
127.85658 -70.743095 75.043251 8353134
127.20678 -70.717728 75.817909 8813679
141.38126 -69.61158 3.5361767 8353651
141.44955 -69.8899 4.2893677 10195597
141.67535 -69.898506 5.2932701 9603462
127.90482 -69.845352 75.486717 9010808
127.44933 -69.797127 76.046608 9142644
126.92689 -69.664757 76.731827 9734523
141.52661 -68.666283 2.632328 9735553
141.65656 -68.736206 3.3159981 8945786
141.82584 -68.884781 4.3005772 9077374
141.84346 -69.282677 5.0263634 10261391
127.71906 -68.939354 76.208549 9471613
127.23753 -68.639641 76.939087 9339766
126.66719 -68.540497 77.661705 11378324
141.73814 -67.472977 1.6139947 9735553
141.75847 -67.86248 2.3384018 9735553
141.9973 -67.824715 3.3238773 8814455
142.05948 -68.07737 4.0084839 8090218
127.47707 -67.756584 77.150375 9931905
126.90417 -67.780121 77.807816 9735040
126.5647 -67.357742 78.440384 13023917
141.81117 -66.649887 0.59238446 12433069
141.93445 -66.763306 1.317856 10327689
142.14062 -66.812416 2.3019199 9735553
142.20326 -67.133842 3.1005955 8617334
127.59943 -67.06324 77.39315 10129798
127.21575 -66.685097 78.052864 9406332
126.56975 -66.733971 78.781731 10656142
142.01645 -65.470192 -0.43073642 11379356
142.03987 -65.852135 0.29459774 11510942
142.27257 -65.855949 1.3209916 10392970
142.37889 -66.068985 2.1344891 9735553
127.38077 -65.870476 78.313301 10129798
126.86373 -65.78566 78.965675 9406332
126.34756 -65.521034 79.717094 9340543
142.27798 -64.69664 -0.54537952 10392461
142.45883 -64.867783 0.52655232 10129287
142.55103 -65.152214 1.3945829 10261129
127.18647 -64.78199 79.146828 8353906
126.63929 -64.67778 79.845253 9143167
126.29421 -64.416855 80.394432 10853012
142.35156 -63.519371 -2.1423931 9209467
142.39073 -63.833374 -1.4584941 8682099
142.57326 -63.911869 -0.53025043 9668738
142.75537 -63.972702 0.36720288 9668735
126.93119 -63.731262 80.03064 8814458
126.27098 -63.72332 80.807861 10326926
125.89155 -63.418228 81.421822 9735812
142.54831 -62.357609 -3.1733894 9932416
142.57603 -62.729561 -2.4456692 9932162
142.75404 -62.853939 -1.4623603 9669762
142.88954 -63.050373 -0.54820812 9406590
126.99107 -62.921928 80.411339 10261133
126.58588 -62.69709 81.010681 9998218
126.00654 -62.525417 81.784332 9340801
142.73532 -61.744057 -3.2921047 10393225
142.92265 -61.797417 -2.4455891 9472382
143.08815 -61.883179 -1.5806826 9669762
126.81778 -61.941177 81.160133 10590356
126.41124 -61.718227 81.760086 8485495
125.83076 -61.677372 82.462265 10393998
142.91229 -60.583469 -4.3273067 11314071
143.02444 -60.89827 -3.5279236 9537919
143.19 -61.029369 -2.6142254 9932678
126.58781 -60.999413 81.9617 7367271
126.04726 -60.748116 82.822563 10459793
125.62826 -60.484222 83.561531 11183513
143.34836 -59.417892 -6.4653969 8813942
143.3024 -59.657604 -5.4870758 11116437
143.39975 -59.874939 -4.6140175 11050900
143.52098 -60.139709 -3.769453 9735297
126.44669 -60.073792 83.087311 10590356
126.04089 -59.838562 83.856476 10722451
125.60327 -59.599205 84.71563 11248795
125.24819 -59.366501 85.578239 8682867
145.89482 -58.525303 -18.983465 7498849
146.02356 -58.817226 -18.22784 6906713
145.69672 -59.06284 -17.3013 8353391
145.81355 -59.060902 -16.251472 7169373
145.56664 -59.059639 -15.283014 6511954
144.95705 -59.059071 -14.401119 6117196
145.05309 -59.057171 -13.356689 7564387
145.14145 -59.055279 -12.311628 6709334
144.69766 -59.054417 -11.40254 8353389
144.24791 -59.053574 -10.497971 8682608
144.31572 -59.051727 -9.4587975 10853262
144.18616 -59.074078 -8.3223267 9011576
143.92188 -59.154297 -7.441782 10589840
143.9684 -59.255032 -6.3179874 8616307
125.75337 -59.171452 85.92659 8682867
125.32339 -59.106152 86.744446 9012089
125.06356 -58.983669 87.639412 6511954
124.57862 -58.929348 88.467842 9012088
125.04065 -58.913857 89.710732 8814453
124.38545 -58.913334 90.608658 9142906
124.29533 -58.91164 91.697212 9932678
124.19705 -58.909954 92.786652 10196106
123.63313 -58.90955 93.530212 9801350
124.10112 -58.906654 94.833786 9866628
123.52454 -58.906273 95.576492 10457478
123.06046 -58.905972 96.168495 9536888
123.52025 -58.822121 97.617378 8879991
122.87337 -58.713825 98.434715 9077625
145.87309 -57.584202 -19.813444 13024949
146.04807 -57.916988 -19.173513 8617330
146.41908 -57.99876 -18.336889 5920074
123.12173 -57.794884 98.696114 8748661
122.49374 -57.612514 99.299332 10590864
146.09512 -56.710453 -20.082342 13419959
146.40741 -56.975239 -19.21484 9603968
123.39574 -56.97015 98.856186 8617075
122.77473 -56.747986 99.472282 7959143
122.33656 -56.485088 99.956642 6511954
146.11546 -55.654499 -20.920906 9144449
146.41309 -55.778824 -20.201006 8748918
146.63942 -55.986122 -19.559549 8682867
123.00919 -55.875668 99.687256 6511954
122.36409 -55.635273 100.33171 6511954
146.30226 -54.850956 -21.204319 8881277
146.6593 -54.9291 -20.400032 9472640
122.61633 -54.746185 100.53986 7695971
122.00806 -54.473446 101.16905 8682608
146.49228 -53.503841 -21.93453 8090216
146.69708 -53.894512 -21.1847 9011576
122.86201 -53.841991 100.76058 8354416
122.27792 -53.649967 101.33207 9473409
146.46114 -52.578892 -22.770559 11378324
146.64162 -52.900597 -22.128622 7169627
147.01825 -52.96904 -21.291878 9734270
122.50176 -52.723537 101.58115 8420980
121.91222 -52.681942 102.08671 9671045
146.67764 -51.712059 -23.045315 10260357
146.99648 -51.96262 -22.176323 6906455
122.72124 -51.945271 101.7645 8618359
122.18513 -51.709915 102.31671 8881530
121.70319 -51.28146 102.91462 9868171
146.68834 -50.671734 -23.890863 7563619
146.99091 -50.784801 -23.170261 8484720
147.22212 -50.981686 -22.527548 7564130
122.38795 -50.772297 102.5884 9670279
121.7856 -50.627033 103.15305 9012096
146.9518 -49.779873 -24.089462 9208444
147.23 -50.004688 -23.326157 9208444
122.47369 -50.143677 102.81196 8092019
122.05108 -49.676247 103.37923 8354678
121.50462 -49.290466 104.01041 9735302
147.05316 -48.605888 -24.858833 9340030
147.28351 -48.932495 -24.109592 9931910
122.26091 -48.743305 103.64295 12038058
121.58829 -48.662754 104.23524 10130059
147.01064 -47.629295 -25.76129 9143161
147.2467 -47.867836 -25.073839 9143161
147.57819 -47.997017 -24.279894 9866629
122.2749 -48.150032 103.90901 10065038
121.84741 -47.728683 104.4588 10195852
121.24645 -47.496132 105.06324 9405823
147.25095 -46.77615 -26.046896 8748404
147.55568 -47.00742 -25.172539 9537661
122.13921 -46.822098 104.64262 9078397
121.46122 -46.717697 105.2505 9208444
147.5083 -45.464672 -27.677855 7893352
147.61427 -45.744186 -26.964441 8222316
147.78056 -46.035343 -26.105131 8485489
121.76647 -46.079887 105.51713 8484721
121.38873 -45.684292 106.21889 8616307
120.94353 -45.403263 106.86316 11314332
148.01443 -44.534222 -29.983526 11445658
148.14824 -44.610588 -28.902002 8419435
147.80927 -44.927452 -28.027895 7893348
148.04074 -45.061344 -27.286865 7367005
121.59233 -45.069679 106.65821 10262411
121.13636 -44.805325 107.29563 10985622
121.10636 -44.410393 108.31845 10261899
120.39265 -44.389507 108.99203 9209211
150.53912 -43.70295 -43.50565 10460305
150.71562 -43.901047 -42.773823 9802633
150.96094 -43.971592 -41.931583 9539462
149.94243 -44.094292 -39.85059 9209472
150.22183 -44.092052 -38.769341 10854041
150.40405 -44.090561 -38.047443 11380380
149.26367 -44.089882 -36.622829 8090986
149.43492 -44.088417 -35.905521 8617330
149.64476 -44.08659 -35.007732 8485229
148.6188 -44.084896 -33.084366 8617331
148.68591 -44.13596 -31.978254 7563619
148.54332 -44.251369 -31.203323 8090219
148.67062 -44.324394 -30.114452 6971994
120.93933 -44.156414 109.4908 9340797
120.6385 -44.022915 110.28271 7038307
120.33607 -43.890846 111.07702 8485749
120.29302 -43.880997 113.48633 8682612
119.60419 -43.880817 114.206 8616563
119.82815 -43.876831 116.37676 8353391
119.12196 -43.87669 117.09352 7564643
119.40114 -43.742882 118.51145 7039331
118.80628 -43.448673 118.94755 8025712
150.7748 -42.851112 -43.770607 11972259
151.00783 -43.064777 -42.857494 10657685
151.15607 -43.344681 -42.116463 11381404
118.93713 -42.67487 119.19468 8683385
150.9169 -41.677071 -44.665127 10261900
151.19826 -41.81358 -43.697868 10525584
151.30977 -42.200741 -42.943913 14077894
119.0117 -41.923706 119.46249 11182745
118.56784 -41.478348 119.88033 8879736
150.98251 -40.66021 -45.606392 9735814
151.16153 -40.856003 -44.869724 9407106
151.42485 -40.927723 -44.026817 8618104
118.73832 -40.596519 120.15062 9471359
151.13168 -39.517998 -46.445045 10261641
151.24579 -39.902538 -45.68652 10919828
151.52882 -40.037487 -44.715946 9604484
118.88697 -39.677498 120.44779 8682100
118.35595 -39.67535 120.73054 9602945
151.26744 -38.947903 -46.686047 9735554
151.57516 -38.954437 -45.7869 10855060
151.75513 -39.150307 -45.047443 9210491
118.48158 -38.720497 121.05453 8484978
151.4153 -37.804497 -47.529789 11314071
151.62042 -38.037354 -46.676235 9604224
151.83899 -38.194965 -45.867367 9210491
118.60684 -37.76445 121.37925 7893611
118.14953 -37.597252 121.69047 7893611
151.56583 -36.469231 -48.579006 9209467
151.68237 -36.852837 -47.814514 10261641
151.95322 -36.933594 -46.939587 9801347
118.90784 -37.094406 121.49364 7893611
118.27372 -36.640697 122.01593 7696232
151.76309 -35.897781 -48.64275 9931647
152.09769 -35.940132 -47.62553 10786443
118.39764 -35.682808 122.34206 7893611
117.93861 -35.517483 122.65342 7762027
151.8194 -34.865353 -49.627743 9603967
152.09221 -34.944096 -48.749157 10654601
152.27525 -35.137699 -48.003017 10457478
118.69837 -35.010498 122.45758 7564651
118.26311 -34.653316 122.83471 7827823
151.98941 -33.698708 -50.432285 9735296
152.23796 -33.795647 -49.603867 10195077
152.42189 -33.988865 -48.85577 10917773
118.2729 -33.742054 123.20243 9669512
152.19156 -32.837139 -50.804363 9734529
152.50508 -32.838135 -49.894314 9866115
118.48468 -32.923992 123.42467 7564651
152.30173 -31.830193 -51.604855 9800577
152.61462 -31.926416 -50.590649 9602942
152.3468 -30.918289 -52.48843 9405559
152.59915 -30.917616 -51.757526 9142388
152.85135 -30.917519 -51.026485 9208182
152.67294 -29.644405 -54.245262 10787985
152.73482 -29.884062 -53.511883 11050900
152.85028 -30.106646 -52.66193 9604227
152.91881 -30.364033 -51.8661 9537659
153.54039 -28.434362 -59.155876 11905692
153.74738 -28.591423 -58.474148 9800577
153.87686 -28.807329 -57.595722 8616564
153.58183 -29.117081 -56.647869 7564651
153.28212 -29.276846 -55.566639 10064522
153.32114 -29.354784 -54.474239 8617847
153.714 -27.779585 -59.364784 9340027
154.0294 -27.845018 -58.49773 9340027
154.25175 -28.042204 -57.736588 10260875
153.93991 -26.618692 -60.303394 10195591
154.12088 -26.819918 -59.434177 9471613
154.2261 -27.123522 -58.714367 8089963
154.40042 -25.430082 -62.70079 7893614
154.19293 -25.875719 -61.257366 9472384
154.40543 -25.969481 -60.428722 10721933
154.59149 -26.113663 -59.562481 10590091
155.82988 -25.028927 -67.006859 8485488
155.26926 -24.914625 -66.326859 11380380
154.99347 -24.820438 -65.333702 8155755
155.02737 -24.907564 -64.328926 7760997
154.95146 -25.029823 -63.573368 9340287
154.87566 -25.197292 -62.389027 7893614
154.72195 -25.395697 -61.323776 9077884
141.24088 -73.646484 9.4989691 7564648
141.39522 -73.80619 10.46594 8288627
141.48222 -73.814178 11.3841 8485749
141.21095 -74.019455 12.500353 8814457
141.11295 -74.017899 13.516838 9735043
140.67743 -74.017014 14.42911 9670536
140.41988 -74.016075 15.220301 9933707
139.97336 -74.015221 16.123091 10723222
139.84921 -74.013718 17.130613 9208443
139.71785 -74.012215 18.137154 11315100
139.57921 -74.010735 19.142733 11314844
139.43326 -74.009262 20.14731 9407106
139.28015 -74.007805 21.150787 8946556
139.11969 -74.006371 22.153118 13748161
138.95207 -74.004929 23.154306 9932938
138.77722 -74.00351 24.154236 7564651
138.59515 -74.002098 25.152815 7695463
138.40588 -74.000717 26.150139 7760997
138.20944 -73.999329 27.146048 9669250
138.00575 -73.997963 28.140497 8616563
137.79494 -73.996613 29.133469 9537665
137.57693 -73.99527 30.124891 8550514
137.35179 -73.993935 31.114664 7696747
137.11954 -73.99263 32.102901 9801605
136.88008 -73.991325 33.089336 8551537
136.63353 -73.990044 34.074001 8090992
136.37997 -73.988777 35.056915 7696491
136.11917 -73.987511 36.037991 10853012
135.85147 -73.986267 37.017155 9602945
135.92514 -73.986366 38.022888 8221549
135.87791 -73.99321 38.856991 8813429
135.55705 -74.008186 39.753906 9143162
135.29323 -74.023773 40.7384 9209467
135.31804 -73.978996 41.813911 9209467
135.01117 -73.979294 42.787937 9209468
134.71716 -73.990379 43.766415 8945271
134.39114 -73.987877 44.734318 9602945
134.45412 -73.979782 45.836926 9800318
134.34053 -73.975418 46.793129 11313044
134.21986 -73.970673 47.74897 10260611
133.92662 -73.969757 48.553341 9537922
133.5685 -73.968674 49.516338 10131086
133.37433 -73.967079 50.634632 9012607
133.33948 -73.965576 51.560226 9012092
133.25525 -73.963776 52.711182 9406334
132.86716 -73.96273 53.669182 8419183
132.47211 -73.961731 54.624386 9603713
132.27112 -73.960281 55.662327 11116953
132.59998 -73.958282 56.556164 12104104
132.18413 -73.957306 57.509396 9669766
131.76138 -73.956345 58.459545 7564651
131.53226 -73.954941 59.498436 9604232
131.84132 -73.95295 60.407139 12170155
131.39772 -73.952011 61.354771 12169897
130.94722 -73.951103 62.299175 8879479
131.00029 -73.94915 63.412762 7760998
130.8223 -73.947464 64.575699 10129030
130.42818 -73.946739 65.359436 11576473
130.3165 -73.945213 66.367973 9800322
130.34041 -73.943283 67.492073 9208699
129.84566 -73.942451 68.428627 8814201
129.91856 -73.745041 69.38488 8024943
129.62785 -73.613426 70.322281 7235427
129.09236 -73.601082 71.242332 10195338
128.79559 -73.4021 71.889305 11379356
141.37079 -72.77211 8.6430836 9865597
141.56349 -72.750244 9.4523573 8616044
141.72588 -72.92408 10.447574 8090990
130.16811 -73.046043 69.807594 7038307
129.87202 -72.843994 70.455528 6577748
129.45593 -72.640823 71.308487 7893095
128.96336 -72.583862 72.187363 9143165
128.71024 -72.243095 72.861702 8814203
141.59837 -71.540192 7.6324139 8681835
141.65335 -71.883148 8.4326553 10720650
141.88554 -71.855263 9.4052963 9010544
129.73932 -71.744362 71.465683 6511954
129.34064 -71.673065 72.195396 7761509
128.80133 -71.666443 73.118568 9142650
128.50139 -71.471779 73.768372 12432037
141.75156 -70.574539 6.729744 7038307
141.84862 -70.76577 7.4670296 9208438
142.04454 -70.819069 8.4130392 8879214
142.0578 -71.230736 9.1422319 8681835
129.54276 -70.841164 72.445496 9274492
129.10255 -70.707687 73.290604 10260873
128.59013 -70.651848 74.18055 11708315
128.23944 -70.276939 74.854576 9537150
141.90363 -69.541138 5.7115688 7038307
141.96329 -69.801659 6.3978672 9077374
142.16476 -69.869453 7.3917923 10919060
142.28339 -70.001297 8.1268177 9340545
129.37337 -69.845688 73.445282 10853011
128.94598 -69.744186 74.231712 11445144
128.38744 -69.661087 75.024384 10326666
142.05264 -68.514725 4.6918812 11905701
142.08429 -68.850006 5.376915 8617081
142.36714 -68.753151 6.4589119 11905698
142.43481 -69.037727 7.2196941 12366245
129.14058 -69.045128 74.413681 9997700
128.72316 -68.75042 75.138588 8879479
128.1535 -68.558266 75.912277 10195082
142.28635 -67.707466 4.4000454 8945527
142.48317 -67.828857 5.4606724 8485235
142.56224 -68.067162 6.1958103 8814459
128.91037 -67.785034 75.457008 8287342
128.33736 -67.725113 76.161018 9010808
127.87915 -67.678551 76.723206 9931910
142.43347 -66.777962 3.5297089 7958890
142.69872 -66.767502 4.6751938 8156268
142.79794 -67.018173 5.5182552 8090218
128.97633 -67.201508 75.704597 9931910
128.60278 -66.882454 76.319534 9734531
128.05099 -66.628494 77.10685 10590352
127.60734 -66.281723 77.819176 10129798
142.63882 -65.714264 2.6955872 9735039
142.81177 -65.856972 3.6861954 9077626
142.96014 -65.935143 4.4637051 9406591
128.47575 -65.77784 77.083321 12037543
127.84287 -65.678726 77.87925 10656144
142.75267 -64.821655 1.7395974 9866369
142.99132 -64.774597 2.7083931 9603197
143.15248 -64.876137 3.5800285 9011580
128.54037 -65.066833 77.403542 11314076
128.08105 -64.763878 78.10984 10261643
127.55079 -64.638489 78.800308 8419697
142.95709 -63.641426 0.711218 9537402
143.09094 -63.844685 1.6290723 9866369
143.27254 -63.93132 2.5659103 9668990
128.31938 -63.745907 78.397728 9734787
127.68285 -63.755081 79.137672 7893100
127.27885 -63.526783 79.737625 7564651
143.09137 -62.718296 -0.20519245 9209467
143.26501 -62.774563 0.64724553 9734786
143.47079 -62.799885 1.5900823 10458252
143.49547 -63.183334 2.3232956 9734782
128.02614 -62.868122 79.229713 7958635
127.49857 -62.720352 79.929512 7958894
127.16576 -62.354626 80.52269 10853012
143.29004 -61.550369 -1.2386435 9209467
143.35941 -61.856785 -0.43528545 9603713
