# .PCD v0.7 - Point Cloud Data file format
VERSION 0.7
FIELDS x y z rgb
SIZE 4 4 4 4
TYPE F F F U
COUNT 1 1 1 1
WIDTH 1228
HEIGHT 1
VIEWPOINT 0 0 0 1 0 0 0
POINTS 1228
DATA ascii
37.017014 -58.840134 132.21808 7958888
36.060455 -58.84066 132.48067 8616562
35.417713 -58.544868 133.1909 8090475
35.37616 -57.736012 133.56227 7564390
34.967976 -57.350498 133.5372 9012350
34.856903 -56.634281 133.7713 9538180
34.655743 -55.725761 134.04214 8683129
34.047058 -55.242172 133.96881 9012350
34.650627 -55.035641 134.31187 7038307
34.197128 -54.474369 134.33647 7893614
34.040012 -53.566166 134.62625 8550772
33.792908 -52.645008 134.88216 9735043
33.399288 -52.354721 134.82588 9537664
33.334618 -51.613251 135.09003 9406078
33.197147 -50.64286 135.41286 10327436
32.670288 -50.149578 135.3788 13023917
33.101109 -49.72443 135.73322 10195851
32.74778 -49.413441 135.70251 11182486
32.442585 -48.64006 135.87485 9143675
32.377823 -47.768188 136.18896 9209212
31.928459 -47.385487 136.14392 8814710
31.932869 -46.547649 136.47444 7761768
31.607311 -45.619854 136.75627 7301477
31.307018 -45.171299 136.96417 8090992
31.027775 -44.670559 137.26515 8025198
30.436352 -44.200588 137.73477 8748921
30.218533 -43.984238 138.33563 9736836
29.682865 -43.932083 138.27567 10262156
29.036751 -43.831333 139.35724 7564642
28.028553 -43.832077 139.56218 8091245
27.427513 -43.829098 140.97009 7564130
26.57777 -43.829758 141.1315 7564130
25.840786 -43.828602 141.92108 7037530
25.09676 -43.827465 142.70639 6510930
24.464508 -43.424786 143.15408 6510930
24.27869 -42.509872 143.46043 6576723
24.192802 -41.912685 143.66002 6510930
23.770813 -41.557453 143.61757 7037274
23.645111 -40.605114 143.94083 7432288
23.518463 -39.651817 144.26401 7893607
23.031895 -39.291088 144.19568 8551537
22.947727 -38.637005 144.4183 8288365
22.833466 -37.735825 144.72403 8156529
22.208443 -37.251797 144.64352 8814203
22.800442 -36.97842 145.00797 9406339
22.323364 -36.447895 145.00992 7959152
22.248158 -35.61813 145.30406 7959152
21.915077 -34.81461 145.47601 9011581
21.623005 -34.368797 145.52484 11379356
22.025234 -34.064995 145.81897 8092019
21.557167 -33.657017 145.77663 9405823
21.298309 -32.613934 146.07509 8681843
21.400906 -31.698584 146.48004 8681843
20.87326 -31.53451 146.31581 8681843
20.696136 -30.638496 146.5966 8945015
20.560505 -30.045784 146.92236 9208187
20.040363 -29.572294 147.07928 8945015
19.411865 -29.040403 147.79829 9340029
18.625759 -28.819624 148.75751 8682615
128.46802 -79.490585 49.891632 8551280
128.14392 -79.513573 50.832478 10130057
129.11078 -78.475098 49.130013 9537918
128.74716 -78.707672 49.950199 11116692
128.40012 -78.910614 50.754528 10261642
129.35175 -77.698936 49.294586 10261384
129.03964 -77.747849 50.170021 12827051
129.94827 -76.799416 48.538795 11577246
129.65157 -76.814064 49.407303 10656142
129.40596 -76.873642 50.072372 11511449
130.72052 -75.606453 47.912823 8485494
130.31216 -75.794495 48.74752 10195596
129.92853 -76.114334 49.377422 11905953
132.89124 -74.295792 45.802219 9734788
132.397 -74.352303 46.702915 9471616
131.63164 -74.748024 47.205669 8682356
131.20862 -74.925255 48.039764 8025198
141.79919 -73.628601 37.803886 9604485
141.48105 -73.838295 38.522026 7434089
140.60474 -73.955063 39.19215 8091762
139.7243 -73.95443 39.852604 12235689
139.21866 -73.95256 40.796227 11182486
138.17572 -73.952797 41.212112 9274748
137.62982 -73.951363 42.01144 7761253
136.8354 -73.950783 42.609104 8814710
136.16423 -73.949814 43.299145 8090987
135.48944 -73.94886 43.982491 8551026
134.6828 -73.957932 44.436909 9668738
133.91083 -74.043915 45.255367 10786959
133.33331 -74.127861 46.134251 10392203
59.956608 -73.861603 113.12186 13024175
59.4109 -73.861542 113.40796 9932421
58.452595 -73.86145 113.90266 8090734
57.572605 -73.860847 114.55381 8090734
57.017002 -73.859917 115.17135 8551282
56.150555 -73.859177 115.86649 9603969
55.382343 -73.858299 116.562 11709602
54.774723 -73.857567 117.1336 10788755
53.939507 -73.856514 117.92783 9407616
53.321247 -73.855804 118.49417 9603970
52.526653 -73.855011 119.1734 8353909
51.813198 -73.854012 119.89442 8221808
51.14399 -73.623985 120.73456 9404538
50.320972 -73.576881 120.80971 9141623
142.32034 -72.413834 37.159473 10788243
142.11035 -72.749191 37.885189 11840675
141.87842 -73.138718 38.629021 11380124
50.955811 -72.802177 121.10269 8615280
50.18137 -72.642723 121.18491 9009781
49.363846 -72.191185 121.38442 9734788
142.60471 -71.667099 37.061413 9406590
142.47678 -71.750092 37.870724 8880503
50.334179 -71.76329 121.53128 8088937
49.566917 -71.523468 121.64532 8879479
143.11099 -70.463715 36.505745 10262156
142.88676 -70.834259 37.243244 8814710
50.242718 -70.930756 121.86491 9733502
49.404446 -70.759804 121.9532 7892584
48.810581 -70.357597 122.1277 6510930
143.37456 -69.760201 36.44923 9012089
143.23672 -69.866272 37.271141 8814710
49.534702 -69.841599 122.31552 7564130
48.691338 -69.608437 122.42879 6643285
143.85562 -68.676018 35.741848 5920074
143.68802 -68.851501 36.600704 7498850
48.863037 -68.669395 122.79841 8288365
48.084003 -68.510597 122.88052 9998215
144.20364 -67.67675 35.877655 6971994
144.0479 -67.860336 36.616657 5920074
48.711277 -67.735748 123.17374 8551025
47.972263 -67.647659 123.22668 8616306
47.412521 -67.375343 123.34865 7037274
144.62547 -66.763 35.136555 11775915
144.52031 -66.80909 35.872707 10064526
48.011677 -66.769463 123.57526 9077113
47.231052 -66.616425 123.65512 9011320
145.26115 -65.284729 34.32777 8617336
145.02472 -65.66452 35.144291 15197668
144.77448 -66.11142 35.872753 13684171
47.948414 -66.069695 123.85538 10590609
47.334946 -65.639893 124.04131 10985367
46.549171 -65.463982 124.13036 9866372
145.46593 -64.682617 34.448845 9932938
145.34108 -64.754784 35.269485 13946568
47.230713 -64.822441 124.36923 6510930
46.599548 -64.508865 124.50934 8156527
45.825554 -64.406921 124.56862 7563619
145.96048 -63.555656 33.749298 8617336
145.78741 -63.775517 34.523304 7959406
145.56628 -64.179771 35.137722 5393738
46.513222 -63.664307 124.84763 8419956
45.799461 -63.650166 124.87052 7038307
146.22823 -62.800568 33.80978 8420211
146.15323 -62.737251 34.626297 6183253
46.352303 -63.104893 125.0742 8814713
45.86068 -62.669056 125.25963 8354164
45.094215 -62.433262 125.37199 9142907
146.76395 -61.575481 33.064747 8881526
146.55905 -61.892212 33.810314 8092011
45.807579 -61.78212 125.6139 8617335
45.001129 -61.493629 125.74828 8287342
147.45282 -60.365112 32.597507 15722454
147.16223 -60.683048 33.153 12828334
146.90237 -60.977116 33.838028 9736578
45.098362 -60.701557 126.10243 10130315
44.272038 -60.366615 126.35648 11183001
147.96541 -59.716328 32.8032 9011318
147.62346 -60.049706 33.193653 10591630
44.399513 -59.811535 126.7926 9011580
43.664299 -59.473812 127.14255 8813686
42.780479 -59.241577 127.56227 8813685
42.952236 -59.080711 128.07712 8221548
42.072823 -58.948559 128.52843 8484720
41.207726 -58.843243 129.03235 8551537
40.860764 -58.840816 130.10941 8880502
39.762157 -58.841324 130.44733 9209467
39.241405 -58.838982 131.57857 6511954
38.289413 -58.839462 131.85719 6511954
37.718739 -58.838013 132.67537 7762021
36.90329 -58.791027 133.36365 9274748
36.384926 -58.478947 133.67914 7761253
36.216003 -57.624393 133.9705 7037275
36.01376 -56.733898 134.23373 7169892
35.462868 -56.431126 134.11418 8945531
35.61356 -55.558502 134.52347 7038307
35.285961 -54.588585 134.76364 7959150
35.247154 -53.790318 135.06148 8485237
34.821583 -53.523598 134.98199 8090736
34.673786 -52.673016 135.25314 9340286
34.508793 -51.676136 135.57448 9866116
34.09507 -51.301907 135.5425 8681843
34.169296 -50.630062 135.83954 9077115
33.827358 -49.743687 136.04057 7761772
33.837234 -48.901115 136.37691 7038307
33.301128 -48.451401 136.32152 6708824
33.280273 -47.575546 136.65646 8222317
32.944977 -46.78212 136.82207 7367008
32.674374 -46.388218 136.85904 5919050
33.108608 -45.955555 137.21735 6445910
32.491169 -45.638229 137.13853 6709082
32.334278 -44.876369 137.64198 6775130
31.800163 -44.455471 137.85489 7301471
30.920395 -43.974239 138.66443 8420463
30.043407 -43.830597 139.14502 10789524
29.632084 -43.827446 140.52626 8091242
28.784885 -43.828072 140.70056 8091242
27.936901 -43.828709 140.87076 8682867
27.328785 -43.825684 142.29883 7564130
26.471024 -43.826351 142.45963 6050892
25.608917 -43.624161 143.59639 8221546
25.246418 -43.303276 143.56624 6510930
25.654453 -43.015377 143.85771 11181972
25.189014 -42.591278 143.82373 8813683
24.985386 -41.605621 144.1263 9867398
24.851818 -40.781223 144.39532 10459535
24.422424 -40.483902 144.32669 6511954
24.403549 -39.616486 144.66264 9209979
24.149105 -38.618263 144.94717 7959656
23.672516 -38.326401 144.85538 7959656
23.720238 -37.628475 145.15091 8881014
23.44693 -36.666752 145.41107 10853780
23.364311 -35.729427 145.74435 10130572
22.902657 -35.406631 145.67123 9143423
22.877483 -34.520798 146.00916 10065804
22.587391 -33.708157 146.20331 10262926
22.068855 -33.364449 146.11368 8681843
22.858154 -33.102951 146.55911 11381404
22.22533 -32.625088 146.47278 9801093
21.986309 -31.586435 146.77811 11643296
21.972679 -30.757151 147.09875 10853780
21.583843 -30.399828 147.12442 9998215
21.171028 -29.774178 147.40579 10853780
20.8675 -29.273314 147.83005 11380380
20.3452 -29.100248 147.99478 10788243
19.892036 -28.835651 148.68686 9142907
19.163364 -28.819113 148.68991 8089963
127.76416 -79.544342 51.930351 9669251
127.43712 -79.574509 52.871696 9142907
128.30228 -78.69928 51.286953 10722195
127.98769 -78.765213 52.150372 10327181
127.64116 -79.07148 52.835602 8089963
129.03159 -77.353401 50.643063 12300970
128.63913 -77.687973 51.433037 9603202
128.27283 -77.92675 52.254097 10195851
129.5318 -76.501442 50.120365 8681843
129.25168 -76.701584 50.728321 9405566
128.93417 -76.760796 51.60815 8681843
130.35382 -75.437317 49.358829 9340286
129.94394 -75.734947 49.964539 9011064
129.59561 -75.83596 50.816853 8813429
129.22214 -76.158737 51.434258 8681843
132.17119 -74.29921 47.877617 9734788
131.52927 -74.449196 48.721111 10064266
130.85806 -74.805077 49.3694 8287600
130.35771 -75.070999 50.221794 8287598
141.61397 -73.685051 39.16827 9209985
141.43381 -73.780846 39.97414 9012350
140.52458 -73.951492 40.569138 12301483
139.97319 -73.95002 41.383904 10326668
138.9198 -73.950272 41.798962 9866117
138.40326 -73.948441 42.73428 7563874
137.51247 -73.947899 43.365479 7630436
136.83356 -73.94693 44.056862 7893608
136.15039 -73.945984 44.741348 9011317
135.05882 -73.945953 45.282883 9405817
134.53142 -73.947578 46.187885 11313044
133.72215 -73.959244 46.629341 10786958
133.11192 -74.07296 47.315678 9340286
132.60945 -74.131851 48.217091 9734788
63.469067 -73.862213 111.19679 11905953
62.932476 -73.862099 111.49988 12103331
62.125164 -73.861938 111.94994 9208443
61.179035 -73.861771 112.46752 9998470
60.654034 -73.860352 113.25037 9932677
59.887859 -73.859375 113.98722 10853521
58.924854 -73.859291 114.48619 8090734
58.457005 -73.85778 115.27825 8419697
57.592628 -73.856995 115.98641 7564648
56.827183 -73.856087 116.6942 8814454
56.159611 -73.855652 117.1812 11183002
55.381653 -73.85479 117.87936 9868423
54.685688 -73.853714 118.61729 8618359
53.981911 -73.852661 119.35133 8749177
53.006084 -73.852318 119.95207 9077118
52.426685 -73.606186 120.74702 9472132
51.725601 -73.284103 120.89221 9865860
142.14883 -72.373978 38.701088 13024949
141.92279 -72.795036 39.301083 10525587
141.74362 -73.034966 40.060307 8617594
52.407612 -72.781891 121.07559 9077375
51.674927 -72.569954 121.1777 8615537
142.37659 -71.790733 38.578197 13024949
142.31314 -71.700989 39.375336 11248539
51.659046 -71.64283 121.54711 9141623
50.893795 -71.526398 121.61198 9470587
142.97408 -70.405663 37.816284 8090987
142.733 -70.799454 38.622765 9538177
51.62746 -70.802628 121.88229 9340027
50.895504 -70.684845 121.94693 10983824
50.187134 -70.222374 122.14816 7629922
143.22928 -69.649757 37.987671 7433057
143.09641 -69.767586 38.732361 9340542
50.999702 -69.767532 122.30952 9011063
50.22567 -69.529793 122.42293 7564899
143.67976 -68.655731 37.26115 8090987
143.55844 -68.77195 37.915081 7959145
143.4128 -68.922028 38.668312 9734273
50.907013 -68.937019 122.64236 7563619
50.147396 -68.703781 122.75362 11709089
49.499622 -68.48951 122.85455 10656657
144.06244 -67.615883 37.235271 7959144
143.84346 -67.989975 37.918247 7827047
50.153038 -67.775993 123.12279 12432812
49.402802 -67.664162 123.18549 9867141
48.790058 -67.227303 123.37425 8813941
144.48943 -66.653084 36.603222 8550772
144.34839 -66.791679 37.356865 9077113
49.514236 -66.682846 123.57339 10393228
48.728516 -66.525909 123.65491 9998215
144.84843 -65.678864 36.568851 12565433
144.63077 -66.049995 37.255363 8287856
49.334354 -65.920349 123.88132 8616048
48.769703 -65.598061 124.02322 9669762
48.025246 -65.562805 124.05531 9603714
145.27405 -64.720352 35.932087 16777215
145.14682 -64.851723 36.593079 12631483
48.631824 -64.715424 124.3779 9012089
47.867676 -64.636497 124.42783 7827046
145.83415 -63.423756 35.200916 5393738
145.60278 -63.8325 35.887852 9604230
145.43793 -64.053459 36.590435 8551027
48.033981 -63.703789 124.79509 7432288
47.179733 -63.486954 124.90207 7761770
146.15453 -62.539837 35.214581 5393738
145.9679 -62.821735 35.913788 5919566
47.905872 -62.964394 125.0925 7563874
47.286125 -62.540051 125.27644 9341055
146.60019 -61.50687 34.63686 8092011
146.44058 -61.746952 35.237694 6841180
146.27193 -61.942524 36.049065 6510930
47.143078 -61.689167 125.61862 9341056
46.423443 -61.676632 125.64102 7893614
147.00214 -60.682549 34.543743 7763046
146.70758 -61.007023 35.332371 7170141
46.485786 -60.769783 126.03233 9275779
45.640949 -60.435364 126.26167 8288885
148.24866 -59.421219 33.146229 7037274
147.84732 -59.705448 33.850986 8617586
147.50514 -59.981377 34.598404 8025705
46.525623 -60.130707 126.48417 8092019
45.762363 -59.811615 126.75891 8551543
44.929752 -59.361282 127.25691 8814201
44.398586 -59.160076 127.78091 9669508
149.51729 -59.025944 33.053101 7037274
148.84863 -59.22683 33.280651 7037274
44.005138 -59.052433 128.13948 11510938
43.503799 -58.912159 128.6969 10129546
42.874966 -58.85228 129.29735 7366239
41.800072 -58.840401 129.81224 9077369
41.45472 -58.837944 130.90167 8880502
40.507496 -58.838371 131.19632 8551537
39.950684 -58.836887 132.02396 6774614
39.030945 -58.83646 132.62503 6511954
38.299469 -58.835072 133.50009 7630952
37.550785 -58.582924 134.13498 10591122
37.38599 -57.873859 134.37961 12433069
36.994202 -57.575768 134.32716 11248796
36.958286 -56.653606 134.67508 9012094
36.616428 -55.685242 134.90845 8025200
36.830437 -54.840858 135.33411 8814715
36.17667 -54.642296 135.12874 11379609
35.988266 -53.609871 135.45398 12563881
36.016052 -52.807411 135.78229 10261391
35.537304 -52.402973 135.73405 11116440
35.398491 -51.652351 135.9697 10853270
35.222282 -50.726673 136.25812 8616823
34.607021 -50.204407 136.1971 9011323
35.414352 -50.025848 136.61755 7038307
34.792007 -49.552975 136.5341 7301222
34.503597 -48.608261 136.78136 8156272
34.377972 -47.83255 137.03227 8814199
33.994614 -47.442169 137.01903 9208958
33.951298 -46.63063 137.31851 8749432
33.726311 -45.734203 137.59775 7564649
33.351685 -45.301285 137.74388 7038307
33.109756 -44.698128 138.14157 7959662
32.37384 -44.196915 138.56735 8091243
32.343002 -43.996063 139.1964 8618099
31.619667 -43.924595 139.1188 7564898
30.985126 -43.826485 140.23558 9342078
30.139801 -43.827084 140.41875 8091242
29.554153 -43.824001 141.85629 6511954
28.698917 -43.824635 142.03012 6774870
27.842945 -43.825287 142.19984 7564130
27.400742 -43.822079 143.61586 5392706
26.498146 -43.49033 143.99516 8550768
26.223812 -42.680988 144.23779 13946818
25.706867 -42.319008 144.15675 14078918
26.310646 -42.058662 144.52243 14078918
25.832474 -41.514969 144.53035 13091767
25.724426 -40.607548 144.84343 12631216
25.504944 -39.818077 145.06128 11907237
25.273579 -39.431377 145.11394 11052184
25.085751 -38.697952 145.32205 9407358
24.834106 -37.64603 145.62714 8222572
24.139305 -37.154984 145.51913 6511954
24.935196 -36.906582 145.96213 9932678
24.414219 -36.554359 145.87491 10064520
24.126003 -35.737968 146.07135 9406848
24.103287 -34.848701 146.4117 10262670
23.638565 -34.525238 146.33748 9934218
23.5555 -33.584251 146.67206 9934218
23.353577 -32.663544 146.94698 9341825
22.903584 -32.398796 146.85608 9144704
23.324493 -31.913212 147.22986 7037274
22.892437 -31.568291 147.17828 10064777
22.685246 -30.556519 147.51151 9932937
22.705921 -29.922733 147.95107 7564651
21.983204 -29.526627 147.99631 9670022
21.281834 -29.160532 148.18753 10064779
21.207478 -28.917589 148.95242 10788243
20.641617 -28.880636 148.83072 9142907
19.784725 -28.813055 150.66263 10261643
19.058277 -28.813742 150.75528 7695205
127.21841 -79.596428 53.499416 9142907
127.06149 -79.432716 54.153698 10064520
126.78621 -79.464195 54.939251 12432037
127.56547 -78.786057 53.386322 8221549
127.31195 -78.68367 54.259178 10195592
127.02898 -78.89563 54.862125 11182228
128.28888 -77.563225 52.619946 9932679
127.92601 -77.685158 53.563679 8090219
127.5779 -77.994064 54.250591 9735556
128.87833 -76.54763 52.017387 8681843
128.54181 -76.75724 52.782639 9340286
128.20972 -76.848251 53.669918 8550770
129.63356 -75.473068 51.416515 9405566
129.18202 -75.820503 52.066593 9010808
128.79294 -75.94442 53.01358 10524303
131.43031 -74.30925 49.946148 9603714
130.74806 -74.515091 50.769428 8089963
130.13622 -74.839317 51.434162 8747893
129.6882 -75.047432 52.269531 9273980
141.54581 -73.392471 40.618359 8683130
141.24722 -73.657623 41.392265 9209216
140.41736 -73.947144 42.251129 9734531
139.56743 -73.946968 42.72765 8418671
139.00685 -73.945541 43.532104 7958120
138.19437 -73.944992 44.130039 8222057
137.38542 -73.944458 44.721664 8878703
136.81602 -73.943092 45.508373 9339254
135.97487 -73.942986 45.9552 9208435
135.43259 -73.941254 46.862743 9866109
134.3895 -73.941628 47.225609 9800319
133.85214 -73.945 48.124004 9472386
132.88173 -73.998268 48.71447 10525330
132.38617 -74.069748 49.473938 9801865
131.86499 -74.142822 50.293209 9735044
67.968178 -73.863579 108.51524 10985878
67.444481 -73.863388 108.84005 7959400
66.524391 -73.863075 109.40251 10129797
65.599815 -73.862785 109.9576 10195593
64.898277 -73.861671 110.71191 7564651
64.18689 -73.861259 111.20901 8288116
63.562359 -73.859985 111.98784 12432296
62.615871 -73.859795 112.5175 9208443
61.978893 -73.858551 113.29038 10195336
61.333027 -73.85733 114.06021 9340540
60.369419 -73.857208 114.57138 10129799
59.815205 -73.855858 115.34126 9011317
59.045109 -73.854843 116.09505 10195074
58.218037 -73.85424 116.72078 8681835
57.616142 -73.853432 117.31168 8484977
56.840786 -73.852539 118.0222 10195851
55.951473 -73.851814 118.72464 8354161
55.448238 -73.850342 119.5183 8749945
54.576588 -73.832108 120.09249 7828844
53.787243 -73.60096 120.62172 9800840
53.27956 -73.19696 120.88921 11379356
141.80081 -72.66423 40.707798 9669765
141.67375 -72.745285 41.515583 9472387
53.855076 -72.658913 121.08947 10853013
53.076641 -72.63089 121.1195 9077375
142.30936 -71.494156 40.032593 9011838
142.10124 -71.819 40.774822 9011838
53.070858 -71.746155 121.47178 8617336
52.375492 -71.45327 121.60521 8551028
142.59961 -70.698677 40.033554 9406595
142.43523 -70.954483 40.621914 9011838
53.092113 -70.779533 121.85604 7894639
52.285896 -70.558746 121.96347 8747891
143.09662 -69.571693 39.323597 9867145
142.90289 -69.875061 40.011147 8748923
52.421127 -69.576874 122.35101 7760998
51.593575 -69.628174 122.3506 9603199
143.54738 -68.541565 38.70388 9734273
143.37926 -68.772064 39.399754 9603202
143.21072 -69.003891 40.095589 10459281
52.303745 -68.806282 122.66058 7563619
51.632275 -68.700706 122.71889 8155755
50.887787 -68.352203 122.87563 10524558
143.87134 -67.713257 38.524719 8550257
143.71072 -67.869583 39.382862 9931652
51.587711 -67.715179 123.11229 8221548
50.889027 -67.538834 123.19937 11051159
144.36949 -66.585594 37.806732 11378583
144.19688 -66.759903 38.710484 9734273
50.888622 -66.668228 123.54594 9800064
50.161598 -66.647461 123.57179 10195335
144.6481 -65.781868 37.924652 9604227
144.52544 -65.868431 38.683025 8747893
50.730663 -65.775726 123.90501 10851980
50.058189 -65.678108 123.96019 9076342
49.440018 -65.243195 124.14828 7563619
145.18437 -64.555901 37.177959 8354163
145.01607 -64.731339 38.047112 8617335
50.11504 -64.696243 124.34966 8944756
49.37772 -64.542915 124.42854 8616818
145.49686 -63.676605 37.243092 7695977
145.37413 -63.742714 38.06435 9143678
49.413628 -63.649914 124.78313 8287596
48.668152 -63.582523 124.82805 7563874
145.95271 -62.647701 36.568001 6774102
145.79715 -62.80764 37.378284 7695461
49.303028 -62.806725 125.12146 7695460
48.584263 -62.63406 125.20759 8353646
146.26419 -61.753307 36.687134 7103067
146.07524 -62.005924 37.494755 7958632
48.676514 -61.725235 125.56714 9077114
47.815067 -61.510513 125.67345 9669765
146.8707 -60.603252 35.894554 5920074
146.56241 -61.000053 36.653431 8879990
48.716202 -61.008381 125.85151 11709090
47.891537 -60.614082 126.09235 8682614
47.051247 -60.286461 126.34622 9407365
148.25574 -59.350803 34.83707 8879987
147.66449 -59.689232 35.260498 7301469
147.38353 -59.916889 36.006474 6577747
47.944134 -59.983162 126.5674 14076870
47.150455 -59.700359 126.82201 10722711
46.334972 -59.319496 127.2926 8025714
45.524147 -59.223866 127.54363 8814201
150.41687 -58.957745 33.442535 8353389
149.22864 -59.079704 33.969116 8418669
148.62125 -59.247311 34.545696 11378324
46.354038 -59.09959 127.92221 8092019
45.672909 -59.017086 128.20792 7893358
44.913792 -58.916073 128.56931 9537665
44.186893 -58.838562 129.35216 11774369
43.656261 -58.837017 130.1875 9405822
42.556911 -58.837463 130.54901 8813685
42.055954 -58.835037 131.70216 8550769
41.10302 -58.835461 132.00107 9011064
40.54528 -58.833946 132.83876 7432032
39.781811 -58.833427 133.40033 8091247
39.013485 -58.83292 133.96161 9210496
38.447407 -58.506611 134.59055 8552567
38.21476 -57.609158 134.84338 10262415
38.105583 -56.620197 135.18578 11051418
37.710037 -56.322731 135.13148 11183260
37.533573 -55.600117 135.33975 10064780
37.452251 -54.634636 135.68501 8748664
36.891468 -54.333027 135.56068 8814715
37.340614 -53.91214 135.9213 8089963
36.922283 -53.528282 135.89119 9603716
36.698456 -52.626251 136.14963 8814460
36.644081 -51.740597 136.47514 7630443
36.187164 -51.342079 136.43402 8090737
36.138885 -50.621792 136.69696 7893615
35.851524 -49.670784 136.94716 7235429
35.937462 -48.920712 137.28006 9735812
35.374428 -48.634315 137.14874 8354163
35.241673 -47.613491 137.49318 9143675
35.195038 -46.695713 137.83313 9012089
34.760715 -46.439407 137.74506 8288366
34.562859 -45.615398 138.05386 7630698
34.347538 -44.947212 138.45566 8091248
33.873474 -44.478447 138.64066 8749432
33.613926 -44.122826 139.32883 10263180
33.059265 -44.000725 139.48438 9868423
32.167488 -43.826759 139.9742 8618099
31.60199 -43.822544 141.41685 7563619
30.919991 -43.823021 141.56639 7169373
30.066654 -43.823627 141.74915 6511954
29.301617 -43.820633 143.24271 5919050
28.438206 -43.821278 143.41542 6313551
27.762188 -43.525669 144.57123 6510930
27.180424 -43.43269 144.3553 6510930
27.198593 -42.594288 144.69583 10524815
26.932095 -41.622578 144.96553 13025462
26.986908 -40.9212 145.26758 11907237
26.556805 -40.561634 145.22337 12104872
26.35704 -39.542343 145.54063 9867398
26.281097 -38.598751 145.87955 7696228
25.875263 -38.335052 145.80739 7433312
25.73315 -37.605217 146.03317 8748660
25.53965 -36.675835 146.31522 9932678
24.985279 -36.203312 146.26083 9932678
25.399185 -35.901299 146.5592 11380380
25.104767 -35.448246 146.60997 11117208
24.769943 -34.635216 146.7849 10920086
24.761238 -33.826611 147.09956 10591633
24.268379 -33.387508 147.05872 9868424
24.820545 -32.977127 147.45972 10263180
24.180214 -32.49453 147.37209 8946808
24.064686 -31.580256 147.68204 7366495
23.978573 -30.915068 147.90654 7037274
23.567707 -30.621828 147.85339 7629923
23.419647 -29.858717 148.31006 7893614
22.782402 -29.347666 148.45454 8156787
22.532589 -29.005032 149.2347 10064779
21.96386 -28.967335 149.11401 10064779
21.23624 -28.811714 150.46617 8089963
20.329243 -28.812548 150.59065 9142907
18.949955 -28.808229 152.87523 6511954
126.57863 -79.410309 55.513172 9932419
126.16442 -79.458221 56.194687 9340796
125.58026 -79.565002 57.127548 9603711
125.17598 -79.52684 57.854069 8682867
127.15394 -78.521225 54.91552 9932419
126.8475 -78.72094 55.508732 9932419
126.37619 -78.677757 56.391773 8879989
125.84093 -78.946236 57.123405 8880246
125.38051 -79.159805 57.765278 8682867
127.5002 -77.711418 54.80405 8748148
127.15929 -77.786263 55.643642 9997956
126.6996 -77.873535 56.412991 10721934
128.17813 -76.539436 54.115562 9340542
127.85878 -76.612747 54.98489 8945528
127.44312 -76.948662 55.766445 8879734
128.95976 -75.517563 53.31496 10195082
128.53694 -75.710808 54.193172 9537664
128.1655 -75.791618 55.10424 9274749
130.53583 -74.378746 52.045742 9471871
129.99051 -74.550484 52.872807 9537408
129.34793 -74.920815 53.58419 9668738
129.00906 -75.066223 54.245174 9537408
141.29994 -73.560989 42.146515 8090995
141.19576 -73.611771 42.856171 9011066
140.49774 -73.922264 43.38327 9273464
139.75557 -73.94297 44.136757 8549739
138.93451 -73.942429 44.735756 8681581
138.23973 -73.94146 45.430382 11247506
137.48538 -73.940163 46.283363 9339254
136.42715 -73.940521 46.657627 9734523
136.08569 -73.938339 47.639935 9011575
135.032 -73.938736 48.000187 9537919
134.41942 -73.936699 49.060062 9012863
133.57329 -73.936668 49.479626 9341571
133.02771 -73.943886 50.371464 9670279
132.08969 -74.019119 50.833992 10919574
131.61731 -74.084778 51.580929 9669507
131.09987 -74.160301 52.3624 10130057
73.245476 -73.869545 105.04537 9340541
72.480789 -73.865646 105.56476 9011573
71.588364 -73.865181 106.17011 9341051
70.819283 -73.864799 106.68281 10065801
70.046478 -73.864441 107.19003 14078918
69.272079 -73.863327 107.98087 10920341
68.620354 -73.862289 108.68405 9670275
67.830284 -73.861229 109.46502 8551537
67.037498 -73.860954 109.95053 9998211
66.339722 -73.85981 110.71666 9866626
65.720184 -73.859161 111.25613 8748664
64.87413 -73.858025 112.09158 8617080
63.926937 -73.857796 112.63271 14603461
63.397083 -73.856369 113.41948 12893102
62.650986 -73.85527 114.19701 8681843
61.824104 -73.855141 114.64507 9142650
61.170048 -73.853912 115.42036 10853012
60.507957 -73.852699 116.19225 9866373
59.666805 -73.852631 116.62468 14142398
58.992741 -73.851448 117.39108 9800316
58.310711 -73.850296 118.15385 9734785
57.350296 -73.849831 118.79117 9471872
56.826096 -73.793755 119.61342 8156012
56.113651 -73.591988 120.29218 9144702
55.205883 -73.51825 120.66867 8486773
141.62117 -72.674194 42.166679 8419959
141.49225 -72.831551 42.758888 9143166
56.002537 -72.870422 120.71822 7564651
55.249577 -72.766533 120.99617 8288628
54.480179 -72.578613 121.10628 9933194
142.1721 -71.393959 41.473507 8551288
141.9274 -71.862869 42.08297 9011580
55.230358 -71.940193 121.34225 9407363
54.458019 -71.661224 121.47203 10591123
53.972126 -71.191887 121.67056 9012606
142.42157 -70.730576 41.412468 7630444
142.31767 -70.766396 42.16539 10261645
54.498611 -70.662407 121.86864 10459537
53.76696 -70.627541 121.90021 9144192
142.88591 -69.708771 40.655098 9011838
142.76016 -69.803993 41.409431 9472387
53.696728 -69.778282 122.23995 10262158
53.058777 -69.453964 122.38451 8288112
143.2534 -68.661827 40.776485 11446174
143.07341 -68.900894 41.545094 11775139
53.785015 -68.92717 122.57664 9933451
52.967808 -68.561432 122.74202 7827304
143.66135 -67.777618 40.0704 11707291
143.5761 -67.747948 40.866508 11379607
53.076519 -67.643539 123.10474 9077370
52.242008 -67.696533 123.10384 8945528
144.30341 -66.281265 39.275875 9734273
144.06165 -66.67379 40.091911 9800065
143.80646 -67.132736 40.818741 10853004
52.98476 -66.812035 123.438 11380380
52.234276 -66.73185 123.48808 10064265
51.556263 -66.361862 123.65174 8287084
144.50795 -65.677971 39.405109 9405308
144.37816 -65.761299 40.229134 10853004
52.261951 -65.724121 123.88849 9011577
51.460548 -65.535408 123.98304 9010549
145.00681 -64.536354 38.715862 8617335
144.8396 -64.763626 39.418995 10064263
144.67184 -64.992134 40.122055 10853004
51.610477 -64.613594 124.34636 10128772
50.769703 -64.670761 124.34395 9734014
145.29779 -63.737026 38.717285 8814713
145.18758 -63.777718 39.511791 10590349
51.369263 -63.958576 124.61287 10851980
50.791691 -63.668781 124.74225 9011062
50.06826 -63.429253 124.85515 8616048
145.81432 -62.538342 38.052406 9406592
145.60542 -62.86602 38.797672 9011833
50.77541 -62.712017 125.1235 9011832
49.966694 -62.502499 125.22651 7958631
146.17247 -61.566078 38.019032 8551281
145.96811 -61.876415 38.779545 7761509
50.083427 -61.566868 125.59611 7893095
49.316002 -61.602631 125.60049 9340286
146.70454 -60.604671 37.277954 7234653
146.47707 -60.783237 38.159473 6972249
49.955906 -60.825825 125.8942 7037274
49.283703 -60.622971 126.05489 11182746
48.524906 -60.347332 126.26107 9340286
148.38782 -59.269741 35.810539 5920074
147.68144 -59.579655 36.715546 9011572
147.18774 -59.951286 37.399845 9603711
146.90137 -60.216599 38.080425 10261132
49.201763 -60.02108 126.50597 12498606
48.551834 -59.688374 126.78889 9866630
47.829845 -59.257805 127.37849 11643556
47.161968 -59.147118 127.74628 14076870
151.5388 -58.955635 33.693256 12432551
150.29475 -58.956455 33.984661 7695714
150.12851 -58.954746 34.706898 7695714
149.12537 -59.061337 35.230625 8287594
148.95697 -59.077637 36.137672 5920074
47.062206 -59.01104 128.18933 13024696
46.255455 -58.885551 128.8156 9077628
45.533535 -58.836315 129.54601 9340795
44.802219 -58.83569 130.13257 9340542
44.270947 -58.834126 130.97775 9341309
43.323154 -58.834499 131.29282 10855060
42.77961 -58.832935 132.13974 8946808
41.865765 -58.832443 132.76407 10853012
41.147224 -58.830975 133.66214 6971481
40.380318 -58.830444 134.2309 7235423
39.51667 -58.583092 134.8871 10592146
39.666626 -57.786243 135.40324 10065803
39.131725 -57.550457 135.26416 10591890
38.881783 -56.717663 135.48402 10196621
38.78331 -55.758556 135.81931 10722451
38.362476 -55.368324 135.79062 11381404
38.333416 -54.686409 136.04675 10393997
38.05101 -53.722874 136.30402 10065032
37.423084 -53.233421 136.22458 10262411
38.051086 -53.02367 136.57962 9670019
37.584763 -52.455345 136.60141 8419699
37.550747 -51.633808 136.9104 7827564
37.155212 -50.80558 137.06528 10458767
36.773636 -50.307877 137.09599 10524560
37.401558 -50.09037 137.45395 10853265
36.775875 -49.562939 137.39055 10195336
36.660606 -48.595066 137.72198 9011064
35.995895 -48.412128 137.50591 9735812
36.465397 -47.810658 137.9465 7564643
36.165604 -47.519783 137.93103 8288366
35.916618 -46.611362 138.17961 9077882
35.887653 -45.87532 138.46204 9341054
35.378216 -45.378857 138.55794 9735812
35.237946 -44.760048 138.98889 11117465
34.537647 -44.264687 139.32416 11906980
34.503887 -44.011936 140.05936 13024949
33.771275 -43.93858 139.98413 10130057
33.133411 -43.821507 141.06746 8616562
32.112831 -43.822189 141.30231 7563619
31.541523 -43.819016 142.76927 7563619
30.853104 -43.819496 142.91841 6445394
29.991619 -43.820122 143.10075 5919050
29.218071 -43.817078 144.61588 9537409
28.584206 -43.543648 144.89308 9932422
28.349709 -42.7896 145.11852 9011064
27.862411 -42.298271 145.10175 9735043
28.47821 -42.037739 145.47266 10853524
27.840206 -41.532558 145.39587 10853524
27.735355 -40.618069 145.71313 10064267
27.65675 -39.952942 145.94264 9866887
27.245697 -39.64362 145.88634 9341053
27.114182 -38.67144 146.21231 8683123
26.913116 -37.647224 146.5284 8090986
26.478386 -37.290813 146.48022 6511954
26.532368 -36.584354 146.78181 7169628
26.154507 -35.686749 146.97139 7695716
26.272617 -34.762959 147.38635 6511954
25.697239 -34.512314 147.23553 7761765
25.56588 -33.602314 147.5369 8880246
25.433407 -32.691162 147.83826 9340797
24.857868 -32.445179 147.68544 8090730
24.972534 -31.518036 148.10031 8617330
24.666691 -30.515966 148.38258 8814709
24.137051 -29.567226 148.89877 9735556
23.293938 -29.055859 149.39485 9143423
22.685795 -28.810411 150.25601 7564651
21.961262 -28.811056 150.36313 7564651
20.422741 -28.806839 152.68698 8089963
19.686558 -28.807531 152.7825 7563874
124.93316 -79.505081 58.289513 10591124
124.60921 -79.477661 58.869427 10591124
124.12271 -79.439171 59.738262 7039331
123.71684 -79.40966 60.461349 8486262
125.80267 -78.55661 57.470615 8090989
125.33703 -78.722694 58.155838 8814715
124.8347 -78.689697 59.048172 10591124
124.33249 -78.798119 59.838234 7499626
123.92012 -79.041328 60.375706 7039331
126.61735 -77.447235 56.862793 10590606
126.11804 -77.687988 57.552296 10656913
125.56889 -77.67701 58.509666 8814715
125.00894 -77.879608 59.331566 7433065
127.37171 -76.528542 56.221527 9801092
126.89581 -76.608719 56.986412 9998727
126.34503 -76.748451 57.837868 11972773
125.94394 -76.776619 58.510998 13223354
128.66991 -75.242897 54.832474 9537921
128.2524 -75.451401 55.594212 9208444
127.78139 -75.582733 56.401264 9273980
127.2449 -75.702278 57.141819 9077369
126.60129 -76.10099 57.862045 11117464
130.06985 -74.343605 53.58987 9537408
129.82646 -74.351807 54.22139 9537408
129.21706 -74.596352 54.942734 10261131
128.67741 -74.846748 55.751514 9011065
128.26689 -74.951088 56.491859 8089963
141.15862 -73.471817 43.587093 9207155
140.96356 -73.706291 44.270947 8549739
140.35699 -73.840286 44.971607 7563615
139.57111 -73.939079 45.683548 7958115
138.7438 -73.938568 46.275169 10589577
138.15958 -73.93721 47.066692 9076599
137.09009 -73.937592 47.438251 9997958
136.74329 -73.93541 48.425457 10261132
135.67903 -73.935822 48.78302 9275008
135.32253 -73.933678 49.759972 8881277
134.26338 -73.934113 50.103725 8881277
133.89745 -73.932007 51.070419 9208957
132.84352 -73.932487 51.400513 9801092
132.16531 -73.95369 52.310135 9932934
131.28859 -74.039001 52.987923 8813941
130.80176 -74.130447 53.524136 8287341
130.31369 -74.184532 54.425034 9076857
78.198967 -74.083344 101.88857 10721678
77.551102 -74.051796 102.31263 8945529
76.772186 -74.015259 102.81787 9471358
75.991356 -73.980125 103.31932 6511962
75.254875 -73.902977 104.14483 8024944
74.355713 -73.884048 104.74736 9340545
73.750671 -73.868797 105.36618 9537665
73.023468 -73.863571 106.08349 9011573
72.126389 -73.863098 106.69304 8024935
71.326622 -73.862106 107.44993 8552562
70.752708 -73.861076 108.11148 8618355
70.031334 -73.860352 108.73589 8618355
69.277039 -73.859444 109.4353 8420208
68.484467 -73.859146 109.9313 7564899
67.779106 -73.85788 110.74106 7827302
67.088882 -73.856804 111.48281 7366495
66.195595 -73.856079 112.18715 6511186
65.409286 -73.855278 112.86337 7301470
64.753723 -73.854546 113.45619 9998727
64.11615 -73.853249 114.24835 10261386
63.288967 -73.853088 114.70692 10129287
62.439869 -73.85218 115.45747 8748403
61.981304 -73.850578 116.27778 6511954
61.139462 -73.850479 116.72092 9405822
60.26965 -73.849632 117.45777 11510935
59.765583 -73.647942 118.45988 8616043
58.965054 -73.571342 118.90564 10721936
58.088985 -73.510071 119.39297 10787988
57.224026 -73.333305 119.9306 9932679
56.52383 -73.220398 120.32077 9144702
141.4857 -72.630882 43.420414 8616306
141.29344 -72.791916 44.326118 8484203
58.993317 -72.7332 119.30061 9406079
58.317059 -72.541382 119.71075 9011321
57.433666 -72.536774 120.14763 9142907
56.499554 -72.438202 120.64724 8025200
55.70763 -72.281975 121.10004 8354421
141.99086 -71.478157 42.720829 9537665
141.79265 -71.732925 43.593048 8287342
58.184021 -71.785927 120.08008 9011321
57.57156 -71.647232 120.43744 9011321
56.768742 -71.618378 120.84433 8814714
55.819195 -71.599297 121.30685 8222836
142.29897 -70.603912 42.811893 11774883
142.10234 -70.894653 43.561943 9537665
57.428539 -71.080345 120.73579 11906725
56.847546 -70.832321 121.12157 10591890
56.035633 -70.740639 121.55828 9209728
55.156178 -70.641602 121.86099 9012349
142.70105 -69.709915 42.183739 9932934
142.59717 -69.757698 42.900013 12301227
142.42552 -69.997864 43.596783 11511711
56.105598 -69.890327 121.86574 10328462
55.210575 -69.663773 122.23675 7762283
54.516346 -69.399467 122.37091 9012606
143.09689 -68.649261 42.111797 10196106
142.86331 -69.027428 42.903744 10393485
55.200222 -68.659889 122.64875 7433057
54.385132 -68.594688 122.69444 8748917
143.56967 -67.556419 41.499546 9932934
143.37695 -67.855179 42.192741 8880246
54.470882 -67.748131 123.02934 9077882
53.680458 -67.50499 123.14529 8880503
143.87427 -66.739716 41.445515 8155756
143.71454 -66.929131 42.196342 8485489
54.375187 -66.85408 123.38753 8814710
53.722618 -66.576485 123.51389 10064520
53.042156 -66.471085 123.57234 11380380
144.35182 -65.608849 40.908329 8353134
144.22818 -65.75248 41.498672 8221292
53.680328 -65.589577 123.90775 10722450
52.921932 -65.703972 123.88055 10590865
144.87276 -64.42292 40.176674 9735297
144.6602 -64.792595 40.821945 8616305
144.53479 -64.883911 41.585239 8089963
52.987423 -64.716614 124.27202 9208956
52.234665 -64.518333 124.36919 11380380
145.18724 -63.580769 40.111946 11708315
145.03424 -63.752541 40.864868 9208954
52.886982 -63.743324 124.66187 10130055
52.132736 -63.547222 124.75819 9932677
145.49982 -62.707188 40.159184 12168866
52.193729 -62.563572 125.14829 9932934
51.435619 -62.685005 125.1183 10393485
145.9646 -61.664982 39.450005 9998215
145.81238 -61.833733 40.205921 10721678
51.512978 -61.694454 125.51071 9998727
50.727886 -61.446091 125.62859 8682867
146.69069 -60.361504 38.905903 8156267
146.38049 -60.710381 39.452839 8419440
146.12654 -60.993111 40.139709 10261132
51.446621 -60.887592 125.8371 10130314
50.674892 -60.529648 126.08149 8682867
49.955433 -60.206284 126.33881 7037274
148.07953 -59.301552 37.436382 10855060
147.57547 -59.521252 38.102875 10591120
147.0983 -59.852543 38.76107 9603458
50.744507 -59.917984 126.55063 8222062
49.972683 -59.607162 126.83043 8089962
49.10247 -59.265106 127.31148 8419184
152.71654 -58.95393 33.763809 12433322
152.63443 -58.95306 34.130795 14604230
151.33234 -58.953472 34.60334 8879474
151.12077 -58.951324 35.512306 5920074
149.82944 -58.951763 35.968719 7761763
149.08331 -59.044197 36.865108 9735296
148.681 -59.105873 37.588776 10855060
49.301556 -59.102745 127.83067 7563874
48.392536 -58.988792 128.22496 8617590
47.715946 -58.840694 128.77463 12762034
46.990406 -58.83493 129.36218 10394001
46.31641 -58.83337 130.27164 10261897
45.425106 -58.832787 130.92111 11116690
44.893223 -58.831196 131.77628 9011574
43.939644 -58.831566 132.09578 8222829
43.395336 -58.829979 132.95282 8617587
42.638138 -58.829399 133.53442 8353903
41.875954 -58.828831 134.11591 7432032
41.148903 -58.827351 135.02087 6510930
40.458736 -58.450745 135.48199 8551796
40.221436 -57.543541 135.73952 8419184
40.218231 -56.685139 136.07642 8813686
39.674511 -56.484806 135.91959 11379356
39.67524 -55.498753 136.30852 9142651
39.422478 -54.665684 136.52721 8550770
38.883446 -54.436829 136.38365 8616563
39.046711 -53.55249 136.80301 8748149
38.714161 -52.569817 137.04605 8814456
38.680119 -51.760605 137.35023 9274751
38.240402 -51.490822 137.26587 9011323
38.093716 -50.62854 137.54211 9603201
38.027893 -49.591293 137.92236 11248023
37.46294 -49.579632 137.68196 8681843
37.577488 -48.630268 138.10579 12037794
37.238609 -47.658485 138.34181 9471358
37.255478 -46.803162 138.68579 6840151
36.820946 -46.486443 138.62134 6446418
36.593166 -45.591114 138.94678 7170141
36.48391 -44.934734 139.38867 7170141
35.897396 -44.577522 139.43001 8683123
35.606728 -44.123528 140.1691 9012088
35.048084 -43.999477 140.32942 10590608
34.323643 -43.822647 140.79118 9143418
33.087677 -43.817963 142.42035 9274749
32.057354 -43.818657 142.65492 11511711
31.479511 -43.81543 144.14348 7563619
30.784431 -43.815926 144.29233 7366240
29.931099 -43.668884 144.99841 9011321
29.35598 -43.425671 145.30347 9142651
29.347763 -42.530792 145.65497 9011578
29.064796 -41.699814 145.86168 9537924
28.522255 -41.509373 145.70146 10458767
28.960648 -41.0401 146.07814 7564651
28.604652 -40.52673 146.12714 8945789
28.402103 -39.525612 146.43456 9998218
28.215542 -38.782341 146.64632 10392974
27.839943 -38.490852 146.59824 10788243
27.840462 -37.655483 146.92737 9341053
27.652252 -36.673737 147.23235 8551281
27.359898 -36.156773 147.3091 8682867
27.06789 -35.640575 147.38574 8485487
26.87746 -34.65979 147.68936 8748659
26.874695 -33.821037 148.01843 7959144
26.376293 -33.377129 147.9771 8222316
26.350471 -32.655277 148.25012 9406590
26.095116 -31.792688 148.47906 9209213
25.732925 -31.288927 148.52029 9144187
26.154854 -30.975567 148.82675 7564651
25.595894 -30.514336 148.79883 8288371
25.363735 -29.735859 149.24867 7893615
24.868023 -29.282196 149.5331 9077373
23.994473 -28.858553 150.32256 8353909
21.893703 -28.805487 152.48419 9800836
20.974621 -28.806328 152.61256 10063750
19.5853 -28.801857 154.95911 13551549
19.211826 -28.802214 155.00552 8814709
123.47304 -79.39312 60.89473 15721430
123.06627 -79.367714 61.616337 14076863
122.49599 -79.335762 62.625401 10788244
122.08797 -79.315765 63.345257 10261899
124.1776 -78.422531 60.377045 7039331
123.71628 -78.64579 61.013504 11774880
123.22708 -78.61554 61.881092 12827052
122.72607 -78.696556 62.688816 10854037
122.28995 -78.945816 63.263023 10788244
125.12111 -77.410324 59.476231 7893615
124.50963 -77.746414 60.290916 7301477
124.01987 -77.713036 61.16177 9274747
123.54999 -77.722237 61.967453 10064262
125.76707 -76.634155 58.919487 11315103
125.3159 -76.743629 59.620552 8157043
124.81387 -76.815422 60.43676 8157555
124.33702 -76.909813 61.193016 9143419
123.87421 -77.133995 61.831329 8682867
127.56673 -75.224777 57.285885 8682867
126.71492 -75.600235 58.189793 11314843
126.1144 -75.789673 59.019485 11644322
125.60822 -75.797676 59.890663 8420727
125.09335 -75.982544 60.570797 8092019
128.94211 -74.433075 56.271297 9997960
128.32062 -74.600784 57.068726 8616307
127.6338 -74.855019 57.730778 8419440
127.13708 -74.899094 58.521667 9801604
126.53767 -75.062347 59.309227 12368043
84.000061 -74.436462 97.980209 10261132
83.466736 -74.382729 98.31115 9405822
82.698181 -74.332069 98.842712 9537150
81.803169 -74.278458 99.46254 8089963
80.905838 -74.226677 100.07722 8617074
80.134674 -74.183975 100.59967 8090987
140.59369 -73.641724 45.520058 6511954
140.30939 -73.702301 46.299393 8484718
139.63249 -73.818512 46.914642 10786961
138.89549 -73.934593 47.691357 8681843
138.02765 -73.934525 48.13583 9274237
137.46419 -73.9328 49.054039 10261132
136.59863 -73.932762 49.486134 8814971
136.02846 -73.931076 50.392185 8420469
134.95905 -73.931541 50.734379 9208957
134.58855 -73.929428 51.706066 9208443
133.46146 -73.929565 52.194756 8682355
132.81601 -73.92762 53.234966 7563874
131.9572 -73.927681 53.627892 6971481
131.33435 -73.959442 54.407764 7497825
130.52704 -74.063904 54.97546 7695205
130.03989 -74.134644 55.711475 10524816
129.5061 -74.214973 56.480721 9734531
81.719063 -74.104042 100.09512 8089963
81.20401 -74.075073 100.44706 8617074
80.430382 -74.032639 100.97176 8617074
79.508293 -74.067131 101.30531 8617076
78.737091 -74.000175 101.9123 9143162
77.951889 -73.886581 102.94646 8222061
77.28009 -73.86676 103.50047 10326409
76.528282 -73.864479 104.05178 9471358
75.991104 -73.862907 104.90059 9931910
75.231094 -73.862427 105.44514 9735046
74.33931 -73.8619 106.07333 9800837
73.442497 -73.861404 106.69437 9011573
72.878624 -73.859901 107.53012 10064006
72.193031 -73.859314 108.07988 10261642
71.521629 -73.85804 108.8811 9998209
70.601044 -73.857635 109.47794 9340023
69.675697 -73.857254 110.06738 9866372
69.182137 -73.855698 110.88449 12234661
68.470688 -73.854439 111.7025 9077112
67.661697 -73.854172 112.19263 8222317
66.877716 -73.85334 112.88085 7300702
66.224396 -73.85257 113.4839 9143674
65.591385 -73.85125 114.28779 9735555
64.763847 -73.851067 114.75702 9340541
63.917492 -73.850113 115.52081 9734786
63.37344 -73.849037 116.18315 9734786
62.626301 -73.629692 117.03825 7235421
61.750416 -73.556587 117.54599 9274236
60.891701 -73.429832 118.06015 8682354
60.141361 -73.330627 118.49504 8419182
141.27994 -72.363693 44.928116 8746861
140.92224 -72.743782 45.562523 7432542
140.58786 -72.893539 46.389782 9405305
62.609539 -72.880318 117.46075 8484976
61.980083 -72.633476 117.86998 9932678
61.171009 -72.541451 118.30536 8156269
60.194981 -72.466515 118.81616 8419698
59.438503 -72.49617 119.17673 10261132
58.704174 -72.140007 119.68153 9011321
141.53545 -71.788467 44.821072 8879476
141.20699 -71.820053 45.765274 8286825
61.17976 -71.674286 118.64981 7038301
60.431179 -71.635353 119.03403 7433060
59.38142 -71.705444 119.5228 8288112
58.563499 -71.571678 119.97934 9011321
57.951027 -71.431839 120.33714 9011321
142.10083 -70.658943 44.24728 9537665
141.81505 -70.869942 45.033035 8418928
141.45291 -71.205879 45.731171 8286826
60.431362 -70.958046 119.30624 4999746
59.732559 -70.754707 119.73215 5394248
58.750351 -70.687256 120.24297 7826791
57.815605 -70.679001 120.70656 8813942
57.103603 -70.374321 121.17969 8814971
142.56009 -69.615585 43.63726 11511711
142.44696 -69.662361 44.353256 9340028
142.19902 -69.868889 45.027626 8155755
59.620537 -70.009544 120.08694 4342073
59.040096 -69.756943 120.47433 8090219
58.164234 -69.694298 120.93082 7497826
57.177551 -69.63398 121.44096 8946041
56.3083 -69.410469 121.95886 9735299
142.90887 -68.708199 43.49189 9209211
142.81769 -68.698036 44.278561 8682867
58.302052 -68.809586 121.21873 8287598
57.520397 -68.60305 121.68665 8945527
56.536037 -68.645348 122.15437 8156267
55.739727 -68.504379 122.59745 7827558
143.45602 -67.444969 42.778076 8682867
143.25343 -67.726242 43.606457 8485745
57.452511 -67.780388 122.05087 8550769
56.76392 -67.596771 122.4638 8156011
55.862423 -67.594978 122.89473 7564643
55.217312 -67.399002 123.15025 8485745
143.72455 -66.683304 42.856777 8551281
143.58069 -66.801178 43.692776 10064262
56.621189 -66.850273 122.83421 8287597
56.031033 -66.607246 123.22254 6840919
55.044697 -66.644119 123.45492 8222573
144.21005 -65.586563 42.151043 9668734
144.06006 -65.731758 42.95507 10195335
143.82181 -66.158356 43.639046 8090987
55.169392 -65.748817 123.80536 8551539
54.345402 -65.571678 123.89876 9735812
144.54694 -64.662743 42.153591 10918799
144.39029 -64.836678 42.925819 12300452
55.073437 -64.857361 124.16548 9670277
54.340534 -64.605354 124.28353 9275261
53.757347 -64.307678 124.41618 8682867
145.0293 -63.544796 41.536217 10524299
144.82124 -63.864418 42.295094 11181973
54.371899 -63.595779 124.68469 9275261
53.517124 -63.648933 124.68419 10919314
145.33629 -62.700314 41.541779 10130824
145.18063 -62.887039 42.271839 9012602
53.67255 -62.725281 125.04814 11708829
52.858902 -62.538704 125.14207 10656142
145.8116 -61.636871 40.809738 8485745
145.63332 -61.877544 41.564102 10723475
53.575947 -61.89856 125.37955 9998213
52.88459 -61.534489 125.5412 10261384
146.50491 -60.412884 40.116402 9406079
146.20888 -60.721573 40.871872 8091245
145.92369 -61.069382 41.597965 10065801
52.883862 -60.744305 125.8803 7958891
52.164623 -60.503571 126.07124 8353906
147.83298 -59.328449 38.70084 9538688
147.50282 -59.433426 39.563591 8024683
146.93687 -59.826683 40.252213 7432804
146.70175 -60.006126 41.056244 7038307
52.102493 -59.846794 126.57422 7038307
51.428894 -59.547878 126.88225 8617081
50.595104 -59.221111 127.42355 7629925
49.788982 -59.133018 127.71907 7563874
153.82721 -58.951328 34.204697 9144448
152.50964 -58.951756 34.681007 11315100
152.29726 -58.949585 35.596836 7367520
150.94739 -58.949608 36.238445 5920074
150.77061 -58.947899 36.963749 7563619
149.47531 -58.948383 37.407841 8287853
149.07881 -58.988991 38.262344 7629667
148.43292 -59.13269 38.858204 9077881
148.28876 -59.148808 39.583534 9011320
50.644814 -59.011227 128.09097 8617075
49.828697 -58.960121 128.27893 6510930
49.217518 -58.851803 129.00317 7564388
48.350807 -58.832726 129.534 8025968
47.626457 -58.832039 130.14014 8815483
47.109047 -58.830402 131.00412 7236194
46.161064 -58.830727 131.33963 10064261
45.523212 -58.828228 132.58322 9735296
44.563824 -58.828598 132.90726 9735810
44.018772 -58.826984 133.77452 10063748
43.258156 -58.826393 134.36354 9011318
42.448219 -58.826752 134.62054 6510930
41.810249 -58.615288 135.76978 10656141
41.223862 -58.346127 135.85785 9537918
41.747028 -57.788479 136.1091 9011831
41.117741 -57.609653 136.09949 8879733
