# .PCD v0.7 - Point Cloud Data file format
VERSION 0.7
FIELDS x y z rgb
SIZE 4 4 4 4
TYPE F F F U
COUNT 1 1 1 1
WIDTH 1224
HEIGHT 1
VIEWPOINT 0 0 0 1 0 0 0
POINTS 1224
DATA ascii
57.9203 -72.46067 119.94001 9603714
57.056679 -72.465912 120.36308 8024428
56.19239 -72.474289 120.78526 7959408
55.389797 -72.511269 121.08542 8814971
74.076218 -71.139557 112.51845 11379865
73.786797 -71.121819 112.66801 11379865
71.693451 -71.363922 113.6005 8617079
70.827744 -71.320137 114.04422 7564651
69.873619 -71.365349 114.49575 13485495
69.064339 -71.42012 114.87217 10722705
68.122475 -71.357307 115.36108 9275260
67.073486 -71.524727 115.81018 9932678
66.152557 -71.495682 116.27524 9801092
65.289215 -71.471733 116.7099 8880503
64.394913 -71.628639 117.08709 9472640
63.531876 -71.610954 117.51906 10261643
62.66872 -71.596336 117.94988 9932678
61.805317 -71.584854 118.37956 9208699
60.941635 -71.576515 118.80808 6643800
60.077568 -71.571289 119.23557 7301474
59.051952 -71.675873 119.69843 8814199
58.059673 -71.571243 120.229 9011321
57.193951 -71.576431 120.65311 8945785
56.327549 -71.584724 121.07633 8814971
55.375866 -71.693214 121.40925 8486007
54.473015 -71.4907 121.53913 11249052
53.794346 -71.121811 121.70228 9012606
84.094673 -70.130806 107.99677 8617331
82.247719 -70.319725 108.82916 8090992
81.660507 -70.266113 109.1395 8617333
80.687988 -70.271294 109.61575 9143675
79.91436 -70.332909 109.97141 9340798
78.948524 -70.399338 110.41975 8814453
78.035469 -70.509384 110.82451 8092019
77.161514 -70.443985 111.2807 9407364
76.251747 -70.560097 111.6814 11380637
75.380028 -70.500969 112.13396 12301482
74.473335 -70.623123 112.53088 12367018
73.540886 -70.701698 112.95802 11314329
72.699615 -70.698586 113.37323 9472642
71.831543 -70.651932 113.81909 9143422
70.964012 -70.608467 114.26344 8090737
70.096916 -70.568161 114.70638 8617333
69.179031 -70.493141 115.18835 9209467
68.174126 -70.522522 115.67125 8880246
67.231918 -70.559242 116.12035 8089963
66.311333 -70.60714 116.55431 8682355
65.445816 -70.583412 116.98989 9867398
64.549461 -70.740364 117.36808 10854036
63.684311 -70.722816 117.80107 10722194
62.818996 -70.708366 118.23287 9406334
61.953484 -70.696999 118.66351 8748404
61.087685 -70.688744 119.09306 6315092
60.221542 -70.683563 119.52158 4999746
59.210464 -70.681511 120.02012 7169374
58.198753 -70.68351 120.5174 8353135
57.330929 -70.688614 120.94255 10459279
56.462463 -70.696846 121.36679 9801863
55.520679 -70.789803 121.74163 8814971
54.588951 -70.549538 121.91078 9933450
53.620255 -70.527672 121.94283 8683898
52.904003 -70.267738 122.06351 7565675
92.431114 -69.227554 104.25797 9735555
91.827248 -69.151543 104.58582 10854036
90.684853 -69.382912 105.05527 8485238
89.934181 -69.292801 105.46104 9932169
89.14193 -69.385315 105.81391 9077629
88.298531 -69.381294 106.23073 8617591
87.265678 -69.543129 106.67363 10394255
86.313179 -69.519279 107.15171 9472643
85.441628 -69.533287 107.57473 10064780
84.572212 -69.549988 107.99562 9406849
83.585678 -69.714897 108.41446 7959917
82.701248 -69.631226 108.88314 8025455
81.818214 -69.550781 109.34984 9538435
80.963478 -69.521324 109.78201 10656656
79.959267 -69.650993 110.22377 10853262
79.100708 -69.685448 110.6322 8353901
78.223404 -69.6175 111.09099 8223348
77.34716 -69.552773 111.54802 8947069
76.471825 -69.491158 112.00329 9801862
75.561203 -69.610611 112.40314 12433068
74.652283 -69.733154 112.80098 14077637
73.780334 -69.680817 113.25101 11314331
72.909073 -69.631653 113.69953 9867397
72.038368 -69.585587 114.14645 10262155
71.11692 -69.504425 114.63248 10459534
70.153427 -69.49646 115.10976 11117209
69.223228 -69.591705 115.52912 8813942
68.237854 -69.598991 116.01117 7498081
67.309395 -69.701263 116.42714 9012089
66.469826 -69.7202 116.83284 7892840
65.625687 -69.799034 117.2167 9670531
64.703751 -69.853477 117.64869 10525583
63.836456 -69.83609 118.08266 10393486
63.02092 -69.858055 118.47531 8616820
62.07185 -69.987686 118.89042 8484976
61.204365 -69.979507 119.32072 6315092
60.191898 -69.973885 119.82145 4802367
54.63995 -69.762802 122.22252 8618105
53.694839 -69.69384 122.27272 10262415
52.73354 -69.49276 122.37594 7893354
98.76638 -68.163635 101.40043 8814713
98.117821 -68.26799 101.70831 9275262
97.072823 -68.417213 102.2123 8419952
96.227654 -68.406219 102.67381 8419954
95.435982 -68.497444 103.06426 7696488
94.56781 -68.651184 103.43759 7828074
93.672417 -68.64061 103.88268 8222832
92.762238 -68.524132 104.37756 8748660
91.747749 -68.663422 104.82104 8946039
90.860779 -68.661705 105.25844 8485491
89.958191 -68.554893 105.74568 8485747
89.076027 -68.558945 106.17831 8814711
88.171654 -68.668571 106.57956 8946040
87.37722 -68.634575 106.98423 9472385
86.482819 -68.539711 107.46245 9143681
85.64798 -68.637062 107.83389 9077888
84.689575 -68.678741 108.28851 9670278
83.827576 -68.641273 108.72748 8881020
82.940315 -68.558632 109.19714 10130571
82.081512 -68.527023 109.63226 9670021
81.072357 -68.654091 110.07746 9998470
80.209778 -68.686241 110.4888 10458505
79.328644 -68.616005 110.95042 9011574
78.448601 -68.548943 111.41022 10591122
77.596947 -68.532028 111.83587 9012606
76.654961 -68.60183 112.2711 10065036
75.742104 -68.721718 112.67184 11577759
74.831017 -68.844444 113.07067 13880258
73.956863 -68.792694 113.5216 10854036
73.13871 -68.836624 113.90645 9472639
72.176056 -68.875725 114.3644 11644064
71.304062 -68.833099 114.81056 12236458
69.060257 -69.094131 115.80952 8616563
68.625374 -69.077736 116.03008 8616563
53.768772 -68.860916 122.60236 10722709
52.857738 -68.503334 122.76656 8024427
51.840218 -68.648781 122.73326 7563619
51.17664 -68.239204 122.91225 9340027
102.79623 -67.197754 99.617264 7366240
101.7817 -67.435417 100.06825 7958630
100.82072 -67.493095 100.56415 10720908
99.890984 -67.449471 101.08472 9866371
99.141228 -67.684975 101.39369 8945784
98.234077 -67.671516 101.88975 9537921
97.358543 -67.60833 102.389 8551542
96.485382 -67.548065 102.88585 8090993
95.451927 -67.643517 103.40059 7762797
94.604927 -67.594437 103.84388 9209215
93.792671 -67.53685 104.26694 10195852
92.986931 -67.621521 104.62956 13617336
92.032066 -67.68988 105.07219 8682867
91.124352 -67.581139 105.56276 8156783
90.245628 -67.524879 106.01794 8025198
89.202614 -67.683495 106.46774 8946041
88.328819 -67.633316 106.91805 8550770
87.430153 -67.537239 107.39905 8814200
86.491852 -67.623398 107.82639 8485752
85.64119 -67.72084 108.20586 8748924
84.771439 -67.818542 108.59439 9341314
83.961487 -67.778046 109.00903 9012606
83.09948 -67.844467 109.40627 9998986
82.118225 -67.848412 109.88728 8090992
81.340843 -67.963516 110.22334 8090992
80.363426 -67.973648 110.69997 10458505
79.774597 -67.926697 111.00842 9011574
52.766811 -67.670929 123.09995 9603714
51.960762 -67.661995 123.12292 8748149
50.88554 -67.497154 123.21442 11643296
107.05082 -66.289284 97.674889 8617331
106.25663 -66.269714 98.12709 8617331
105.45693 -66.533691 98.451195 9340542
104.51672 -66.573517 98.943024 9669763
103.60897 -66.552292 99.442406 8813939
102.71055 -66.578026 99.91745 8813938
101.92827 -66.744934 100.27187 8222058
101.06438 -66.580635 100.80615 7564385
100.16852 -66.569885 101.29484 10195590
99.14801 -66.70697 101.79047 9471615
98.291603 -66.55201 102.31702 8945271
97.540092 -66.559807 102.72017 8024943
96.62851 -66.663643 103.17059 7827822
95.770897 -66.715462 103.61123 7959920
94.784096 -66.731163 104.1025 8091762
93.920433 -66.714912 104.53426 10393743
92.931885 -66.834259 104.97293 13419957
92.231804 -66.879311 105.29953 8682867
91.299873 -66.861526 105.76543 8025197
90.349106 -66.936562 106.20343 7367271
89.400963 -67.014526 106.63884 8880504
51.867283 -66.832634 123.45509 8353391
50.94558 -66.587982 123.57466 9405307
49.784859 -66.5382 123.62246 10064263
49.106579 -66.191956 123.77661 10656657
108.08482 -65.363808 97.275742 9077628
107.39097 -65.562241 97.747833 8814200
106.50379 -65.554382 98.286499 9274494
105.50608 -65.633667 98.793304 9932935
104.68102 -65.562958 99.268227 8880507
103.85957 -65.637115 99.681816 8156523
102.88738 -65.692261 100.18471 10064003
101.968 -65.567795 100.73258 7959142
101.13682 -65.520691 101.20113 7564385
100.25832 -65.720573 101.59406 11050898
99.386223 -65.797546 102.03403 9537664
98.430687 -65.866135 102.52264 8945271
97.478615 -65.937576 103.00815 8617335
96.829971 -66.047035 103.31413 7564651
50.678226 -65.796051 123.89618 10589065
49.882526 -65.611 123.98898 8089962
48.973217 -65.481064 124.0626 9209211
109.66618 -64.222214 96.491699 7038307
109.02151 -64.443329 96.926086 7038307
108.25151 -64.541817 97.522804 7761772
107.4297 -64.579811 98.160431 8813945
106.60575 -64.695274 98.583313 8419444
105.7606 -64.573746 99.089905 7959407
104.77889 -64.625572 99.599281 7827821
103.90553 -64.884125 99.965424 5920074
103.18734 -64.88076 100.35498 7367262
102.31738 -64.858612 100.83425 5920074
101.14814 -65.082367 101.37453 7038298
49.943607 -64.788368 124.31478 8155755
49.017361 -64.565697 124.4257 9077882
48.027164 -64.615837 124.42963 7958888
47.362629 -64.224388 124.60145 6510930
110.6419 -63.162861 96.174683 6511955
110.07602 -63.560184 96.460587 7433063
109.28387 -63.626015 97.09108 8156785
108.42217 -63.64436 97.801933 7762028
107.67731 -63.821232 98.32222 8222065
106.74458 -63.951519 98.81292 7893358
48.887066 -63.74242 124.75637 8090474
48.132423 -63.640018 124.81534 7432288
47.129501 -63.506233 124.89273 7630183
46.462807 -63.418789 124.94363 8814713
111.75504 -62.418873 95.594437 7695975
110.92986 -62.617718 96.190201 6906713
110.05251 -62.691761 96.888168 7630440
109.34532 -62.686619 97.481125 8683127
108.7662 -63.022217 97.807022 7893614
48.163345 -62.870056 125.12091 8353646
47.27914 -62.496296 125.29088 9077627
46.275463 -62.666878 125.24725 8222578
45.443665 -62.262592 125.42817 8814713
113.55408 -61.127644 94.698441 8419958
112.61231 -61.522541 95.2995 7564651
111.9221 -61.687019 95.798691 7432802
111.1861 -61.691719 96.41114 7432801
110.43416 -61.760242 97.006966 8551027
109.7391 -61.960564 97.493362 8814713
47.171619 -61.682423 125.61728 9077884
46.373867 -61.695633 125.63125 7893614
45.372604 -61.571194 125.70492 8550771
44.627335 -61.253281 125.8494 8089963
115.23347 -60.194782 94.002235 11906724
114.54197 -60.27618 94.498322 10590864
113.68268 -60.664593 94.871109 9604228
112.87782 -60.70533 95.523087 8485751
112.06574 -60.7439 96.165184 7433059
111.34451 -60.825954 96.703873 7564387
46.264347 -60.884834 125.95786 8354678
45.482769 -60.622532 126.13107 8879993
44.540115 -60.480682 126.24742 10919830
43.6516 -60.31094 126.38908 9866885
118.78111 -59.20483 92.45816 8089963
118.28065 -59.177177 92.98571 7695979
117.33472 -59.297302 93.422035 9078652
116.37801 -59.517132 93.775787 9078141
115.68493 -59.609444 94.271103 10722450
114.85921 -59.654091 94.85247 12169896
113.8973 -59.955051 95.355492 9143678
113.23318 -60.041725 95.823395 9341057
44.532043 -59.880196 126.71279 8814201
43.675968 -59.756859 126.83263 9340286
42.706982 -59.579353 127.04852 9472127
41.790836 -59.243347 127.46909 10196363
41.335865 -59.120228 127.86391 11381404
135.50206 -58.59573 85.131165 8616307
134.84314 -58.63039 85.897949 10261132
133.51967 -58.832008 85.823334 9933191
133 -58.830219 86.623978 11906725
131.58301 -58.831673 86.603737 11906725
131.16385 -58.830269 87.235092 10655889
130.74213 -58.828873 87.864777 11379356
129.23518 -58.830013 87.983063 8354159
128.7032 -58.828312 88.758316 9735558
127.31894 -58.829811 88.70874 7761766
126.67423 -58.827816 89.624374 7826790
125.3066 -58.829334 89.562729 8484976
124.87321 -58.828037 90.163811 9142906
123.87074 -58.827835 90.576515 9011320
122.86674 -58.82766 90.981293 9603457
121.97456 -58.878334 91.460953 9668738
121.00637 -58.893085 91.876114 9273980
120.16054 -58.976349 92.240273 9800323
119.26339 -59.013519 92.834213 10260873
118.76098 -58.985756 93.363907 8089963
40.712635 -59.011139 128.03841 11381404
40.006859 -58.84576 128.38441 8486000
38.914814 -58.80151 128.80106 7367268
37.982983 -58.801636 129.07739 7367271
37.049168 -58.801777 129.34709 8288625
36.148079 -58.800842 129.97917 7433823
35.41317 -58.799362 130.74727 9604734
34.467419 -58.799576 130.99831 9867395
33.519825 -58.799801 131.24252 11578012
32.522465 -58.638901 131.74117 11841184
31.881882 -58.448219 131.75514 10853012
136.37335 -57.574688 84.673782 8682092
135.75917 -57.703209 85.330338 8813686
135.19273 -57.874699 85.906235 9932167
32.411232 -57.893227 132.20522 10853012
31.741226 -57.563766 132.0443 8287085
137.32339 -56.466003 84.167419 6972504
136.64537 -56.699051 84.841141 8747885
136.0502 -56.72369 85.533211 8945526
31.598541 -56.679684 132.33055 7958120
30.910782 -56.452755 132.1216 7958120
138.10677 -55.525871 83.76503 8025200
137.44693 -55.63065 84.488663 8090471
136.82915 -55.782188 85.1362 8813940
31.500948 -55.807198 132.63177 7893099
30.827391 -55.526848 132.45001 9011322
138.9035 -54.538952 83.373123 8814713
138.3602 -54.548374 84.011963 9735302
137.76807 -54.717228 84.6194 10590610
30.639591 -54.697151 132.69522 8616824
30.039333 -54.547245 132.49388 9537923
139.68251 -53.482235 83.041245 9734787
139.24623 -53.651871 83.463501 9143419
138.59288 -53.704155 84.208794 10261900
30.568974 -53.903156 132.97729 7564651
29.904646 -53.547337 132.82922 8485749
140.55869 -52.330299 82.647614 10854036
140.11153 -52.70237 82.969414 9471615
139.44913 -52.702744 83.754379 9603713
138.8101 -53.010563 84.339584 10064521
29.842218 -52.612171 133.17033 8485748
29.13693 -52.549011 132.88931 8090991
140.81032 -51.535534 82.794235 9866629
140.2462 -51.696079 83.373123 9405822
139.68289 -51.85722 83.950653 8681843
29.649202 -51.848732 133.38721 8090992
28.981787 -51.541447 133.21875 7827047
140.99937 -50.532227 83.131897 8681843
140.55962 -50.974026 83.405891 10129801
28.830856 -50.670441 133.49626 8813942
28.202675 -50.459385 133.30688 7563619
141.37706 -49.746078 83.124344 10195339
28.724682 -49.809284 133.78925 9406335
28.061441 -49.467812 133.63515 10787987
27.992401 -48.538582 133.96928 7958377
27.262415 -48.600452 133.62796 9010808
27.809336 -47.617702 134.25066 9076601
27.118044 -47.612415 133.95244 9208187
27.104933 -46.691101 134.30779 9997703
26.345991 -46.426144 134.08199 9142652
26.862577 -45.772503 134.57324 9142651
26.217093 -45.473465 134.49995 9208701
25.499292 -45.095455 134.48027 9011579
26.0828 -44.888184 134.89688 10458507
25.336514 -44.488045 134.95757 7893615
24.287254 -44.129826 135.19795 9604484
24.397064 -43.953007 135.81531 10657425
23.535225 -43.872963 135.7059 10854548
22.677738 -43.797882 135.60765 11577503
21.717728 -43.794933 136.96556 11379612
20.892292 -43.79538 137.09265 8484720
19.900738 -43.795925 137.23882 8024425
18.908199 -43.796505 137.37775 8879734
18.069031 -43.793514 138.70633 8681843
17.233082 -43.794033 138.81104 9406590
16.076897 -43.740517 139.08156 8618099
15.473019 -43.423195 139.24718 9012346
15.212818 -42.616802 139.4615 8880762
15.13195 -41.740128 139.7739 8486514
14.526642 -41.60709 139.56354 7630443
14.419617 -40.66861 139.88902 8289135
13.76479 -40.368717 139.72325 8354419
14.237675 -39.671242 140.20526 8617845
13.547424 -39.44751 139.99396 10525075
13.437649 -38.509918 140.31789 8946302
12.776661 -38.383759 140.08063 9538182
13.277065 -37.657978 140.58578 8551545
12.662285 -37.626789 140.33099 9801353
13.179943 -37.081676 140.77199 8090995
12.484135 -36.658924 140.63716 8025201
11.789635 -36.238411 140.50197 8090992
12.375549 -35.69857 140.97047 9143678
11.757069 -35.446434 140.80147 9143678
11.619701 -34.559345 141.09122 8485492
10.797058 -34.099094 140.91539 9340798
11.610065 -33.595192 141.46631 8681843
10.918228 -33.435646 141.229 8682356
10.645008 -32.616375 141.43282 9011318
10.653309 -31.780556 141.76523 8353134
9.9843178 -31.644979 141.52835 9734782
10.533314 -31.021101 142.01196 8813683
9.8365784 -30.615709 141.88347 8813685
9.1436081 -30.220791 141.79425 10063753
9.6885719 -29.954498 142.24905 9405822
8.9435654 -29.540232 142.2663 10326925
8.1400414 -29.203341 142.25758 8813686
8.0070457 -28.976973 142.97234 8155756
7.1331372 -28.927969 142.76662 8354165
6.1489987 -28.790052 143.97978 7564651
5.4548993 -28.790655 144.00674 8946300
4.239964 -28.791737 144.04614 9012089
1.4792293 -28.788881 145.98485 9340801
0.59965932 -28.789728 145.99004 8879993
-0.33993492 -28.723682 146.29378 10064267
-1.1660305 -28.362038 146.68376 8616823
-1.2139546 -27.526581 146.9922 6972770
-1.8751103 -27.435503 146.741 5393738
-1.1733853 -26.783499 147.30266 7367781
-1.9302746 -26.630659 147.03427 7630952
-2.1209788 -25.742687 147.30139 10460303
-2.770824 -25.270845 147.2052 11381404
-2.2458568 -24.776415 147.62798 11381404
-2.9095721 -24.514624 147.44298 11644322
-3.006763 -23.539244 147.7852 12762034
-3.6686778 -23.455954 147.53059 10854296
-3.1465182 -22.780209 148.02361 9538438
-3.7951427 -22.625248 147.80305 8222580
-3.9227786 -21.753658 148.09109 8354421
-4.575294 -21.286249 147.99203 8617847
-4.0523448 -20.781363 148.41801 6511954
-4.7177577 -20.525644 148.22992 8880760
-4.8196292 -19.543255 148.5728 7696484
-5.4824672 -19.467278 148.31494 7697001
-4.9631495 -18.779324 148.81157 8881014
-5.5674586 -18.537987 148.6443 8617586
-5.7448726 -17.752907 148.87663 8748916
-6.4001803 -17.288885 148.77495 9274747
-5.8822093 -16.593378 149.27382 8682867
-6.5464358 -16.522619 149.01338 9603455
-6.6691508 -15.611922 149.38164 9932419
-7.3315539 -15.211564 149.38701 9867141
-7.5317111 -14.656426 149.76109 9998727
-8.4505653 -14.245252 149.98256 9998727
-9.3622818 -14.071149 150.05988 9933191
-10.154922 -13.78581 151.0233 10919830
-11.246834 -13.787106 150.94554 9341054
-17.732208 -13.782866 154.64073 9734526
-18.566406 -13.638563 154.66138 9866373
-19.365528 -13.538734 154.59427 8485749
-18.532349 -13.044415 155.00122 13022893
-19.287819 -12.661493 154.97279 10260616
-20.160896 -12.404385 154.87149 9077884
-19.516579 -11.713527 155.27162 7037017
-20.330841 -11.435208 155.19139 7367009
-20.198189 -10.608056 155.52679 7828071
-21.05188 -10.566282 155.3503 7367264
-20.406906 -9.8700581 155.75258 6972506
-21.212761 -9.574008 155.68074 7630436
-22.046654 -9.2274771 155.62128 11709340
-21.274715 -8.5913448 156.02991 5919306
-22.02803 -8.3974161 155.93217 5920074
-21.382111 -7.694768 156.33713 5920074
-22.185654 -7.5826712 156.19742 5920074
-22.881317 -7.4988031 156.07123 5920074
-22.179077 -6.6902609 156.52785 5920074
-22.982395 -6.4860563 156.42165 5920074
-23.700226 -6.146904 156.38451 4340793
-22.985325 -5.5664902 156.75989 5393476
-23.860611 -5.5010481 156.58635 4867136
-23.148411 -4.854002 156.98563 4998975
-23.913563 -4.5507383 156.92461 5591112
-24.557034 -4.2043424 156.90689 6117199
-24.028194 -3.6185596 157.24226 5525317
-24.778008 -3.6186316 157.07289 5196100
-24.248863 -3.0313971 157.40877 5393730
-24.894489 -2.6828909 157.39145 7103579
-25.60881 -2.2471318 157.39076 9668735
-24.950207 -1.7216851 157.73311 9866369
-25.759098 -1.6173797 157.58885 10655884
-25.113796 -1.0641216 157.93848 10655884
-25.887871 -0.78241873 157.89043 12300451
-26.682693 -0.37340048 157.95934 12103072
-26.759655 0.22326458 158.40855 10458505
-27.542713 0.42158628 158.38765 9471867
-28.842319 0.92455673 159.03052 8682867
-29.223522 0.92394853 158.94894 8682867
-28.271637 0.92573905 159.16011 6511954
55.791496 -70.351173 121.83618 8814971
65.519882 -69.338692 117.45383 9999495
64.796188 -69.322037 117.8168 10262667
63.927635 -69.304771 118.25138 10393998
62.97163 -69.377991 118.69257 9143679
62.160542 -69.45636 119.06034 9012093
61.291786 -69.448227 119.49131 7038307
60.277824 -69.442642 119.99274 7038307
59.235107 -69.618111 120.43551 7826790
58.365398 -69.620125 120.86288 7827047
57.49506 -69.62516 121.2893 7761255
56.624104 -69.633286 121.71477 10064777
55.748447 -69.639465 122.13063 8222577
54.8741 -69.325066 122.39104 7697003
77.35054 -68.108765 112.12743 8618105
74.938164 -68.311867 113.23232 12827570
74.062614 -68.260391 113.68376 10459278
73.018867 -68.322502 114.17234 9209467
72.066284 -68.358948 114.6264 12302251
71.092468 -68.406181 115.08645 13749953
70.175545 -68.603973 115.45804 12038567
69.304085 -68.568573 115.90108 9406335
68.372322 -68.667709 116.3196 9209468
67.529953 -68.683929 116.7276 10263180
66.659668 -68.657677 117.16653 10263180
65.789467 -68.634476 117.60426 9210491
64.919327 -68.614326 118.04073 9736579
64.049049 -68.597176 118.47601 10065034
63.178692 -68.583054 118.91017 8683130
62.308117 -68.571999 119.34324 9341057
61.437283 -68.563904 119.77514 7433065
60.42086 -68.558395 120.27776 7038307
59.403904 -68.556801 120.77908 8221805
58.531658 -68.558769 121.2077 8221805
57.658878 -68.563766 121.63538 8945527
56.785427 -68.571785 122.06212 8156267
55.911232 -68.582809 122.48806 8024681
54.986038 -68.54055 122.70045 7893608
54.000988 -68.423691 122.77071 8551538
86.915146 -67.116844 107.82148 8090995
85.340073 -67.3255 108.51309 9341059
84.744507 -67.26828 108.82907 9012606
83.758186 -67.267357 109.31454 9209984
82.976585 -67.378693 109.65411 9538692
81.9944 -67.383865 110.13515 7696236
81.135544 -67.456871 110.52817 8222577
80.331001 -67.42807 110.93544 9932418
79.418427 -67.492691 111.35831 10458505
78.627266 -67.523857 111.73485 10064778
77.676064 -67.565392 112.18596 9275778
76.740051 -67.70742 112.58922 10722708
75.812363 -67.647484 113.06955 10262155
74.885643 -67.590996 113.54821 9209467
73.962563 -67.573914 114.00922 9670018
73.034782 -67.488228 114.50022 9472639
72.181206 -67.547394 114.89642 9933190
71.193909 -67.65419 115.33923 13552318
70.342209 -67.719147 115.73211 12433325
69.46859 -67.684105 116.17605 10261644
68.595276 -67.65213 116.61858 8748405
67.722206 -67.623138 117.05984 9604738
66.849281 -67.59716 117.49979 10000008
65.976463 -67.574173 117.93851 10788756
65.103722 -67.554245 118.3761 11840932
64.230942 -67.537308 118.81259 10459537
63.358051 -67.523369 119.2479 8288373
62.484959 -67.512413 119.68215 9143679
61.466 -67.503479 120.18733 9011838
60.472012 -67.599335 120.63817 10130317
59.544327 -67.673798 121.0649 9406335
58.670021 -67.675751 121.49459 9669507
57.795139 -67.680679 121.92328 9800836
56.892807 -67.865059 122.29337 7630179
56.016991 -67.875999 122.72012 8287597
54.967632 -67.72966 123.0235 9275261
54.048954 -67.640297 123.0812 8551538
53.245628 -67.442558 123.17921 9801093
95.535309 -66.267975 103.91879 7565675
94.921227 -66.189491 104.25258 7828590
93.942047 -66.314606 104.68439 11051416
92.99617 -66.322502 105.14689 11972513
91.986755 -66.350105 105.63272 8682867
91.315636 -66.370331 105.955 7959405
90.38382 -66.534637 106.34774 7564649
89.529541 -66.476395 106.79173 9209468
88.583138 -66.557709 107.22498 8814198
87.700523 -66.569557 107.65472 9077628
86.671883 -66.680351 108.11663 9012095
85.801796 -66.64003 108.56115 11183003
84.906395 -66.554375 109.03641 9538948
84.039742 -66.519745 109.47682 9275776
83.013725 -66.700661 109.90871 9275521
82.150757 -66.671791 110.34477 8090993
81.261948 -66.59819 110.81152 7828076
80.374458 -66.527687 111.2764 9538175
79.515678 -66.50737 111.70697 10064518
78.507698 -66.646278 112.14684 7892841
77.645226 -66.689125 112.55378 9406336
76.762955 -66.630623 113.01122 10327951
75.881584 -66.575134 113.46706 8749692
75.00106 -66.522728 113.9213 9276548
74.121307 -66.473366 114.37402 13092539
73.20771 -66.603767 114.7711 9736836
72.267586 -66.691101 115.19846 9472899
71.41851 -66.69648 115.61408 12038568
70.541931 -66.658951 116.06052 11709346
69.665718 -66.62439 116.50554 9472383
68.757431 -66.769157 116.89416 9077369
67.882202 -66.740486 117.3363 9933703
67.059196 -66.751625 117.73678 9670531
66.101067 -66.868324 118.16125 11840932
65.226555 -66.848488 118.59947 12958901
64.352051 -66.831696 119.03664 9472643
54.849545 -67.065109 123.29076 8814710
54.160164 -66.704819 123.45072 9077882
53.184879 -66.569069 123.52823 11183001
52.26152 -66.5438 123.56054 10064265
99.52906 -65.252296 102.18007 9537664
98.623131 -65.365257 102.62367 9735043
97.520653 -65.531448 103.15176 9143677
96.64798 -65.54615 103.61766 8288371
95.868988 -65.562477 104.02963 9012091
95.058327 -65.648155 104.40259 8683385
94.065567 -65.664124 104.88489 7959918
93.174812 -65.602547 105.34817 8353646
92.286552 -65.543793 105.80908 8419439
91.23204 -65.699356 106.26571 7498857
90.397705 -65.605858 106.71402 7959151
89.592316 -65.563988 107.12737 9077626
88.81292 -65.585739 107.50235 9603711
87.821754 -65.698891 107.94485 9735298
86.947098 -65.656647 108.39242 8420727
86.047089 -65.569023 108.87068 9539464
85.176117 -65.532455 109.31417 9933958
84.152489 -65.65358 109.76944 9999750
83.277977 -65.680519 110.18908 9999497
82.385094 -65.604874 110.65884 10262415
81.4935 -65.532227 111.12659 8223090
80.630791 -65.509819 111.55995 10393997
79.618118 -65.646233 112.00308 9933190
78.779457 -65.733749 112.38035 10524560
77.829063 -65.803139 112.81989 10195595
76.944557 -65.74527 113.27821 11445918
76.025085 -65.867241 113.68136 9670536
75.142784 -65.815292 114.13628 9802892
74.40815 -65.774246 114.51429 15592675
73.311371 -66.073578 114.9334 9736836
72.43203 -66.030441 115.38345 11906726
53.215294 -65.699364 123.87347 10919829
52.299316 -65.619034 123.92751 8484977
51.380226 -65.482208 124.00411 8944756
105.24052 -64.119659 99.556992 8288371
103.90093 -64.314857 100.20103 5920074
103.08003 -64.393356 100.61263 6380624
102.26219 -64.473801 101.02174 6314832
101.22927 -64.608772 101.52471 7235677
100.37897 -64.561119 102.0038 10919056
99.618843 -64.566971 102.41228 9932935
98.696831 -64.668434 102.86914 9866885
97.804474 -64.668938 103.35149 9340799
96.898033 -64.563782 103.88466 8420213
96.008865 -64.568497 104.35987 10064777
95.028381 -64.668205 104.81098 8814453
94.209602 -64.614967 105.23548 6774870
93.392998 -64.564011 105.65799 6774615
92.417503 -64.66835 106.09628 9274748
91.520744 -64.672104 106.53628 8551544
90.60775 -64.571411 107.02621 7564651
89.715927 -64.580612 107.46155 8551284
88.676605 -64.688271 107.92999 8814453
87.824852 -64.794014 108.30683 8419953
87.085167 -64.793968 108.67101 7565675
86.306038 -64.773712 109.06273 7565675
85.215126 -64.854111 109.56744 8749943
84.426582 -64.964745 109.91126 10196872
83.435692 -64.969154 110.39727 9999497
82.839043 -64.918732 110.71124 11906725
52.336079 -64.69529 124.29415 10722194
51.430874 -64.562622 124.36874 9997443
50.403172 -64.497711 124.41935 9536636
107.4892 -63.421421 98.625175 9734788
106.67574 -63.45137 99.055031 7498601
105.8594 -63.635719 99.420731 7630443
105.00472 -63.659832 99.872818 7498857
104.10037 -63.584381 100.39251 6906715
103.1887 -63.571068 100.89069 7564642
102.30398 -63.725052 101.30585 7432799
101.53584 -63.626804 101.76126 8222058
100.6164 -63.511765 102.30531 7432799
99.58831 -63.653755 102.80283 9998984
98.740974 -63.612785 103.27763 10261899
97.983589 -63.624325 103.68233 9078141
97.128174 -63.659664 104.13045 7039331
96.159119 -63.798447 104.59447 8288625
95.258507 -63.851479 105.02583 8222316
94.235832 -63.877048 105.51902 7235422
93.620781 -63.804699 105.85089 5919050
92.612267 -64.057991 106.24565 8945783
92.000504 -63.988914 106.57462 11380380
51.423428 -63.751442 124.69161 9800578
50.372753 -63.602871 124.77605 8813427
49.403931 -63.399303 124.8804 8617075
109.10122 -62.292004 97.870293 7893614
108.49341 -62.518894 98.271271 7038307
107.77268 -62.566654 98.804733 8485493
106.9475 -62.645966 99.238068 8419444
105.95736 -62.698986 99.751503 8025200
105.07297 -62.531635 100.29807 7761773
104.31429 -62.604034 100.67844 10656659
103.34353 -62.681583 101.17137 11709343
102.44279 -62.613426 101.68613 8682096
101.54135 -62.650803 102.15808 9472125
100.8079 -62.785568 102.49921 8814195
99.893272 -62.899597 102.94693 7959401
99.031075 -62.946991 103.3935 10854036
50.497875 -62.813015 125.0873 9077625
49.468124 -62.545509 125.21854 7958889
48.383488 -62.434971 125.28867 8814454
110.26649 -61.370247 97.330147 9735300
109.55025 -61.523022 97.856606 9208958
108.76488 -61.515915 98.515839 9340288
107.87769 -61.629517 99.138657 8880505
106.99371 -61.646679 99.622398 9077884
106.2109 -61.784374 99.989067 9011837
105.32542 -61.760582 100.47745 9011838
104.35775 -61.854023 100.96216 12696753
103.5669 -62.003513 101.32837 12301737
49.355968 -61.737823 125.54259 8682099
48.438763 -61.617172 125.61269 8353390
47.55732 -61.389046 125.72471 9999244
112.10972 -60.299873 96.504181 5920074
111.23849 -60.468784 97.081696 9142908
110.52615 -60.493343 97.657028 10260875
109.78335 -60.530987 98.24205 10524047
109.00629 -60.69397 98.73349 10853012
108.12945 -60.994152 99.24929 9341055
49.217831 -61.031048 125.82706 9340286
48.496712 -60.803772 125.9449 9800837
47.603565 -60.509628 126.15417 10065038
46.711178 -60.488907 126.1972 9538951
45.938374 -60.323833 126.32272 8092019
115.54842 -59.250637 94.955048 10261899
115.04423 -59.226452 95.471603 12235433
114.1445 -59.371761 95.923485 9538434
113.21915 -59.600643 96.331604 8485747
112.42005 -59.60656 96.947617 9406593
111.65575 -59.797245 97.382645 9800582
110.96697 -59.887074 97.867989 10195339
47.437317 -59.885361 126.63752 10065038
46.637539 -59.800011 126.72559 8486520
45.773052 -59.709312 126.8194 8551543
44.85553 -59.444649 127.14665 8814201
44.030346 -59.197979 127.54098 9472129
43.255276 -59.223141 127.48029 8813685
134.62206 -58.373146 86.304062 10261132
134.13295 -58.501747 86.812241 10788244
133.52156 -58.542854 87.514336 11576474
132.536 -58.789387 87.690613 10787729
131.84032 -58.826336 88.374573 9734532
130.42351 -58.827835 88.33551 10918805
129.88875 -58.826122 89.117447 9603716
128.38145 -58.827297 89.221687 10854036
127.84145 -58.825619 89.991333 9932936
127.40638 -58.824287 90.605011 10459022
126.02299 -58.82584 90.535385 11774882
125.47541 -58.824211 91.291061 10195850
123.99836 -58.825466 91.360046 9274748
123.33465 -58.823555 92.251732 9274236
121.98423 -58.82515 92.15831 10853012
121.53844 -58.823906 92.743439 9602945
120.54562 -58.828804 93.136505 10260873
119.53066 -58.823689 93.505684 8813429
118.67425 -58.893791 93.991096 8419955
117.75233 -58.932251 94.41819 8486261
116.9118 -59.018749 94.764832 7958892
116.01566 -59.060421 95.339752 9340541
115.50948 -59.036087 95.858452 11379356
43.750416 -59.079971 127.92928 10590097
43.070461 -58.999969 128.20578 8353134
42.22868 -58.912109 128.51201 8221548
41.351467 -58.859486 128.76389 8617330
40.425167 -58.798618 129.29353 8551537
39.489735 -58.798714 129.58081 7498337
38.552227 -58.798828 129.8613 7235683
37.455925 -58.798985 130.17973 8617335
36.857822 -58.797024 131.06868 6774870
35.9702 -58.796505 131.55283 8025448
35.018585 -58.796711 131.80782 12762026
33.988232 -58.644444 132.28696 9472896
33.227245 -58.484047 132.31441 13354421
135.47746 -57.221966 85.933716 10261132
134.98718 -57.511185 86.353378 10195338
134.37389 -57.551376 87.058243 9866117
133.72136 -57.77821 87.705231 10063238
33.008488 -57.625271 132.56978 9670019
135.76257 -56.569141 85.960793 10195338
135.16794 -56.596497 86.650803 9735043
134.67586 -56.564617 87.252274 9011576
33.007744 -56.752361 132.91315 8881019
32.369183 -56.517979 132.72845 8682356
136.6225 -55.417439 85.585442 10327180
136.04695 -55.647282 86.139389 10129801
135.4227 -55.76712 86.812759 9734787
32.151863 -55.596504 132.99706 8485492
137.50705 -54.33429 85.143211 9998215
136.95044 -54.740067 85.575874 9011320
136.30675 -54.696453 86.363403 9406078
32.082756 -54.747948 133.30121 7433064
31.362837 -54.538666 133.07137 8222578
138.43706 -53.388767 84.570129 10985111
137.87776 -53.551434 85.142128 11774627
137.08662 -53.749641 85.968948 8748148
136.45241 -54.060642 86.546707 9011320
31.227985 -53.576782 133.39157 8156785
139.3083 -52.235722 84.182892 10064521
138.66917 -52.544548 84.767639 9735555
138.00807 -52.549175 85.548752 9932934
137.5648 -52.923409 85.8647 9011320
31.170013 -52.593395 133.75369 7959406
30.543972 -52.64587 133.46149 8090992
139.52618 -51.541508 84.313293 9603201
138.8696 -51.596619 85.06076 9209725
138.43292 -51.768951 85.481934 9209467
30.341684 -51.656143 133.76341 8354162
29.712534 -51.187641 133.67499 8617333
140.35851 -50.525558 83.895432 9932422
139.75941 -50.695911 84.510193 9472128
139.21109 -50.708378 85.153275 9210242
30.284649 -50.69772 134.11604 7170148
29.592617 -50.488834 133.89815 9143164
141.28246 -49.43367 83.411377 9471872
140.62132 -49.691044 84.051056 10063751
140.01335 -49.715973 84.757843 9735041
29.367268 -49.582371 134.15714 7761254
141.50252 -48.533646 83.654495 9471872
140.8506 -48.826435 84.26329 11905183
140.30504 -49.059521 84.779678 8682867
29.28949 -48.743221 134.4525 6905944
28.69043 -48.558975 134.2645 8024682
142.1339 -47.356316 83.565117 8353903
141.73303 -47.667622 83.866043 8879991
141.18512 -47.900787 84.385025 13549237
29.259047 -48.063225 134.70575 6510930
28.555031 -47.591694 134.58475 9537920
27.852867 -47.123299 134.46327 10260875
142.39827 -46.562408 83.719238 8090987
142.06929 -46.740463 83.986542 8617075
28.418108 -46.624779 134.90417 8682100
27.819729 -46.446609 134.71407 9668995
28.336195 -45.870106 135.16437 8089963
27.583475 -45.637028 134.98512 8879479
26.930174 -45.322002 134.91521 10260875
27.367245 -44.941101 135.41006 10260875
26.721939 -44.650513 135.36157 11050643
25.933571 -44.220009 135.58961 9011579
25.608538 -44.067039 135.96432 7564651
24.88126 -43.888355 136.25084 8748665
23.860165 -43.793842 136.61133 10657425
22.872051 -43.794331 136.77892 10131337
22.212673 -43.79467 136.8869 11379612
21.239109 -43.791687 138.26039 14077381
20.405846 -43.792145 138.38452 9537408
19.405018 -43.792713 138.52713 8221805
18.570236 -43.793209 138.64061 8616307
17.372227 -43.76405 139.94258 10261641
16.667797 -43.432617 139.77054 10261642
16.597054 -42.662926 140.04486 9932676
15.820599 -42.346588 139.83282 9209467
16.445271 -41.813118 140.31573 9209467
15.816959 -41.455006 140.18462 8946808
15.613892 -40.585991 140.44078 8749685
14.834854 -40.344002 140.19818 9144187
15.585911 -39.596176 140.821 9407103
14.910206 -39.633488 140.51254 9144187
14.784954 -38.71619 140.82169 9143933
14.083931 -38.324276 140.67235 8551545
14.677917 -37.692081 141.18111 9735814
13.924355 -37.470242 140.94151 10261903
13.871933 -36.529816 141.29152 10722451
13.198917 -36.575657 140.98083 8090995
13.686249 -35.529533 141.60596 10525071
13.052521 -35.71003 141.25981 9275007
12.91153 -34.674194 141.6064 7761254
12.211353 -34.255417 141.46736 7563618
12.763351 -33.806664 141.88342 5392706
12.179123 -33.458874 141.76685 6839895
11.98288 -32.564499 142.03355 7037274
11.21212 -32.109619 141.87816 8813683
11.940384 -31.673807 142.36557 7563618
11.334953 -31.441591 142.19426 8879476
11.08149 -30.60976 142.42694 9208440
10.553936 -30.345449 142.30183 8813683
10.938374 -29.906357 142.82942 8813683
10.284069 -29.65103 142.75415 9011063
9.7431412 -29.198952 143.0647 10721426
9.2356644 -29.046932 143.25739 9208444
8.4468918 -28.861025 143.61037 8353135
7.5367284 -28.788876 143.91499 8814201
6.6694493 -28.789606 143.95705 8814715
3.9418035 -28.786589 145.94156 11906725
2.8865132 -28.78756 145.96474 8946556
2.0069699 -28.78838 145.97913 8420470
0.9595989 -28.698116 147.47421 8420470
0.24862328 -28.46804 147.25624 7564651
-0.46075019 -28.239262 147.03839 7564651
0.14628258 -27.631594 147.54144 8090993
-0.55139887 -27.442614 147.31294 8025201
-0.1089054 -26.858414 147.73531 9537923
-0.64271891 -26.468536 147.65723 9932936
-0.94142497 -25.684254 147.83659 9670532
-1.5334736 -25.527327 147.64133 9341824
-0.82547343 -25.044554 148.13914 9341824
-1.6092411 -24.605185 147.97186 10526096
-1.6454121 -23.627522 148.34145 9933190
-2.3442912 -23.446201 148.10944 11446686
-1.9054905 -22.674625 148.60406 8682867
-2.5739703 -22.41437 148.41635 7301476
-2.6962161 -21.599676 148.68437 5393738
-3.3359828 -21.529364 148.43433 5393738
-2.6298938 -21.03373 148.93616 5393738
-3.4161716 -20.60078 148.76543 5985616
-3.4570079 -19.61545 149.13603 6380371
-4.1571536 -19.441305 148.90062 6511954
-3.7218776 -18.65757 149.39851 8091242
-4.3342433 -18.450499 149.21423 9736323
-4.5644794 -17.664225 149.42409 9736323
-5.1587443 -17.519381 149.22316 9209467
-4.4569087 -16.830538 149.79921 11381404
-5.1717715 -16.621691 149.57118 10787984
-5.3907313 -15.691871 149.88701 11379609
-6.0863299 -15.340552 149.81905 9932419
-6.3591952 -14.67151 150.25621 10787728
-7.1499324 -14.229625 150.58371 10392715
-7.9365458 -14.105947 150.54854 9735555
-8.1686821 -13.810717 151.45709 10458251
-8.8863297 -13.793335 151.20778 9735555
-16.240208 -13.780928 154.80515 8090216
-17.092308 -13.572633 154.99776 7760995
-17.962036 -13.425943 154.98851 9734526
-17.288704 -12.750559 155.38942 6774102
-18.135452 -12.621656 155.24663 11575960
-18.039749 -11.627157 155.63567 7037017
-18.91423 -11.400472 155.52275 7957862
-18.270798 -10.579472 155.97078 6510930
-19.013367 -10.575658 155.80522 6510930
-19.764187 -10.38149 155.70807 6510930
-18.988914 -9.7486725 156.11627 6510930
-19.805305 -9.5084572 156.02147 6445650
-19.091515 -8.8547735 156.42346 4867385
-19.854328 -8.4680042 156.39488 5261375
-20.696941 -8.3692684 156.2419 5392706
-20.077194 -7.6982985 156.62915 4866873
-20.835667 -7.439292 156.55432 5458755
-20.797283 -6.5935469 156.87526 5656646
-21.593853 -6.4593821 156.74507 8157036
-21.105316 -5.7630682 157.11198 5920074
-21.757935 -5.540225 157.04671 7893608
-21.759468 -4.6732597 157.36586 9472640
-22.558956 -4.5390406 157.2348 6446418
-21.953465 -3.8144858 157.63853 8420208
-22.714741 -3.6186688 157.53877 6117453
-23.465466 -3.6185427 157.36931 5393730
-22.667507 -2.7364571 157.87456 6840920
-23.519062 -2.6385911 157.71837 6182990
-24.293118 -2.2461367 157.68822 6117197
-23.572868 -1.6546862 158.0688 6446162
-24.455666 -1.5897727 157.89339 7564129
-23.616119 -0.86436892 158.35033 6117197
-24.390129 -0.66712326 158.30174 7498592
-25.294624 -0.40434292 158.24794 12234402
-25.328434 0.2857244 158.77953 6840919
-26.149944 0.39078367 158.67691 9932161
-26.558239 0.92908764 159.54924 6511954
-27.319946 0.92754352 159.37621 6511954
60.357765 -67.14518 120.87699 10985625
59.628468 -67.144608 121.23625 9669507
58.752903 -67.14653 121.66648 9669507
57.876846 -67.151459 122.09585 10064009
56.973244 -67.335678 122.46656 8879478
56.096203 -67.346558 122.89403 7103835
55.399975 -67.271271 123.19542 8156780
68.854599 -66.239944 117.0593 9603969
67.978104 -66.211479 117.50204 10525070
67.013031 -66.272064 117.95249 9604226
66.194405 -66.3395 118.3281 12104616
65.318619 -66.319824 118.76695 12696241
64.442818 -66.303062 119.20462 9669508
63.537083 -66.465462 119.58504 10327950
62.6031 -66.454063 120.04945 11511966
61.544018 -66.646652 120.49342 11248797
60.588913 -66.61692 120.97559 12301483
59.712578 -66.615898 121.40739 9669507
58.835762 -66.617821 121.83827 7037274
57.928219 -66.547508 122.31334 7892839
57.107197 -66.454353 122.75495 7958888
56.228077 -66.465088 123.18343 7038298
55.338184 -66.53405 123.47385 7893608
54.455547 -66.299889 123.60465 9275261
78.530418 -65.311935 112.67262 11511711
77.939278 -65.272072 112.97935 10195595
77.053413 -65.214584 113.4382 11445918
76.132591 -65.336815 113.84192 10525587
75.300774 -65.323837 114.25632 9868172
74.240234 -65.497482 114.70822 16184813
73.414955 -65.543907 115.09564 9736836
72.534294 -65.500992 115.54618 11906726
71.620514 -65.637466 115.94086 11906726
70.741333 -65.600395 116.38837 10130314
69.862511 -65.566254 116.83447 8748660
68.984055 -65.535065 117.27928 10261899
68.10582 -65.506844 117.72277 10788242
67.227753 -65.481499 118.16495 9735812
66.349815 -65.459091 118.60597 11644065
65.441292 -65.615524 118.98998 11315100
64.563782 -65.598907 119.42845 9866629
63.606796 -65.558998 119.91538 11709089
62.537766 -65.659882 120.4009 12630191
61.608932 -65.740616 120.82571 10262929
60.730934 -65.736664 121.25953 10197136
59.852566 -65.735641 121.69234 8880251
58.97369 -65.737564 122.12425 7695978
58.137657 -65.698097 122.55167 7432807
57.240955 -65.574097 123.04299 7038307
56.359798 -65.584709 123.47253 7038563
55.388355 -65.691315 123.80037 8091503
54.402481 -65.590164 123.8883 9472897
53.747082 -65.314156 124.01389 11380380
89.782005 -64.116096 107.61569 8419702
87.881126 -64.288185 108.48233 8288624
86.976036 -64.200058 108.96333 7565675
86.182411 -64.307022 109.31107 8289398
85.390846 -64.415894 109.65701 10986390
84.399529 -64.472595 110.12228 9999493
83.553856 -64.436005 110.55328 8618357
82.591347 -64.491707 111.00479 9867658
81.752296 -64.514832 111.40855 9012348
80.734863 -64.648918 111.85519 9274748
79.864578 -64.687477 112.26768 9933190
78.974777 -64.624527 112.73063 13551549
78.086113 -64.564598 113.19186 12169641
77.198402 -64.507599 113.65139 11117210
76.333427 -64.556961 114.05693 10065293
75.333153 -64.652237 114.51061 10723478
74.470856 -64.707222 114.91278 12303022
73.587395 -64.661865 115.36572 10723988
72.704544 -64.619446 115.81718 9867915
71.822243 -64.579941 116.26717 8618106
70.940468 -64.543373 116.71577 9801606
70.059044 -64.509674 117.16298 10525071
69.177979 -64.478935 117.60886 11117207
68.325951 -64.496086 118.02119 10985364
67.385139 -64.601799 118.44155 10327692
66.505051 -64.579674 118.88344 11315100
65.594444 -64.736176 119.26855 10262156
64.66217 -64.683647 119.74838 9603457
63.643051 -64.735672 120.22889 10590096
62.661884 -64.692566 120.72897 11840933
61.811188 -64.729843 121.13252 9473414
60.872829 -64.857483 121.54312 10328464
59.992371 -64.856483 121.97696 9406851
59.111465 -64.85833 122.40993 8090995
58.289913 -64.950462 122.7773 8288116
57.321102 -65.046486 123.21563 7498857
56.438717 -65.056992 123.64581 7038563
55.469631 -64.954369 124.08302 8881018
54.528641 -64.602234 124.27827 9538691
53.51144 -64.637642 124.28874 9011576
52.733131 -64.405434 124.39988 10261386
97.569313 -63.151447 104.09991 7039331
97.26606 -63.117439 104.27791 9933193
96.113899 -63.360668 104.79779 6775642
95.242126 -63.348724 105.23586 7564642
94.370537 -63.337799 105.66933 7959144
93.305626 -63.546768 106.10968 7300959
92.507904 -63.456432 106.53868 9537920
91.694786 -63.587147 106.88649 8551287
90.866112 -63.497448 107.33047 8090994
89.848129 -63.65202 107.76957 9011579
88.956314 -63.665184 108.20332 9340540
88.047417 -63.574768 108.68708 9669505
87.167931 -63.5355 109.13585 8684155
86.134186 -63.653378 109.59742 11907753
85.29895 -63.636356 110.01545 12630443
84.450386 -63.607548 110.44478 9407870
83.600731 -63.535767 110.89191 8355187
82.830032 -63.57592 111.25522 9209728
81.857758 -63.653881 111.70255 10196622
80.983589 -63.690563 112.11815 8089963
80.090027 -63.625622 112.58401 8748661
79.197548 -63.563541 113.04804 11117208
78.306129 -63.504391 113.51028 10787987
77.437462 -63.551598 113.9185 10327692
76.426735 -63.701366 114.35538 9670534
75.567085 -63.697075 114.77996 11577760
74.680229 -63.649426 115.23547 8880759
73.794083 -63.604691 115.68947 9144187
72.937042 -63.608509 116.10963 10459537
71.990143 -63.699757 116.53875 8092019
71.106194 -63.663582 116.98828 9012347
70.27993 -63.720848 117.37177 10656657
69.307137 -63.775593 117.82836 11314586
68.335228 -63.833633 118.28323 12563880
67.56868 -63.988636 118.59799 10656400
66.598137 -64.052483 119.04985 11315100
65.716873 -64.03334 119.49117 10262156
65.129318 -64.022072 119.78471 9735812
54.352131 -63.83176 124.589 10262156
53.629189 -63.680599 124.66665 10656142
52.637455 -63.578865 124.731 10392971
51.859779 -63.350853 124.84046 9932934
101.76884 -62.153519 102.23878 8814195
100.75005 -62.403927 102.68684 8814195
99.883461 -62.393898 103.15933 9735555
98.955574 -62.458836 103.63426 8748917
98.075211 -62.571072 104.06414 8091245
97.080864 -62.61953 104.58191 9933193
96.295395 -62.639244 104.99501 8288368
95.473488 -62.588913 105.42719 6840919
94.61351 -62.547329 105.86731 9143418
93.579994 -62.692566 106.31776 9735299
92.657188 -62.589458 106.81347 8879991
91.764183 -62.538265 107.2737 7827821
90.928322 -62.587132 107.66558 8879995
90.122368 -62.68676 108.0223 10129802
89.208542 -62.594593 108.50923 10853522
88.2967 -62.505417 108.99397 10655888
87.284927 -62.669464 109.42616 9144193
86.397514 -62.69175 109.8541 14209988
85.49205 -62.611267 110.33218 12300966
84.588234 -62.533791 110.80827 10853778
83.713814 -62.506626 111.24967 8747890
82.680145 -62.69474 111.68301 8616563
81.894951 -62.679455 112.07571 7103324
81.023872 -62.794758 112.4582 7697000
80.12825 -62.731106 112.92467 8288879
79.345863 -62.856812 113.25937 9406846
78.452644 -62.798229 113.72236 9406590
77.52433 -62.918888 114.13038 9933190
76.59774 -63.042248 114.53648 10262155
75.70826 -62.992134 114.9942 11709345
53.436024 -62.998344 124.94272 12629674
52.756405 -62.595913 125.11919 10130055
51.743073 -62.640236 125.126 10854036
50.828712 -62.368675 125.25609 9603969
106.20602 -61.214684 100.22504 9011838
105.37269 -61.293777 100.64311 9472388
104.28381 -61.435654 101.17352 12894388
103.47591 -61.389374 101.62914 10919571
102.6842 -61.562965 101.98596 8615789
101.69479 -61.662361 102.48001 10853519
100.78738 -61.660259 102.97131 9406075
99.916145 -61.511364 103.50317 8880503
99.170998 -61.596603 103.87105 8748917
98.216888 -61.690754 104.34818 7170659
97.32946 -61.639912 104.84866 10524817
96.415291 -61.541187 105.37859 11116697
95.573441 -61.505604 105.81322 9275004
94.685768 -61.711342 106.16756 9275004
93.846046 -61.616737 106.61898 10458766
92.947762 -61.563999 107.08241 8617080
91.890892 -61.667244 107.56121 8091248
91.017342 -61.726673 107.96745 9276031
90.098763 -61.733967 108.41675 9012348
89.397537 -61.792202 108.7385 9866375
88.462761 -61.793049 109.1984 9932424
87.562401 -61.926762 109.58797 8814715
86.559738 -61.980778 110.05985 14077885
85.803406 -61.91404 110.45899 11643550
52.575226 -61.831692 125.42758 8682867
51.791965 -61.722637 125.4899 11314588
50.864922 -61.595554 125.56281 8946039
50.058491 -61.417778 125.65297 8485232
109.58173 -60.136833 98.77565 10853012
108.92684 -60.321136 99.138908 10853012
108.08117 -60.536724 99.564499 8419957
107.24078 -60.613609 99.988815 8748920
106.37481 -60.462948 100.5652 8551287
105.40721 -60.638512 100.95287 9275009
104.56467 -60.684296 101.38448 13222584
103.70432 -60.539967 101.95061 11248792
102.87499 -60.44511 102.46435 8089958
101.92863 -60.688778 102.8091 8025193
101.07236 -60.691963 103.26151 8090730
100.12618 -60.661945 103.7823 8157036
99.207832 -60.738796 104.22598 9801605
98.408699 -60.869339 104.5891 10590867
97.617104 -60.839748 105.03091 9801097
96.596924 -60.82106 105.57641 9735045
95.419701 -61.056602 106.06929 8682867
94.798355 -60.98605 106.40351 8682867
51.656776 -61.011292 125.77612 9932934
51.00375 -60.754807 125.9067 9932934
49.918766 -60.553406 126.07216 9011320
48.964951 -60.353764 126.22465 11709090
113.39835 -59.152077 97.139442 10591121
112.76213 -59.125313 97.776276 9011837
111.67345 -59.363102 97.895233 9866375
110.84897 -59.466618 98.477112 9274238
110.09478 -59.554398 98.998169 9734531
109.15771 -59.777752 99.48632 9405566
108.38654 -59.813931 100.01742 8354163
107.53626 -59.786949 100.50599 7564651
106.67601 -59.856564 100.91022 8485751
105.69646 -59.998234 101.3164 9998731
104.65973 -59.965687 101.90437 12236458
102.65845 -60.08374 102.88294 7762277
49.872215 -59.852463 126.60437 9340286
49.020626 -59.795109 126.67121 9932423
48.043198 -59.590363 126.8596 12695474
47.083191 -59.300705 127.29082 10328210
46.001537 -59.208153 127.45546 7367528
45.358158 -59.170753 127.59341 8814201
133.15321 -58.279037 88.098923 11378324
132.72641 -58.454311 88.506973 10129032
132.03011 -58.477428 89.194061 10458255
131.20927 -58.76535 89.56192 10063497
130.65749 -58.822514 90.109665 9735558
129.13226 -58.82373 90.206734 9735558
128.47711 -58.821712 91.135742 9077371
127.07798 -58.823292 91.063622 9471871
126.52694 -58.82164 91.825401 9142906
125.14464 -58.823238 91.742867 9932678
124.7008 -58.821949 92.34314 10196106
124.14236 -58.820354 93.090828 9801350
122.66447 -58.821667 93.138504 9602945
122.1013 -58.820107 93.87397 8681835
120.75201 -58.821754 93.762543 10260873
120.18485 -58.820232 94.486237 8090736
119.17625 -58.82016 94.856766 9800579
118.16627 -58.82011 95.219368 9340027
117.307 -58.839497 95.773796 9208696
116.23149 -58.856644 95.987183 8616818
115.33532 -58.901615 96.560989 10063752
114.61868 -58.946495 96.996872 8090987
113.72851 -58.956295 97.6604 10591121
111.99645 -59.094376 98.537224 9077373
46.833439 -59.084522 127.83252 12038058
46.187229 -59.046524 127.97237 8682874
