# .PCD v0.7 - Point Cloud Data file format
VERSION 0.7
FIELDS x y z rgb
SIZE 4 4 4 4
TYPE F F F U
COUNT 1 1 1 1
WIDTH 1184
HEIGHT 1
VIEWPOINT 0 0 0 1 0 0 0
POINTS 1184
DATA ascii
-50.918186 -62.889843 -124.47144 8945271
-49.83572 -63.23555 -124.63287 9012088
-49.019901 -63.263786 -124.84406 8946555
46.936733 -63.414234 -108.58923 11643550
47.81699 -63.062153 -108.31388 10788246
48.690701 -63.107338 -107.88127 8024945
49.577564 -63.039608 -107.4879 8945788
50.36301 -62.959656 -107.14764 8486262
-51.786625 -61.95953 -124.59362 14735567
-50.820431 -62.209095 -124.76041 10655889
-50.001225 -62.259171 -124.96416 9077369
48.806065 -62.231216 -108.1804 8616824
49.702862 -61.978935 -107.85693 9537924
50.633274 -62.009811 -107.40314 9077374
51.47308 -61.843346 -107.07202 8617337
52.277981 -61.611893 -106.78373 11775396
-52.753277 -60.911636 -124.73975 15724254
-51.898441 -61.0853 -124.90266 15722462
-50.987194 -61.325596 -125.05558 15722462
-50.327869 -61.537628 -125.15334 15722462
49.820053 -61.202133 -108.1151 9077118
50.685677 -60.956417 -107.82144 9340289
51.634205 -60.923859 -107.39175 10130060
52.530045 -60.871677 -107.00034 10064267
53.431629 -60.711327 -106.66288 8353651
-54.903614 -59.720879 -125.09634 8552056
-53.819862 -60.003098 -125.07109 11315616
-52.938427 -60.112244 -125.22343 15131094
-51.901096 -60.397137 -125.27829 15722462
51.831867 -60.346813 -107.71592 8419702
52.649685 -60.217201 -107.44138 9077629
53.63657 -60.049614 -107.12885 9208702
54.551487 -59.973427 -106.77387 8353650
55.534439 -59.71278 -106.64963 6840919
56.477192 -59.588158 -106.36137 7695204
57.490589 -59.476772 -106.19798 8090479
58.260418 -59.486153 -105.8036 7564651
-59.440266 -59.327187 -126.62659 8091499
-58.728252 -59.325333 -125.907 6511954
-57.880627 -59.329914 -126.05874 7235421
-56.751072 -59.35704 -125.66956 10130317
-55.885746 -59.426838 -125.6806 10459025
-54.826412 -59.534813 -125.56848 8092019
-53.90675 -59.576694 -125.67742 9342084
57.062046 -59.325317 -106.92474 8681843
57.577904 -59.33091 -106.66313 7893357
58.550053 -59.291317 -106.33112 7696236
59.48695 -59.279533 -105.93028 8880506
60.599232 -59.195732 -105.83117 8221546
61.462208 -59.174438 -105.57849 9997699
62.536541 -59.141731 -105.38979 9405819
63.356647 -59.140667 -105.39169 7760998
64.464798 -59.138596 -104.89761 7563619
65.374191 -59.137871 -105.2476 8550512
66.484741 -59.135765 -104.73504 9340798
67.422607 -59.134743 -104.88 7563619
68.407791 -59.132877 -104.42889 8222060
69.245552 -59.131756 -104.39832 10457478
70.340172 -59.129948 -104.09554 9931390
71.420944 -59.128593 -104.13374 9274488
72.403992 -59.126759 -103.6989 9537409
73.371605 -59.125584 -103.75954 8616307
74.355148 -59.123726 -103.30836 8879220
75.33123 -59.122528 -103.35736 8221548
76.315109 -59.120979 -103.1469 7038307
77.299515 -59.119423 -102.92694 7433065
78.291718 -59.118179 -102.96175 9012091
79.390404 -59.073009 -102.61521 8551287
80.189171 -58.786808 -102.5234 8419441
80.820869 -58.743366 -102.01022 8485232
80.350449 -58.11079 -102.71304 9537664
81.11454 -57.940994 -102.1489 8090474
81.707794 -57.636742 -101.79408 8485232
80.586639 -57.328213 -102.89015 8682867
81.244888 -57.054409 -102.46558 9669250
81.996849 -56.895672 -101.90649 6774869
81.474213 -56.221184 -102.67265 9471614
82.204056 -55.992363 -102.16596 6116172
82.882545 -55.902588 -101.63578 6445393
82.364822 -55.117371 -102.451 6839894
83.151215 -54.999519 -101.84312 6116172
83.828339 -54.666428 -101.43121 7563616
82.700974 -54.34972 -102.53625 11905692
83.279137 -54.057228 -102.18834 7300700
84.037003 -53.977539 -101.58624 7893351
83.530724 -53.359596 -102.31136 6511954
84.162079 -53.027485 -101.93755 6775126
84.876511 -52.977016 -101.35807 7170142
84.382233 -52.289806 -102.10639 9735555
85.084496 -52.011227 -101.64697 11380381
85.781563 -51.821095 -101.14935 7169631
85.28875 -51.058323 -101.93272 16314600
86.058189 -50.822983 -101.39573 10787730
86.725845 -50.56601 -100.95508 7037274
86.212082 -49.787918 -101.76361 10656657
87.01667 -49.717869 -101.11739 7563618
86.628792 -48.928154 -101.82509 8682867
87.15538 -48.764961 -101.45857 8156268
87.8284 -48.720379 -100.91129 8879479
87.419037 -48.000996 -101.60325 9735812
88.041267 -47.754879 -101.19588 7629668
88.692673 -47.70636 -100.66872 8287342
88.227715 -46.946014 -101.44328 6971738
89.030235 -46.78574 -100.8658 8747635
89.711937 -46.507984 -100.4894 8813171
89.234589 -46.094124 -101.31052 7760998
90.011345 -45.923023 -100.82513 8484463
90.789047 -45.753571 -100.33746 7563619
90.434204 -45.337032 -101.05614 8813171
91.113289 -45.085682 -100.76103 7629412
92.003456 -44.864746 -100.39787 11050132
93.113174 -44.558228 -100.37088 9339515
93.918678 -44.46273 -100.08157 9668736
94.634399 -44.43235 -99.597061 9406590
94.915337 -44.247097 -100.13087 8682867
95.852951 -44.156929 -99.821808 8945271
96.582443 -44.089874 -99.480797 7760741
98.007607 -44.088375 -99.746269 8881019
98.763733 -43.834858 -99.559212 9538691
-30.838451 -71.728271 -121.90082 9405566
-30.201393 -71.737663 -121.83614 8946044
-29.051197 -71.847183 -121.68543 7301478
-28.136879 -71.861206 -121.59244 9011323
-27.045559 -71.805481 -121.50806 8484721
-26.122494 -71.666328 -121.47048 8484721
-25.508812 -71.575478 -121.44492 8484205
-36.468563 -70.639679 -122.84151 9735296
-35.141003 -70.749672 -122.67355 9866369
-34.14912 -70.863403 -122.53651 10326922
-33.045319 -70.946167 -122.40007 9471614
-32.079273 -71.063744 -122.26408 9668737
-31.061798 -71.085327 -122.15839 9603202
-30.003674 -71.151779 -122.03235 9209215
-28.99482 -71.093491 -121.95679 9077886
-28.051983 -71.059669 -121.87864 9800581
-27.103432 -71.139969 -121.75803 9011065
-26.068966 -70.955284 -121.72646 7432032
-24.984627 -71.163559 -121.54579 9010548
-24.006775 -71.024284 -121.50295 9273463
-23.129711 -70.997787 -121.42845 9406334
-22.240761 -71.031746 -121.33054 8814198
-21.403267 -71.003471 -121.26049 8813680
-40.769978 -69.696037 -123.60133 8090987
-39.913868 -69.768585 -123.49242 8485488
-38.89082 -69.869598 -123.35702 9208954
-37.867702 -70.029572 -123.19995 9340795
-36.871067 -70.024101 -123.1062 9340795
-35.905941 -70.154854 -122.9655 9603198
-34.954838 -70.067352 -122.90624 9603197
-33.860458 -70.145599 -122.77237 9932164
-32.938686 -70.034035 -122.72478 8682099
-31.963039 -70.100098 -122.6068 10655886
-31.003403 -70.058044 -122.53003 8682611
-30.037876 -70.130234 -122.41074 8551285
-29.02803 -70.051727 -122.34258 9998473
-28.03447 -70.083305 -122.23553 9734788
-27.04287 -70.233604 -122.08505 8550513
-26.009754 -70.221581 -121.99021 6642516
-25.059925 -70.419983 -121.82611 8813169
-24.36367 -70.405014 -121.76477 9931136
-43.617176 -68.824791 -124.15601 5919050
-42.897713 -68.953674 -124.07831 6313808
-41.916111 -69.085884 -123.93548 6642773
-40.976315 -69.08477 -123.84558 8090987
-39.948692 -69.155716 -123.72081 10459276
-38.994473 -69.02636 -123.67661 12038052
-37.96867 -69.187599 -123.51886 8748660
-36.988842 -69.015465 -123.48795 9472125
-35.975368 -69.182487 -123.32924 9866370
-35.005527 -69.017273 -123.29673 9603198
-34.003956 -69.190063 -123.13702 10524042
-33.043587 -69.031639 -123.10294 9471613
-32.053432 -69.210129 -122.9423 12497830
-31.145618 -69.268181 -122.83374 12037025
-29.977974 -69.422638 -122.66483 8156781
-29.149036 -69.429474 -122.58268 8485494
-44.514408 -67.828812 -124.31439 5196103
-43.860081 -68.147911 -124.36427 5789006
-42.8773 -68.00618 -124.42429 6183250
-41.823696 -68.158371 -124.26717 7169373
-40.806431 -68.088043 -124.1953 8090987
-39.780598 -68.133568 -124.08001 11051669
-38.82468 -68.007027 -124.03464 11051418
-37.822929 -68.166611 -123.87981 8682870
-36.760303 -68.120209 -123.79476 10064004
-35.902004 -68.372704 -123.61954 10129541
-34.744434 -68.405464 -123.49634 10195078
-33.915104 -68.495026 -123.38372 10984596
38.252911 -67.50544 -111.0557 7828331
38.637669 -67.482506 -110.88247 8090987
-45.563908 -66.833992 -124.41132 4340793
-44.816151 -67.073029 -124.52306 4472636
-43.834106 -67.105072 -124.75748 5000003
-42.855938 -67.060646 -124.76949 5854798
-41.944122 -67.240837 -124.61571 7301471
-40.907375 -67.300774 -124.49406 8090986
-39.958492 -67.390366 -124.37003 8090987
-38.850285 -67.45343 -124.24043 7893615
39.171745 -67.081528 -110.79108 9143419
39.938648 -67.034279 -110.44641 10656145
40.851437 -67.051315 -110.00657 9866628
41.762207 -66.87545 -109.64561 9866371
-45.747547 -66.022049 -124.67382 5854545
-44.791954 -66.148399 -124.88557 6183252
-43.99205 -66.314407 -125.03965 6117970
40.151623 -66.198807 -110.68286 9603456
40.960056 -65.982063 -110.38695 10392457
41.955181 -66.09079 -109.871 9734785
42.812012 -65.958206 -109.51815 9866371
43.567776 -65.687317 -109.26904 10129289
-46.678379 -65.112701 -124.77022 7631211
-45.788879 -65.118935 -125.01021 7170917
-45.042812 -65.158867 -125.19816 8223345
41.374691 -65.254784 -110.48404 9734784
42.024731 -65.009163 -110.27492 9011575
42.860401 -65.041077 -109.86565 9602943
43.876102 -65.024292 -109.39062 10524047
44.659569 -64.819794 -109.10162 10853012
-47.686893 -64.051414 -124.90395 7894126
-46.791363 -64.09285 -125.13203 7170917
-45.958336 -64.29953 -125.27947 7302503
43.119366 -64.087936 -110.12781 8747892
43.925892 -63.960506 -109.79672 8681843
44.777344 -64.000572 -109.37665 10195082
45.716221 -63.930542 -108.95961 8946039
-48.62294 -63.089848 -125.01917 9867655
-47.805805 -63.107471 -125.23491 8485749
-46.833706 -63.244427 -125.44707 9341314
44.105152 -63.099583 -110.05939 9142393
44.996868 -62.928314 -109.70566 8879990
45.884148 -63.007164 -109.25294 10261384
46.752758 -62.844246 -108.90672 11182228
47.636208 -62.546974 -108.60773 11905696
-49.536381 -61.957432 -125.20697 9209467
-48.784107 -62.182533 -125.32502 9604225
-47.825825 -62.157234 -125.5956 10064521
45.186245 -62.213455 -109.9045 9932419
45.915779 -61.946537 -109.66633 10261384
46.902157 -61.862476 -109.23245 9998212
47.801708 -61.846031 -108.81233 11642780
48.621326 -61.718044 -108.4753 9537924
-50.513348 -60.973419 -125.32033 15722462
-49.752548 -61.165359 -125.45345 12564650
-48.850216 -61.166061 -125.6988 9209467
-48.147392 -61.435127 -125.78639 10787988
46.346241 -61.254642 -109.74169 9932419
47.005238 -61.137486 -109.47633 9275004
47.854527 -60.897221 -109.19486 9538432
48.84581 -60.911781 -108.71977 9011835
49.72617 -60.818291 -108.34989 9143167
50.45612 -60.611992 -108.13768 9340289
-52.476051 -59.721516 -125.66161 11380128
-51.63055 -59.898739 -125.75359 13222330
-50.766689 -60.148163 -125.79387 15393496
-49.785519 -60.332672 -125.90466 12762030
48.213516 -60.364643 -109.40305 9209467
48.945839 -60.251579 -109.15463 9341052
49.878681 -60.110744 -108.83693 8945786
50.836525 -59.989136 -108.5146 8945788
51.735294 -59.869255 -108.20277 8617080
52.714779 -59.704941 -107.90216 8749689
53.549946 -59.591564 -107.65127 9208702
54.65617 -59.452351 -107.6146 11182235
55.302532 -59.456375 -107.29688 8485232
-59.630386 -59.052876 -127.41582 7762277
-58.75423 -59.29594 -127.13669 7564898
-57.739265 -59.325619 -127.0733 6840407
-56.614002 -59.323917 -126.88722 10064265
-55.621021 -59.321819 -126.29917 10459025
-54.691883 -59.360489 -126.40374 8092019
-53.604229 -59.438549 -126.21613 9342084
-52.745762 -59.509575 -126.21191 11117469
-51.900837 -59.521484 -126.39986 9932940
52.841961 -59.44524 -108.49176 7565673
53.882183 -59.389896 -108.19225 8946299
54.730927 -59.30687 -108.08235 10655891
55.738407 -59.234901 -107.82872 8485232
56.646557 -59.242805 -107.37757 7827302
57.748932 -59.170795 -107.22632 7696236
58.669746 -59.156208 -107.21431 7564651
59.655666 -59.147327 -106.82675 7827822
60.54398 -59.14629 -106.91458 8419695
61.689877 -59.144337 -106.55338 8748147
62.610809 -59.143143 -106.55542 6774103
63.607327 -59.141556 -106.3251 8945271
64.605568 -59.139954 -106.08898 8682099
65.535088 -59.138733 -106.07019 7826791
66.638115 -59.13689 -105.75532 7892840
67.599182 -59.13559 -105.70788 7563619
68.579041 -59.133991 -105.45659 9142907
69.546509 -59.132664 -105.39653 9734526
70.529739 -59.131039 -105.13048 9734011
71.503616 -59.129688 -105.05759 10130313
72.490021 -59.128044 -104.77666 10985622
73.470184 -59.126667 -104.69086 9669250
74.459488 -59.125 -104.39494 8747377
75.445816 -59.123596 -104.29605 9142134
76.437805 -59.122173 -104.1926 9076598
77.529305 -59.099548 -104.00496 7893615
78.400719 -58.883156 -103.90302 9012091
79.256744 -58.798916 -103.30597 8419956
-60.117687 -58.010845 -127.65178 7038307
-59.748737 -58.314548 -127.66362 6709336
78.683716 -58.110729 -104.12178 8288371
79.361069 -58.010754 -103.5975 8682869
80.088791 -57.775158 -103.09585 8682867
-60.202671 -57.483685 -127.82855 8485235
79.518921 -57.07196 -103.91574 8682867
80.275009 -56.97784 -103.32203 10261641
80.97493 -56.666199 -102.88047 14603206
79.847496 -56.363087 -103.97902 8682867
80.442886 -56.055466 -103.62387 9669504
81.211571 -55.88501 -103.05633 10458763
80.73481 -55.253857 -103.7628 7958888
81.34639 -55.024288 -103.35644 8352875
82.065811 -54.81625 -102.84856 9734526
81.627731 -54.085491 -103.57028 9602684
82.293739 -54.028248 -103.03503 10589578
82.906937 -53.802231 -102.62555 9734526
82.462494 -53.078106 -103.3495 9537148
83.223236 -52.994877 -102.74666 9143418
83.803268 -52.703011 -102.39689 6511954
82.668091 -52.388924 -103.50722 8682867
83.349205 -52.053818 -103.09291 10458763
84.142029 -51.93718 -102.47899 9143674
83.617325 -51.152077 -103.30012 11576729
84.310349 -50.933247 -102.81973 11314330
85.018463 -50.60146 -102.38097 14998996
84.6175 -49.819283 -103.09608 7894123
85.299049 -49.77943 -102.53926 11577759
85.903343 -49.420189 -102.20146 11380124
85.468124 -48.808487 -102.86351 8485745
86.179588 -48.765041 -102.28316 9274748
86.745293 -48.437035 -101.96297 9735812
85.600189 -48.112682 -103.08656 8814968
86.315193 -47.812683 -102.62671 8814454
87.086411 -47.735344 -102.01217 8748917
86.509644 -47.018661 -102.84435 8419696
87.229248 -46.836662 -102.3548 6774615
87.965355 -46.574566 -101.91212 6840408
87.619179 -46.108852 -102.66254 7564131
88.340179 -45.979584 -102.18244 8353903
89.068352 -45.740707 -101.8063 7958633
89.66906 -45.626236 -101.41292 7563619
89.318184 -45.203426 -102.13452 7760996
90.191109 -44.986279 -101.6771 9865857
91.121605 -44.629166 -101.77483 8550256
92.072365 -44.486221 -101.55971 7695205
92.918365 -44.417427 -101.12475 7760997
93.31469 -44.233364 -101.55505 8089705
94.177719 -44.20303 -101.03095 9340541
95.149124 -44.093521 -100.85741 10130313
96.57077 -44.092052 -101.14388 9406590
97.296547 -43.939041 -100.72736 11642780
98.082153 -43.666977 -100.43691 12366758
98.652428 -43.703125 -99.92318 9538691
98.20314 -42.921684 -100.66505 11248536
98.89621 -42.806892 -100.11178 10985621
98.550552 -41.984215 -100.78162 7565675
99.097244 -41.823402 -100.37673 8683125
99.35537 -40.912121 -100.55956 10459279
99.675163 -40.460178 -100.48292 11906725
99.796936 -39.946678 -100.60654 11906725
-21.879913 -70.733398 -121.40547 8287598
-20.903992 -70.738579 -121.30976 8879990
-20.047955 -70.828377 -121.19459 8419439
-19.147774 -70.71579 -121.14944 8419439
-18.250149 -70.606606 -121.1033 8222060
-26.753841 -69.743073 -122.2374 7037274
-25.908089 -69.754448 -122.15199 6445138
-24.957527 -69.953598 -121.98753 8221033
-23.98719 -69.944427 -121.89767 8155498
-23.012951 -70.097687 -121.74779 9077370
-21.98484 -70.114807 -121.64269 8353391
-21.017921 -69.955742 -121.60824 8484206
-20.032654 -70.129539 -121.4497 7563618
-18.995819 -70.064857 -121.37388 8814454
-17.983643 -70.02372 -121.29171 9406847
-17.075592 -70.138138 -121.16246 7893096
-16.034428 -70.020592 -121.10559 7695461
-15.031344 -69.95208 -121.03438 7695205
-14.10139 -69.977089 -120.93584 8287342
-13.062493 -70.035149 -120.81468 8879991
-32.439648 -68.594536 -123.20549 8089963
-31.610508 -68.800713 -123.05005 13813177
-30.742046 -68.799171 -122.96721 12431526
-29.764011 -68.984848 -122.80505 8879989
-28.831196 -69.002609 -122.70889 8616819
-27.913937 -69.075294 -122.59409 8353135
-26.965733 -69.103607 -122.49261 7366239
-26.035702 -68.969673 -122.45242 5392706
-24.972969 -69.123726 -122.29375 6050636
-23.912018 -69.041321 -122.22208 6774358
-22.91885 -69.096359 -122.10647 8682356
-21.996292 -69.086067 -122.02158 9143419
-20.976547 -68.925644 -121.98252 9010807
-19.96077 -69.190277 -121.78777 8615791
-18.98399 -69.082855 -121.73338 8287596
-18.031578 -69.204056 -121.59734 8617075
-17.034664 -69.332779 -121.4543 7893096
-16.068634 -69.365776 -121.34937 7563619
-14.715955 -69.548622 -121.15221 7563619
-36.98185 -67.645241 -123.99046 9669507
-35.712036 -67.857445 -123.7905 10590091
-34.799416 -67.904228 -123.68562 9537405
-33.754505 -68.032265 -123.53825 9800574
-32.827991 -67.979698 -123.46852 9142644
-31.836349 -68.160423 -123.30688 11445145
-30.88316 -68.011612 -123.26997 13615286
-29.940277 -68.136421 -123.13354 11642267
-28.897991 -68.013306 -123.0786 9077368
-27.899544 -68.048615 -122.96972 9208954
-26.850273 -68.113472 -122.84509 7563619
-25.798775 -68.045792 -122.76893 5787208
-24.853012 -68.137291 -122.64445 5458499
-23.96397 -68.058517 -122.58797 6182989
-22.983253 -68.219147 -122.43476 8156265
-21.999767 -68.312798 -122.30587 8748149
-21.129177 -68.312714 -122.2223 8615534
-20.04607 -68.509323 -122.04597 8615534
34.514614 -67.765129 -112.72403 8090987
35.161648 -67.715584 -112.4371 8617334
36.194744 -67.64032 -111.97749 7038307
37.096462 -67.578705 -111.57466 8748665
37.739346 -67.537148 -111.28645 9143166
-41.496574 -66.716034 -124.7654 8090984
-40.710384 -66.834854 -124.64626 8485743
-39.66592 -66.87484 -124.5312 8485748
-38.849468 -66.995972 -124.40832 8222579
-37.880936 -67.114891 -124.27157 9209472
-36.88319 -67.059502 -124.19608 9603970
-35.877926 -67.118866 -124.07769 9274234
-34.890934 -67.069809 -124.00087 9010807
-33.835903 -67.091507 -123.89153 9734524
-32.886925 -67.016701 -123.82781 10063747
-31.876156 -67.120384 -123.69264 9537918
-30.821335 -66.992287 -123.63835 12628905
-29.789108 -67.13549 -123.48656 12168867
-28.832134 -67.105835 -123.40553 10064261
-27.762081 -67.210831 -123.26416 9735297
-26.869301 -67.284195 -123.15144 9405822
-25.852905 -67.386757 -123.01614 6840152
-25.059776 -67.499886 -122.89842 5787464
35.29353 -67.286987 -112.54765 9406079
36.26498 -67.007843 -112.19962 8090736
37.168461 -66.946655 -111.79579 9735045
38.069828 -66.889687 -111.39127 9405823
38.933468 -66.603607 -111.09716 8090987
-43.718937 -65.945419 -125.21764 9078139
-42.781078 -66.140053 -125.10034 6512727
-41.752552 -66.071739 -125.02661 6643540
-40.715984 -66.11879 -124.90973 9143670
-39.699528 -66.0569 -124.83479 9011576
-38.675419 -66.109917 -124.71696 8814714
-37.67041 -66.054359 -124.64078 9472643
-36.658257 -66.113266 -124.52193 9406591
-35.664253 -66.063995 -124.44452 8485233
-34.663544 -66.128754 -124.32458 10787732
-33.716007 -66.133514 -124.23183 10261127
-32.684505 -66.211502 -124.10405 9208693
-31.760815 -66.327744 -123.97264 8946038
-30.885712 -66.329597 -123.88785 13023917
-29.900612 -66.518272 -123.72395 12497575
36.464581 -66.367249 -112.36371 7696236
37.224434 -66.00383 -112.15006 9011323
38.180149 -65.944061 -111.72087 9734532
39.129986 -65.920074 -111.28004 10129802
39.949493 -65.666077 -110.99393 10392715
-44.523758 -64.956444 -125.4175 10986388
-43.679058 -65.051353 -125.54655 10920339
-42.609467 -65.145134 -125.44922 7762278
-41.658901 -65.021957 -125.40312 7696227
-40.66721 -65.151192 -125.26038 9406586
-39.712856 -65.031334 -125.21274 9142392
-38.746838 -65.167717 -125.0698 9011320
-37.768917 -65.218346 -124.95728 8682871
-36.679226 -65.34581 -124.80576 9472640
-35.738697 -65.397385 -124.6965 8090475
-34.723515 -65.574013 -124.5341 10788244
37.606926 -65.354294 -112.23098 9734532
38.382763 -65.064507 -111.98006 10195083
39.194923 -64.948654 -111.64162 13353147
40.097775 -64.900688 -111.23275 11971233
41.03194 -64.820259 -110.82211 10326664
41.681534 -64.513702 -110.63782 8682867
-45.527653 -63.961933 -125.52676 8025966
-44.634163 -64.009621 -125.75187 9210491
-43.743168 -64.094185 -125.91595 10197129
-42.731323 -64.273384 -125.78103 8813936
-41.728893 -64.259987 -125.68964 7695713
-40.673504 -64.423111 -125.52834 10656395
39.336628 -64.193077 -111.87957 10524562
40.212719 -63.960541 -111.55794 9932937
41.116516 -63.916786 -111.14693 10655629
42.018604 -63.876972 -110.73512 9142905
42.885609 -63.608822 -110.43221 9537150
-46.500526 -62.854469 -125.68799 7039331
-45.640743 -63.019123 -125.85889 8486516
-44.671383 -63.162586 -126.06779 9210491
40.548191 -63.321934 -111.65677 9209215
41.200687 -63.015213 -111.47117 10590609
42.138416 -62.939831 -111.05682 11247765
43.041634 -62.904064 -110.64286 10129286
43.862492 -62.758476 -110.3123 10063493
-47.360424 -61.859436 -125.83714 9142907
-46.611233 -62.089157 -125.9525 8419184
-45.605923 -62.062717 -126.23654 8550770
41.571003 -62.343395 -111.56689 8617080
42.259502 -62.13723 -111.32359 9866629
43.073372 -61.944454 -111.0154 9800321
44.068073 -61.93774 -110.54632 9537920
44.944202 -61.871761 -110.15736 8092019
45.658386 -61.581036 -109.93606 9932419
-48.328999 -60.870983 -125.95442 9143163
-47.571316 -61.067642 -126.08485 8221805
-46.671177 -61.07444 -126.32728 8748149
-45.971546 -61.347721 -126.4124 10261644
43.313175 -61.220722 -111.19399 9537150
44.112309 -61.040852 -110.89336 9341315
45.011288 -60.956596 -110.50717 8881021
45.976231 -60.932796 -110.06413 9932936
46.887165 -60.718544 -109.74471 9341053
-50.309139 -59.652561 -126.39435 10261641
-49.515942 -59.813389 -126.45796 8683382
-48.630482 -60.087795 -126.42728 8090732
-47.565342 -60.319035 -126.51894 7563619
45.209164 -60.328773 -110.847 10985369
46.108631 -60.167519 -110.56234 11248284
47.057549 -60.016247 -110.25682 9472127
47.97998 -59.956676 -109.88044 9735554
48.921108 -59.755459 -109.63127 9472124
49.824696 -59.649307 -109.33131 8682608
50.438068 -59.589043 -109.12246 7564651
-58.456364 -58.98251 -127.86051 8024937
-57.424885 -59.098854 -128.03481 7498081
-56.550625 -59.325203 -127.96458 10064265
-55.55093 -59.323124 -127.36433 7893607
-54.542328 -59.322071 -127.54945 8157037
-53.500736 -59.320305 -127.22692 7565163
-52.498608 -59.352253 -126.97639 7761773
-51.467419 -59.407402 -126.89432 8748667
-50.509602 -59.486969 -126.88854 8880764
49.186802 -59.450649 -110.19044 9143158
50.088345 -59.417316 -109.8774 7564384
51.042515 -59.381134 -109.54959 7104096
52.010899 -59.334824 -109.26009 7434088
52.948856 -59.218807 -109.2345 7763052
53.759289 -59.214718 -108.85691 8947323
54.915516 -59.155983 -108.76955 10327181
55.924168 -59.154751 -108.82481 8945783
56.83128 -59.152966 -108.35458 9142906
57.786259 -59.151638 -108.28414 8288365
58.872059 -59.15004 -108.13521 7696235
59.872128 -59.148487 -107.94022 7498596
60.794853 -59.14732 -107.95773 8090730
61.926582 -59.145245 -107.49375 7761765
62.857273 -59.144287 -107.67921 8024426
63.75436 -59.142437 -107.15028 9405821
64.699394 -59.141376 -107.27691 8484721
65.696541 -59.139603 -106.90114 8089963
66.638008 -59.138359 -106.88331 8090219
67.649223 -59.136715 -106.62493 8879991
68.750481 -59.135117 -106.49635 7893352
69.739014 -59.133507 -106.23836 7564643
70.719582 -59.132156 -106.17766 8748144
71.711472 -59.130516 -105.9048 10459278
72.575836 -59.12928 -105.81541 9735555
73.567528 -59.127758 -105.63115 10524815
74.563255 -59.126225 -105.4422 7168603
75.658981 -58.936592 -105.471 8418668
76.553879 -58.879211 -105.16431 8484977
77.503204 -58.821121 -104.75068 8354163
-59.27364 -58.083862 -127.92296 6906719
-58.499645 -58.125954 -128.1814 9340286
-57.722134 -58.334049 -128.37587 8287597
76.075928 -58.277504 -105.69814 8089704
76.7295 -58.0896 -105.46418 8551286
77.627289 -58.080482 -104.99174 7367270
78.345963 -57.929947 -104.49419 7762028
-60.190605 -56.893845 -128.06442 8485235
-59.461834 -57.101597 -128.24178 8485235
-58.642929 -57.212902 -128.489 10326925
77.82309 -57.176815 -105.27455 8090992
78.579514 -57.080902 -104.70525 8156526
79.188736 -56.815842 -104.31793 9998469
-60.268105 -56.071163 -128.3569 8485235
-59.552547 -56.095249 -128.60338 10129541
78.736404 -56.107265 -105.04105 12367270
79.487061 -56.045559 -104.43639 13222066
79.994049 -55.706047 -104.17126 12629674
-60.355717 -55.060711 -128.70847 8419184
79.101303 -55.402771 -105.07163 12630442
79.60891 -55.062576 -104.80631 12038049
80.360847 -55.003395 -104.19932 8353902
-60.72884 -54.136589 -128.92336 9866371
79.90773 -54.293106 -104.92391 9208954
80.520599 -54.031342 -104.53197 8682097
81.19738 -53.98138 -103.98407 8221290
80.757202 -53.185261 -104.73907 9997700
81.446762 -52.980812 -104.25466 11247765
82.071404 -52.887989 -103.77145 10852750
81.671692 -52.042553 -104.51595 9208697
82.396561 -51.865532 -103.98856 9406076
81.993408 -51.093742 -104.70052 8616048
82.611237 -50.865997 -104.28797 9274747
83.323074 -50.776909 -103.72926 11313557
82.891212 -49.991119 -104.47222 8682867
83.510635 -49.765064 -104.05753 9011575
84.183708 -49.710979 -103.51472 7762537
83.739601 -48.978447 -104.24246 8814968
84.428177 -48.742409 -103.77408 8091502
85.038643 -48.688335 -103.28419 7697001
84.606941 -47.915646 -104.02075 7499623
85.367073 -47.714413 -103.47521 7828331
85.99836 -47.456638 -103.06566 7563619
84.847961 -47.137093 -104.19157 7368037
85.532463 -46.875729 -103.76147 7629925
86.318466 -46.676098 -103.23571 9208697
85.929024 -46.210823 -103.99022 9010806
86.578629 -45.952175 -103.70036 10458249
87.293053 -45.877232 -103.1712 9011576
88.067688 -45.620579 -102.77359 8485489
87.6325 -45.253368 -103.51062 7695459
88.400032 -45.072449 -103.07903 7432288
89.367126 -44.735252 -102.91469 7168860
90.414551 -44.516697 -102.8479 9274748
91.314194 -44.409012 -102.52946 8484721
91.70372 -44.224869 -102.96574 8813686
92.324524 -44.227505 -102.42468 8221548
93.202774 -44.131081 -102.40967 8089963
94.061569 -44.096249 -101.87657 9802373
95.600342 -44.005714 -102.22537 7959144
96.285439 -43.806618 -101.81459 8682867
97.014557 -43.672462 -101.36581 9340027
96.550301 -42.946388 -102.09585 8287084
97.254776 -42.788425 -101.55202 9011062
97.88443 -42.658451 -101.06092 10524300
97.346725 -41.835365 -101.89848 8879477
98.143127 -41.770958 -101.23255 8616819
97.777161 -40.941452 -101.92322 13023917
98.324646 -40.778587 -101.51852 12498604
98.949959 -40.720924 -100.99876 9275005
98.532898 -39.889145 -101.73503 12104104
99.24321 -39.732796 -101.18536 11314588
99.918869 -39.432987 -100.73022 9011833
99.341263 -38.77832 -101.5347 8813686
99.955811 -38.745975 -101.0097 11709346
99.619492 -38.055843 -101.63789 8879736
100.15787 -37.779186 -101.29597 10261901
100.38898 -37.040833 -101.44995 12958639
100.69092 -36.3601 -101.51337 9735302
-13.518552 -69.75293 -120.96222 8616563
-12.92933 -69.693886 -120.92719 8616563
-12.040414 -69.770889 -120.81354 9143419
-11.098475 -69.780258 -120.71957 8616822
-9.98491 -69.744736 -120.62564 7959151
-8.9642076 -69.656654 -120.55991 7432806
-7.9458246 -69.572594 -120.49294 8814454
-18.66769 -68.674049 -121.8531 8681835
-17.878971 -68.714104 -121.76258 8024938
-16.770363 -68.868103 -121.59956 7695461
-15.899247 -68.924835 -121.49501 7563619
-15.044574 -68.927086 -121.41205 8287342
-13.991437 -69.145638 -121.23062 8682356
-12.957213 -69.041855 -121.16939 9275005
-11.96725 -68.916786 -121.12019 9538434
-10.944188 -69.177963 -120.92597 8288372
-10.006862 -69.094177 -120.8667 8025201
-8.984128 -69.006737 -120.80052 7695978
-7.9636812 -68.923317 -120.73312 7958889
-7.0122824 -69.093002 -120.57939 8353647
-5.9799242 -69.12989 -120.46664 9077626
-5.0898314 -69.075027 -120.40126 8090218
-4.1021738 -69.15358 -120.27755 9933191
-3.0296965 -69.224701 -120.14837 12433069
-23.645805 -67.642609 -122.71016 5920074
-22.811371 -67.754707 -122.58879 7695968
-21.713551 -67.857079 -122.44576 8549742
-20.812202 -67.901619 -122.34277 8549740
-19.878681 -68.064758 -122.19318 8286567
-18.901093 -68.012825 -122.11833 8747629
-17.856632 -68.053627 -122.00302 8484715
-16.885254 -68.141685 -121.87733 7695461
-15.929696 -68.004921 -121.83577 8550514
-14.865436 -68.007523 -121.73255 9142651
-13.888001 -68.153198 -121.58513 9209467
-12.892722 -68.025711 -121.53632 9275260
-11.874763 -67.991585 -121.45108 10656658
-10.952912 -68.135452 -121.30968 10459281
-9.9321451 -68.140511 -121.20974 9538180
-8.8626108 -68.183479 -121.09118 10065291
-7.9814653 -68.274864 -120.97297 8485748
-6.8079939 -68.509163 -120.77419 7958632
30.737022 -68.095032 -114.38259 10788244
31.537369 -67.862228 -114.097 10195850
32.45145 -67.779701 -113.69672 9867141
33.362877 -67.701553 -113.29599 8617331
34.093536 -67.69381 -112.9525 9012089
-28.448658 -66.640991 -123.5394 8090987
-27.805717 -66.715996 -123.45008 8880246
-26.766628 -66.819672 -123.31215 9734788
-25.852116 -66.847847 -123.21398 8484979
-24.824905 -67.011353 -123.05521 7037787
-23.805351 -67.030792 -122.95013 6577746
-22.784039 -67.133194 -122.81441 7958883
-21.829361 -67.078506 -122.74277 9142650
-20.913086 -66.965492 -122.69625 8945273
-19.870262 -67.139618 -122.53212 8945011
-18.82494 -67.080101 -122.45354 9142388
-17.826408 -66.999565 -122.38718 9208183
-16.88047 -67.124741 -122.25033 9011062
-15.84644 -67.076599 -122.16866 9602944
-14.834155 -67.105331 -122.06083 9274749
-13.970757 -67.275055 -121.91558 9209467
-12.970489 -67.345383 -121.79363 10393227
-12.138192 -67.331917 -121.71861 12432037
-10.944659 -67.548828 -121.52428 9011838
31.845234 -67.361794 -114.15308 10788244
32.497597 -67.024658 -113.97982 9406593
33.443794 -66.909416 -113.57757 8551538
34.366608 -66.949005 -113.12383 9670019
35.166248 -66.878136 -112.77316 9339513
-33.39175 -65.702858 -124.35885 10984596
-32.73563 -65.713821 -124.29174 9011315
-31.661411 -65.858574 -124.13538 8682867
-30.722141 -65.873718 -124.03957 11313814
-29.736874 -66.06353 -123.87521 13155503
-28.823742 -66.026733 -123.80099 11708571
-27.797726 -66.08107 -123.68246 8748660
-26.751045 -66.068581 -123.58649 9142909
-25.709667 -66.059547 -123.48975 8550773
-24.698818 -66.123871 -123.36903 8879732
-23.769619 -66.002846 -123.32417 6446417
-22.827816 -66.103172 -123.19688 7301469
-21.788288 -66.054024 -123.11505 8287859
-20.725506 -66.086899 -123.00086 9077116
-19.737038 -66.167503 -122.87628 9602944
-18.815559 -66.225624 -122.76645 9602943
-17.89772 -66.286514 -122.65591 9010802
-16.824028 -66.496788 -122.47549 9734527
33.626652 -66.071274 -113.82935 9275005
34.454571 -65.888046 -113.51066 8748147
35.31963 -66.010628 -113.05083 8549998
36.21352 -65.982269 -112.63828 7169377
36.794109 -65.719246 -112.46914 7038307
-37.662579 -64.69014 -125.14101 9340028
-36.798573 -64.889488 -124.98482 8682868
-35.703648 -64.859306 -124.89069 9472384
-34.723709 -65.139259 -124.69372 9735555
-33.723911 -65.046219 -124.63182 9406590
-32.757607 -65.100044 -124.51923 8945780
-31.754696 -65.083412 -124.42897 9077624
-30.744255 -65.004715 -124.36082 9735041
-29.707039 -65.151489 -124.20728 12300451
-28.657158 -65.035378 -124.14905 12432294
-27.620564 -65.190407 -123.99252 9274494
-26.677422 -65.061478 -123.94925 8551030
-25.728966 -65.045074 -123.86414 8353652
-24.811493 -65.18679 -123.72397 9800838
-23.831291 -65.184746 -123.63054 8617078
-22.724983 -65.375603 -123.45416 7695973
-21.789566 -65.425392 -123.34605 8813945
34.706024 -65.139076 -113.69389 9405049
35.524601 -64.948647 -113.38255 8484205
36.334038 -65.012321 -112.97289 7037274
37.221813 -65.038521 -112.54121 7103327
38.012547 -64.809258 -112.25873 9010809
-43.467846 -63.613064 -126.09432 12762541
-42.569485 -63.802456 -125.93839 9536633
-41.635056 -63.780231 -125.85682 8616301
-40.579113 -63.94463 -125.69498 9998210
-39.6138 -63.988682 -125.58605 9142392
-38.571438 -64.157837 -125.42379 10720652
-37.574947 -63.9958 -125.38757 9866631
-36.545319 -64.170212 -125.22457 9077626
-35.559147 -64.014603 -125.18699 9341054
-34.541706 -64.194283 -125.02325 9472383
-33.565365 -64.045044 -124.98428 10788244
-32.570904 -64.119659 -124.86134 8748664
-31.592556 -64.086983 -124.77932 9537920
-30.619114 -64.057236 -124.69676 9603198
-29.675903 -64.187035 -124.55843 8813683
-28.731228 -64.212814 -124.45823 9274233
-27.752285 -64.410469 -124.29158 9208698
-26.889797 -64.426346 -124.20292 7893358
35.797009 -64.227188 -113.54478 7760739
36.531906 -64.021111 -113.2794 6906204
37.348934 -63.999092 -112.90078 5985875
38.27029 -64.067009 -112.43633 9471360
39.064278 -63.888149 -112.13194 7892842
-44.336491 -62.775707 -126.30795 9210491
-43.541763 -63.048668 -126.30237 12498855
-42.487759 -63.10062 -126.18829 9668219
-41.503704 -63.032707 -126.11868 9536633
-40.522793 -63.114166 -125.99453 8682098
-39.564098 -62.999306 -125.94461 8221292
-38.580112 -63.137932 -125.79916 9340029
-37.645245 -63.03083 -125.74868 9274751
-36.658852 -63.171844 -125.60217 8551542
-35.669415 -63.018188 -125.56349 8814970
-34.648808 -63.199379 -125.3989 10064520
-33.651943 -63.2174 -125.29653 9340799
-32.582188 -63.360828 -125.14107 7827821
-31.818844 -63.450203 -125.03488 9143166
37.55434 -63.177429 -113.13524 5920082
38.32832 -62.931129 -112.8676 8090477
39.289547 -63.076469 -112.35295 7695979
40.170246 -62.991425 -111.96959 8617080
40.884235 -62.684883 -111.75471 7761772
-45.306679 -61.666439 -126.47064 8616563
-44.534714 -61.951859 -126.57112 8156524
-43.464001 -62.133705 -126.63172 9800831
-42.506077 -62.073315 -126.56728 10326149
-41.516304 -62.208923 -126.42239 9865598
-40.535984 -62.091175 -126.37145 8813427
-39.446564 -62.158817 -126.24197 7695205
-38.456776 -62.268326 -126.10663 7696490
-37.343876 -62.347725 -125.9706 9143422
-36.568806 -62.481064 -125.84711 8091248
38.618977 -62.182667 -113.032 8484973
39.411686 -62.050533 -112.7094 7630183
40.254688 -61.982807 -112.33688 9011836
41.189198 -62.022705 -111.87749 7696236
41.982235 -61.809361 -111.58754 8222579
-46.21619 -60.671997 -126.60667 12169897
-45.457306 -60.988018 -126.69353 10064265
-44.464386 -60.956341 -126.97993 8945784
-43.476711 -61.302368 -126.94365 8550257
-42.462414 -61.294067 -126.84928 9405305
-41.298855 -61.531914 -126.65013 10128771
40.439167 -61.067749 -112.62651 8419443
41.331425 -60.998928 -112.24074 7696237
42.240414 -60.899151 -111.86462 7630444
43.036781 -60.816284 -111.51687 9537666
-48.458916 -59.610992 -127.02983 8089963
-47.447834 -59.891056 -126.89128 8353135
-46.476444 -60.053062 -127.02641 10393230
-45.558201 -60.20377 -127.15614 9406335
-44.89819 -60.333595 -127.23232 7037274
41.640057 -60.258034 -112.58606 7564651
42.407726 -60.144775 -112.32304 8419702
43.355286 -60.071739 -111.94141 9669252
44.200603 -60.021847 -111.58678 9209215
45.209507 -59.769062 -111.42202 10853783
46.170948 -59.582104 -111.22436 12300971
46.980274 -59.513897 -111.00794 8089963
-57.121384 -58.784657 -128.41237 6510930
-56.32003 -58.963879 -128.57892 8419183
-55.424084 -59.138878 -128.73465 9340541
-54.379337 -59.323212 -128.57152 7762277
-53.412846 -59.321594 -128.29115 10853778
-52.454586 -59.319958 -128.01091 12037799
-51.365124 -59.318718 -128.11922 10064522
-50.405224 -59.318386 -127.5051 7433831
-49.451298 -59.403587 -127.50401 7959918
-48.272671 -59.471371 -127.54202 11115669
-47.377888 -59.589153 -127.39306 14010046
-46.759571 -59.577381 -127.59842 13154994
47.409306 -59.351425 -111.34599 8089963
48.154728 -59.39333 -110.86096 8879990
49.153629 -59.258717 -110.86816 7498335
50.122875 -59.231628 -110.51498 8287850
51.144726 -59.162868 -110.31021 7498850
52.048687 -59.1618 -110.39203 7236709
53.048244 -59.160332 -110.25325 8355187
54.192631 -59.158344 -109.86752 11249307
55.009785 -59.157375 -109.93385 11446175
56.01334 -59.155697 -109.64184 9340799
57.177284 -59.153793 -109.33208 9472127
58.070957 -59.152782 -109.44636 8880502
58.983051 -59.150963 -108.95768 7564642
59.914997 -59.149967 -109.11974 7037788
60.91991 -59.148232 -108.78654 7761765
62.02293 -59.146587 -108.61818 7235421
62.997849 -59.145191 -108.51392 8880503
64.037781 -59.143456 -108.21355 8287598
64.956749 -59.142357 -108.28722 12300452
65.96917 -59.140495 -107.86282 8747635
66.926773 -59.139477 -108.03333 8616306
67.826691 -59.137585 -107.47009 8946040
68.797142 -59.136471 -107.58003 7959401
69.804749 -59.134636 -107.17221 8419696
70.784592 -59.133499 -107.27087 9077369
71.951942 -59.028545 -107.04359 8945783
72.768471 -58.914589 -106.91452 9406590
73.79007 -58.807121 -106.56585 11182228
74.730293 -58.715912 -106.14836 8287084
75.444069 -58.563457 -105.88216 9734014
-57.918766 -57.752449 -128.53439 10853012
-57.196346 -58.037373 -128.67915 7629411
-56.310249 -58.098125 -128.97008 6709333
-55.590343 -58.385582 -129.11296 6512978
73.009048 -58.259575 -107.15972 8419695
73.927528 -57.830956 -106.89709 9010806
74.791245 -57.882816 -106.46664 8089962
75.739029 -57.851822 -106.0298 7827048
76.639954 -57.653 -105.68302 8880507
-58.166145 -56.984585 -128.74796 9931910
-57.327251 -57.027805 -129.02901 7760998
-56.542084 -57.356102 -129.17902 7432289
74.318619 -57.151451 -106.98614 9010806
74.976395 -56.906109 -106.77339 7827047
75.794769 -56.922874 -106.37864 8485489
76.690369 -57.022812 -105.91365 9209214
77.54866 -56.777306 -105.60585 8880507
-59.079739 -55.79248 -128.89034 10326664
-58.302402 -56.033691 -129.07291 9208444
-57.459309 -56.062527 -129.36108 8353135
76.019455 -56.140186 -106.58826 10722707
76.804222 -55.964462 -106.28716 9209469
77.728149 -55.956421 -105.85235 7630183
78.37265 -55.805462 -105.49367 9669760
-59.978626 -54.819134 -128.93559 9866371
-59.34182 -55.075844 -129.06781 9931907
-58.383904 -55.156055 -129.38242 9011065
77.01329 -55.263638 -106.47111 11314844
77.770172 -54.970078 -106.23085 7828332
78.69471 -54.789322 -105.71021 10459276
79.282127 -54.58165 -105.3138 12630442
-60.156322 -54.080784 -129.15059 8747892
-59.210384 -54.222202 -129.43774 8418928
-58.564102 -54.59502 -129.52959 10459023
78.880081 -53.850433 -106.00534 9341054
79.632736 -53.756535 -105.41446 10722191
80.263618 -53.414131 -105.04607 10261129
-60.894642 -53.080051 -129.26834 9866371
-60.280781 -53.269852 -129.4124 9142649
-59.484867 -53.296246 -129.68881 8813685
79.120766 -53.118549 -106.15404 8682867
79.761497 -52.804291 -105.76373 9406077
80.544876 -52.615234 -105.19268 10458508
-61.053753 -52.282497 -129.79898 9866371
-60.377037 -52.567539 -129.7749 11708316
80.061325 -51.869953 -105.95982 11905183
80.709984 -51.802319 -105.44421 11444889
81.413948 -51.512695 -104.98862 8616818
80.906036 -50.836342 -105.74321 10260616
81.628098 -50.774456 -105.16278 8616048
82.263275 -50.436417 -104.78869 7563619
81.237137 -50.130054 -105.80316 7563619
81.799774 -49.792389 -105.49014 9207927
82.512291 -49.738724 -104.91387 10128515
83.096878 -49.444038 -104.56166 8682867
82.069397 -49.134739 -105.57875 9142135
82.673515 -48.768185 -105.24452 10260358
83.434196 -48.67754 -104.64528 8880248
82.948738 -47.944706 -105.40813 13418932
83.632683 -47.774475 -104.91197 9472128
84.338089 -47.577827 -104.41045 9275519
83.808655 -46.96566 -105.16776 10524301
84.588707 -46.75798 -104.63718 8748918
85.293701 -46.506161 -104.23071 9010806
84.800362 -46.102684 -105.05375 8879222
85.542313 -45.892151 -104.63747 8418927
86.249718 -45.72213 -104.20975 8024169
85.986359 -45.333282 -104.8231 7563619
86.665421 -45.075867 -104.5434 9010806
87.562729 -44.851315 -104.21065 8616304
88.575027 -44.58873 -104.11787 6510930
89.47435 -44.442436 -103.96078 7300959
90.197662 -44.406258 -103.49444 8617075
90.082199 -44.221832 -104.36321 6510930
90.582077 -44.222229 -103.93458 8419184
91.467682 -44.162693 -103.69303 8090219
92.470879 -44.100197 -103.32738 8616307
93.884399 -44.098785 -103.65143 8092011
94.590889 -43.865135 -103.26877 10065801
95.339119 -43.714909 -102.76354 8486256
95.919861 -43.486233 -102.40409 6511954
94.989067 -43.134991 -103.37337 10065801
95.521233 -42.797806 -103.06011 10723475
96.193581 -42.736462 -102.50104 7300703
95.774734 -41.910561 -103.23619 9932934
96.480537 -41.75005 -102.69233 8024425
97.15097 -41.44693 -102.24323 9340027
96.56987 -40.797268 -103.04095 7893095
97.309341 -40.763386 -102.41103 8353133
97.89669 -40.428612 -102.04864 8089963
96.959328 -40.073296 -103.02533 7959144
97.496674 -39.737064 -102.70815 7958377
98.173775 -39.677475 -102.1431 8616563
97.656815 -38.941711 -102.94382 8090475
98.389214 -38.893162 -102.3196 8089963
99.025261 -38.389145 -102.00168 8089963
97.882965 -38.375488 -103.01867 8090987
98.476135 -38.040565 -102.65653 8682356
99.239273 -37.845188 -102.07642 7958635
98.774445 -37.360645 -102.72273 10985367
99.412292 -36.995449 -102.33586 8748409
100.09219 -36.950516 -101.75633 9143423
99.636864 -36.070477 -102.58617 7564651
100.31837 -36.011337 -102.01208 7762029
100.86568 -35.676502 -101.69048 9735302
99.929276 -35.319912 -102.69186 7564651
100.54939 -35.027859 -102.28511 9472130
101.04065 -34.992142 -101.86797 8879993
100.70235 -34.299763 -102.50315 9932163
101.17567 -33.962658 -102.2497 9406077
101.51662 -33.290413 -102.35004 9932163
-4.6262732 -68.67881 -120.50225 8090218
-3.8303156 -68.707939 -120.41509 9933959
-2.9535589 -68.711433 -120.32954 10525331
-2.0245504 -69.003609 -120.13297 10590868
-1.0188875 -68.948257 -120.05669 9471876
-0.014819145 -68.897202 -119.97897 8024944
0.98789883 -68.850006 -119.89994 8551286
1.9893103 -68.807076 -119.81949 9933449
2.9895935 -68.767975 -119.73775 11249307
3.9887714 -68.733124 -119.65453 8881018
4.9870329 -68.702087 -119.57001 8749689
5.9818983 -68.836411 -119.42511 9012347
6.9780722 -68.813377 -119.33786 8288109
7.9735422 -68.794563 -119.24911 10392461
8.8264532 -68.781418 -119.17202 9208435
26.779915 -68.511772 -116.09119 9998470
-9.4634829 -67.746025 -121.30961 11381404
-8.8772879 -67.697655 -121.271 11381404
-7.9119463 -67.759781 -121.15543 8420214
-6.9828024 -67.981964 -120.98458 7498083
-5.9432974 -68.122002 -120.83328 7563874
-4.9273767 -68.051826 -120.76142 7366239
-3.9133253 -67.985535 -120.68834 8223344
-2.9011755 -67.923546 -120.61385 7565674
-1.9150782 -68.072144 -120.46455 10722453
-0.91932964 -68.106575 -120.35622 9208961
0.069109917 -68.118698 -120.2568 8419702
1.0923586 -68.010056 -120.19837 8814454
2.0778208 -68.030006 -120.09637 9406589
2.994626 -67.962578 -120.03306 9077883
3.9947824 -68.088898 -119.89057 8091760
4.9930382 -68.218979 -119.74689 8420724
5.8934212 -68.409279 -119.59045 8946554
6.984025 -68.491325 -119.45557 9406591
27.191391 -68.3069 -115.97881 11905953
27.764862 -68.124786 -115.78036 11050902
28.66103 -67.989075 -115.4101 9143423
29.584183 -67.893593 -115.01075 10261902
30.373096 -67.815239 -114.66822 11578016
-14.857659 -66.618248 -122.24203 9340798
-13.802157 -66.757912 -122.0893 9670017
-12.750802 -66.901184 -121.93568 11840415
-11.819825 -66.936897 -121.83311 11050901
-10.856879 -67.009651 -121.71385 8945788
-9.8360453 -67.160881 -121.56026 9275265
-8.8967638 -67.05088 -121.51041 9538692
-7.870595 -66.970116 -121.44147 7959408
-6.817275 -67.008629 -121.32612 8419440
-5.8584719 -67.116463 -121.19441 8616819
-4.8569841 -67.110153 -121.10051 7564388
-3.8701792 -66.982407 -121.05257 8355188
-2.8727064 -66.983803 -120.95624 8684151
-1.8982515 -67.006592 -120.85426 10853521
-0.92465115 -67.198853 -120.69009 8551285
0.12438107 -67.278687 -120.55997 8814459
1.1317568 -67.393845 -120.4209 8485232
1.8503294 -67.36335 -120.36309 8485232
28.833454 -67.143044 -115.67001 7564392
29.670288 -66.939713 -115.35519 7564386
30.622196 -66.936729 -114.90489 11314844
31.45393 -67.04393 -114.46709 11578016
32.168926 -66.704369 -114.26507 9143167
-20.388653 -65.586868 -123.15214 8813945
-18.845066 -65.737328 -122.94859 9734529
-17.72113 -65.830956 -122.80621 9668734
-16.69973 -65.99321 -122.64848 9997185
-15.788825 -66.061096 -122.53604 10128771
-14.781556 -65.929382 -122.4876 9012090
-13.762467 -66.125252 -122.3178 11182742
-12.784774 -66.091621 -122.23621 14076862
-11.786452 -65.971092 -122.18456 9800837
-10.727567 -66.042755 -122.0565 8485493
-9.8101358 -66.15416 -121.92747 9077629
-8.7788363 -66.070793 -121.859 8551800
-7.7498293 -65.991325 -121.78931 7761771
-6.9054041 -65.969337 -121.71622 8682868
-5.8775148 -66.208374 -121.52971 7366496
-4.8136282 -66.268982 -121.40524 7828331
-3.7920656 -66.365509 -121.27164 9144702
29.85989 -66.291855 -115.52695 6511954
30.715046 -65.924377 -115.26978 13552062
31.561214 -66.017265 -114.83087 10525330
32.493256 -66.048874 -114.37601 9208960
33.368679 -65.740013 -114.08557 8617335
-24.489876 -64.77327 -123.84491 8420470
-23.615295 -64.728607 -123.77729 8420470
-22.605846 -64.866814 -123.62954 7893611
-21.620934 -64.982315 -123.4925 8945530
-20.7374 -64.971451 -123.41161 8813944
-19.776611 -65.098709 -123.27256 9405822
-18.688911 -65.095207 -123.16936 8945271
-17.669189 -64.954086 -123.12323 10326151
-16.77718 -65.120392 -122.97643 9800063
-15.730494 -65.048119 -122.90243 9208698
-14.694137 -65.007019 -122.81795 8092019
-13.729056 -65.043968 -122.71165 9801606
-12.767077 -65.084236 -122.60445 9340799
-11.740651 -65.053993 -122.51694 9142909
-10.736333 -65.099571 -122.40372 8814201
-9.7529058 -65.318069 -122.229 9734789
-8.7979765 -65.426292 -122.0975 8551031
-8.0612288 -65.369377 -122.04764 7564651
31.13726 -65.229416 -115.35021 14078918
31.791248 -65.036545 -115.11787 9077374
32.561283 -65.055611 -114.74496 8682873
33.506229 -65.025024 -114.3091 9208959
34.328632 -64.890495 -113.97335 9339514
35.109997 -64.588463 -113.72471 9931136
-29.351303 -63.766357 -124.68169 6510930
-28.628235 -63.749462 -124.61846 8221546
-27.734924 -63.876728 -124.48593 8353902
-26.652409 -63.939079 -124.35902 7761769
-25.636898 -64.050316 -124.2206 7762285
-24.600368 -64.1604 -124.0806 7894383
-23.606544 -64.002678 -124.04301 7697261
-22.660294 -64.106003 -123.91416 7301988
-21.666142 -64.063744 -123.83418 8288113
-20.604271 -64.002647 -123.75461 9274237
-19.554245 -64.180931 -123.58824 8418927
-18.637913 -64.079781 -123.53737 7826790
-17.665218 -63.942963 -123.49414 9800581
-16.664398 -64.078438 -123.34824 9340027
-15.693215 -64.220276 -123.20282 9603456
-14.732625 -64.198959 -123.11839 9078142
-13.760327 -64.344208 -122.97161 8618105
-12.8525 -64.476425 -122.8359 8288366
32.841045 -64.231918 -114.94496 9077374
33.602299 -64.080605 -114.64497 9340030
34.521656 -64.009064 -114.23782 8023913
35.410275 -63.904377 -113.8586 9076085
36.183537 -63.655502 -113.59235 9931650
-33.540958 -62.697239 -125.47688 8880249
-32.693989 -62.908035 -125.31809 7696235
-31.58147 -62.956158 -125.19351 9669253
-30.586178 -63.03997 -125.06712 10392459
-29.571499 -63.131409 -124.93609 8089961
-28.51635 -63.020035 -124.87557 7563874
-27.475006 -63.178658 -124.7173 8485488
-26.527054 -63.05394 -124.67201 8024681
-25.573948 -63.041294 -124.58509 8748660
-24.616238 -63.14032 -124.45669 8420470
-23.619419 -62.984631 -124.41811 8617591
-22.589813 -63.10252 -124.27589 7894123
-21.54306 -63.131626 -124.16465 9669762
-20.547222 -63.148476 -124.06277 11840160
-19.604683 -63.369831 -123.89093 8682099
-18.757702 -63.358868 -123.81359 8287341
-18.065681 -63.366325 -123.74435 9537409
33.740154 -63.368374 -114.86729 8879479
34.620098 -63.067455 -114.57143 8155756
35.539772 -63.000446 -114.16226 10721167
36.457111 -62.937443 -113.75262 11642523
37.341351 -62.693657 -113.43166 8748406
-39.901432 -61.647839 -126.47332 7563619
-38.516178 -61.768421 -126.29594 7170403
-37.557156 -61.822128 -126.18405 8091248
-36.404301 -62.021427 -126.00011 8551799
-35.409531 -62.03437 -125.8998 9341571
-34.427723 -62.156757 -125.76051 10656916
-33.446381 -62.012371 -125.71926 8551284
-32.475346 -62.139751 -125.57919 7761772
-31.46426 -62.062832 -125.51031 9274495
-30.486073 -62.0373 -125.4257 8748405
-29.502224 -62.124218 -125.29927 8024937
-28.543045 -61.995197 -125.25449 8682611
-27.596863 -62.13522 -125.11217 8024681
-26.608459 -62.073372 -125.03992 7827302
-25.59745 -62.180737 -124.90337 7893349
-24.679253 -62.325226 -124.76208 7104092
-23.571815 -62.354805 -124.64482 8617334
-22.302742 -62.532085 -124.45778 7894123
34.9492 -62.421158 -114.67637 8616307
35.669373 -62.098244 -114.46523 9208444
36.560513 -61.999214 -114.08256 11445659
37.478352 -61.940548 -113.67088 8551027
38.349056 -61.826462 -113.30396 7827304
39.083824 -61.536972 -113.07237 7761512
-43.312603 -60.83342 -127.10008 8616307
-42.367512 -60.816586 -127.01702 8747634
-41.362717 -61.02964 -126.84069 9273719
-40.369877 -60.998924 -126.75716 8878963
-39.469143 -61.12653 -126.62534 8418669
-38.483387 -61.085041 -126.54374 8813683
-37.52998 -61.107918 -126.44524 8156527
-36.490349 -61.084885 -126.35232 9735559
