# .PCD v0.7 - Point Cloud Data file format
VERSION 0.7
FIELDS x y z rgb
SIZE 4 4 4 4
TYPE F F F U
COUNT 1 1 1 1
WIDTH 1198
HEIGHT 1
VIEWPOINT 0 0 0 1 0 0 0
POINTS 1198
DATA ascii
122.46794 -44.082039 -76.956512 7893864
123.0135 -44.080574 -76.07357 8616048
123.37392 -44.079601 -75.482803 10260358
125.01326 -44.077831 -75.252144 9931908
125.54645 -44.076359 -74.350853 9012093
125.8985 -44.075378 -73.748009 9341057
127.46899 -44.073807 -73.641212 7564651
127.99014 -44.072323 -72.721985 8485494
129.9189 -44.067493 -71.972298 9143678
130.62251 -43.871773 -71.314171 7893096
131.53978 -43.72702 -70.822906 7103323
132.29007 -43.858494 -70.085823 6510930
133.01585 -43.720592 -69.45871 8419440
133.85152 -43.646355 -68.790062 9208699
134.5406 -43.736591 -68.128143 6642517
135.06873 -43.743755 -67.651176 6840152
135.97893 -43.360737 -67.022911 5919050
11.291731 -43.539051 -149.8452 9736329
11.987627 -43.462463 -149.52937 9012605
13.026724 -43.348083 -149.05162 10261640
13.88817 -43.2533 -148.64998 10853012
14.745111 -43.159046 -148.24461 8813683
15.767939 -43.046497 -147.75395 9866885
16.6159 -42.953194 -147.34148 9603202
17.291059 -42.878914 -147.00906 7761513
18.804842 -42.712269 -144.89656 8681843
19.629526 -42.621559 -144.47806 7958120
20.286604 -42.549221 -144.14119 10262156
37.241211 -42.824821 -132.64264 7958632
37.93631 -43.020912 -132.27997 7368295
38.74324 -43.103939 -131.91594 7697002
39.726677 -43.039722 -131.53746 11972513
40.732216 -43.043285 -131.12321 10656396
41.61071 -43.160957 -130.71626 11576729
42.373474 -43.330353 -130.33643 6510930
131.85933 -43.207043 -70.791214 7761253
132.46234 -42.970158 -70.366684 8879990
133.21007 -42.893818 -69.733742 12235689
134.02904 -42.803974 -69.043671 8090475
134.71745 -42.816784 -68.42025 6182222
135.45221 -42.96627 -67.688332 6511187
136.17079 -42.817474 -67.117081 5919050
137.01842 -42.740307 -66.395035 6313808
137.62532 -42.440842 -65.997734 7234653
20.614038 -42.513233 -143.972 10262156
21.266691 -42.441395 -143.63185 9604740
22.241018 -42.334236 -143.11816 9341822
23.209398 -42.227673 -142.60014 11445918
24.011946 -42.139378 -142.16524 10261388
24.810041 -42.05154 -141.72711 7828333
25.762472 -41.946754 -141.19763 9538176
26.70899 -41.84259 -140.66397 9538176
27.335527 -41.771309 -140.29886 9735555
34.784306 -41.647423 -134.32292 10984849
35.540714 -41.685707 -133.94193 9143675
36.327698 -41.845074 -133.47015 9866883
37.12727 -42.052399 -133.01799 9209468
38.075844 -42.133377 -132.57201 10459534
39.08691 -42.133347 -132.15688 9801862
40.018585 -42.166298 -131.7614 11380120
40.803162 -42.380066 -131.35515 10261382
133.46202 -42.282387 -69.807533 13551549
134.07607 -42.170731 -69.311783 9998727
134.89369 -41.896553 -68.713142 6971482
135.65253 -41.803543 -68.078453 7169117
136.43965 -41.951813 -67.300194 6182222
137.14137 -41.868916 -66.711792 6510930
137.98901 -41.835331 -65.968346 7760997
138.68303 -41.691067 -65.416916 8748149
139.47241 -41.637314 -64.735588 9537665
30.639833 -41.039291 -137.06459 10129545
31.461432 -40.855896 -136.89497 10984596
32.33242 -40.907196 -136.3849 10129800
33.194012 -40.893871 -135.97134 9932679
33.9436 -41.123631 -135.291 10393229
34.798378 -41.113342 -134.88002 10064263
35.655773 -41.17255 -134.38045 7368037
36.573769 -41.12122 -133.95885 8880503
37.460396 -41.22514 -133.4351 9406589
38.257206 -41.415241 -132.9097 10788242
39.08242 -41.456051 -132.4949 11380121
136.0462 -41.096661 -68.071877 8813941
136.67052 -40.985538 -67.566658 6510930
137.38695 -40.93388 -66.94973 6510930
138.09369 -40.849735 -66.357468 7695460
138.91946 -40.893147 -65.595901 9735043
139.65547 -40.743252 -65.00956 9735300
140.33183 -40.88784 -64.332413 8879734
141.089 -40.700287 -63.745544 8024169
141.91234 -40.521168 -63.095234 9011064
142.41508 -40.395679 -62.706051 9011064
138.36653 -40.153278 -66.454086 9209212
139.10448 -39.960136 -65.887199 10788500
139.88493 -39.868359 -65.232521 9077113
140.62643 -39.716774 -64.642067 8550769
141.33757 -39.912849 -63.908535 7432032
142.06302 -39.831417 -63.298084 9011064
142.76439 -39.860382 -62.655106 9142907
143.5872 -39.542953 -62.073059 11511711
144.28856 -39.481609 -61.474396 13485501
139.93945 -39.299576 -65.462334 8813941
140.79117 -39.022964 -64.834251 8813941
141.58585 -38.738167 -64.261505 9997702
142.32143 -38.880825 -63.532188 9668478
143.06139 -38.872986 -62.872684 10457737
143.83391 -38.87439 -62.179478 12169641
144.64934 -38.748066 -61.510422 12103592
145.30327 -38.757061 -60.919796 6380115
146.03984 -38.541981 -60.364899 7565159
142.49913 -38.080357 -63.765038 11904668
143.22641 -38.017311 -63.144047 9602429
144.00908 -37.834942 -62.531754 10656145
144.69142 -37.89333 -61.891438 15985891
145.50476 -37.881783 -61.168007 6709593
146.2765 -37.730408 -60.550377 6315349
146.98448 -37.880424 -59.84219 8682867
147.62566 -37.566128 -59.367054 9077369
144.3773 -37.150532 -62.537006 13222841
145.03911 -37.038509 -61.998577 15525852
145.70403 -36.926762 -61.457275 9012089
146.44792 -36.864624 -60.820862 5394762
147.27998 -36.73484 -60.138611 6118227
147.96822 -36.761517 -59.350063 9011319
146.67949 -36.13298 -60.971767 6841436
147.32593 -35.951145 -60.481358 5262917
148.10716 -35.84671 -59.766285 5854022
148.50298 -35.856079 -58.894356 7234906
148.50612 -35.16312 -59.651199 6050889
148.87581 -34.86253 -58.918247 5853256
149.20033 -33.831032 -59.128826 5853256
149.40001 -33.748955 -58.629185 5392706
149.6613 -32.856571 -58.869274 7037274
149.91928 -32.216022 -58.832359 9931136
77.83799 -53.454353 -106.83832 7039331
78.393471 -53.485298 -106.52779 8157039
78.893456 -53.479317 -106.14167 8682867
76.264244 -52.680058 -107.89499 7893614
76.889687 -52.805401 -107.5487 9209726
77.721306 -52.822098 -107.14877 8814969
78.53669 -52.829224 -106.72333 8749175
79.28093 -52.816334 -106.13367 9406332
79.99025 -52.757133 -105.56396 9669248
80.777924 -52.616932 -104.9672 10524044
73.615906 -51.526176 -109.61301 9208435
74.240707 -51.644382 -109.26988 8748147
75.140701 -51.909378 -108.73735 8419444
76.067184 -51.971371 -108.27428 7827820
76.976288 -52.064495 -107.80684 8814713
77.884033 -51.905441 -107.44186 10985364
78.751427 -51.84539 -107.01656 11314071
79.497108 -51.832333 -106.42445 11050128
80.229683 -51.813656 -105.81565 12628392
81.099884 -51.844822 -105.06686 9011319
81.886314 -51.898811 -104.37776 9537405
82.608826 -51.862522 -103.78595 9866883
83.393753 -51.759956 -103.17333 10919313
72.667572 -50.722652 -110.3858 8550763
73.463943 -50.858879 -109.95422 8550763
74.320976 -50.90667 -109.52974 7630179
75.179176 -50.956886 -109.10368 7235685
76.182144 -51.018539 -108.60456 7893614
77.186905 -51.083363 -108.1033 9012091
77.965698 -51.080475 -107.73627 9735039
78.894508 -51.189651 -107.21196 9603194
79.677231 -51.012531 -106.66663 10656140
80.469276 -50.870464 -106.06705 11641755
81.222786 -50.845966 -105.44343 8681842
82.075928 -50.768032 -104.76145 8419183
82.884422 -50.904469 -104.01411 11050386
83.582527 -50.941032 -103.40787 10919057
84.312271 -50.934975 -102.79542 11248538
85.07975 -50.767422 -102.22874 16709358
85.796082 -50.67244 -101.67039 11774882
86.648102 -50.505047 -101.03242 7695204
70.093742 -49.71125 -112.01103 9340030
70.982628 -49.890606 -111.51838 8945272
71.932503 -50.003075 -111.02383 9011065
72.805016 -49.837204 -110.67826 8616559
73.663376 -49.881817 -110.25439 8550765
74.522942 -49.928776 -109.82903 8813946
75.38372 -49.978115 -109.40211 7433064
76.288513 -50.221497 -108.87605 8551541
77.183365 -50.419975 -108.37286 9867139
81.450409 -50.156292 -105.58309 9142135
82.290352 -50.032619 -104.93417 9339770
83.135246 -49.843582 -104.31261 8682867
83.846779 -49.794773 -103.73615 7959659
84.578819 -49.788757 -103.1217 8222831
85.310226 -49.785046 -102.50673 12564398
86.041046 -49.783562 -101.89112 10722451
86.852737 -49.814461 -101.19186 7300702
87.703705 -49.755898 -100.50239 9142651
88.513763 -49.631252 -99.879257 8747891
89.202522 -49.5569 -99.334145 8353130
89.769791 -49.482468 -98.891685 7760994
67.714729 -48.641151 -113.56788 7893866
68.459869 -48.797607 -113.15242 5526091
69.264572 -48.982788 -112.69719 6644058
70.219749 -49.06208 -112.21354 9471872
71.260834 -49.041431 -111.72964 10063753
72.100571 -48.883141 -111.39647 8879479
73.001877 -48.860996 -110.97925 9208442
73.829559 -49.067665 -110.5045 9274494
74.657562 -49.276901 -110.0285 9340289
84.242233 -49.137527 -103.71854 8814968
84.811287 -49.051601 -103.28002 8420210
85.55365 -48.896137 -102.72877 9406590
86.273483 -48.801247 -102.16737 9077625
87.005806 -48.802006 -101.54944 8222061
87.819199 -48.835304 -100.84757 9208444
88.672195 -48.779221 -100.15525 8550514
89.444183 -48.820595 -99.484398 8550509
90.175064 -48.830971 -98.863037 7695716
90.894424 -48.749321 -98.295692 9736326
91.637421 -48.611301 -97.735512 9538944
92.206451 -48.541668 -97.289101 5920074
65.469521 -47.598042 -115.05056 10261132
66.096771 -47.696171 -114.71441 10261900
66.894669 -47.8703 -114.26682 10985111
67.693047 -47.988407 -113.84164 9932935
68.549789 -48.017452 -113.42485 7564903
69.407272 -48.048725 -113.00677 6775388
70.408691 -48.088123 -112.5174 8353391
71.368851 -48.019321 -112.09119 8747893
72.216064 -48.084579 -111.66424 9340030
72.845802 -48.196251 -111.32141 9340030
87.162079 -48.147064 -101.73254 9735812
87.934753 -47.986244 -101.15833 7760998
88.789337 -47.858173 -100.49923 8813686
89.644447 -47.804424 -99.803978 9274749
90.418297 -47.84795 -99.130554 7697261
91.151115 -47.860355 -98.50663 8749692
91.88382 -47.874901 -97.881752 9012601
92.616508 -47.891663 -97.255836 5920074
93.338379 -47.815948 -96.683548 8814711
94.084473 -47.683811 -96.117935 9011831
94.6558 -47.618736 -95.667427 9537918
63.502102 -46.581573 -116.39604 6775130
64.24984 -46.725601 -115.98164 8485232
65.157654 -46.940521 -115.46391 9406078
66.157753 -46.965748 -114.98038 10064522
67.015732 -46.989925 -114.565 11050904
67.874237 -47.016228 -114.14841 11379613
68.733437 -47.04475 -113.73069 9077883
69.549721 -47.114662 -113.31648 8485234
70.459961 -47.326733 -112.80051 8879735
89.723717 -47.181076 -100.0368 9800578
90.621017 -47.028667 -99.353462 8354934
91.427246 -46.923698 -98.746475 9933708
92.144203 -46.897694 -98.159798 9670276
92.877808 -46.913513 -97.530838 8551540
93.611275 -46.931393 -96.900627 8222320
94.344681 -46.951344 -96.269142 7893608
95.078011 -46.9734 -95.63636 9274747
95.802521 -46.90313 -95.058136 8485488
96.666878 -46.76429 -94.395256 9537409
97.531113 -46.430801 -93.972275 7367013
98.261993 -46.458519 -93.327293 8551029
60.18943 -45.638573 -118.61418 9800572
61.09848 -45.721157 -118.12505 10392968
61.863136 -45.803864 -117.70251 10853784
62.676132 -45.963848 -117.20267 8683130
63.536217 -45.97876 -116.79144 7827820
64.464264 -45.967781 -116.36997 7958888
65.429588 -46.045059 -115.85934 9866630
66.349808 -46.187534 -115.31573 9998985
67.141579 -46.238377 -114.90763 11905701
68.01548 -46.381927 -114.38723 11905701
68.588417 -46.399723 -114.10679 11905701
93.262329 -46.307335 -97.700592 12433069
93.872887 -46.321026 -97.171318 7893612
94.684402 -46.192646 -96.615578 6446165
95.416954 -46.212624 -95.976997 7367265
96.229874 -46.087719 -95.416603 7630441
97.019547 -46.053452 -94.784386 9800582
97.858917 -45.843082 -94.287674 7367013
98.592628 -45.870552 -93.640717 6906720
99.326149 -45.899902 -92.991867 6840411
100.05013 -45.892998 -92.387581 7498593
100.87788 -45.816986 -91.76535 11314843
101.69791 -45.704262 -91.186615 11116952
102.51921 -45.593281 -90.605156 7037787
103.34222 -45.483921 -90.020531 5392706
103.83342 -45.510719 -89.578835 5392706
-3.7320192 -45.22752 -161.9213 8353391
-2.9506319 -45.142952 -161.63847 7563619
-1.3792589 -44.968906 -159.52745 8814713
-0.61428237 -44.886024 -159.24182 8617590
0.33836195 -44.782867 -158.88142 10000007
1.2863905 -44.680141 -158.51665 10262411
2.0419905 -44.598217 -158.22232 10262156
52.784313 -44.627728 -123.49873 12498087
53.517361 -44.623981 -123.17385 11313817
54.39563 -44.620434 -122.7812 8484720
55.272408 -44.618027 -122.38528 10260870
56.030636 -44.705795 -121.73179 9405820
57.002808 -44.693001 -121.32795 10722453
57.761055 -44.815327 -120.68818 11512225
58.540051 -44.958099 -120.03357 8025201
59.423328 -45.088741 -119.47375 8946039
60.404949 -45.072197 -119.04028 12169120
61.216576 -45.11364 -118.61488 9405814
62.067493 -45.225552 -118.09266 11576735
62.931786 -45.238728 -117.68232 8814458
63.743423 -45.398678 -117.17338 9735302
64.462975 -45.412655 -116.82926 8748405
99.046318 -45.28529 -93.846199 8484720
99.659958 -45.309692 -93.303833 7367007
100.48055 -45.192646 -92.728699 8552305
101.2176 -45.225521 -92.073738 10789011
102.03738 -45.075905 -91.545433 14406858
102.86479 -44.999912 -90.909889 6511954
103.6037 -45.038303 -90.247734 6445394
104.49077 -44.95509 -89.709793 6379601
105.21812 -44.991634 -89.031189 10459023
106.05119 -44.887825 -88.438278 8024424
106.91782 -44.741215 -88.112419 7563617
107.70326 -44.719181 -87.439354 8485233
108.51709 -44.651443 -87.02739 7038307
109.48337 -44.605629 -86.396904 7038307
110.24218 -44.60487 -85.755302 8945785
111.08333 -44.561539 -85.220772 9208443
111.92007 -44.516121 -84.677452 8945271
112.67505 -44.45509 -84.151009 7894125
113.54384 -44.436916 -83.286438 8419696
2.4185927 -44.557411 -158.07401 7761253
4.2550335 -44.354694 -155.85445 9144448
5.1758785 -44.250416 -155.46471 8947070
6.0897961 -44.130817 -155.01505 11841443
6.9991512 -44.013458 -154.5685 9933193
7.905798 -43.911613 -154.17065 7960175
8.808569 -43.812271 -153.77672 9933193
10.331751 -43.64473 -151.67493 9736326
10.861666 -43.586327 -151.43684 9736326
43.618729 -43.714256 -129.6732 10458767
44.443779 -43.779804 -129.30858 6972256
45.316742 -43.911987 -128.83707 6972506
46.229385 -43.901779 -128.48332 6379857
47.140717 -43.892948 -128.12708 6314577
47.96096 -44.080402 -127.71378 8946814
48.471382 -44.264843 -126.67566 10064781
49.481438 -44.267708 -126.0565 8090477
50.35865 -44.338596 -125.46423 7958377
51.170784 -44.351536 -125.06125 7761254
52.059456 -44.345165 -124.67718 8221548
52.823303 -44.390583 -124.20642 9537406
53.732101 -44.436546 -123.66871 9603460
54.614967 -44.433868 -123.27695 8287857
55.202812 -44.432804 -123.01431 8089960
111.56583 -44.374619 -85.588585 8681843
111.79903 -44.385937 -85.343437 9208443
113.81603 -44.239967 -83.903084 8090987
114.4611 -44.257416 -83.117722 9077111
115.27464 -44.203545 -82.534393 8813165
116.01718 -44.138493 -81.978188 10128513
116.88387 -44.124039 -81.090477 9011577
118.30772 -44.090317 -81.029732 11577754
118.78724 -44.0891 -80.319084 8616561
119.35724 -44.087646 -79.46257 7564643
121.2639 -44.085217 -78.855904 9011832
121.916 -44.083508 -77.835548 7170653
123.83593 -44.081024 -77.191734 7564385
124.57344 -44.015984 -76.414642 10260358
125.54028 -43.769073 -76.180489 9736329
126.20226 -43.840935 -75.551804 12366761
127.04285 -43.788898 -74.769081 10064523
127.66716 -43.735325 -74.202728 8090995
128.45122 -43.727222 -73.591492 8485494
129.25627 -43.821388 -72.823677 9538436
130.07455 -43.610157 -72.193611 9801606
130.65077 -43.432068 -71.764397 9011576
11.3902 -43.528225 -151.19775 9736329
11.91712 -43.470222 -150.95717 8881274
12.791807 -43.373997 -150.55345 9012599
13.662436 -43.278179 -150.1465 9538686
14.528547 -43.182861 -149.73595 9998726
15.562357 -43.06913 -149.23897 10261643
16.248335 -42.993629 -148.90514 10261643
17.795809 -42.823364 -146.7585 6511962
18.465963 -42.749619 -146.42235 8617335
19.466597 -42.639503 -145.91441 10656146
20.130499 -42.566418 -145.5735 10262156
42.028286 -42.788357 -130.69147 7564128
42.757797 -42.949661 -130.32848 7037274
43.62851 -42.9715 -129.96242 9142909
44.540886 -42.95303 -129.59505 8156530
45.452362 -42.936569 -129.22731 6379859
46.24839 -43.033825 -128.86223 6446162
46.928841 -43.244133 -128.50006 5920074
126.47133 -43.23019 -75.609894 13221811
127.15749 -43.030094 -75.092804 11248281
127.96146 -42.797466 -74.486092 8222577
128.74734 -42.839508 -73.760979 8617849
129.46074 -42.973885 -73.055603 10459794
130.12929 -42.893078 -72.495918 9670021
131.04761 -42.782799 -71.726723 7234909
131.70622 -42.740814 -71.156845 6510930
132.37778 -42.523823 -70.661125 7103323
20.461309 -42.530029 -145.40215 10262156
21.120779 -42.457478 -145.05788 9933192
22.105227 -42.349167 -144.53799 7367528
22.921045 -42.259388 -144.10155 8089963
23.732412 -42.170139 -143.66185 8089963
24.700678 -42.063599 -143.13031 9998731
25.662859 -41.957722 -142.59457 8617336
26.302763 -41.890079 -142.24396 8682867
40.260628 -41.733738 -131.8322 10261382
41.045547 -41.948208 -131.42554 10524554
41.909737 -42.020172 -131.0424 8814194
42.826637 -41.998123 -130.67465 6774873
43.742416 -41.978027 -130.3065 10524047
44.602539 -42.055374 -129.92294 8288116
45.379406 -42.27737 -129.51663 7564651
128.84979 -42.113739 -74.024788 10262415
129.6478 -41.939075 -73.394951 8157554
130.40678 -41.965668 -72.701553 7170659
131.08488 -41.873554 -72.138771 7761253
131.95805 -41.773869 -71.404884 6840408
132.7113 -41.863426 -70.685707 9208955
133.39812 -41.774677 -70.113564 13156791
134.16318 -41.711681 -69.458572 11183001
135.22182 -41.37183 -68.67617 7366240
34.308067 -40.55957 -135.83406 10459022
35.199905 -40.650814 -135.27425 9341055
36.088013 -40.743568 -134.71446 8288624
37.013035 -40.698643 -134.30882 12432295
37.831779 -40.760105 -133.778 8090987
38.620914 -40.856892 -133.2778 8354675
39.48307 -40.912914 -132.80373 11841445
40.230209 -41.054668 -132.30238 12367531
41.130268 -41.080112 -131.85971 11116691
42.045448 -41.050751 -131.47206 8419437
42.927307 -41.176666 -130.98605 7432032
43.818386 -41.315327 -130.53609 11773342
130.69652 -41.210709 -72.811775 7039331
131.36711 -41.021111 -72.303467 8682867
132.04347 -40.917408 -71.747917 8748660
132.85983 -40.819725 -71.063972 7432800
133.63293 -40.850288 -70.355995 9406590
134.3335 -40.833149 -69.736328 9472639
135.05077 -40.926479 -69.047676 10524815
135.80473 -40.814491 -68.426582 11972261
136.62 -40.505238 -67.847267 6510930
35.395229 -40.503628 -135.36128 10459022
36.217812 -40.333012 -135.203 10393227
37.138935 -40.280766 -134.76979 12761260
38.021343 -40.377262 -134.2081 10261641
38.790028 -40.342609 -133.86766 7565159
40.809437 -40.497105 -132.5038 11709858
41.265453 -40.478008 -132.29689 10261382
132.4281 -40.29031 -71.710442 8090730
133.04033 -40.173138 -71.218941 6840664
133.8549 -39.892265 -70.626389 7695972
134.6114 -39.792133 -69.997292 8945528
135.34999 -39.932735 -69.266304 9669250
136.0584 -39.916241 -68.639313 9077369
136.845 -39.907402 -67.938515 6510930
137.59422 -39.723797 -67.356789 6510930
138.31587 -39.670082 -66.736229 8419695
138.8076 -39.540485 -66.358971 10262412
135.52193 -39.050747 -69.544289 8879734
136.28999 -38.910793 -68.924309 8484720
137.0034 -38.893188 -68.293442 7103067
137.79555 -38.883102 -67.588249 7630179
138.57979 -38.748955 -66.950935 8683380
139.3026 -38.884983 -66.236366 8156780
140.0645 -38.70129 -65.64341 8813941
140.77985 -38.636578 -65.033821 8813941
137.20815 -38.206234 -68.446541 7761253
137.97704 -37.97905 -67.868553 10262156
138.68489 -37.935093 -67.255501 12499630
139.53503 -37.781128 -66.56881 8420208
140.27132 -37.853504 -65.873375 9406078
141.00285 -37.839439 -65.224449 8616565
141.69655 -37.915527 -64.565292 8090222
142.59526 -37.608116 -63.910267 10260358
143.35616 -37.41193 -63.324333 9470843
139.01855 -37.274597 -67.280052 10262412
139.61336 -37.11441 -66.825256 6906713
140.43629 -36.827366 -66.228157 8156268
141.19838 -36.818096 -65.549583 8156272
141.93539 -36.802536 -64.896538 7432807
142.67497 -36.940014 -64.166153 8418412
143.48589 -36.806358 -63.504719 7037274
144.2169 -36.662521 -62.919888 8157036
144.98943 -36.543442 -62.285698 14078406
140.85284 -36.338108 -66.09449 8616566
141.56685 -36.035915 -65.602455 7038307
142.18399 -36.01125 -65.061417 9011066
142.92448 -35.759365 -64.52095 8222573
143.65024 -35.949089 -63.777397 7433568
144.41417 -35.790165 -63.170464 7170396
145.15681 -35.879799 -62.460747 9735812
145.918 -35.825871 -61.804859 11183258
146.67805 -35.575344 -61.246239 8288366
147.31612 -35.555447 -60.683975 4867385
143.43594 -35.091763 -64.389572 12433069
143.97386 -35.024406 -63.940346 10459534
144.61116 -34.916721 -63.421803 8486256
145.35378 -34.925686 -62.751682 8485745
146.17165 -34.826561 -62.067116 11972518
146.89714 -34.847672 -61.406403 9274747
147.65471 -34.758198 -60.771084 6314317
148.35483 -34.813263 -60.114002 6577489
145.48106 -34.158325 -63.01358 8156524
146.3006 -34.056854 -62.328594 8813941
147.07072 -33.818417 -61.75507 7234908
147.80144 -33.837837 -61.090538 9208182
148.58501 -33.844341 -60.372852 11839133
149.07915 -33.608105 -59.742741 8023909
147.55794 -33.217731 -61.612656 7761250
148.08501 -33.080547 -61.207359 10655115
148.76512 -32.881191 -60.695351 10458253
149.35104 -32.803444 -59.851421 8813686
149.66492 -32.6035 -59.14674 7037274
149.63823 -31.953485 -59.966209 9011063
149.98886 -31.707047 -59.205261 9667965
149.93513 -31.074667 -60.084888 9734788
150.24995 -30.874441 -59.377354 8681584
150.61504 -30.31625 -59.312424 8484205
150.9323 -29.953014 -59.227852 8089963
78.246239 -50.573776 -107.8082 10327175
79.001854 -50.697887 -107.35853 9405814
79.785263 -50.520687 -106.81199 9998209
80.275513 -50.508221 -106.40462 13549237
76.531387 -49.782829 -108.93832 8354162
77.504715 -49.943611 -108.41316 10721675
78.334084 -49.832405 -108.0659 9537658
79.180702 -49.878418 -107.60275 9208435
79.929314 -49.865005 -107.00574 9274488
80.665787 -49.846924 -106.3934 7300447
81.38726 -49.73819 -105.83733 8418670
82.226036 -49.598518 -105.19714 10062978
82.944199 -49.478645 -104.6491 8682867
73.929253 -48.579189 -110.65454 9340289
74.758507 -48.787998 -110.17814 9340289
75.588226 -48.999413 -109.70051 10918805
76.597237 -49.058968 -109.19936 8485489
77.643265 -48.958035 -108.74552 8682609
78.54731 -48.850571 -108.36147 10195589
79.395355 -48.895023 -107.89583 8485230
80.145393 -48.881496 -107.29636 9735812
80.883797 -48.863701 -106.68227 7695204
81.621239 -48.848114 -106.06789 8221547
82.357765 -48.834766 -105.45322 10457480
83.216003 -48.822117 -104.73559 9011577
84.052094 -48.771683 -104.05477 8091502
84.804016 -48.610271 -103.49831 7631208
85.495178 -48.475716 -102.98019 8682867
71.682755 -47.48674 -112.15778 9340030
72.432785 -47.651562 -111.73656 9077114
73.242882 -47.845871 -111.27509 9077881
74.062172 -47.92783 -110.85461 8945785
74.926819 -47.973114 -110.42752 8551031
75.792747 -48.020676 -109.99889 9537665
76.804764 -48.079201 -109.49676 8222316
77.797348 -48.044651 -109.0414 9143159
78.689461 -48.19593 -108.55849 9340282
79.795815 -48.238689 -107.90021 7893096
80.289421 -48.225849 -107.49012 9077882
81.065453 -48.044319 -106.92297 7564131
81.841202 -47.865093 -106.35501 7958633
82.579697 -47.851974 -105.73856 13352882
83.399872 -47.869663 -105.03841 9866372
84.258133 -47.797596 -104.34931 8354674
85.035713 -47.824032 -103.68095 7828331
85.771088 -47.820366 -103.06258 8353903
86.505936 -47.818901 -102.44363 9011833
87.279327 -47.655861 -101.86987 8419696
88.053009 -47.494961 -101.2948 6971738
69.942467 -46.761559 -113.2734 9340286
70.784599 -46.761158 -112.88747 9340286
71.671677 -46.833603 -112.4372 9274493
72.534737 -46.870937 -112.01238 8288109
73.398766 -46.910454 -111.58604 7235677
74.263893 -46.952137 -111.1582 8288365
75.13018 -46.995998 -110.72881 8682614
75.936684 -47.13303 -110.28983 9208700
76.742828 -47.331635 -109.82784 7959401
77.378204 -47.451447 -109.47902 8814195
82.850899 -47.19471 -105.82587 12432039
83.545723 -47.054161 -105.3075 10129544
84.365463 -47.012257 -104.63641 8683126
85.280388 -46.850262 -103.98025 7761767
86.018044 -46.846729 -103.36028 8879476
86.755035 -46.845253 -102.73957 7564131
87.491371 -46.84586 -102.11803 6445394
88.227127 -46.848537 -101.49563 7234910
88.962395 -46.853252 -100.87237 9010550
89.745209 -46.700283 -100.3018 10062979
90.566322 -46.618156 -99.675308 9538692
91.276009 -46.566509 -99.116386 9144449
66.61145 -45.681618 -115.61143 9933705
67.447243 -45.693836 -115.21505 11708578
68.237061 -45.800652 -114.7607 11839908
69.085175 -45.934349 -114.25872 10326668
69.906342 -46.002216 -113.82309 9142907
70.920258 -45.936756 -113.40786 10195851
71.919846 -46.077328 -112.82755 9998215
72.714371 -46.139473 -112.40848 7367007
73.587738 -46.295628 -111.87415 6775126
74.308434 -46.328403 -111.51378 6511954
87.01075 -46.243393 -103.04255 8419696
87.749084 -46.243835 -102.41893 8419696
88.560219 -46.099831 -101.87885 8024426
89.297531 -46.104031 -101.25226 7760741
90.109108 -45.96357 -100.70824 8681585
90.845551 -45.971539 -100.07862 8748920
91.615028 -46.011436 -99.388954 8354420
92.43895 -45.995358 -98.709732 7432290
93.262672 -45.899937 -98.11042 9077628
94.1539 -45.703804 -97.555191 9406850
95.001526 -45.605343 -96.938789 7367011
95.736855 -45.625187 -96.298256 7696234
96.552429 -45.499619 -95.735893 8090992
97.165337 -45.5191 -95.19915 8419700
-4.1683521 -45.27866 -163.64705 8813942
-2.5611513 -45.100739 -161.496 8090987
-1.7845399 -45.016644 -161.20865 8156782
-0.81727004 -44.911869 -160.84621 7893614
0.14527723 -44.807556 -160.47929 8814713
1.1036055 -44.703678 -160.10863 9472383
58.475006 -44.618786 -120.90624 7564651
59.054817 -44.620686 -120.63264 8354165
59.924126 -44.624256 -120.21945 11249051
60.791771 -44.629009 -119.80303 12761258
61.66555 -44.679897 -119.22383 10063744
62.392742 -44.730904 -118.71203 8682354
63.355728 -44.727165 -118.28104 8156530
64.165283 -44.867043 -117.61414 9735302
64.986794 -45.102146 -116.86124 7827561
65.868507 -45.151897 -116.40214 9736070
66.710136 -45.135059 -116.02377 9802119
67.653694 -45.050156 -115.659 11183257
68.450935 -45.102467 -115.24689 11445149
69.329353 -45.247463 -114.71964 10260875
69.906944 -45.266357 -114.43704 9734531
91.887009 -45.394226 -99.779236 9339515
92.725021 -45.333313 -99.133163 7563619
93.440063 -45.272083 -98.591057 7169376
94.35704 -45.067669 -98.022362 8353906
95.073112 -45.009624 -97.476204 8221549
95.869904 -45.051689 -96.761513 9011836
96.736008 -45.033676 -96.048645 7827820
97.60704 -44.988476 -95.46006 7301220
98.323074 -44.978798 -94.885239 7367012
99.055328 -44.921234 -94.336678 8221549
99.991127 -44.833111 -93.724861 7301214
100.90712 -44.687401 -93.344498 8288621
101.61877 -44.706665 -92.659569 10394253
102.42861 -44.632126 -92.281624 14210247
103.35947 -44.561371 -91.784943 7959400
104.10426 -44.599308 -90.99427 6774870
105.0008 -44.515461 -90.581184 7761254
105.70775 -44.54034 -89.876961 8748404
106.41299 -44.566349 -89.169441 8879732
107.69598 -44.412609 -88.718941 7760995
108.2831 -44.436352 -88.1213 9866113
108.98593 -44.465843 -87.401154 7893614
3.1696303 -44.476017 -157.77538 7498596
4.1048489 -44.37466 -157.39896 9867657
5.0349865 -44.270489 -157.00653 10459536
5.9590359 -44.152027 -156.5583 10788244
6.8773098 -44.032032 -156.09877 9275264
7.7926464 -43.924068 -155.67699 7039331
9.3481159 -43.75296 -153.53859 9736326
9.8859921 -43.693748 -153.29903 9736326
10.60079 -43.615086 -152.97777 11315100
48.163094 -43.641819 -127.83633 8420727
49.003632 -43.83857 -127.40803 10064781
49.932095 -43.841236 -127.02958 10458250
50.960922 -43.89975 -126.5856 9142905
51.935955 -43.908733 -126.18176 10262156
52.773666 -44.115055 -125.7562 9604482
53.193569 -44.238834 -124.45816 8879995
53.933052 -44.235668 -124.1325 8682873
54.966599 -44.232769 -123.67339 8419700
55.894669 -44.331898 -122.98011 10326922
56.775848 -44.33215 -122.58096 7827566
57.656364 -44.333687 -122.17872 10656402
58.407394 -44.386448 -121.69363 9012095
59.302345 -44.440895 -121.13823 9473413
60.175632 -44.444908 -120.72458 12433069
61.047146 -44.449646 -120.30645 10984846
106.16319 -44.354729 -90.262093 9011575
106.87181 -44.380806 -89.551659 9208440
107.34319 -44.39872 -89.076477 9011061
108.634 -44.244576 -88.620804 12761259
109.22279 -44.268997 -88.018982 12628647
109.92786 -44.29932 -87.293678 9142652
110.87168 -44.236691 -86.752258 10392715
111.57647 -44.248287 -86.104988 9076857
112.51347 -44.2066 -85.461464 9208443
113.33447 -44.192528 -84.808952 9208698
114.23592 -44.098003 -84.631859 8682868
114.83713 -44.09655 -83.808075 9603458
115.23482 -44.095581 -83.256699 9405046
116.94202 -44.093727 -83.003845 8879475
117.43347 -44.092506 -82.30143 8616046
117.92094 -44.091286 -81.596169 8353134
119.51442 -44.077084 -81.431396 10787983
120.21989 -43.869995 -80.803329 9669248
120.87633 -43.854527 -80.102341 10524813
121.68645 -43.704224 -79.666977 8813683
122.40565 -43.809845 -78.970497 9208699
123.24872 -43.815342 -78.207024 7696484
124.01431 -43.683308 -77.566772 6644052
124.72328 -43.621777 -76.985046 7893097
125.20107 -43.550709 -76.59153 9736329
11.135195 -43.556332 -152.7354 16248798
11.667734 -43.497726 -152.49162 15064784
12.551916 -43.400406 -152.08253 11446427
13.607306 -43.28429 -151.58722 9012599
14.48218 -43.187977 -151.17082 5919050
15.004942 -43.130466 -150.91934 8813939
16.590181 -42.956032 -148.73741 11380380
17.271639 -42.881062 -148.40007 11709087
18.28895 -42.769135 -147.8905 8090992
19.132139 -42.676342 -147.46234 8090992
19.970762 -42.584084 -147.03085 7235421
46.592247 -42.698597 -128.85294 5920074
47.315834 -42.867775 -128.48927 7563872
48.246826 -42.865456 -128.10793 9143163
49.242023 -42.88942 -127.6899 9866628
50.236324 -42.91576 -127.27131 10918541
51.121391 -43.07695 -126.84445 9866112
51.76833 -43.207405 -126.52757 10459535
121.26756 -43.161091 -80.308647 8813683
121.88531 -43.074818 -79.797127 8089961
122.68397 -42.934296 -79.149979 8682611
123.39568 -43.003487 -78.47805 7367775
124.1785 -42.779114 -77.886299 9866627
124.90109 -42.791546 -77.232384 10854038
125.69513 -42.873631 -76.480385 12630449
126.4165 -42.767162 -75.885841 11775139
127.00725 -42.647404 -75.415039 10787988
20.97164 -42.473953 -146.50908 8354161
21.801104 -42.38266 -146.07094 7564651
22.62602 -42.291897 -145.62947 7960175
23.610483 -42.183571 -145.09589 7828076
24.588877 -42.076145 -144.55876 8090221
26.623781 -41.859699 -142.07936 9735555
27.263765 -41.799149 -141.74815 10064777
28.208826 -41.693008 -141.19432 8288883
29.142344 -41.579674 -140.60982 9077882
44.848476 -41.625885 -129.991 8419702
45.625801 -41.848465 -129.58424 7301478
46.548954 -41.895615 -129.18666 5920074
47.58596 -41.94511 -128.74139 8418924
48.611542 -41.903996 -128.33649 10392197
49.43581 -42.095203 -127.92285 9405814
50.08572 -42.222939 -127.60578 10457990
123.16931 -42.258156 -79.046158 8617075
123.64507 -42.183128 -78.656441 11181972
124.33558 -42.008472 -78.122993 10524301
125.2104 -41.835419 -77.423592 11248796
125.90685 -41.80146 -76.815926 9999244
126.62035 -41.828941 -76.162842 8354934
127.37382 -41.953686 -75.426262 9077883
128.10788 -41.971165 -74.759697 8420462
128.93481 -41.607128 -74.196701 11315097
129.62718 -41.461712 -73.647293 7039331
29.915453 -41.485722 -140.1198 8814710
30.68368 -41.392239 -139.62695 9406335
31.295374 -41.317776 -139.2309 9208955
43.175442 -40.712513 -131.21628 7629411
44.050247 -40.835033 -130.71127 10523532
44.934853 -40.970905 -130.24413 10326926
45.935608 -40.984371 -129.81697 7498857
46.912933 -40.934471 -129.42522 6117455
47.769302 -41.01593 -129.03239 7695714
48.543938 -41.243668 -128.62407 10261124
125.09166 -41.356083 -77.764961 9734788
126.09885 -41.000034 -77.03643 9736329
126.88667 -40.909397 -76.374619 9867657
127.58961 -40.876545 -75.760536 11907232
128.30984 -40.905422 -75.100769 9275769
129.06569 -40.926277 -74.413025 11117718
129.90678 -40.80616 -73.717827 8815484
130.57925 -40.721092 -73.1567 9077626
131.34715 -40.54118 -72.556465 8682866
38.107662 -40.09827 -134.51476 8090987
39.086746 -40.123367 -133.99434 8880503
39.99242 -40.061771 -133.6774 13157560
40.874779 -39.980255 -133.28629 14539213
41.7388 -40.177166 -132.56354 9603969
42.600349 -40.176701 -132.12483 7432032
43.448952 -40.269913 -131.5215 7234653
44.347847 -40.22995 -131.08084 11510170
45.189079 -40.234776 -130.68173 11445661
46.128384 -40.329384 -130.1676 8090993
127.823 -40.166977 -75.898994 11512473
128.55534 -40.057861 -75.295967 9012597
129.29036 -39.949753 -74.690041 9472637
130.0284 -39.842445 -74.080986 10985104
130.87141 -39.852959 -73.320168 10787469
131.54817 -39.767208 -72.755486 8748659
132.25661 -39.851685 -72.079033 8485488
132.99989 -39.732689 -71.471016 8090730
133.84071 -39.515789 -70.82354 7958633
129.66325 -39.250614 -74.698387 10261129
130.26723 -39.128162 -74.216881 10985104
130.95871 -38.89151 -73.712898 10392968
131.83548 -38.782612 -72.980347 8222316
132.54597 -38.865376 -72.302879 8617331
133.24483 -38.841419 -71.688148 8485744
134.0074 -38.925648 -70.963272 6906200
134.78468 -38.872311 -70.29261 9603202
135.56599 -38.546879 -69.751663 9471615
131.38782 -38.318035 -73.609276 10590347
131.86067 -38.18121 -73.25248 8221802
132.71489 -37.935455 -72.607048 8025450
133.51422 -37.842613 -71.936012 7038299
134.21782 -37.817699 -71.317467 6116941
134.95782 -37.951923 -70.588356 9405823
135.72115 -37.848156 -69.954918 9603202
136.50754 -37.794636 -69.276146 8222060
137.25847 -37.643112 -68.677238 9275005
137.89038 -37.525505 -68.168419 10262156
134.46967 -37.054504 -71.465683 6182734
135.19606 -36.9249 -70.87796 7235165
135.89574 -36.924789 -70.250801 8879734
136.66922 -36.946114 -69.546959 7235165
137.51012 -36.786404 -68.871422 9208955
138.1908 -36.853462 -68.228371 9208955
138.89958 -36.770359 -67.633736 10788756
139.7104 -36.590046 -66.995285 5920074
136.14799 -36.197521 -70.381042 7169628
136.91383 -35.96389 -69.808937 6906200
137.61159 -35.975559 -69.177689 8814197
138.39796 -35.832981 -68.542641 8617331
139.15192 -35.817608 -67.87429 9736580
139.8808 -35.796173 -67.231392 10657426
140.61279 -35.926453 -66.511406 6841177
141.37581 -35.72509 -65.926056 7432807
142.20551 -35.530769 -65.27742 10721679
137.94939 -35.252602 -69.229179 8815478
138.63057 -35.172905 -68.657532 7499362
139.43431 -34.839405 -68.100449 8683636
140.12984 -34.850574 -67.471428 12236714
140.85468 -34.753723 -66.869141 10591889
141.62227 -34.934597 -66.09243 8551029
142.35387 -34.839554 -65.483162 9735812
143.06172 -34.855072 -64.840996 10656916
143.89015 -34.522362 -64.261375 12038310
144.59744 -34.447395 -63.664082 10459534
140.27287 -34.163563 -67.678253 12697265
141.09853 -33.963726 -67.036469 10393743
141.86578 -33.757011 -66.449959 8420213
142.55983 -33.887196 -65.765114 8617591
143.30623 -33.865177 -65.106789 9801608
144.06007 -33.802887 -64.461555 11446173
144.8036 -33.886036 -63.754311 9867396
145.61278 -33.547405 -63.194851 8879477
146.35927 -33.474922 -62.561142 7037274
142.7813 -33.082169 -65.955986 8288627
143.56119 -32.906849 -65.343452 10196620
144.3055 -32.808617 -64.726715 9932933
144.99794 -32.932228 -64.047409 11971487
145.81607 -32.826401 -63.365791 9011061
146.64091 -32.799637 -62.639496 8089962
147.24382 -32.788151 -62.104683 7629411
148.03395 -32.58086 -61.497955 8024426
144.5153 -32.100185 -64.872787 9011573
145.23192 -32.019993 -64.275177 9011573
146.00749 -31.867603 -63.657154 7038298
146.67937 -31.939705 -63.024483 7234909
147.51866 -31.794361 -62.345165 6643290
148.27879 -31.797752 -61.662136 6577751
148.98647 -31.845854 -61.004196 6380369
149.58691 -31.459314 -60.57011 7827303
146.42516 -31.126469 -63.630074 7038298
146.97932 -31.053423 -63.17297 6643291
147.6433 -31.097502 -62.564625 6314325
148.45143 -30.833889 -61.984207 6116944
149.24495 -30.832563 -61.266541 5920074
149.84683 -30.845373 -60.549744 6643541
149.58609 -30.285172 -61.405582 5920074
150.21204 -30.209101 -60.752003 6840919
150.69383 -29.880335 -60.108059 8353647
151.18709 -29.590584 -59.327034 12433069
151.72368 -29.29464 -59.744667 12433069
77.959068 -47.486694 -109.19019 9603709
78.796066 -47.70491 -108.70632 9734786
79.586784 -47.870705 -108.22501 7893096
80.397469 -47.73399 -107.6354 8617075
81.174477 -47.552673 -107.06744 7893096
76.210999 -46.723793 -110.3258 9340286
77.032372 -46.776794 -109.94301 8156524
77.96772 -46.832016 -109.47935 8879990
78.98542 -46.893291 -108.96867 7761765
79.8349 -46.933937 -108.49589 7432800
80.588753 -46.920692 -107.89258 8879990
81.332199 -46.904057 -107.27618 8419696
82.074486 -46.889492 -106.6594 7629923
82.805862 -46.786194 -106.10387 10326922
83.569359 -46.632034 -105.57022 11576988
84.402222 -46.547703 -104.93843 9077114
84.895981 -46.543495 -104.52586 7563619
72.099327 -45.641747 -113.10964 10392717
73.007744 -45.752804 -112.59692 7630179
73.771782 -45.859741 -112.15437 7235677
74.724075 -45.853298 -111.71984 7893095
75.507088 -45.939987 -111.2855 8090219
76.375938 -45.98317 -110.84791 8879991
77.173103 -46.024601 -110.44494 9077370
78.261581 -46.083782 -109.89256 7695972
79.212456 -46.287697 -109.28239 6511954
80.060471 -46.325516 -108.80286 7958888
80.817688 -46.313129 -108.19942 9143162
81.633141 -46.151325 -107.67354 8551537
82.379959 -46.137943 -107.05669 6905944
83.194748 -45.979858 -106.52765 9668993
83.939789 -45.970257 -105.90851 13353139
84.683662 -45.962559 -105.28844 9537409
85.461609 -45.985744 -104.60858 8418670
86.338409 -45.925629 -103.92887 9800320
87.228218 -45.804031 -103.29994 8353646
87.968399 -45.804459 -102.67478 8485489
88.781601 -45.660164 -102.13329 8222317
89.520836 -45.664333 -101.50523 8352877
-3.5754564 -45.214478 -163.43167 7563619
-2.7872865 -45.129135 -163.14221 9406335
-1.8063753 -45.022892 -162.7764 12695467
-0.82957625 -44.917068 -162.40669 8354163
-0.051637441 -44.832722 -162.1078 7893614
1.8669722 -44.620998 -159.80907 9603970
64.231186 -44.476597 -118.74535 15195086
64.808212 -44.483181 -118.45652 14273729
65.535156 -44.583622 -117.77353 8813427
66.396645 -44.595509 -117.33521 9275264
67.256714 -44.608524 -116.89368 9604741
68.115715 -44.622704 -116.44862 9736581
68.8368 -44.73288 -115.77127 8221550
69.563866 -44.850281 -115.1079 8616306
70.545364 -44.988907 -114.47429 9866630
71.498505 -45.04353 -113.96085 10853781
72.361076 -45.072365 -113.52077 12169384
73.223724 -45.102848 -113.07831 11840676
74.006905 -45.215015 -112.59614 7301214
74.846939 -45.239498 -112.17737 7037274
75.531754 -45.196678 -111.8969 7037274
85.090157 -45.374561 -105.53542 9405822
85.711082 -45.369915 -105.01604 7563619
86.562637 -45.248096 -104.41959 9010806
87.331543 -45.237762 -103.78095 8879475
88.201416 -45.195862 -103.08893 7695716
89.09832 -45.082264 -102.49736 7563874
89.83876 -45.085674 -101.86547 9602685
90.577972 -45.090733 -101.2318 8615792
91.315964 -45.097424 -100.59635 9405565
92.288055 -44.881638 -100.15363 9536894
93.033203 -44.831352 -99.640289 8878965
93.888588 -44.746384 -99.063087 6445653
94.60791 -44.736385 -98.493446 7892842
95.754982 -44.601795 -98.078712 8484464
96.473526 -44.593872 -97.501045 9800838
97.197815 -44.606083 -96.834778 9735558
97.96434 -44.572529 -96.323021 7564649
98.850273 -44.542442 -95.695389 7037274
99.570023 -44.558109 -95.018761 7497825
100.16825 -44.572002 -94.452599 7037274
101.67509 -44.41473 -93.826317 8288621
102.15273 -44.427624 -93.366821 8618099
102.86771 -44.447838 -92.675117 13749440
2.4376433 -44.559124 -159.58272 9011576
3.0065749 -44.497448 -159.35486 8353646
3.9512694 -44.395054 -158.97185 8683381
4.8916531 -44.292358 -158.58263 8617847
5.8252239 -44.173737 -158.13008 8617849
6.5684261 -44.076405 -157.75615 9735558
8.7043285 -43.823776 -155.27663 11117207
9.6117458 -43.723915 -154.87286 11380121
10.514536 -43.624615 -154.46532 7762795
52.32674 -43.537094 -126.16843 11907749
52.972015 -43.669632 -125.85113 9538945
53.78751 -43.869225 -125.4354 8616821
54.689392 -43.871578 -125.05738 8616824
55.59034 -43.875282 -124.67668 7893611
56.490379 -43.880322 -124.29327 10459277
57.286552 -44.074642 -123.83956 10458765
58.193039 -44.191952 -123.31667 7564651
58.787994 -44.221439 -122.30173 8091762
59.524487 -44.240086 -121.59277 9933707
60.402855 -44.245361 -121.18111 11578017
61.426178 -44.253139 -120.69699 9998212
62.182724 -44.359039 -120.047 10063751
63.098866 -44.381634 -119.55981 8419185
64.037445 -44.358463 -119.20184 9603717
64.779091 -44.29055 -119.07793 15194062
99.393677 -44.360786 -95.989983 7037274
99.995895 -44.373856 -95.423477 7037274
100.71689 -44.390644 -94.740959 7103323
101.31623 -44.40543 -94.169914 7827814
102.35198 -44.235722 -93.997017 8618099
103.07076 -44.255501 -93.303513 11512734
103.90684 -44.280106 -92.490334 7235677
104.87511 -44.230606 -91.878914 8288109
105.5614 -44.232536 -91.282616 8879990
106.38432 -44.159573 -90.887115 8682867
107.09669 -44.185139 -90.174934 11050129
107.97713 -44.186218 -89.599503 9603198
108.87206 -44.132446 -89.290367 12498087
109.76122 -44.106293 -88.450165 10392973
110.40955 -44.112614 -87.673988 7038307
111.98124 -44.103321 -87.614738 11904668
112.39685 -44.102356 -87.076714 9931906
113.01575 -44.100906 -86.266197 9931649
113.90566 -44.053673 -85.870766 10128771
115.01284 -43.920189 -85.543686 8945784
115.77448 -43.761166 -84.911438 9208442
116.4348 -43.838497 -84.170403 9932165
117.09425 -43.735962 -83.672867 9077111
117.89285 -43.758148 -83.041283 8747889
118.66515 -43.82373 -82.316811 7694947
119.49341 -43.71756 -81.626396 9800833
120.24883 -43.427074 -81.091553 9406590
11.592093 -43.506046 -153.97169 14802127
12.485338 -43.407719 -153.55663 12038055
13.373869 -43.309986 -153.13785 10984596
15.526037 -43.073158 -150.66653 8419183
16.21847 -42.996948 -150.32768 8089963
17.079916 -42.902172 -149.90111 9537918
18.10808 -42.789024 -149.38498 12432037
18.960272 -42.695312 -148.9514 9537920
19.807749 -42.602005 -148.51442 9406334
51.317726 -42.63039 -126.9396 10458762
52.15921 -42.835247 -126.51349 10986390
53.022633 -42.876675 -126.14265 9473152
53.929325 -42.87875 -125.76955 8288366
54.83593 -42.882843 -125.39573 8748664
55.625511 -42.998314 -125.0261 8090987
56.297741 -43.224575 -124.66108 8090987
116.60013 -43.032543 -84.555122 8812912
117.40436 -42.873753 -83.911858 8945268
118.15843 -42.890251 -83.228439 9077111
118.93292 -42.954636 -82.502609 7497824
119.69038 -42.974884 -81.813652 8222316
120.47063 -42.801678 -81.199104 7630692
121.09807 -42.741379 -80.666206 8879476
121.9169 -42.591583 -80.005516 8813683
20.819216 -42.490726 -147.98605 7959144
21.657454 -42.398483 -147.54247 6511954
22.491018 -42.306774 -147.09552 8486262
23.155008 -42.233673 -146.73599 8486262
25.404173 -41.994659 -144.1338 8090995
26.217844 -41.917751 -143.71986 9736074
27.189241 -41.825912 -143.2186 10393487
27.991514 -41.745094 -142.78123 10196363
28.779093 -41.649464 -142.28862 7828589
29.562311 -41.554317 -141.79344 9538691
49.63044 -41.647659 -128.01903 9800316
50.475945 -41.848991 -127.59263 9931902
51.342449 -41.886723 -127.22204 10655372
52.251991 -41.884853 -126.84932 9406847
53.161266 -41.884911 -126.47601 8486001
54.013603 -41.981293 -126.0881 8946552
54.780197 -42.220791 -125.67915 9472383
118.45977 -42.112751 -83.334686 9010548
119.17383 -42.022587 -82.740295 6840151
119.81867 -41.912769 -82.217537 7762278
120.53493 -41.973972 -81.546967 6841176
121.46474 -41.786171 -80.805511 6971737
122.18428 -41.850838 -80.128761 9866370
122.84642 -41.815033 -79.552757 8550768
123.55901 -41.716518 -78.962242 10458252
124.18416 -41.631165 -78.443581 10458252
30.030077 -41.49741 -141.49498 8814710
30.650778 -41.421864 -141.09526 9537664
31.423014 -41.327785 -140.59361 9735043
32.190353 -41.234215 -140.08904 9537661
33.105289 -41.122475 -139.48024 9537661
34.013596 -41.011429 -138.86777 9735299
34.765739 -40.919411 -138.35466 10787732
35.512966 -40.827785 -137.83893 9208699
36.107807 -40.754852 -137.42479 10063753
48.018471 -40.587772 -129.0979 8813936
48.793797 -40.816196 -128.6897 10261124
49.651417 -40.903625 -128.30318 10063488
50.564121 -40.897949 -127.9307 9339766
51.476364 -40.894161 -127.55759 8747893
52.331848 -40.986904 -127.16984 8616563
53.101917 -41.223122 -126.76076 8814966
120.11307 -41.265175 -82.261124 7170141
120.82161 -41.146088 -81.688324 7170141
121.47884 -40.902916 -81.217697 7235677
122.31682 -40.781395 -80.530052 7827302
123.08892 -40.80555 -79.829216 8551025
123.88097 -40.87804 -79.084435 11247764
124.62754 -40.993523 -78.358589 10129545
125.32687 -40.797115 -77.827911 9998473
126.17576 -40.551651 -77.187157 9801865
126.76775 -40.427494 -76.717316 9867657
41.885719 -39.663944 -133.17244 12433834
42.955658 -39.623795 -132.6884 7629411
43.821526 -39.730465 -132.12227 8682099
44.733612 -39.699253 -131.7059 11643040
45.63723 -39.723209 -131.19757 8156786
46.294754 -39.843742 -130.63905 9735816
47.117661 -40.009975 -129.99409 7564648
48.020283 -39.98584 -129.57906 6249039
48.926132 -39.967026 -129.17531 8616558
49.764374 -40.036747 -128.7294 9011314
50.625374 -40.116913 -128.26816 9734785
51.565727 -40.232018 -127.78146 8747893
121.87338 -40.335915 -81.130241 6972506
122.47341 -40.147579 -80.685654 6511954
123.29489 -39.95525 -80.046776 7235421
123.99202 -39.755112 -79.521568 9208698
124.74617 -39.869873 -78.798225 10458509
125.54694 -39.944798 -78.047737 9801350
126.27809 -39.953693 -77.388412 9538949
127.06918 -39.78688 -76.760994 10788244
127.80016 -39.693161 -76.151657 10065032
128.59659 -39.510551 -75.527145 9012597
44.176003 -39.353405 -132.66422 11379612
45.037189 -39.275311 -132.08568 11511710
46.907051 -39.493382 -130.87859 9406852
124.42648 -39.112709 -79.432915 8486262
125.05982 -39.024612 -78.912575 10459536
125.78572 -38.924873 -78.315651 10130571
126.46548 -38.890747 -77.729095 8947070
127.20889 -38.961678 -77.036003 12629674
128.07045 -38.846436 -76.322662 7631210
128.74457 -38.74408 -75.769547 10721422
129.49106 -38.818264 -75.064507 11905183
130.30995 -38.578049 -74.448189 9932675
126.73198 -38.137444 -77.840431 8881277
127.47896 -38.054573 -77.217049 10459022
128.13771 -37.889572 -76.709686 7038307
128.98174 -37.892136 -75.960976 10261129
129.72325 -37.780148 -75.354912 11247766
130.45888 -37.806961 -74.688667 9472126
131.21469 -37.883007 -73.977455 10458762
131.95615 -37.757488 -73.374428 8748403
132.79427 -37.533627 -72.732826 7696485
128.46474 -37.289452 -76.696609 7038307
129.06848 -37.162224 -76.220558 8617075
129.86827 -36.869221 -75.647224 9208954
130.70457 -36.811321 -74.93322 9274492
131.40332 -36.780647 -74.328545 10130314
132.14154 -36.907822 -73.615578 8551026
132.89671 -36.984673 -72.907539 6445906
133.66196 -36.839283 -72.29464 5920074
134.41519 -36.580082 -71.746971 5919818
135.0374 -36.457241 -71.249329 6511954
130.31361 -36.356369 -75.48909 9208443
130.98102 -36.049168 -75.039688 11380380
131.63829 -35.963711 -74.49691 10985622
132.39209 -35.866837 -73.87394 9538177
133.09813 -35.836548 -73.262581 8748917
133.89156 -35.963196 -72.501518 6709078
134.65581 -35.8535 -71.875282 5919050
135.44359 -35.79361 -71.204063 6972249
136.19392 -35.636024 -70.611763 7959144
136.82545 -35.513348 -70.10865 6511954
132.71992 -35.098557 -73.937706 9867142
133.38425 -35.013203 -73.388641 9736580
134.10263 -34.858349 -72.823769 8419184
134.81 -34.928375 -72.165016 8550770
135.51521 -34.923767 -71.542534 8419184
136.35905 -34.815346 -70.845177 9011576
137.11272 -34.839043 -70.166801 8419441
137.82213 -34.750214 -69.579124 8683636
138.54265 -34.681011 -68.972908 7894120
139.06694 -34.60952 -68.541786 7038298
134.90459 -34.18504 -72.423775 9734788
135.74173 -33.997486 -71.768822 10458511
136.44951 -33.959381 -71.159492 10590097
137.22749 -33.847706 -70.521996 8617080
138.06468 -33.869045 -69.770699 8091245
138.78465 -33.768124 -69.179604 9473664
139.55363 -33.943668 -68.417618 8420463
140.28328 -33.68486 -67.890678 12696750
140.90126 -33.654129 -67.357544 11708831
136.83336 -33.239826 -71.151108 8617080
137.5153 -33.154816 -70.586388 8354165
138.19731 -32.866901 -70.115028 8354162
138.97002 -32.918232 -69.407089 8815478
139.73763 -32.717873 -68.819572 8091243
140.51212 -32.892483 -68.053154 11511452
141.255 -32.866035 -67.40741 12695467
141.96165 -32.930614 -66.751793 9998729
142.86708 -32.606621 -66.09922 7630699
143.48546 -32.380688 -65.655647 8288627
138.64284 -32.275288 -69.993111 7894120
139.16916 -32.199196 -69.562057 8025194
139.96465 -31.926216 -68.983299 9143418
140.72282 -31.776773 -68.380707 8682870
141.47801 -31.835831 -67.684669 8748665
142.22639 -31.807714 -67.034843 7695979
142.86723 -31.928221 -66.411705 7893615
143.67891 -31.817842 -65.743729 8485751
144.49495 -31.707747 -65.071754 9866885
145.13536 -31.514244 -64.593727 9011573
145.6843 -31.441311 -64.141251 7038298
140.77034 -31.333044 -68.543053 10261641
141.63486 -31.031961 -67.916176 7038307
