# .PCD v0.7 - Point Cloud Data file format
VERSION 0.7
FIELDS x y z rgb
SIZE 4 4 4 4
TYPE F F F U
COUNT 1 1 1 1
WIDTH 1211
HEIGHT 1
VIEWPOINT 0 0 0 1 0 0 0
POINTS 1211
DATA ascii
-133.59889 -8.5253172 120.6405 12433066
-134.42697 -8.5416021 120.21848 13025461
-135.11522 -8.3345699 119.95875 12301738
-132.75975 -7.8499064 121.34026 9801091
-133.74576 -7.6029282 120.94772 9143419
-134.68719 -7.6636658 120.45047 10854036
-135.5204 -7.678503 120.02642 7958632
-136.30899 -7.6187868 119.65556 9208956
-133.84367 -6.9864669 121.15318 8092019
-134.64377 -6.8221974 120.81978 7037530
-135.64066 -6.5715699 120.42359 7300446
-136.61833 -6.5230403 119.95392 10525071
-137.53194 -6.6009665 119.46404 9275004
-138.23357 -6.38871 119.20052 9209211
-135.90523 -5.6856141 120.65793 9932678
-136.65031 -5.5466604 120.34231 11380380
-137.44603 -5.4827328 119.97025 9801348
-138.29295 -5.4939547 119.54135 9538177
-137.76393 -4.6650066 120.14966 7235422
-138.56488 -4.5991983 119.77573 7827559
-138.98254 -3.928139 119.84443 7563619
50.294983 -28.157614 167.27829 9867397
49.536293 -28.220203 167.4297 11578016
48.526146 -28.216793 167.41508 10919574
47.438358 -28.494318 166.96371 10722195
46.542625 -28.658607 166.85933 10064521
41.87355 -28.661724 165.39651 7827815
40.87775 -28.662283 165.64534 8419696
36.727093 -28.665117 164.0144 10064775
35.739674 -28.665674 164.23195 8880507
31.703468 -28.668451 162.54707 10985367
31.116505 -28.668787 162.66011 11906725
30.137337 -28.669344 162.84386 9998473
25.831768 -28.672287 161.15518 8682867
25.249908 -28.672621 161.24715 9011576
24.279312 -28.673182 161.39561 8419700
23.272057 -28.422037 161.28941 8288371
22.304607 -28.28664 160.87756 9012093
21.295155 -28.263586 160.40002 10590608
20.253036 -28.43993 159.81438 10064265
19.504166 -28.240637 159.54547 9406335
50.561195 -27.345247 167.48326 9933190
49.415459 -27.381071 167.76443 10985623
48.27327 -27.748163 167.59895 10524816
22.152958 -27.633965 161.0683 8814199
21.215149 -27.446726 160.69168 9471871
20.371578 -27.558128 160.23982 10261644
19.543591 -27.478987 159.87244 9538177
18.632534 -27.392611 159.46796 9340542
17.697563 -27.304829 159.05252 10262156
51.249039 -26.467386 167.52698 11511711
50.407101 -26.595766 167.85004 10393742
21.038261 -26.851355 160.84703 7563619
20.215305 -26.58206 160.55902 8682356
19.301682 -26.536306 160.13686 9143419
18.309948 -26.52194 159.66434 9011833
17.529179 -26.527288 159.2856 10196108
16.653614 -26.321617 158.94649 10064012
15.914344 -26.192442 158.64221 10064012
52.048019 -25.055492 167.73375 8682867
51.423882 -25.433987 167.86055 10327437
50.674183 -25.780499 168.05577 10985623
19.208649 -25.913313 160.34386 7563619
18.393402 -25.648939 160.05753 7563619
17.494385 -25.378735 159.73317 11379868
16.471428 -25.519131 159.18301 8814203
15.497306 -25.51075 158.71661 10655892
14.737647 -25.332127 158.42244 7301470
13.944263 -25.076033 158.14328 7301470
52.311146 -24.420732 167.86946 8353647
51.530693 -24.43449 168.21083 9077625
16.994686 -24.762325 159.7413 10853524
16.348022 -24.593445 159.49776 11116441
15.58084 -24.453436 159.18434 12234920
14.621833 -24.422022 158.73448 8485744
13.565536 -24.477854 158.20244 6906712
12.838195 -24.35597 157.90091 7695974
12.181972 -24.177748 157.65648 7564645
53.011395 -23.356859 167.98161 8813686
52.402386 -23.577478 168.16452 8879479
51.793701 -23.798529 168.34708 9406078
15.207103 -23.66124 159.32431 10525071
14.363559 -23.518108 158.97534 8748660
13.59896 -23.534039 158.60013 7367263
12.653937 -23.413206 158.19321 7762021
11.695846 -23.440304 157.72017 6709594
10.825591 -23.319981 157.34911 7959402
53.390091 -22.446676 168.17555 9208444
52.547077 -22.604681 168.48735 9340030
13.430026 -22.635721 158.88167 8354158
12.552791 -22.544621 158.49538 8749172
11.64112 -22.439215 158.0984 9538944
10.700595 -22.51153 157.6156 8090988
9.801116 -22.492867 157.18936 9998212
8.9625616 -22.182512 156.91035 11905950
54.142124 -21.368349 168.27054 8813686
53.293877 -21.49353 168.59767 9208444
12.253573 -21.916122 158.60504 9933702
11.548358 -21.562588 158.40771 11118233
10.63066 -21.469635 158.00273 8552569
9.736289 -21.435587 157.58524 9143418
8.7976141 -21.446142 157.12831 10261385
7.9429884 -21.42515 156.72469 11577504
7.174159 -21.186121 156.4505 12432813
54.323746 -20.32313 168.60574 8879222
53.567184 -20.669764 168.80403 8813429
10.307235 -20.644382 158.18013 11907239
9.5234213 -20.516665 157.85374 11512224
8.6901426 -20.584061 157.4247 10458766
7.768054 -20.476566 157.02345 10524559
6.8513556 -20.370567 156.62422 12564399
6.0339651 -20.365005 156.23235 12235690
55.168919 -19.430029 168.58562 8090219
54.436806 -19.311529 168.95815 9339773
8.5613432 -19.775442 157.68919 12432813
7.6709013 -19.493721 157.37361 9208443
6.7406225 -19.511496 156.91783 9208955
5.8161383 -19.529583 156.46471 8419695
4.9457426 -19.504862 156.05499 8419696
4.0126448 -19.247416 155.70905 10853521
3.382472 -19.086512 155.47011 8682867
55.933659 -18.22744 168.72429 8617075
55.319172 -18.44791 168.90968 8156012
54.70504 -18.668715 169.09476 8681843
7.215106 -18.939016 157.37779 9208443
6.5724897 -18.775455 157.13405 8682867
5.6776457 -18.473001 156.82472 7432800
4.8011656 -18.476171 156.40079 8880502
3.9578581 -18.374838 156.03506 9603968
3.0092039 -18.507729 155.52391 9735298
2.0683088 -18.26972 155.16632 8682867
56.203751 -17.5833 168.85991 8419184
55.416119 -17.591911 169.20686 9735043
4.6662245 -17.54126 156.7133 9604737
3.7766409 -17.430958 156.32892 8552049
2.9071836 -17.624577 155.83144 12695211
1.9913932 -17.469589 155.45241 10524556
1.1333305 -17.477806 155.03532 9275003
0.20001896 -17.05938 154.75429 10853777
57.082844 -16.217087 169.01146 10524047
56.320431 -16.564297 169.21274 9931910
55.6861 -16.946371 169.34314 10853012
3.5911398 -16.859642 156.47025 8092011
2.8326674 -16.633705 156.19571 14604490
1.8884917 -16.399693 155.83495 11577499
0.98558336 -16.429903 155.38736 9932933
0.013621408 -16.49415 154.89267 10722193
-0.8542642 -16.390568 154.51604 10722450
-1.4718865 -16.237988 154.27986 10985878
57.892063 -15.215662 169.1685 10787732
57.146515 -15.390554 169.38135 10063752
56.425266 -15.650134 169.52916 9931910
1.5139495 -15.634649 155.96329 8682867
0.88672167 -15.729731 155.62245 8682867
-0.033860128 -15.613324 155.26649 9866884
-0.99906248 -15.473681 154.89806 10985111
-1.8917283 -15.531089 154.42517 10656658
-2.8812342 -15.227746 154.15794 8749434
-3.6896353 -15.170823 153.81694 8092019
-4.6063833 -15.01569 153.50711 12169123
59.91201 -13.973328 169.72305 10130313
59.056137 -14.07619 169.89903 10459278
58.131168 -14.543594 169.60229 10261899
57.397175 -14.801307 169.7205 9931910
-1.4818352 -14.786715 155.20665 10261643
-2.038846 -14.764051 154.95769 12038055
-3.0393915 -14.580671 154.62904 9735814
-3.8868093 -14.51153 154.27887 10525071
-4.8026819 -14.475957 153.86768 11379867
-5.7143412 -14.440998 153.45802 9076857
-6.5339212 -14.321503 153.16269 9735043
-7.7131948 -14.193174 152.74399 8485745
-63.366352 -14.196965 138.78976 6643287
-63.913002 -14.207522 138.65961 7038302
-64.825264 -14.225519 138.44139 8485745
-65.924568 -14.248103 138.18193 7498337
-66.856377 -14.270339 137.99239 7563618
-67.793907 -14.293777 137.80782 8550513
-68.922691 -14.322639 137.58507 9275004
-70.045807 -14.191072 137.75073 12301739
-70.906776 -14.326764 137.39226 11249050
-71.784813 -14.360864 137.23538 9668993
-72.696098 -14.476409 136.89345 9208443
-73.731041 -14.46233 136.74979 9340286
-74.746475 -14.444156 136.55981 7892583
-75.731049 -14.557696 136.21051 6510930
-76.620071 -14.473063 135.94621 7893353
-77.604958 -14.353342 135.61407 8814714
-78.440834 -14.302791 135.30595 9340801
-79.425377 -14.19485 134.99971 12564397
-80.108894 -14.201426 134.67398 11906724
62.923347 -13.647973 170.37746 9143419
62.102486 -13.648413 170.67772 9406589
-8.8532972 -13.87122 153.32846 9341054
-9.7573442 -13.845819 152.98489 9801092
-10.657763 -13.820882 152.64143 10261643
-11.733808 -13.791616 152.22922 10590608
-12.62709 -13.767673 151.88556 10458251
-13.516828 -13.74433 151.54192 9273979
-14.580396 -13.716657 151.12776 9274491
-15.469142 -13.699351 150.83948 11906725
-16.376307 -13.69992 150.74324 10591121
-17.464149 -13.700605 150.6208 9406848
-18.551018 -13.701289 150.49045 9538694
-19.456133 -13.701862 150.37608 10064779
-20.360504 -13.702435 150.25586 11380380
-21.444736 -13.703121 150.10461 7564651
-22.527817 -13.703809 149.94559 8551286
-50.456055 -13.722116 142.97864 7104091
-51.487053 -13.722813 142.61031 8288365
-52.520279 -13.724809 142.24826 7103835
-53.413006 -13.735044 142.02979 7366498
-54.314186 -13.74768 141.83006 7367271
-55.397179 -13.763385 141.58849 9537666
-56.301071 -13.776923 141.38554 9340801
-57.206165 -13.790895 141.18092 10063753
-58.29409 -13.808204 140.93338 6840924
-59.383911 -13.82608 140.68355 7367525
-60.293591 -13.841372 140.47368 7367525
-61.205021 -13.857201 140.26204 8419696
-62.300476 -13.876717 140.00601 6840924
-63.215187 -13.89343 139.79099 8354422
-64.13176 -13.910611 139.57448 8617081
-65.233841 -13.931796 139.3125 9012091
-66.153984 -13.94995 139.09235 9142651
-67.076073 -13.968502 138.87047 8616307
-67.99987 -13.987456 138.64688 7037274
-68.925819 -14.006945 138.4214 8617074
-69.667641 -14.022798 138.23991 9209467
-80.779884 -13.898939 135.43005 10525071
-81.640221 -13.90749 135.01898 9209211
-82.500786 -13.916492 134.60638 9734780
-83.361839 -13.925863 134.19217 10392715
-84.395782 -13.937652 133.69296 10326924
-89.369408 -13.747625 133.25218 8881278
-90.169319 -13.748214 132.71164 8223604
-91.125069 -13.748921 132.0569 8090994
-102.02435 -13.755939 130.00255 10064779
-102.80444 -13.75653 129.38594 8945532
-103.42616 -13.757003 128.88966 9932169
-113.50577 -13.76348 127.04175 9274492
-114.26821 -13.764077 126.35648 9735299
-118.50961 -13.402325 125.97687 7169891
-119.37217 -13.398622 125.59509 9077115
-120.36044 -13.342422 125.17863 7564905
-121.27821 -13.411145 124.74361 7564651
-122.08894 -13.434857 124.37378 9077375
-122.83387 -13.384626 124.03291 9208960
-119.63254 -12.731251 125.74739 9734788
-120.4677 -12.648199 125.41028 7565162
-121.39843 -12.525279 125.04684 8551799
-122.31991 -12.592828 124.60833 9406339
-123.11108 -12.613037 124.21246 8815227
-124.02668 -12.529648 123.78772 8157555
-121.47855 -11.933368 125.24966 10788759
-122.34863 -11.743008 124.93704 8881021
-123.33315 -11.492413 124.56392 10394512
-124.19088 -11.573219 124.1003 8749947
-124.98318 -11.591896 123.69524 8881276
-125.96891 -11.358111 123.29743 7762022
-124.35366 -10.549711 124.44139 8092019
-125.27885 -10.52667 123.98689 10262413
-126.07589 -10.543981 123.57995 9867396
-126.87543 -10.561646 123.1717 7564642
-127.73825 -10.365039 122.82014 11709340
-125.25767 -9.8814535 124.26397 10656914
-126.20715 -9.6420422 123.8866 11578013
-127.11663 -9.7035208 123.40507 10525067
-127.98162 -9.5046406 123.05339 11511194
-128.87677 -9.4505835 122.62674 12432808
-129.72247 -9.1054335 122.34509 9406591
-126.49514 -9.0430059 123.98961 11512479
-127.35861 -8.8426733 123.63922 11116694
-128.17789 -8.380228 123.41927 9602944
-129.09645 -8.4402905 122.93378 10392715
-129.90874 -8.4551888 122.5202 8156012
-130.6767 -8.3965836 122.15926 7760994
-131.39984 -8.2642488 121.8512 7760994
-128.26814 -7.7727041 123.62491 10984852
-129.20946 -7.6136742 123.21849 8418671
-130.15784 -7.5857191 122.75441 7563619
-130.97487 -7.5993962 122.33895 7760994
-131.79472 -7.6132746 121.922 5589827
-132.68137 -7.4084821 121.56188 7893610
-130.14113 -6.9286556 123.03411 8747893
-131.11641 -6.6799016 122.64768 8682354
-132.04228 -6.4543986 122.27644 8682868
-132.93761 -6.5304918 121.79593 9736326
-133.75029 -6.4541378 121.41989 9078398
-134.72771 -6.1140699 121.0703 6510930
-131.21078 -6.0653391 122.85419 13024949
-132.16081 -5.6366739 122.55472 9736326
-132.95628 -5.4696999 122.22472 12038305
-133.97852 -5.3937745 121.74391 12367013
-134.92458 -5.4500799 121.24672 7893096
-135.71413 -5.3858552 120.87784 9406334
-136.4585 -5.2466679 120.56266 11380380
-133.24559 -4.7636676 122.37198 13024941
-133.98228 -4.6234074 122.06112 12630186
-134.88173 -4.6034665 121.61887 7893096
-135.9146 -4.5253277 121.13387 8221804
-136.86996 -4.580379 120.63251 8813941
-137.57133 -4.3637805 120.37086 7893352
-134.9666 -3.8902087 121.87174 5919050
-135.87256 -3.6745794 121.50727 7037531
-136.71573 -3.6819978 121.0818 7234909
-137.67593 -3.7356434 120.57869 7893352
-138.65895 -3.5868087 120.14793 6775127
-136.28299 -3.0049644 121.57897 7893096
-136.98424 -2.7849653 121.31885 8156526
-137.90068 -2.565418 120.95076 10195339
-138.75313 -2.5709016 120.52153 8353647
-139.3945 -2.5750535 120.19853 6643028
-138.38583 -1.6635367 121.08134 9866630
-139.02721 -1.6663885 120.75893 8353389
-139.61928 -1.3658144 120.58679 7037274
-139.94717 -0.75956339 120.67369 9735040
46.462864 -28.293159 167.35197 10064521
45.443523 -28.411957 167.26579 10459278
44.405083 -28.454487 167.2549 9998471
43.420078 -28.372749 167.27208 9077112
42.541126 -28.543123 167.18997 7959401
40.279633 -28.662617 165.79173 8419696
39.48114 -28.663065 165.98311 8748405
38.681957 -28.663515 166.1713 8813942
34.751053 -28.666233 164.4438 10657425
33.761059 -28.666798 164.64941 9407102
32.968342 -28.667248 164.8101 9209467
28.960922 -28.670019 163.05678 9603973
27.795383 -28.472847 163.33485 9735301
26.853683 -28.434023 163.01199 9603712
25.860641 -28.293613 162.58986 9208699
25.000519 -28.206808 162.21013 9077626
24.133232 -28.314552 161.74828 7893615
48.256107 -27.261719 167.79378 10327693
47.338024 -27.440933 167.70746 9932935
46.337387 -27.458626 167.68462 10393485
45.340057 -27.476896 167.66151 10327692
44.432003 -27.656982 167.57501 9538176
43.699116 -27.765408 167.52002 8682867
26.767803 -27.795967 163.22856 11576729
25.914303 -27.514666 162.93063 9011831
25.052246 -27.430088 162.549 8814711
24.095119 -27.476162 162.06882 8683127
23.119865 -27.437057 161.61424 9209469
22.28619 -27.162754 161.32312 9208184
49.9659 -26.353579 168.1425 10064777
49.293877 -26.540396 168.09987 10393486
48.290195 -26.456961 168.11719 9867398
47.231731 -26.49721 168.08409 9209467
46.29916 -26.487486 168.0733 9801348
45.559711 -26.596878 168.01782 10459278
24.775188 -26.718327 162.70316 10065292
23.817848 -26.529884 162.3176 9143677
22.966869 -26.450199 161.93936 10721936
22.072067 -26.483299 161.49443 9208184
21.31535 -26.413368 161.15778 7234653
20.516842 -26.159866 160.87515 7563619
50.218239 -25.425714 168.39964 9341053
49.257458 -25.439745 168.54094 9998984
48.228363 -25.590685 168.46385 9603969
47.175339 -25.827785 168.35176 8946039
23.64085 -25.92746 162.47575 8288371
23.013981 -25.675055 162.27544 12234916
22.177452 -25.404913 161.98119 10655628
21.113686 -25.504482 161.4279 7760740
20.020706 -25.523285 160.8932 7695461
19.237751 -25.338871 160.5901 7563619
18.421139 -25.075747 160.30261 7958633
50.944759 -24.445169 168.46693 9209467
50.158829 -24.458088 168.79597 9604226
49.293945 -24.65415 168.85683 10262156
21.577358 -24.768463 161.94896 9208184
20.910652 -24.594387 161.69771 7827559
20.11927 -24.449278 161.37474 7959401
19.286369 -24.378904 161.00154 8551282
18.243042 -24.484013 160.45593 8550769
17.287289 -24.340183 160.05313 8682099
16.611874 -24.156742 159.80157 10853524
51.88422 -22.953516 168.64304 10853012
51.110554 -23.336039 168.83467 9537664
50.373642 -23.683395 169.02396 9406078
19.950764 -23.659966 161.61234 8419952
18.982372 -23.516417 161.20335 8683126
18.082264 -23.508047 160.77263 6510930
17.259365 -23.442017 160.40253 7234653
16.441105 -23.376888 160.03424 9011064
15.522277 -23.400099 159.58177 10524301
52.090511 -22.245819 168.83307 10129546
51.241779 -22.372667 169.15977 9669250
18.118576 -22.739128 161.10075 7037790
17.181103 -22.43523 160.77144 9076857
16.136475 -22.522081 160.23262 8681843
15.252414 -22.518785 159.80763 11181718
14.443614 -22.457762 159.44226 11972002
13.645904 -22.207792 159.15858 8749172
52.851082 -21.24588 168.89304 9537409
52.043095 -21.470221 169.16281 9208699
51.234962 -21.695158 169.43245 10129545
16.711689 -21.860092 160.77744 10853524
16.034832 -21.681854 160.52299 10129031
15.254165 -21.445642 160.24193 12102819
14.277568 -21.490402 159.75293 9735041
13.227199 -21.529608 159.23058 9209723
12.507289 -21.478529 158.90404 9341309
11.680934 -21.116858 158.65173 10789270
53.024532 -20.252562 169.21129 9339773
52.208359 -20.66131 169.41129 8879478
14.223369 -20.758932 160.02222 9603967
13.303855 -20.465904 159.69722 10524555
12.353419 -20.354156 159.28404 9275259
11.418929 -20.56744 158.74724 10131342
10.577041 -20.410009 158.40489 11315359
9.9234991 -20.240721 158.1581 11907239
53.846893 -19.319162 169.21724 9997703
53.133644 -19.37133 169.51347 9471615
13.12857 -19.688532 159.92671 13022893
12.250808 -19.478712 159.58815 8814966
11.328429 -19.572168 159.10561 9999757
10.451869 -19.462231 158.72734 11446688
9.4990416 -19.503834 158.25107 12169895
8.5736876 -19.209961 157.92349 12235174
7.9922056 -18.985775 157.73367 9208443
54.024673 -18.420849 169.4957 10261132
53.326408 -18.686134 169.70045 9471359
11.350554 -18.810659 159.42389 8618362
10.362716 -18.559797 159.04886 9341827
9.3753386 -18.500696 158.59659 9012605
8.5901213 -18.454214 158.23671 9012605
7.6127539 -18.4778 157.75592 9274749
6.7097235 -18.281786 157.39958 8682867
6.0678511 -18.119654 157.15558 8682867
54.959541 -17.275724 169.53549 10392461
54.165516 -17.453272 169.81805 10129542
9.9812956 -17.965403 159.10495 9538691
9.3262014 -17.800714 158.85559 8223347
8.3647146 -17.540289 158.49712 8289140
7.4373655 -17.441277 158.09 10130313
6.5778112 -17.340237 157.71629 8946039
5.691081 -17.534359 157.21031 8682867
4.9245443 -17.304893 156.9333 10065801
55.7836 -16.086653 169.64125 10853012
54.968857 -16.310045 169.91487 10458251
7.3887281 -16.553675 158.42508 10854036
6.4817038 -16.443287 158.0322 9866885
5.5112562 -16.582291 157.50815 8551794
4.6601591 -16.484913 157.13705 8355183
3.7856436 -16.431906 156.73677 8092011
2.8364096 -16.072159 156.42435 14604746
55.892441 -15.338798 169.97392 9668738
55.199062 -15.521472 170.16205 10260873
6.296401 -15.865118 158.17636 8682355
5.4593534 -15.699122 157.85631 7826790
4.5615225 -15.594155 157.48199 9210236
3.6065168 -15.367191 157.19104 10394766
2.7274351 -15.472434 156.67679 11314584
1.8929092 -15.471008 156.27403 10656143
0.76291567 -15.23975 155.90318 8814709
57.913074 -13.985978 170.57156 9866885
56.876137 -14.49093 170.20232 9406334
56.032848 -14.708253 170.40224 9931910
2.563941 -14.866569 157.08693 10656143
1.7098953 -14.739422 156.78253 10195336
0.76478869 -14.699725 156.36073 9471871
-0.25664607 -14.432355 156.17606 10524816
-1.112626 -14.449072 155.74583 10064521
-2.1598864 -14.203272 155.58315 12959925
-2.9788561 -14.15417 155.30724 14341834
-4.0951853 -14.011121 155.11462 13024175
-4.8340101 -13.988719 154.83975 11709089
60.868618 -13.649076 171.12144 9472639
60.044418 -13.649522 171.41252 10854036
-5.2023783 -13.977571 154.70221 10458766
-5.9369383 -13.955704 154.42749 9208443
-7.0350409 -13.92345 154.01526 8814198
-7.9459333 -13.897086 153.67191 8090987
-23.429546 -13.704386 149.80727 9274748
-24.330311 -13.704959 149.66313 10854036
-25.410156 -13.70565 149.48329 11380636
-26.488705 -13.70634 149.29561 8881013
-27.386421 -13.706919 149.13347 10261642
-28.283146 -13.707494 148.96559 10721936
-29.357832 -13.708186 148.75722 11182228
-30.430994 -13.70888 148.54108 11182228
-31.324129 -13.70946 148.35521 10262156
-32.216042 -13.710038 148.1636 9998215
-33.284851 -13.710732 147.92685 8879992
-34.351944 -13.711427 147.6824 9471868
-35.239868 -13.712008 147.47296 9011574
-36.126282 -13.712586 147.25786 8616560
-37.188461 -13.713283 146.99289 9735297
-38.072269 -13.713863 146.7664 9735297
-38.95446 -13.714443 146.53424 9208957
-40.011253 -13.71514 146.2489 6510930
-41.066002 -13.715838 145.9559 7169117
-41.943497 -13.71642 145.70613 9208696
-42.819252 -13.717 145.45071 6445652
-43.868248 -13.717697 145.13742 5393738
-44.914928 -13.718395 144.81665 7563619
-45.785336 -13.718977 144.54373 7563619
-46.654099 -13.719558 144.26517 6116173
-47.694286 -13.720256 143.9243 6642517
-48.732151 -13.720952 143.5759 7103068
-49.595108 -13.721535 143.28004 5919050
-70.501144 -13.735045 139.05852 10985878
-71.235847 -13.748265 138.8463 9011577
-72.173927 -13.768646 138.61502 9866371
-73.114532 -13.789596 138.38197 11050643
-74.057281 -13.810981 138.14749 6510930
-75.002457 -13.832801 137.91103 9208443
-76.127159 -13.857342 137.60248 7103068
-76.997948 -13.865896 137.22083 9734273
-77.857071 -13.872745 136.8163 9735558
-78.888329 -13.881465 136.32901 9011837
-79.747978 -13.889116 135.92137 11381404
-80.26384 -13.893927 135.67607 11906724
-86.95002 -13.745849 134.8443 10656657
-87.597816 -13.746323 134.42381 10261899
-88.565964 -13.747032 133.78757 9736329
-100.29459 -13.754627 131.34195 8682867
-101.0831 -13.755224 130.73608 8090991
-101.55445 -13.755581 130.37021 7564651
-111.96901 -13.762285 128.39885 10524303
-112.8473 -13.640472 127.94833 9932678
-113.84769 -13.415929 128.04248 8089963
-114.83183 -13.441778 127.59492 7563618
-115.6218 -13.462878 127.23549 9735299
-116.57693 -13.321338 126.86797 9735299
-117.55384 -13.264032 126.45689 9932935
-118.31683 -13.116869 126.17692 7564392
-113.95348 -13.002236 128.16135 8089963
-114.7952 -12.814888 127.86255 7827819
-115.76849 -12.570462 127.52811 7498082
-116.68676 -12.443963 127.17091 9735299
-117.59264 -12.509039 126.74238 8418924
-118.57525 -12.450237 126.32974 7432547
-119.43974 -12.444595 125.94835 9340287
-120.14912 -12.322477 125.68282 7565675
-116.25357 -11.803738 127.62029 7037274
-116.95431 -11.680147 127.35907 7234652
-117.70529 -11.627854 127.04691 6248014
-118.61628 -11.692067 126.6168 7103323
-119.60465 -11.631686 126.20255 9998216
-120.5973 -11.571248 125.78648 10130830
-121.37345 -11.420595 125.50277 10130830
-122.3213 -11.103487 125.20984 8090733
-118.07241 -11.003534 127.13541 7366237
-118.73115 -10.806927 126.92226 6248014
-119.59399 -10.614243 126.61703 10261901
-120.49012 -10.634467 126.21126 10328208
-121.56922 -10.403572 125.82541 7894382
-122.49628 -10.467308 125.3884 7432545
-123.29689 -10.484645 124.99833 9078653
-123.94828 -10.284063 124.75439 8092019
-120.63203 -9.7864132 126.48979 7565675
-121.5037 -9.5910778 126.18169 8618359
-122.52556 -9.6124458 125.71968 8617587
-123.5296 -9.6324892 125.23349 7300960
-124.32243 -9.647851 124.82948 8947070
-125.17693 -9.4493608 124.48288 10261899
-122.60336 -8.8280039 126.00106 8156780
-123.51824 -8.7016001 125.62364 7498081
-124.48225 -8.5209093 125.21473 8156268
-125.41439 -8.5909929 124.7183 7761253
-126.1984 -8.5183258 124.35506 9011576
-127.03055 -8.3309097 124.01507 10721422
-124.65343 -7.7144542 125.46194 7563619
-125.4201 -7.5532608 125.14397 7695460
-126.4062 -7.4818501 124.67888 8813685
-127.31961 -7.539567 124.19693 10852752
-128.08023 -7.4791141 123.84044 10655887
-128.79607 -7.3452411 123.5367 8681843
-125.69085 -6.8634167 125.29308 9011576
-126.52439 -6.7664952 124.91502 8747892
-127.45368 -6.6270981 124.50653 9208186
-128.37219 -6.6837149 124.02246 9734273
-129.18436 -6.6953869 123.61028 9142907
-130.0616 -6.4889636 123.25558 9340286
-127.34103 -6.0146103 124.81596 8681843
-128.3678 -5.7356606 124.41619 9471100
-129.29037 -5.6008496 124.00916 9207927
-130.24187 -5.5495734 123.55312 9340286
-131.11604 -5.5350699 123.12066 12564655
-131.97093 -5.3395829 122.7726 11709858
-129.53865 -4.7242546 124.24667 9207155
-130.32564 -4.5558548 123.9215 10392202
-131.33725 -4.4776611 123.44649 13552062
-132.2739 -4.5314393 122.95485 11315356
-133.05511 -4.4654765 122.59087 12104098
-133.79123 -4.3249154 122.28041 13024941
-130.60872 -3.8513374 124.07059 11182489
-131.33766 -3.7097728 123.76418 11709858
-132.22795 -3.687824 123.32727 9341310
-133.24992 -3.6074376 122.84869 10656913
-134.19565 -3.6599972 122.35324 10854037
-135.09846 -3.4442155 121.99037 6905945
-132.30907 -2.9767642 123.58121 9143931
-133.28554 -2.6260633 123.23733 7761508
-134.10478 -2.5416605 122.86189 7498336
-135.01392 -2.6114101 122.37769 7893096
-135.94664 -2.4782684 121.96568 8419698
-136.97438 -2.1089122 121.60384 8288115
-134.57658 -1.6473536 122.99596 9734270
-135.27336 -1.4251262 122.73905 10064007
-136.11722 -1.4282206 122.3151 9670021
-136.9642 -1.4313922 121.88953 7301478
-137.81441 -1.4346161 121.46232 8222575
-138.73634 -1.2112472 121.09302 8353389
-136.31792 -0.75135767 122.49491 10262156
-137.29074 -0.52673429 122.17933 8354164
-138.14336 -0.52820969 121.75151 8090731
-138.99936 -0.5297125 121.32202 9735040
-139.82922 -0.45510244 120.96323 10590605
-138.98097 0.15425983 121.896 7564130
-140.00993 0.30709419 121.51219 8813939
-140.63446 0.38373399 121.26531 13090223
42.25127 -28.223072 167.31371 9800581
41.27869 -28.287777 167.27246 9997960
40.301773 -28.209354 167.28853 9800836
39.273205 -28.252703 167.2549 9208955
38.388145 -28.525684 166.72614 11116696
37.481201 -28.664186 166.44557 13485752
36.479206 -28.664755 166.66797 12762285
32.352856 -28.565615 165.17653 8749173
31.60619 -28.478844 165.22386 9143931
30.721069 -28.396494 164.8924 9407103
29.699673 -28.251358 164.45848 9604225
28.715939 -28.289215 163.9687 9209472
44.346233 -27.101925 167.79619 9209211
43.208538 -27.498281 167.61935 9471610
42.216316 -27.501139 167.60258 9668993
41.235218 -27.422785 167.61855 8485489
40.281464 -27.531223 167.56009 9735043
39.41946 -27.602304 167.51801 9406078
31.218544 -27.847851 165.35417 9143931
30.338566 -27.558744 165.04662 9472896
29.447872 -27.469589 164.65303 9670019
28.509823 -27.495213 164.19034 9078142
27.668995 -27.490944 163.78651 10590350
26.809578 -27.20904 163.48596 12300195
46.039398 -26.199955 168.18446 11380380
45.159492 -26.269697 168.14267 10196106
44.123497 -26.471895 168.04527 9801089
43.180958 -26.505175 168.01709 9471608
42.227753 -26.469759 168.01625 10261129
41.206085 -26.845123 167.84966 9406078
30.162758 -26.941772 165.21109 9538432
29.430454 -26.7372 164.94064 10262156
28.587429 -26.469936 164.64206 9472639
27.741245 -26.508209 164.21861 9537919
26.86541 -26.424839 163.82988 11182228
25.89257 -26.473524 163.34105 9932677
24.914635 -26.241318 162.96321 10788759
47.926155 -25.020809 168.68764 9735555
47.118832 -25.157215 168.61989 9143674
46.195423 -25.442087 168.49078 9801348
45.146008 -25.583075 168.41772 10459278
44.152481 -25.504526 168.43353 9997955
43.352013 -25.544546 168.40489 9340022
27.488689 -25.73061 164.41081 9406333
26.498245 -25.401619 164.06612 10195848
25.614822 -25.518869 163.59274 7960176
24.750488 -25.440443 163.20764 9933708
23.926792 -25.483822 162.79292 9604485
23.049358 -25.092407 162.52791 13550517
49.032681 -24.36385 168.96912 9340797
48.090233 -24.356279 168.95694 8946039
47.027557 -24.400591 168.92203 9341053
45.96867 -24.445301 168.8871 9801860
45.108829 -24.70661 168.76852 9341053
44.434635 -24.890734 168.68404 10261129
25.667934 -24.733896 163.93544 9144449
24.725574 -24.397694 163.61684 9341828
23.80584 -24.440012 163.15625 9407363
22.784306 -24.521748 162.63058 10787728
21.884869 -24.340431 162.27008 9208184
21.188564 -24.151539 162.0107 9208184
49.888954 -23.237906 169.38188 9340541
49.064632 -23.453114 169.33507 9209211
48.000023 -23.596798 169.26027 8946039
46.993675 -23.518614 169.27541 9538688
46.312969 -23.704294 169.18999 10855060
24.217522 -23.622074 163.68509 9144449
23.465244 -23.559246 163.3477 9472641
22.716915 -23.497198 163.01189 8354675
21.866451 -23.427238 162.63005 8090989
21.058907 -23.439272 162.23584 9341054
20.070877 -23.378658 161.78383 8617331
50.797375 -22.126219 169.45532 10129545
49.978653 -22.347334 169.68839 9340797
48.875435 -22.531961 169.70168 10656398
48.033348 -22.783974 169.58698 9209467
22.549786 -22.698471 163.25398 9012347
21.709915 -22.435888 162.95499 9670023
20.786049 -22.493908 162.48607 10722451
19.889053 -22.544563 162.03308 8025194
18.967083 -22.417393 161.63985 7827820
18.211975 -22.230371 161.35129 7564651
50.875168 -21.383018 169.71655 9537664
50.060162 -21.606392 169.9668 9406590
20.684006 -21.769205 162.72954 13024949
19.85231 -21.511267 162.43269 9801349
19.015007 -21.449297 162.05399 8880251
17.971405 -21.45575 161.54813 8288116
17.071255 -21.500599 161.09595 9669251
16.1926 -21.179604 160.80191 8681843
15.5167 -21.003063 160.54735 13023919
51.925014 -20.126875 169.74989 8747892
51.019222 -20.477665 170.01283 9340285
19.672203 -20.911945 162.58789 10853012
18.759155 -20.690489 162.23708 11905695
17.812737 -20.390039 161.90207 11774110
16.976555 -20.526077 161.44391 9340287
16.153965 -20.468948 161.0703 8616565
15.132373 -20.398701 160.60605 13352884
14.124263 -20.138121 160.2252 11181972
52.68861 -19.121601 169.81061 8681843
51.876839 -19.346373 170.08194 9077370
51.06493 -19.571783 170.35306 9340798
16.891727 -19.627693 161.76587 8814200
15.935695 -19.535166 161.34222 9011323
14.965735 -19.423208 160.91972 10721937
14.190078 -19.449949 160.5349 10787471
13.239303 -19.40811 160.09337 11642010
52.897202 -18.406836 170.0024 8945271
52.042362 -18.53245 170.33229 9011320
15.609653 -18.690216 161.52628 6511962
14.932261 -18.518711 161.26889 7565675
14.049632 -18.46414 160.86534 10393228
13.115653 -18.583506 160.36676 9998468
12.161632 -18.477118 159.94966 8223346
11.248687 -18.192673 159.62436 7434088
10.37749 -17.988525 159.28674 8684155
53.687923 -17.18338 170.13771 10063747
52.873577 -17.407825 170.41045 9800835
52.036205 -17.847643 170.60754 9340798
13.738498 -17.672482 161.03506 10787985
12.961165 -17.446877 160.75137 8552052
12.191493 -17.518295 160.35136 8881018
11.189811 -17.461033 159.89146 7368295
10.194205 -17.404686 159.43411 8157042
9.4697943 -17.300575 159.12686 9538691
8.8156118 -17.137354 158.8773 7565675
53.781887 -16.323196 170.43758 9800573
52.989567 -16.332428 170.78635 10853012
11.932624 -16.771702 160.52808 8946811
11.016829 -16.490694 160.19998 8223346
10.218989 -16.448118 159.83243 8814715
9.2277288 -16.395752 159.37558 9998986
8.2383833 -16.534763 158.84239 7630954
7.6541166 -16.313902 158.64977 7958632
54.683784 -15.456316 170.43454 10063747
53.9622 -15.506227 170.72395 9800572
10.039847 -15.670547 160.06013 10064779
9.0555334 -15.435289 159.74741 9406851
8.2607107 -15.585912 159.28659 8156526
7.3300886 -15.494078 158.89204 7958632
6.4236021 -15.423598 158.50426 7037530
5.4395247 -15.17518 158.21085 7037274
4.3806143 -15.03675 157.81831 10525328
56.711399 -13.994343 171.07921 10655633
55.642082 -14.265363 171.0619 10129545
54.840149 -14.719377 170.92358 10260872
7.698905 -14.818191 159.60207 7760997
7.1100569 -14.791849 159.34044 7958632
6.138835 -14.564417 159.05948 6774102
5.2821836 -14.564002 158.64784 8813683
4.3930998 -14.488977 158.28163 11510936
3.4311552 -14.448203 157.85239 11972516
2.5386686 -14.349962 157.50352 9208443
1.5247337 -14.189575 157.17938 10524301
0.57767779 -14.158449 156.83398 9208443
67.479561 -13.345452 174.28072 5919050
59.631721 -13.649745 171.55641 10854036
58.805119 -13.65019 171.84099 9340797
57.977627 -13.650639 172.12206 10261387
0.01126774 -13.841731 157.6711 9208443
-0.55696195 -13.823618 157.45947 10458766
-1.5009087 -13.793858 157.10693 9999240
-2.440793 -13.764548 156.75473 11709858
-3.3762827 -13.735867 156.40282 13683904
-4.3082857 -13.707567 156.05104 15131606
-5.2409353 -13.692174 155.83919 11709089
-6.3659124 -13.692865 155.79703 9275263
-7.3031034 -13.693444 155.75587 7039331
-66.626083 -13.732326 140.95723 10261646
-67.472733 -13.732916 140.55345 7695975
-68.485771 -13.733626 140.06227 7169628
-69.327293 -13.734218 139.64769 8486000
-69.998695 -13.734692 139.31215 10591377
-84.173721 -13.743824 136.59546 9734780
-84.993866 -13.744419 136.08614 10457993
-85.811134 -13.745016 135.57216 9209467
-86.462608 -13.745492 135.15739 11380380
-97.747765 -13.752713 133.24951 8090987
-98.387817 -13.753192 132.77707 9471870
-99.343788 -13.75391 132.0629 10787731
-107.33762 -13.667753 130.83379 9406078
-108.26189 -13.525192 130.48032 9668996
-109.20804 -13.465404 130.08394 7894127
-110.08813 -13.527997 129.66782 9932681
-111.05125 -13.551137 129.21786 8814971
-112.08485 -13.37082 128.8438 10392717
-112.67111 -13.385677 128.57742 9932678
67.833961 -12.212379 174.57384 7169117
67.774406 -12.665746 174.41998 7169117
-109.27183 -12.889417 130.2865 8946556
-110.25962 -12.498281 130.00447 10064010
-111.12133 -12.517985 129.61375 9472387
-112.03553 -12.591263 129.17819 9735299
-113.0077 -12.502913 128.78171 9603457
-113.84473 -12.499142 128.41139 8419184
-114.7581 -12.18718 128.13069 8354676
-111.32744 -11.692115 129.85326 9537922
-112.1618 -11.501852 129.55882 9406847
-113.05415 -11.56306 129.13786 8616563
-114.02053 -11.500886 128.73344 9735299
-114.91895 -11.56292 128.30965 9933191
-115.71194 -11.581045 127.95023 8749177
-116.5622 -11.390618 127.64958 7892581
-113.1045 -10.895634 129.38316 8089963
-114.05453 -10.74783 129.02116 9472386
-115.05344 -10.464065 128.69221 10327692
-115.98421 -10.535902 128.25029 9143933
-116.85188 -10.614616 127.83355 8419695
-117.81458 -10.454299 127.47098 8353130
-118.89977 -10.175094 127.10187 8880503
-115.20641 -9.6780453 128.94084 9143934
-116.12683 -9.5266714 128.59335 9669506
-117.05761 -9.5022392 128.19022 8880247
-117.86021 -9.5177965 127.82787 10261125
-118.77507 -9.5783091 127.39754 8617589
-119.76765 -9.513113 126.98335 9538949
-120.74677 -9.3622589 126.6097 7565675
-117.2235 -8.8698292 128.37128 10261387
-118.08339 -8.6728106 128.06912 10195592
-118.89036 -8.6872969 127.70518 8618105
-119.85415 -8.6336689 127.29916 10459537
-120.77306 -8.5080118 126.94201 10261901
-121.72251 -8.4640818 126.53843 9275517
-122.62276 -8.25564 126.22291 8156780
-123.34312 -8.1250648 125.94949 7893352
-119.05959 -8.0508394 127.88638 8551284
-119.9848 -7.6383724 127.64194 11511968
-120.85684 -7.4381866 127.33561 9931908
-121.78595 -7.4961152 126.90002 9077114
-122.79485 -7.4264688 126.48044 9077881
-123.71693 -7.4841008 126.02675 8616819
-124.46646 -7.4232655 125.67593 8485233
-121.23428 -6.7993975 127.42535 10655630
-121.95643 -6.6662545 127.1586 10129543
-122.72991 -6.6055446 126.83978 9340798
-123.65862 -6.6620898 126.3919 8550770
-124.64158 -6.5886745 125.93279 8682612
-125.5033 -6.5712276 125.50781 8024426
-126.21227 -6.4359484 125.20815 8681843
-123.11282 -5.9621348 126.92897 9340798
-123.83347 -5.8266263 126.65105 8879991
-124.71455 -5.6092429 126.30067 8353391
-125.64822 -5.557796 125.85365 8945786
-126.58552 -5.5061655 125.40485 8945529
-127.52358 -5.3608365 124.99441 8681843
-128.19295 -5.1493406 124.74604 8681843
-125.79366 -4.5407352 126.20073 9012093
-126.66225 -4.5199127 125.7737 10063753
-127.65833 -4.4416876 125.30644 9668480
-128.58087 -4.4944615 124.82191 9536120
-129.34929 -4.4284968 124.46376 12101791
-126.93693 -3.8205495 125.92475 10261132
-127.60633 -3.6060035 125.67763 9405821
-128.53004 -3.6573782 125.19308 10917517
-129.53534 -3.5771198 124.72206 9207155
-130.4189 -3.5545797 124.28864 8812912
-131.14719 -3.4126813 123.98254 10262412
-127.99337 -2.9478233 125.75526 10787215
-128.71468 -2.8049865 125.45274 9733756
-129.54851 -2.5147169 125.15527 10391431
-130.44063 -2.5833602 124.67999 8747635
-131.40184 -2.5256178 124.22244 9537664
-132.39047 -2.263844 123.83569 10459277
-133.19098 -2.0893137 123.50694 8090216
-130.7345 -1.4831022 124.98849 8681843
-131.51408 -1.4115287 124.62763 9208187
-132.34427 -1.4144883 124.21057 10918803
-133.28966 -1.4627528 123.71704 8747632
-134.25592 -1.3090508 123.29675 10128771
-131.91371 -0.74180627 124.70486 9931910
-132.68726 -0.59372872 124.43156 10589580
-133.49304 -0.52028507 124.08472 8090216
-134.33154 -0.52167553 123.664 10128771
-135.27516 -0.56846672 123.1561 9537150
-136.14067 -0.29871607 122.92886 9143678
-136.7767 -0.29946393 122.60981 8090992
-134.93689 0.15500686 123.9212 10984593
-135.57076 0.15491061 123.60376 10984593
-136.44041 0.30647361 123.29848 9998214
-137.30998 0.42814168 122.96774 8946298
-138.2652 0.38292673 122.45068 9538433
-139.26671 0.61218476 122.14619 7564130
-139.91367 0.61267954 121.82279 7037274
-141.81377 1.0806146 122.28141 8089963
38.236893 -28.105532 167.29758 9735555
37.225395 -28.341768 167.18694 10130569
36.073009 -28.424826 167.05626 9801603
35.290943 -28.461636 167.00237 7565417
34.383102 -28.376451 166.66673 9537923
33.46666 -28.28056 166.26347 10524047
32.637638 -28.127398 165.9256 8749174
39.884174 -27.208591 167.68309 9406078
39.16151 -27.319441 167.62735 9143162
38.095295 -27.437813 167.56305 9406846
37.086182 -27.519655 167.51433 9801348
36.15062 -27.487902 167.51233 9209467
35.049599 -27.671207 167.25389 7499625
33.996708 -27.525856 166.82402 8551799
33.081142 -27.433167 166.41992 9340800
32.171631 -27.341621 166.01828 9143933
31.393364 -27.384424 165.62569 9143931
30.610371 -26.985762 165.40912 9538432
41.716122 -26.037981 168.18126 11379356
41.052074 -26.220751 168.09755 10787732
40.089878 -26.334026 168.03699 10392974
39.08955 -26.563875 167.92908 10261387
38.025509 -26.52742 167.92693 10459278
37.2411 -26.569521 167.89766 11117208
34.051346 -26.922644 167.09398 7631211
33.116547 -26.506029 166.81149 9143934
32.295826 -26.426075 166.44801 8814970
31.334412 -26.454136 165.97305 9143933
30.434708 -26.367462 165.57417 9209467
29.620216 -26.222929 165.23984 9406846
28.889179 -26.020491 164.96909 9538432
42.790176 -25.386072 168.45956 10063749
41.99279 -25.427017 168.43059 10919061
41.007629 -25.351477 168.44537 10327437
39.970306 -25.398916 168.41002 10327437
38.952274 -25.735994 168.25879 10459022
38.293884 -25.91996 168.17464 10656657
32.080902 -25.718681 166.6301 8354676
31.266666 -25.440733 166.34973 9669764
30.367603 -25.518255 165.88489 10195594
29.380009 -25.467005 165.42932 9604225
28.399807 -25.416666 164.97701 9077625
27.402489 -25.08696 164.62923 10130313
44.957767 -24.075083 169.01936 9275004
43.920113 -24.455841 168.85028 8945780
42.960407 -24.422581 168.8485 9932163
41.939091 -24.336111 168.8671 10853269
40.907818 -24.602724 168.74396 10787732
40.118553 -24.742357 168.67554 9735812
30.113705 -24.730955 166.0804 10129801
29.233887 -24.451508 165.76904 9998470
28.382435 -24.456324 165.35652 9538176
27.445396 -24.493656 164.88957 10459278
26.5672 -24.416616 164.49721 10985622
25.707844 -24.143822 164.19293 10262414
45.909523 -23.375788 169.31532 10130825
44.932549 -23.488815 169.25423 9538176
43.93499 -23.413273 169.26851 9472383
42.93177 -23.421818 169.24927 9932678
41.96217 -23.557037 169.17978 10261644
28.319485 -23.703709 165.6301 11577244
27.426632 -23.437496 165.30711 9472384
26.417149 -23.409863 164.83148 9867143
25.53009 -23.5343 164.35347 10261901
24.662125 -23.461849 163.9642 10328465
23.811501 -23.194025 163.66223 10985364
48.702412 -22.103609 169.87079 12103329
47.806641 -22.178688 169.8262 10722448
46.829498 -22.514423 169.67577 8815225
45.792477 -22.427128 169.69411 9670275
44.916809 -22.398443 169.69153 9603969
43.90205 -22.680111 169.56216 9867141
26.911884 -22.652712 165.37587 9932937
26.188519 -22.461304 165.10439 9932937
25.378166 -22.528877 164.68634 10656658
24.50909 -22.459545 164.29527 10327436
23.645344 -22.391081 163.90639 12169123
22.85033 -22.460011 163.49516 9012347
22.146206 -22.273621 163.23091 7039331
49.687782 -21.289545 170.21333 9209467
48.868771 -21.431917 170.14296 12629673
47.796543 -21.481274 170.10591 10591888
46.786098 -21.406301 170.11975 8420983
45.971565 -21.450693 170.08878 8552568
25.212345 -21.720131 164.93301 8485494
24.495789 -21.532618 164.66322 9274747
23.579395 -21.357403 164.29205 11379864
22.563118 -21.567348 163.71721 9538434
21.552689 -21.442036 163.28058 9012095
20.715591 -21.183712 162.98128 10261903
50.625511 -20.004946 170.37587 9735812
49.771542 -20.436052 170.50194 9998727
48.674465 -20.407028 170.55115 10656398
47.763435 -20.590868 170.46266 9671045
47.076439 -20.7813 170.3752 8815739
23.959156 -20.829937 164.68828 8682867
23.247154 -20.64562 164.41934 10459019
22.462807 -20.52286 164.09073 9538179
21.607792 -20.461681 163.70314 7564651
20.757786 -20.401295 163.31767 8880509
19.839317 -20.401937 162.8745 10130060
18.866741 -20.20369 162.48558 11116181
50.617477 -19.322477 170.65111 9406590
49.747303 -19.444036 170.93056 9866886
48.994061 -19.565935 170.8938 9538176
22.282669 -19.91634 164.24889 9735297
21.43858 -19.660261 163.94524 7564651
20.474335 -19.453699 163.56369 8353908
19.53167 -19.53076 163.07803 9537664
18.6922 -19.474495 162.69597 9735041
17.85754 -19.419025 162.31587 12168866
17.036201 -19.170256 162.02028 8616822
51.595169 -18.282005 170.63069 9011320
50.781002 -18.507648 170.90271 9275005
49.966702 -18.733891 171.17453 9538176
19.571354 -18.747021 163.4137 9537664
18.739525 -18.497074 163.11356 8485232
17.748558 -18.385733 162.68066 9077115
16.78857 -18.504711 162.16971 8945786
15.894198 -18.449032 161.76093 7564392
15.214984 -18.27766 161.50261 7565675
51.641842 -17.370213 170.97282 9866885
50.730625 -17.722614 171.23753 9538176
18.147774 -17.67466 163.16032 7564392
17.529953 -17.441275 162.95674 7958893
16.651493 -17.506655 162.5067 10063753
15.862628 -17.538233 162.11359 8419700
14.888652 -17.43255 161.68657 8552055
14.022227 -17.334 161.30859 10787985
13.219512 -16.997658 161.05734 10064011
52.46841 -16.266962 171.04414 9735299
51.787868 -16.454863 171.27214 9735299
16.723045 -16.805841 162.82426 9208702
15.696025 -16.552275 162.43146 8748921
14.667327 -16.495378 161.95839 8354676
13.849593 -16.4506 161.58214 11577243
13.03638 -16.406416 161.20786 9735047
12.129806 -16.261089 160.82941 8486005
53.530346 -15.256843 171.07582 10063747
52.698307 -15.477804 171.30495 10064008
51.867504 -15.699564 171.53685 9735299
15.306331 -15.944013 162.48915 11511452
14.625941 -15.778076 162.23296 9143934
13.878295 -15.674716 161.92346 8946300
12.819064 -15.479643 161.55188 8617081
11.861339 -15.385246 161.15776 8222579
11.093116 -15.422586 160.75493 9275775
10.05654 -15.296685 160.3317 10064779
55.507805 -14.003343 171.58586 10129545
54.656342 -14.109074 171.77202 10129545
53.668678 -14.625871 171.51961 10195336
52.825375 -14.845047 171.7193 9209467
11.300315 -14.608636 161.50565 8092011
10.686656 -14.767715 161.07953 9078395
9.8865156 -14.731196 160.72484 10064779
9.0196066 -14.457409 160.59486 8485492
8.111434 -14.471147 160.15349 7300446
7.0219908 -14.21199 159.97401 8945271
6.1623487 -14.157673 159.68918 6839895
5.002284 -14.005049 159.49005 8813683
66.861961 -13.348174 174.55429 6972250
66.244102 -13.351071 174.82787 8090986
65.597206 -13.580352 175.02431 9735555
57.355839 -13.650976 172.33005 10261387
56.525726 -13.651428 172.60394 9275004
4.0330572 -13.972554 159.14018 7037274
3.2611189 -13.946928 158.86057 9735812
2.3001928 -13.915413 158.51123 9077114
1.3432761 -13.884479 158.16205 11182486
0.58117586 -13.859994 157.88245 10458766
-7.8653097 -13.693789 155.72836 7039331
-8.4273405 -13.694136 155.6987 9143422
-9.3639059 -13.694715 155.64479 9275520
-10.487294 -13.695411 155.57283 9801350
-11.423083 -13.695992 155.50687 10524303
-12.358405 -13.696573 155.43488 9670024
-13.29333 -13.697157 155.35765 9933196
-61.150597 -13.728524 143.41928 9143675
-62.012207 -13.729119 143.04837 7893607
-62.871887 -13.729714 142.67255 8090730
-63.728943 -13.730307 142.29131 8748661
-64.754578 -13.73102 141.82721 7564394
-65.606758 -13.731614 141.43495 9998218
-66.116898 -13.73197 141.19707 11379356
-81.362144 -13.741789 138.28934 9801347
-82.358345 -13.742508 137.69801 9537918
-83.185371 -13.743107 137.19983 9208435
-83.680122 -13.743465 136.89864 11313817
-95.813545 -13.751267 134.6474 9012089
-96.783081 -13.751991 133.95184 9012089
-97.426903 -13.752472 133.48445 8090987
-102.19527 -13.55373 133.16409 8090731
-102.85724 -13.431747 132.91885 10064779
-103.56818 -13.378769 132.62424 7235934
-104.51878 -13.399178 132.19376 8617587
-105.47192 -13.420091 131.76192 8683124
-106.42809 -13.441556 131.32854 10326924
-107.43633 -13.25929 130.95364 9735043
67.185638 -12.441586 174.77094 6840407
66.419624 -12.520507 175.0802 6511954
-103.71027 -12.769118 132.80553 6512211
-104.62441 -12.62394 132.4576 7630692
-105.56048 -12.561224 132.06691 8682867
-106.43183 -12.62052 131.65602 10458510
-107.39236 -12.641178 131.22099 9274492
-108.3557 -12.662304 130.78455 10129545
-109.22941 -12.268556 130.55424 8946555
-109.86173 -12.075429 130.35075 9012350
67.923439 -11.530931 174.80496 8617080
67.17392 -11.579314 175.11906 7828587
-105.7398 -11.886833 132.25761 8550769
-106.69562 -11.679003 131.91626 9668736
-107.51539 -11.671784 131.55495 9143162
-108.47326 -11.580391 131.16606 9340799
-109.4314 -11.444607 130.79485 8090993
-110.31554 -11.504378 130.37808 9406594
-111.23533 -11.274118 130.06175 9472642
67.91497 -10.544608 175.20103 8617080
67.39257 -10.850455 175.31172 8354417
-107.83829 -10.792026 131.76421 8682867
-108.51691 -10.666419 131.51311 8748920
-109.43963 -10.614539 131.12392 7762029
-110.41321 -10.633074 130.68401 9867142
-111.30161 -10.692099 130.26567 8682612
-112.26325 -10.62768 129.86449 9604226
-113.2634 -10.270768 129.56425 8221807
-114.1069 -10.077565 129.26779 8354164
68.074348 -9.5924778 175.50888 8353908
-109.59151 -9.9932795 131.30548 9012091
-110.50124 -9.7113733 131.01518 9275006
-111.45393 -9.6087914 130.63374 8288110
-112.30906 -9.6839952 130.22403 8748405
-113.27831 -9.4319067 129.89542 8682872
-114.26766 -9.449852 129.44928 8879995
-115.01363 -9.3932896 129.14107 9143934
-115.71329 -9.2656651 128.88196 10261387
-111.85899 -8.7778549 130.78864 7564643
-112.55088 -8.6489582 130.53355 8419443
-113.29292 -8.5909348 130.22763 8617080
-114.28403 -8.6073236 129.78127 9143167
-115.2785 -8.6240377 129.33327 9209213
-116.07683 -8.6376677 128.97354 9669507
-116.8292 -8.5799837 128.66292 10261387
-117.53524 -8.4507637 128.40166 11379356
-113.65066 -7.9642339 130.32124 8617080
-114.34852 -7.8338737 130.06407 9735046
-115.31966 -7.687211 129.69231 8353902
-116.28085 -7.5197935 129.33325 8616818
-117.15409 -7.5937657 128.91591 10590352
-118.03014 -7.6683455 128.49722 9668995
-119.02676 -7.4095325 128.15921 9142907
-119.89529 -7.2089024 127.85463 9012606
-116.37024 -6.7310224 129.61113 6511954
-117.23031 -6.5292025 129.31079 8156268
-118.23963 -6.5427022 128.85751 8089963
-119.05009 -6.55369 128.4935 10524560
-119.97388 -6.6094303 128.06114 11709347
-120.91205 -6.472024 127.70021 10260873
-121.76026 -6.3761296 127.36246 10655630
-118.33522 -5.7941356 129.11653 9076858
-119.27682 -5.6981053 128.73744 10327181
-120.16706 -5.579423 128.39012 11643553
-121.0385 -5.5652375 128.00926 11445401
-121.99364 -5.5150533 127.60565 10590093
-122.92616 -5.3817263 127.24555 8879991
-123.85747 -5.2479296 126.87861 9209212
-119.65119 -5.0566649 128.82961 8682867
-120.32137 -4.8478127 128.61629 8682867
-121.30605 -4.4973011 128.32054 9077625
-122.0801 -4.4325986 128.00314 9998727
-122.90618 -4.440722 127.63338 9077626
-123.93635 -4.450789 127.16243 9472384
-124.94239 -4.4600468 126.66101 9209215
-125.60497 -4.2475457 126.41647 7565675
-122.46252 -3.7841129 128.09467 8419440
-123.1428 -3.5717678 127.87827 8879991
-123.97112 -3.5783935 127.5042 8682868
-124.88732 -3.6290913 127.03175 8814453
-125.87774 -3.5489218 126.56816 8814714
-126.74803 -3.5260923 126.14108 9932424
-124.14951 -2.9235663 127.68702 8682867
-125.01687 -2.7094083 127.34664 8682867
-125.82355 -2.7140768 126.94009 10458509
-126.83555 -2.7200398 126.43008 9011065
-127.80398 -2.6522 125.97238 10195335
-128.74394 -2.2150929 125.68235 7563619
-125.3978 -2.0520239 127.42707 8682867
-126.11202 -1.9081154 127.12829 14800328
-126.93694 -1.616906 126.83532 11050642
-127.82121 -1.6835577 126.36467 9800578
-128.7412 -1.4464293 126.00211 8484720
-129.75145 -1.3609536 125.53149 10787476
-130.54353 -1.1852772 125.20746 9010808
-127.99819 -0.73369908 126.66944 7563619
-128.96333 -0.58710647 126.29988 8353907
-129.75623 -0.51417869 125.95941 8814715
-130.68214 -0.56041241 125.46049 9142651
-131.51845 -0.44241685 125.13275 8879735
-132.36031 -0.29415405 124.82522 8617334
-130.96298 0.1559045 125.91132 11182489
-131.95256 0.30603284 125.54482 8617334
-132.76256 0.38132507 125.20396 8222833
-133.60062 0.3815352 124.78462 8353646
-134.44167 0.38174316 124.36379 8419182
-135.42354 0.60903978 124.06738 10260871
-136.0594 0.60949224 123.74948 10984593
-137.68077 1.0726677 124.31805 10787984
-138.54442 1.0743111 123.89228 10064777
-139.41139 1.0759521 123.46494 10064777
-140.28186 1.0776407 123.03601 7301470
