# .PCD v0.7 - Point Cloud Data file format
VERSION 0.7
FIELDS x y z rgb
SIZE 4 4 4 4
TYPE F F F U
COUNT 1 1 1 1
WIDTH 1226
HEIGHT 1
VIEWPOINT 0 0 0 1 0 0 0
POINTS 1226
DATA ascii
19.426622 -17.618568 159.84999 8683637
18.606565 -17.573414 159.5119 8223346
133.63246 -16.609909 130.09663 8881021
132.94241 -16.601467 130.67741 8090731
132.29111 -16.668949 131.19006 8879734
18.532 -16.658773 159.8398 8617847
17.735682 -16.466053 159.57018 8354675
135.39867 -15.060195 129.61128 7039331
134.67247 -15.406926 129.91368 11314333
133.98138 -15.488364 130.43547 9932938
133.22179 -15.776937 130.84615 8288627
18.277374 -15.816057 160.06119 7564651
17.473228 -15.587353 159.84666 9538436
16.67309 -15.361594 159.64977 10064779
136.62549 -14.335548 129.32263 10985879
135.87447 -14.356923 129.94139 8881533
135.12219 -14.613658 130.28462 7828335
17.521011 -15.026275 160.29501 8092011
16.684273 -14.661676 160.233 9538691
15.653262 -14.296923 160.16461 8814457
148.91339 -13.282749 126.92033 8090734
147.44702 -13.677495 126.59081 8681843
146.83479 -13.676203 127.29845 8681843
139.37155 -13.825158 128.6754 9077884
138.68146 -13.817449 129.28056 9735812
138.16391 -13.811817 129.73375 9735812
14.656648 -13.857185 160.99347 7037274
13.652286 -13.824485 160.67188 8221548
3.9267876 -13.453776 163.49101 11907239
3.0798218 -13.320089 163.17621 9998983
3.7467721 -12.683514 163.71605 9538690
3.0180581 -12.594567 163.43497 9472639
2.4241974 -12.378775 163.26228 11709345
3.0894082 -11.739082 163.80257 9209467
2.2694428 -11.504229 163.53926 10196106
2.8290703 -10.805245 164.05711 9209467
2.0351021 -10.585787 163.79906 13157306
1.2430947 -10.367456 163.54143 9209467
1.958133 -9.8281813 164.06383 14670287
1.1787369 -9.4383898 163.87912 10590863
1.1665871 -8.6141205 164.19824 10524556
0.32157823 -8.4908686 163.8802 9406847
0.98200154 -7.8371563 164.42386 10129799
0.10652468 -7.5047197 164.17496 9472384
-0.023434423 -6.590672 164.47827 8287853
-0.86761165 -6.4715285 164.15903 7762282
0.0547745 -5.9481664 164.76508 8485232
-0.73883128 -5.5353403 164.58325 7037274
-1.5302856 -5.3251696 164.3226 5919050
-1.0064018 -4.5913277 164.83868 7234910
-1.7318351 -4.5173497 164.55312 5919050
-1.1413543 -3.9157619 165.04602 7366752
-1.8853538 -3.5557294 164.8651 6050636
-2.5951583 -3.2309136 164.68507 5919050
-1.9403465 -2.693208 165.18138 5919050
-2.7323425 -2.4867082 164.9191 7366239
-2.8531616 -1.5268037 165.24533 7629411
-3.6889274 -1.3861353 164.93808 8287341
-3.1432846 -0.65130389 165.46477 8089962
-3.8572319 -0.48820698 165.28476 9340030
-4.5328569 -0.24401382 165.18637 10787988
-3.9501998 0.16795069 165.78035 10261132
-4.8229609 0.33000022 165.53607 9669762
-5.5387621 0.5742988 165.4279 10459278
-5.9680758 0.99068111 166.23315 10459278
-6.7561426 0.98677403 165.88478 10524816
-17.325569 1.636899 168.93019 8815737
-18.248566 1.6759439 168.70677 9736579
-17.557022 2.4815679 169.16377 8618359
-18.361675 2.4786706 168.9785 10064774
-19.302696 2.5458391 168.79025 9340539
-18.259216 3.2567077 169.2899 10130053
-19.201847 3.323673 169.10123 9537917
-20.015923 3.5327201 168.99425 10590347
-19.295403 4.3346672 169.45451 10721933
-20.255142 4.3835487 169.25526 10589834
-21.006664 4.6644182 169.18909 8353133
-20.17997 5.410079 169.65256 7760998
-21.23325 5.4903383 169.44374 8287340
-20.543781 6.3101377 169.90355 10063747
-21.243866 6.4600797 169.80052 9668990
-22.176361 6.6392369 169.65569 8156267
-21.402821 7.3833632 170.10649 5919050
-22.222855 7.5946856 169.99907 5919050
-23.170578 7.6610575 169.80904 6840151
-22.126469 8.3899813 170.31551 6840151
-23.075657 8.4562311 170.12486 6248016
-23.883774 8.450408 169.92593 7038307
-23.195278 9.2807484 170.37923 7367011
-24.121964 9.314764 170.12231 8090991
-23.345833 9.9752188 170.55374 7367271
-24.020695 10.458267 170.50421 7564649
-24.877773 10.503067 170.26625 7169893
-24.280838 11.420163 170.72404 7235685
-25.223423 11.481833 170.46609 7893352
-24.447128 12.14897 170.89961 7038307
-25.061691 12.360926 170.78435 12168866
-25.867241 12.35083 170.54457 10261382
-25.207191 13.349924 171.04611 9734788
-26.11974 13.448105 170.80829 7564385
-26.946705 13.878385 170.69786 5921098
-26.203632 14.35529 171.34612 5393730
-27.001823 14.338829 171.04233 5723463
-27.905785 14.812168 171.39195 5921098
-28.704044 14.795843 171.08838 5921098
-28.912506 15.470421 171.81517 5920330
-29.796242 15.584933 171.66389 6709590
-30.724964 15.745076 171.68488 7762278
-36.125229 16.477341 173.8949 11181972
-36.788857 16.714182 173.9259 10721681
-37.633396 16.493547 173.77675 9734788
-38.496758 16.503447 173.70927 9472639
-37.057838 17.407791 174.15446 8681843
-37.705967 17.41581 174.10397 9800581
-38.658424 17.361433 174.00604 10327946
-39.673294 17.671364 174.03462 10854289
-40.561092 17.914806 174.04964 9210491
-38.730305 18.508812 174.41444 9341564
-39.659199 18.552422 174.35382 9933700
-40.710964 18.660362 174.30638 9735552
-41.511436 18.858442 174.3121 9209467
-39.675503 19.453423 174.67769 9538431
-40.607624 19.498405 174.61732 10064003
-41.66328 19.608341 174.57034 9472382
-42.466946 19.80858 174.57661 9209467
-40.556046 20.254858 174.96333 10261128
-41.661549 20.391323 174.93056 9735296
-42.649994 20.577425 174.95615 9340797
-43.687267 20.788719 174.98557 9932934
-42.689312 21.272184 175.47957 8682867
-43.585548 21.409348 175.47377 8946039
-44.581081 21.598642 175.49557 9406334
-45.628521 21.814703 175.53143 9734787
-45.509716 22.316738 175.94148 9866373
-46.607643 22.333296 175.8074 8616823
-47.26828 22.718918 176.29408 8616566
-48.3493 22.912687 176.351 8090479
-49.232944 23.490519 177.05544 7038307
-50.332764 23.504318 176.87241 7038301
-51.213829 23.515974 176.72673 10260614
-51.220627 24.084341 177.54634 7827307
-52.328617 24.100353 177.36497 9142907
56.430748 -42.089684 150.69937 9209211
55.858078 -42.069038 150.82635 9209467
58.107746 -41.274281 150.2019 9341054
57.394073 -41.38805 150.50737 11906725
56.604809 -41.543324 150.83333 9275005
55.536667 -41.46439 151.07465 9209467
54.553303 -41.198635 151.20398 9735811
60.014015 -40.072044 149.74706 9405822
59.412411 -40.213161 149.9864 9405822
58.522274 -40.442001 150.33246 8813942
57.50642 -40.513767 150.80351 11051416
56.62751 -40.535366 151.22734 8880503
55.674988 -40.506123 151.45279 9406589
54.661743 -40.433067 151.5061 9275260
53.711472 -40.520428 151.49408 9736836
52.84676 -40.305756 151.60028 10789012
61.346329 -39.272533 149.41278 8287598
60.443031 -39.482468 149.77292 8747893
59.465263 -39.462585 150.2621 8945015
58.611549 -39.558018 150.64381 8419183
57.631458 -39.541245 151.13289 9933191
56.725994 -39.75713 151.49165 8090987
55.582275 -39.723831 151.76642 10261127
54.797455 -39.474648 151.88435 9932419
53.758564 -39.596352 151.86079 9275517
52.749992 -39.527664 151.91226 9736322
51.816856 -39.355408 152.00317 9407870
50.993237 -39.026649 152.15385 9210491
63.262032 -38.079109 148.94977 8813941
62.295742 -38.370338 149.30823 9011321
61.452782 -38.494576 149.67311 9142906
60.574203 -38.509865 150.09929 9142651
59.518806 -38.529823 150.61067 9603457
58.612854 -38.742733 150.9709 9998728
58.059048 -38.949013 151.16052 10591121
53.777065 -38.727142 152.20625 9209467
52.880409 -38.570774 152.29001 10129796
51.872684 -38.505245 152.34021 9341052
50.656891 -38.510311 152.36732 9670530
49.741501 -38.306774 152.47058 10985110
49.09182 -38.139034 152.55307 7564651
64.157631 -37.44595 148.76355 10065032
63.344299 -37.495094 149.14406 8813941
62.465485 -37.507462 149.57153 9274236
61.485676 -37.483784 150.06322 8945015
60.692436 -37.633385 150.39342 9931910
59.974689 -37.743675 150.70235 9405566
52.75655 -37.982624 152.52704 10853004
51.889156 -37.772762 152.63136 9801346
50.792255 -37.472786 152.77701 10656657
49.788704 -37.41185 152.82535 11643808
48.764679 -37.543301 152.79787 8617336
47.791283 -37.294559 152.92052 11379868
66.879486 -36.096169 147.96667 9142907
66.083221 -36.258595 148.29324 8484721
65.240585 -36.500175 148.61076 9011576
64.361328 -36.5098 149.03957 8550770
63.481476 -36.520557 149.46829 10261899
62.638138 -36.580791 149.85904 10524559
61.742638 -36.805172 150.20953 8681843
50.489346 -36.682751 153.09871 10656657
49.835793 -36.515579 153.18088 9802372
48.884094 -36.588707 153.17462 11183769
47.884686 -36.53178 153.22147 13485241
46.943859 -36.431469 153.28433 9998727
45.990829 -36.172016 153.41072 9209211
67.87484 -35.309601 147.79227 8353647
67.142059 -35.50956 148.07292 8089963
66.262177 -35.516567 148.50328 9866886
65.381767 -35.524727 148.93341 8089963
64.500618 -35.534065 149.3632 8353391
63.591393 -35.739964 149.72791 9932678
48.779194 -35.812492 153.48605 10986390
48.001694 -35.576683 153.59854 11905951
47.002769 -35.522545 153.64417 8945782
46.006626 -35.4697 153.68951 10261385
45.060802 -35.502842 153.69943 9734788
44.044365 -35.177879 153.85344 9997703
69.813538 -34.128754 147.31151 8748405
69.117676 -34.457096 147.52243 7038048
68.168251 -34.527008 147.9619 5853774
67.287025 -34.532631 148.39357 6708566
66.405304 -34.539486 148.82501 9932678
65.494781 -34.743084 149.1917 7564651
64.760834 -34.945923 149.47159 7564651
46.982983 -34.848454 153.91281 8682867
45.985569 -34.50832 154.07216 8485489
45.067616 -34.510151 154.09387 8879991
43.975876 -34.456402 154.14191 9143163
42.993706 -34.489071 154.15292 9340539
42.349121 -34.331333 154.23137 9537918
71.065834 -33.440929 146.97092 10788499
70.080315 -33.541042 147.41603 11511711
69.198059 -33.544243 147.84921 7893099
68.315369 -33.548645 148.2821 6774618
67.432266 -33.554096 148.71475 6708566
66.873291 -33.753799 148.90982 9208955
45.011154 -33.691036 154.4209 7959401
43.972229 -33.531563 154.50964 8288109
43.024822 -33.596981 154.50676 9011574
42.086491 -33.50367 154.55206 9340282
41.224171 -33.087185 154.50032 9932934
73.475746 -32.166401 146.29576 9734788
72.865433 -32.296539 146.54404 9406079
71.962654 -32.50901 146.90331 10261900
71.115417 -32.55891 147.30049 10590865
70.231544 -32.560986 147.73489 10787988
69.370819 -32.642445 148.12607 9142652
68.506958 -32.862228 148.46321 8024427
43.703968 -32.860683 154.78287 9011574
43.055691 -32.70322 154.86125 9011574
42.20079 -32.456482 154.97507 9735039
41.15004 -32.440342 154.7227 10327692
74.665146 -31.382874 146.02457 8419438
73.924873 -31.57773 146.31081 10195338
73.03968 -31.576473 146.74721 9734788
72.154343 -31.576323 147.18323 10326924
71.268829 -31.577194 147.61896 9866630
70.456497 -31.677275 147.97881 10919318
41.821648 -31.817371 155.24355 11183001
41.179176 -31.549849 155.08575 11183001
40.413033 -31.361814 154.82755 9603969
76.824066 -30.2145 145.4619 9209467
75.831955 -30.488853 145.82289 9471098
74.975754 -30.59787 146.19792 8287852
74.088745 -30.595678 146.63577 9734788
73.201599 -30.594494 147.07324 9734788
72.278854 -30.789539 147.4377 10787473
71.538406 -30.987009 147.72305 9537665
41.066566 -30.5769 155.4198 9932934
40.272923 -30.447107 155.13338 9341054
80.612556 -29.127365 144.53114 10261132
79.776154 -29.213753 144.87068 9340285
78.847137 -29.263058 145.28822 9669764
77.916687 -29.525036 145.51068 10525071
77.012154 -29.473988 146.00166 9538176
76.04216 -29.690331 146.27769 8813682
75.115662 -29.742914 146.68904 8288110
74.283562 -29.83379 147.02223 9734788
40.017006 -29.786953 155.485 11117206
39.124165 -29.414268 155.43556 10459278
38.110962 -29.035248 155.55963 9735812
116.38762 -28.235809 135.48521 9538173
115.6744 -28.468487 135.77502 10985364
114.80452 -28.394266 136.27492 12761517
113.84994 -28.361099 136.80374 8879478
113.0377 -28.548204 137.16563 10853012
109.85319 -28.691065 137.29091 9735042
109.02416 -28.690168 137.94862 6643539
108.52479 -28.68964 138.34082 5920074
103.55225 -28.694286 138.74876 9537667
103.04984 -28.693817 139.12114 9537407
102.20967 -28.693052 139.73746 9076853
96.309296 -28.697197 140.703 9209214
95.459839 -28.696556 141.27914 8354421
94.777786 -28.696056 141.73618 9538692
89.122269 -28.700872 142.36566 8484976
88.606934 -28.700565 142.68573 6510930
87.745575 -28.700069 143.21513 7169632
86.881195 -28.699593 143.73972 9209214
84.228378 -28.876158 143.60963 11380380
83.694664 -28.871138 143.88802 10064779
82.804649 -28.863384 144.35028 11577243
81.913757 -28.856153 144.81009 9932932
81.022194 -28.849634 145.26768 9998471
37.351051 -28.793423 156.11955 8749435
36.354992 -28.722296 156.53088 9012350
35.411278 -28.722788 156.7457 9012092
34.27721 -28.7234 156.99615 9011321
33.330799 -28.723932 157.19876 9537152
32.383129 -28.724482 157.39534 8682867
31.434422 -28.725046 157.58659 8682867
30.484413 -28.72563 157.77179 8946299
29.533442 -28.726229 157.95163 9670023
28.581284 -28.726847 158.12531 10261902
27.437397 -28.727612 158.32642 9208700
26.62812 -28.514177 158.65013 10064265
25.887995 -28.295475 158.44739 10064265
118.43246 -27.01318 134.88162 9932416
117.67493 -27.245451 135.1955 9735037
116.64706 -27.640839 135.58856 9472123
115.77396 -27.566633 136.09021 9209467
114.88228 -27.578907 136.56653 9538176
114.00034 -27.721294 136.98436 7563618
26.523521 -27.663824 158.97229 10064265
25.644207 -27.450985 158.67456 9340798
119.41805 -26.180368 134.69037 10787476
118.59017 -26.367804 135.06053 10129801
117.55354 -26.46114 135.58189 9406077
116.79988 -26.521603 135.96397 8814452
115.97862 -26.709938 136.33025 9209211
115.35138 -26.904734 136.58916 9735812
25.584917 -26.540102 159.00789 8879991
24.759691 -26.275618 158.75407 9340798
120.50311 -25.493399 134.38568 11510943
119.57729 -25.533007 134.86922 10590097
118.60663 -25.499084 135.40706 10129546
117.83179 -25.47262 135.83615 9471871
117.19972 -25.66847 136.0972 8682867
25.391266 -25.637829 159.27951 7563619
24.600142 -25.493757 158.99294 8287598
23.998259 -25.059582 158.90283 8682099
122.49352 -24.106077 133.87885 8617081
121.50623 -24.363331 134.30656 8090737
120.56097 -24.530928 134.74821 10590097
119.64815 -24.445002 135.27612 10655890
118.86435 -24.70956 135.591 9866374
118.18227 -24.832054 135.90904 9735043
24.661486 -24.536633 159.39688 8550769
23.898998 -24.41106 159.11539 7958376
123.39795 -23.405258 133.67767 8090994
122.46103 -23.446049 134.16649 7038307
121.4794 -23.412653 134.70998 7827566
120.69595 -23.386589 135.14355 9866374
120.05594 -23.584587 135.40796 9734788
24.488464 -23.94426 159.55508 8682099
23.676317 -23.495249 159.37956 7234653
22.866255 -23.048845 159.20387 8682099
125.31541 -22.147589 133.15881 9209467
124.51338 -22.414839 133.48186 8748923
123.46887 -22.600096 133.96925 7564651
122.48279 -22.567108 134.51454 7433064
121.74344 -22.616173 134.89336 8419957
23.525757 -22.519598 159.69849 9208443
22.692373 -22.458525 159.36092 8681843
126.33786 -21.295399 132.95651 8946555
125.38914 -21.33779 133.45076 8288628
124.33984 -21.524658 133.94009 7301222
123.56496 -21.587955 134.33206 7038307
122.64705 -21.911732 134.6944 8354163
23.351507 -21.927328 159.85612 10853524
22.656275 -21.546711 159.70438 8945015
22.000963 -21.189272 159.56076 10852753
128.07349 -20.314085 132.42244 10064777
127.3051 -20.467266 132.77411 9735812
126.32175 -20.524296 133.28107 8420470
125.41512 -20.450859 133.80009 9537923
124.66653 -20.501337 134.18312 9537666
22.595919 -20.520617 160.08229 8616822
21.764166 -20.465664 159.743 12826541
130.03751 -19.034206 131.88759 11905701
129.19904 -19.119778 132.30472 10393486
128.35271 -19.503574 132.6039 9472639
127.35114 -19.665649 133.07765 9406848
126.44048 -19.592657 133.59863 9340801
125.78381 -19.795254 133.86978 10261132
21.695799 -19.549482 160.0742 11708832
20.88941 -19.347319 159.80386 11181972
130.20428 -18.363813 132.05586 9208955
129.20126 -18.33424 132.62537 10656402
128.31795 -18.442196 133.05743 10985623
127.47174 -18.730598 133.39566 10327694
126.81183 -18.934526 133.66808 9340801
21.454748 -18.509756 160.37912 7565675
20.625362 -18.460968 160.03836 9867141
131.10481 -17.436203 131.82121 10195595
130.24733 -17.465082 132.41719 10787732
129.4353 -17.441559 132.86482 11117208
128.76932 -17.647436 133.1396 11906725
20.600065 -17.619141 160.35895 10787985
19.856203 -17.293484 160.16447 10656399
131.87029 -16.513834 131.61485 9538176
131.21979 -16.581919 132.12685 9143418
130.53197 -16.645473 132.5994 11577759
129.8143 -16.7761 132.93292 13551549
19.812458 -16.514696 160.45222 11510940
19.071606 -16.437599 160.1611 7564651
133.66951 -15.040363 131.07507 7564651
132.94562 -15.387283 131.37346 9077881
132.25545 -15.469399 131.89264 13156786
131.49718 -15.758231 132.29913 8419952
19.658434 -15.75567 160.69934 10524305
18.772848 -15.412473 160.54327 8024945
17.929943 -15.044338 160.45694 8814203
134.90552 -14.317209 130.80878 7564651
134.15344 -14.339211 131.42314 8354165
133.39043 -14.594927 131.74954 7827819
18.581514 -14.696534 161.01866 8156531
17.776932 -14.472827 160.84993 7960171
17.179136 -14.259047 160.7626 8092011
148.3952 -13.276775 127.40649 9537152
147.70483 -13.269046 128.05408 10918805
146.37355 -13.675241 127.82726 9931910
145.75507 -13.673973 128.52939 8681843
137.81883 -13.808167 130.03545 9012091
137.12888 -13.801164 130.63786 8420983
136.43881 -13.794264 131.23953 9144448
16.477171 -13.917467 161.57315 12432037
15.868596 -13.897175 161.37975 8092011
15.261632 -13.877081 161.18657 7760997
6.0067549 -13.684249 164.3026 10065291
5.2058973 -13.457898 164.04424 12433324
4.4072294 -13.232777 163.78638 13551549
149.10715 -12.570156 127.08468 7564392
148.58824 -12.564481 127.57137 9076601
147.93309 -12.636847 128.14729 9997959
5.0815077 -12.593914 164.33032 11380891
4.3146162 -12.43711 164.05937 10986137
149.36609 -11.617827 127.30424 7564135
148.84616 -11.612428 127.79173 8089963
148.26216 -11.845511 128.2235 9142907
4.2891607 -11.575107 164.38754 8551799
3.4905388 -11.35354 164.12828 9011579
149.53162 -10.581816 127.65138 8089963
149.21358 -10.898416 127.79472 8089963
4.1628332 -10.707741 164.67403 7695979
3.3094704 -10.578942 164.35457 9011579
149.88863 -9.7048082 127.74737 9076856
3.1853249 -9.6673584 164.65944 9011579
2.3048089 -9.3307886 164.40996 13024174
3.2405274 -8.8172369 165.01797 7038307
2.4411767 -8.5999269 164.75673 9801091
1.6438591 -8.3836784 164.49591 15195086
2.2048981 -7.6717606 165.01949 8682867
1.3804772 -7.4430099 164.75188 8682867
2.0479653 -6.7829227 165.30119 8682867
1.2492135 -6.5691147 165.03885 8682867
0.45251772 -6.3562698 164.77699 8485232
1.2502129 -5.8627067 165.31728 9077625
0.45236513 -5.4340825 165.13985 8880246
0.37214586 -4.5772743 165.44223 8024681
-0.47778395 -4.4613476 165.11916 7103324
0.18506166 -3.7903087 165.67105 7301214
-0.69587398 -3.4621239 165.41817 6576980
-0.61575389 -2.5629866 165.80762 8420212
-1.4654167 -2.4508379 165.48308 7893352
-0.75094295 -1.8811469 166.01796 10985881
-1.5993583 -1.521215 165.7917 8946299
-2.3461006 -1.2648304 165.5688 7037274
-1.7535026 -0.65017116 166.06837 8025456
-2.4327972 -0.40424651 165.96849 8090479
-3.1501739 -0.24139771 165.787 8089962
-2.759671 0.17140871 166.29851 8485238
-3.4794204 0.41703755 166.18849 10063754
-4.3550158 0.57884008 165.94292 9538176
-4.5811167 0.99753863 166.84659 9274491
-5.3747454 0.99351746 166.49561 9538176
-15.533467 1.4345579 169.5627 13551549
-16.018814 1.6860445 169.46121 10328717
-16.731487 1.6399221 169.16125 9013115
-16.167915 2.4908211 169.71304 9538946
-16.962429 2.4855273 169.39859 9539457
-16.39085 3.1271398 169.8728 9735046
-17.194176 3.3338349 169.63721 8289395
-18.001858 3.5411725 169.45351 10590347
-17.132729 4.2948112 170.0349 7827564
-18.036762 4.3943844 169.76953 8682867
-18.861626 4.8172598 169.73157 10590347
-18.158802 5.4213457 170.12114 7958633
-19.090637 5.4588456 169.91733 8682867
-19.706448 5.669929 169.85603 7563619
-18.104748 6.1092882 170.38156 10787988
-18.924274 6.3197765 170.2739 9142650
-19.936844 6.3136888 170.04231 9734783
-19.269489 7.2892971 170.55481 10261127
-20.068367 7.3304071 170.38913 10984592
-20.928631 7.6461372 170.31128 10195333
-20.096489 8.4040356 170.78049 8879477
-21.047672 8.4697828 170.58937 9405819
-21.869862 8.6813841 170.48151 6840151
-20.884426 9.3423862 170.94957 9143166
-21.901062 9.3348484 170.71654 7564390
-22.723824 9.5468397 170.60452 6840151
-21.118114 9.9964266 171.13896 8090736
-21.999321 10.372151 171.0603 9274495
-22.924568 10.503675 170.84024 8222576
-21.987179 11.302947 171.36174 10261132
-22.80447 11.511765 171.18593 9275264
-23.749615 11.572792 170.92703 7696236
-22.919682 12.345135 171.40871 8946299
-23.974323 12.41897 171.12167 7235685
-23.281986 13.266178 171.58592 10262156
-23.898464 13.47853 171.47021 8814713
-24.670734 13.555952 171.26717 7958889
-24.802864 14.385239 171.88063 7564131
-25.65102 14.611993 171.88715 5722695
-26.705669 14.837264 171.84918 4670774
-25.933601 15.306348 172.34828 6840664
-26.774166 15.528159 172.28102 4999739
-27.806606 15.523257 172.08168 4342065
-28.441544 15.746591 172.0544 4342065
-33.555527 16.567106 174.13861 8354160
-34.51144 16.736647 174.12128 9537662
-35.497013 16.700525 174.02721 9866627
-36.159992 16.937164 174.05827 11181972
-34.571407 17.565414 174.41551 11313303
-35.565376 17.622002 174.35429 9406077
-36.428047 17.631554 174.2869 10524043
-37.093613 17.870218 174.31831 8681843
-35.501141 18.499989 174.67644 9734529
-36.498405 18.55798 174.61546 9273979
-37.490135 18.523773 174.52167 8616306
-38.248951 18.812111 174.56339 8420208
-36.636223 19.412479 174.91614 11576729
-37.436214 19.500084 174.87843 8551024
-38.521885 19.514851 174.79463 8157036
-39.410789 19.760908 174.81046 9735812
-37.746723 20.225813 175.28987 7170141
-38.493546 20.397486 175.32898 8420208
-39.42141 20.439993 175.24661 9472128
-40.425678 20.747446 175.35788 9734788
-41.293911 20.757685 175.25832 9734788
-39.642784 21.234724 175.82787 9734788
-40.294472 21.242153 175.75296 9734788
-41.330265 21.454182 175.78717 9997960
-42.321133 21.641645 175.80811 9471871
-43.217934 21.778683 175.80203 8682867
-43.155785 22.312531 176.46321 9340289
-44.275673 22.454338 176.42467 8748663
-45.088634 22.885897 176.94695 9734787
-46.17749 22.895517 176.75998 10260874
-46.381527 23.459713 177.53723 8616566
-47.03867 23.466228 177.42529 8616566
-48.13509 23.477892 177.23982 7564393
-50.114651 24.069572 177.72911 7695979
56.775261 -39.367653 151.62399 9998212
55.928467 -39.456837 151.86238 10261127
58.689152 -38.158203 151.1683 11906725
57.718826 -38.519596 151.50056 10591121
56.87394 -38.587929 151.88881 9932933
55.946712 -38.580257 152.19589 9472382
54.933506 -38.514168 152.26335 9538175
54.031509 -38.22097 152.40166 9209467
53.161057 -38.008808 152.50694 10261382
60.37936 -37.347218 150.66254 9405566
59.582592 -37.517788 150.98607 9931910
58.765511 -37.573051 151.36595 11380380
57.856575 -37.446518 151.86407 11248794
56.946262 -37.418617 152.32326 10261643
55.958981 -37.543171 152.60973 9472384
54.866016 -37.538437 152.65329 9209467
53.848648 -37.471947 152.70415 9472381
52.83493 -37.407024 152.75426 9932676
51.849827 -37.151783 152.87943 9538432
62.302284 -36.147381 150.1985 9932166
61.443211 -36.420502 150.51149 9734531
60.660603 -36.563396 150.83916 9866117
59.777241 -36.579445 151.26743 8879222
58.892956 -36.596634 151.69568 9932934
58.134064 -36.54744 152.08887 10525071
54.887642 -36.80061 152.94647 9406335
53.981865 -36.509293 153.08408 10064518
52.965397 -36.445911 153.13368 10458762
51.982346 -36.463184 153.15038 9932934
51.002762 -36.481659 153.16647 10788243
50.13644 -36.275879 153.26906 10986390
63.367901 -35.450356 149.95428 10195850
62.559772 -35.558796 150.30841 10524559
61.676289 -35.572018 150.73782 9800324
60.792015 -35.586372 151.16724 10853012
59.968559 -35.51722 151.60025 8945015
58.995029 -35.814503 151.95981 9538432
52.98127 -35.573128 153.48067 11314329
52.024162 -35.535305 153.51868 9538175
51.04245 -35.55537 153.53415 9669762
50.033459 -35.497292 153.58144 9210491
49.098927 -35.334457 153.66864 9210491
48.27253 -35.0135 153.81624 10261641
65.40287 -34.157856 149.47177 7564651
64.531654 -34.492706 149.76637 8288116
63.579674 -34.569061 150.20427 9142651
62.695168 -34.580704 150.6349 9339773
61.809784 -34.593578 151.06541 10195083
60.947639 -34.867817 151.37949 9932169
51.953785 -34.83255 153.80009 9340539
51.081791 -34.62746 153.90254 8814711
50.156242 -34.536892 153.96078 8618359
49.147957 -34.481709 154.00688 9210491
48.088379 -34.540588 154.00885 9603712
47.224995 -34.341091 154.10889 8682867
46.363152 -34.142715 154.20848 8682867
66.483696 -33.522144 149.1947 9208955
65.487549 -33.570221 149.66592 8024945
64.602661 -33.579327 150.09801 8288116
63.728836 -33.505539 150.55792 9602946
62.880875 -33.665585 150.91125 9866117
62.27158 -33.804504 151.15527 10129289
50.230057 -33.95961 154.1888 8092019
49.196823 -33.627377 154.34578 8552055
48.260284 -33.467815 154.43167 8682867
47.255447 -33.416634 154.47614 9143161
46.031071 -33.54847 154.45297 9669250
45.054901 -33.30846 154.57193 9340286
69.230087 -32.172333 148.38403 9734788
68.427376 -32.333294 148.71471 7958634
67.400696 -32.574928 149.12329 7563874
66.515099 -32.581562 149.55673 8616818
65.628906 -32.589367 149.98997 9143168
64.766479 -32.676411 150.37976 9537925
64.182076 -32.800495 150.61774 10458513
48.152874 -32.68821 154.74449 8682867
47.285557 -32.490479 154.84406 9735043
46.143135 -32.58968 154.83189 10129545
45.142426 -32.542233 154.87473 9340286
44.199856 -32.450581 154.93388 8879989
43.243797 -32.199211 155.05701 9011574
70.236076 -31.38316 148.20538 10919061
69.319656 -31.583 148.57643 9010808
68.433083 -31.587286 149.01128 8485233
67.575188 -31.39599 149.51051 8025194
66.711372 -31.480829 149.90184 7893351
65.919724 -31.801853 150.16286 9011582
46.143726 -31.720236 155.1779 9735043
45.252151 -31.582541 155.2541 9735043
44.251842 -31.53772 155.29593 10327178
43.25412 -31.493984 155.33722 10392454
42.342846 -31.416626 155.39012 10524298
72.740517 -30.203794 147.48039 14076861
72.207542 -30.203968 147.74257 8813686
71.212975 -30.546547 148.07285 10261388
70.361214 -30.597494 148.47005 10787732
69.472923 -30.600624 148.90582 9734531
68.584175 -30.604706 149.34123 9340542
67.869598 -30.607388 149.68202 8880503
45.117485 -30.996622 155.49051 10853012
44.253284 -30.804239 155.5878 11446173
43.313484 -30.611559 155.69859 10327691
42.367359 -30.497181 155.77881 10196104
41.44849 -30.34123 155.72774 10196106
76.702988 -29.107206 146.51399 10128513
76.168839 -29.105522 146.78134 10128513
75.143822 -29.247395 147.13786 9734270
74.231857 -29.392136 147.44978 10261129
73.349213 -29.46476 147.81754 9866373
72.464775 -29.537329 148.17966 8879992
71.495285 -29.647436 148.54692 9735044
70.544952 -29.835096 148.85898 10327181
70.01049 -29.836727 149.12079 9734531
42.099651 -29.747494 156.28378 9012347
41.421654 -29.574749 156.26129 8814969
40.537926 -29.481516 155.95412 12104102
112.8501 -28.255831 137.38623 9734531
112.12133 -28.300262 137.73369 9537409
111.14767 -28.263931 138.22786 9011065
110.17606 -28.228533 138.72067 8813936
109.44897 -28.273951 139.06065 9274486
108.27307 -28.590277 138.93629 7104093
107.18582 -28.688263 139.37738 9143166
106.51297 -28.687592 139.8913 7038307
101.36596 -28.692301 140.34914 9866883
100.51839 -28.691572 140.95531 10920086
99.667419 -28.690861 141.55681 9012091
94.264786 -28.695688 142.07703 9538950
93.578674 -28.695211 142.52802 9012863
92.718391 -28.69463 143.08768 8814456
92.027603 -28.694178 143.53163 8089963
86.361031 -28.699314 144.05194 7564648
85.839584 -28.699041 144.36215 7564649
84.968124 -28.698606 144.87492 7564651
84.093948 -28.698189 145.38271 8354163
83.56781 -28.697947 145.68497 9209467
79.951462 -28.842731 145.81424 8682867
79.058449 -28.837654 146.26752 9932937
78.164589 -28.833385 146.71881 9932937
77.270142 -28.829739 147.16815 10721680
76.733093 -28.827852 147.43683 13023917
39.376099 -28.863953 156.64323 12367272
38.326427 -28.786585 156.44547 9735812
28.574722 -28.424147 159.56287 9735558
27.799204 -28.28508 159.28104 10393229
27.177319 -28.033188 159.11049 10064265
114.48347 -27.306988 136.89311 9341054
113.81265 -27.428215 137.20561 8946040
113.09599 -27.476604 137.57262 9011833
112.12497 -27.441984 138.07652 9143166
111.14952 -27.406769 138.57101 8814203
110.32207 -27.591892 138.90416 9077115
27.855373 -27.517515 159.60806 8484977
27.081841 -27.381557 159.32588 10524815
115.81826 -26.164068 136.64012 9406847
114.87737 -26.45726 137.02809 9341054
114.0429 -26.368906 137.51466 8419952
113.10197 -26.616077 137.91721 9012089
112.17682 -26.655731 138.36674 8353909
111.49235 -26.774979 138.65588 7564651
27.68446 -26.92123 159.76889 7563619
26.86311 -26.460482 159.59406 7826791
116.79849 -25.394846 136.42578 8946039
115.90092 -25.409197 136.90439 9143675
115.13097 -25.384888 137.32991 8748660
114.23717 -25.400604 137.80598 8617331
113.05946 -25.968628 138.20406 8880503
26.718227 -25.480534 159.91743 7564131
25.971138 -25.513611 159.58015 7760998
118.87535 -24.128521 135.82275 9734787
117.77982 -24.557747 136.23849 9077369
116.87878 -24.572453 136.71884 8880503
116.10594 -24.548347 137.1459 9341054
115.21275 -24.629515 137.59485 8814453
26.546055 -24.884678 160.07767 7564643
25.775675 -24.482103 159.90187 8090475
119.74551 -23.246302 135.714 9997960
118.77408 -23.470486 136.14664 10129802
117.91387 -23.516325 136.59222 9932678
117.15568 -23.580307 136.97528 9077369
116.35872 -23.75948 137.33221 9340542
25.636478 -23.647343 160.1703 8419696
24.940538 -23.482632 159.93317 7432546
121.55363 -22.317055 135.11815 9735812
120.80405 -22.469019 135.4606 9143421
119.84291 -22.526779 135.95583 8419956
118.95509 -22.455851 136.46405 9472385
118.2229 -22.506868 136.83846 10327692
24.929461 -22.558838 160.29213 7696235
24.153742 -22.565918 159.95277 7037790
123.45999 -21.054379 134.60727 7038307
122.70415 -21.207579 134.95213 8814713
121.70801 -21.496519 135.37097 9472641
120.80525 -21.502056 135.85567 8814713
119.9493 -21.608501 136.27405 8814713
119.11359 -21.803423 136.64545 9077627
24.62298 -21.824467 160.44843 7564651
23.849428 -21.526884 160.22993 9143166
124.47578 -20.199749 134.4095 8090736
123.71638 -20.353996 134.75587 7038307
122.74351 -20.413372 135.25621 7038307
121.84551 -20.342764 135.76938 7433064
120.90141 -20.683119 136.13908 9406848
120.30554 -20.959524 136.34727 9735812
23.786972 -20.535261 160.59335 9471874
23.013765 -20.548395 160.2527 8616822
125.59292 -19.492601 134.09673 10261132
124.64354 -19.538506 134.5899 8419701
123.64897 -19.509474 135.13815 7038307
122.85542 -19.486811 135.57542 7893614
122.20664 -19.689938 135.84213 8814713
23.467697 -19.995489 160.66742 9734788
22.951307 -19.573051 160.60973 8945530
22.245134 -19.334429 160.39728 9142909
127.64436 -18.063963 133.57565 11446174
126.55736 -18.352282 134.04373 9866887
125.59273 -18.516153 134.49689 9932423
124.72389 -18.428013 135.00153 8879991
123.91871 -18.702576 135.32326 7038304
123.21898 -18.831503 135.64781 7038307
22.84425 -18.657587 160.92383 8945786
22.080292 -18.546843 160.63589 6774877
128.45215 -17.301218 133.45245 10722962
127.52344 -17.432615 133.89952 10854548
126.6089 -17.362646 134.42136 9472639
125.8537 -17.416945 134.80641 9341053
125.14807 -17.547308 135.13347 8287853
22.741835 -18.000696 161.13806 9734788
21.870798 -17.609274 160.91429 8486005
21.101522 -17.32287 160.69325 7565675
130.33919 -16.338882 132.82903 13551549
129.39743 -16.493881 133.27339 11643808
128.45303 -16.513651 133.77458 9012088
127.64426 -16.492285 134.21953 10130313
126.88551 -16.547474 134.60616 9735811
21.696894 -16.639416 161.22076 8091761
20.934891 -16.534115 160.93159 9143934
20.321196 -16.307308 160.75462 9143934
131.9429 -15.022642 132.53462 8090987
131.30682 -15.236711 132.85167 10261899
130.49696 -15.507066 133.17229 11051415
129.62198 -15.509939 133.63271 11117720
128.70792 -15.620352 134.0394 8682867
127.81731 -15.821568 134.40099 10130825
21.592854 -15.981294 161.43481 7565675
20.946039 -15.639042 161.33081 9143934
20.104633 -15.39541 161.13013 8880252
133.18633 -14.300752 132.28894 9735810
132.50546 -14.367564 132.77971 8683123
131.66124 -14.578205 133.21022 8617331
131.09315 -14.568222 133.59682 9209467
19.765503 -14.621919 161.5898 8814203
19.087303 -14.465985 161.42154 9208960
18.411026 -14.310817 161.2534 7564651
146.84268 -13.25986 128.8625 10984598
145.9814 -13.251125 129.67 9012350
144.9778 -13.672403 129.40337 8813429
144.35208 -13.671162 130.09898 9406079
136.09384 -13.791016 131.53996 10262414
135.4039 -13.784587 132.13976 7893615
18.110046 -13.972631 162.08948 9275261
17.087919 -13.938006 161.7666 12432037
8.0159521 -13.731783 164.8389 9538689
7.3540106 -13.596272 164.87982 9538689
6.4940672 -13.462993 164.60109 8881272
147.61523 -12.316003 128.59898 9669507
146.95166 -12.595087 129.08275 10327181
146.34331 -12.541585 129.67595 9012350
6.3756018 -12.552575 164.90797 8486517
5.4880972 -12.208775 164.65826 9407363
148.39085 -11.368947 128.3342 9142907
147.80731 -11.60218 128.76547 9406079
147.15189 -11.675571 129.34117 8420469
6.235446 -11.699182 165.18301 8092019
5.551322 -11.438911 164.98868 8486519
4.8274717 -11.258463 164.74565 8092019
148.75771 -10.654406 128.33798 8353135
148.06398 -10.648099 128.98802 8616307
147.48003 -10.882334 129.41914 9142907
5.399909 -10.553783 165.27129 8092019
4.5685377 -10.318417 165.00328 7367528
149.72638 -9.3424425 128.0759 10063750
149.00797 -9.4565964 128.68658 9208442
148.4306 -9.9322309 128.99271 8089963
5.2481222 -9.6663761 165.55469 8814709
4.4425802 -9.4462776 165.29182 7038307
3.6392167 -9.2272406 165.02956 7038307
150.35506 -8.0218897 128.14299 9208184
149.85477 -8.3076382 128.46603 11971488
149.17195 -8.4953241 129.00644 7564651
4.3146696 -8.7058725 165.52776 7367013
3.725898 -8.4250765 165.38284 7235428
150.55588 -7.2976208 128.31332 9208184
150.2049 -7.2951055 128.63966 10524043
3.5360024 -7.6150718 165.61923 8287856
2.7465355 -7.5001755 165.32201 9735298
150.75699 -6.5718508 128.48398 9208184
3.2546113 -6.5992761 165.89696 9209467
2.5304787 -6.5478835 165.603 8880246
2.4539673 -5.6899428 165.90744 8748917
1.6518548 -5.2600451 165.72867 9209211
2.4578316 -4.7604804 166.27493 8617075
1.6536973 -4.5487704 166.00941 9209468
0.8515656 -4.3380575 165.74432 9735812
1.4143097 -3.6087725 166.27612 8814710
0.58493352 -3.3855469 166.00424 7762021
1.2547867 -2.7075648 166.56241 7893608
0.65183187 -2.4999275 166.38261 8551538
-0.083306096 -2.4288604 166.09164 8354677
0.45067903 -1.6784894 166.61938 8420211
-0.3020027 -1.4203796 166.39452 10196622
-1.153302 -1.0605922 166.16698 10985881
-0.4545944 -0.54595047 166.71388 10525330
-1.290345 -0.37521201 166.48636 9670279
-1.4296272 0.31358856 166.99022 11248027
-2.2845275 0.42128587 166.70848 10195340
-3.3847473 1.0034852 167.37596 9932169
-3.9838684 1.0004845 167.11082 9931651
-14.145185 1.6537826 170.19925 8814710
-14.943376 1.6494384 169.87723 9998985
-14.772008 2.5002909 170.26561 9143675
-15.570634 2.4948633 169.94948 9735046
-15.06574 3.2800314 170.45316 9669508
-15.922029 3.3868363 170.15802 9472131
-15.224053 3.9917569 170.66759 9735046
-15.923043 4.3527308 170.53302 8945788
-16.646809 4.620779 170.35263 8617080
-16.071331 5.2715354 170.83186 7564651
-16.879288 5.4774861 170.59421 8353393
-17.686188 5.6829062 170.35681 9142907
-16.908455 6.2317853 170.87593 9011322
-17.716915 6.4372311 170.64252 10787988
-16.937828 6.9887547 171.15854 10787988
-17.803913 7.3559799 170.96394 11380125
-18.729267 7.4878492 170.75072 11050901
-18.063934 8.4206667 171.27237 9208443
-18.811138 8.4861612 171.10197 9340027
-19.560478 8.5530262 170.95706 8484720
-18.847206 9.3585138 171.41696 10590091
-19.866436 9.3502951 171.18306 9340027
-19.078602 10.013334 171.60707 9340027
-19.746983 10.358949 171.58376 9471614
-20.681911 10.493753 171.42192 8879994
-21.565426 10.870112 171.35237 10261132
-19.952431 11.325234 171.89522 10853012
-20.77887 11.537835 171.77646 9011580
-21.728859 11.598989 171.52876 9866631
-20.813499 12.418971 172.05017 10129289
-21.625221 12.407255 171.80811 7958894
-22.444706 12.615982 171.63162 8090992
-21.799641 13.362947 172.06419 9340544
-22.684383 13.496966 171.84203 9077885
-23.309669 13.9294 171.78201 10262156
-22.989784 14.422521 172.53886 9932681
-23.733414 14.591901 172.40021 9208958
-24.667072 14.862314 172.40347 8748149
-23.867714 15.318692 172.74835 9210491
-24.622478 15.494993 172.6783 9011577
-25.541698 15.647901 172.567 7432801
-30.570175 16.438486 174.4463 6116941
-31.426643 16.666603 174.38065 7104092
-32.491547 16.672352 174.26404 7038307
-33.15044 16.907349 174.29471 7038307
-31.339878 17.508196 174.6951 7564642
-32.339478 17.590033 174.60773 7104091
-33.413193 17.599966 174.52315 8551281
-34.074585 17.836908 174.55431 11707804
-32.253422 18.435335 174.91991 8090987
-33.262516 18.522297 174.86839 7696229
-34.339493 18.533476 174.78403 12102562
-35.003422 18.772467 174.81569 11707804
-33.31076 19.218361 175.11568 8617331
-34.293079 19.51593 175.20905 9735812
-35.277672 19.477079 175.08226 10063236
-36.074772 19.563177 175.03708 11576729
-35.376766 20.205366 175.56749 10260358
-36.276283 20.459177 175.65053 9142391
-37.139133 20.466785 175.54959 8090730
-38.043159 20.721991 175.63322 8420208
-37.25779 21.210043 176.10411 8748660
-38.235371 21.392244 176.17223 8683123
-39.042267 21.482258 176.12939 10919828
-40.163177 21.739302 176.15073 9734788
-40.351917 22.299047 176.97348 9734788
-40.999153 22.301968 176.85835 9734788
-42.124969 22.447208 176.86031 9800582
-42.914783 22.869757 177.3248 9340289
-43.783646 22.87566 177.17302 8223092
-44.195389 23.440929 177.91348 8092019
-44.850704 23.446194 177.80008 9736329
-45.725185 23.453697 177.64958 9472386
56.539661 -37.038589 152.67606 8814971
56.174881 -37.040707 152.82005 8814971
57.70311 -36.231632 152.42784 9932934
56.968361 -36.443375 152.70438 9143934
56.052364 -36.44648 153.05638 8092019
55.14518 -36.291191 153.14307 8683641
59.807198 -35.017929 151.88033 8681843
58.832561 -35.315575 152.24028 9472639
57.980892 -35.444599 152.60757 9801348
57.091927 -35.463982 153.03725 8617847
56.183434 -35.472996 153.41626 8289141
55.210205 -35.465904 153.46997 9143676
54.115417 -35.544655 153.46484 10327949
53.325905 -35.302124 153.58034 11512223
60.78569 -34.316624 151.68071 8222581
59.986191 -34.467281 152.01358 9011323
58.996178 -34.446484 152.50908 9735556
58.106514 -34.464157 152.93982 9341056
57.28207 -34.52076 153.32275 8091246
56.287914 -34.692566 153.70296 8814971
55.147228 -34.566387 153.82951 9209468
54.249287 -34.577618 153.84653 10327949
53.227238 -34.517334 153.89503 12761776
52.2593 -34.383522 153.97144 9340539
51.497082 -34.158924 154.07912 7564643
63.444637 -33.005363 150.89857 10129289
62.8349 -33.143913 151.14328 9866117
61.932625 -33.368851 151.49719 9405825
60.904045 -33.433678 151.97733 8814203
60.014526 -33.448563 152.40912 10129803
59.16214 -33.513012 152.80266 9933194
58.258301 -33.742886 153.15504 9538181
54.35656 -33.802494 154.1525 9209467
53.358589 -33.549736 154.27693 9603969
52.336952 -33.49226 154.32433 8419695
51.250175 -33.515739 154.34099 7762537
50.303974 -33.381371 154.41716 8092019
49.518677 -33.145824 154.52972 9143679
64.620407 -32.207222 150.63995 11905701
63.81662 -32.373325 150.96909 10458254
62.815727 -32.425159 151.44116 9866117
61.926231 -32.437458 151.87425 9800581
61.03574 -32.450954 152.30728 10261132
60.118378 -32.662304 152.67403 9340545
53.027714 -32.945232 154.52548 9340539
52.363281 -32.77861 154.60776 11774108
51.387798 -32.514904 154.73605 9143419
50.427456 -32.415794 154.79852 10129546
49.389042 -32.556866 154.7672 9603716
48.289154 -32.404457 154.85423 9471871
66.567001 -31.010197 150.16187 7564643
65.764297 -31.297956 150.44162 7498601
64.783287 -31.370636 150.89551 10063755
63.910351 -31.485518 151.27924 9472131
62.951324 -31.441114 151.76933 9142909
62.033161 -31.650188 152.13759 9800581
61.471603 -31.854893 152.33192 10261132
50.23344 -31.529575 155.15584 9537923
49.387001 -31.640318 155.13206 9537922
48.294327 -31.531336 155.20163 9603457
47.284576 -31.483057 155.24503 9866630
46.385422 -31.208748 155.37573 9011833
45.518822 -31.014603 155.4738 8617075
67.653793 -30.316647 149.92577 8419952
66.657303 -30.420925 150.3661 8156525
65.766235 -30.428146 150.80049 9208703
64.874527 -30.43643 151.23453 8945532
64.0317 -30.510468 151.61586 7564651
63.417038 -30.648163 151.85825 8617080
49.200176 -30.796709 155.47232 8682867
48.326462 -30.599588 155.57172 9077369
47.399921 -30.517822 155.62645 9471871
46.391403 -30.472673 155.6712 8419696
45.387096 -30.429605 155.72058 9735043
44.499237 -30.297506 155.81244 11709346
43.614204 -30.167191 155.90828 9209467
72.241852 -29.10075 148.72238 10722195
71.526062 -29.101347 149.07133 10261388
70.557304 -29.283318 149.3508 9668738
69.60025 -29.470057 149.65103 9734531
68.706062 -29.47364 150.08507 9406335
67.7481 -29.66153 150.37778 8419952
66.854424 -29.667402 150.81235 8617076
65.905891 -29.860497 151.12175 9932169
65.369453 -29.865032 151.38202 8485238
47.305214 -29.952347 155.99155 9208955
46.500042 -29.919025 156.03804 8617075
45.53759 -29.697506 156.24013 9143163
44.53495 -29.658068 156.29643 10393741
43.583954 -29.445044 156.53044 9209467
42.651608 -29.369377 156.64421 8880761
41.724598 -29.146954 156.90012 8025968
109.25482 -27.982439 139.2733 13023917
108.19177 -28.372692 139.64038 9143166
107.41977 -28.346638 140.0311 9669253
106.49116 -28.443304 140.32957 7038307
105.5929 -28.488575 140.78114 8814459
104.72752 -28.542923 141.27361 10327182
104.06097 -28.664528 141.55821 9537403
98.812569 -28.690168 142.15282 10590612
97.78212 -28.689362 142.8614 9604230
97.09259 -28.688837 143.32994 10262156
91.508194 -28.693846 143.86244 8089963
90.987419 -28.693521 144.19115 7826791
90.116974 -28.692997 144.73488 9340542
89.243385 -28.692486 145.27368 10854036
83.040512 -28.697708 145.98495 9932932
82.335953 -28.697405 146.3822 9209467
81.452362 -28.697044 146.87387 10063753
80.388443 -28.696632 147.45697 9208955
76.195747 -28.826271 147.70474 13023917
75.478806 -28.824497 148.06093 10721164
74.581963 -28.823004 148.50432 9603199
73.684181 -28.822084 148.94606 9537406
72.785393 -28.821934 149.38573 9341571
40.642372 -28.958139 156.87903 9603971
32.079941 -28.717924 159.83318 8682867
31.116474 -28.71851 160.02258 8814456
30.05772 -28.537046 160.12895 8288371
29.154781 -28.350971 159.84343 8748922
110.41966 -27.166878 139.02678 9077115
109.39954 -27.346085 139.45724 11445144
108.45181 -27.588982 139.82663 10195592
107.53968 -27.437223 140.3369 9274492
106.61709 -27.590563 140.72984 8354161
105.58781 -27.862513 141.12781 9341315
29.767616 -27.891623 160.29053 9735812
28.987968 -27.477516 160.11537 9274749
111.98209 -26.36212 138.58052 7564651
111.29784 -26.481798 138.86946 7564651
110.37141 -26.521984 139.30949 9340286
109.3984 -26.489775 139.80154 10260871
108.62154 -26.464743 140.19415 9603455
107.89481 -26.513157 140.5327 9011576
28.74469 -26.551054 160.37502 10063492
27.974014 -26.482065 160.06772 7037274
113.83678 -25.12932 138.13309 8419952
113.2095 -25.326231 138.38701 8419952
112.30711 -25.450226 138.78671 9143167
111.3363 -25.533327 139.2314 8353909
110.42035 -25.449759 139.71602 8155755
109.64061 -25.711374 139.99493 8747891
108.95969 -25.833023 140.28142 9340027
28.625013 -25.839565 160.60352 9208184
28.047745 -25.477684 160.49559 8747634
27.355774 -25.535067 160.17268 7037274
114.99982 -24.298077 137.84534 9011832
114.17953 -24.490602 138.2094 9341054
113.40983 -24.468235 138.63144 8288110
112.42983 -24.436911 139.13324 8879993
111.49722 -24.479095 139.57552 10524561
27.838558 -24.797884 160.67273 8089961
27.055094 -24.489744 160.45406 8090730
116.85337 -23.048599 137.356 9537665
115.95773 -23.370647 137.70773 8419443
115.20303 -23.435884 138.08839 7104098
114.43155 -23.414129 138.51375 7038042
113.41484 -23.602352 138.97791 9142907
112.57938 -23.793024 139.31821 8616563
26.978271 -23.597643 160.77205 8748917
26.214249 -23.498625 160.47954 8419952
117.83828 -22.204224 137.16985 9406334
117.11476 -22.445551 137.46169 9537664
116.23244 -22.376968 137.96596 8813945
115.35176 -22.309256 138.46907 7630185
114.40706 -22.68976 138.82332 7893352
26.83106 -22.831766 161.00983 9012089
26.067425 -22.513887 160.80368 7959401
25.443394 -22.272951 160.62779 7564651
119.02394 -21.362293 136.87434 7235167
118.10163 -21.59911 137.2753 8813941
117.21597 -21.530722 137.7813 9537665
116.43829 -21.509663 138.20975 8813945
115.80458 -21.711063 138.46938 8813945
26.057377 -21.602413 161.15829 8748662
25.157866 -21.434404 160.83412 9011580
120.91404 -20.09564 136.37299 9077884
119.97237 -20.436546 136.74123 8485749
119.10841 -20.548828 137.16151 6576724
118.25703 -20.463074 137.65614 6708309
117.42389 -20.660532 138.02512 6774618
116.78749 -20.862934 138.2859 7893358
25.95866 -20.943277 161.37505 9340545
25.077219 -20.540728 161.15111 12760746
24.298428 -20.244677 160.92981 11182231
121.89307 -19.3493 136.15079 8814713
120.98622 -19.479391 136.5865 8814967
120.09087 -19.411295 137.09729 8420210
119.30453 -19.390789 137.52972 8091758
118.66297 -19.594542 137.79242 7039331
24.908445 -19.567657 161.46112 10261128
24.135576 -19.453156 161.17087 10787473
23.514347 -19.218906 160.99352 9734788
123.72729 -18.400887 135.55013 8287853
122.90458 -18.489841 135.95731 8092019
121.99376 -18.621016 136.39476 9538694
121.09471 -18.553263 136.90738 8617843
120.3531 -18.608072 137.28488 8815222
24.148581 -18.553503 161.53078 9340287
23.397163 -18.351898 161.28413 9142909
125.66167 -17.113588 135.03421 9209467
124.83234 -17.203842 135.4445 7958888
123.88579 -17.569901 135.80504 7893609
122.95357 -17.49033 136.34035 9538694
122.1766 -17.559908 136.73088 9538694
121.35922 -17.747066 137.09497 8815222
24.031809 -17.68305 161.82292 7564392
23.197643 -17.439377 161.55695 9932167
22.366533 -17.197298 161.29161 8616822
126.69298 -16.243149 134.83464 9209467
125.83162 -16.445875 135.21611 9538176
124.82851 -16.420958 135.76732 8287853
124.02811 -16.401495 136.20691 8287853
123.27753 -16.457994 136.5885 11445663
22.996792 -16.525116 161.8299 10195083
22.305874 -16.410088 161.57533 9340800
129.63339 -14.977294 134.03137 10130825
127.78143 -15.374531 134.68707 9341053
126.79531 -15.618313 135.0731 10130569
125.88797 -15.552311 135.6031 10327692
125.12311 -15.60831 135.97752 10853012
124.39555 -15.738833 136.28015 9537664
22.877901 -15.652846 162.12183 11511452
22.144926 -15.619506 161.85568 11511452
21.503815 -15.332563 161.76416 13550517
132.1441 -14.146316 133.37746 10591118
131.61339 -14.140623 133.80469 9011576
130.65781 -14.339751 134.11824 10590865
129.73128 -14.451491 134.52066 9735555
128.74161 -14.734976 134.72191 9143418
127.93407 -14.716588 135.17354 9670018
127.01112 -14.916543 135.4989 10262155
126.40853 -14.903042 135.83577 10262155
21.21443 -14.660407 162.18497 11116695
20.292145 -14.400814 162.12045 8617333
19.755533 -14.029117 162.60481 9209467
145.29295 -13.24445 130.31519 8287856
144.36356 -13.382165 130.84621 9932167
143.40723 -13.669323 131.13683 8813681
142.93219 -13.668413 131.65331 11379348
134.54129 -13.776955 132.88826 7564389
133.67862 -13.769727 133.63507 9340030
19.136967 -14.007834 162.41267 8617079
13.374434 -13.726502 164.49568 9538438
12.581309 -13.727254 164.55751 7564651
11.589484 -13.728207 164.62923 7696234
10.597312 -13.729178 164.69536 8090730
9.6047621 -13.730165 164.75511 9273977
8.6311789 -13.555248 165.18939 8287851
7.8345747 -13.350493 165.22681 9538689
145.99846 -12.538321 129.99911 9932681
145.30922 -12.532062 130.64491 8748664
144.55785 -12.763103 131.23378 10261132
8.4576445 -12.771354 165.72504 8287850
7.6450415 -12.543869 165.46207 8025448
6.837863 -12.117806 165.27954 8092011
147.00626 -11.356085 129.63162 8092019
146.25151 -11.587922 130.22324 9012350
145.56085 -11.58206 130.87019 9800581
7.4579573 -11.535168 165.77785 6906712
6.7125273 -11.446222 165.48953 7565160
147.60806 -10.404766 129.53093 9142907
147.02448 -10.639102 129.96178 8749435
146.36871 -10.713392 130.53737 9275265
7.2637205 -10.926254 165.93326 8814709
6.7459745 -10.509242 165.87273 7827814
5.9487257 -10.387578 165.5748 7433315
148.69049 -8.9731884 129.21747 8814715
148.03851 -9.4486036 129.59256 9735558
147.3439 -9.4431877 130.24283 9735814
146.69582 -9.9181499 130.61716 9143419
6.4692602 -9.4940577 166.15225 6511954
5.7376432 -9.4364061 165.85754 7893351
149.02711 -8.1725941 129.2993 9801351
148.36427 -8.2481251 129.8764 8156787
147.77473 -8.48487 130.30612 8814715
5.6168432 -8.5146303 166.16788 9537664
4.756011 -8.3452549 165.86108 8813686
