# .PCD v0.7 - Point Cloud Data file format
VERSION 0.7
FIELDS x y z rgb
SIZE 4 4 4 4
TYPE F F F U
COUNT 1 1 1 1
WIDTH 1181
HEIGHT 1
VIEWPOINT 0 0 0 1 0 0 0
POINTS 1181
DATA ascii
-34.566727 -48.541435 -142.56274 9274237
-33.643456 -48.441715 -142.48041 9866374
-32.722836 -48.342171 -142.39262 9735044
-31.804483 -48.242912 -142.2999 9537665
-29.700041 -48.019173 -143.31178 6511954
-28.598841 -47.900028 -143.17329 10458766
-27.50148 -47.781326 -143.02757 8946296
-26.589794 -47.682671 -142.90071 8880503
-24.820555 -47.49498 -143.88109 9735044
-23.727207 -47.376598 -143.70447 9997954
-22.637959 -47.258614 -143.52087 10590089
-21.913956 -47.180183 -143.39479 10261123
-20.479166 -47.028542 -144.37737 9340798
-19.573799 -46.930458 -144.20222 9932423
-18.671215 -46.832573 -144.02267 10129286
-17.951447 -46.754574 -143.8756 9405560
-16.490299 -46.599968 -144.81282 7564643
-15.770361 -46.521835 -144.65227 7959144
-14.693983 -46.405083 -144.40636 10326408
-13.978759 -46.32748 -144.23897 10853012
-12.672066 -46.18948 -145.17482 9077630
-11.599639 -46.07309 -144.90381 9274750
-10.709426 -45.976406 -144.67325 9208443
-9.5583706 -45.855232 -145.62674 16777207
-8.8461266 -45.777927 -145.43001 9736836
-7.7815485 -45.662239 -145.13002 9933704
-5.7225294 -45.442371 -145.79451 11181461
-4.6632528 -45.327198 -145.47009 13354171
-2.939806 -45.143677 -146.20338 12433325
-1.8846618 -45.028873 -145.85677 7696235
-1.1839067 -44.95266 -145.62268 8090992
0.20707312 -44.805176 -146.43521 10787215
1.2558249 -44.691017 -146.06467 12103074
3.0138264 -44.503536 -146.72691 7037274
4.0574951 -44.389862 -146.33459 7958376
5.3104763 -44.255108 -147.16153 8089962
6.1759109 -44.144314 -146.76517 7169372
6.8664646 -44.063396 -146.47031 6511954
7.9633522 -43.94278 -147.33626 6511954
8.9982395 -43.828278 -146.89929 6511954
10.284492 -43.686676 -147.6792 9603458
11.1441 -43.591564 -147.29987 11643807
12.96109 -43.391258 -147.8297 10853520
13.816008 -43.296604 -147.43413 9471608
15.305712 -43.13258 -148.09702 8616303
15.987007 -43.057129 -147.76848 9669507
17.321892 -42.910156 -148.49884 11380380
18.001215 -42.834915 -148.15919 11511194
18.678379 -42.760017 -147.81776 9735558
20.029039 -42.611275 -148.52647 9077626
20.872772 -42.517822 -148.0856 6511954
22.070585 -42.386086 -148.87062 10195594
22.913113 -42.295929 -148.42639 8089963
24.318249 -42.184345 -149.25211 11709089
24.994724 -42.120018 -148.91187 9537408
25.668968 -42.055916 -148.56967 7037274
27.0945 -41.942177 -149.37497 7564651
27.767376 -41.878044 -149.02069 9341057
29.212156 -41.762424 -149.81514 10262156
29.875313 -41.68692 -149.40796 9341059
31.972832 -41.459148 -149.64569 9209471
33.919884 -41.249577 -149.97057 9011831
36.043236 -41.018059 -150.16046 7432288
38.016788 -40.804802 -150.4426 8880507
38.661865 -40.724762 -149.96983 9537409
40.003822 -40.589668 -150.7048 8485745
40.645966 -40.509815 -150.22084 9341054
42.004253 -40.372719 -150.94678 8288110
42.643364 -40.292919 -150.45168 9340286
44.017975 -40.153927 -151.16846 8156524
44.653847 -40.07428 -150.66216 9208443
46.044968 -39.933289 -151.36978 9208443
46.677532 -39.853794 -150.85243 10985366
48.085159 -39.710804 -151.55057 9012606
49.824844 -39.526058 -151.98027 9011320
50.138779 -39.486469 -151.71089 8089963
50.451843 -39.44688 -151.4413 8089963
52.049225 -39.280056 -151.9879 9669507
52.516403 -39.220867 -151.57523 10788244
54.03553 -39.115864 -152.42198 9208443
54.502487 -39.057873 -152.00531 12433581
56.231049 -38.953911 -152.79402 10591124
56.695328 -38.895599 -152.36694 10591124
58.908661 -38.730778 -152.70775 7565675
59.368134 -38.672363 -152.26947 8814971
61.142357 -38.563255 -153.02765 10064265
61.598907 -38.504574 -152.57889 12038823
63.245247 -38.412678 -153.47934 8813683
63.699066 -38.353741 -153.02013 9405819
65.821571 -38.200359 -153.44698 10590603
67.967018 -38.04443 -153.85924 8551283
68.41362 -37.985069 -153.37878 8485747
70.135246 -37.885948 -154.25682 8485747
70.578682 -37.826328 -153.76579 8485747
72.766663 -37.665001 -154.13777 9998985
74.978241 -37.501038 -154.49466 12432551
77.3573 -37.314358 -154.66187 8880246
78.742821 -37.085667 -155.10771 8683123
79.660217 -36.830688 -155.07349 10985619
80.682663 -36.761219 -154.77986 9208187
79.864166 -36.366013 -155.47417 11709340
80.694962 -36.083981 -155.25966 8222317
81.586746 -35.84396 -155.00772 8090216
82.355469 -35.583023 -154.81819 8813680
80.867912 -35.137566 -155.59637 7565675
81.68222 -34.942608 -155.34303 8551540
82.604095 -34.889774 -154.99017 8813680
81.823166 -34.107037 -155.61459 8157555
82.640244 -33.911831 -155.3602 9669249
83.538506 -33.823601 -155.03082 9340538
82.818619 -32.864662 -155.69986 9670021
83.602768 -32.878872 -155.37642 10130056
84.42392 -32.683834 -155.12027 10458505
83.661362 -32.079765 -155.66699 9867141
84.6194 -32.013081 -155.30487 8814197
83.855652 -31.408411 -155.85229 9143678
84.706039 -31.12566 -155.6445 9537666
85.630608 -30.889294 -155.42029 9932167
85.712921 -30.087269 -156.01393 10261132
86.26387 -30.02998 -155.8372 10261132
-116.8896 -56.578121 -133.96365 8288880
-116.09222 -56.503216 -134.3495 8288880
-115.29427 -56.428505 -134.7312 9340030
-114.69542 -56.372471 -135.01491 9734788
-112.30847 -56.232368 -134.49739 9340027
-111.31867 -56.140564 -134.95349 8287853
-110.328 -56.048946 -135.40356 8879475
-108.0012 -55.914089 -134.86436 8814710
-107.21012 -55.839272 -135.20432 9735812
-106.2187 -55.744972 -135.62169 8617330
-105.6236 -55.688587 -135.86896 7564384
-105.22682 -55.650997 -136.03253 5920074
-102.36385 -55.460152 -135.68547 5919050
-101.38039 -55.367817 -136.07617 7169116
-100.39651 -55.275803 -136.46034 6971738
-99.609291 -55.202358 -136.76372 7563618
-97.21199 -55.055893 -136.21989 5920074
-96.236618 -54.965645 -136.58247 6182734
-95.456161 -54.893669 -136.86789 6510930
-94.480309 -54.803982 -137.21904 6840154
-92.150009 -54.664021 -136.64359 13550517
-91.376358 -54.593487 -136.91167 13748158
-90.400536 -54.500351 -137.22893 16775151
-89.378822 -54.379921 -137.46994 8090218
-88.355042 -54.258034 -137.70035 7301470
-87.536934 -54.160812 -137.88002 7301470
-86.515427 -54.039715 -138.09875 8485237
-85.69899 -53.943058 -138.26971 8813945
-81.116989 -53.462833 -137.82616 7037274
-80.313789 -53.368587 -137.97496 7827304
-79.511536 -53.274689 -138.12 9406335
-78.509956 -53.157642 -138.29567 9011834
-77.509766 -53.040951 -138.4657 9866371
-76.514053 -52.926838 -138.63486 8089963
-75.527184 -52.818188 -138.81198 8354161
-74.542328 -52.710468 -138.98425 8814709
-73.55851 -52.603088 -139.15094 9406590
-72.576103 -52.496128 -139.31145 10327692
-71.594872 -52.389454 -139.46651 8090729
-70.615005 -52.283176 -139.61543 7038298
-69.440903 -52.156116 -139.78677 9077367
-68.463966 -52.050648 -139.92345 9537918
-67.488518 -51.945599 -140.05409 11182485
-66.514404 -51.8409 -140.17946 10590606
-65.54184 -51.736595 -140.29878 8090987
-64.764717 -51.653408 -140.39067 8090987
-64.37661 -51.611862 -140.43515 8090987
-63.601135 -51.529072 -140.52109 8090987
-62.633018 -51.425892 -140.62405 7565675
-61.666595 -51.323151 -140.72119 8881021
-60.508915 -51.200317 -140.83078 7565675
-59.54594 -51.098358 -140.91628 11906977
-58.584682 -50.996796 -140.996 10525069
-57.625046 -50.895657 -141.07068 7761253
-56.667198 -50.794884 -141.13971 8485232
-55.519974 -50.674484 -141.21565 9734788
-54.565845 -50.574589 -141.27327 8616307
-53.613621 -50.475143 -141.32533 9932167
-52.663086 -50.375984 -141.3725 10458510
-51.714455 -50.277309 -141.41415 8814965
-50.578491 -50.159424 -141.45746 10590091
-49.637909 -50.065594 -141.49942 9997699
-48.705208 -49.978233 -141.5531 9339772
-47.587734 -49.873753 -141.61067 8681843
-46.472271 -49.769493 -141.65999 9603969
-45.728806 -49.699188 -141.68622 10130057
-42.760738 -49.394348 -142.95578 11511705
-41.643677 -49.288525 -142.96033 11709084
-40.714645 -49.200653 -142.95854 10984849
-39.78046 -49.104469 -142.92622 8945526
-38.657135 -48.983204 -142.86255 7958890
-37.723427 -48.882416 -142.80368 7630180
-36.79224 -48.781857 -142.73911 7367007
-34.701538 -48.559868 -143.84349 9143166
-33.769794 -48.45916 -143.75635 8814201
-32.654987 -48.338646 -143.64507 9537665
-31.728651 -48.23851 -143.54678 9537665
-30.805061 -48.138676 -143.44296 7563874
-28.678907 -47.912571 -144.44325 8288368
-27.755922 -47.812664 -144.31729 8814457
-26.651855 -47.693165 -144.15971 9734788
-25.91781 -47.613754 -144.05087 9537665
-25.55159 -47.574097 -143.99518 10261132
-23.763395 -47.384315 -144.96738 9208435
-22.847433 -47.285122 -144.80963 12432037
-21.751907 -47.166489 -144.61409 12037794
-21.023815 -47.087547 -144.48009 9340798
-19.573019 -46.934174 -145.46069 7696232
-18.844452 -46.855209 -145.31319 10261132
-17.936659 -46.756802 -145.12421 9208182
-17.031719 -46.658649 -144.93098 8747887
-15.735924 -46.521969 -145.90742 8813939
-14.831005 -46.423771 -145.69731 8616563
-13.749209 -46.306396 -145.4393 9537667
-11.888841 -46.108303 -146.24582 9538950
-10.989937 -46.01075 -146.01106 10854552
-10.094181 -45.913437 -145.77216 16776179
-8.7511148 -45.771461 -146.68042 10065287
-7.8562384 -45.674225 -146.42493 10261385
-7.1425352 -45.596699 -146.21767 11378583
-6.6089859 -45.538681 -146.06032 11378583
-5.065671 -45.37484 -146.87871 13354171
-4.0002012 -45.258976 -146.54402 16776175
-2.6154566 -45.112324 -147.39503 10129798
-1.9064542 -45.03516 -147.15883 9932421
-0.84700596 -44.919865 -146.7999 8616564
0.91011035 -44.732639 -147.4946 10787215
1.9647082 -44.61779 -147.1136 8616563
3.2121353 -44.485947 -147.97469 8616563
4.0890808 -44.390419 -147.64153 5920082
4.7881393 -44.314297 -147.37254 5920082
6.0523186 -44.163784 -148.15535 7564651
6.9226742 -44.057953 -147.7679 8946296
8.3786583 -43.897568 -148.50079 9011320
9.0738106 -43.820679 -148.20381 7761509
9.7667179 -43.744015 -147.90497 9011320
11.066044 -43.60096 -148.68848 8881278
11.929871 -43.505405 -148.30016 11906726
13.245573 -43.360542 -149.06975 10261895
14.106798 -43.265228 -148.66669 10655632
14.793015 -43.189247 -148.34204 9208435
15.954149 -43.061558 -149.1716 10261643
16.810251 -42.966824 -148.75211 10788243
17.987595 -42.83728 -149.57239 12432037
18.841249 -42.742756 -149.13882 11905950
20.375965 -42.573639 -149.77116 10263180
21.055792 -42.498379 -149.41231 10853780
22.956903 -42.313473 -149.92473 8089963
23.809 -42.23267 -149.50551 9866630
25.230442 -42.119667 -150.33746 10853012
25.910431 -42.054989 -149.98936 7432032
26.588223 -41.990414 -149.6393 7037274
27.860678 -41.891544 -150.54076 7564645
28.706612 -41.810772 -150.08838 8880507
30.159494 -41.681728 -150.84506 9341059
30.821642 -41.600517 -150.4104 10591124
32.113083 -41.47197 -151.20085 13024949
32.772919 -41.390812 -150.75491 8749435
34.901726 -41.159081 -150.9649 10393485
36.880077 -40.945641 -151.26665 8222576
38.872147 -40.730324 -151.54843 9472387
40.716587 -40.533222 -151.93324 9537667
41.039837 -40.492954 -151.68715 9341054
41.362324 -40.452785 -151.44072 9341054
42.897495 -40.294033 -152.05145 9340286
43.379204 -40.233875 -151.67363 9340286
44.930286 -40.073132 -152.27226 12169123
45.409492 -40.013012 -151.88606 13023917
46.976444 -39.850334 -152.47266 10064779
47.453106 -39.790401 -152.07794 10459537
48.87746 -39.645695 -152.78658 8486519
49.510044 -39.565849 -152.24934 9011320
50.951363 -39.41914 -152.94856 9274749
51.5802 -39.339546 -152.39998 8089963
53.095161 -39.232265 -153.25261 10854036
53.566292 -39.173958 -152.83772 10788244
55.608242 -39.031857 -153.362 9998987
57.827995 -38.867626 -153.72745 8156530
58.44725 -38.789299 -153.1454 7564651
60.068985 -38.700676 -154.07211 10590347
60.530426 -38.641693 -153.62495 11051416
62.483391 -38.511299 -154.24304 8418927
62.941303 -38.452007 -153.78503 8813683
64.764832 -38.338833 -154.54158 11379348
65.219391 -38.279327 -154.07298 11379348
66.916397 -38.183575 -154.9783 9011830
67.368126 -38.12381 -154.49908 9143416
69.539787 -37.965717 -154.91057 8222576
71.735153 -37.804974 -155.30724 9538686
72.179001 -37.744839 -154.80643 9538686
73.953972 -37.641552 -155.68892 8089963
74.39447 -37.581211 -155.17738 9406334
75.9021 -37.423332 -155.92674 11314071
76.68222 -37.326702 -155.63092 9275003
77.717972 -37.019249 -155.85019 8880246
78.591682 -36.743275 -155.73323 8090987
78.618256 -36.02039 -156.16098 10261896
79.521332 -35.897903 -155.83806 10525324
80.409378 -35.547905 -155.62082 8090987
78.922638 -35.106743 -156.39705 13551541
79.540192 -34.907032 -156.22527 12169890
80.44249 -34.879551 -155.87036 9077883
79.872169 -34.075321 -156.41786 13551541
80.567223 -34.128048 -156.1154 9538180
81.481956 -33.807602 -155.87073 7763054
80.710999 -33.144886 -156.44391 10064267
81.572662 -32.93364 -156.17775 9538180
82.426743 -32.857845 -155.86137 10787988
81.641937 -32.073868 -156.48778 9603973
82.569092 -32.018757 -156.1337 9538434
81.890114 -31.37602 -156.66171 8090992
82.594109 -31.056116 -156.5472 8683128
83.445496 -30.987394 -156.24142 7762028
84.271706 -30.596275 -156.18076 7367012
83.627487 -30.187159 -156.77884 7038307
84.591339 -30.042122 -156.50664 7958889
85.520088 -29.647942 -156.69968 9011320
86.473114 -29.491112 -156.65973 9143679
-118.13309 -56.610218 -135.04698 7563619
-117.32733 -56.534611 -135.43542 8352877
-116.52116 -56.459091 -135.8204 7563619
-114.09619 -56.316677 -135.29605 9537402
-113.29674 -56.242355 -135.66734 9537665
-112.49675 -56.168175 -136.03448 11709090
-111.89648 -56.11272 -136.30727 9537665
-109.33655 -55.957619 -135.84686 10260100
-108.34212 -55.865429 -136.28134 8814710
-107.34064 -55.770233 -136.70114 8222572
-104.43287 -55.576042 -136.35631 5920074
-103.44012 -55.482567 -136.75598 5919050
-102.44689 -55.38942 -137.14899 6182222
-101.652 -55.315117 -137.4594 5919050
-99.215454 -55.165752 -136.91376 7563618
-98.427788 -55.092712 -137.21051 5920074
-97.44297 -55.001572 -137.57664 6972762
-96.457916 -54.910748 -137.93625 9141878
-93.504234 -54.714588 -137.56465 8617592
-92.528008 -54.625519 -137.90378 9736326
-91.551605 -54.53672 -138.23729 14802385
-90.575165 -54.44825 -138.5645 14276297
-89.564903 -54.339809 -138.83447 10328461
-85.291046 -53.89484 -138.35353 7893358
-84.476044 -53.798637 -138.51793 9537921
-83.66156 -53.702663 -138.67897 10590609
-83.254791 -53.654839 -138.7578 7563619
-82.441864 -53.559292 -138.91241 7037274
-81.426788 -53.440174 -139.10065 7037274
-80.615753 -53.345264 -139.24675 10260873
-79.603378 -53.226994 -139.42361 7565161
-78.592331 -53.1091 -139.59486 9341055
-77.583412 -52.992012 -139.76082 9866371
-76.583252 -52.880348 -139.93442 8353392
-75.588043 -52.771526 -140.10794 8945786
-74.792671 -52.684738 -140.24312 8616822
-74.395241 -52.641407 -140.30907 8616822
-73.60125 -52.554947 -140.43784 11183004
-72.609756 -52.447174 -140.59412 9341059
-71.619728 -52.339817 -140.74422 7564651
-70.630951 -52.232845 -140.88884 8287850
-69.643745 -52.126225 -141.02737 8222315
-68.657806 -52.019981 -141.16052 9537918
-68.066864 -51.956417 -141.23758 13550517
-61.409691 -51.245922 -141.96866 11906977
-60.631554 -51.163605 -142.03752 7959145
-59.660133 -51.060894 -142.11919 9735812
-58.69059 -50.958717 -142.19508 10064262
-57.722595 -50.856812 -142.26588 8090474
-56.756554 -50.755436 -142.33093 7695204
-55.792198 -50.654358 -142.39099 7563619
-54.829697 -50.553745 -142.4454 8287342
-53.677074 -50.433517 -142.50394 7103836
-52.718536 -50.333706 -142.54709 7695973
-51.770618 -50.242592 -142.60796 9011319
-50.637875 -50.136414 -142.68193 11905438
-49.695404 -50.048161 -142.73775 9997697
-48.754417 -49.960098 -142.78755 8681840
-47.627163 -49.854797 -142.84039 8682099
-46.689373 -49.767269 -142.87852 8682867
-45.751637 -49.678333 -142.90617 9143418
-44.628014 -49.571526 -142.93121 10195592
-43.693489 -49.482792 -142.9463 9537918
-40.880806 -49.193497 -144.1739 7037274
-39.758568 -49.087505 -144.16064 11642780
-38.825394 -48.999496 -144.14401 10853004
-37.888081 -48.904095 -144.09911 8946294
-36.760269 -48.782307 -144.01595 9210491
-35.822937 -48.681023 -143.94086 7367007
-35.261795 -48.620377 -143.89319 8090736
-32.959763 -48.375477 -144.95564 9406594
-31.837622 -48.254208 -144.83249 9801608
-30.719313 -48.133266 -144.70183 11380124
-29.790152 -48.03278 -144.58743 7564642
-29.23403 -47.972553 -144.5163 8682867
-27.82844 -47.824383 -145.60222 7039331
-26.899828 -47.723927 -145.46623 8222577
-25.973837 -47.623669 -145.32558 8616822
-25.419575 -47.563667 -145.23885 8616822
-24.866539 -47.503765 -145.15001 9734788
-24.314348 -47.44397 -145.05971 10261132
-22.875616 -47.292027 -146.08699 10261126
-21.95439 -47.192219 -145.91917 10590347
-20.852808 -47.072884 -145.71152 8024682
-20.120657 -46.993488 -145.56955 7366752
-18.6535 -46.838345 -146.54822 9669509
-17.921122 -46.758965 -146.39258 9669509
-17.008486 -46.659988 -146.19354 9669249
-16.28039 -46.581001 -146.03136 11378324
-14.787871 -46.423016 -146.9664 13287093
-13.87841 -46.324299 -146.74606 8682616
-12.791218 -46.206295 -146.47585 7828078
-11.094248 -46.025963 -147.32382 7565675
-10.009919 -45.908234 -147.03052 9275003
-9.2897329 -45.829975 -146.83171 10459275
-7.751833 -45.666809 -147.68871 9734782
-7.2119884 -45.608128 -147.52994 8089963
-6.6735086 -45.549603 -147.36935 9734273
-5.9574547 -45.47176 -147.15303 13022893
-4.7572546 -45.345299 -148.08723 9208443
-4.0411749 -45.267376 -147.85893 12498862
-3.148962 -45.170311 -147.57027 10129798
-1.7499028 -45.022129 -148.42207 9406332
-1.0371724 -44.944599 -148.17831 9933193
-0.14986047 -44.847992 -147.8699 8287855
1.0913581 -44.716927 -148.758 11643552
1.9776229 -44.620434 -148.43425 11314588
2.6840744 -44.543472 -148.1727 10261644
3.9446583 -44.410236 -149.03838 7696492
4.8264027 -44.314167 -148.69621 7104355
5.9034004 -44.185627 -148.90465 9406851
6.9800739 -44.052795 -149.08859 11774110
7.8553715 -43.955463 -148.72179 11379864
8.9756298 -43.832287 -149.60574 9998215
9.8494377 -43.73563 -149.22594 10261132
10.545792 -43.658623 -148.91982 11380639
11.335814 -43.571922 -149.94402 11380639
12.032431 -43.494831 -149.62784 8618106
12.726883 -43.418007 -149.30981 10985361
14.056007 -43.271656 -150.08299 9538686
14.921291 -43.175873 -149.67065 9998726
16.784784 -42.970406 -150.17371 8090219
17.473356 -42.894222 -149.83095 8090987
18.835379 -42.744274 -150.57069 8814452
19.692827 -42.649334 -150.12761 9276030
21.071121 -42.497547 -150.85274 8815739
21.929274 -42.410847 -150.42303 10985879
23.861933 -42.249702 -151.02582 8550514
24.718487 -42.168308 -150.59671 9537408
26.156693 -42.053993 -151.43503 9537408
26.840178 -41.988834 -151.07896 8485489
28.809904 -41.823696 -151.63062 10854036
29.658794 -41.740578 -151.16132 10064779
30.949974 -41.614883 -151.97707 9472387
31.449726 -41.553562 -151.64508 8090995
31.781874 -41.512714 -151.42326 11183260
33.088215 -41.382721 -152.21953 7565675
33.750538 -41.301083 -151.76465 8749435
35.073875 -41.169086 -152.55261 9868171
35.733536 -41.087505 -152.08627 9670534
37.730503 -40.872009 -152.38786 9012350
39.741318 -40.654636 -152.6692 10392718
40.392483 -40.573593 -152.17888 9537667
41.765972 -40.435345 -152.93024 9735301
42.414055 -40.354401 -152.4286 8419696
43.804405 -40.214149 -153.1709 8419696
44.449226 -40.13335 -152.65796 9735814
45.856525 -39.99107 -153.39099 9144191
46.498039 -39.910465 -152.86671 9735814
47.762486 -39.786205 -153.72427 12893619
48.241837 -39.725815 -153.32298 10459537
49.842728 -39.559284 -153.90591 10393229
50.319405 -39.499039 -153.49605 9011320
51.827904 -39.388268 -154.35423 9933193
52.463127 -39.310158 -153.80409 10854036
54.667206 -39.149216 -154.21132 9867912
56.73584 -39.00518 -154.74284 8814715
57.205566 -38.946156 -154.30827 7564651
59.449703 -38.779621 -154.66693 10524559
61.715282 -38.610264 -155.00461 9340283
63.848946 -38.458199 -155.47681 10787729
64.308144 -38.398438 -155.00955 8813683
66.310013 -38.263458 -155.61601 9472380
68.639328 -38.085899 -155.88934 7433056
70.84053 -37.925652 -156.30734 9867654
71.289131 -37.865215 -155.8076 8092011
73.362404 -37.722321 -156.37013 9537920
74.666351 -37.461796 -156.70628 8813686
75.581276 -37.16658 -156.59763 11380123
76.436417 -36.923107 -156.54987 9735554
77.260788 -36.734634 -156.33736 10524556
76.679855 -35.993919 -156.95705 10919313
77.566452 -35.974216 -156.60544 9275004
78.272354 -35.514935 -156.49998 10130568
77.472923 -34.919865 -157.05814 9670018
78.496864 -34.850018 -156.67059 12038307
77.890778 -34.256844 -157.14952 10459278
78.398247 -34.012589 -157.03998 10788243
79.287529 -34.0667 -156.65823 12433064
78.697311 -33.290859 -157.20265 9538176
79.458191 -33.021725 -157.00014 10130313
80.274277 -32.823582 -156.74731 11511454
79.683273 -32.045326 -157.29301 12104103
80.523125 -32.029049 -156.95891 11906468
81.231232 -31.787083 -156.76711 9604228
80.431625 -31.18808 -157.33952 11446173
81.413818 -30.906767 -157.1234 9078139
82.30629 -30.566505 -157.00362 7828329
81.65979 -30.15934 -157.60103 8420720
82.516815 -29.971218 -157.40761 8354928
83.438957 -29.884489 -157.10439 7959404
84.517097 -29.468613 -157.54036 7103835
85.103836 -29.475073 -157.27722 6511954
83.930023 -29.462349 -157.80284 7761509
85.551483 -29.176249 -158.1053 9011320
86.338135 -29.185289 -157.75169 9603715
87.125259 -29.194693 -157.39673 8092019
-119.17305 -56.613731 -136.22267 8287342
-118.58366 -56.566505 -136.53992 8813171
-116.11781 -56.421432 -136.01114 7366237
-115.51245 -56.36499 -136.29501 7366237
-114.50291 -56.271179 -136.76299 7563617
-113.69467 -56.196335 -137.13319 8089963
-111.29574 -56.057262 -136.57756 8681835
-110.49448 -55.983513 -136.93439 10787211
-109.49124 -55.891197 -137.37328 11510934
-108.68363 -55.815083 -137.71458 13023917
-106.53914 -55.694317 -137.03288 6445650
-106.13831 -55.656425 -137.19708 6445650
-105.53678 -55.599724 -137.44124 6445650
-104.53402 -55.50536 -137.84319 6708822
-103.53088 -55.411316 -138.23926 6905944
-101.25453 -55.278008 -137.61285 5919050
-100.45932 -55.20396 -137.9166 8616307
-99.465134 -55.111721 -138.29128 10524560
-98.669495 -55.038139 -138.58644 12433069
-97.873795 -54.964756 -138.87756 11314588
-95.472633 -54.820236 -138.2901 10457481
-94.487091 -54.730083 -138.63745 10590864
-93.501472 -54.640175 -138.97917 9144191
-92.712891 -54.568462 -139.24803 9736326
-91.924232 -54.496952 -139.51299 11907493
-88.530975 -54.217041 -139.05995 7302238
-87.49826 -54.094627 -139.27951 7630696
-86.673012 -53.997032 -139.45053 7564651
-85.642647 -53.875465 -139.65831 7564651
-84.613548 -53.754215 -139.86032 7564651
-83.996758 -53.681721 -139.97858 7564651
-83.3806 -53.609379 -140.09435 7564390
-82.559738 -53.513115 -140.24535 7564386
-81.739807 -53.417149 -140.39243 8353390
-80.716331 -53.297626 -140.57066 9669250
-79.694229 -53.178459 -140.74309 7039331
-78.673752 -53.059795 -140.90919 8682099
-77.658005 -52.943657 -141.07541 8945271
-76.652161 -52.833691 -141.25041 7366756
-75.848427 -52.745922 -141.38649 7564392
-67.476685 -51.893055 -141.31247 10590606
-66.690445 -51.808704 -141.40924 9340796
-65.70916 -51.703636 -141.52493 8485488
-64.729248 -51.598957 -141.63536 8682867
-63.751022 -51.494675 -141.73984 8090987
-62.774353 -51.390728 -141.83919 7565675
-61.994202 -51.307968 -141.91449 11906977
-55.679127 -50.593311 -143.6042 9734788
-54.90538 -50.514599 -143.65047 6971994
-53.755928 -50.405621 -143.73837 7695973
-52.800503 -50.31588 -143.80814 7695973
-51.846565 -50.226402 -143.87192 8089963
-50.893955 -50.137104 -143.93036 9734529
-49.942848 -50.04813 -143.98293 9537145
-48.803471 -49.941647 -144.03893 10721418
-47.855553 -49.85318 -144.07964 8747631
-46.909111 -49.764744 -144.11401 8813683
-45.773788 -49.657124 -144.14305 8682611
-44.829117 -49.567432 -144.16039 8090987
-43.886238 -49.477959 -144.17204 8090987
-42.75708 -49.370995 -144.17908 9735296
-41.818008 -49.28207 -144.17929 11709084
-38.975395 -48.990612 -145.3698 9669251
-37.848347 -48.884529 -145.33864 9538950
-36.911156 -48.796421 -145.30714 8288621
-35.970291 -48.700893 -145.24699 9144188
-35.215042 -48.619221 -145.17957 9143166
-34.649834 -48.558197 -145.1264 8616823
-33.897633 -48.476856 -145.05267 9669253
-31.94779 -48.269985 -146.1389 8486006
-31.007025 -48.168293 -146.02553 9407364
-29.881559 -48.046551 -145.88284 8881019
-28.946638 -47.945415 -145.75839 8748662
-28.38695 -47.88488 -145.68135 8814457
-26.777533 -47.71455 -146.73764 9734788
-26.216982 -47.653889 -146.64999 8616822
-25.657366 -47.593338 -146.56075 7564392
-24.913069 -47.512718 -146.43852 8616822
-23.985134 -47.412205 -146.28186 10261385
-23.429745 -47.352089 -146.18535 10261385
-21.974413 -47.198318 -147.21121 11643039
-21.047985 -47.097965 -147.03316 9208956
-19.940266 -46.977867 -146.81328 7893611
-19.204172 -46.898026 -146.66318 7039331
-17.905123 -46.76115 -147.68054 10261132
-17.168379 -46.681248 -147.51718 10458507
-16.433456 -46.601559 -147.3512 11182228
-15.883764 -46.541912 -147.22453 9932419
-15.335121 -46.482365 -147.09647 11182228
-13.826347 -46.322594 -148.02911 8682867
-13.094728 -46.243183 -147.84511 8485235
-12.183451 -46.144253 -147.61081 10196623
-10.105876 -45.922588 -148.35912 8682867
-9.0164824 -45.80426 -148.0533 12235684
-8.2929344 -45.72559 -147.84613 10459275
-7.1012211 -45.600079 -148.80954 10787985
-6.1969862 -45.501812 -148.53493 9406074
-5.2959785 -45.403835 -148.25642 9208443
-3.9023895 -45.256355 -149.13742 9208443
-3.0030165 -45.158489 -148.84209 8682867
-2.2859116 -45.080482 -148.6032 8682867
-1.0515443 -44.950195 -149.51846 11380380
-0.15612039 -44.852741 -149.20424 8946556
0.55783451 -44.775051 -148.95038 11380380
1.8122519 -44.642506 -149.84337 7762021
2.3475533 -44.584171 -149.64439 7038298
2.8812885 -44.526096 -149.4437 8616563
3.4137402 -44.468117 -149.24184 9538694
4.8654308 -44.314072 -150.04224 11907240
5.7502251 -44.208088 -149.65849 9340545
7.0384846 -44.046726 -150.42848 7564651
7.7450676 -43.968517 -150.13121 8880249
8.449358 -43.890545 -149.83194 8090987
9.7578659 -43.746529 -150.64674 13024949
10.636021 -43.64938 -150.25758 12433069
12.137037 -43.48402 -150.97787 9736329
12.837034 -43.406586 -150.65424 8552305
13.534781 -43.329384 -150.32872 9538686
14.877748 -43.181561 -151.10587 5919050
15.747164 -43.085281 -150.6841 8550768
16.933102 -42.954815 -151.53389 11905951
17.627073 -42.877991 -151.1853 11248021
18.318714 -42.801422 -150.8349 9537918
19.867414 -42.630817 -151.48799 8552568
20.55645 -42.554504 -151.12579 8092019
21.963446 -42.429726 -151.95688 9537150
22.828764 -42.347736 -151.53586 8550513
24.780933 -42.18486 -152.13933 8155756
25.642017 -42.102947 -151.70029 8879478
27.097155 -41.987228 -152.54514 9735555
27.784174 -41.92165 -152.18097 9340797
29.772755 -41.753307 -152.72765 9340797
30.448484 -41.676399 -152.30826 10854036
31.753082 -41.546936 -153.12402 9736836
32.088142 -41.505787 -152.89862 9736836
32.589043 -41.444153 -152.55948 10262416
34.077568 -41.291965 -153.24881 11709860
34.576538 -41.230431 -152.90106 10789015
36.081261 -41.076309 -153.57895 8092019
36.743385 -40.994305 -153.10355 9012607
38.593727 -40.797237 -153.52374 9603973
40.787743 -40.557281 -153.68015 7827565
42.668121 -40.356266 -154.06561 7564643
43.156631 -40.295181 -153.68263 7564643
44.726017 -40.132851 -154.30562 8618359
45.212082 -40.071918 -153.91414 8092019
46.797832 -39.907597 -154.52512 10985879
47.281288 -39.846798 -154.12502 13551549
48.883499 -39.680393 -154.72386 12235946
49.364212 -39.61974 -154.31519 13023917
50.867592 -39.505878 -155.17613 11181975
51.348755 -39.447021 -154.76562 9011320
53.717537 -39.267075 -155.0571 9275777
55.78997 -39.123787 -155.60944 9933702
56.264175 -39.064411 -155.17662 9933702
58.513908 -38.898434 -155.55672 11379608
60.629799 -38.749588 -156.0676 9340539
61.096745 -38.689789 -155.61264 10590347
62.769009 -38.598232 -156.56462 7563619
63.233261 -38.538078 -156.0988 10524560
65.393143 -38.383846 -156.57077 8354158
67.72982 -38.206657 -156.86594 10854036
68.034195 -38.166306 -156.5407 10854036
70.238853 -38.006523 -156.97293 8682867
71.655861 -37.814354 -157.60492 8618105
72.363892 -37.789577 -157.16319 8354931
73.401588 -37.489998 -157.43303 10919575
73.525536 -37.107342 -157.703 10261132
74.31131 -36.993584 -157.41597 10129802
75.253937 -36.853886 -157.1362 10129800
74.61058 -36.165123 -157.72845 9143421
75.409218 -35.895962 -157.51064 10459020
76.186386 -35.800549 -157.23315 9998469
75.428146 -35.063076 -157.83058 10458505
76.3209 -34.822559 -157.56332 9998726
77.046509 -34.664108 -157.33162 10261641
76.367882 -34.029881 -157.85614 11379607
77.340446 -34.04097 -157.45755 9669762
76.466309 -33.403896 -158.06248 12103071
77.311813 -32.994572 -157.8808 9077625
78.261589 -32.92207 -157.52438 9735555
77.640182 -32.160023 -158.076 9866886
78.344917 -31.916361 -157.88615 10919830
79.184174 -31.89872 -157.55298 10722450
78.382141 -31.225134 -158.15407 9669762
79.306885 -30.879992 -157.99796 9867141
80.232834 -30.671465 -157.75905 10459278
80.417328 -29.984219 -158.24974 10985622
81.293343 -29.888542 -157.97263 10854293
81.995911 -29.764462 -157.78917 7565667
82.363831 -29.447077 -158.49867 8420720
83.34269 -29.456434 -158.06451 9341310
84.396576 -29.172573 -158.68204 8814453
85.157669 -29.171911 -158.28156 9011320
-119.53465 -56.120998 -137.15903 8484721
-118.77588 -56.321491 -137.41957 8813171
-117.56514 -56.471283 -137.0233 9668222
-116.54581 -56.376328 -137.50047 7366237
-115.72961 -56.300587 -137.87735 6642515
-113.29032 -56.158962 -137.3166 8089963
-112.48125 -56.084351 -137.67982 8945269
-111.46933 -55.991367 -138.12868 10260867
-110.65924 -55.917149 -138.48288 11313555
-108.27887 -55.776791 -137.88242 13023917
-107.67152 -55.719345 -138.13214 10985364
-120.12391 -55.339233 -137.29736 8090987
-119.72987 -55.554573 -137.51305 9143675
-106.65895 -55.623829 -138.54326 6445650
-105.64603 -55.528587 -138.94838 6971994
-102.52727 -55.317596 -138.62859 7761511
-101.5234 -55.224224 -139.01205 7564651
-100.72014 -55.149647 -139.31413 7564651
-99.916718 -55.075359 -139.61217 9144187
-97.276917 -54.909779 -139.09351 10457481
-96.679901 -54.855045 -139.30687 10457481
-95.68486 -54.76395 -139.65778 11115410
-94.888687 -54.691326 -139.93446 10855060
-120.28476 -54.676556 -137.479 8090987
-94.490578 -54.655098 -140.07118 7564651
-93.694336 -54.582737 -140.34143 7564651
-91.332741 -54.443455 -139.70937 10460303
-90.74118 -54.390099 -139.90324 9012857
-89.744797 -54.295101 -140.20534 6907480
-88.706955 -54.175232 -140.43671 7762533
-87.663986 -54.051975 -140.65126 8288116
-86.622314 -53.9291 -140.85974 9735302
-85.790001 -53.831139 -141.02185 11511196
-84.958618 -53.733425 -141.18002 8419702
-84.335526 -53.660313 -141.29608 7564651
-83.713257 -53.58741 -141.40967 7038302
-82.884232 -53.490379 -141.55783 7564386
-82.263062 -53.41782 -141.66652 8616819
-75.446838 -52.702198 -141.453 7564392
-75.045433 -52.658459 -141.51851 6511962
-74.644341 -52.614826 -141.58315 7564651
-73.842804 -52.527756 -141.70912 7564651
-72.841934 -52.419201 -141.86195 7564651
-71.842613 -52.310982 -142.00848 9209984
-70.844635 -52.203236 -142.14954 8157043
-69.848236 -52.095852 -142.28444 8222577
-68.853195 -51.98885 -142.41393 7894126
-67.859863 -51.88221 -142.53731 9734785
-66.867912 -51.77599 -142.65527 8419183
-66.075577 -51.69133 -142.74548 11248021
-65.481918 -51.627945 -142.81079 11905692
-64.888947 -51.564758 -142.8739 10590347
-63.901993 -51.45974 -142.97459 9472382
-62.916557 -51.355099 -143.07005 9736326
-61.932949 -51.25082 -143.15956 7565675
-60.754807 -51.126312 -143.25992 7564387
-59.774925 -51.022903 -143.33769 5919050
-58.796883 -50.919991 -143.40956 7301478
-57.820576 -50.81744 -143.47641 8813945
-56.84618 -50.715347 -143.53745 8287858
-56.067783 -50.633892 -143.58289 8090736
-49.618324 -49.99432 -145.27452 8681835
-49.043701 -49.940704 -145.29967 9931902
-48.087166 -49.851429 -145.33705 8484459
-46.940952 -49.744244 -145.37358 8089963
-45.986153 -49.653679 -145.3936 8813683
-45.032959 -49.563225 -145.40746 8682867
-43.891441 -49.455013 -145.41705 9274749
-42.942104 -49.365074 -145.41936 7037274
-41.994713 -49.275532 -145.41588 7037274
-40.860195 -49.168358 -145.40492 7037533
-39.916817 -49.079327 -145.39023 8024943
-37.800835 -48.856758 -146.57205 10591380
-37.044884 -48.785797 -146.54323 8552312
-36.101471 -48.697231 -146.50294 7564647
-35.348305 -48.626648 -146.46684 7563619
-34.784264 -48.573818 -146.43768 8090736
-34.027294 -48.494862 -146.36928 8814202
-33.080444 -48.392494 -146.26784 11379356
-32.513607 -48.331219 -146.20444 11379356
-30.920149 -48.162907 -147.32362 9868171
-30.163034 -48.080929 -147.22424 9868171
-29.030462 -47.958401 -147.06934 8815736
-28.089674 -47.856594 -146.93469 8749428
-27.33922 -47.77541 -146.82327 9274494
-25.147593 -47.54208 -147.77927 7169891
-24.023603 -47.42033 -147.58524 9143164
-23.090296 -47.319176 -147.41827 8617078
-22.531687 -47.258701 -147.31578 10261385
-21.059696 -47.103161 -148.34018 10985366
-20.128168 -47.002163 -148.15169 12235433
-19.014364 -46.881439 -147.91946 9472130
-18.274277 -46.801147 -147.76109 9143422
-16.959562 -46.662552 -148.77869 11182228
-16.588974 -46.622349 -148.69331 11182228
-16.034031 -46.562191 -148.56374 9274747
-15.111937 -46.46209 -148.34406 10590606
-14.37649 -46.382309 -148.16534 8682867
-13.219664 -46.260727 -149.19087 11183257
-12.299753 -46.160828 -148.95152 10591377
-11.200304 -46.041443 -148.65857 8223348
-9.8360796 -45.897285 -149.60695 8682867
-9.1038113 -45.817734 -149.39795 9275003
-8.1913328 -45.718567 -149.13318 9734782
-7.6455708 -45.659225 -148.97226 11906725
-6.2585163 -45.51252 -149.88496 9866367
-5.1680202 -45.393974 -149.54343 7235677
-4.4437723 -45.315208 -149.31252 6511954
-3.2165499 -45.185822 -150.25528 8090987
-2.3118591 -45.087337 -149.95105 8682867
-1.5907003 -45.008919 -149.70488 10129798
0.017972857 -44.837929 -150.49678 9933193
0.73755252 -44.759567 -150.23737 9209468
1.2756785 -44.700939 -150.04108 8486000
2.9027214 -44.527878 -150.8031 7565158
3.7971973 -44.430454 -150.45952 9538694
5.6196918 -44.229267 -151.10201 11314589
6.5076427 -44.113121 -150.67575 7564651
7.8108292 -43.962009 -151.48996 8090987
8.5210228 -43.883423 -151.18515 8617331
9.2289791 -43.805092 -150.87845 9735555
10.727987 -43.639999 -151.618 9736326
11.433954 -43.561897 -151.29915 9736326
11.785812 -43.522911 -151.13885 9736329
12.949551 -43.394924 -152.02167 10985361
13.652992 -43.317066 -151.69038 9998980
14.354082 -43.239452 -151.35736 8092011
15.535727 -43.109524 -152.22426 12630442
16.410374 -43.012726 -151.79378 8813939
17.783957 -42.86145 -152.56285 10261641
18.481167 -42.784267 -152.2065 11116692
19.610622 -42.659668 -152.36011 9539459
20.570091 -42.561584 -152.62215 9539459
21.093857 -42.512051 -152.37398 8815739
21.442169 -42.479057 -152.20755 8089963
22.872183 -42.366127 -153.09247 8089963
23.742237 -42.28352 -152.6615 8024170
25.714211 -42.11898 -153.26578 8418928
26.579796 -42.03648 -152.81651 9735555
28.570206 -41.869854 -153.38881 9406847
30.573704 -41.691883 -153.90999 8617331
31.248852 -41.608974 -153.46155 9736067
32.737228 -41.457222 -154.17146 9736836
33.408825 -41.374428 -153.71085 8289395
34.746201 -41.241287 -154.52492 9868171
35.41523 -41.158642 -154.05254 9276035
37.436031 -40.94088 -154.37405 9012607
39.471169 -40.721138 -154.67531 8945784
40.131508 -40.639046 -154.17853 9537667
41.19104 -40.5406 -155.20992 7038307
41.685333 -40.47892 -154.82918 12499118
42.177795 -40.417439 -154.44777 11512223
43.584183 -40.275875 -155.21626 9538433
44.238205 -40.193993 -154.69643 9210491
45.498955 -40.070786 -155.58861 9210491
46.150192 -39.988991 -155.05751 8092019
47.591705 -39.843208 -155.81035 12893619
48.239479 -39.7616 -155.26767 12235946
50.222313 -39.584583 -155.72179 11181975
52.437794 -39.425091 -156.17905 10525327
53.079857 -39.345901 -155.61913 9933193
54.675453 -39.26281 -156.61617 9933702
55.154495 -39.203129 -156.18535 10656913
57.569183 -39.017849 -156.44336 9472382
59.689423 -38.869698 -156.97543 9274748
60.160912 -38.809593 -156.52202 9340539
62.145809 -38.678619 -157.18422 10458249
64.467331 -38.50486 -157.52296 9537665
64.777153 -38.464401 -157.20587 9537665
67.117676 -38.287601 -157.51556 10656139
69.480583 -38.108009 -157.80356 7959144
70.584084 -37.850277 -158.25548 8618105
71.220657 -37.662197 -158.15341 10656916
72.266678 -37.490902 -157.94949 8618105
71.625984 -37.106819 -158.55202 10262415
72.340576 -36.943577 -158.31406 8355190
73.214615 -36.806744 -158.02219 9077886
72.55867 -36.078259 -158.59428 9340801
73.331993 -36.084305 -158.27849 8880507
74.105469 -36.09095 -157.96239 8420470
73.376907 -35.148582 -158.62837 9800838
74.264702 -35.051933 -158.30656 9077629
75.072411 -34.851116 -158.05823 10655625
74.229935 -34.009315 -158.73082 11181973
75.201431 -34.017998 -158.33359 10853004
74.520027 -33.385361 -158.8587 12103071
75.30619 -33.026371 -158.68124 10458246
76.229019 -32.843399 -158.37915 12169122
75.492493 -32.13842 -158.95505 9208435
76.305931 -31.936352 -158.70479 9406076
77.228577 -31.875767 -158.35463 9603458
76.302567 -31.169556 -159.02579 8419696
77.224098 -30.959059 -158.79143 8945784
78.154221 -30.615355 -158.64967 8222317
78.353622 -30.021664 -159.05727 8090219
79.264832 -29.891571 -158.79407 9735812
80.027061 -29.740492 -158.60867 10459278
80.209473 -29.428877 -159.44609 9143419
81.188728 -29.436775 -159.01683 9012601
82.492371 -29.176464 -159.68016 9341310
83.255402 -29.174913 -159.28349 8683379
87.401428 -29.147844 -160.14934 9341056
88.119507 -28.893044 -159.91591 8618106
88.256149 -28.110361 -160.16669 8288112
88.298279 -27.412811 -160.42743 9735812
88.771896 -26.97979 -160.37999 8419696
-118.52945 -56.058899 -137.91238 9405822
-117.82799 -56.095497 -138.32574 10459023
-116.926 -56.227043 -138.61386 8089963
-114.70871 -56.206127 -138.34219 7826790
-113.68699 -56.111919 -138.80087 8089963
-112.86904 -56.0368 -139.1629 7037790
-109.64098 -55.822124 -138.91339 11971487
-108.61835 -55.725422 -139.33286 9012347
-119.46928 -55.21814 -137.88034 9011577
-118.73358 -55.428772 -138.37001 9011321
-107.79996 -55.648258 -139.66371 7301730
-107.18599 -55.590603 -139.90915 6445650
-104.63264 -55.433662 -139.34666 7695716
-103.61904 -55.339039 -139.739 7366751
-102.80788 -55.263611 -140.04813 7893612
-101.79368 -55.169598 -140.4286 12170154
-99.314018 -55.019783 -139.83327 9144187
-98.711288 -54.964298 -140.05177 7563874
-97.706551 -54.872059 -140.41104 7497825
-96.701691 -54.780117 -140.76448 8484976
-95.897728 -54.70681 -141.04268 7760998
-120.34959 -53.937981 -137.77347 8090987
-119.65309 -54.278645 -138.17346 8814198
-118.92029 -54.656414 -138.58521 7563619
-95.294632 -54.652004 -141.24876 8484979
-92.69899 -54.492546 -140.67432 7565667
-91.902695 -54.42067 -140.93611 10460303
-90.907288 -54.331135 -141.25772 8025962
-89.911949 -54.241859 -141.57361 9143417
-88.883263 -54.132816 -141.83034 8551540
-87.829735 -54.008579 -142.04042 7564651
-120.48917 -53.126259 -138.04221 9143675
-119.97586 -53.118572 -138.45837 10261899
-81.642532 -53.345455 -141.77266 9143162
-80.815987 -53.249168 -141.91095 7827813
-79.784271 -53.129177 -142.07808 8222571
-78.754181 -53.009731 -142.2397 11905692
-77.938477 -52.91925 -142.3773 11181970
-76.922966 -52.808399 -142.54883 8222321
-75.908691 -52.697918 -142.7148 7038049
-120.70364 -52.241131 -138.28513 9867140
-74.895859 -52.587868 -142.87427 7169893
-73.884407 -52.478153 -143.0282 9341059
-72.874512 -52.368843 -143.1758 8814971
-71.865921 -52.259972 -143.3179 10065291
-70.859024 -52.151455 -143.45375 7630700
-69.853592 -52.043304 -143.58408 8354163
-69.050308 -51.957142 -143.68408 8354163
-68.047791 -51.849724 -143.80368 9207928
-67.046799 -51.742744 -143.91783 9405307
-66.446968 -51.678753 -143.98366 10062979
-121.03624 -51.57943 -138.32832 10261641
-65.847839 -51.61491 -144.04715 9734527
-65.049881 -51.529976 -144.12877 8681840
-64.054001 -51.424191 -144.22557 9208698
-63.059792 -51.318783 -144.31717 9012089
-62.067402 -51.213833 -144.40268 7828332
-61.076637 -51.109268 -144.48302 7169373
-60.087914 -51.005131 -144.55754 6971996
-58.903694 -50.880692 -144.63985 7893358
-57.918869 -50.777439 -144.70265 8353651
-56.943871 -50.681553 -144.77936 7367271
-55.975372 -50.59037 -144.86346 8090736
-55.008244 -50.499424 -144.94145 10459281
-54.042374 -50.408649 -145.01413 8288116
-53.078087 -50.31818 -145.08073 9275007
-51.922752 -50.209896 -145.15331 9208698
-50.96154 -50.119888 -145.20784 10524044
-50.193626 -50.048134 -145.24728 10655370
-46.201275 -49.650089 -146.66306 9537403
-45.816349 -49.61359 -146.66797 10853012
-45.047264 -49.540691 -146.67493 9603457
-44.087433 -49.449745 -146.67921 9011576
-43.12965 -49.359158 -146.67775 8813937
-42.173576 -49.26878 -146.67123 8287592
-41.219536 -49.178699 -146.65907 7432545
-40.077183 -49.07103 -146.63759 7038307
-39.127304 -48.981556 -146.61403 9011579
-38.368916 -48.910183 -146.59126 15195602
-36.038345 -48.667942 -147.7444 7563619
-35.468529 -48.61451 -147.71486 7563619
-34.899693 -48.561268 -147.6833 9735044
-34.142296 -48.490463 -147.63843 7300963
-33.197643 -48.402172 -147.57759 7038563
-32.059639 -48.286095 -147.46579 7499625
-31.299543 -48.203865 -147.37193 8092019
-29.115084 -47.97155 -148.40141 6510930
-28.165846 -47.868847 -148.26128 6774358
-27.219271 -47.766361 -148.11638 9210491
-26.275858 -47.664219 -147.96608 8418928
-24.251097 -47.448936 -148.94345 7037792
-23.120607 -47.326496 -148.737 8617078
-22.181915 -47.224781 -148.55959 9011320
-21.620153 -47.163902 -148.45081 9011320
-19.943617 -46.986183 -149.43448 12630959
-19.194643 -46.90498 -149.27489 11314843
-18.261045 -46.803722 -149.07152 8682867
-17.51659 -46.723015 -148.90526 9932419
-16.00038 -46.562542 -149.88104 9932419
-15.256018 -46.48175 -149.70084 9077368
-14.143265 -46.361008 -149.42532 8682867
-12.232569 -46.157547 -150.26573 13683648
-11.308151 -46.057217 -150.01575 8551538
-10.387039 -45.957176 -149.76166 9406592
-8.4555769 -45.751331 -150.54942 9866111
-7.3543997 -45.631691 -150.22029 9340023
-5.2204161 -45.403797 -150.90952 8814451
-4.3072243 -45.304455 -150.61473 8814451
-3.7612 -45.244991 -150.43585 8090987
-2.3381519 -45.094372 -151.32185 8617074
-1.2475339 -44.975639 -150.94443 8683639
-0.52336133 -44.896809 -150.68976 8486262
0.73939312 -44.763542 -151.61121 9933702
1.6434401 -44.665092 -151.27713 9933702
2.3641739 -44.586575 -151.00732 7038298
3.6470718 -44.45105 -151.90613 10985881
4.5464592 -44.353008 -151.55321 13880000
6.0257359 -44.181309 -152.31509 13157559
6.7409325 -44.087448 -151.96611 8617333
7.45471 -44.001385 -151.64142 7564651
8.7730331 -43.856342 -152.48364 11380124
9.6641502 -43.757755 -152.0923 10788500
11.178093 -43.590992 -152.83968 12959666
11.711294 -43.532005 -152.59572 16248798
12.419861 -43.453568 -152.26848 13880770
13.773626 -43.304523 -153.07556 10261132
14.480505 -43.226353 -152.73648 13879995
16.380074 -43.016876 -153.26881 8748403
17.258881 -42.919662 -152.82855 8682867
18.822233 -42.747372 -153.51093 10985364
19.522125 -42.669891 -153.14638 11051928
20.943052 -42.548866 -154.02695 10065033
21.646692 -42.482273 -153.68915 9340285
22.348179 -42.415775 -153.34927 8089963
23.619797 -42.318085 -154.32919 10984593
24.320515 -42.251507 -153.97702 9865600
25.018911 -42.185162 -153.6228 6511962
26.487631 -42.068562 -154.49699 9867139
27.358425 -41.985542 -154.03784 9537659
29.369587 -41.817116 -154.61414 8617331
30.062807 -41.750809 -154.23254 8617331
31.553213 -41.60289 -154.97348 10855573
32.061985 -41.540344 -154.63036 9736836
32.400063 -41.498684 -154.40126 9736836
33.735916 -41.365997 -155.23015 6510930
34.241966 -41.303539 -154.87794 7497825
35.763508 -41.148033 -155.58081 8484976
36.434975 -41.06488 -155.09917 9012607
38.474449 -40.844986 -155.41785 11182233
40.528419 -40.623177 -155.71608 10261641
42.431625 -40.41996 -156.12308 8617076
42.927193 -40.358063 -155.73497 9538433
44.515289 -40.194145 -156.38315 13551031
45.008247 -40.13229 -155.98616 11380633
46.61327 -39.966278 -156.6223 9407620
47.103645 -39.904671 -156.21674 11578017
48.593529 -39.782326 -157.07863 10131086
49.247726 -39.703075 -156.53714 11181975
51.3055 -39.564079 -157.15553 10261132
51.792435 -39.504456 -156.73782 12235684
53.710457 -39.38258 -157.47528 8682867
54.193913 -39.322594 -157.04616 11051411
56.455849 -39.157833 -157.47351 9210491
56.934723 -39.097733 -157.03264 9209467
58.580902 -39.010483 -158.03065 11904668
59.057457 -38.95002 -157.57886 10064006
61.203926 -38.799759 -158.11147 9011577
63.531853 -38.626411 -158.47234 7563619
64.000656 -38.565582 -157.99803 7563619
66.192123 -38.409554 -158.48801 9866881
68.112518 -38.192173 -158.79884 8485229
69.16983 -37.800053 -158.98656 8156265
70.114014 -37.681076 -158.72972 7367524
70.749931 -37.492779 -158.62865 8618105
70.190704 -36.935993 -159.21674 8222317
71.205627 -36.858273 -158.83585 9275777
70.595924 -36.274239 -159.31279 9011320
71.095985 -36.027657 -159.20712 9472384
71.978813 -36.074326 -158.8309 9012349
71.385178 -35.114758 -159.44901 9669249
72.207451 -35.095764 -159.12318 9537921
72.939461 -34.83313 -158.92982 9340801
72.288109 -33.995441 -159.52336 9537406
73.258873 -34.001858 -159.12733 8880507
72.575447 -33.371422 -159.6524 9537406
73.221512 -32.957664 -159.55325 9537406
74.154037 -32.912144 -159.19318 9866625
73.542076 -32.123291 -159.75153 10854036
74.15889 -31.9182 -159.58221 10130313
75.062935 -31.883307 -159.22946 9142900
74.348343 -31.154009 -159.82668 9603969
75.230827 -31.026226 -159.55675 9735039
76.099113 -30.656097 -159.45073 9340286
76.271004 -29.970154 -159.94557 10523530
77.116905 -29.950602 -159.61806 8945784
77.863785 -29.718437 -159.50562 8748661
78.445473 -29.416515 -160.21323 9143419
79.229507 -29.421743 -159.87314 8748405
81.152153 -29.179182 -160.36496 9144191
81.91861 -29.177629 -159.97498 9801605
86.054291 -28.920155 -160.87097 8419184
86.989815 -28.854534 -160.45976 8748405
86.322006 -28.124428 -161.06573 8616563
87.081619 -28.013744 -160.75493 8155756
87.8256 -27.845194 -160.47467 8616563
87.152191 -27.141914 -161.07248 8814198
87.998505 -26.848772 -160.79446 9275261
88.079071 -25.92452 -161.1284 8419952
88.843086 -25.813505 -160.8157 8485745
88.318344 -25.005527 -161.386 7893608
88.916992 -25.009922 -161.10422 7893608
89.189659 -24.022743 -161.3736 7630442
-117.46837 -55.915276 -138.91234 8089963
-116.67292 -55.976086 -139.32591 8089963
-115.90206 -56.077507 -139.54019 11708316
-114.88104 -56.124512 -139.90164 11379609
-112.25534 -55.980572 -139.43179 7037274
-111.64135 -55.924389 -139.69809 8486000
-110.82038 -55.848751 -140.04713 9210491
-109.78714 -55.751129 -140.4691 8419951
-118.47341 -55.093746 -138.73914 9011321
-117.72963 -55.302254 -139.21806 7826791
-117.04114 -55.292103 -139.7607 8089963
-106.57191 -55.53299 -140.15204 6971994
-105.75294 -55.456367 -140.47249 8485488
-104.93375 -55.379986 -140.78879 7827302
-103.90949 -55.284729 -141.17819 8551537
-100.77928 -55.075813 -140.80318 8287856
-99.967674 -55.001118 -141.09814 7037274
-98.952911 -54.90797 -141.461 8419952
-97.938126 -54.815117 -141.81793 10656401
-97.329163 -54.759567 -142.02908 7037274
-118.71502 -54.084026 -139.01871 7958377
-117.9099 -54.349224 -139.54141 8484721
-94.691628 -54.597252 -141.4525 9208187
-93.887604 -54.524426 -141.72081 7761515
-92.882515 -54.433769 -142.05035 7433824
-91.877434 -54.343357 -142.37433 9406846
-91.073402 -54.271309 -142.62895 8485744
-86.987976 -53.909512 -142.20369 11905953
-85.937248 -53.786098 -142.40193 11182231
-85.097542 -53.687687 -142.55641 9340545
-119.46255 -53.111534 -138.87424 10656401
-118.77805 -53.103111 -139.42833 8353904
-84.678146 -53.638542 -142.63202 13023917
-84.049522 -53.565022 -142.74341 9734788
-83.00309 -53.442886 -142.92398 7169885
-81.95816 -53.321136 -143.09883 8617073
-80.914963 -53.199902 -143.26707 10261894
-79.873337 -53.079063 -143.42966 10327431
-79.043488 -52.984161 -143.55884 10458505
-78.016693 -52.871952 -143.73116 9011575
-76.991486 -52.760303 -143.8983 6511962
-76.376968 -52.693478 -143.99568 6511962
-120.24284 -52.012196 -138.76295 10261641
-119.76728 -52.272278 -139.02307 9801347
-119.1609 -52.220264 -139.53496 7762539
-75.763138 -52.626858 -144.09062 7761513
-74.94548 -52.538208 -144.21404 9011321
-74.128708 -52.449856 -144.3336 9735044
-73.109177 -52.339737 -144.47748 10590349
-72.09108 -52.22998 -144.61575 10656398
-71.074745 -52.120689 -144.74788 9669507
-70.059883 -52.011734 -144.87453 9274494
-69.046768 -51.903275 -144.99481 7629926
-68.035164 -51.795166 -145.1098 10720651
