# .PCD v0.7 - Point Cloud Data file format
VERSION 0.7
FIELDS x y z rgb
SIZE 4 4 4 4
TYPE F F F U
COUNT 1 1 1 1
WIDTH 1204
HEIGHT 1
VIEWPOINT 0 0 0 1 0 0 0
POINTS 1204
DATA ascii
-187.81541 -43.703808 15.815251 7037274
-188.08188 -43.746159 14.698102 9273978
-151.9388 -42.64967 76.957153 9406590
-152.84982 -42.7644 76.342499 7432805
-153.51358 -43.170097 75.753708 7038307
-187.8224 -43.227558 16.49851 7037274
-188.12685 -42.891766 15.794522 8485487
-188.36223 -42.901062 14.849164 8024937
-188.64056 -42.797112 13.902883 7366495
-188.97031 -42.570686 12.935994 7235421
-151.58388 -41.817104 77.541534 7959144
-152.24199 -41.698902 77.185265 7827563
-152.92093 -41.79718 76.721405 8485237
-188.77217 -41.778603 14.901471 7433311
-188.99677 -41.733521 14.079976 6709332
-189.22659 -41.818371 13.043958 7169626
-189.52162 -41.698196 12.055814 8222060
-151.17889 -40.414604 78.405846 6446169
-151.78233 -40.781677 77.871216 10326667
-152.54494 -40.746803 77.413689 9668995
-189.30264 -41.060978 13.872602 6972503
-189.54822 -40.858974 13.202252 7498590
-189.76341 -40.893448 12.29942 8090474
-190.02789 -40.888687 11.260083 7563874
-150.51445 -39.335808 79.289337 7564392
-151.01427 -39.614479 78.857674 7564392
-151.88713 -39.77533 78.246239 7301220
-189.85519 -40.185001 12.992948 6972503
-190.10156 -39.982754 12.319905 7958888
-190.31741 -40.01741 11.413953 7827046
-190.59517 -39.917797 10.463574 7827046
-190.92996 -39.553333 9.6823854 8485232
-191.16716 -39.431507 8.9253893 7761253
-150.55376 -38.706429 79.540161 7564392
-151.41006 -38.691578 79.015816 8222064
-151.82709 -39.086784 78.584488 5920082
-190.40953 -39.307346 12.108785 7563874
-190.71848 -38.969254 11.390248 7563618
-190.98163 -38.817638 10.575353 8221804
-191.26047 -38.717636 9.621007 9011320
-191.47755 -38.753933 8.70786 8879991
-191.72594 -38.552475 8.0251741 9142651
-150.26546 -37.612671 80.197113 8287342
-150.93964 -37.698147 79.741737 7169890
-151.44191 -37.974411 79.309563 5920082
-191.35335 -38.004314 10.317517 8813686
-191.60187 -37.801231 9.6367998 8945272
-191.81953 -37.836777 8.7220354 8089963
-192.03738 -37.87318 7.8056083 8090219
-192.28667 -37.67115 7.1200004 9209467
-149.48932 -36.392426 81.211746 9274748
-150.25514 -36.713989 80.59642 9932678
-151.05531 -36.865837 80.033936 10854036
-191.91273 -37.121677 9.419858 8813686
-192.16208 -36.918098 8.7362337 8616563
-192.38058 -36.953705 7.8181434 8748661
-192.59918 -36.990139 6.8983436 8617075
-192.84937 -36.78764 6.2098212 8682867
-149.12912 -35.578186 81.791061 10064265
-149.70445 -35.646088 81.40464 9472128
-150.47458 -35.737671 80.887222 9471871
-192.62657 -36.139118 8.0591936 9012089
-192.98294 -35.911522 6.9879737 8485489
-193.24962 -35.873795 5.9884772 12234404
-193.556 -35.679764 5.0649161 12234404
-193.80788 -35.476501 4.3710074 8682867
-149.14069 -34.696991 82.169167 8287598
-150.01653 -34.713169 81.619087 10130058
-150.51149 -35.108395 81.139496 8089963
-193.1684 -35.207291 7.3041511 8616819
-193.58369 -34.824642 6.2304893 10524044
-193.8871 -34.702091 5.2122626 8813941
-194.12373 -34.790672 4.1432166 8221805
-194.37671 -34.58672 3.4462178 9931910
-148.56427 -33.624554 82.995369 10722194
-149.36031 -33.765102 82.440399 8880247
-194.12915 -33.88879 5.4670157 8681842
-194.37698 -33.896015 4.47508 8221549
-194.67802 -33.846931 3.3566334 9734526
-194.94786 -33.694344 2.516187 8089963
-148.13669 -32.635555 83.692825 9932934
-148.76097 -32.722759 83.267685 10459278
-149.42087 -32.667374 82.882812 8288365
-194.69919 -32.994774 4.5436835 9010806
-194.93222 -32.949776 3.6883671 8747635
-195.17078 -33.03825 2.6119969 8353133
-195.46564 -32.789677 1.8155111 8419695
-147.49663 -31.418959 84.621521 12433069
-148.18639 -31.698408 84.071724 8682867
-149.05635 -31.858133 83.462563 9340539
-195.27162 -32.097965 3.6151173 8353134
-195.50562 -32.052616 2.7563221 8287341
-195.7934 -31.950132 1.7701849 11511193
-196.06558 -31.795834 0.92275751 9669504
-196.4427 -31.459831 -0.069040924 14077894
-147.11612 -30.55529 85.345398 9405051
-147.69321 -30.611902 84.968788 10392200
-148.41074 -30.926661 84.291847 8682867
-195.76918 -31.351437 2.7590001 9142904
-196.10904 -31.074051 1.8977178 11774108
-196.50677 -30.805552 0.95515192 10524299
-196.7999 -30.719446 0.072018951 10195079
-197.05304 -30.727297 -0.94003546 8681843
-197.3446 -30.608267 -1.7332865 8681843
-145.53584 -29.246771 87.975227 8616307
-146.18259 -29.293299 87.407928 8418928
-146.76712 -29.610941 86.495308 9602685
-147.41429 -29.859556 85.801575 10260101
-148.05632 -29.837149 85.413414 9405051
-197.27266 -30.094694 0.16636404 9208435
-197.43295 -30.120176 -0.54655707 9208435
-197.64166 -30.153913 -1.4987131 8287592
-137.96225 -28.522961 101.17863 9735043
-138.94487 -28.437704 100.72045 9142649
-140.02634 -28.874016 97.348282 7959144
-140.37666 -28.875231 96.841812 8682867
-140.95667 -28.877254 95.995041 8287853
-141.53183 -28.87928 95.144974 9011320
-142.10155 -28.881298 94.291275 7037274
-142.66655 -28.883316 93.434349 9735296
-143.22591 -28.885332 92.573845 9735296
-143.78044 -28.887342 91.710175 9735296
-144.22021 -28.88895 91.016785 9866371
-144.76508 -28.890957 90.14698 9866371
-145.38951 -28.909613 89.325729 9800579
-146.03781 -28.954641 88.758453 9340030
-137.58791 -27.378824 101.83816 9011576
-138.23547 -27.709242 101.37692 9471871
-138.91029 -27.554533 101.10217 8945783
-137.66316 -26.57711 102.13128 8748660
-138.48787 -26.752628 101.64507 9537664
-137.03545 -25.736 102.79337 7564642
-137.87061 -25.708344 102.3858 8353903
-136.6362 -24.454851 103.52245 6972762
-137.37422 -24.715685 103.04453 6709590
-136.16841 -23.379421 104.20104 7563619
-136.70451 -23.624016 103.83115 8748405
-137.4213 -23.742289 103.42273 11709346
-136.16861 -22.752958 104.45956 7958633
-136.97432 -22.679344 104.08575 11380381
-137.51262 -23.049915 103.66271 12433069
-135.56479 -21.462111 105.2953 7564647
-136.30269 -21.715908 104.82036 8090731
-135.09424 -20.39028 105.97374 7565675
-135.63037 -20.629944 105.60592 8223342
-136.34654 -20.741404 105.20057 8090987
-135.25919 -19.56303 106.23253 8618098
-135.89687 -19.68177 105.86362 8749684
-136.43559 -20.047461 105.44238 9210491
-134.55132 -18.270582 107.12106 8682099
-135.18951 -18.669355 106.63637 8091242
-136.02939 -18.765844 106.17519 9210491
-134.74959 -17.652065 107.27698 10853524
-135.55525 -17.691448 106.85653 9210491
-134.14062 -16.491447 108.06155 9076857
-134.94621 -16.672058 107.58289 10853524
-133.62965 -15.552583 108.81947 8813941
-134.46654 -15.54452 108.37494 8089962
-134.94167 -15.770866 107.95713 8682099
-133.11531 -14.600257 109.86276 8419183
-133.89221 -14.740012 109.35308 7629667
-125.58371 -13.579445 122.61304 8485494
-126.36764 -13.601975 122.19534 11379610
-127.08997 -13.821537 121.42329 7038307
-127.52768 -13.822813 120.96361 7038307
-132.1759 -14.056054 111.60546 10065291
-133.11505 -14.086511 111.03339 9407363
-125.08709 -12.497202 123.30695 9932937
-125.75462 -12.686563 122.89531 7893356
-126.35921 -12.960597 122.48016 11511964
-124.64843 -11.201712 124.05975 9144704
-125.18919 -11.557815 123.64276 8880763
-125.94809 -11.806031 123.16113 7630436
-124.713 -10.488202 124.3213 8354676
-125.4228 -10.576033 123.93027 10920342
-125.9612 -10.803794 123.56731 9341051
-124.66489 -9.6990404 124.67032 9670020
-125.46157 -9.7158918 124.26508 9011576
-124.19799 -8.4897728 125.40176 8222062
-124.9136 -8.7990265 124.91663 8485232
-123.54952 -7.4510808 126.15367 9011577
-124.36779 -7.5797491 125.69165 8419184
-123.1487 -6.4356561 126.75488 9011577
-123.69847 -6.6604161 126.40485 8090219
-124.41005 -6.7432146 126.01496 8748405
-123.14976 -5.4240203 127.16061 8748405
-123.92936 -5.6658397 126.69899 8879991
-122.73634 -4.4048576 127.75254 7827047
-123.47644 -4.4856553 127.3929 9998984
-122.67747 -3.6056015 128.09955 8945784
-123.50712 -3.6134503 127.72951 9340798
-122.08526 -2.7278671 128.71384 10130057
-122.81957 -2.7771294 128.36932 8748405
-121.61036 -1.4127439 129.45183 10130057
-122.38067 -1.6355366 129.02174 9208955
-123.09266 -2.0783775 128.52911 6510930
-121.17942 -0.31451315 130.24086 8089955
-121.83737 -0.49185896 129.81558 9142903
-122.40958 -0.75772202 129.3614 10854036
-120.62883 0.56790841 131.2211 9865854
-121.3372 0.34653825 130.72353 9865854
-121.83817 0.12474509 130.31712 8089955
-114.19054 1.5134014 142.73044 8089963
-115.02431 1.5136828 142.3625 9536894
-119.56464 1.0155843 132.92404 8089963
-120.39808 1.0156732 132.561 10721165
-113.50573 2.7227268 143.51604 9076857
-114.341 2.3646576 143.00415 8090220
-113.0616 3.7837059 144.13599 9208955
-113.84219 3.5585537 143.70143 8419699
-114.62357 3.3328323 143.26625 7038307
-113.10139 4.5451198 144.42271 9537664
-113.84921 4.4724202 144.06348 10524815
-112.60244 5.3819518 144.9774 8682867
-113.43805 5.3869328 144.61044 9077113
-112.60816 6.3004832 145.3425 8682358
-113.35723 6.2291074 144.98352 9406079
-112.10394 7.5413589 146.06279 10326926
-112.95235 7.3904071 145.62808 9077118
-111.68117 8.6017199 146.67484 8089963
-112.30958 8.6081266 146.40024 9208703
-112.88474 8.3818645 146.05571 8485238
-111.11132 9.7568951 147.38965 10787215
-111.68633 9.5308323 147.04536 7958376
-112.43761 9.46173 146.68633 7827049
-111.14994 10.53449 147.68463 10787215
-111.90153 10.466094 147.32578 9932164
-112.478 10.239552 146.98064 9142649
-110.70035 11.620296 148.3187 9143161
-111.27662 11.393882 147.97366 9274235
-111.90722 11.402535 147.69911 9142649
-110.65091 12.323996 148.62283 7827563
-111.49189 12.336318 148.25694 8879734
-110.28777 13.496407 149.25351 8090734
-110.72845 13.220243 148.94835 7630441
-111.44317 13.042468 148.56186 7038307
-109.69506 14.924026 150.3313 9931907
-110.25058 14.448514 149.73792 8682356
-111.00012 14.139956 149.21109 8419697
-108.7634 15.930065 152.1064 10261383
-109.42666 15.945528 151.87189 9931907
-109.71265 15.415285 150.73441 10326664
-105.23808 16.672825 158.18094 7037274
-106.07254 16.682711 157.78271 8089962
-104.812 17.645081 158.7775 8616819
-105.25304 17.356943 158.44891 7103323
-105.96447 17.169868 158.03073 7037274
-104.63763 18.427813 159.17642 8616819
-105.50265 18.307724 158.71118 9142651
-104.20267 19.439886 159.79323 8616819
-104.95322 19.367481 159.40233 9406079
-105.53102 19.128397 159.02768 7564386
-103.73749 20.58802 160.4794 10985367
-104.18037 20.296698 160.14873 9537665
-104.94464 20.356585 159.80443 9734788
-103.6791 21.332973 160.81076 9537665
-104.4314 21.260372 160.4189 9537665
-103.13761 22.408794 161.5282 8880249
-103.89178 22.336302 161.13716 9537665
-104.46995 22.094158 160.75716 10985367
-102.68468 23.575624 162.24608 9538950
-103.26357 23.332357 161.86526 10525587
-103.89632 23.341974 161.56747 10985881
-102.63393 24.333118 162.59607 8026225
-103.39014 24.260252 162.20398 9538950
-102.09093 25.424765 163.32465 10459537
-102.96432 25.302601 162.85539 7302244
-101.78841 26.527805 164.2998 9736071
-102.51183 26.265749 163.70255 10196107
-99.602776 27.910559 167.90686 9077373
-100.615 27.909178 167.31049 11182998
-101.21503 27.511469 165.32011 11182998
-101.82289 27.198505 164.79602 9012606
-153.90358 -43.229229 75.486115 8485747
-154.35014 -43.504894 75.015213 8617333
-154.90237 -43.536007 74.134422 9603201
-155.42285 -43.559509 73.237129 11709089
-155.94327 -43.584579 72.338585 8880764
-156.4639 -43.611038 71.438919 8355191
-156.92899 -43.678116 70.603889 8486263
-157.45685 -43.623455 69.750084 7432807
-157.92223 -43.693039 68.912796 8353651
-158.44154 -43.724651 68.007095 9142651
-158.92419 -43.747471 67.084473 9603201
-159.32008 -43.701004 66.424393 12960181
-159.97542 -43.615288 65.494965 12761517
-160.58058 -43.516762 64.54187 8747891
-161.09285 -43.483898 63.698803 8353904
-161.61652 -43.524311 62.783775 7039331
-162.03589 -43.557774 62.050392 9143933
-162.56042 -43.601017 61.131878 8879991
-163.08551 -43.645695 60.211548 7103835
-163.50597 -43.682533 59.473743 9274493
-164.03206 -43.730057 58.549557 9142651
-164.51501 -43.767338 57.608089 9537409
-164.93489 -43.736553 56.938816 9339771
-165.80139 -43.604134 56.048832 10654857
-166.44084 -43.535194 55.284191 10260099
-166.96866 -43.723759 54.509327 8879222
-167.49631 -43.943298 53.71666 7234397
-167.93747 -43.976898 52.745586 6708565
-168.2518 -43.978775 51.733768 6248271
-168.55969 -43.98064 50.720036 6511956
-168.86195 -43.982449 49.70454 5196868
-171.76811 -43.991447 46.318218 9735812
-171.93407 -43.992554 45.697525 8090987
-172.15192 -43.994034 44.869045 9735297
-172.41843 -43.995872 43.831898 10064261
-172.62764 -43.997341 43.001259 9735296
-175.38771 -44.005993 39.673119 9537666
-175.62338 -44.007812 38.616699 7039331
-175.8071 -44.009266 37.770554 7565161
-178.46329 -44.017639 34.53624 8288624
-178.66797 -44.019444 33.461407 8880503
-178.82687 -44.020878 32.600697 8813683
-181.42749 -44.029331 29.251856 13024949
-181.60031 -44.031116 28.159311 10459019
-181.7009 -44.032185 27.503244 8681835
-184.15919 -44.03965 24.708025 8089963
-184.24695 -44.04071 24.042681 8353131
-184.36046 -44.042118 23.155249 10523527
-186.55028 -43.838268 20.621176 9603458
-186.77324 -43.789421 19.811666 8814713
-187.02963 -43.824108 18.701132 12433069
-187.38916 -43.639389 17.598295 7893098
-153.4431 -42.301903 76.177002 9209467
-153.94896 -42.591526 75.736763 8485747
-154.64787 -42.685696 75.158134 8485747
-155.17647 -42.709469 74.263786 10261131
-155.69795 -42.732624 73.364937 12367019
-156.21948 -42.757278 72.464874 8617335
-156.74115 -42.783306 71.563713 10065037
-157.15855 -42.805172 70.841812 9998730
-157.68047 -42.833939 69.93821 8879478
-158.27272 -42.656536 69.063522 8747893
-158.79535 -42.688046 68.156761 8221548
-159.31819 -42.720886 67.248589 9208443
-159.73674 -42.748264 66.520889 13486781
-160.26015 -42.783844 65.609802 11709087
-160.79163 -42.736027 64.745003 8287084
-161.27501 -42.643253 63.993763 8879477
-161.79987 -42.682808 63.077473 6578004
-162.32515 -42.723709 62.15942 7959144
-162.79428 -42.804531 61.307732 9340285
-163.32863 -42.763054 60.433544 8748148
-163.79863 -42.846409 59.578503 7761509
-164.35753 -42.803352 58.663872 9011065
-164.90347 -42.667587 57.837418 8287342
-165.40681 -42.785488 57.025608 8681839
-165.84225 -42.987534 56.35825 9865597
-166.33728 -42.905525 55.782871 9536888
-187.09474 -42.965683 19.768476 11183514
-187.31824 -42.917095 18.956381 13157559
-187.58536 -42.954624 17.84342 10262667
-187.86237 -42.915611 16.805319 8617331
-153.57893 -41.607315 76.396507 9143419
-154.26987 -41.779514 75.89283 8485747
-154.92834 -41.860611 75.292618 8617333
-155.45081 -41.882065 74.393234 9800836
-155.97337 -41.904816 73.492928 10787731
-156.49597 -41.929104 72.591339 9142650
-157.01871 -41.954735 71.688637 10261387
-157.43698 -41.97625 70.965538 8353390
-157.96002 -42.004482 70.060448 8550513
-158.55338 -41.826435 69.184242 9142651
-158.97238 -41.851063 68.457756 8089962
-159.49631 -41.883209 67.548286 9208443
-160.02057 -41.916626 66.637344 10788244
-160.54518 -41.951618 65.724777 9735299
-161.0701 -41.987961 64.810532 9340027
-161.49039 -42.018139 64.077942 9340027
-162.01616 -42.057137 63.160458 6972505
-162.54227 -42.097588 62.241299 7959144
-162.96359 -42.130974 61.504574 9077370
-163.49074 -42.174149 60.581821 9011320
-164.01836 -42.218697 59.657154 6511954
-164.33522 -42.246082 59.101307 8089963
-187.56738 -42.240051 18.980528 14144454
-187.92549 -41.909298 18.056746 12762545
-188.16159 -41.915466 17.113325 9867653
-188.47827 -41.757103 16.096487 8749428
-188.81244 -41.465488 15.209241 6972503
-152.90939 -40.513268 77.289841 7038307
-153.7011 -40.746986 76.696877 7762027
-154.49899 -41.024521 76.08094 7498856
-188.57014 -40.793388 17.170439 9801860
-188.79523 -40.745686 16.35095 8946807
-189.06415 -40.784912 15.228307 7433311
-189.34319 -40.747005 14.180585 6972503
-152.44661 -39.595932 77.977821 7038307
-153.03104 -39.675564 77.580704 7038307
-153.74223 -39.859043 77.059608 7827308
-189.12048 -39.916096 16.301336 8419951
-189.34622 -39.868504 15.479115 10195334
-189.57748 -39.950367 14.44177 6972503
-189.87396 -39.826904 13.453015 7630176
-152.44044 -38.68956 78.377914 6709341
-153.33516 -38.719643 77.810135 7038307
-189.65253 -39.194012 15.273381 8288624
-189.89899 -38.989605 14.602757 6907743
-190.13103 -39.071861 13.562116 8814454
-190.48093 -38.755325 12.649655 7958376
-190.80293 -38.402348 11.901723 7563619
-151.88211 -37.535591 79.228615 5920082
-152.76512 -37.719746 78.60067 6775388
-153.46854 -38.024628 78.031334 7038307
-190.20624 -38.313637 14.395108 8288624
-190.51529 -37.973431 13.679967 8617332
-190.84032 -37.683804 12.825704 7826791
-191.05786 -37.716297 11.916562 7563619
-191.32515 -37.708923 10.869885 7826791
-151.41684 -36.628155 79.913734 7564389
-152.10333 -36.784157 79.419907 5919308
-152.79259 -36.941635 78.923798 6643287
-191.16985 -36.847404 12.769475 7958376
-191.39807 -36.800259 11.936399 7563619
-191.61627 -36.832901 11.024098 8813684
-191.83449 -36.866325 10.110166 9866374
-192.08379 -36.662216 9.4275408 10261132
-151.05444 -35.807129 80.497345 11116696
-151.71428 -35.674404 80.146347 9537408
-152.35732 -35.858456 79.667282 5919050
-191.70819 -36.120155 11.723111 8813683
-191.95761 -35.914558 11.042325 8418927
-192.17653 -35.947289 10.126821 9866374
-192.39557 -35.980797 9.2096605 8945272
-192.64578 -35.776196 8.5242205 8617075
-150.43146 -34.254379 81.562485 8089963
-151.12039 -34.70351 80.93898 8879479
-152.01187 -34.719025 80.379547 9537152
-192.26883 -35.232819 10.827092 7958888
-192.51918 -35.026634 10.143468 10853012
-192.80156 -34.922634 9.1809359 8419184
-193.04492 -34.862106 8.3076372 9077114
-193.36177 -34.585339 7.4659553 9011065
-193.60315 -34.459938 6.6973319 9010550
-149.96423 -33.35815 82.244003 8288365
-150.4678 -33.624905 81.815132 9143162
-151.24379 -33.711803 81.296082 8879479
-151.75046 -33.981167 80.864151 9142651
-192.83162 -34.343094 9.9261751 10853012
-193.09317 -34.05666 9.3178148 9405823
-193.46002 -33.655491 8.4636889 9340030
-193.69704 -33.739811 7.3998847 8813686
-193.91824 -33.773754 6.4734321 9207928
-194.17107 -33.567741 5.7797446 9931137
-149.99959 -32.729576 82.496796 7367263
-150.85925 -32.695675 81.978714 9670019
-151.2805 -33.080521 81.549393 10260875
-193.94458 -32.920452 7.6418357 9142651
-194.24937 -32.794334 6.6234946 9536636
-194.48744 -32.879639 5.5538154 10391430
-194.74124 -32.672966 4.8570075 9931137
-149.48936 -31.412111 83.389191 8485488
-150.1871 -31.694883 82.832939 7498849
-150.88667 -31.979591 82.274734 9143675
-194.49126 -31.97986 6.8805518 9931137
-194.74043 -31.983912 5.8881507 10062723
-195.04295 -31.93104 4.7694373 9010550
-195.31384 -31.77529 3.9291661 9931905
-148.90562 -30.421705 84.358505 9274747
-149.57465 -30.711 83.71846 8880246
-150.32538 -30.728434 83.222305 7696228
-194.98595 -31.233509 6.0354514 8090987
-195.33044 -31.038038 5.1045966 8222317
-195.68886 -30.915274 4.0701346 9011577
-196.04832 -30.701283 3.0925648 9538433
-196.43964 -30.463705 2.2942936 9274747
-196.59943 -30.488329 1.5862173 11181460
-147.97234 -29.425529 85.839394 10851980
-148.49646 -29.607807 85.349281 11641497
-149.21519 -29.781956 84.746071 10655629
-149.92206 -30.010384 84.101166 8682867
-196.57777 -29.988724 3.2419178 9340798
-196.94194 -29.8773 2.2201664 9471870
-197.18694 -29.831352 1.3526357 10195335
-197.43738 -29.786619 0.48279318 9011317
-197.73441 -29.666027 -0.30988565 8287592
-139.51382 -28.233524 100.51909 9536635
-140.05421 -28.489058 100.14259 9668735
-140.73767 -28.612675 99.695831 8879477
-146.52437 -28.988844 88.331436 8287342
-147.01149 -29.023348 87.902779 8616307
-147.82423 -29.081491 87.185272 9142136
-148.47528 -29.128574 86.608612 9405051
-139.51895 -27.603994 100.77641 8814197
-140.33183 -27.67033 100.339 9011063
-139.05246 -26.516985 101.45912 10392461
-139.7523 -26.711615 101.02772 9011576
-140.33893 -27.0392 100.59814 8089963
-138.4507 -25.212484 102.29948 8090987
-139.12561 -25.68232 101.76698 9471871
-139.8708 -25.949261 101.28291 9471871
-138.45374 -24.583025 102.55778 6446418
-139.26714 -24.641306 102.12566 8748660
-138.00629 -23.642385 103.1705 7367264
-138.72824 -23.761812 102.75911 5920074
-139.27043 -24.009945 102.38465 5920074
-137.3792 -22.202234 104.07957 11906725
-138.12227 -22.617399 103.53544 9406847
-138.91249 -23.002657 102.98003 5920074
-137.38011 -21.572519 104.33907 9604226
-138.30106 -21.671646 103.83617 9933191
-136.93044 -20.63563 104.95135 8485745
-137.7874 -20.713947 104.48915 9341054
-138.19371 -20.99098 104.17094 9341054
-136.50212 -19.211163 105.7542 9210491
-137.0914 -19.663858 105.27177 9275517
-137.83318 -19.986525 104.76639 11051416
-136.5959 -18.543169 105.98293 8025705
-137.42656 -18.699169 105.50183 7498592
-135.95946 -17.71133 106.64558 9210491
-136.77072 -17.751644 106.22198 8683379
-135.55074 -16.429308 107.37981 9735043
-136.09164 -16.664755 107.01128 10064521
-136.76883 -16.802013 106.61486 10525072
-135.57565 -15.550268 107.82272 8747892
-136.37172 -15.695024 107.31771 9998728
-134.52902 -14.517488 109.22643 6510930
-135.19543 -14.749931 108.69194 7695718
-135.8623 -14.983514 108.15622 8813942
-127.63588 -13.426805 121.64989 8484979
-128.12141 -13.69974 120.74794 8484979
-128.54216 -13.825791 119.88474 8878963
-129.11781 -13.827492 119.2645 8089704
-129.83299 -13.829551 118.48511 8221290
-130.40215 -13.831317 117.85883 5919050
-134.05736 -14.117477 110.45792 8879990
-134.813 -14.142615 109.99547 7038307
-126.94238 -12.462218 122.39384 10590091
-127.74708 -12.632111 121.9216 9931651
-126.46688 -11.389684 123.07323 7038298
-127.18038 -11.479525 122.67958 8748914
-127.72115 -11.709091 122.31475 8484979
-126.51295 -10.558434 123.39258 8419949
-127.33561 -10.692942 122.92587 10919825
-126.061 -9.7287607 123.96014 12828337
-126.86228 -9.7461138 123.5524 11117203
-125.41993 -8.4199514 124.81966 7761253
-126.16101 -8.6501722 124.3543 8682611
-126.90329 -8.8814497 123.88803 10327690
-124.91795 -7.3291435 125.51979 7563619
-125.59096 -7.5135126 125.10736 7498081
-126.30783 -7.6414027 124.6963 8879734
-124.98287 -6.6071301 125.78465 8024426
-125.8065 -6.7354236 125.32005 8550770
-124.52243 -5.4775715 126.47997 8616819
-125.1944 -5.5949302 126.09577 8682357
-125.85104 -5.894311 125.64416 9340801
-124.48922 -4.4965982 126.90057 9143420
-125.40648 -4.5792623 126.40796 9012093
-124.07698 -3.5458479 127.49709 8485233
-124.79574 -3.6688781 127.0882 8748661
-123.38953 -2.518739 128.22099 10262156
-124.15692 -2.743412 127.78169 9077625
-124.90598 -2.9684887 127.32147 8682867
-123.59947 -1.495393 128.53911 9011575
-124.3026 -1.9099106 128.05267 9077368
-123.04459 -0.46605301 129.30247 9998727
-123.82104 -0.65224332 128.81889 9143418
-122.48568 0.38942146 130.25255 10459277
-123.31103 0.27028024 129.78879 12630959
-115.44209 1.5138217 142.17805 8287859
-116.27955 1.5142288 141.80849 9932424
-121.65298 1.0157969 132.0146 11115923
-122.49303 1.0159725 131.64891 9867398
-114.93302 2.8776386 142.94778 7038307
-115.66135 2.4239039 142.4449 9208443
-116.38964 1.9692247 141.94168 9537667
-115.12421 3.6772447 143.18285 8550771
-115.77781 3.4891078 142.81912 9142393
-114.47691 4.4754276 143.7876 8089963
-115.22095 4.4331803 143.44217 7235685
-114.48536 5.3933024 144.15083 8089963
-115.23714 5.3212214 143.79016 9274236
-113.95255 6.3871031 144.78442 8813685
-114.81991 6.2706232 144.35512 8682356
-113.5617 7.6931796 145.48087 10655634
-114.13786 7.4671149 145.13608 9274750
-114.71432 7.2405486 144.79095 9142907
-112.99329 8.8474045 146.19473 11379356
-113.56974 8.6212626 145.84976 10655634
-114.32381 8.5517292 145.48936 8617334
-113.03439 9.6240244 146.48825 8945532
-113.78875 9.5552645 146.12802 9932424
-112.58656 10.708593 147.12103 9142649
-113.16429 10.482275 146.77539 9142651
-113.79733 10.490526 146.49957 9933190
-112.53905 11.41134 147.42395 9142649
-113.29449 11.343694 147.06364 7958893
-112.17818 12.582093 148.05295 10787215
-112.61965 12.306248 147.74753 9603200
-113.33649 12.128452 147.36011 7038307
-112.0145 13.335258 148.42734 10458251
-112.88734 13.223461 147.9976 9405566
-111.60902 14.309619 149.02791 8748149
-112.36418 14.243463 148.66443 9471359
-110.98699 15.438988 150.19345 8879221
-111.66354 15.082934 149.59799 8550513
-107.11749 16.695721 157.28421 9142906
-110.09194 15.961288 151.63782 10524043
-110.75925 15.977448 151.40375 11181972
-106.52694 17.470745 157.88068 8484721
-107.39306 17.351475 157.41522 9274235
-106.0584 18.642853 158.57808 9997960
-106.71001 18.356659 158.14883 8484721
-107.42397 18.169641 157.72946 8089963
-106.0949 19.432455 158.87814 9274748
-106.84039 19.393723 158.50323 8089963
-105.57413 20.365532 159.50461 9735043
-106.32728 20.293802 159.11275 9735299
-104.9939 21.601555 160.29532 8813940
-105.6455 21.311924 159.85983 9735043
-106.36108 21.123178 159.43726 9735299
-104.57814 22.597534 160.92198 13550517
-105.15707 22.355789 160.54182 9537918
-105.79066 22.365986 160.24384 9537918
-104.52985 23.351969 161.26953 11248279
-105.37552 23.365816 160.87195 9537918
-103.98971 24.438658 161.9946 10392717
-104.74764 24.366749 161.60202 9537662
-105.32825 24.123075 161.22018 11511449
-103.5369 25.61726 162.71747 7038298
-104.11833 25.372385 162.33476 9537664
-104.87744 25.300474 161.94162 9537664
-103.09406 26.677956 163.75348 9209467
-103.60946 26.414173 163.26231 8156523
-104.33262 26.153294 162.66623 9537664
-101.22303 27.908949 166.95361 9209467
-102.4287 27.561604 164.73889 9209467
-103.2776 27.430426 164.2178 9209467
-167.25079 -43.46772 54.304024 7958120
-167.65271 -43.522503 53.765949 7235162
-168.18979 -43.596535 53.046463 7103322
-168.97043 -43.59449 52.064842 8221804
-169.61861 -43.574928 51.260254 10261644
-170.16135 -43.652737 50.53146 7695716
-170.70567 -43.731701 49.799942 8354159
-171.18176 -43.831856 48.912197 9736580
-171.37192 -43.988842 47.764038 7037274
-171.59972 -43.99033 46.938194 9275005
-174.43555 -43.999004 43.674194 8682867
-174.64366 -44.000481 42.833679 9208953
-174.89789 -44.002296 41.781628 9340542
-175.14619 -44.004162 40.728188 8616823
-177.81137 -44.012131 37.753181 8879990
-178.03503 -44.014011 36.682117 7037274
-178.25261 -44.015831 35.609917 7037274
-180.86121 -44.021622 32.521439 9734527
-181.06259 -44.025745 31.433798 10326921
-181.49667 -43.929935 30.45981 8089963
-182.40009 -43.798885 29.858622 10261387
-183.00044 -43.738407 28.751661 11380380
-183.40381 -43.725433 27.986017 10459019
-183.81403 -43.792908 27.143625 9537659
-184.12749 -43.838161 26.2847 9536636
-184.39574 -43.873569 25.417635 8484463
-185.22798 -43.636246 24.54785 9471358
-185.63675 -43.627369 23.768667 9931910
-186.03212 -43.740368 22.773169 9537408
-186.33118 -43.68438 21.717619 7959145
-186.58926 -43.528854 20.928198 9341054
-166.09203 -42.434555 56.367744 8813683
-166.75052 -42.695702 55.385414 9142390
-167.35062 -42.818886 54.557892 7235162
-167.96132 -42.767921 53.818832 7038040
-168.50436 -42.752773 53.144051 7169370
-169.10249 -42.834637 52.343132 9274749
-169.87154 -42.67408 51.468834 10261644
-170.4014 -43.016457 50.601501 9736836
-170.8103 -43.074818 50.052582 8814966
-184.17204 -43.143394 26.969019 10459275
-184.48119 -43.194328 26.334032 9142135
-184.89417 -43.26302 25.485182 7563619
-185.3884 -43.0294 24.719515 9405308
-185.89594 -42.956825 23.800764 9931910
-186.34229 -42.870506 22.870405 8681843
-186.5854 -42.868969 21.928091 8288366
-186.87512 -42.811035 20.868002 8814710
-187.13383 -42.65564 20.075941 8090987
-155.13351 -41.239738 75.390984 7433318
-155.65683 -41.260921 74.490471 9208956
-156.18016 -41.283428 73.588974 9208443
-156.70357 -41.307396 72.686241 9932423
-157.22708 -41.332623 71.78244 10261387
-157.64603 -41.353897 71.058411 7760997
-158.16982 -41.381836 70.152168 8353390
-158.69389 -41.410999 69.244637 9142651
-159.11328 -41.435432 68.517578 8089962
-159.63782 -41.467258 67.607269 9208443
-160.16266 -41.500446 66.695633 8616819
-160.68784 -41.535103 65.782272 8089963
-161.21335 -41.571129 64.867317 9340027
-161.63406 -41.601021 64.134087 11181972
-162.16035 -41.639763 63.215851 8551023
-162.75964 -41.470806 62.323269 7564386
-163.18169 -41.50383 61.585583 7959144
-163.7097 -41.546364 60.661694 9800837
-164.23825 -41.590347 59.735859 8353646
-164.66151 -41.626598 58.993645 9668995
-165.19121 -41.673267 58.063908 9208701
-165.7907 -41.738735 57.15591 8419441
-166.32359 -41.80537 56.445061 8813683
-166.92259 -41.925472 55.619587 8353132
-167.6591 -41.700565 54.823692 6577491
-168.2836 -41.748562 54.009468 6774869
-168.82669 -41.761139 53.31834 7235162
-169.36098 -41.980621 52.517361 7826790
-186.89038 -41.996052 22.023275 9341054
-187.13013 -41.994045 21.077658 8288366
-187.42053 -41.936478 20.014257 10591120
-187.73363 -41.788269 18.996626 13157559
-188.061 -41.3578 18.343222 13157559
-154.84485 -40.500198 76.095711 8814968
-155.33891 -40.618221 75.48938 7170146
-155.86301 -40.639164 74.587769 8682357
-156.3871 -40.661366 73.68512 9208443
-156.80647 -40.680157 72.962158 10787729
-157.33078 -40.704922 72.057365 9801093
-157.85524 -40.730995 71.151367 9011320
-158.3799 -40.758514 70.243988 8550513
-158.90477 -40.787354 69.335312 9932167
-159.32483 -40.811455 68.607346 8419185
-159.85023 -40.842907 67.695946 7234654
-160.44704 -40.667229 66.81234 7826790
-160.89275 -40.756905 65.993889 8945271
-161.4389 -40.679184 65.125664 7563619
-161.92174 -40.766056 64.246483 12366244
-162.40477 -40.854431 63.365894 10327177
-163.00085 -40.587711 62.548847 7959144
-163.4727 -40.666695 61.693722 6511954
-164.00194 -40.708504 60.768269 8551029
-164.53172 -40.751671 59.840878 8090736
-164.95601 -40.787327 59.097466 8090736
-165.48721 -40.833237 58.166241 9274752
-166.17131 -40.77726 57.240379 9471872
-166.71004 -40.755196 56.574158 11181972
-167.24608 -40.821423 55.859497 9208184
-167.91817 -40.905853 54.962688 6971735
-187.43605 -41.119469 21.171598 8090987
-187.74309 -40.909946 20.269148 9867397
-188.01266 -40.876766 19.252134 10854548
-188.34933 -40.636356 18.278631 9998983
-188.60983 -40.481316 17.478979 8486256
-154.2858 -39.634007 76.820992 9275262
-154.97243 -39.685867 76.372681 8748919
-155.61302 -39.788731 75.620789 7762282
-156.13815 -39.809345 74.717598 8682613
-156.66333 -39.831177 73.813469 15130318
-157.14621 -39.725834 73.072098 13551031
-157.67856 -39.666016 72.214371 12367017
-158.20441 -39.691547 71.306488 9406333
-158.68652 -39.769165 70.435089 9669505
-159.23164 -39.684727 69.573463 9800837
-159.67786 -39.770252 68.757141 7893358
-160.20465 -39.800983 67.843864 7827047
-160.80295 -39.624374 66.958351 8747892
-161.22519 -39.650909 66.225075 8287341
-161.75328 -39.685322 65.306931 8747891
-162.28178 -39.721016 64.387161 13023917
-162.70488 -39.750637 63.650005 10656143
-163.23424 -39.788914 62.726887 9472129
-163.7641 -39.828506 61.801998 8287859
-164.18839 -39.861237 61.060596 8353651
-164.79282 -39.693321 60.158367 9143166
-165.32465 -39.736641 59.227436 7893358
-165.7506 -39.772354 58.481056 8090736
-166.23497 -39.893646 57.678719 9472130
-166.88547 -39.897804 56.856136 11181972
-188.36542 -39.81554 19.439245 9210491
-188.60666 -39.814831 18.485624 9736578
-188.89902 -39.758434 17.412779 8683124
-189.16034 -39.603222 16.610273 8287853
-153.70221 -38.483246 77.685898 7038307
-154.21228 -38.765579 77.246231 8814713
-155.09248 -38.812519 76.677666 8617334
-155.81883 -39.16597 75.719414 8420211
-156.34479 -39.186291 74.815132 8551284
-156.87076 -39.207874 73.909805 11379609
-157.18631 -39.221443 73.366119 11379609
-163.45212 -39.16016 62.809292 9077373
-163.98289 -39.199211 61.883266 7630187
-164.40793 -39.231461 61.140938 9143166
-188.91539 -38.935509 18.575651 10657422
-189.15729 -38.93512 17.619017 9340286
-189.4505 -38.878895 16.542646 9340286
-189.69261 -38.880329 15.582448 10656147
-153.92204 -37.655651 77.911446 7630443
-154.61226 -37.745495 77.44429 9077884
-155.20609 -37.823418 77.042076 8814713
-189.46707 -38.053886 17.7078 8879990
-189.69394 -38.00383 16.884733 7367007
-190.00134 -37.942467 15.75987 10327180
-190.34109 -37.692448 14.788419 9143675
-190.6532 -37.415981 13.96597 10064262
-153.34204 -36.58395 78.739578 6840923
-154.13437 -36.740314 78.180038 7564649
-154.73465 -36.902462 77.737053 8814713
-190.00058 -37.327332 16.680517 8287853
-190.33246 -36.892143 16.016356 10984850
-190.63478 -36.692684 15.117581 11905692
-190.90733 -36.730003 13.983449 9472382
-191.21042 -36.531628 13.080091 11379348
-152.76802 -35.588856 79.530457 6248272
-153.55362 -35.684185 79.00177 7565161
-154.26283 -35.985214 78.430527 9735812
-190.96335 -35.856216 15.06516 13023917
-191.19199 -35.80653 14.234326 8419695
-191.42642 -35.886875 13.18646 8879219
-191.72665 -35.760075 12.186963 7760997
-152.37628 -34.478024 80.25901 8089963
-152.88588 -34.750538 79.823898 6972510
-153.67267 -34.843563 79.295494 8881277
-191.44656 -35.118671 14.252217 8419695
-191.75089 -34.918308 13.346486 7300446
-191.97029 -34.948254 12.433293 7958376
-192.23979 -34.937656 11.382062 8616562
-152.40892 -33.630882 80.609154 8813686
-153.20784 -33.807026 80.036873 9275263
-153.71242 -34.20694 79.549225 9735299
-192.06145 -34.235973 13.134839 9537408
-192.31183 -34.027821 12.454022 8879478
-192.59444 -33.920963 11.494634 8090218
-192.83809 -33.857834 10.624143 10129289
-193.15491 -33.578621 9.7862139 9405822
-151.69984 -32.617611 81.491684 8879735
-152.50418 -32.719582 80.948494 8222064
-192.62347 -33.343739 12.24043 8287341
-192.96069 -32.903957 11.561528 9076857
-193.26772 -32.702679 10.646054 6511954
-193.4892 -32.733124 9.724103 8879734
-193.71074 -32.764339 8.800458 9866374
-193.96356 -32.55637 8.1099138 9537409
-151.32588 -31.531849 82.198265 9867141
-152.01711 -31.675066 81.707069 9143161
-152.71107 -31.819656 81.213699 8419697
-193.52603 -32.008263 10.659268 7037274
-193.8344 -31.806149 9.7400866 9076855
-194.05664 -31.836567 8.8147783 9669250
-194.27904 -31.867741 7.8877692 9537407
-194.5329 -31.659079 7.1942954 8617331
-150.92357 -30.650681 82.921463 7696230
-151.58308 -30.784971 82.415047 9537406
-152.256 -30.922686 81.912674 9405820
-194.14938 -31.117161 9.5206423 8682867
-194.31647 -31.139627 8.8255587 9537662
-194.67181 -30.895947 8.0431795 9143161
-194.89435 -30.975464 6.9717078 8354159
-195.23874 -30.779263 6.042707 8090987
-149.45615 -29.20101 85.740349 12431013
-150.04353 -29.336569 85.000793 8354158
-150.4679 -29.660376 84.168732 7893607
-151.09363 -29.957703 83.42395 9011576
-151.80719 -30.189466 82.772545 9537406
-195.26666 -30.29487 7.4548087 9077368
-195.65134 -30.151907 6.3845801 8946296
-196.06886 -30.014067 5.3587089 9209212
-196.50031 -29.780069 4.5181479 9143419
-196.95262 -29.548689 3.7217228 8879991
-197.1188 -29.572557 2.7755177 11181460
-141.28171 -28.513042 99.401436 9340027
-141.94643 -28.633301 98.935539 8682867
-142.62933 -28.775049 98.268539 9275004
-143.2341 -28.878664 97.293304 9274748
-143.8167 -28.880735 96.42926 9011320
-144.39442 -28.882769 95.562019 8287600
-144.85275 -28.884459 94.865623 9734782
-145.30768 -28.886093 94.167015 9997955
-148.80154 -29.15255 86.319672 8681843
-149.12886 -29.176729 86.030312 10851980
-141.2829 -27.740854 99.739464 9537405
-142.22578 -27.682892 99.178864 8945526
-140.93355 -26.609299 100.44632 10392713
-141.74817 -26.803646 99.861412 9800577
-140.30611 -25.490496 101.25397 8682867
-141.21198 -25.626503 100.70634 9866371
-139.87946 -24.685493 101.80025 9011576
-140.49413 -24.730217 101.47346 8222573
-141.21346 -24.852423 101.04803 9603970
-139.88654 -23.578318 102.25376 7301214
-140.70641 -23.793852 101.75351 8617331
-139.23242 -22.461628 103.0428 6840919
-140.06978 -22.629322 102.55354 6511954
-138.87271 -21.454206 103.63911 10853012
-139.55475 -21.665611 103.20973 6511954
-140.16936 -21.958633 102.78045 6511954
-138.46753 -20.163589 104.37514 11511449
-138.94376 -20.613701 103.95045 10327178
-139.6953 -20.743338 103.51989 6775126
-138.35997 -19.481659 104.71057 12498087
-139.19704 -19.641483 104.22469 11511449
-137.78889 -18.436827 105.42834 9011573
-138.53865 -18.687849 104.94862 11051155
-139.29027 -18.940342 104.46732 6511954
-137.85728 -17.594519 105.74173 10327691
-138.60809 -17.717087 105.31453 8485486
-137.3801 -16.640545 106.37492 9341053
-138.19859 -16.551886 106.00087 9143675
-136.99892 -15.44451 107.18881 10130570
-137.55013 -15.71855 106.7159 10393742
-138.19844 -15.91514 106.26379 8288365
-135.19164 -14.155288 109.76335 7038307
-135.95044 -14.181069 109.29741 9077371
-136.41025 -14.595742 108.32372 8419184
-137.09779 -14.867762 107.6376 8748149
-128.83897 -13.463406 121.03342 7038307
-129.64473 -13.48828 120.62031 7629409
-130.68552 -13.832066 117.54459 8419184
-131.2496 -13.833833 116.91383 7958633
-131.95099 -13.835987 116.12193 9603202
-132.6472 -13.838077 115.32558 8550513
-133.339 -13.840231 114.52532 10261132
-133.88882 -13.841926 113.88206 10064267
-128.34149 -12.372205 121.73149 9208187
-128.98785 -12.544306 121.33743 8682613
-129.6286 -12.840611 120.89511 7958889
-128.27679 -11.464782 122.13753 9472128
-129.1918 -11.53194 121.6524 7368036
-127.91209 -10.562737 122.69126 13814714
-128.63065 -10.652128 122.29526 10788497
-129.17488 -10.882129 121.92839 5921106
-127.96385 -9.6076803 123.0587 11972001
-128.78874 -9.8611755 122.54189 11511964
-127.41508 -8.5009766 123.78881 11050645
-128.0927 -8.688077 123.37303 9142393
-126.86418 -7.5786095 124.44408 8681843
-127.67116 -7.5926304 124.03486 12102817
-126.36111 -6.482645 125.14693 8681843
-126.90521 -6.7086678 124.78178 8681843
-127.62537 -6.7926359 124.3872 9602943
-126.37439 -5.4647503 125.55943 9274494
-127.23598 -5.7674894 125.00404 8879222
-125.98372 -4.4395847 126.17685 9012093
-126.70421 -4.5203433 125.78345 10261132
-127.25046 -4.7458448 125.41751 8681843
-125.93597 -3.6353331 126.53198 8551799
-126.74475 -3.6426709 126.1246 10261132
-125.39931 -2.6425321 127.2091 9669504
-126.14739 -2.8679662 126.74229 9998217
-124.80715 -1.3545408 128.03552 9998213
-125.60464 -1.7075549 127.49153 10656142
-126.35938 -2.0980992 126.95331 10261132
-124.30492 -0.32236463 128.85498 10656913
-125.01249 -0.54532355 128.34677 8682867
-125.70976 -0.76898503 127.82617 10656142
-123.95306 0.4174965 129.62843 9998727
-124.68137 0.34268916 129.24339 8946039
-125.172 0.11933519 128.81866 8682867
-117.53967 1.5148982 141.25237 9735558
-122.91425 1.0160081 131.46567 9867398
-123.54744 1.0161585 131.19012 12630447
-116.88773 2.5783737 141.96513 8814202
-117.65569 2.2753868 141.50504 10460048
-116.3565 3.5674424 142.59492 9536894
-117.10365 3.5243678 142.24783 7893356
-115.79119 4.7114019 143.30154 10851980
-116.50536 4.5315075 142.91444 11050131
-117.1556 4.258884 142.51839 8419184
-115.83541 5.4785099 143.58943 9669250
-116.7062 5.3613224 143.15842 11182489
-115.39153 6.5521646 144.21603 9932681
-116.10711 6.3730884 143.82861 9143165
-116.54701 6.098927 143.52458 7563619
-115.34693 7.2462735 144.51422 9275008
-116.19231 7.2540359 144.14456 8749435
-114.91259 8.5195389 145.21674 8748663
-115.62501 8.4108849 144.85899 9932681
-116.14838 7.9504948 144.44347 9932681
-114.47718 9.797183 145.92154 10855060
-114.91859 9.5222969 145.61655 9340797
-115.63631 9.3439369 145.22845 8092019
-114.43168 10.499049 146.22324 9011576
-115.18996 10.431105 145.86154 8089963
-113.895 11.509116 146.86523 8353136
-114.65354 11.441874 146.50375 9011576
-115.23444 11.214924 146.15651 9011576
-113.91097 12.420652 147.22401 7564393
-114.66376 12.385461 146.87787 8484979
-113.48895 13.391349 147.79965 7958893
-114.249 13.325447 147.43802 8090479
-113.42738 14.262831 148.20819 7695722
-114.20322 14.036844 147.74373 8484979
-112.47976 15.467832 149.5607 9471359
-113.06503 15.18388 149.06564 9734531
-113.73988 14.999834 148.6147 9010808
-108.37408 16.712103 156.68512 8090987
-109.21339 16.723532 156.28513 7564643
-111.20519 15.988386 151.24805 7564643
-112.09998 16.010693 150.93683 9472384
-107.7409 17.682896 157.38081 9866371
-108.5291 17.448828 156.90677 8024938
-109.31754 17.214691 156.43253 7564643
-107.98977 18.473135 157.57881 8418927
-108.73649 18.434914 157.20354 8222061
-107.41799 19.484634 158.26141 9866371
-108.07628 19.288544 157.86519 9405821
-106.67589 20.629921 159.0799 9735299
-107.46685 20.393993 158.604 12234662
-108.25776 20.158102 158.12756 9866371
-106.93433 21.432533 159.29675 10327437
-107.8074 21.313839 158.8291 11116953
-106.42513 22.37653 159.94565 9472127
-107.27218 22.391071 159.54773 9867141
-106.0657 23.629919 160.65614 9537918
-106.50828 23.334803 160.31812 8682867
-107.22713 23.145473 159.89368 8682867
-105.43813 24.63205 161.38669 9537918
-106.01947 24.388775 161.00461 10524555
-106.77956 24.317963 160.61151 10261897
-105.48029 25.481041 161.73163 10393226
-106.2413 25.410101 161.33803 10525069
-104.34767 26.694061 163.11981 9537664
-104.96992 26.522406 162.65195 9142906
-105.592 26.351086 162.18446 9011576
-106.21395 26.180099 161.71738 10261897
-103.88869 27.759048 164.13425 9209467
-104.43079 27.500006 163.68068 9998471
-105.17268 27.422123 163.25055 10853524
-102.01917 28.567951 167.80841 9471875
-102.83547 28.568754 167.33127 8814203
-172.12717 -43.604279 48.084961 7432289
-172.78732 -43.590389 47.261951 8353647
-173.33997 -43.674126 46.517235 9668991
-173.89432 -43.759079 45.769611 9603455
-174.31461 -43.850361 44.849895 7564130
-175.06435 -43.697945 44.054859 8485494
-175.63661 -43.54055 43.076164 9209215
-176.03206 -43.588993 42.275597 9406590
-176.42796 -43.638489 41.473228 9406590
-176.8248 -43.689117 40.669075 7959144
-177.3222 -43.754013 39.661175 9406590
-177.7644 -43.806622 38.638226 8682611
-178.30064 -43.656647 37.856262 10722194
-178.70074 -43.711864 37.042912 11511711
-179.18324 -43.549278 36.243561 8813941
-179.68561 -43.620823 35.220703 8288624
-180.18896 -43.693935 34.194599 9537918
-180.59253 -43.753666 33.371155 7630181
-181.07971 -43.594536 32.559914 7892582
-181.48511 -43.656132 31.731504 7892582
-181.78951 -43.703045 31.10866 8089963
-182.46591 -43.340843 30.09437 8879479
-182.87431 -43.405209 29.257944 12169896
-170.56155 -42.591927 50.648289 9275773
-171.09973 -42.81744 49.838715 8156780
-171.65585 -42.747501 49.179512 7761509
-172.20544 -42.827175 48.441017 8221548
-172.97673 -42.714626 47.535835 8813941
-173.66925 -42.817177 46.603996 7958632
-174.22528 -42.900703 45.85511 8287597
-174.69382 -43.199043 45.080547 6510930
-175.20853 -43.11282 44.239651 7498857
-175.68604 -42.980873 43.423584 8814714
-176.35614 -42.797161 42.277126 7959144
-176.74661 -42.769417 41.546551 10130313
-177.1449 -42.819221 40.741127 10459278
-177.54399 -42.87011 39.933796 7103323
-178.04352 -42.935177 38.921711 9011576
-178.60522 -42.715103 38.015568 10525072
-179.02628 -42.837391 37.108814 10919573
-179.50993 -42.673687 36.308132 7892839
-179.91286 -42.729687 35.48875 8288624
-180.36061 -42.839424 34.540672 8683382
-180.87907 -42.82159 33.557549 7696230
-181.32877 -42.934078 32.603584 7695716
-181.80544 -42.86554 31.740984 7301215
-182.22571 -42.835857 30.955965 7037274
-182.71788 -42.677402 30.134775 7497567
-183.12718 -42.74086 29.297297 8748148
-183.58202 -42.859692 28.328432 8419700
-184.09383 -42.776638 27.409643 10788239
-184.65207 -42.749092 26.357695 9207671
-185.15158 -42.594143 25.51959 8089705
-185.65265 -42.439697 24.678007 9800066
-186.06892 -42.509396 23.822172 9010808
-186.38168 -42.562401 23.178587 8089963
-169.1124 -41.503075 53.109715 8681835
-169.51938 -41.557129 52.56567 7826790
-170.11992 -41.860836 51.631897 8616563
-170.88223 -41.741787 50.741837 8420208
-171.43013 -41.817688 50.007618 8420464
-172.06073 -41.681412 49.293488 8749428
-172.61238 -41.759243 48.553455 11051160
-173.09222 -41.903072 47.865265 9998215
-173.63847 -42.133018 47.04298 8353390
-177.78511 -42.216259 39.986893 7103323
-178.18561 -42.267525 39.176537 9011576
-179.05022 -41.921921 37.787209 7039331
-179.35216 -41.962013 37.174778 9012606
-179.75525 -42.01619 36.356625 9012606
-180.24112 -41.851875 35.551979 8617331
-180.64595 -41.907909 34.72905 9011833
-181.14677 -41.901176 33.771076 8091243
-181.64252 -41.817318 32.883831 7235934
-182.1398 -41.734108 31.993277 8617330
-182.6445 -41.730568 31.025213 8484461
-183.05421 -41.791809 30.188745 9471355
-183.46475 -41.854107 29.349749 8024428
-183.87616 -41.917477 28.508291 9011835
-184.28847 -41.98193 27.664217 10064519
-184.80705 -41.895393 26.735231 9076342
-185.3325 -41.722481 25.861395 8221291
-185.86615 -41.713924 24.841772 10062980
-186.32864 -41.837547 23.85433 8089963
-186.68546 -41.893631 22.987013 9668738
-186.92894 -41.686981 22.331686 11906725
-167.93974 -40.46701 55.192951 8024422
-168.60608 -40.727978 54.200489 7498077
-169.21362 -40.850365 53.364006 8748144
-169.83212 -40.797565 52.616295 8156011
-170.3821 -40.780853 51.933659 8419183
-171.00169 -40.788921 51.148933 8616562
-171.69594 -40.733181 50.307514 7827814
-172.30403 -41.040794 49.361996 8288621
-182.79366 -41.05159 31.275751 6313807
-183.30673 -41.126812 30.229269 12432037
-183.80276 -40.966011 29.402323 9472129
-184.21547 -41.028194 28.559408 8288115
-184.7009 -40.960831 27.678907 9275006
-185.21466 -40.709328 26.889799 9405306
-185.63077 -40.774075 26.038206 9142135
-186.04788 -40.839878 25.183882 10260615
-186.46594 -40.906757 24.326849 8682100
-186.93707 -40.980316 23.244879 9142394
-187.29114 -40.882168 22.099173 8683124
-187.62123 -40.51263 21.344046 9143675
-166.63776 -39.429371 57.443302 10261132
-167.16772 -39.638496 56.652481 12761002
-167.63507 -39.767998 55.987373 11643037
-168.17433 -39.833714 55.268856 8485231
-168.88437 -39.826736 54.377884 8814453
-169.57297 -39.722839 53.571362 8485488
-170.15878 -39.771526 52.805317 9405822
-170.70128 -39.930481 52.029285 10129289
-171.11258 -39.983944 51.48016 9405822
-186.30672 -40.167725 25.217844 9734787
-186.72577 -40.233685 24.359625 9340030
-187.20837 -40.149628 23.429853 8024170
-187.55992 -39.877117 22.534925 8814454
-187.92769 -39.636349 21.43865 9275004
-188.15935 -39.711117 20.410383 9472895
-188.40457 -39.504429 19.748487 9210491
-155.6198 -38.449215 76.472031 7959661
-156.02489 -38.542545 75.818169 9077883
-156.55154 -38.562599 74.912712 9143419
-157.07834 -38.583858 74.006271 9142905
-157.49982 -38.601883 73.280251 8616816
-158.02682 -38.62558 72.371658 12630442
-158.55402 -38.650509 71.461853 9538175
-158.97595 -38.67144 70.733032 10459275
-159.50359 -38.698845 69.820801 11511194
-160.0314 -38.727474 68.90715 7038307
-160.55963 -38.757549 67.991982 6774618
-161.08813 -38.788822 67.075363 7563618
-161.51128 -38.814888 66.340843 7366239
-162.04053 -38.848679 65.421181 9998214
-162.6424 -38.67416 64.528076 11907496
-163.06667 -38.703079 63.789425 7893614
-163.67018 -38.53067 62.891842 7630187
-164.20189 -38.569157 61.96463 7630187
-164.6277 -38.600964 61.221394 8090736
-165.16049 -38.642025 60.290459 8945787
-165.69385 -38.684341 59.357563 9143166
-166.12109 -38.719215 58.609673 7630955
-166.66602 -38.818512 57.766239 9406850
-167.34213 -38.808834 56.91954 11775138
-168.02481 -38.712502 56.115433 12827826
-168.56599 -38.776657 55.395496 10459534
-169.04073 -38.833672 54.763565 10327692
-169.65276 -38.908222 53.948166 7827302
-187.92223 -38.975441 22.445921 8617331
-188.16763 -38.766968 21.785917 8090987
-188.43825 -38.798141 20.668653 9933446
-188.70876 -38.830589 19.549643 9539455
-188.9547 -38.623631 18.885443 10657422
-155.74045 -37.630783 76.746658 7169889
-156.29991 -37.710411 75.949989 8090731
-156.72205 -37.726036 75.224487 8748660
-157.24989 -37.746731 74.316673 8156266
-157.77783 -37.768631 73.407776 8616816
-158.30591 -37.791939 72.49765 8617073
-158.8342 -37.816441 71.586334 8682867
-159.25699 -37.836967 70.856323 10459275
-159.86516 -37.708473 69.919586 9669250
-160.38562 -37.68285 69.057457 7432804
-160.8093 -37.706192 68.323929 7169888
-161.33922 -37.73658 67.405663 8090474
-161.86946 -37.768188 66.485802 7432289
-162.31883 -37.85725 65.661484 8880248
-162.89719 -37.618717 64.854042 10657430
-163.42902 -37.653881 63.928997 9012350
-163.90416 -37.729458 63.07077 7038307
-164.4449 -37.681511 62.190273 8485238
-164.92101 -37.759361 61.328793 7761515
-165.34818 -37.791424 60.583057 7827049
-165.88275 -37.832752 59.648876 8353648
-166.41798 -37.875317 58.71273 8618105
-166.98669 -37.71376 58.010365 9736071
-167.60762 -37.838524 57.154274 11446431
-168.33713 -37.866791 56.218033 13551549
-188.70764 -37.961811 20.850126 10854036
-188.98863 -37.915672 19.807112 11380887
-189.25992 -37.948471 18.68469 11380887
-189.50656 -37.741245 18.017973 10064009
