# .PCD v0.7 - Point Cloud Data file format
VERSION 0.7
FIELDS x y z rgb
SIZE 4 4 4 4
TYPE F F F U
COUNT 1 1 1 1
WIDTH 1196
HEIGHT 1
VIEWPOINT 0 0 0 1 0 0 0
POINTS 1196
DATA ascii
58.327957 -7.922677 -191.07993 13419963
59.177628 -8.1587114 -190.58937 12367019
60.051903 -8.152545 -190.18495 10458766
60.706886 -8.1480217 -189.88185 11709089
128.11592 -7.9996042 -151.48308 6511954
128.77351 -7.80334 -150.93709 9406078
129.61235 -7.7025499 -150.16446 9077113
130.38234 -7.746664 -149.38545 7828331
131.11926 -7.502667 -148.78601 8552312
53.338711 -7.2307858 -193.68073 8090987
54.09177 -7.0626502 -193.39801 11708578
54.909695 -6.975492 -193.05244 14603214
55.767315 -7.2129402 -192.55765 13946820
56.647888 -7.2067633 -192.15025 13749697
129.73341 -6.9072781 -150.45139 9011321
130.52238 -6.7346115 -149.7644 8814713
131.29315 -6.7793384 -148.98438 11512481
131.93579 -6.6961923 -148.39549 10196623
132.5412 -6.5329151 -147.88405 11512481
130.88185 -5.8955989 -149.83951 11050901
131.52567 -5.812201 -149.24956 13551549
132.20665 -5.8094835 -148.58199 11973032
132.88731 -5.8069172 -147.91466 10327695
133.45676 -5.5630078 -147.47981 8616563
131.87115 -5.0842056 -149.28189 13551549
132.44119 -4.8394194 -148.84686 12235690
133.12308 -4.8370247 -148.17831 10262415
133.80461 -4.8347316 -147.50998 8616563
134.44901 -4.7517738 -146.91925 8090218
132.78839 -4.1092968 -148.87866 13024949
133.39677 -3.944947 -148.36488 11775140
134.0423 -3.861762 -147.77324 9538435
134.72473 -3.8597164 -147.1039 9603715
135.40695 -3.8577714 -146.43472 7432806
135.97879 -3.6128061 -145.998 8682867
134.22108 -3.1299787 -147.97124 8880763
134.96446 -2.8836441 -147.36681 9537667
135.64786 -2.8818212 -146.69643 8419702
136.33105 -2.880024 -146.0262 8814454
137.07503 -2.6339629 -145.42101 9208953
135.3158 -2.1489902 -147.39679 8419702
135.92645 -1.9840695 -146.88115 9340289
136.57396 -1.9008217 -146.28758 9274749
137.25818 -1.8991719 -145.61624 9274747
137.90584 -1.8159653 -145.02254 8748405
138.51698 -1.6511767 -144.50623 7563619
136.75667 -1.1642072 -146.48418 8616822
137.54959 -0.91667497 -145.92638 8879991
138.23517 -0.91512227 -145.25371 8419440
138.92064 -0.91364479 -144.58113 10524043
139.71548 -0.66618335 -144.02145 11049871
140.22997 -0.66507435 -143.5166 9867657
82.927353 -13.757079 -177.28015 9537403
83.776924 -13.756098 -176.88519 8418927
84.626511 -13.755367 -176.49005 9077625
85.476151 -13.754937 -176.09479 10129289
86.400879 -13.939616 -175.53264 9800324
87.385773 -14.031096 -174.98923 9011320
88.369186 -13.984601 -174.548 8353648
89.211174 -13.984386 -174.13753 8879990
90.052216 -13.984344 -173.72487 8353135
90.892426 -13.984425 -173.3101 9208701
91.731766 -13.984655 -172.89314 10327437
92.570122 -13.98506 -172.47408 8814457
93.433617 -14.095009 -171.85558 10787987
94.488686 -14.203206 -171.10199 11906468
95.306389 -14.20184 -170.64723 11774883
96.121918 -14.200474 -170.18858 11182489
96.935272 -14.199103 -169.72597 9208443
97.746338 -14.19773 -169.25946 8090995
98.555161 -14.196356 -168.78912 9933958
99.562851 -14.194635 -168.19539 8486512
100.56724 -14.192912 -167.59612 9801605
101.36803 -14.19153 -167.11215 9734788
102.1665 -14.190147 -166.6243 8419184
102.96262 -14.188761 -166.13274 6511187
103.75628 -14.187374 -165.63722 9011320
104.54756 -14.185985 -165.13795 8089963
105.53326 -14.184245 -164.50835 9274749
106.5153 -14.182505 -163.87315 12432040
118.29766 -13.822183 -158.15706 8814195
118.80941 -13.814933 -157.65807 8814195
119.49103 -13.805518 -156.99319 10261126
120.34177 -13.794189 -156.16319 7563619
79.241577 -12.821533 -179.37251 7564651
80.305878 -12.818701 -178.87836 7959152
81.334465 -13.052398 -178.30544 9077375
82.185287 -13.050815 -177.91013 9668991
83.035995 -13.049484 -177.51468 8418927
83.886658 -13.048452 -177.11916 8221549
84.737404 -13.047694 -176.72353 8747892
85.588181 -13.047235 -176.32773 10129289
86.651794 -13.047054 -175.83279 9734531
87.715599 -13.047304 -175.33762 9208443
88.566879 -13.04782 -174.94118 7827563
89.41835 -13.048635 -174.54456 8353648
90.230637 -13.286054 -174.07083 8090734
91.082275 -13.287469 -173.67393 8682615
91.721222 -13.288668 -173.37598 8288371
118.91415 -13.339285 -157.7979 9406590
119.64906 -13.09207 -157.20207 8682610
120.33062 -13.083328 -156.53691 7563619
121.12403 -13.026151 -155.78664 7826790
121.91481 -12.827161 -155.11136 11905692
75.325256 -11.888998 -181.57098 7958888
75.96595 -11.886395 -181.27388 7959144
76.819916 -11.883109 -180.87776 8354166
77.639656 -12.117018 -180.40198 9538438
78.492645 -12.114231 -180.00606 10064782
79.480309 -12.064047 -179.56662 8485752
80.489441 -12.156164 -179.05986 8551031
81.4767 -12.106611 -178.62029 8616821
82.328972 -12.105026 -178.22426 8813941
83.18119 -12.103717 -177.82812 8813683
84.033432 -12.102682 -177.4319 8945269
84.885635 -12.101872 -177.03558 8617081
85.737938 -12.101338 -176.63916 9997961
86.76548 -12.337903 -176.06561 9142394
87.830727 -12.338 -175.56973 9735299
119.9781 -12.375101 -157.24467 8090987
120.54293 -12.130301 -156.81471 9274234
121.31622 -12.168916 -156.03537 9537149
122.15469 -12.064468 -155.26492 12300711
122.98006 -11.865625 -154.55556 11643036
72.458893 -10.952352 -183.28241 9735045
73.580238 -11.105392 -182.69887 9340289
74.354408 -11.181144 -182.30803 9011321
75.210197 -11.177505 -181.91116 7564386
76.065651 -11.174141 -181.5144 7959144
76.920731 -11.171003 -181.11769 9669764
77.775505 -11.168091 -180.72101 11972519
78.630005 -11.165454 -180.32434 12235693
79.697868 -11.162481 -179.82858 8288374
80.765434 -11.159862 -179.33278 8156529
81.619301 -11.158024 -178.93607 8222573
82.389893 -11.235765 -178.54614 8814198
83.290405 -11.39265 -178.06383 9142647
84.14373 -11.391613 -177.66707 10327434
121.47782 -11.24616 -156.34749 9143161
122.29135 -11.158156 -155.59325 10590605
123.14272 -11.149617 -154.76118 10787726
123.78452 -11.064024 -154.17433 10261125
124.38755 -10.899654 -153.6658 10787726
66.617317 -9.5527134 -186.56508 9011576
67.265228 -9.5487518 -186.26511 9011576
68.180428 -9.7029305 -185.7771 9274748
68.930489 -10.017477 -185.30125 9274494
69.84288 -10.17151 -184.81453 9603716
70.621101 -10.246899 -184.42201 9077886
71.695343 -10.241408 -183.92421 8814458
72.768799 -10.236238 -183.42668 8879995
73.627007 -10.232346 -183.02882 8879995
74.484718 -10.228703 -182.63107 9998216
75.342003 -10.225262 -182.23349 7959144
76.198921 -10.222096 -181.83594 7564386
77.055519 -10.219083 -181.43846 8288109
77.911789 -10.216317 -181.04108 11709348
78.857445 -10.332631 -180.55406 13419965
80.016365 -10.448612 -179.96791 8683131
80.657738 -10.447108 -179.67007 7564651
122.45335 -10.440292 -155.80051 10261641
123.26178 -10.090896 -155.18451 9603710
124.09635 -9.9467201 -154.43822 9208437
124.77732 -9.9409552 -153.77213 9274491
125.47472 -9.6165571 -153.25253 8748404
126.07867 -9.4524498 -152.74303 8287853
63.047829 -8.6147375 -188.60432 9603458
63.916767 -8.6091309 -188.20215 8879991
64.756256 -8.8442822 -187.71671 9537665
65.622978 -8.8389511 -187.31548 10131337
66.488846 -8.8338223 -186.91452 11643552
67.353943 -8.8288689 -186.5139 9669250
68.218307 -8.8241177 -186.11354 12629933
69.051613 -9.0593615 -185.63092 10853267
69.9142 -9.054862 -185.23128 9275008
70.945534 -8.9899445 -184.7774 8551543
71.96682 -9.1134796 -184.25229 8288115
72.928513 -9.0408306 -183.83395 7827822
73.75621 -9.2767839 -183.35367 7959408
74.61541 -9.2733641 -182.95517 9866885
75.391609 -9.3500948 -182.56302 9143162
76.299187 -9.5061693 -182.0777 7235421
76.942444 -9.5040627 -181.77913 6511954
124.40925 -8.8258162 -154.70287 9011576
125.05302 -8.7408028 -154.11378 9340285
125.73478 -8.7357845 -153.44659 9274492
126.41589 -8.7309179 -152.77994 8682612
127.15254 -8.4860487 -152.18117 9669766
59.229855 -7.6743031 -190.76019 12367019
60.323425 -7.6669765 -190.25421 11709089
61.388287 -7.901792 -189.66396 9471871
62.260277 -7.8961782 -189.26041 7103835
63.131229 -7.8908172 -188.85716 9011320
64.001282 -7.885581 -188.45439 10261132
64.870331 -7.8805461 -188.05191 9999239
65.738571 -7.875689 -187.64973 10131337
66.605972 -7.8709579 -187.24796 10460046
67.472557 -7.8663764 -186.84648 9012344
68.338371 -7.8620729 -186.44519 12958385
69.203529 -7.8578696 -186.04428 12300712
70.253052 -8.0935583 -185.46082 9208701
71.332085 -8.0887041 -184.96059 9011323
125.38971 -8.0172729 -154.15233 10261132
125.95731 -7.7725673 -153.71959 9735043
126.63955 -7.7680483 -153.05162 10656661
127.32119 -7.7638297 -152.38411 8748923
127.96441 -7.6797175 -151.79507 7038307
55.816681 -6.7256861 -192.73097 14077894
56.698036 -6.719759 -192.3231 13749697
57.55267 -6.9574103 -191.82964 13815490
58.568012 -6.9022651 -191.37926 12828594
59.609966 -6.9928513 -190.85783 11445917
60.622253 -6.938087 -190.40877 9471871
61.496761 -6.932919 -190.00386 8616306
62.370255 -6.9278774 -189.59933 6774870
63.24271 -6.9229884 -189.19521 6775126
64.114235 -6.9182758 -188.7915 10524560
64.984818 -6.9137135 -188.38815 10196363
65.772415 -6.9902859 -187.99072 10854804
66.694023 -7.1468534 -187.49866 9802372
67.56176 -7.1426463 -187.09659 8682867
126.9021 -6.8824406 -153.24565 12564399
127.54665 -6.798233 -152.6554 8156787
128.22891 -6.7944379 -151.98703 7038307
128.91066 -6.7908196 -151.31915 6643542
129.47888 -6.5466123 -150.8855 9735043
55.203819 -6.2418199 -193.2112 14077894
55.956348 -6.0741515 -192.92845 14077894
56.910767 -5.9381652 -192.539 13946564
57.95771 -6.0296235 -192.01492 13354938
58.974274 -5.9750361 -191.56377 12631215
59.852505 -5.9701638 -191.15701 11643808
60.729603 -5.9654164 -190.75067 9603457
61.605591 -5.9608459 -190.34482 9340030
62.398506 -6.0378094 -189.94475 8747893
63.326534 -6.1951661 -189.44942 7103835
63.981136 -6.1918926 -189.14613 11380380
127.88706 -6.0712218 -152.69203 7038307
128.45627 -5.8260884 -152.25793 7038307
129.13913 -5.8227916 -151.58873 6511962
129.82153 -5.8196216 -150.91992 7695720
130.46596 -5.7360568 -150.32945 9866372
57.290421 -5.2517571 -192.63889 13880771
58.262829 -5.083528 -192.25401 12302250
59.0527 -5.2426009 -191.82236 12631215
59.932022 -5.2382255 -191.41489 11709857
128.79825 -5.0970259 -152.29408 7169890
129.40631 -4.932344 -151.78078 7169890
130.05199 -4.8486414 -151.18921 7103841
130.73514 -4.8458948 -150.51953 8879735
131.53192 -4.7942271 -149.76321 12367017
130.22545 -4.1184192 -151.39177 8287856
130.96759 -3.8719871 -150.78851 6775133
131.65147 -3.8695638 -150.11794 8090478
132.44925 -3.8181379 -149.36046 11906726
133.24809 -3.6206908 -148.67661 9341571
131.31364 -3.1388438 -150.82286 5920082
131.9234 -2.973958 -150.30809 5920082
132.57053 -2.8904781 -149.715 7565418
133.42592 -2.8879349 -148.87601 8749435
134.34053 -2.6410062 -148.10361 8682358
132.84436 -1.9920117 -149.9048 6973282
133.49243 -1.9085131 -149.31081 9406593
134.34889 -1.906284 -148.47057 8221549
135.16798 -1.8224994 -147.70868 9011581
135.77888 -1.6575782 -147.19281 10261132
133.84268 -1.1709379 -149.34331 9011320
134.48471 -1.0055553 -148.8602 9603713
135.23059 -0.97104788 -148.15775 9274750
136.09644 -0.87074232 -147.39629 9208702
136.97116 -0.6721983 -146.71417 8813942
93.983665 -13.767204 -172.13022 10656915
94.836433 -13.770118 -171.73215 9276035
95.689659 -13.773279 -171.3338 8684155
96.543419 -13.776791 -170.93504 9208443
97.397781 -13.7806 -170.53586 9735302
98.252731 -13.784708 -170.13628 11379609
99.108398 -13.789065 -169.73622 9209465
99.96476 -13.793773 -169.3358 9209727
101.03625 -13.800107 -168.83452 7038307
102.10897 -13.806857 -168.33255 7695720
102.96809 -13.812659 -167.93039 5919050
103.82806 -13.818759 -167.52771 6642773
104.68894 -13.825107 -167.12437 8090475
115.21549 -13.869702 -161.16092 8092011
115.90212 -13.858594 -160.49203 6972762
116.75909 -13.845138 -159.65694 9209467
117.44342 -13.834767 -158.98988 8090986
117.95614 -13.827217 -158.49004 10064003
90.309555 -12.813398 -174.22453 8090734
91.161995 -12.814763 -173.82722 8288371
92.05896 -12.974152 -173.34557 8683128
92.827347 -13.054718 -172.95546 7301479
93.893898 -13.057571 -172.4579 9209728
94.961166 -13.060824 -171.95987 8947327
95.815575 -13.063785 -171.56102 9604743
96.670502 -13.067042 -171.1618 9209727
97.526031 -13.070526 -170.76224 8090995
98.382217 -13.074357 -170.3622 11774110
99.239067 -13.078438 -169.96175 12563624
100.09659 -13.082819 -169.56088 10985365
101.07481 -13.135706 -169.08426 8748409
102.19883 -13.332534 -168.48183 8287859
102.84366 -13.336621 -168.18007 5919050
116.0047 -13.381585 -160.63469 5920074
116.74232 -13.132488 -160.03708 8420208
117.59904 -13.120049 -159.20175 8617330
118.28329 -13.11043 -158.53445 9735039
119.01909 -12.862885 -157.9379 10064777
86.841423 -11.864202 -176.2211 9405566
87.907608 -11.864298 -175.72482 9998727
88.721977 -12.101538 -175.25026 9669504
89.574997 -12.102201 -174.85295 9143161
90.428268 -12.10309 -174.45543 8682614
91.281868 -12.104252 -174.05769 9340543
92.135796 -12.105714 -173.6597 8551543
93.126534 -12.060251 -173.21689 8617335
94.135986 -12.157587 -172.70786 9801350
95.127861 -12.112824 -172.26422 9604743
95.983871 -12.115407 -171.86478 9341827
96.840363 -12.118337 -171.46498 10525841
97.611679 -12.200441 -171.07291 10262157
98.511971 -12.362607 -170.58859 10524559
99.155357 -12.365449 -170.28793 13023917
117.2405 -12.410986 -159.91588 9209467
117.80704 -12.164732 -159.48505 8419695
118.49238 -12.155685 -158.81635 8090730
119.1768 -12.146988 -158.14842 10064777
119.82102 -12.059625 -157.56012 10064777
82.722771 -10.918656 -178.519 8090987
83.363342 -10.917653 -178.22128 8814195
84.217384 -10.916615 -177.82416 11183003
85.034286 -11.153228 -177.34859 9735559
86.023781 -11.105079 -176.90749 8287858
87.033356 -11.199715 -176.39946 9142650
88.023132 -11.152194 -175.95796 9471871
88.87748 -11.152431 -175.56026 10130055
89.732056 -11.152943 -175.16229 10064004
90.586922 -11.153629 -174.76413 9603714
91.442009 -11.154613 -174.36572 8089963
92.297508 -11.155849 -173.96706 9472386
93.273613 -11.205135 -173.49292 9472128
94.396591 -11.397899 -172.89267 10853780
95.25322 -11.400105 -172.4931 9933707
118.74174 -11.27741 -159.01961 8550514
119.44036 -10.95016 -158.50023 10064777
120.12524 -10.942404 -157.83139 12038567
120.75372 -11.031033 -157.16869 12695469
121.32172 -10.929647 -156.66243 10261641
79.230446 -9.9743118 -180.52483 13419965
80.086533 -9.9721222 -180.12727 7564651
80.989983 -10.128835 -179.6436 8353903
81.762337 -10.206614 -179.25282 9669251
82.617683 -10.205075 -178.85536 9143163
83.472954 -10.203736 -178.45789 9801094
84.328178 -10.202646 -178.0602 10459281
85.183434 -10.201758 -177.66254 9735559
86.252594 -10.200958 -177.16524 7827821
87.32196 -10.200482 -176.66772 9340029
88.17765 -10.200367 -176.2695 9735299
89.033531 -10.2005 -175.87115 9208443
89.805084 -10.280222 -175.47989 9998727
90.706146 -10.439772 -174.9962 10590609
91.562492 -10.440578 -174.59737 9340286
120.43056 -9.8216505 -158.10345 10392970
121.07863 -9.8789253 -157.43747 11905439
121.70736 -9.9686108 -156.77409 9538175
122.37833 -9.8664293 -156.16702 10459019
123.18234 -9.4758835 -155.57646 9735554
73.853371 -8.5582371 -183.59793 8813944
74.713745 -8.5549421 -183.1989 9735299
75.623108 -8.7113266 -182.71255 9143162
76.399643 -8.7884932 -182.32005 7564386
77.281021 -8.9291363 -181.85323 7828332
78.184555 -8.9537287 -181.42279 10392975
79.20005 -9.0790596 -180.89967 11314848
80.227104 -9.0167255 -180.44676 9735046
81.084518 -9.0148144 -180.04846 7564643
81.941757 -9.0130739 -179.65012 8485489
82.798973 -9.011549 -179.25175 9208957
83.656136 -9.0102234 -178.85333 9407364
84.455551 -9.1048174 -178.44315 10394002
85.332947 -9.2473621 -177.97736 9011838
86.277977 -9.3660517 -177.48975 8024940
87.436928 -9.4848814 -176.9024 9011320
88.079453 -9.484726 -176.60338 9208443
121.40888 -9.0115776 -157.5558 9208696
121.97682 -8.765872 -157.12317 9208953
122.6617 -8.7599478 -156.45335 10787728
123.34583 -8.7542267 -155.78412 9604225
123.99064 -8.6689768 -155.19423 9603969
70.314873 -7.6121497 -185.62601 9274236
71.394897 -7.6074772 -185.12524 9011323
72.226425 -7.8444901 -184.64272 8813945
73.088882 -7.8410664 -184.24272 7564651
73.950783 -7.8378177 -183.84288 9076601
74.812233 -7.8346949 -183.44318 9208443
75.673271 -7.8317714 -183.04355 9603457
76.533958 -7.8290243 -182.6441 8682613
77.394318 -7.8264537 -182.24469 9406851
78.469246 -7.8234115 -181.7455 10064267
79.543823 -7.8206635 -181.24634 9077626
80.403282 -7.8186679 -180.84702 9143163
81.226852 -8.0569181 -180.3678 7564643
82.085655 -8.0552235 -179.96873 8617075
122.91819 -7.8748212 -156.65311 9143675
123.56442 -7.7894683 -156.06177 10065545
124.34046 -7.8319454 -155.27766 9143163
125.13126 -7.6577153 -154.58968 9603457
66.101036 -6.6662536 -187.96831 13024949
66.752853 -6.6631346 -187.66621 9802372
67.621315 -6.6591249 -187.26361 10261899
68.594978 -6.8479824 -186.73436 11050646
69.622551 -6.9400702 -186.21901 11182231
70.624229 -6.8875909 -185.77394 9011064
71.489204 -6.8841376 -185.3727 9471359
72.35363 -6.8808351 -184.97169 9734788
73.217537 -6.8776584 -184.57077 8353393
74.080948 -6.8746319 -184.17001 9800836
74.943878 -6.8717561 -183.7695 9735299
75.806404 -6.8690562 -183.36906 9340285
76.668533 -6.866456 -182.96872 8814453
77.711578 -7.1044626 -182.38745 9209472
78.572685 -7.1021152 -181.98744 10064267
123.9002 -7.0627427 -156.10271 10263180
124.46935 -6.817009 -155.66902 9538689
125.32539 -6.8115158 -154.83084 9668995
126.18048 -6.8061996 -153.99347 8945272
126.74922 -6.5612907 -153.55981 10261132
62.72694 -5.7119789 -189.92325 8418928
63.382595 -5.7088528 -189.61929 6511954
64.309731 -5.8663945 -189.12427 10919830
65.099709 -5.9436803 -188.72549 8814715
65.970924 -5.9397173 -188.32156 10262412
66.841255 -5.9358802 -187.91795 11512222
67.847214 -5.8831186 -187.4709 9932934
68.877525 -5.9758816 -186.95395 9801092
69.881599 -5.9234481 -186.50763 8813429
70.748672 -5.9201913 -186.10527 9011064
71.615158 -5.9170351 -185.70314 9274236
72.481094 -5.9140053 -185.30125 9274494
73.26358 -5.9920106 -184.90559 9537664
74.178726 -6.1502862 -184.41589 10459022
74.826828 -6.1483221 -184.11502 10262156
124.80663 -6.0884557 -155.70955 8814198
125.41518 -5.92314 -155.19606 9274493
126.23321 -5.8376932 -154.43602 9011065
127.08893 -5.8330579 -153.59766 9274495
127.73479 -5.7489386 -153.00604 8551545
59.105099 -4.7532439 -191.99512 11709857
59.985264 -4.749167 -191.58708 10854036
60.837234 -4.9895463 -191.09364 8353391
61.714767 -4.9854984 -190.68683 8418928
62.591263 -4.9816027 -190.28036 9340030
63.466698 -4.9777575 -189.87431 8090733
64.341202 -4.9740634 -189.46873 8814715
65.214767 -4.9704471 -189.06351 9406851
66.087479 -4.9669313 -188.65865 7828079
67.177155 -4.9627185 -188.15306 9275261
68.265663 -4.9586482 -187.64795 10656657
69.135643 -4.9555116 -187.2442 11708575
69.974022 -5.1956129 -186.75735 9011064
70.842262 -5.1926045 -186.35437 9011064
126.22997 -5.1093574 -154.81088 9537409
127.14337 -4.8615818 -154.03998 8813686
127.99987 -4.8575873 -153.20064 8156529
128.64645 -4.7736421 -152.60826 7169890
129.25487 -4.6090264 -152.0947 7169890
59.377914 -4.2620926 -192.06573 11709857
60.038376 -4.2592592 -191.7594 9998983
60.945114 -4.0103283 -191.43736 12302510
61.824139 -4.0068774 -191.02956 9537409
62.702156 -4.0035286 -190.62221 8682356
63.579132 -4.0002565 -190.21526 8682867
64.455116 -3.9970353 -189.80869 7827821
65.3302 -3.9939158 -189.40256 10327951
66.393379 -4.2345476 -188.81081 9933451
67.484352 -4.2307072 -188.30449 11051415
127.31313 -4.1301932 -154.24658 8813686
128.11339 -3.9316628 -153.56184 11314075
128.91339 -3.8796375 -152.80251 8025198
129.59857 -3.8770368 -152.13078 6314581
130.34119 -3.6305041 -151.52715 6512218
62.126358 -3.2700431 -191.18526 10261132
62.785522 -3.2679114 -190.87926 10656913
63.663651 -3.264987 -190.47163 9669762
128.57079 -3.1482537 -153.51262 12234405
129.14316 -2.9014635 -153.07631 7169890
129.8295 -2.8991842 -152.40324 3748913
130.51538 -2.8968816 -151.73062 6380118
131.16321 -2.8133249 -151.13693 5920082
131.7733 -2.6484387 -150.62175 5920082
130.09918 -1.9996942 -152.59758 6510930
130.74826 -1.9159518 -152.00273 6510930
131.43486 -1.9140221 -151.32921 6840926
132.12109 -1.9121683 -150.65607 6840926
132.69467 -1.6653254 -150.21869 7169634
131.09538 -1.1776592 -152.0388 6510930
131.73711 -1.0120106 -151.55595 8879736
132.40173 -0.92842007 -150.97723 8682615
133.089 -0.92678881 -150.30296 8813687
133.75369 -0.84326506 -149.72418 9603713
134.39618 -0.6778481 -149.24065 8089963
105.55087 -13.831804 -166.72057 9932678
106.41378 -13.838849 -166.31618 9735296
107.2777 -13.846143 -165.91112 8682867
108.14269 -13.853784 -165.5054 8353647
109.2256 -13.863781 -164.99742 9011835
110.31023 -13.874229 -164.48836 7630443
111.17937 -13.882964 -164.08035 7565163
112.0497 -13.891995 -163.67157 8420724
112.92136 -13.901376 -163.26201 9275261
113.66648 -13.895828 -162.66936 8420720
114.3556 -13.883999 -161.99837 8092011
114.87178 -13.87534 -161.49574 8092011
101.64384 -12.853725 -168.93306 9537667
102.2888 -12.857562 -168.63132 9537667
103.19102 -13.021725 -168.14528 5919306
103.9654 -13.106121 -167.75084 6248015
104.82757 -13.112094 -167.34717 8090475
105.69067 -13.118414 -166.94289 10064777
106.55481 -13.124956 -166.53807 10261383
107.41991 -13.131848 -166.13258 9472124
108.28617 -13.138964 -165.72646 9208953
109.37062 -13.148352 -165.21791 8880507
110.45677 -13.158204 -164.70827 7959407
111.32713 -13.166388 -164.2998 7038307
112.19871 -13.174892 -163.89062 7894376
113.02149 -13.423139 -163.40771 9275261
113.81765 -13.178322 -162.88705 9275261
114.50758 -13.16704 -162.21498 8092011
115.19642 -13.156084 -161.54385 8025453
115.844 -13.066648 -160.95328 7762027
97.95488 -11.884649 -171.04037 9735302
98.598549 -11.887241 -170.73979 10524559
99.499794 -12.049687 -170.25488 12300966
100.27283 -12.132555 -169.86163 11906209
101.34786 -12.137935 -169.35913 10853012
102.42407 -12.143654 -168.85585 8024680
103.28601 -12.148553 -168.45267 5919818
104.14883 -12.153723 -168.0489 5919050
105.01252 -12.159117 -167.64461 7630182
105.87727 -12.164861 -167.23976 9407621
106.74306 -12.170827 -166.83434 9143674
107.60982 -12.177065 -166.42827 9998211
108.47771 -12.183627 -166.02161 10064519
109.29837 -12.429779 -165.54059 9538177
110.38584 -12.438888 -165.03061 9143422
114.14187 -12.456741 -162.93672 8814966
114.75127 -12.287928 -162.42422 8222320
115.45176 -11.958508 -161.90417 7498856
116.14086 -11.948709 -161.23219 7630441
116.89066 -12.129504 -160.40326 8025194
93.836823 -10.920645 -173.34549 13024949
94.479546 -10.921937 -173.04578 10853780
95.336906 -10.923943 -172.64581 10722709
96.152596 -11.164305 -172.16937 9012606
97.010696 -11.166834 -171.76889 8880765
97.869362 -11.169639 -171.36806 10130828
98.728653 -11.172666 -170.96681 10985109
99.588699 -11.175941 -170.56511 10788244
100.44938 -11.179491 -170.16302 8947070
101.52638 -11.18426 -169.65971 10392972
102.6046 -11.189385 -169.1557 8156520
103.46815 -11.193756 -168.75192 5920074
104.3326 -11.198399 -168.3476 6314578
105.11036 -11.282682 -167.95166 7565675
106.01753 -11.44792 -167.46286 8815484
106.6676 -11.451999 -167.15857 7565675
116.43879 -10.827271 -161.51186 8683125
117.03606 -10.979312 -160.84749 9077366
117.89602 -10.968569 -160.0081 9406079
118.76746 -10.63896 -159.32018 9011065
90.143181 -9.962471 -175.45039 11906725
90.785706 -9.9629154 -175.15115 11248539
91.642807 -9.963624 -174.75192 9932679
92.459686 -10.203108 -174.27525 10722193
93.531494 -10.204636 -173.77568 10327692
94.603973 -10.206521 -173.27563 10130057
95.46257 -10.208275 -172.87523 10985622
96.32164 -10.210253 -172.4745 8354166
97.18132 -10.212455 -172.07339 8090995
98.084717 -9.9756079 -171.74808 8814969
98.94603 -9.9781065 -171.3461 10327950
99.764076 -10.220407 -170.8678 9407363
100.6264 -10.223504 -170.46512 9407363
101.66063 -10.467197 -169.88565 10853520
102.7403 -10.471905 -169.38115 8616814
117.41621 -10.014806 -160.96632 9208435
117.98532 -9.7677212 -160.53323 10195337
118.84578 -9.7582359 -159.69272 9142651
119.7049 -9.749074 -158.85335 8419440
120.27294 -9.5031424 -158.42087 9208696
84.801826 -8.5303984 -178.51312 12433069
85.659767 -8.5294886 -178.11409 8946043
86.694252 -8.7679253 -177.5365 8814454
87.55204 -8.7674561 -177.13737 8814454
88.429565 -8.9106598 -176.6713 9208443
89.228958 -9.0062447 -176.26065 8814453
90.08699 -9.0063658 -175.86122 9538176
90.945259 -9.0066891 -175.46152 10393486
91.803848 -9.0071936 -175.0616 9274236
92.662819 -9.0078802 -174.66145 9537664
93.737106 -9.0090361 -174.16084 9340541
94.812027 -9.0104799 -173.65985 9274492
95.612694 -9.1076975 -173.24802 10129801
96.491158 -9.2532797 -172.7805 9077630
97.266312 -9.3348675 -172.38681 8090995
119.03042 -8.9139662 -159.94223 8813686
119.82469 -8.7374344 -159.25201 9471616
120.60466 -8.7782488 -158.46495 9208696
121.25191 -8.69207 -157.873 9208696
81.298218 -7.5767274 -180.52777 8617075
82.157768 -7.5750318 -180.12828 8879991
82.980736 -7.813632 -179.64914 7565675
83.839775 -7.8123126 -179.24979 9933708
84.698814 -7.811142 -178.85039 12433069
85.772636 -7.8098936 -178.35091 10064520
86.846588 -7.8089528 -177.85138 8090475
87.705917 -7.808332 -177.45157 7893096
88.565392 -7.8079357 -177.05162 9669763
89.425079 -7.8076391 -176.65152 9472383
90.284988 -7.8075666 -176.25122 8946039
91.145248 -7.8076448 -175.85072 10064521
91.920509 -7.8879752 -175.45747 9208443
92.825829 -8.0487003 -174.97134 9208443
93.471451 -8.0491381 -174.67056 9208443
120.01761 -7.9392552 -159.46989 9274237
120.81879 -7.8114266 -158.74791 9340027
121.50642 -7.8056722 -158.07533 9208696
122.19319 -7.8000941 -157.40349 8748404
122.76215 -7.5543108 -156.96992 8089963
77.779877 -6.6224775 -182.54948 9406593
78.905815 -6.7801409 -181.9619 10656145
79.68364 -6.8585858 -181.56822 10656142
80.544609 -6.8566647 -181.16823 9143163
81.405396 -6.854866 -180.7682 9406335
82.266045 -6.8532434 -180.36813 9866629
83.126671 -6.8517714 -179.96812 8880249
83.987221 -6.8504233 -179.5681 8749691
84.847778 -6.8492255 -179.16792 10853780
85.923531 -6.8479333 -178.66765 9208954
86.99942 -6.8468313 -178.16719 7432289
87.860268 -6.8461828 -177.76677 7564386
88.682243 -7.0865846 -177.28731 9406590
89.543106 -7.0861859 -176.8867 9735555
120.97984 -7.0843787 -158.96072 8090475
121.72239 -6.8362722 -158.35791 8616817
122.41027 -6.8312669 -157.68466 9142909
123.0974 -6.8263626 -157.01213 7827307
123.74487 -6.7412319 -156.41943 10263180
73.595169 -5.6683731 -184.88141 9537664
74.244034 -5.666357 -184.58015 10459022
75.158775 -5.824851 -184.09052 9669250
75.939865 -5.9031658 -183.69542 9932934
77.019348 -5.900218 -183.19408 8748660
78.098396 -5.8974123 -182.6929 10327436
78.961273 -5.8953114 -182.29199 12695466
79.823944 -5.8933859 -181.89119 11905951
80.686424 -5.8915105 -181.4904 8945783
81.548759 -5.8898096 -181.08968 10525071
82.410934 -5.8882103 -180.6889 10656657
83.273056 -5.8867607 -180.28813 9735043
84.135132 -5.8854108 -179.88734 9867399
85.175224 -6.1255536 -179.30655 10129798
86.037071 -6.1244707 -178.90582 8682867
122.05701 -6.1060758 -158.40175 9734788
122.66731 -5.9400234 -157.88705 9011323
123.31626 -5.8548565 -157.29294 8024687
124.00375 -5.8506517 -156.61971 9670531
124.65179 -5.7658448 -156.02634 9406588
125.26072 -5.6005616 -155.51239 9208435
70.035767 -4.70929 -186.92416 9405822
70.90477 -4.7064795 -186.52081 8681843
71.741493 -4.9467082 -186.03464 8616563
72.60894 -4.9440255 -185.6319 9077369
73.47583 -4.9413934 -185.22932 9274492
74.342262 -4.9388371 -184.82704 8879222
75.208229 -4.9364324 -184.42488 7630186
76.210297 -4.8852558 -183.97896 9801348
77.234894 -4.9796867 -183.46399 8946039
78.236084 -4.928792 -183.01836 10064263
79.100502 -4.9268374 -182.61671 10261641
79.964699 -4.9249854 -182.21516 10261641
80.793053 -5.1657276 -181.73273 8682867
81.656563 -5.1640253 -181.33141 10525071
82.304047 -5.1628613 -181.03047 10261643
123.48092 -5.1242285 -157.50409 8616823
124.22451 -4.876369 -156.90007 11249305
124.91236 -4.8727117 -156.22612 11182481
125.59958 -4.8691573 -155.5528 9208435
126.34226 -4.6220994 -154.94928 8418928
66.015167 -3.7471313 -189.18301 9341571
66.670715 -3.7450054 -188.87866 10262415
67.544044 -3.7421885 -188.47318 11512224
68.386406 -3.9836576 -187.98393 10787729
69.257858 -3.9808688 -187.57935 10326409
70.128639 -3.9782059 -187.17503 9800066
70.998787 -3.9756434 -186.771 9932422
71.868279 -3.9731076 -186.36722 8617075
72.737221 -3.9707222 -185.9637 9012089
73.605659 -3.968363 -185.56032 9669507
74.473564 -3.966104 -185.15721 8287601
75.477829 -3.9149094 -184.71027 8090993
76.504761 -4.0097775 -184.194 9867142
77.473816 -4.2022204 -183.6655 8682867
78.339622 -4.2002649 -183.26317 9077625
124.56277 -4.142817 -156.94212 15196110
125.13502 -3.8956773 -156.5061 12169376
125.82336 -3.8925695 -155.83147 9208435
126.51108 -3.8895881 -155.15744 9076856
127.15981 -3.8054132 -154.56308 7892840
127.76994 -3.6401939 -154.04814 7564643
63.939636 -2.7730308 -190.54097 9340797
64.870613 -3.0648782 -189.99025 8814711
65.883995 -3.0127244 -189.53943 10722709
66.7593 -3.0102291 -189.13293 10262415
67.633797 -3.0077605 -188.72682 9143935
68.507538 -3.0053179 -188.32109 10326409
69.380508 -3.0029759 -187.91562 7958120
70.252785 -3.0006106 -187.51044 9997188
71.124443 -2.9984212 -187.10558 11774882
71.995476 -2.9962075 -186.70094 8617331
72.865936 -2.9941199 -186.29655 10261900
73.70327 -3.2365212 -185.80925 10722194
74.572266 -3.2344611 -185.40547 9670023
126.08667 -2.9942014 -156.03148 11182481
126.73683 -2.910023 -155.43581 8419693
127.42506 -2.9075398 -154.76102 7564643
128.11272 -2.9050586 -154.08672 8682867
128.68546 -2.6581922 -153.65016 9866628
65.094376 -2.2781494 -190.20247 8814710
65.971687 -2.275876 -189.795 11183260
66.877831 -2.0276456 -189.47301 10722710
67.753845 -2.025574 -189.06599 6775384
68.629074 -2.0236042 -188.65936 9405820
69.42041 -2.103719 -188.25874 8089706
70.346199 -2.2653775 -187.76273 12431013
71.000862 -2.2639027 -187.45854 12432045
127.07896 -2.1727405 -155.4762 9341054
127.65275 -1.9250225 -155.03899 7564643
128.34154 -1.9229381 -154.3634 8682867
129.12143 -1.9697338 -153.57341 12037540
129.77544 -1.6731167 -153.08238 9734528
128.686 -1.1837517 -154.40245 12234405
129.20277 -1.182438 -153.89546 15329247
130.06348 -1.1802496 -153.05109 8616305
130.75157 -1.1785002 -152.37608 6510930
113.12183 -12.944253 -163.55371 8814966
109.39515 -11.951048 -165.6881 10196106
110.53263 -11.719787 -165.25154 10130314
111.57407 -11.968559 -164.66669 7169893
112.44783 -11.976169 -164.25684 7828075
113.32291 -11.984014 -163.8463 8617843
114.05596 -11.883442 -163.31374 9998472
114.77187 -11.649322 -162.72987 8419695
105.37863 -10.644824 -168.08333 9210242
106.15813 -10.729155 -167.68651 10657431
107.0414 -10.878379 -167.21529 9736071
107.84799 -10.979468 -166.79913 10459278
108.71799 -10.985186 -166.39188 9538176
109.58912 -10.991168 -165.98389 10130313
110.51038 -10.757 -165.64917 10261386
111.60314 -10.764917 -165.13724 9143166
112.69781 -10.77319 -164.62437 8353651
113.57505 -10.780137 -164.21318 9735043
114.32384 -10.775455 -163.61607 9932423
115.01649 -10.765993 -162.94043 8616818
115.70802 -10.756756 -162.26578 7564649
116.27755 -10.509273 -161.83247 8485747
99.895966 -9.5019045 -171.0954 9867657
100.75955 -9.5047007 -170.69228 9932937
101.79516 -9.7483492 -170.11218 9932422
102.87641 -9.7525444 -169.6071 9077108
103.69666 -9.9960909 -169.12733 6906713
104.56315 -10.000065 -168.72232 7499112
105.47719 -9.7640648 -168.39168 9407621
106.34612 -9.7683783 -167.98549 14538189
107.216 -9.7728386 -167.5787 12301482
108.08698 -9.7775459 -167.17133 10656657
108.95904 -9.7824793 -166.76332 9077625
109.83231 -9.7876577 -166.35471 9406331
110.61745 -9.873004 -165.95488 9537662
111.75197 -10.041615 -165.35896 9472130
112.62875 -10.047707 -164.94841 8090736
114.64997 -10.04885 -163.66647 7038298
115.22112 -9.8004141 -163.23216 8879990
115.91378 -9.7919016 -162.55608 8945783
116.60532 -9.783639 -161.88091 9011315
117.2557 -9.6958036 -161.28674 9471608
95.972168 -8.5325985 -173.31197 10854036
96.618652 -8.5336847 -173.01057 9405822
97.524284 -8.6954908 -172.5239 8485750
98.300842 -8.7772627 -172.12949 9341054
99.164154 -8.7793093 -171.72676 10262156
100.02819 -8.7815542 -171.32358 11248795
100.89291 -8.7840233 -170.92006 10064009
101.975 -8.787343 -170.41496 9735044
103.05828 -8.7909517 -169.90918 10130055
103.926 -8.7940674 -169.50403 8814713
104.79453 -8.7973795 -169.09834 8288371
105.66408 -8.8008909 -168.69211 9867657
106.5346 -8.804574 -168.2854 9669763
107.35858 -9.049921 -167.80307 9998727
108.23086 -9.054204 -167.39532 10459278
115.54853 -9.072382 -163.28215 9143163
116.16071 -8.9041615 -162.76654 9405566
116.81277 -8.8164558 -162.17068 9800575
117.50434 -8.8090668 -161.49503 10063747
118.19497 -8.8018579 -160.82018 9340026
118.76504 -8.5548468 -160.3862 8813686
92.26149 -7.5675559 -175.4276 9208443
92.907539 -7.5678935 -175.12675 11511708
94.037834 -7.7610435 -174.5228 9668990
95.020866 -7.810071 -174.04547 9932422
95.883385 -7.811069 -173.64355 10656401
96.74646 -7.8122168 -173.24132 9011320
97.610092 -7.8135381 -172.83868 8814710
98.47438 -7.815084 -172.43578 8354159
99.339294 -7.8166776 -172.03241 8354159
100.20494 -7.8185706 -171.62865 11511455
101.0713 -7.8205628 -171.22456 10984855
102.0596 -7.8713665 -170.74405 8945784
103.02354 -7.8257518 -170.31366 9011832
104.064 -8.0705843 -169.7308 9341055
104.71622 -8.072711 -169.42627 8288371
116.96882 -8.0891428 -162.38855 10524043
117.71358 -7.8394823 -161.78432 10984596
118.40527 -7.8329201 -161.10809 9142644
119.096 -7.8265834 -160.43275 8616307
119.83902 -7.5780511 -159.82964 9405823
88.760323 -6.6046834 -177.44482 8682867
89.621986 -6.6041832 -177.04391 9209211
90.444038 -6.8449602 -176.56435 8748661
91.305824 -6.8448358 -176.16324 9932678
92.167961 -6.8448839 -175.76186 10722193
93.030434 -6.8450332 -175.36024 13880765
94.109161 -6.8454928 -174.85793 10919570
95.188568 -6.8461518 -174.35513 9274232
96.052666 -6.8468227 -173.95258 9932422
96.917336 -6.8476682 -173.54977 9340797
97.782585 -6.8486371 -173.1465 8946039
98.648445 -6.8497548 -172.74295 8354159
99.471024 -7.0928793 -172.26228 8353647
100.33791 -7.0943704 -171.85811 9274236
100.98846 -7.0956011 -171.55475 10064009
118.04414 -7.1088457 -161.83241 10984596
118.65639 -6.9415236 -161.31635 9011320
119.30813 -6.8551431 -160.72015 9668995
119.99901 -6.8495803 -160.0442 9274237
120.80203 -6.7220235 -159.3204 8616307
85.250229 -5.6422253 -179.46599 9603711
86.374977 -5.8019562 -178.87822 8682867
87.15271 -5.88166 -178.48405 8090474
88.015129 -5.8808842 -178.0829 7564386
88.877678 -5.880208 -177.68163 9011832
89.740532 -5.8796315 -177.28018 9932934
90.603539 -5.8792295 -176.87856 9208699
91.466942 -5.878952 -176.47675 10393229
92.33062 -5.8787484 -176.07472 10130057
93.332672 -5.8302965 -175.62775 9998209
94.353584 -5.9272122 -175.11349 10590605
95.270576 -5.9598141 -174.67346 9735037
96.179977 -6.1217318 -174.18498 9932678
97.045837 -6.1223249 -173.78165 9735555
119.46765 -6.1246004 -160.93628 8550513
120.2129 -5.8755879 -160.33122 8747893
120.99675 -5.9187922 -159.53908 8682099
121.79377 -5.7431059 -158.84573 8550773
122.51035 -5.6168833 -158.2061 9011323
80.864273 -4.6807389 -181.89456 8682867
81.728554 -4.6790853 -181.4929 10524815
82.640305 -4.8390832 -181.0041 10064264
83.41993 -4.9185252 -180.60921 9143163
84.283569 -4.9171977 -180.20772 10327692
85.363091 -4.9156828 -179.7058 10853264
86.442734 -4.9142666 -179.20374 8617074
87.306549 -4.9132886 -178.80196 8551793
88.170509 -4.9123602 -178.40012 9011832
89.034615 -4.9115825 -177.99815 9735555
89.899002 -4.9108782 -177.59605 10261640
90.763649 -4.9102993 -177.19377 10195849
91.542953 -4.9907331 -176.79861 10854036
92.452965 -5.1521668 -176.31003 9932678
93.318237 -5.1519108 -175.90727 8945523
120.54682 -5.1419959 -160.37752 10853004
121.11978 -4.8941298 -159.94122 9471355
121.98376 -4.8889613 -159.09499 9537406
122.84658 -4.8839865 -158.24988 9011323
123.5909 -4.6360755 -157.64519 8287859
77.542229 -3.7153373 -183.8295 8682867
78.408859 -3.7135303 -183.4268 10459278
79.240181 -3.9550419 -182.94261 9340797
80.105919 -3.9533112 -182.54031 9998470
80.97142 -3.9516313 -182.138 9472383
81.8368 -3.9500511 -181.73575 10261899
82.702087 -3.9485211 -181.33357 10261643
83.567307 -3.9471164 -180.93138 9209470
84.64875 -3.9454479 -180.4286 9933192
85.730247 -3.9438546 -179.92574 11905694
86.595482 -3.942699 -179.52335 8814965
87.460876 -3.9416687 -179.12097 8683380
88.287361 -4.1839876 -178.63867 7959144
89.152664 -4.1830826 -178.23628 10524813
89.801781 -4.182466 -177.93427 10853004
122.06821 -3.9921188 -159.46977 9010806
122.89305 -3.9063067 -158.7032 9011321
123.75628 -3.9020967 -157.8573 7959403
124.40707 -3.8175097 -157.26111 9932932
73.768471 -2.7474942 -185.97562 12959413
74.855659 -2.7451088 -185.47038 10591124
75.771713 -3.036273 -184.9269 9472645
76.777084 -2.9852715 -184.47935 9932936
77.645119 -2.9834375 -184.076 9077625
78.512886 -2.9817042 -183.67276 10656657
79.380363 -2.9799955 -183.26958 11117208
80.247589 -2.9783378 -182.86647 9472383
81.114677 -2.9767799 -182.46346 9735555
81.981606 -2.9752476 -182.06047 10525071
82.848381 -2.9737654 -181.65753 10261899
83.715134 -2.972358 -181.25461 8881019
84.761047 -3.2148077 -180.67018 9604484
85.843987 -3.2131622 -180.1667 9736323
123.05785 -3.1702306 -158.91705 8419952
123.8634 -3.0440164 -158.19011 8222573
124.66835 -2.9179792 -157.46371 9341054
125.3585 -2.9152675 -156.78714 11182481
125.93182 -2.6678255 -156.35028 11182481
69.753029 -1.7753822 -188.23595 7563619
70.408623 -1.7740058 -187.93129 9997704
71.333817 -1.9357653 -187.43553 9998219
72.123131 -2.0159335 -187.03584 9406847
72.99514 -2.0140932 -186.63063 9472383
74.003853 -1.9629965 -186.18159 14077894
75.035667 -2.0590158 -185.66261 12038312
76.043167 -2.007971 -185.2141 8748921
76.913094 -2.0063338 -184.80981 8945783
77.782722 -2.0046971 -184.40561 8814197
78.651985 -2.0031111 -184.00157 10196106
79.520988 -2.0015254 -183.59764 11051156
80.30555 -2.0817761 -183.20016 9340797
81.222397 -2.2434986 -182.70824 9209211
81.873497 -2.242379 -182.40553 9735555
125.69927 -2.1773133 -156.82922 11182481
126.21693 -2.175498 -156.32156 9341054
126.92486 -1.845264 -155.79482 9341054
68.720543 -1.2851253 -188.91385 10524303
69.596138 -1.2834542 -188.50688 8352878
70.471077 -1.2817842 -188.10019 11511200
71.345474 -1.2801652 -187.69385 9669511
72.417137 -0.98283195 -187.40121 7038303
73.443085 -1.0794874 -186.85587 8419957
74.458344 -1.0285116 -186.41814 10525076
75.238869 -1.1091493 -185.99831 9143681
76.144379 -1.2715011 -185.46324 9274751
77.015442 -1.2699871 -185.05835 10261132
77.886154 -1.2684736 -184.65353 8945783
110.97486 -9.5529242 -165.91728 9735038
111.63211 -9.5570421 -165.60963 9143166
112.81381 -9.6857834 -165.00777 9011319
113.7775 -9.8135147 -164.50772 10391944
114.48659 -9.7292557 -163.99014 8090730
107.45383 -8.5669956 -167.95305 9077625
108.32695 -8.5709743 -167.54497 9538176
109.15268 -8.8168449 -167.06165 9340796
110.02763 -8.8212957 -166.65251 9866624
110.90381 -8.8260221 -166.24274 9340021
111.78121 -8.8308935 -165.83231 9669250
112.78181 -8.8852606 -165.34464 9471355
113.85851 -8.7945766 -164.87987 9273976
114.73164 -8.8398314 -164.20329 7432799
115.38575 -8.7516203 -163.60567 8353390
115.99844 -8.5835981 -163.0896 9405566
103.50385 -7.5853348 -170.18674 9735555
104.15624 -7.5872622 -169.88228 9012091
105.06837 -7.7513409 -169.39162 8485749
105.85152 -7.8346171 -168.99352 9011321
106.72375 -7.8377495 -168.58623 9538176
107.59701 -7.8410296 -168.17833 9538176
108.47134 -7.8444839 -167.76994 9932933
109.34688 -7.848135 -167.3609 9603711
110.22355 -7.8519602 -166.95126 10129798
111.10143 -7.8559322 -166.54089 9998211
111.98057 -7.8600788 -166.12997 9340539
112.86103 -7.8644218 -165.71835 7564643
113.86506 -7.9183297 -165.22926 8813939
114.93648 -7.8674312 -164.49838 8945271
115.63239 -7.8601599 -163.81841 8813429
116.32719 -7.8530655 -163.13942 9010808
117.07302 -7.6032524 -162.53416 10195081
99.558998 -6.6092138 -172.41586 8681843
100.42668 -6.6105542 -172.01138 9274236
101.33753 -6.7735023 -171.52179 11247770
102.11907 -6.8557649 -171.12485 10656146
103.20631 -6.8580856 -170.61778 9538176
104.29479 -6.8606548 -170.10999 9011835
105.16672 -6.8628869 -169.7032 9735556
106.03958 -6.8652687 -169.29587 9471359
106.91348 -6.8677983 -168.88803 9340029
107.78845 -6.870501 -168.47963 8880246
108.6645 -6.8733268 -168.07066 11182742
109.54166 -6.8762765 -167.66109 12169380
110.33038 -6.9603271 -167.2601 9866881
111.25008 -7.126411 -166.76517 10130313
112.13052 -7.1300297 -166.35384 9011832
115.26487 -7.1344256 -164.54991 9932166
115.87981 -6.9661975 -164.03159 9602945
116.53487 -6.8790355 -163.43248 9931910
117.22965 -6.8727908 -162.75307 9800323
117.88328 -6.7860818 -162.15526 9208699
118.496 -6.6188579 -161.63863 9011320
95.615318 -5.6369901 -174.64279 10064003
96.264999 -5.6372213 -174.34036 8682867
97.131699 -5.6376634 -173.93666 9735555
97.955635 -5.8805866 -173.45535 11314588
98.82312 -5.881351 -173.05118 10459022
99.691307 -5.8822155 -172.64668 8681843
100.56014 -5.8832297 -172.24176 9603201
101.42983 -5.8843412 -171.83649 11050647
102.30028 -5.8856015 -171.43074 9209211
103.38956 -5.8873444 -170.92293 9867142
104.48018 -5.8892608 -170.41449 8156268
105.35372 -5.8909159 -170.0071 9010808
106.22826 -5.8927455 -169.59923 8287342
107.05618 -6.1383352 -169.11499 9931910
107.93242 -6.1405611 -168.70624 8946039
108.59026 -6.1423297 -168.39932 9209467
116.86514 -6.145051 -163.48265 9405566
117.38674 -6.140779 -162.97235 9537152
118.1341 -5.8908629 -162.36569 8682355
118.828 -5.8856688 -161.68666 7432800
119.57419 -5.6364546 -161.08073 9011320
91.885437 -4.6669793 -176.76936 9932678
92.534721 -4.6667118 -176.46724 9275004
93.704887 -4.7876482 -175.87384 8945523
94.65876 -4.9088726 -175.38095 10064003
95.525597 -4.9088397 -174.97749 9800578
96.392876 -4.9089308 -174.57372 9406335
97.260742 -4.9090714 -174.1696 10261899
98.129196 -4.9093604 -173.76521 10656657
98.998337 -4.9097238 -173.36043 10196106
99.868149 -4.9101858 -172.95535 10195595
100.73868 -4.9107471 -172.54984 10853524
101.60995 -4.911407 -172.14397 8681843
102.48207 -4.9122148 -171.73763 8682355
103.52738 -5.1572485 -171.15247 9735555
104.40096 -5.1583452 -170.74532 9735555
118.98717 -5.152153 -161.90457 6511954
119.77441 -4.983954 -161.21704 9011320
120.38779 -4.8171616 -160.69965 9603455
88.365463 -3.6973395 -178.79817 9999495
89.231544 -3.6963832 -178.39532 10261382
90.143494 -3.8576801 -177.90588 10261382
90.924232 -3.9381199 -177.51009 9867140
91.790741 -3.937438 -177.10692 10590608
92.6576 -3.93683 -176.70361 9011576
93.741768 -3.9362066 -176.1992 9340284
94.826523 -3.9356823 -175.69437 9471610
95.694931 -3.9353223 -175.29024 9866374
96.563858 -3.935086 -174.8858 9537409
97.433319 -3.9349239 -174.48112 9866885
98.303429 -3.9348359 -174.07613 11117208
99.08683 -4.0161963 -173.6786 11051415
100.00117 -4.1790891 -173.18745 10787987
100.65487 -4.1792645 -172.88307 11182489
120.76228 -4.1624026 -160.66576 9931905
121.28201 -4.1595836 -160.15669 9931905
121.91011 -3.6662164 -159.79149 9010806
84.836021 -2.7265484 -180.83163 9012605
85.91996 -2.7249675 -180.32771 9538944
86.74881 -2.9678576 -179.84416 9012600
87.615723 -2.9666998 -179.44106 9012600
88.482819 -2.9655919 -179.0378 8748916
89.350067 -2.9645591 -178.63449 9998211
90.217598 -2.9635751 -178.231 9340796
91.085373 -2.9626412 -177.82738 10392711
91.953476 -2.9617312 -177.42358 10721424
92.821938 -2.9609213 -177.01965 9932166
93.908081 -2.9600115 -176.51439 9603201
94.994881 -2.9591177 -176.00879 9076858
95.822289 -3.2031348 -175.52545 10261132
96.692413 -3.2026718 -175.12057 9866374
80.642647 -1.7546315 -183.1748 9209467
81.294441 -1.753511 -182.87184 9209211
82.211319 -1.9152669 -182.37984 10919572
82.995239 -1.9956102 -181.98265 10195591
84.080597 -1.9938854 -181.47807 8880763
85.165924 -1.9922112 -180.97348 8683383
86.034248 -1.9909012 -180.56978 10130313
86.902641 -1.9896164 -180.16603 8881014
87.771118 -1.9883566 -179.76218 9604737
88.639809 -1.9871712 -179.35831 9997959
89.508644 -1.9859855 -178.95428 8945527
90.377708 -1.9848745 -178.55014 9735296
91.161102 -2.0655768 -178.153 10589835
92.07589 -2.2279022 -177.66182 11313045
92.945572 -2.2269404 -177.25742 9735043
75.607239 -0.78063345 -186.05544 8814715
76.261818 -0.77960837 -185.7511 9735043
77.134201 -0.77814233 -185.34555 10261132
78.006378 -0.77677673 -184.94019 9471871
78.817375 -1.0211862 -184.39197 10327691
79.688248 -1.0197475 -183.98712 10261641
80.558868 -1.0183342 -183.58238 9735554
81.429329 -1.0169212 -183.17773 9077368
82.299606 -1.0155084 -182.77313 10195591
83.313263 -0.96477032 -182.33617 11182228
84.331581 -1.0613974 -181.79424 8617332
85.345131 -1.0106894 -181.35725 8748660
86.120522 -1.09141 -180.9397 10525071
87.018333 -1.2537737 -180.40813 9471871
87.888 -1.2525119 -180.0038 9406079
88.757843 -1.2511997 -179.59937 11906725
89.410316 -1.2502279 -179.29597 9734787
79.024368 -0.2821531 -184.87868 11116949
79.897514 -0.28078586 -184.47276 10261641
80.770485 -0.2795189 -184.06699 11314071
81.643227 -0.27815229 -183.66125 10261643
82.29763 -0.27712741 -183.35692 9932419
114.45617 -7.6287565 -165.07057 9734270
110.68914 -6.6366143 -167.22334 10261641
111.34933 -6.639029 -166.91501 10130313
112.23067 -6.6422472 -166.50336 8682867
112.97231 -6.9707842 -166.02599 8551281
113.67445 -7.1367078 -165.63232 8616560
107.15152 -5.6510096 -169.26668 9931910
108.02855 -5.6528854 -168.85757 8946039
108.94759 -5.8178191 -168.36348 11840415
109.73717 -5.9012446 -167.9623 14142656
110.61729 -5.9036889 -167.55156 10656399
111.40845 -5.9875855 -167.14952 10130313
112.11025 -6.1529102 -166.7563 8682867
103.61945 -4.6693945 -171.30579 10064521
104.75447 -4.8333421 -170.71146 7037274
105.54134 -4.9157209 -170.31204 7826790
106.41756 -4.9169974 -169.90361 8287342
107.29485 -4.9183221 -169.49464 8945783
108.17321 -4.9197707 -169.08517 8814453
109.05266 -4.9213171 -168.67511 10656655
109.88416 -5.1679521 -168.18883 12169380
99.436096 -3.6906986 -173.64706 11380380
100.09003 -3.6906245 -173.34261 10787987
101.00539 -3.8535984 -172.85091 9142393
101.7907 -3.9352474 -172.45245 10129030
102.66446 -3.9355536 -172.04556 9405308
103.66109 -3.9849446 -171.56171 10327949
104.73051 -3.887634 -171.10301 8287853
105.72959 -3.9372509 -170.61797 7826790
106.60751 -3.9379001 -170.209 8419184
107.39716 -4.0203753 -169.80818 9077368
108.09808 -4.1847014 -169.41582 9932419
95.907433 -2.713876 -175.68265 9142651
96.778358 -2.7132118 -175.27739 8813686
97.606499 -2.957427 -174.79366 8945528
98.478233 -2.9569619 -174.38803 9998727
99.350594 -2.9565952 -173.98207 10919829
100.22369 -2.9562278 -173.57581 10064520
101.09748 -2.9559338 -173.16907 11181716
101.97208 -2.9557137 -172.76204 11905438
102.84748 -2.9555671 -172.35458 10195593
103.72376 -2.9554448 -171.94666 9144191
104.72327 -3.0045311 -171.46162 9340798
105.87115 -3.2012424 -170.84808 9143419
91.505081 -1.7383217 -178.1245 10786958
92.157707 -1.7374997 -177.82097 10786958
93.02813 -1.7363865 -177.41623 9406078
94.074989 -1.980401 -176.83075 9603201
95.163765 -1.9792292 -176.32436 9273980
96.035385 -1.9782641 -175.91895 8616307
96.907539 -1.977373 -175.51328 9142907
97.780273 -1.9765563 -175.10733 8616563
98.653603 -1.9757134 -174.70111 9538176
99.527626 -1.9749196 -174.29451 9867141
100.40237 -1.9741993 -173.88759 8748917
101.2778 -1.9734533 -173.48033 9866883
102.06579 -2.0548978 -173.08076 10589580
102.9852 -2.2184157 -172.58702 9603971
103.64318 -2.2180851 -172.28075 8092019
86.499557 -0.76327741 -180.99194 9932934
87.152748 -0.76235449 -180.68817 9011832
88.023758 -0.76099062 -180.28328 10787988
88.894951 -0.75962633 -179.87819 11314588
89.792725 -0.92205679 -179.34662 10064008
90.568115 -1.0028356 -178.92903 9471867
91.439377 -1.0015463 -178.52391 9997699
92.310913 -1.0002813 -178.11862 9997699
93.328201 -0.9496274 -177.67992 9405821
94.346153 -1.0465353 -177.13812 9997960
95.364525 -0.99592447 -176.69879 8813429
96.23806 -0.99470651 -176.29265 8616050
97.01413 -1.0757176 -175.87463 9932679
97.910957 -1.2387158 -175.34326 10459023
98.785545 -1.2375962 -174.93654 9998471
99.660782 -1.2365254 -174.52954 8551281
100.31772 -1.2357466 -174.224 8090987
82.952057 -0.27610269 -183.05272 12432037
