# .PCD v0.7 - Point Cloud Data file format
VERSION 0.7
FIELDS x y z rgb
SIZE 4 4 4 4
TYPE F F F U
COUNT 1 1 1 1
WIDTH 1203
HEIGHT 1
VIEWPOINT 0 0 0 1 0 0 0
POINTS 1203
DATA ascii
-21.808348 -53.585274 114.74034 9208703
-21.000067 -52.807381 115.20253 7959149
-21.764467 -52.725273 115.0673 7367271
-22.576262 -52.675583 114.95251 8485238
-21.881552 -51.826572 115.3717 7301474
-22.780001 -51.661983 115.29369 8024943
-23.496161 -51.360382 115.3054 8089963
-22.025991 -50.927223 115.667 7564642
-22.745775 -50.70332 115.64751 6840407
-23.68154 -50.636806 115.54345 8024170
-24.322092 -50.384712 115.54749 9010808
-22.847052 -49.947941 115.90871 7564131
-23.661493 -49.768646 115.86238 8748405
-24.694948 -49.630478 115.77101 9603458
-23.760721 -48.911507 116.16087 9735812
-24.594503 -48.68277 116.12991 9867142
-25.507807 -48.523972 116.06253 9274750
-24.664202 -47.777107 116.45013 9011581
-25.564714 -47.700897 116.35448 9077118
-26.347113 -47.552723 116.30119 8156530
-24.858351 -47.109898 116.66656 7564651
-25.567488 -46.762211 116.69595 8616824
-26.503736 -46.629608 116.61597 8090222
-27.204313 -46.433609 116.59132 8089963
-25.809355 -45.941471 116.96183 9340289
-26.554182 -45.739697 116.97973 8156013
-27.478888 -45.651325 116.91086 8484464
-28.349642 -45.333767 117.01759 9010808
-26.792517 -45.155361 117.36836 8089963
-27.499685 -44.968834 117.41569 9208187
-28.411634 -44.739166 117.47414 9537409
-29.353361 -44.405144 117.73468 9800581
-30.22587 -44.285587 117.89627 10261132
-30.207483 -44.122673 118.41464 9340030
-31.211504 -44.0509 118.50779 9537152
0.7869668 -62.440292 108.32039 8420211
0.22168586 -62.41407 108.17107 8815227
-0.6456542 -62.421658 107.97267 8815227
0.00342796 -61.769123 108.35854 10065037
-0.81871939 -61.662037 108.21515 8486519
0.0020775571 -61.023846 108.6323 11183002
-0.84298086 -60.779457 108.57501 11906725
-1.7807212 -60.581272 108.50384 11445917
-1.0496383 -60.162697 108.97264 15723486
-1.7595763 -59.911114 109.01295 15724003
-2.7021041 -59.680218 109.01586 14473423
-3.5591636 -59.314026 109.36108 9801605
-3.835279 -59.187492 109.68532 10459279
-4.5856071 -59.071892 109.89618 9867142
-5.5801063 -58.948265 110.14071 10590866
-6.5368972 -58.900372 110.54752 9933196
-7.3301177 -58.900475 110.8067 7827823
-8.3264027 -58.900414 111.20361 9537666
-9.3305416 -58.900372 111.59377 8747892
-10.138826 -58.900539 111.83873 10787731
-11.210386 -58.900501 112.25507 9340540
-12.121843 -58.900635 112.55106 10195592
-12.988138 -58.90052 112.91551 11247765
-14.133471 -58.900814 113.24127 8287851
-15.012911 -58.900749 113.59434 8287851
-15.810831 -58.673615 114.13213 9866373
-16.75654 -58.470661 114.0551 11182230
-16.018251 -57.849461 114.44846 10458253
-16.802702 -57.624828 114.358 12497831
-17.597727 -57.542633 114.21245 12498605
-16.791182 -56.764595 114.67899 11972002
-17.673208 -56.697887 114.50845 9670023
-18.365854 -56.530582 114.41692 11511968
-17.022257 -56.113468 114.86889 9144190
-17.716833 -55.748444 114.84956 9077885
-18.608599 -55.730385 114.65776 8551543
-17.913691 -54.888432 115.12269 10262156
-18.648615 -54.748032 115.01083 8223091
-19.495668 -54.454212 114.93056 10524559
-18.758284 -53.769405 115.34698 11380638
-19.592752 -53.628189 115.2133 10986394
-20.207441 -53.342869 115.18169 11907239
-18.846155 -53.068573 115.58567 13551549
-19.591211 -52.782104 115.52541 11709861
-20.48992 -52.702465 115.35472 9933707
-19.644735 -52.055828 115.78113 9210242
-20.490511 -51.719746 115.71671 8091245
-21.354624 -51.489407 115.60925 7959401
-20.652548 -50.730606 116.04508 7696228
-21.493193 -50.607372 115.90339 8419951
-22.208113 -50.332474 115.85695 6511954
-21.448919 -49.766834 116.22296 6972505
-22.42705 -49.672962 116.06656 7432801
-21.597376 -49.066875 116.44784 7301470
-22.394266 -48.694691 116.43136 8024682
-23.292337 -48.526527 116.36532 9341054
-22.48361 -47.749691 116.75905 7367010
-23.342932 -47.66922 116.67056 7893096
-24.112288 -47.538403 116.61272 7300962
-23.35586 -46.84026 116.9707 7564646
-24.341566 -46.682865 116.89289 7695980
-25.015177 -46.317535 116.93362 8156530
-23.49917 -46.180256 117.19146 8092019
-24.248877 -45.821655 117.255 8551543
-25.2768 -45.625984 117.22845 9077374
-26.029963 -45.399891 117.28381 8682358
-25.258429 -44.964771 117.72536 8683129
-26.172132 -44.775902 117.76238 8418929
-27.071733 -44.461689 117.99983 9931910
-28.013018 -44.27422 118.22804 9208187
-28.785475 -44.256374 118.18127 8089963
-28.18202 -44.082947 118.81088 8813686
-29.090769 -44.045605 118.8078 8418928
-30.043539 -43.955696 118.96524 8945272
-30.820326 -43.900501 119.60617 8945015
-31.816767 -43.901344 119.68234 9208187
2.2740312 -62.622952 108.72887 8879991
1.4417329 -62.541172 108.49254 9143675
2.1023469 -61.911526 108.94241 9867142
1.4444413 -61.726383 108.80106 8682868
0.61318445 -61.586922 108.58768 9341054
1.227675 -60.861504 109.0785 8288366
0.42126319 -60.646748 108.9687 9406847
-0.39301446 -60.338303 108.98009 12630448
0.35115287 -59.958111 109.46535 8288366
-0.47092965 -59.770439 109.40778 9406591
-1.3660636 -59.414822 109.63409 12104103
-2.4349532 -59.263844 109.74268 14670542
-2.3426528 -59.086796 110.33278 11051416
-3.3276687 -59.01186 110.36076 8814714
-4.2768149 -58.905415 110.78766 10327694
-5.2262092 -58.897514 111.06181 9669764
-6.0536742 -58.897247 111.46561 10064523
-7.1568961 -58.897339 111.84785 9933196
-7.9610877 -58.897449 112.10843 9998474
-8.9715748 -58.8974 112.50851 8616307
-9.990057 -58.897366 112.9018 8418927
-10.791258 -58.897247 113.24206 9340540
-11.911077 -58.897976 113.40649 11839903
-12.546518 -58.897266 113.89669 10326921
-13.632917 -58.776314 114.31807 9537147
-14.570799 -58.600803 114.48213 9997957
-15.355303 -58.374496 114.40084 9866631
-14.501146 -57.791832 114.80563 10261132
-15.439211 -57.607407 114.66627 10064524
-16.135698 -57.343365 114.60985 11906725
-14.694429 -56.990555 115.05947 8617337
-15.481722 -56.762386 114.96965 9275266
-16.280115 -56.676479 114.82476 11577760
-15.559771 -55.894787 115.27357 8814715
-16.429667 -55.661083 115.16748 10262158
-17.157969 -55.308422 115.13609 9473154
-16.458014 -54.694458 115.51815 9341569
-17.383226 -54.547356 115.36642 9604484
-16.585344 -54.023739 115.73691 10262156
-17.292173 -53.704521 115.69722 9933448
-18.18223 -53.639549 115.52309 10196621
-17.475622 -52.886475 115.95781 9144190
-18.316126 -52.68882 115.84358 10854808
-19.158827 -52.463669 115.739 13551549
-18.345888 -51.782959 116.17072 9604999
-19.273287 -51.63356 116.01938 9868171
-18.415453 -50.984257 116.44958 9867657
-19.180799 -50.693081 116.38651 8683898
-20.062208 -50.554821 116.24126 9209983
-19.362803 -49.870445 116.64905 9275777
-20.246119 -49.733208 116.50307 8551537
-21.014696 -49.446663 116.43759 7564642
-20.197172 -48.787514 116.86238 7235421
-21.133635 -48.619541 116.71587 9143418
-20.272356 -47.96645 117.14824 7959144
-21.082521 -47.70705 117.06348 9538176
-21.933462 -47.5485 116.93308 9275522
-21.231726 -46.861092 117.34196 11182490
-22.123652 -46.73196 117.19875 10196111
-22.896395 -46.614536 117.11583 8092019
-22.062979 -45.932049 117.51881 10787991
-23.011728 -45.71447 117.49587 8157556
-23.871161 -45.415962 117.56666 8354165
-23.071642 -45.004276 117.99396 7565163
-23.927103 -44.785053 118.05939 7959407
-24.816236 -44.500828 118.25705 9341058
-25.722902 -44.257832 118.58557 9669509
-26.623697 -44.218212 118.59083 8814201
-26.010862 -44.046986 119.21469 10590351
-26.786249 -44.026562 119.17595 8814201
-27.680483 -43.965431 119.25011 9011322
-28.694586 -43.912102 119.68038 9800577
-29.665941 -43.898441 119.89883 9537409
-30.629732 -43.897289 120.66673 8813429
-31.501329 -43.898857 120.44127 9866374
-32.192326 -43.897194 121.28639 9734531
3.6406999 -62.797512 109.10753 9076855
2.7782693 -62.479614 108.94492 8156268
3.4945168 -61.912178 109.38795 8879991
2.7470841 -61.678169 109.23746 8748405
1.9736085 -61.306229 109.12959 7893096
2.5814767 -60.802696 109.55814 10064521
1.8246369 -60.554684 109.4757 8353903
1.0540833 -60.370056 109.36007 8288366
1.6316819 -59.951981 109.87959 8551282
0.82829905 -59.639759 109.91467 7696229
-0.078115009 -59.278378 110.21844 6972506
-0.40283349 -59.123894 110.63338 8156268
-1.0991797 -59.07444 110.64297 8353135
-2.0087676 -58.944843 110.93515 8682356
-3.0912528 -58.894367 111.36842 8090737
-3.8807464 -58.894394 111.65504 7301478
-4.9448218 -58.894447 112.03526 7630443
-5.8330626 -58.894421 112.37776 8682867
-6.6727042 -58.894157 112.7855 9011832
-7.8122649 -58.894543 113.07658 9537665
-8.60676 -58.894382 113.43223 11182233
-9.5707493 -58.894447 113.7711 10590353
-10.349089 -58.894287 114.12054 10195593
-11.272184 -58.894379 114.43501 9669248
-12.282969 -58.690884 114.88085 8682609
-13.18841 -58.52018 114.80188 9273974
-12.444994 -57.846706 115.24045 9405560
-13.243994 -57.751484 115.09884 9471354
-14.030603 -57.518082 115.01112 9405560
-13.295893 -56.844357 115.42313 9537146
-14.198099 -56.57177 115.32434 9011576
-13.460772 -55.933849 115.72369 9208952
-14.20048 -55.631729 115.67182 8354164
-15.066397 -55.606586 115.48945 7564650
-14.333525 -54.923088 115.90468 9538180
-15.173292 -54.668514 115.81301 9472388
-15.920019 -54.443882 115.73021 9867401
-15.183508 -53.834442 116.11866 9603972
-16.150118 -53.709595 115.94953 10196364
-15.24679 -53.165668 116.35096 9932937
-16.029707 -52.747772 116.33075 12235173
-16.970228 -52.514877 116.20721 11183000
-16.287382 -51.785713 116.62786 12169380
-17.037134 -51.615486 116.52373 10919829
-17.837683 -51.370983 116.43562 8092019
-17.07221 -50.754967 116.83298 10327950
-17.97859 -50.668274 116.66321 10327951
-17.350958 -50.112942 117.00747 13550517
-17.969168 -49.700298 117.02196 10854036
-18.774237 -49.611828 116.87537 8092019
-18.169474 -48.800488 117.3089 8092019
-18.951632 -48.678867 117.17965 7762538
-19.74954 -48.496487 117.06923 7235421
-18.920561 -47.729084 117.53652 8683125
-19.833784 -47.648476 117.36298 7827558
-20.590906 -47.365856 117.29863 7959144
-19.204252 -47.09042 117.70872 9406590
-19.830423 -46.806644 117.67387 8880246
-20.682383 -46.669636 117.53475 10854036
-20.007864 -45.949368 117.96402 9341054
-20.815203 -45.772701 117.89129 10327694
-21.701502 -45.479267 117.87477 11971751
-20.928972 -45.072399 118.3594 8288366
-21.695452 -44.853725 118.3605 12037799
-22.619448 -44.597904 118.42945 9604230
-23.496447 -44.335148 118.63823 7038307
-24.748789 -44.190655 118.92865 7038307
-23.450117 -44.174561 119.15295 8814715
-24.38365 -44.078365 119.33286 9406851
-25.489641 -43.966389 119.58935 7893358
-26.413691 -43.895622 119.67123 7630186
-27.349001 -43.894405 120.45087 8879991
-28.342779 -43.895164 120.5558 9603197
-29.319345 -43.894962 120.9929 9734783
-30.168196 -43.895012 121.29576 9734531
-31.021601 -43.895081 121.59187 9866630
-32.022594 -43.894909 122.0264 9340286
-32.599129 -43.894974 122.22098 8682867
5.5546403 -63.451229 109.65565 6510930
4.8830781 -63.301704 109.4233 8089961
5.5602403 -63.158188 109.77373 5920082
4.8554673 -62.73547 109.63483 6313810
4.1562219 -62.483231 109.43103 7300445
4.770102 -61.928402 109.91631 5920082
4.0117478 -61.601009 109.71779 7827304
3.9295106 -60.803989 110.04048 12563884
3.1489892 -60.503593 109.93129 14866637
2.9768891 -59.876637 110.37003 14669002
2.0888162 -59.518631 110.46986 12103590
1.0627923 -59.272697 110.58363 8090731
1.173758 -59.125824 111.10258 9866117
0.26370856 -59.01593 111.18013 8945528
-0.73459768 -58.899796 111.58825 8418927
-1.7866263 -58.891239 111.98053 8484721
-2.5765777 -58.891232 112.27939 9537665
-3.6739211 -58.891209 112.70004 8485494
-4.4744239 -58.891239 112.98844 8156786
-5.5533996 -58.891308 113.37106 10195848
-6.4542594 -58.891289 113.71616 12432295
-7.2982688 -58.891346 114.01236 10853522
-8.1478024 -58.891426 114.30205 10984857
-9.0110111 -58.891201 114.70564 10458770
-10.183729 -58.708744 115.19093 10590351
-11.016043 -58.611256 115.2737 9208699
-11.708941 -58.425205 115.18924 8682867
-11.046827 -57.767006 115.57941 9011064
-11.917112 -57.563679 115.46205 9077368
-11.220655 -56.787357 115.90361 8681843
-11.968264 -56.647575 115.78986 11313813
-12.795393 -56.463669 115.67484 10261383
-12.087591 -55.777676 116.08546 11971743
-12.969282 -55.603245 115.95488 8090729
-13.763575 -55.320221 115.8838 8485494
-12.857187 -54.783161 116.28328 8616815
-13.824266 -54.650318 116.11842 9603971
-13.129831 -53.993523 116.51523 8814455
-13.873037 -53.694611 116.4613 8946044
-14.621771 -53.487103 116.37167 8485494
-13.972784 -52.710983 116.80212 7038307
-14.854753 -52.665264 116.62265 8354164
-15.568968 -52.256363 116.61436 13550517
-14.759501 -51.738808 116.98523 8617592
-15.694948 -51.587452 116.83276 9472900
-15.010729 -50.852921 117.25571 9934222
-15.783022 -50.753963 117.12029 8486776
-16.555002 -50.656761 116.98428 9867657
-15.79492 -49.819553 117.46194 8420984
-16.675867 -49.68269 117.31628 10196622
-17.391958 -49.36552 117.27378 10788244
-16.013411 -48.95446 117.73209 16777207
-16.727808 -48.696125 117.66827 12038827
-17.623541 -48.547806 117.5235 9473157
-16.814611 -47.93795 117.92827 12565171
-17.622549 -47.719463 117.82894 8749692
-18.400213 -47.627697 117.68967 8420469
-17.687685 -46.823566 118.14456 8092019
-18.556322 -46.626221 118.02396 8419953
-19.345915 -46.293423 117.97084 8683124
-18.605001 -45.753117 118.37532 8419952
-19.451727 -45.567921 118.30943 8354159
-20.185457 -45.344551 118.31137 9341054
-19.549841 -44.939667 118.76924 8683124
-20.417925 -44.691124 118.80073 8814710
-21.326723 -44.400318 118.92596 11183002
-22.062128 -44.326286 118.89684 14077894
-21.436529 -44.170815 119.53261 11183002
-22.32847 -44.113625 119.52374 10393230
-23.297846 -43.971096 119.89855 9208700
-24.246424 -43.89201 120.13118 10788245
-25.198835 -43.891712 120.59256 11774623
-26.186594 -43.892429 120.71012 9735044
-27.127878 -43.891178 121.5055 9142908
-28.005568 -43.892677 121.30531 9734784
-28.819036 -43.891193 122.13512 9405816
-29.701246 -43.892735 121.9227 8879729
-30.680555 -43.891518 122.71802 9866373
-31.701975 -43.892345 122.80959 8484976
-32.566341 -43.891911 123.28741 7760998
7.0012841 -63.681328 110.19233 5590345
6.2332501 -63.457005 109.94771 5656652
6.9222341 -63.170372 110.35968 5590345
6.2112107 -62.741947 110.22031 6577496
5.4642167 -62.490318 109.99562 6249046
6.0384126 -61.892387 110.48067 7761768
5.2633271 -61.596077 110.26139 7301218
5.2432275 -60.787338 110.61609 7564646
4.4101777 -60.49712 110.44914 10063751
4.2960496 -59.848938 110.93898 11313561
3.3934808 -59.440762 110.99531 11905954
2.4064469 -59.228668 111.14877 13617086
3.224402 -59.159882 111.67076 9208443
2.4624391 -59.060307 111.72156 10787731
1.5329309 -58.971027 111.72456 13748672
0.45741126 -58.888363 112.15185 9471615
-0.41332009 -58.888195 112.53673 7563619
-1.2896438 -58.888046 112.91864 8353134
-2.326097 -58.888374 113.19279 8813684
-3.1576095 -58.888016 113.63084 8419185
-4.2944465 -58.888287 113.96069 10722193
-4.9703498 -58.888004 114.31524 10919314
-5.9786124 -58.888321 114.57993 11708573
-6.776792 -58.888103 114.95638 10853521
-7.9648681 -58.850555 115.35106 10327184
-8.8156567 -58.579029 115.76724 9537926
-9.7048931 -58.486717 115.61002 9077372
-8.9322643 -57.766342 116.04771 9537926
-9.7656002 -57.618488 115.918 9340285
-10.463778 -57.37933 115.85198 8945271
-9.7849827 -56.740807 116.23862 9603457
-10.729204 -56.630943 116.07027 9274236
-9.8611889 -56.102528 116.45802 9537664
-10.618231 -55.785122 116.40797 9077113
-11.494482 -55.618652 116.27562 9208952
-10.81452 -54.891426 116.69534 10393229
-11.675756 -54.630795 116.6012 8419437
-12.416574 -54.47385 116.49532 9208952
-11.650026 -53.643986 116.97219 7695973
-12.557241 -53.636257 116.77425 8748660
-13.301073 -53.236542 116.75763 7038307
-11.924566 -52.843647 117.20769 8616818
-12.628946 -52.663921 117.11817 9142905
-13.517096 -52.528347 116.97083 6840926
-12.691259 -51.821598 117.41504 9472123
-13.505045 -51.72963 117.26781 6775383
-14.210558 -51.553623 117.17561 9143163
-12.83029 -51.156662 117.62906 5920074
-13.546091 -50.779751 117.60864 6709333
-14.427351 -50.567753 117.49061 9538691
-13.72336 -49.925289 117.884 5920074
-14.439329 -49.60128 117.84407 7894639
-15.31526 -49.610077 117.64589 8420984
-14.615839 -48.818302 118.09328 8092019
-15.364912 -48.648014 117.98931 11776427
-16.132345 -48.453598 117.89015 16579057
-15.405798 -47.805489 118.29062 13618631
-16.390375 -47.684055 118.11626 15065047
-15.546213 -47.028042 118.54581 10986911
-16.294676 -46.738838 118.48581 11512483
-17.15703 -46.575172 118.35419 8420727
-16.452559 -45.887939 118.77388 10920345
-17.274054 -45.662731 118.73115 9012863
-18.131544 -45.481876 118.65952 9341054
-17.37845 -45.128075 119.10352 9012348
-18.266859 -44.828415 119.15141 9143675
-19.091043 -44.494862 119.33035 8419952
-19.800867 -44.287289 119.51471 8946296
-20.164862 -44.139008 119.91161 8288366
-20.920321 -44.067429 119.97697 8288366
-21.888811 -43.928585 120.37571 9406847
-22.906233 -43.888897 120.72359 10459023
-23.854681 -43.888573 121.19501 8418928
-24.828936 -43.888744 121.49855 10063750
-25.808554 -43.88895 121.79372 11116180
-26.782305 -43.888664 122.26096 9208700
-27.640398 -43.88916 122.40842 10261132
-28.480852 -43.888645 122.90481 9405816
-29.49621 -43.889431 123.00928 9340281
-30.482103 -43.88818 123.82124 7827558
-31.376471 -43.889767 123.59674 7432800
-32.232761 -43.888264 124.44733 7563619
-33.034412 -43.686317 124.705 8287342
-33.367004 -42.948914 125.08319 9734788
8.2812843 -63.865536 110.67481 6248274
7.5540643 -63.545559 110.48566 6511446
7.5038133 -62.711792 110.79292 8089963
6.7587705 -62.346424 110.61395 8287597
7.3243432 -61.735939 111.09987 8089963
6.584662 -61.594055 110.83511 8419696
6.5237222 -60.72612 111.20686 8814455
5.7072015 -60.50539 111.00418 8485489
6.1789346 -60.176502 111.47192 7564651
5.5522065 -59.823105 111.50472 7762027
4.7191796 -59.395897 111.6244 9142906
3.7654443 -59.205933 111.74345 9208443
4.4591355 -59.138424 112.268 9012088
3.6187806 -59.040958 112.24372 8879734
2.8366227 -58.927017 112.3616 9668994
1.7588181 -58.885269 112.75473 10984854
0.97313929 -58.88517 113.08133 8681843
-0.14479211 -58.885319 113.44974 9405564
-0.9693656 -58.884914 113.90341 7563619
-2.0136771 -58.885223 114.18629 8418927
-2.9087348 -58.885109 114.56306 8682099
-3.8870444 -58.885239 114.88399 10326920
-4.7322211 -58.885235 115.20238 9208443
-5.5823417 -58.885246 115.51798 9800580
-6.637342 -58.72374 116.05205 10129802
-7.54318 -58.551712 116.02413 9735305
-6.7525802 -58.103977 116.40527 8090995
-7.455049 -57.755241 116.3788 8485752
-8.3490353 -57.656658 116.2174 9274754
-7.6612449 -56.93441 116.63702 10591124
-8.4735737 -56.652401 116.56163 9078142
-9.2911205 -56.586525 116.405 8814709
-8.5882778 -55.682617 116.89521 8355184
-9.431406 -55.643177 116.72321 8092011
-10.169203 -55.181881 116.73065 8092011
-8.7835827 -54.954899 117.12144 8092011
-9.4523182 -54.64447 117.08828 8092011
-10.331373 -54.496189 116.94861 10525325
-9.5873547 -53.781929 117.37773 8092011
-10.359392 -53.667583 117.24913 8946039
-11.130812 -53.555172 117.11999 9077113
-10.387445 -52.839695 117.54939 6117453
-11.269861 -52.695728 117.40739 7367008
-11.942003 -52.392849 117.37067 9537664
-10.550894 -52.156044 117.76623 7695973
-11.296083 -51.701782 117.76927 9011577
-12.144728 -51.67205 117.59176 9537661
-11.442724 -50.765499 118.08207 11379356
-12.232313 -50.681938 117.93707 8090728
-13.001581 -50.401287 117.86929 7893349
-12.294096 -49.747704 118.26759 8550764
-13.277025 -49.615574 118.09747 8222313
-12.351618 -49.080173 118.50078 8681835
-13.107309 -48.779118 118.44347 9274231
-14.024088 -48.681492 118.27538 8092019
-13.297869 -48.027401 118.67804 8420210
-14.104071 -47.670555 118.63009 8157811
-14.911238 -47.315823 118.58115 10855068
-14.230013 -46.66386 118.97299 8354933
-15.105833 -46.566589 118.81389 11249053
-15.865957 -46.273193 118.75281 10789017
-15.0175 -45.793205 119.15086 10196622
-15.981848 -45.58923 119.06317 11774882
-15.383562 -45.173031 119.51087 11380124
-16.070604 -44.95134 119.53206 9735555
-16.957014 -44.680687 119.56757 9472383
-17.792131 -44.324116 119.89976 10064003
-18.70508 -44.191032 120.06242 9603710
-18.783396 -44.03091 120.55965 9866623
-19.696783 -43.954117 120.67659 8550767
-20.762667 -43.88644 120.78588 8288366
-21.513865 -43.88483 121.63484 8222317
-22.539038 -43.886452 121.44814 10459023
-23.455851 -43.885094 122.27107 10985367
-24.453764 -43.885754 122.41257 7892584
-25.423525 -43.885429 122.89003 9537406
-26.311365 -43.886909 122.70253 9142649
-27.119398 -43.885342 123.55743 8089963
-28.137754 -43.886086 123.67839 9734788
-29.137556 -43.885826 124.1456 8550770
-30.14805 -43.885571 124.61516 7761510
-31.059248 -43.665493 125.02256 10392718
-31.937956 -43.557564 125.01005 8813686
-32.701664 -43.400665 125.00975 9011065
-31.182936 -43.028774 125.35312 12432045
-31.890028 -42.767384 125.35155 9142909
-32.871449 -42.700428 125.24158 8879479
-32.098549 -41.852871 125.65617 8419702
-32.93605 -41.739548 125.58279 8814201
-33.503792 -41.521652 125.58441 11708572
-32.87796 -40.86219 125.9104 8879995
-33.47607 -40.501431 125.96001 9011837
-33.56176 -39.824646 126.19501 8617080
9.8246632 -64.386017 111.13889 8814712
8.9636765 -64.239334 110.82327 7038307
9.5965233 -63.793377 111.2738 7038301
8.815361 -63.542557 111.03396 7037791
9.4223938 -63.006695 111.50875 8354159
8.7330284 -62.697609 111.33163 8288112
8.0458069 -62.391273 111.15449 8222063
8.6182117 -61.865856 111.60958 8419955
7.8839097 -61.549561 111.41585 8354162
7.8382974 -60.705742 111.79277 8748922
7.051579 -60.43285 111.637 9011838
6.8444238 -59.785385 112.09428 7893615
6.0362687 -59.406895 112.18701 7564651
5.2767053 -59.20966 112.3722 8288369
5.7076745 -59.119556 112.8625 7564651
4.9771867 -59.055447 112.7709 8748917
4.153769 -58.924599 112.93987 7893607
3.10496 -58.882225 113.32056 7827814
2.3193231 -58.882103 113.65963 8945783
1.1996903 -58.882202 114.04379 9537407
0.40366217 -58.882122 114.3727 12563624
-0.72913122 -58.882275 114.7415 9537662
-1.509294 -58.881939 115.15399 9142648
-2.6557479 -58.882153 115.50841 9734784
-3.3604026 -58.882122 115.78468 9603199
-4.3769736 -58.880367 116.06558 10326923
-5.2006698 -58.543068 116.54029 12300715
-6.0470176 -58.60754 116.37497 11840164
-5.4495635 -57.62928 116.86935 11971750
-6.3176589 -57.647705 116.67038 9603717
-6.1713347 -56.656799 117.06959 8880251
-7.1169753 -56.59251 116.88407 8748923
-6.4300094 -55.902744 117.29146 9341059
-7.2284636 -55.650585 117.20808 9406852
-8.0415058 -55.540798 117.06874 8090993
-7.2013793 -54.846573 117.51172 9077884
-8.0920963 -54.692917 117.37144 10854291
-8.7967205 -54.501942 117.28613 8092011
-7.4059157 -54.129894 117.73173 8814710
-8.1508236 -53.715652 117.72021 11381403
-9.0652409 -53.696804 117.5248 8618098
-8.281805 -52.874256 118.00265 10065801
-9.0304737 -52.709961 117.89778 8289390
-9.8384304 -52.491261 117.79993 8090987
-9.2062931 -51.722458 118.22441 10197132
-10.071611 -51.625282 118.06888 8749175
-10.722624 -51.248032 118.06432 10525073
-9.9801464 -50.713425 118.42646 8486006
-10.9419 -50.608231 118.25146 10130827
-10.249125 -49.970573 118.64064 7564651
-10.962946 -49.738029 118.56742 9077884
-11.772108 -49.478161 118.48308 9997955
-11.055208 -48.797791 118.89331 10196107
-11.917528 -48.619156 118.76721 9866368
-12.658175 -48.469856 118.65739 8681835
-11.867544 -47.693733 119.11933 9734782
-12.82316 -47.566784 118.95341 9143160
-12.058615 -46.898491 119.3698 10064004
-12.872492 -46.668423 119.27345 10261900
-13.699274 -46.579224 119.12229 9275777
-12.859201 -45.877949 119.58559 11380638
-13.748106 -45.647545 119.53297 9472900
-14.661291 -45.279675 119.58765 9078398
-13.836164 -44.950962 120.02806 9012606
-14.715448 -44.715435 120.0182 8946297
-15.595701 -44.464626 120.12806 9340797
-16.49975 -44.246857 120.36334 9077625
-17.263926 -44.206013 120.32819 9208435
-16.611662 -44.054527 120.95683 11380124
-17.505556 -43.990582 120.96759 9340022
-18.385195 -43.913609 121.06657 10458762
-19.359358 -43.882427 121.67294 11906212
-20.340387 -43.883007 121.83787 9208444
-21.242228 -43.88158 122.67762 9931910
-22.276129 -43.883205 122.49277 10919061
-23.198412 -43.881805 123.33199 11379612
-24.089426 -43.883247 123.16011 8879479
-25.180788 -43.882111 123.96928 7563619
-26.076353 -43.883591 123.78306 7563619
-26.889215 -43.881985 124.65439 9208444
-27.789648 -43.883507 124.45584 8484721
-28.815508 -43.711967 125.38471 9603202
-29.736578 -43.543571 125.3309 9076602
-30.522821 -43.482887 125.27809 9537153
-29.020243 -42.961163 125.67388 9537153
-29.699926 -42.703842 125.67455 8813430
-30.707479 -42.66687 125.55006 9997961
-29.873407 -42.035141 125.89441 8089963
-30.613817 -41.740467 125.90044 8156015
-31.52257 -41.724323 125.78185 8156530
-30.74827 -40.918953 126.18151 8353651
-31.618708 -40.660511 126.15646 8353909
-32.524296 -40.531536 126.07942 9077374
-31.585772 -39.70525 126.50931 8156530
-32.544907 -39.606239 126.41398 9274496
-33.395737 -39.367245 126.38455 9406338
-32.557446 -38.661621 126.75669 8156530
-33.46373 -38.652004 126.63605 10195340
-32.580585 -37.984879 127.00031 7563619
-33.43721 -37.722698 126.97849 8090736
-33.519825 -36.951004 127.24858 8616049
-33.961174 -36.752377 127.26047 9340031
-34.022396 -36.114632 127.48467 10261132
11.612661 -64.883614 111.71808 10590092
11.031269 -64.529633 111.60559 8814452
10.22258 -64.2425 111.36811 9735297
10.837168 -63.758705 111.82564 5525833
10.128996 -63.493694 111.62303 7367522
10.136271 -62.727512 111.92828 9274747
9.3505192 -62.345131 111.73825 8814715
9.9452744 -61.831188 112.19846 9340541
9.1578999 -61.541847 111.9711 8419955
9.7712898 -61.005211 112.44836 8419955
9.0700798 -60.681419 112.33694 8288368
8.2993469 -60.397797 112.20526 8288368
8.1710052 -59.799557 112.65935 8025197
7.3083692 -59.39452 112.77352 7564651
6.5310616 -59.192795 112.96226 7564651
7.1081491 -59.115643 113.47012 7564651
6.2768464 -59.059334 113.30823 9406595
5.3891778 -58.917091 113.56824 10525328
4.3184915 -58.878986 114.00823 6775126
3.5685143 -58.879219 114.20688 7104091
2.6127687 -58.879177 114.57879 8090987
1.7310395 -58.878937 114.99538 8814453
0.68329859 -58.879177 115.30559 9800833
-0.21077493 -58.878975 115.71122 8551279
-1.2700629 -58.879265 116.00665 9735296
-2.1178985 -58.878853 116.47047 12234658
-3.1136947 -58.640873 116.93205 9275006
-4.0579047 -58.563892 116.80975 9405821
-3.3112082 -57.947483 117.22489 9143934
-4.0708899 -57.714016 117.14314 9143419
-4.8590026 -57.526764 117.038 9668994
-4.0746589 -56.875328 117.45277 8880246
-4.9662757 -56.709465 117.31685 9011320
-5.670774 -56.508564 117.23527 9011320
-4.2728934 -56.152222 117.67666 9209467
-4.9948249 -55.797756 117.64802 9077881
-5.9401412 -55.642555 117.49619 9406590
-5.1390014 -54.879147 117.95616 9209467
-5.8746009 -54.709225 117.85624 8814710
-6.712522 -54.603626 117.70984 9077882
-6.0048957 -53.839546 118.14934 8354159
-6.87359 -53.639481 118.03111 8025194
-7.6136756 -53.313789 117.98785 9407871
-6.8446784 -52.723412 118.3766 8354671
-7.8289542 -52.57159 118.21497 8223597
-7.0331779 -52.042721 118.58686 9078906
-7.7951255 -51.723309 118.53646 9539457
-8.6473255 -51.551403 118.41148 11710626
-7.8936095 -50.790867 118.85985 9210492
-8.7644672 -50.744404 118.68428 11381151
-9.4769382 -50.557949 118.59561 9144191
-8.7531338 -49.789833 119.03989 8354420
-9.6483707 -49.5853 118.91627 7959664
-8.9584866 -48.933563 119.31002 8485747
-9.6790447 -48.598576 119.27301 8880762
-10.566397 -48.594845 119.0769 8090735
-9.7761974 -47.769684 119.55682 7367271
-10.562319 -47.659172 119.42257 7827046
-11.37604 -47.424583 119.32789 9734782
-10.638056 -46.824215 119.71336 7037274
-11.566103 -46.629162 119.57866 9537404
-10.761141 -46.004108 119.98815 7037274
-11.497534 -45.791851 119.94379 11116179
-12.388739 -45.527599 119.91434 11314328
-13.096609 -45.236889 119.96828 10459275
-12.487162 -44.826752 120.4247 10261896
-13.445906 -44.581364 120.4607 9406589
-14.292768 -44.312035 120.64946 10328204
-15.097193 -44.234116 120.7096 8090987
-14.579569 -44.082615 121.30884 10986132
-15.389948 -44.006573 121.37631 11446170
-16.159483 -43.964027 121.34526 11248794
-17.185621 -43.884106 121.85153 9734780
-18.13508 -43.879662 122.18826 9208435
-18.970541 -43.879971 122.3911 9800833
-19.910627 -43.879524 122.90205 9010808
-20.882784 -43.879589 123.24386 9471359
-21.859613 -43.879681 123.57755 10063496
-22.82543 -43.879272 124.08549 9142910
-23.834944 -43.879917 124.23622 7367010
-24.68292 -43.879814 124.59135 7037786
-25.535849 -43.879734 124.93982 7037786
-26.619566 -43.643715 125.59899 9734787
-27.537989 -43.582771 125.64963 8353134
-28.370996 -43.338959 125.62512 9471616
-27.539095 -42.644302 125.99214 7827559
-28.490923 -42.629642 125.86713 9274237
-29.227694 -42.333309 125.87424 9537153
-28.392 -41.705406 126.21761 8945530
-29.400415 -41.664532 126.09432 8813430
-30.082838 -41.406792 126.09486 8089963
-28.463854 -40.938892 126.48725 9406080
-29.360697 -40.751541 126.43266 7564392
-30.267324 -40.713863 126.32217 8221807
-29.379839 -39.90567 126.73846 7038307
-30.318254 -39.712589 126.68027 7695720
-31.140657 -39.426464 126.67192 8287858
-29.649744 -39.171852 126.96902 7038307
-30.414358 -38.602539 127.07185 7958377
-31.327734 -38.615421 126.942 9471872
-32.018368 -38.392216 126.92876 8484977
-31.241732 -37.6964 127.28889 9800837
-32.197079 -37.583183 127.19929 9536893
-32.954323 -37.358673 127.17738 7563619
-31.423269 -36.833805 127.57858 9142393
-32.179539 -36.725422 127.51445 11181461
-33.161842 -36.589581 127.42937 8681842
-32.337986 -35.806671 127.82773 11444375
-33.163197 -35.799534 127.71729 9602687
-33.909744 -35.630844 127.67647 9011064
-33.183701 -34.899429 128.04268 9273979
-33.911922 -34.605694 128.04999 9208444
-33.251827 -34.169102 128.29959 9011064
-34.035519 -33.596546 128.40099 7366239
-34.329063 -32.91687 128.60863 6510930
13.170979 -65.27533 112.2394 8813683
13.042442 -64.939606 112.31616 10590092
12.376549 -64.68618 112.12733 7497825
11.63728 -64.287399 111.96404 7037274
12.161438 -63.738907 112.40775 7234910
11.461847 -63.600491 112.159 5460040
11.976782 -63.01685 112.61211 8748661
11.308582 -62.660328 112.46291 10458763
10.578993 -62.234329 112.31437 12432037
11.167231 -61.775032 112.75027 11248537
10.462715 -61.536114 112.53896 10458763
10.450533 -60.714581 112.91454 9340542
9.5945015 -60.370083 112.78799 8814455
10.117611 -60.030834 113.29482 8945783
9.4155941 -59.740406 113.24428 9406078
8.5788193 -59.346928 113.39044 8682868
7.9382463 -59.191185 113.56496 8682867
8.2470398 -59.089504 114.04272 8682867
7.5279298 -59.04203 113.89768 8945784
6.6781144 -58.902363 114.17329 10261130
5.6480203 -58.876244 114.47414 9735556
4.7776437 -58.875923 114.91396 6906713
3.7384667 -58.876072 115.25179 7433056
2.7744851 -58.876019 115.63229 8090987
1.944056 -58.875854 116.00245 9274747
0.96749735 -58.876183 116.25175 10524299
0.12706992 -58.875721 116.73161 9735296
-1.0213561 -58.831715 117.05035 8156522
-1.7961249 -58.54908 117.36272 8749176
-2.5553946 -58.566906 117.16284 11577243
-1.8934608 -57.790421 117.61619 7960175
-2.6729712 -57.607594 117.49197 8880763
-3.4112258 -57.432213 117.39348 9143934
-2.0061431 -56.939575 117.89892 9143934
-2.7859015 -56.64436 117.82355 9078141
-3.6415496 -56.536407 117.67412 8880503
-2.8647132 -55.878075 118.08975 8946297
-3.6693358 -55.58976 118.01841 8748660
-4.510675 -55.346851 117.9221 8551026
-3.7637115 -54.710995 118.32281 8287597
-4.6820235 -54.580597 118.16783 8748404
-5.4323974 -54.254486 118.12246 8814710
-4.0209479 -54.048882 118.51105 8813683
-4.5925765 -53.734135 118.50099 8682612
-5.5164809 -53.53149 118.37149 8419952
-4.7773833 -52.847805 118.78818 8420208
-5.6022735 -52.733555 118.64788 8025194
-6.4101768 -52.481747 118.56226 9077882
-5.5910926 -51.829411 118.98506 8748917
-6.4283385 -51.627129 118.8746 9801862
-7.1892524 -51.431686 118.77856 10065801
-5.7795234 -50.913452 119.28242 7170141
-6.5727477 -50.680744 119.19301 9077117
-7.4312758 -50.549286 119.05161 8814970
-6.5615058 -49.863674 119.49792 9011582
-7.3748183 -49.617538 119.40903 8617081
-8.2030392 -49.512775 119.26438 8485750
-7.506391 -48.775913 119.69109 8682874
-8.5012417 -48.629486 119.52379 8880504
-7.5546203 -48.105709 119.92749 8090995
-8.3026676 -47.741604 119.89513 8354161
-9.2443485 -47.682499 119.70731 8354162
-8.5850964 -47.002411 120.10463 8485747
-9.3100185 -46.667835 120.06655 7959405
-10.061293 -46.423641 119.9893 7037274
-9.3950596 -45.801765 120.38782 7432804
-10.231783 -45.628761 120.32396 7037274
-11.088434 -45.303612 120.36157 10326663
-10.320238 -45.00119 120.76891 9010805
-11.250372 -44.752205 120.77709 9997699
-12.102987 -44.413372 120.96927 9406332
-13.069525 -44.266506 121.04717 9538175
-12.396097 -44.119324 121.66631 8682867
-13.164904 -44.073643 121.64554 11840927
-14.037222 -43.98428 121.74226 13880250
-14.9853 -43.896061 122.18742 12564136
-15.923777 -43.876423 122.49837 10986132
-16.90333 -43.876907 122.696 11182484
-17.834631 -43.876408 123.2227 8814451
-18.825068 -43.876926 123.40964 8748143
-19.622641 -43.876232 123.95507 9274236
-20.518282 -43.877598 123.80901 9602945
-21.435564 -43.876118 124.67517 8550773
-22.447298 -43.876724 124.84258 8287859
-23.424738 -43.876308 125.35498 7432806
-24.460165 -43.770042 125.68343 8090986
-25.218641 -43.46928 126.00929 8090986
-26.114775 -43.474728 125.88459 9340541
-25.340384 -42.645626 126.29288 9077881
-26.211538 -42.541985 126.21132 10721426
-26.970304 -42.511738 126.11839 8879991
-26.183401 -41.687428 126.52676 9932422
-27.210192 -41.615517 126.41232 9143163
-27.913271 -41.347481 126.41376 10590351
-26.402403 -40.837601 126.80663 9735043
-27.144423 -40.724518 126.7462 10327180
-28.107901 -40.582771 126.66586 10327179
-27.289053 -39.811684 127.05919 10195594
-28.099703 -39.798977 126.9528 10590351
-28.926928 -39.597462 126.91287 7038307
-28.152037 -38.856236 127.28934 8814201
-29.020185 -38.642315 127.24839 9998472
-29.833849 -38.477619 127.19697 8682356
-29.011713 -37.702602 127.59219 10327179
-29.985792 -37.562107 127.50993 8353135
-30.73855 -37.452049 127.44695 7563619
-29.209551 -36.934792 127.84505 9536894
-29.963148 -36.705948 127.82521 8418671
-30.918917 -36.589508 127.73671 7892583
-30.137075 -35.895763 128.09677 8681843
-30.83066 -35.66909 128.08441 9865602
-31.752016 -35.68034 127.95406 10786703
-31.017775 -34.854187 128.35591 11115410
-31.86352 -34.738232 128.28232 11839132
-32.644478 -34.712029 128.18488 11575962
-31.868872 -33.810066 128.62 11707289
-32.785877 -33.637913 128.55716 9143164
-33.543842 -33.322182 128.56841 7630697
-32.096107 -32.854458 128.93729 10260617
-32.798954 -32.592197 128.93661 7894126
-33.784447 -32.579468 128.80624 8815484
-34.390556 -32.275295 128.83409 10788759
-32.981159 -31.914217 129.15887 9144449
-33.74712 -31.613211 129.16368 11775140
-34.45216 -31.632982 129.05984 11841189
-33.778301 -30.865295 129.44742 11841189
-34.400055 -30.677588 129.48305 12433069
-34.673592 -30.080929 129.87648 11380639
112.15317 -78.393013 76.948151 8681835
14.408699 -65.471222 112.69898 8945528
13.742308 -65.421234 112.42966 10327180
14.304186 -64.855667 112.89655 9406334
13.568298 -64.653114 112.65728 10064521
13.418266 -63.732357 112.95522 8091761
12.70075 -63.585068 112.70219 8420212
13.42767 -62.918255 113.27986 8815227
12.671227 -62.691021 113.04147 9736071
12.008215 -62.27359 112.91845 10459022
12.524433 -61.796314 113.33018 9998472
11.785194 -61.583733 113.09346 9668994
12.351727 -61.00523 113.56685 8681843
11.651991 -60.640606 113.48431 9274236
10.854445 -60.379829 113.3245 8681843
11.259193 -60.122234 113.71257 10459022
10.742344 -59.733326 113.82974 10327436
9.8650894 -59.339691 113.97224 9800580
9.6784534 -59.091572 114.64322 10261132
8.864727 -59.049946 114.44824 9406078
8.0191765 -58.903858 114.74917 8748660
7.0684266 -58.872952 115.10088 10852751
6.0339723 -58.873028 115.46239 10852753
5.1568589 -58.872696 115.90895 8879479
4.0476022 -58.873081 116.19012 8024169
3.2444024 -58.872913 116.54825 8551024
2.2361398 -58.873524 116.71368 9274747
1.5387292 -58.872868 117.20586 11576217
0.38978431 -58.78334 117.69178 12958639
-0.44080499 -58.579254 117.73588 12958638
-1.1497321 -58.26231 117.67229 9735296
-0.48223642 -57.765461 118.07397 11248023
-1.3423896 -57.527996 117.88915 10459277
-0.73074102 -56.94479 118.30571 9997961
-1.442018 -56.611553 118.20452 9603716
-2.2943015 -56.302628 118.05888 9143934
-1.47928 -55.75597 118.51724 9406082
-2.3319373 -55.626968 118.30776 9011581
-1.7373328 -55.000751 118.7208 9011582
-2.4101424 -54.690907 118.63855 8221808
-3.2329764 -54.636166 118.46799 8221805
-2.5612502 -53.766544 118.94051 9208439
-3.3155379 -53.64534 118.81651 8616305
-4.0294433 -53.442951 118.73339 8089963
-3.3987937 -52.655689 119.16444 8945269
-4.3266997 -52.57074 118.99052 7564387
-3.4806418 -51.818214 119.45638 8813683
-4.19803 -51.61834 119.37154 7498850
-5.1044402 -51.458252 119.23017 7762278
-4.4359679 -50.740246 119.64395 7696485
-5.318151 -50.613544 119.49557 7235934
-6.0769401 -50.293205 119.44617 9011582
-5.1718192 -49.776356 119.83788 6643797
-6.1223311 -49.622055 119.68459 9932167
-5.4337707 -49.027584 120.05708 9208699
-6.1480536 -48.664761 120.03328 10392718
-6.9726501 -48.512959 119.90677 8288373
-6.3034949 -47.633537 120.37989 9077114
-7.1071181 -47.649307 120.19521 8156530
-7.860147 -47.338974 120.14193 7367271
-7.1100631 -46.694515 120.54638 7563875
-8.0244579 -46.520439 120.40697 7169890
-7.3218932 -45.867954 120.81031 9011320
-8.0088482 -45.723434 120.75038 7038299
-8.8997173 -45.541828 120.67197 7564646
-8.2211399 -45.151039 121.11726 7761509
-8.9568844 -44.908463 121.14406 7169372
-9.8709736 -44.589809 121.2398 8879733
-10.810209 -44.362862 121.3129 10458250
-10.790686 -44.150681 121.91521 9537664
-11.757524 -44.039757 122.06033 8946039
-12.760698 -43.932587 122.31044 9998725
-13.559278 -43.873089 122.78535 9538175
-14.446676 -43.874325 122.6834 11578012
-15.455854 -43.872952 123.5463 10000008
-16.497385 -43.874447 123.41058 10656910
-17.379206 -43.872883 124.29175 8814451
-18.426924 -43.874432 124.13979 8814451
-19.178888 -43.872665 125.04488 8879734
-20.232809 -43.87426 124.87726 8682355
-21.155485 -43.872738 125.76047 7169890
-22.064032 -43.874153 125.60329 7038307
-22.964746 -43.58876 126.35007 8485493
-23.980772 -43.605003 126.13315 8419951
-23.252504 -42.928856 126.52945 7959145
-23.985765 -42.659412 126.48232 7827814
-24.814039 -42.466152 126.43047 9209467
-23.959944 -41.629646 126.85989 9208955
-24.953341 -41.599747 126.72725 9406590
-25.748259 -41.298779 126.72807 9735043
-24.226038 -40.954708 127.06213 11379356
-24.866701 -40.649502 127.08562 9537664
-25.859419 -40.636589 126.95429 9143163
-25.126055 -39.915844 127.3176 9340286
-25.805521 -39.685814 127.30836 9208700
-26.711576 -39.690456 127.18253 9669250
-25.979593 -38.875969 127.57983 9142651
-26.80971 -38.755131 127.51012 10064265
-27.721518 -38.542072 127.46286 8551030
-26.848776 -37.835796 127.83997 10721679
-27.772463 -37.564186 127.81245 8617079
-28.652357 -37.345703 127.77158 10458507
-27.702829 -36.622295 128.16541 9866629
-28.724524 -36.576183 128.04224 9405822
-29.576632 -36.30687 128.02371 9536894
-28.04328 -35.794113 128.42075 9011579
-28.685179 -35.64883 128.38576 10391688
-29.593847 -35.629993 128.26814 10917774
-28.74317 -34.932884 128.63887 11115153
-29.597273 -34.683846 128.61266 10194310
-30.473738 -34.669941 128.49762 10983824
-29.642633 -33.892452 128.89497 8879222
-30.627722 -33.7495 128.81215 9668737
-31.389063 -33.63744 128.7487 11904668
-29.843134 -33.120255 129.14908 8681843
-30.577166 -32.720627 129.19421 7038307
-31.473505 -32.678146 129.0869 10260617
-32.250359 -32.32346 129.10977 9340287
-31.505537 -31.587538 129.48016 9077629
-32.49456 -31.53966 129.36211 8552312
-33.200294 -31.276424 129.36137 10788759
-31.628637 -30.915266 129.70839 9735558
-32.465485 -30.689922 129.73544 10130314
-33.436039 -30.522324 129.71609 10065293
-32.743782 -30.034525 130.17555 11181972
-33.415432 -29.900209 130.18729 10525072
-34.346024 -29.6584 130.28247 10656917
-34.932625 -29.247272 130.83852 7039331
111.94599 -78.377518 77.202507 8681835
111.53149 -78.347717 77.710571 10721423
110.9996 -78.30278 78.33503 8617331
112.24191 -77.591148 77.291672 9537146
111.65786 -77.686943 77.930504 9931905
112.50981 -76.582245 77.538574 9931905
111.97114 -76.872681 78.014626 9931905
113.10677 -75.493561 77.598167 9734787
112.68096 -75.921547 77.705391 9931905
15.690403 -65.652481 113.1834 9077369
14.951418 -65.53054 112.91101 7958632
15.522112 -64.965889 113.38136 8682355
14.896822 -64.593636 113.25687 8879991
14.790169 -63.661129 113.57793 8551283
14.076517 -63.583431 113.29918 7894383
14.608232 -62.75526 113.8558 8815227
13.959148 -62.630402 113.62364 7302246
13.167801 -62.25161 113.42983 8815227
13.747084 -61.688007 113.90281 7236453
13.007954 -61.510948 113.65215 8486005
13.513039 -61.129559 114.02121 7039331
12.956308 -60.673698 114.02072 7893099
12.257092 -60.31485 113.98451 9537664
12.721609 -60.025707 114.42458 7564651
12.009068 -59.727043 114.37617 9801348
11.165476 -59.329746 114.54086 9471871
10.52132 -59.171234 114.72933 8682867
10.84446 -59.070019 115.2116 8089963
10.113226 -59.020485 115.07585 9274748
9.2606297 -58.886066 115.38749 9472127
8.226408 -58.869915 115.73651 9143161
7.2720704 -58.869736 116.15771 9143161
6.5117669 -58.869915 116.38084 9406076
5.4467645 -58.869972 116.75764 8418928
4.6438966 -58.869781 117.12874 8418928
3.521853 -58.870186 117.40708 8682354
2.6214738 -58.869896 117.84666 8945525
1.6134362 -58.668858 118.40162 8156524
0.87403727 -58.506214 118.27264 8617078
1.4121461 -58.03487 118.69917 7038307
0.66350794 -57.644691 118.5285 9208957
-0.017907642 -57.339432 118.38386 9406335
0.66805506 -56.747227 118.88068 8945785
-0.13799813 -56.588787 118.63226 9077372
0.55340815 -56.059536 119.10041 10261385
-0.20284799 -55.670307 118.96092 9011581
-0.99354696 -55.483852 118.77565 9734790
-0.30917504 -54.837769 119.23926 9011582
-1.1214385 -54.593727 119.0722 9669254
-1.7427382 -54.242752 119.00599 9011582
-1.1165137 -53.740509 119.39731 10063754
-1.9516654 -53.569828 119.19267 9340286
-1.369535 -52.974342 119.60693 8484977
-2.1284347 -52.663868 119.48151 9208439
-2.9025741 -52.312759 119.40119 8813683
-2.0832 -51.822414 119.81139 8681842
-2.9666381 -51.673065 119.62385 8747891
-2.3416114 -51.001354 120.03796 8287085
-3.0348525 -50.67075 119.98001 8418670
-3.8966422 -50.672359 119.78845 8419695
-3.1471992 -49.650974 120.33242 9734271
-3.9388442 -49.673927 120.14872 8746604
-4.660501 -49.476749 120.06197 8155238
-3.9523139 -48.692905 120.5089 9404791
-4.8664489 -48.585457 120.34631 9865599
-5.5444083 -48.218521 120.33214 10787215
-4.1063628 -48.004868 120.72954 10128771
-4.833673 -47.659107 120.69651 12300453
-5.762342 -47.561317 120.52679 9340028
-4.9913611 -46.866848 120.95436 11445143
-5.8129668 -46.698986 120.8334 8879477
-6.5393882 -46.458061 120.76048 9142649
-5.8462386 -45.868622 121.15349 8221548
-6.7560439 -45.583263 121.13053 9537408
-7.4968581 -45.182529 121.25335 9011320
-6.8592582 -44.879181 121.63248 9603458
-7.7444739 -44.71405 121.56955 8287853
-8.5999584 -44.360798 121.83931 7432800
-9.6209202 -44.17572 122.08948 9208699
-9.5149975 -44.01762 122.61927 8682611
-10.560904 -43.953323 122.67128 8485232
-11.486166 -43.870277 122.99905 9077885
-12.458006 -43.870651 123.23193 8881021
-13.369677 -43.870033 123.79188 8486519
-14.413366 -43.871483 123.6737 9736836
-15.130091 -43.869648 124.5883 8814710
-16.180384 -43.871143 124.45484 13550517
-17.066938 -43.869541 125.35291 8024936
-18.123522 -43.87109 125.20312 8222314
-19.031145 -43.869511 126.1017 8419183
-19.942266 -43.87088 125.95988 7432800
-20.837286 -43.62291 126.65762 7695977
-21.777456 -43.497574 126.64809 9340802
-22.555086 -43.172661 126.5948 10459281
-21.782068 -42.621365 126.97037 9932938
-22.70196 -42.470226 126.82128 9472130
-21.967962 -41.681076 127.27588 10788246
-22.766573 -41.621803 127.11994 8946041
-23.483355 -41.375683 127.05114 9735043
-22.803835 -40.690678 127.45522 8090730
-23.69602 -40.637913 127.27812 9537664
-24.270056 -40.323017 127.28642 9735043
-23.585733 -39.719326 127.63949 7038298
-24.588263 -39.656078 127.48601 8419184
-23.85084 -38.950798 127.86397 7301470
-24.580095 -38.717087 127.82977 8024427
-25.442293 -38.697025 127.71866 9340286
-24.638464 -37.835724 128.14297 7301221
-25.549265 -37.652702 128.08479 8748151
-26.351198 -37.381641 128.07373 11050900
-25.559668 -36.587227 128.47185 7038307
-26.524698 -36.588032 128.33931 9735299
-27.220877 -36.254593 128.36551 9735043
-25.832922 -35.911022 128.68098 9406590
-26.484289 -35.604439 128.70351 9669762
-27.427011 -35.622353 128.56781 10064264
-28.081083 -35.317169 128.58946 9011579
-26.689215 -34.971535 128.9062 10854036
-27.388533 -34.637043 128.93233 9341054
-28.350374 -34.578896 128.82178 10326409
-27.443689 -33.773926 129.2395 8551540
-28.365458 -33.728104 129.12991 9275778
-29.279451 -33.534264 129.07538 8485235
-28.319658 -32.808285 129.47156 10985881
-29.298372 -32.788288 129.34477 8815484
-30.117537 -32.379055 129.38173 7038307
-28.651484 -32.134701 129.67174 12433069
-29.295675 -31.720345 129.73451 9538437
-30.258467 -31.590996 129.64975 7827821
-30.947485 -31.381706 129.63167 9735558
-29.391966 -30.866562 130.03262 7038307
-30.178335 -30.692823 130.04211 8354164
-31.20466 -30.540257 130.00716 12959152
-32.046249 -30.317831 130.05254 11181972
-31.224737 -29.882084 130.50018 13221809
-32.09803 -29.690428 130.52783 10655885
-33.049686 -29.387539 130.81424 10853007
-33.967945 -29.230631 131.01993 11775140
-34.136242 -29.020475 131.66641 7564651
-34.782677 -29.031441 131.54524 9341059
110.51251 -78.225304 78.789734 8617331
110.14296 -78.164986 79.126755 9735812
111.39072 -77.397087 78.40934 9931905
110.86272 -77.622787 78.780273 8814453
109.99075 -77.708466 79.468369 9406847
109.31438 -77.777779 80.000763 9670019
111.7295 -76.60495 78.445816 10326663
110.92965 -76.71286 79.151871 8682354
110.25687 -76.935745 79.609177 8353135
113.30347 -75.183472 77.732765 9537409
112.59747 -75.609543 78.104637 9208185
111.90894 -75.76017 78.771667 9339772
111.26422 -75.916901 79.255005 10326922
113.59413 -74.63179 78.092392 9208444
112.88438 -74.943336 78.513908 9011063
112.27184 -75.122604 79.026588 8089963
17.666573 -66.456299 113.72342 5919050
17.077696 -66.297432 113.53066 5919050
17.026825 -65.807831 113.70179 6379601
16.380932 -65.496643 113.54443 6510930
16.962082 -64.932961 114.01854 6116172
16.168247 -64.639328 113.7901 6905944
16.039522 -63.69352 114.10677 6905688
15.374123 -63.631065 113.84288 8682355
15.89019 -62.821663 114.38535 6510930
15.17804 -62.662277 114.13942 8485233
15.106909 -61.725857 114.47736 7038306
14.424551 -61.549744 114.25095 7038307
15.002909 -60.882656 114.76432 9011579
14.282358 -60.654831 114.6138 8419700
13.469603 -60.383583 114.4516 7038307
14.002972 -59.980244 115.01599 8353651
13.22167 -59.684261 114.93844 7827821
12.38574 -59.263252 115.20692 8880504
12.165342 -59.064316 115.79172 8617333
11.401766 -59.032089 115.59726 8156784
10.554756 -58.885605 115.99972 8089963
9.5380249 -58.866756 116.35633 9405821
8.5738354 -58.86689 116.67142 8617075
7.7801957 -58.866615 117.06381 8682867
6.6316361 -58.867241 117.27741 8814197
5.8900933 -58.866673 117.75468 9208443
4.9653306 -58.866714 118.08792 9800581
3.834784 -58.867104 118.37437 9208442
2.9216828 -58.69529 119.0071 8485231
2.2262826 -58.487965 118.87468 8156523
2.010901 -57.663559 119.10467 10524041
1.4140267 -57.425785 118.93865 11905692
1.9121995 -56.643711 119.46152 10919316
1.2362008 -56.671539 119.15706 11050642
1.0685945 -55.671021 119.47641 10261902
0.26589438 -55.404369 119.23235 7038307
0.95843363 -54.672176 119.82004 7498857
0.32308432 -54.656937 119.55014 7169377
0.84342051 -53.985756 120.03917 7038307
0.042730786 -53.670624 119.82105 7629923
-0.60083532 -53.467293 119.66571 8682867
0.046598889 -52.721535 120.18856 6576979
-0.75898504 -52.586349 119.94912 6708822
-0.79110098 -51.655354 120.29237 6905945
-1.6388221 -51.532566 120.06612 7694948
-0.89948416 -50.934517 120.53051 7892583
-1.663671 -50.595863 120.41251 7168604
-2.3470511 -50.397564 120.26482 7958120
-1.7425246 -49.776035 120.69731 6510930
-2.606916 -49.580559 120.4948 7497567
-1.9245887 -49.085709 120.89941 6839895
