# .PCD v0.7 - Point Cloud Data file format
VERSION 0.7
FIELDS x y z rgb
SIZE 4 4 4 4
TYPE F F F U
COUNT 1 1 1 1
WIDTH 1207
HEIGHT 1
VIEWPOINT 0 0 0 1 0 0 0
POINTS 1207
DATA ascii
149.88124 -39.79726 -50.196163 10721936
150.1393 -39.900185 -49.319725 9932164
150.48749 -39.849262 -48.351727 9669506
150.79059 -39.853497 -47.454144 9143418
151.09334 -39.859154 -46.55611 9735555
151.45619 -39.867611 -45.477844 11051157
151.75818 -39.876045 -44.578709 9801862
152.05988 -39.885899 -43.678947 10854294
152.42157 -39.899399 -42.598381 11183258
152.72267 -39.912052 -41.697147 8618099
153.02356 -39.926109 -40.795097 9010806
153.38425 -39.944687 -39.711514 8352877
153.68454 -39.961517 -38.807533 11709090
153.92099 -40.072983 -37.984772 9801353
154.28458 -39.999386 -36.996552 7564651
154.58437 -40.020344 -36.089466 11378841
170.6734 -40.085964 21.955666 8681835
170.75082 -39.982452 22.870937 9275519
170.90346 -39.673313 23.799236 8683126
170.93457 -39.714561 24.852272 9011832
170.978 -39.712421 25.8256 7893351
171.06526 -39.585281 26.765682 7564642
147.32439 -38.663647 -59.008457 9537408
147.56842 -38.936462 -57.981129 10524047
147.87717 -38.92709 -57.082481 9405822
148.24692 -38.917465 -56.004303 8879477
148.55441 -38.91082 -55.10598 10919317
148.86147 -38.905563 -54.20768 8617338
149.22922 -38.900841 -53.129749 7170148
149.53514 -38.898338 -52.231419 8618355
149.84067 -38.897167 -51.332996 11315612
150.20671 -38.897358 -50.254604 12762546
150.51131 -38.898952 -49.355736 10787988
150.81544 -38.901878 -48.456497 10261643
151.11929 -38.905972 -47.55695 10524812
151.42274 -38.911472 -46.656979 9735554
151.78645 -38.919697 -45.576374 10591375
152.08923 -38.927948 -44.675304 9933958
152.35423 -38.974674 -43.842037 14078915
152.68768 -39.140572 -42.672256 11380889
152.98938 -39.152996 -41.769424 7564643
153.1703 -39.160988 -41.227371 7563619
171.12997 -39.053619 23.831566 7039331
171.24846 -38.840996 24.7729 11445660
171.33775 -38.713387 25.754692 9735555
171.36864 -38.756195 26.814377 9537663
171.49841 -38.520439 27.822281 8616305
171.56932 -38.411816 28.540512 7563619
147.18388 -37.90139 -59.833786 8682867
147.61165 -37.949684 -58.969315 9537408
147.95186 -37.985287 -57.926826 9273980
148.26115 -37.976231 -57.026196 7826790
148.56979 -37.968567 -56.125759 7892583
148.87801 -37.962051 -55.225449 14011586
149.18561 -37.956852 -54.325184 10985627
149.55415 -37.952225 -53.244888 7038307
149.86075 -37.949741 -52.344578 11315612
150.16695 -37.948566 -51.444183 10986647
150.46837 -38.138622 -50.341667 11709858
150.77348 -38.140114 -49.441227 11314588
151.01488 -38.237576 -48.620075 11051159
151.31673 -38.336823 -47.618748 11840158
151.62061 -38.342247 -46.717579 9867140
171.46423 -38.266102 24.931202 13155506
171.6759 -37.776253 25.701298 9669761
171.7421 -37.709789 26.662468 8748661
171.77316 -37.752583 27.726494 7563619
171.80386 -37.796638 28.792877 11181972
171.90442 -37.624496 29.661221 8288618
147.02168 -36.77404 -60.529472 5657677
147.55136 -36.842407 -60.023666 7433314
147.96584 -36.856579 -59.161583 8945526
148.30685 -36.892487 -58.116531 6905688
148.58388 -37.025898 -57.149807 7563619
148.89314 -37.018364 -56.247368 8089962
149.13712 -37.202137 -55.321156 10524560
149.44524 -37.197002 -54.419304 8090994
149.6915 -37.193764 -53.697834 7038307
171.9702 -37.086285 26.698692 9208702
172.11853 -36.788315 27.613567 8550773
172.17903 -36.746025 28.644264 8945784
172.20993 -36.789993 29.715069 7959910
172.25815 -36.739532 30.53521 9669758
172.32095 -36.417793 31.231068 10064259
146.61388 -35.540474 -61.49609 7564901
147.05756 -35.940037 -60.90506 5131073
147.75487 -35.879471 -60.312786 4867385
172.47823 -35.902916 28.481865 6709598
172.58615 -35.736626 29.567677 9143166
172.60674 -35.778275 30.641083 10524553
172.51724 -35.790848 31.481754 8485237
146.74608 -34.847748 -61.716736 9603712
147.39485 -34.903507 -61.110851 6511440
172.81599 -35.108887 29.607685 7564651
172.93983 -34.843697 30.548275 9537665
172.89212 -34.740906 31.551544 9340286
172.81863 -34.60968 32.469646 7301221
146.26097 -33.664177 -62.727833 7037274
146.85342 -33.945202 -62.062103 7892582
147.48074 -34.067898 -61.442677 7761250
173.26779 -33.689095 31.621414 8089963
173.12141 -33.740448 32.585022 8090221
173.05463 -33.636227 33.377571 9143162
146.08272 -32.728634 -63.344082 7037274
146.70868 -32.846851 -62.728004 8090218
147.22516 -33.052437 -62.166862 7037274
173.46504 -33.058842 31.873745 8089963
173.45456 -32.85376 32.519314 7958633
173.31125 -32.864449 33.57222 8024681
173.2715 -32.66264 34.430164 11379356
128.88107 -31.466532 -125.3664 10787985
129.30847 -31.460724 -124.88155 9143934
146.16133 -31.896391 -63.675465 7037274
146.81369 -31.944057 -63.074982 7234911
173.65196 -32.222454 32.773315 7761509
173.6808 -31.890863 33.471813 8616562
173.57283 -31.81702 34.491249 9076857
173.53862 -31.546223 35.498253 7892840
128.68268 -30.617357 -126.07645 8089963
129.27625 -30.842129 -125.44991 10129800
129.76373 -31.322079 -124.52325 8617847
130.08298 -31.395634 -123.54102 9143932
130.35318 -31.318901 -122.61726 9209467
130.61926 -31.242624 -121.69538 9801347
130.88124 -31.166851 -120.77543 10261896
131.13914 -31.091383 -119.85735 10064774
131.39304 -31.016323 -118.94115 10064774
131.64291 -30.941763 -118.02686 8090987
131.94939 -30.849102 -116.88673 11379607
132.25012 -30.75705 -115.74939 10261388
132.48615 -30.683908 -114.84173 7564651
132.71823 -30.611124 -113.93598 7564651
132.94649 -30.538795 -113.03212 10656398
133.17085 -30.466873 -112.13018 12826795
145.77666 -30.930477 -64.461548 7038298
146.42264 -30.852348 -63.960396 5525065
146.93558 -31.248377 -63.294357 7038307
173.98984 -30.961308 33.706089 8484976
173.9843 -30.756784 34.356964 9011064
173.83766 -30.768049 35.415287 7827815
173.79665 -30.565786 36.278706 9143675
128.31474 -29.762953 -126.92631 9537665
128.82648 -29.936523 -126.33842 9208700
129.48286 -30.09337 -125.65076 10853780
133.39128 -30.39535 -111.23017 12826795
133.66141 -30.306484 -110.1079 9668738
133.92596 -30.218225 -108.98848 7563619
134.1333 -30.148075 -108.09515 6511954
134.33681 -30.078379 -107.20372 8682355
134.53665 -30.008989 -106.31422 10129289
134.78105 -29.922939 -105.20515 9012606
135.0201 -29.837379 -104.09885 9933193
135.20712 -29.769405 -103.21606 8617077
135.39056 -29.701786 -102.3352 9537408
135.5704 -29.634571 -101.45621 8287341
135.78995 -29.551134 -100.36034 9340030
135.96211 -29.484713 -99.485481 9537409
145.62694 -29.834646 -65.510628 5788240
146.11513 -30.084515 -64.861214 4340793
146.64594 -30.060566 -64.423676 6117205
174.24643 -30.155083 35.282101 8354159
174.32303 -29.882359 36.391159 9603970
174.39816 -29.647869 37.357258 8418927
174.46666 -29.39386 38.398373 8616307
127.5933 -28.824461 -130.09566 8681843
128.30315 -28.896677 -129.36565 9273980
128.41348 -29.364843 -127.32815 9537665
129.19534 -29.368832 -126.57862 10459023
138.73555 -28.792694 -92.856514 8616822
138.8107 -28.716997 -91.949181 7038049
138.90018 -28.623188 -90.819359 9932166
138.98535 -28.530109 -89.694008 11707804
139.05002 -28.456223 -88.797188 8090991
144.79437 -28.603731 -68.557686 8092019
145.33467 -28.95079 -67.70816 9406080
145.6662 -29.255714 -66.71907 7038307
146.06041 -29.286165 -66.264885 9011579
175.28784 -29.099054 39.248009 9077368
175.11078 -29.109344 40.315594 9735812
175.00337 -29.115942 40.956272 9735812
176.43602 -28.966949 43.321541 9208443
176.22105 -28.966345 44.168419 8353135
176.05717 -28.965893 44.803013 7563619
178.04616 -28.960558 48.761421 8287859
177.74374 -28.959824 49.829433 10063492
179.51378 -28.953955 54.560703 8287342
179.66449 -28.663853 55.554348 7234653
179.50809 -28.563305 56.454258 9209467
127.32959 -27.811235 -130.86815 8089963
127.84857 -27.984571 -130.27321 8418928
128.40263 -28.10033 -129.67323 8681843
139.09659 -28.401161 -88.126518 11380127
141.04327 -27.958258 -84.697441 11512220
141.07455 -27.904858 -84.029732 10262156
141.11385 -27.834105 -83.141991 9867142
141.15903 -27.746323 -82.036621 9998469
141.2001 -27.659235 -80.935677 10787467
144.53488 -27.650024 -69.370583 8092019
145.04147 -27.885786 -68.759201 9735814
145.58978 -28.130724 -68.165565 13023917
179.88644 -28.115437 55.861458 7563619
179.72803 -27.841431 56.619354 9011321
127.0331 -26.505569 -131.82133 8089963
127.47642 -26.87813 -131.19902 10326922
128.08778 -27.084888 -130.49683 8682099
143.00262 -27.228025 -77.480354 7761765
143.06984 -26.643665 -75.101799 8813936
143.69711 -26.530758 -72.387016 9077369
144.31902 -26.650593 -71.404076 9340286
144.35178 -26.992332 -70.455956 9801094
144.90167 -27.156441 -69.630547 8420726
145.43074 -27.349077 -68.942741 8092019
180.07024 -26.938128 56.633251 9011065
179.91217 -26.60342 57.457081 9208444
127.04103 -25.850941 -132.14635 7827307
127.7525 -25.893049 -131.43002 11445913
144.38554 -26.232565 -72.514549 10261132
180.24055 -25.667282 57.547222 9142651
180.00385 -25.543823 58.363777 7893096
126.789 -24.977417 -132.83644 10853784
127.41854 -24.975569 -132.22244 8354163
127.99256 -25.193218 -131.55133 14604230
180.53996 -24.713453 57.739994 8616307
180.24113 -24.710955 58.60165 7959145
126.43278 -23.883356 -133.74039 8090995
126.95677 -24.05686 -133.14046 10261904
127.61185 -24.208447 -132.4236 9341057
180.62973 -23.801388 58.48917 7959144
180.33025 -23.799337 59.352264 6511954
126.6361 -22.857336 -134.06332 7827561
127.25279 -23.127338 -133.3237 10130575
180.8694 -22.888639 58.808517 8682867
180.58356 -22.932613 59.581264 7038298
180.49767 -22.657776 60.131664 7959144
126.2058 -21.831516 -135.0049 8156267
126.92698 -21.901945 -134.26466 8814199
180.99141 -21.835476 59.620895 8485231
180.73711 -21.742476 60.45438 10064006
180.6685 -21.283682 61.157875 7564643
125.93214 -20.802382 -135.795 9011320
126.51255 -21.020617 -135.1172 9208699
127.14745 -21.017914 -134.49847 10261132
181.16061 -20.642244 60.452305 10064006
180.88086 -20.518688 61.392681 8353902
125.6235 -19.474844 -136.77098 10063235
126.125 -19.860207 -136.08531 10129028
126.74345 -20.090006 -135.36449 9208441
181.22066 -19.675629 61.347054 11445403
180.99713 -19.444702 62.243992 9340286
125.86212 -18.762529 -136.89983 8484717
126.51337 -18.877777 -136.20512 11378324
181.4601 -18.830355 61.591469 11709091
181.27335 -18.637531 62.340183 11182489
125.49182 -17.844112 -137.72807 8287596
126.0594 -17.959904 -137.11485 6775126
126.59041 -18.135593 -136.50691 6511954
181.56477 -17.874819 62.34375 9932425
181.40152 -17.596855 63.118767 9340286
125.58549 -17.02492 -138.05276 8221804
126.31434 -17.095465 -137.30499 7038041
181.86751 -16.901598 62.546921 8617081
181.60945 -16.855019 63.339226 8156270
124.99776 -15.47943 -139.74199 10984338
125.3699 -15.914177 -138.95784 8813941
125.98478 -16.12986 -138.15962 9669507
181.97151 -15.973344 63.319466 8090987
181.98782 -15.63113 63.940285 7695972
124.42252 -14.622711 -141.46597 9142904
124.85278 -14.761518 -140.81847 10589322
125.27983 -14.900257 -140.16966 10326921
125.70388 -15.038933 -139.5197 7037274
182.44736 -14.832356 64.227669 7893608
123.8967 -14.252545 -143.61632 10262417
124.55444 -14.248347 -142.98845 7367269
157.71539 -43.627186 -25.21734 7827819
157.95619 -43.804279 -24.54298 5393730
158.51723 -43.563789 -23.590715 6446418
158.92387 -43.637146 -22.676405 13419699
159.29889 -43.703388 -21.754452 11906205
159.66573 -43.768814 -20.8286 10788495
159.97638 -43.865677 -19.970781 10197129
160.13043 -44.038116 -18.742449 8814709
160.23499 -44.037132 -17.781088 8287084
160.33331 -44.03616 -16.819073 8090987
160.42632 -44.035187 -15.856565 7169884
160.49637 -44.03442 -15.08602 8221541
162.33134 -44.029945 -11.915379 10064009
162.38206 -44.029179 -11.135815 9472896
162.44077 -44.028225 -10.16103 8092011
162.49327 -44.027275 -9.1858902 11907234
162.54875 -44.026142 -8.0153427 11183766
164.27544 -44.021481 -4.5372887 8879990
164.2973 -44.020363 -3.3540039 9340798
164.30925 -44.019436 -2.3678017 8879991
164.31427 -44.018696 -1.5788116 9801092
165.94069 -44.014576 1.4028854 10064008
165.92398 -44.013664 2.3989029 9735043
165.90083 -44.012764 3.3947449 8945784
165.87843 -44.012043 4.1913528 9143419
167.43921 -44.00808 7.0580673 10458766
167.37732 -44.007011 8.2638779 9537667
167.3192 -44.006126 9.2684059 8287859
168.85089 -43.89418 12.009594 9275005
168.90088 -43.768726 12.911068 7762278
168.85947 -43.822021 13.847004 6972762
169.0632 -43.674561 14.887951 8486001
169.1705 -43.503216 15.922867 12828079
169.26443 -43.319355 16.547836 15196110
157.19212 -42.726849 -27.072992 10656658
157.50145 -42.719475 -26.43111 10459279
157.92107 -42.847473 -25.443953 9735557
158.3271 -42.91666 -24.534822 6183246
158.80626 -42.795528 -23.632914 8024936
159.21286 -42.867294 -22.716898 12761770
159.51427 -43.022118 -21.880836 11840411
159.80908 -43.176418 -21.042028 10261124
169.18484 -43.107281 12.954411 7959400
169.32686 -42.827953 13.887081 6249039
169.36044 -42.858707 14.915115 7959659
169.42209 -42.807808 15.906265 12301993
169.51317 -42.676498 16.902355 12301993
169.60127 -42.543392 17.81776 9208443
156.32382 -41.383163 -30.025604 12892846
156.62683 -41.561981 -29.239807 9340801
156.94785 -41.829041 -28.341955 10195852
157.31471 -41.936596 -27.48258 8287598
157.79161 -41.809917 -26.590162 14209216
158.23265 -41.922176 -25.571316 11051159
158.6535 -41.81535 -24.77953 7827822
159.02319 -42.218807 -23.664667 9538181
169.70316 -41.901737 14.80938 8091504
169.75929 -41.862843 15.77438 8092019
169.79247 -41.895348 16.807373 9867913
169.8999 -41.724594 17.850231 9340029
170.0298 -41.484131 18.829315 12103331
170.10107 -41.371494 19.527645 11379609
155.52629 -40.487793 -32.785587 6510930
155.70576 -40.504082 -32.238548 7563873
156.04631 -40.642422 -31.23637 9932675
156.4539 -40.799877 -30.244812 12827052
156.85867 -40.858463 -29.34737 8156786
157.33762 -40.77832 -28.41124 7038307
157.7415 -40.788906 -27.556046 10656143
158.08467 -40.95789 -26.694593 13880508
158.41331 -41.30032 -25.717146 11578015
170.04164 -41.121147 16.076439 8092019
170.13715 -40.954857 16.883995 9736070
170.26698 -40.693073 17.683071 10261130
170.29977 -40.727318 18.722 13879996
170.33218 -40.762863 19.762569 13946043
170.43283 -40.586819 20.605755 9537400
154.1192 -39.599781 -37.935326 8748923
154.41948 -39.619106 -37.028637 7564651
154.71967 -39.639896 -36.120708 11378841
155.0118 -39.856857 -35.014595 7038307
155.31157 -39.880573 -34.104542 6510930
155.61118 -39.905712 -33.193161 6840151
155.9792 -39.741344 -32.294521 9209210
156.31995 -39.779404 -31.387907 8485488
156.80569 -39.846115 -30.311958 11182486
157.21187 -39.903469 -29.412561 7038307
157.55368 -39.952885 -28.654741 7038307
157.94484 -40.010529 -27.786469 7563619
170.54352 -39.942875 17.781853 9208443
170.63152 -39.817764 18.759567 11971745
170.72581 -39.673233 19.720428 12564391
170.71445 -39.825783 20.730019 10195330
170.85286 -39.550751 21.61755 9274486
170.94112 -39.419296 22.548431 8288624
152.588 -38.463898 -43.730701 14868429
152.88744 -38.570858 -42.727619 10459532
153.18947 -38.583031 -41.823643 7564643
153.45627 -38.739861 -40.86034 8418670
153.75444 -38.85144 -39.855774 12826022
154.08089 -38.765297 -38.991005 10787470
154.38861 -38.838856 -38.001099 7432031
154.68962 -38.857841 -37.09277 9208697
154.9904 -38.878193 -36.183323 9537918
155.35126 -38.904331 -35.090481 8354414
155.65186 -38.927483 -34.178493 8552562
155.95236 -38.952061 -33.265144 8092011
156.3213 -38.786888 -32.364548 8616822
156.66975 -38.825703 -31.457321 7564392
157.08195 -38.981194 -30.462475 8353393
157.41324 -39.127209 -29.645285 9142651
171.04185 -38.805161 19.743267 12235425
171.10904 -38.733681 20.689842 11774874
171.12384 -38.808369 21.652657 10064002
171.18488 -38.761845 22.665283 7762539
171.27481 -38.632153 23.64225 7631209
150.66467 -37.56897 -50.407043 9538433
150.97028 -37.570457 -49.505402 11314588
151.24721 -37.725498 -48.51453 10656657
151.51434 -37.767189 -47.680531 11314071
151.81865 -37.772484 -46.778194 10261641
152.11723 -37.970425 -45.675037 9473407
152.42072 -37.978458 -44.772022 9210491
152.79031 -37.797729 -43.88731 12499627
153.15388 -37.810471 -42.80154 9472638
153.45659 -37.822403 -41.896008 7564643
153.75902 -37.835716 -40.989605 9471356
154.06134 -37.850208 -40.082443 13418158
154.36345 -37.866009 -39.174309 11116178
154.72578 -37.886623 -38.083324 7300446
155.02757 -37.905155 -37.173088 9603454
155.37555 -37.844437 -36.21619 8946038
155.703 -37.867462 -35.225235 7959657
155.9926 -37.973194 -34.252525 10263181
156.29401 -37.99715 -33.337189 11908265
156.55243 -38.084381 -32.477123 7169891
156.79889 -38.242355 -31.678719 7038049
171.38727 -37.979454 20.794189 11840928
171.48326 -37.814087 21.615654 8485231
171.52441 -37.816406 22.574986 8617331
171.59625 -37.741932 23.597588 8420210
171.63213 -37.75108 24.492687 11971489
171.78018 -37.452797 25.40036 10195848
148.59171 -36.46006 -57.766342 7892834
148.77768 -36.455006 -57.224098 11181978
149.08737 -36.447571 -56.320457 10195339
149.3934 -36.630466 -55.212379 9274750
149.70187 -36.625553 -54.309349 6183250
149.9763 -36.764439 -53.343937 9603974
150.25209 -36.80965 -52.480598 10722962
150.55904 -36.808479 -51.577827 10657168
150.9269 -36.808659 -50.494274 8222061
151.23297 -36.81004 -49.591045 11314588
151.53873 -36.81279 -48.687538 10722450
151.90511 -36.8176 -47.602837 10130055
152.21001 -36.822903 -46.698471 10064262
152.5146 -36.829475 -45.793591 9407358
152.81888 -36.837231 -44.888191 9210491
153.12285 -36.846268 -43.982159 9275772
153.48735 -36.858681 -42.894051 8156780
153.79085 -36.870316 -41.986576 7564643
154.06216 -36.930275 -41.119274 10457992
154.32996 -37.08812 -40.151733 12234143
154.63274 -37.10363 -39.24205 11444886
154.9581 -37.160561 -38.218849 8813683
155.23061 -37.332897 -37.221291 10064005
155.47237 -37.348423 -36.49136 9537918
171.84091 -36.931274 22.460114 9208698
171.94962 -36.760677 23.527134 11444887
171.98224 -36.798538 24.586044 13155506
171.9967 -36.87616 25.560017 9209467
172.11606 -36.662106 26.510002 9208957
148.1015 -35.847782 -59.902164 5854022
148.29982 -35.941326 -59.212254 6840149
148.66116 -35.892159 -58.203472 6445135
148.97176 -35.883564 -57.298412 11510943
149.28178 -35.876175 -56.393589 10063753
149.6532 -35.868858 -55.30798 7959145
149.96217 -35.864044 -54.403355 5393730
150.27066 -35.860497 -53.498791 9669251
150.57874 -35.858047 -52.594105 9537918
150.88635 -35.856907 -51.689339 10458762
151.25499 -35.856991 -50.603451 9275260
151.56178 -35.858349 -49.698277 9998211
151.86815 -35.860962 -48.792755 9800831
152.23524 -35.865601 -47.705669 10457478
152.54082 -35.870739 -46.799324 10917773
152.78242 -35.971771 -45.973316 8682867
153.08466 -36.075329 -44.965733 8682867
153.38922 -36.084202 -44.058121 9603200
172.17723 -36.138126 23.558903 10984849
172.314 -35.872986 24.483768 11379608
172.38835 -35.789879 25.492435 9209467
172.40012 -35.879189 26.501591 9405824
172.49948 -35.725029 27.491581 8090479
172.63109 -35.485161 28.507626 6709598
147.87711 -34.707798 -60.776485 7761250
148.31895 -34.94891 -60.127716 6051146
148.67276 -34.947803 -59.236824 5787463
148.98447 -34.938278 -58.329529 6642770
149.29564 -34.929836 -57.422485 11379357
149.60631 -34.92263 -56.515659 9932167
149.97844 -34.915466 -55.427643 8945528
150.28802 -34.910732 -54.521042 5919818
150.59718 -34.907249 -53.614452 9340286
150.84038 -35.095619 -52.685059 9537918
151.14854 -35.094437 -51.778736 10458762
151.45419 -35.189857 -50.770687 10327176
151.75919 -35.286594 -49.762665 9472381
152.06587 -35.289127 -48.85593 9603454
172.69302 -34.956665 25.538559 9077369
172.7957 -34.778473 26.40424 7104099
172.81049 -34.856209 27.385983 9537410
172.8721 -34.811184 28.420151 7893358
172.90968 -34.818424 29.338772 7564651
173.14197 -34.29591 30.308533 7564651
148.00549 -33.800217 -61.105476 11115666
148.68454 -33.852673 -60.327263 10326407
148.9959 -33.992207 -59.365078 5984842
149.3082 -33.982906 -58.455788 6642770
149.55507 -34.165829 -57.521866 10458255
149.86623 -34.158764 -56.613407 9932167
150.11482 -34.153851 -55.88681 9734788
173.03152 -34.159443 26.654171 7564651
173.12785 -33.973209 27.309288 10129803
173.21655 -33.853268 28.338943 11116694
173.28906 -33.779541 29.384052 8551287
173.37262 -33.665932 30.34972 7827307
173.3532 -33.683605 30.991451 8089963
147.55936 -32.79438 -61.994961 9010804
148.19122 -32.915112 -61.372498 9997701
173.54437 -32.963757 28.447289 13550517
173.6093 -32.889969 29.316799 7565163
173.69206 -32.777893 30.277615 9997957
173.62587 -32.842461 31.256714 9866114
173.61557 -32.636993 31.901993 9537150
147.34312 -31.883223 -62.633205 6708825
148.00172 -31.823101 -62.075249 6906459
148.34282 -32.190315 -61.591576 9077114
173.96974 -32.019554 30.327099 10261899
174.00301 -31.786718 31.325935 9866114
173.87646 -31.794687 32.259853 8747891
173.92503 -31.378674 33.042568 8090474
130.27908 -30.751694 -124.61824 7960175
130.86021 -30.975489 -123.97933 10919571
146.96992 -30.471251 -63.726936 7038307
147.45262 -30.861061 -63.044872 6116689
148.09769 -31.056503 -62.36639 6116944
174.35286 -30.801184 31.462383 8616563
174.27551 -30.737299 32.242443 9274491
174.15826 -30.703583 33.218071 8287853
129.91862 -29.782263 -125.47112 10787985
130.4904 -30.003029 -124.82075 10196107
131.07146 -30.226698 -124.17994 9143934
146.96933 -29.591957 -64.704216 4932930
147.30942 -29.823776 -64.124504 6248534
147.83028 -30.081015 -63.362274 5524292
174.63246 -30.130066 32.527466 9341051
174.63481 -30.002655 33.253094 9275003
174.62558 -29.880405 34.195618 9011577
174.77837 -29.560577 35.173576 9933191
174.84389 -29.37431 36.063396 10788244
129.18811 -28.854206 -128.52287 8813429
129.83522 -29.007729 -127.81283 8089963
130.14098 -29.376472 -125.68555 11314330
130.7836 -29.385096 -125.10114 12432037
137.93643 -29.348074 -99.661613 10986908
138.09857 -29.281818 -98.777153 7366239
138.25716 -29.216019 -97.89476 7366239
138.41223 -29.150524 -97.014244 6905688
138.5038 -29.072992 -96.09449 8092011
138.5757 -28.969032 -94.923363 8947319
138.65741 -28.868856 -93.766861 7301986
145.95517 -28.691784 -67.626205 10327179
146.62996 -28.864515 -67.02858 7038307
146.45474 -29.317013 -65.809219 6117205
146.98068 -29.358608 -65.199783 5196103
175.63541 -29.080505 37.113621 7563619
175.46283 -29.089382 38.180706 11379348
177.00652 -28.968634 40.987392 11512220
176.80238 -28.968018 41.836979 12828082
176.59477 -28.967407 42.68573 11380124
178.57405 -28.961901 46.834465 9537667
178.34177 -28.961304 47.69154 8682616
180.10451 -28.955259 52.617538 9734788
180.11684 -28.706921 53.422642 9537409
180.14914 -28.569309 54.520283 8418928
128.83792 -28.028057 -129.28482 8089963
129.4631 -28.0289 -128.67375 8024424
130.03197 -28.247721 -128.00697 7037274
140.79308 -28.321632 -89.193001 8090995
140.84863 -28.247976 -88.287994 9735561
140.91451 -28.156595 -87.160637 13024949
140.96376 -28.084019 -86.262337 12696236
141.01019 -28.012003 -85.366982 10327947
142.91403 -27.536783 -81.456375 11313812
142.93846 -27.46734 -80.567566 11840156
142.95499 -27.415508 -79.902817 11313812
146.19701 -27.752018 -67.968216 9537664
146.75145 -28.112034 -67.282722 7038307
180.45821 -28.091808 53.430851 9011065
180.42009 -27.888243 54.366287 9340030
180.16365 -27.817074 55.394169 8418928
128.54591 -26.721479 -130.23409 8879989
129.0918 -26.885054 -129.61775 8024936
129.56433 -27.230747 -128.98055 7564641
142.96991 -27.364035 -79.239944 9209211
142.98759 -27.295753 -78.358658 7761765
144.91162 -26.405876 -73.863136 7038307
145.09477 -26.612148 -70.70771 8420212
145.65466 -26.730883 -69.796478 8222833
146.00842 -27.023392 -68.872322 8419697
146.64775 -27.073898 -68.229774 6840669
180.67685 -27.214092 54.444653 9340030
180.57886 -26.763197 55.364742 9340030
180.35986 -26.532837 56.24852 9340030
128.19598 -25.630255 -131.13045 11709340
128.717 -25.804667 -130.53291 9801345
129.36862 -25.957708 -129.81866 10327176
144.46292 -26.293537 -73.202431 10787726
145.02394 -26.268991 -71.749619 9011576
145.79077 -26.313692 -70.828056 8485233
180.97162 -25.630478 55.486767 9867142
180.67361 -25.626549 56.347584 9734788
128.2762 -24.900927 -131.42273 5920074
128.99179 -24.973328 -130.68697 7367262
181.00224 -24.764091 56.355652 8945783
180.7654 -24.639624 57.173679 8024170
128.01022 -23.87851 -132.20222 9867403
128.58521 -24.096987 -131.52959 6841175
129.15948 -24.315899 -130.85742 5920074
181.30327 -23.807875 56.546463 9538688
181.01816 -23.850567 57.318569 8682612
180.93304 -23.575407 57.867222 7959144
127.71104 -22.560352 -133.16429 8090995
128.20676 -22.944143 -132.48508 12498862
128.81941 -23.174049 -131.76982 12170148
181.34296 -22.968971 57.358746 8288109
181.09438 -22.890377 58.159908 9998727
127.825 -21.854786 -133.4115 7630442
128.48271 -22.007568 -132.69148 7433317
181.55627 -22.206844 57.587345 15197142
181.48906 -21.747005 58.288239 10854292
181.26544 -21.630577 59.059635 8617331
127.46474 -21.016758 -134.1891 8945527
128.0993 -21.014854 -133.57033 8354672
128.67786 -21.234495 -132.89355 5920074
181.7303 -20.829557 58.608192 10459534
181.6445 -20.5527 59.160294 8551542
181.43645 -20.367449 59.963093 7038307
127.10555 -19.911257 -135.10158 9536891
127.68622 -20.13076 -134.42296 8879731
128.32188 -20.12879 -133.80302 7696741
181.90045 -19.678543 59.390118 10262671
181.59843 -19.676989 60.259956 8222579
126.79945 -18.579922 -136.07701 9734270
127.38032 -18.966549 -135.31319 8616302
128.06903 -19.108618 -134.56836 8419180
181.99129 -18.755247 60.148636 7038307
181.68846 -18.754009 61.019905 8617593
127.0399 -17.865961 -136.20488 9010804
127.76343 -17.90766 -135.47693 8156008
182.30913 -17.83075 60.254974 7038307
182.00566 -17.829596 61.12767 8879996
126.76136 -16.795231 -137.02089 7300957
127.23917 -17.06139 -136.41896 8747888
127.77042 -17.238062 -135.81024 7695714
182.33818 -16.949228 61.142868 9603462
182.09679 -16.824671 61.973278 8617081
126.33348 -15.689192 -138.20996 8419182
126.83621 -16.169985 -137.2999 7892837
127.51006 -16.196568 -136.62273 10063747
182.56271 -16.206055 61.317039 10261391
182.4303 -15.89831 62.169941 7301222
182.45459 -15.439964 62.915424 8748663
125.88849 -14.614733 -140.0605 7037274
126.49592 -14.781061 -139.18703 7827044
126.72081 -15.251877 -138.30003 9734783
127.252 -15.467613 -137.55164 8616304
182.82518 -14.83216 63.127098 9275261
182.93752 -14.497893 63.907677 8090987
123.31553 -14.19206 -151.52065 10063238
125.53952 -14.242616 -142.04619 8748660
126.1953 -14.239083 -141.41769 9143419
160.25307 -43.669743 -19.535969 8092011
160.54736 -43.586529 -18.919466 8092011
160.91641 -43.587299 -18.048624 8484719
161.28641 -43.658688 -17.109705 7892583
161.65714 -43.731873 -16.167313 8024167
162.02866 -43.80666 -15.221848 7234652
162.38075 -43.784157 -14.215076 7695205
162.61717 -43.79071 -13.347912 9866374
162.84988 -43.919582 -12.421761 9471874
164.103 -44.026005 -9.2679939 9210491
164.14093 -44.025242 -8.4798927 11183766
164.18364 -44.024292 -7.4945908 9210491
164.22003 -44.023346 -6.5089989 8814965
164.25092 -44.022408 -5.5232277 8682867
165.62869 -43.939503 -3.7714691 9405822
165.83231 -43.988396 -2.7794418 9405822
166.06927 -43.828865 -1.7853661 12762285
166.17247 -43.85416 -0.78847891 10590863
166.33716 -43.740631 0.095691621 9998214
166.82922 -43.588531 1.0144691 10524045
167.03322 -43.644241 2.0196381 9143163
167.23727 -43.701653 3.0276375 7629667
167.44131 -43.760529 4.0381966 8616818
167.6138 -43.812828 5.0505981 9472384
167.70476 -43.845402 6.0619583 9670019
168.16432 -43.530827 6.8899536 8090987
168.36896 -43.595394 7.9128036 9537666
168.57372 -43.661488 8.9385376 10261132
168.74309 -43.763348 9.8839302 9471872
168.87051 -43.723148 10.869484 8024426
168.95485 -43.579697 11.609291 7893096
159.80492 -42.558563 -21.627003 10853517
160.07108 -42.728348 -20.841351 11841440
160.39632 -42.86882 -19.943724 13486007
160.78021 -42.855858 -19.050602 8814964
161.20929 -42.811012 -18.080677 9471356
161.58043 -42.881294 -17.140066 7563619
161.98911 -42.803547 -16.248739 8484716
162.32506 -43.026817 -15.248825 7892581
162.57402 -43.146954 -14.549871 7892581
167.25743 -43.043102 2.0230713 9077624
167.4621 -43.099762 3.0324249 7695460
167.74194 -42.956844 4.0463982 7563618
167.90585 -43.004303 4.8584404 9406591
168.17775 -42.916965 5.9293823 9933191
168.46732 -42.723763 6.9033661 9143675
168.6412 -42.822544 7.8451576 9142910
168.86899 -42.803856 8.8330421 8748410
169.09714 -42.786304 9.8242683 9208445
169.22311 -42.744617 10.811741 8681843
169.25819 -42.770908 11.835487 8879734
169.37901 -42.551945 12.785625 7301470
158.9034 -41.380501 -24.622583 7827822
159.19308 -41.674477 -23.767662 8551287
159.56017 -41.842773 -22.849257 12301224
159.9679 -41.852581 -21.899799 9933707
160.38951 -41.836117 -20.92108 9999751
160.75984 -41.900517 -19.987957 9736066
161.19278 -41.711143 -19.14323 10459275
161.45799 -42.067394 -18.186436 10721420
161.80019 -42.089184 -17.359224 8616049
168.90097 -42.180443 7.9393578 7564651
169.06592 -42.231709 8.7625771 7827822
169.3605 -42.022099 9.7315178 8550772
169.56435 -41.790825 10.69825 9734529
169.62206 -41.746811 11.657349 9011064
169.65709 -41.773613 12.684444 6775126
169.69162 -41.801956 13.712963 6775126
169.79329 -41.621273 14.543339 8090986
158.37349 -40.481075 -26.491436 13419701
158.62868 -40.7244 -25.751507 10985623
159.03795 -40.790257 -24.838455 9998731
159.44798 -40.857498 -23.922455 7827822
159.92973 -40.784027 -22.963999 10328209
160.30696 -40.794258 -22.08551 9736329
160.64116 -40.90078 -21.198284 9407617
160.97664 -41.112068 -20.21064 8288622
169.88557 -41.035362 11.778954 9011063
170.02887 -40.752689 12.713444 7301214
170.04335 -40.830101 13.691086 8353646
170.11649 -40.748421 14.689804 8682351
170.1539 -40.750473 15.564838 8419694
170.30167 -40.449032 16.44619 8354159
157.84239 -39.591347 -28.354603 7038307
158.14871 -39.771217 -27.561047 9077113
158.56067 -39.8139 -26.661833 11840672
158.98804 -39.763393 -25.808943 10919830
159.39879 -39.827736 -24.893867 11314589
159.81033 -39.893543 -23.975857 8486008
160.14146 -40.049843 -23.140951 8881278
170.40683 -39.821938 13.635685 9800837
170.46419 -39.779957 14.603127 8682093
170.49864 -39.809341 15.638809 10655625
170.53268 -39.840172 16.676231 10919056
170.63445 -39.660408 17.515141 9735812
157.22842 -38.699852 -30.392773 9142651
157.63275 -38.688152 -29.555443 8747893
158.04509 -38.813019 -28.586205 7366239
158.45453 -38.871674 -27.678816 8221547
158.86226 -38.880795 -26.816807 10589065
159.3479 -38.80098 -25.8664 10261132
159.68268 -38.954056 -25.035673 9537665
170.69521 -39.170757 14.830303 8681835
170.86957 -38.780922 15.585346 11181969
170.90005 -38.807316 16.505913 11577243
170.9341 -38.838432 17.54702 10196363
170.99646 -38.787212 18.551292 10656657
171.14461 -38.485851 19.44265 9208443
155.89528 -37.377537 -35.212166 7564643
156.13689 -37.395393 -34.48011 10000010
156.49922 -37.423531 -33.38052 15790311
156.77556 -37.577614 -32.392185 6511962
157.08432 -37.764473 -31.483574 7235428
157.42909 -37.92374 -30.626961 7629926
157.85515 -37.865593 -29.783203 8813686
158.35381 -37.887493 -28.719833 8353135
158.77678 -37.865566 -27.852039 8155755
159.14647 -38.060173 -26.913252 9996929
171.25214 -37.849773 16.610397 9735812
171.29149 -37.848267 17.501575 10196106
171.35426 -37.796093 18.507893 10064520
171.37027 -37.867363 19.46909 10788244
171.47566 -37.691395 20.421978 12828339
171.65652 -37.309471 21.386402 8616822
154.34959 -36.507362 -40.749874 12234143
154.53168 -36.515957 -40.203835 12234143
154.83488 -36.531277 -39.292931 11708314
155.1951 -36.648354 -38.099228 9668991
155.43381 -36.760056 -37.269577 11050642
155.73653 -36.779346 -36.355854 12169122
156.03911 -36.799801 -35.440998 9537918
156.34166 -36.821579 -34.524853 14803415
156.70465 -36.849335 -33.423855 16777207
157.00714 -36.873772 -32.504894 8090479
157.42618 -36.83498 -31.551109 8024942
157.8528 -36.774178 -30.708355 7958891
158.2252 -36.872524 -29.845196 9405823
158.55246 -37.134159 -28.938843 8747893
158.77924 -37.299633 -28.324039 7563619
171.53461 -37.191273 17.610542 16774119
171.63737 -37.009773 18.456005 10656401
171.7655 -36.773308 19.425644 10525072
171.77406 -36.8615 20.353539 12433581
171.88327 -36.688808 21.415562 8287600
171.99237 -36.516834 22.480427 8616822
152.97359 -35.687885 -45.730774 8682867
153.2177 -35.694012 -45.004566 8682867
153.52257 -35.702724 -44.096157 9471613
153.8213 -35.905529 -42.986725 10590091
154.12558 -35.916882 -42.077312 7958118
154.47585 -35.848404 -41.122505 8944239
154.80092 -35.752163 -40.273304 9207411
155.1048 -35.76712 -39.36087 11312789
155.46935 -35.786617 -38.264721 8155497
155.77295 -35.804104 -37.35017 12366762
156.07651 -35.82291 -36.434444 12630192
156.37999 -35.842861 -35.517643 12038055
156.68341 -35.864082 -34.599545 12565683
157.04749 -35.891106 -33.496185 14473678
157.35081 -35.91494 -32.575268 9275777
157.67786 -35.950314 -31.769745 9933193
158.0535 -35.996372 -30.943729 10854036
172.1015 -35.872204 19.624516 11841444
172.15187 -35.826847 20.39962 11183002
172.16817 -35.898884 21.367878 8156528
172.2309 -35.848949 22.386009 9274494
172.35144 -35.630829 23.330162 9800835
172.50101 -35.328678 24.238819 10984849
151.09865 -34.522915 -52.571892 9011831
151.40703 -34.521847 -51.66428 12432037
151.68703 -34.674767 -50.666435 10064261
151.95676 -34.714138 -49.827057 9603711
152.26389 -34.716648 -48.919205 10129540
152.56589 -34.911976 -47.808659 10325892
152.87222 -34.916954 -46.900356 9273716
153.17824 -34.923149 -45.991558 9143162
153.48401 -34.930439 -45.082241 8814453
153.78954 -34.938999 -44.172314 10129542
154.15587 -34.950752 -43.079529 10590091
154.46088 -34.961777 -42.168133 8813169
154.7674 -34.925617 -41.305946 9404790
155.13791 -34.796169 -40.360229 8154723
155.44264 -34.810696 -39.4459 8418669
155.80814 -34.829689 -38.347389 7958375
156.11264 -34.846691 -37.430862 14340809
156.41704 -34.865028 -36.513187 9340286
156.72134 -34.884422 -35.594437 8485749
156.95717 -35.097073 -34.659382 8092019
157.32207 -35.123543 -33.554104 9013120
157.62617 -35.146851 -32.631645 9012606
172.38594 -35.211559 20.63834 8616822
172.48236 -35.02356 21.281597 8879737
172.57178 -34.899521 22.294369 8616822
172.71356 -34.629906 23.295803 8288109
172.72932 -34.704056 24.271664 9472124
172.79753 -34.632702 25.236057 9274746
149.00218 -33.42408 -59.988586 6642770
149.19003 -33.418068 -59.4422 5984842
149.50272 -33.40884 -58.531635 6642770
149.81224 -33.590595 -57.414574 10195339
150.12372 -33.583763 -56.504948 10787220
150.40125 -33.721268 -55.532082 9997960
150.67978 -33.76469 -54.662506 8024938
150.98962 -33.76125 -53.753521 7827559
151.36087 -33.75856 -52.66267 9011831
151.6698 -33.757481 -51.753479 10984849
151.97833 -33.757656 -50.844158 10064261
152.28651 -33.758827 -49.934608 9735296
152.59439 -33.761211 -49.02475 10392455
152.96341 -33.765533 -47.93251 9536888
153.27057 -33.770302 -47.021828 9865597
153.5775 -33.77631 -46.110668 9340541
153.88419 -33.783367 -45.198997 9274748
154.1906 -33.791599 -44.286716 9866371
154.52596 -33.850319 -43.232174 9011063
154.79678 -34.005219 -42.259125 9668477
155.1024 -34.017162 -41.344906 10260099
155.36502 -34.093109 -40.485188 9667706
155.6456 -34.236092 -39.496933 6708565
156.01172 -34.25473 -38.397022 8418669
172.8965 -34.017113 22.390263 8616822
172.98764 -33.880024 23.333813 8222058
173.03424 -33.87011 24.315609 12497574
173.04999 -33.944748 25.294937 9538176
173.21494 -33.606693 26.256687 7893615
173.3577 -33.345085 27.346382 10064779
149.05464 -32.849895 -60.424854 8813686
149.38446 -32.843201 -59.519314 7037274
149.69748 -32.834137 -58.607609 7037274
150.07245 -32.824638 -57.51387 9273978
150.3844 -32.817944 -56.602676 9734529
150.69576 -32.812363 -55.691574 9340286
151.0067 -32.8078 -54.780563 8682872
151.31711 -32.80442 -53.869545 7959150
151.68915 -32.801731 -52.776325 9603195
151.99878 -32.800694 -51.86515 8681835
152.30795 -32.800808 -50.953861 9734529
152.61684 -32.80191 -50.042313 9471355
152.9254 -32.804214 -49.130486 10458254
153.23119 -32.903793 -48.116798 9735043
153.53662 -33.004639 -47.102974 9406078
153.8441 -33.010502 -46.190212 10261132
173.32024 -33.072491 24.229309 9011573
173.4435 -32.85331 25.225975 8288372
173.54729 -32.672287 26.094688 8156787
173.58107 -32.70866 27.168549 9012349
173.63802 -32.673599 28.177135 10196363
173.71146 -32.55909 28.904587 7565675
148.85205 -31.771105 -61.342262 5920074
149.39011 -31.89263 -60.560364 8353389
149.75443 -31.827982 -59.577065 9931136
150.02196 -31.922403 -58.682293 9010292
150.39816 -31.865509 -57.638195 7892327
150.7106 -31.85891 -56.724903 9405821
151.02258 -31.853466 -55.811817 11313560
151.26857 -32.040943 -54.875118 10853782
151.57951 -32.037605 -53.962521 7235428
151.88824 -32.131058 -52.947281 9405559
152.19637 -32.225739 -51.932213 9405559
152.44409 -32.225704 -51.202248 10195335
173.75674 -32.022522 25.486031 8814715
173.83078 -31.905724 26.20961 8354165
173.87021 -31.908085 27.129009 9735814
173.9713 -31.762732 28.232437 7894383
174.02623 -31.724895 29.173389 7565675
174.15376 -31.471853 29.985691 10064520
174.22763 -31.356976 30.718567 9735299
131.28317 -30.662655 -123.78482 11708572
131.85313 -30.884872 -123.13445 10656400
132.52646 -30.957083 -122.38448 10393743
133.25304 -30.9622 -120.32719 11577503
133.50061 -30.886827 -119.39713 9471613
133.80502 -30.793102 -118.23705 7497567
134.04384 -30.718647 -117.31127 10458249
134.27876 -30.644592 -116.38757 11182487
134.50964 -30.570942 -115.46582 9341313
134.73666 -30.4977 -114.5461 12366244
134.90443 -30.443022 -113.85758 11708572
148.61197 -30.768154 -62.051247 5919819
149.1489 -30.890615 -61.50589 5920074
149.71924 -30.932119 -60.693275 7629922
150.03171 -31.113028 -59.568207 9931136
150.34564 -31.104469 -58.652874 9207670
150.53369 -31.09985 -58.103737 8089963
174.16583 -31.0931 27.119026 10590865
174.27565 -30.925768 27.967396 9538691
174.42819 -30.667244 29.026623 7564904
174.45546 -30.702999 30.11076 8616563
174.48328 -30.656353 30.908901 7563619
131.5379 -29.977655 -123.90643 8814713
132.19632 -30.104574 -123.25796 8486262
135.01503 -30.406702 -113.39921 10459019
135.17897 -30.352531 -112.7127 9209467
135.39433 -30.280502 -111.79902 8354163
135.65802 -30.191126 -110.6599 9209470
135.91603 -30.102306 -109.52367 8024940
136.11816 -30.031799 -108.617 6840151
136.31647 -29.961594 -107.71244 7300702
136.51106 -29.891893 -106.80982 8617075
136.70197 -29.8225 -105.90928 8616819
136.93523 -29.736378 -104.78646 7169885
137.16312 -29.650883 -103.66663 7629411
137.34125 -29.582907 -102.77312 7629411
137.51576 -29.515335 -101.88157 7037274
137.68669 -29.448118 -100.99207 12434352
148.03352 -29.44334 -63.973698 5392706
148.40987 -29.661745 -63.293404 5392706
148.93504 -29.950758 -62.516823 5919563
149.33632 -30.327076 -61.791943 5920074
174.85304 -30.090523 29.964706 7892584
175.02568 -29.876837 30.949509 7760998
175.07135 -29.733158 31.957924 9603967
175.12314 -29.542664 32.83926 10525067
175.21008 -29.358168 33.729553 9341051
130.23161 -28.683167 -127.59064 7037274
130.79927 -28.902622 -126.92465 9274237
131.50821 -28.978537 -126.1936 8813941
131.10507 -29.389656 -124.80875 13551549
131.74815 -29.399242 -124.22334 10261901
137.81268 -29.397945 -100.32619 13882053
140.43306 -28.736101 -94.227364 9010550
140.505 -28.659555 -93.305199 9010550
140.5912 -28.564646 -92.156494 8682613
140.65668 -28.48929 -91.241158 11707804
140.70383 -28.433069 -90.556595 11707804
147.11879 -28.676123 -66.740334 7038307
147.76875 -28.807623 -66.180893 6774618
148.01434 -29.136271 -65.442024 5196103
148.57089 -29.168144 -64.625618 5130305
176.10703 -29.059149 34.127148 9734788
176.00742 -29.06324 34.767075 8287342
175.83961 -29.070721 35.833542 7564643
177.49817 -28.970196 38.859032 9538435
177.30421 -28.96957 39.711037 9538435
177.10687 -28.968943 40.562164 9538435
178.91396 -28.962814 45.546661 10787988
178.68846 -28.962202 46.405544 10853012
180.54123 -28.689304 50.395466 9340798
180.44231 -28.712296 51.305653 10196106
180.37796 -28.659098 52.149151 9866629
130.42896 -27.922508 -127.78448 7563618
131.07704 -28.077282 -127.07281 9800581
140.73439 -28.395821 -90.101288 13549237
140.7641 -28.358675 -89.646767 13549237
142.76045 -27.873531 -85.720551 9933193
142.80707 -27.783831 -84.591469 11379348
142.84113 -27.712618 -83.69194 10261123
142.87961 -27.624382 -82.571922 9800316
147.28162 -27.771969 -67.097733 6116687
147.86317 -28.036919 -66.478981 6510930
180.76123 -27.855757 51.256531 10590864
180.66316 -27.83713 52.311237 9406590
180.59811 -27.783548 53.15765 8879735
130.10179 -26.766438 -128.69156 8419693
130.70828 -26.997137 -127.98195 8353134
131.19601 -27.380602 -127.31068 8089962
144.71753 -27.169559 -78.848885 10524556
144.72699 -27.101423 -77.959175 11116181
144.73505 -27.016926 -76.851532 6511954
146.91248 -26.552437 -68.994278 5919562
147.20618 -26.750397 -68.273468 5392706
147.64413 -27.007637 -67.489449 6248273
180.9679 -27.043411 52.164585 9011832
181.00156 -26.672503 53.179264 9603970
180.89925 -26.664726 54.227482 9603457
129.7668 -25.630119 -129.59633 8419693
130.33853 -25.849619 -128.92628 8419693
130.90974 -26.069723 -128.25664 8089962
146.26878 -26.049244 -71.924736 7234909
146.3636 -26.00544 -71.103783 6906201
146.71854 -26.197535 -70.193504 9077114
146.81453 -26.375122 -69.592842 7169629
181.37834 -25.669178 53.074005 7433824
181.28209 -25.662523 54.058331 7170652
181.18643 -25.556427 54.917557 8288621
129.88385 -24.929806 -129.83789 10458761
130.53624 -25.083986 -129.12236 10985105
181.59946 -24.784248 54.090714 6512978
181.42729 -24.723095 55.150646 10064777
129.44427 -24.023207 -130.72798 7827813
130.1608 -24.096708 -129.9908 13616823
130.73425 -24.316954 -129.3188 11905954
181.76822 -23.889479 55.096291 10460046
181.52759 -23.810659 55.898605 9077881
129.23593 -22.777641 -131.56444 11446684
129.8116 -22.997431 -130.8905 11644320
130.38663 -23.21773 -130.21689 16248798
181.98938 -23.129583 55.323639 10460046
181.78314 -22.943316 56.122021 9867909
181.6232 -22.66634 56.887562 9538688
128.88295 -21.675928 -132.46898 7696741
129.46027 -21.895849 -131.79338 12236457
130.09326 -21.895466 -131.17526 11380892
182.16309 -21.868563 56.216923 10460046
181.93991 -21.75115 56.987988 14144454
181.79366 -21.51993 57.66362 14012612
129.07884 -20.902124 -132.67076 9538944
129.73726 -21.05611 -131.94945 9012088
182.33673 -20.604385 57.113873 14867665
182.03551 -20.601656 57.982624 12235945
128.76425 -20.053835 -133.40904 6512211
129.32744 -20.171005 -132.79939 10986646
129.85397 -20.347662 -132.19527 8682867
182.5 -19.913927 57.407097 16248807
182.41452 -19.636068 57.959633 12301482
182.12691 -19.68001 58.737698 9999240
128.55331 -18.573521 -134.36711 10457479
128.94519 -19.072886 -133.73067 6973018
129.58717 -19.312519 -132.98184 10131081
182.59215 -18.990351 58.162136 8879991
182.4308 -18.711494 58.933872 8288370
128.5616 -17.905069 -134.6987 9800320
129.28751 -17.977571 -133.95277 11577759
182.71774 -17.879427 59.02779 7037275
182.46078 -17.831528 59.818607 7038307
128.22108 -16.968245 -135.50722 9472125
128.94547 -17.010748 -134.77808 12958896
129.36862 -17.23328 -134.25157 9209467
183.00354 -17.138412 59.023907 10854036
182.77966 -16.904629 59.924355 8879735
127.98615 -15.8993 -136.36707 11905692
128.43921 -16.163675 -135.73811 9209467
128.95389 -16.339325 -135.11089 9209467
183.13306 -16.053844 59.878952 8748660
182.98145 -15.746428 60.829391 9538690
182.9868 -15.289342 61.706814 7038302
127.51297 -14.607422 -138.49632 6182734
127.82906 -14.960714 -137.62305 8879475
128.33061 -15.245153 -136.73387 11905692
128.69882 -15.462196 -136.14307 9209467
183.50439 -14.833129 61.146133 7038298
183.50566 -14.609792 61.884441 7103835
183.30412 -14.535171 62.71891 8288110
124.20206 -13.785379 -152.23512 6643539
123.85816 -14.191192 -151.07573 7827560
124.57937 -14.190036 -150.47958 10854036
126.5229 -14.237418 -141.10326 8090218
127.17749 -14.234221 -140.47392 7300955
184.24617 -13.981979 63.874283 8814710
184.19365 -13.835172 64.685921 8748660
124.19642 -13.076124 -152.60156 6643539
184.69711 -13.06633 65.031853 7564643
163.07291 -43.390366 -13.146927 10853012
163.29785 -43.437798 -12.572483 9537667
163.64316 -43.681686 -11.53117 10131339
163.97415 -43.796764 -10.64365 12763058
164.26215 -43.815083 -9.7506523 12105128
164.67136 -43.58865 -8.6367836 9210491
164.88628 -43.561104 -7.7213821 10197128
165.09041 -43.603661 -6.7375031 10195590
165.29451 -43.647789 -5.7513657 10721676
165.4984 -43.693386 -4.7632942 7762021
165.77592 -43.541679 -3.7743988 10853012
165.97997 -43.590126 -2.781456 10129289
162.47275 -42.426811 -15.458967 9734779
162.8223 -42.636044 -14.440065 7564132
163.14731 -42.772186 -13.546932 8682616
163.52286 -42.849773 -12.589176 10195339
163.97478 -42.785782 -11.583149 9276285
164.35223 -42.813324 -10.667072 10065801
164.68404 -42.883732 -9.6950989 10131594
164.92139 -42.844868 -8.7550735 9605249
165.17821 -42.768036 -7.7342224 9538943
165.38304 -42.809879 -6.7485771 9472384
165.5567 -42.889473 -5.8394241 10064004
165.78249 -42.852882 -4.890213 8090730
166.02621 -42.79681 -3.8934402 7695972
166.26314 -42.735878 -2.9351616 9208699
166.43912 -42.832138 -1.9880638 13090993
166.64371 -42.882587 -0.98896796 11775391
166.9227 -42.734493 0.012672365 9801090
167.12752 -42.787807 1.017189 10458505
167.40709 -42.642021 2.0253067 8682867
167.57108 -42.686787 2.8332596 8089963
167.86838 -42.436764 3.747303 7826790
168.13196 -42.400383 4.8656693 9143419
168.25529 -42.436157 5.4767113 9143675
161.64789 -41.437107 -18.325237 11049873
162.02145 -41.609379 -17.283932 8089961
162.32098 -41.769588 -16.428757 7892581
162.69533 -41.841034 -15.479521 9405815
163.1302 -41.799511 -14.492712 7695976
163.52127 -41.792721 -13.576908 7432808
163.89838 -41.868687 -12.616993 8682616
164.25096 -41.870373 -11.783627 8092011
164.62944 -41.878429 -10.882816 8749941
164.93445 -42.08416 -9.907856 9605250
165.2079 -42.029758 -8.8290901 10262923
165.42935 -41.966053 -7.9444008 9210491
165.63487 -42.006962 -6.9572678 9012350
165.91371 -41.850254 -5.9706802 8090995
166.1192 -41.893879 -4.9789429 7959407
166.39842 -41.73954 -3.9866982 7038302
166.60397 -41.785931 -2.9901161 8946039
166.80952 -41.833721 -1.9913521 11841184
167.01506 -41.883076 -0.99002844 9801603
167.2951 -41.733482 0.013839662 9801089
167.45598 -41.836899 0.90515512 10589834
167.6944 -41.780907 1.8785667 9142905
167.87119 -41.883148 2.8392487 8089963
168.15225 -41.738308 3.8555412 8550514
168.35835 -41.795891 4.8729477 8089963
168.52322 -41.843094 5.689064 9340284
168.7738 -41.820377 6.771965 9866629
169.03403 -41.679573 7.7018509 9340288
169.26292 -41.659184 8.6917648 7893359
169.53688 -41.472263 9.6059952 8550772
169.65369 -41.5126 10.431244 8681843
160.97165 -40.492523 -20.799047 9012601
161.19507 -40.529968 -20.23748 8617843
161.49475 -40.787987 -19.290531 9472125
161.86804 -40.853401 -18.34959 10260614
162.31607 -40.777561 -17.36372 7827301
162.69077 -40.793716 -16.465172 9011322
163.06662 -40.863632 -15.513803 9077115
163.4581 -40.853775 -14.600052 8617330
163.82042 -40.902786 -13.70002 10130827
164.19904 -41.082848 -12.639294 8287859
166.61987 -41.141109 -3.9914169 7564651
166.82594 -41.186886 -2.9934425 9603716
167.10626 -41.033955 -1.9939919 9867397
167.27126 -41.072571 -1.1918182 9341053
167.57701 -40.85482 -0.18640524 9603711
167.8333 -40.771736 0.82195657 8880245
168.04001 -40.82391 1.8330956 9932165
168.24673 -40.877441 2.8467484 9668995
168.4875 -40.719807 3.661644 9603202
168.6946 -40.775867 4.6809731 10326665
168.90172 -40.833347 5.7030029 10458250
169.08525 -40.88562 6.6108856 10524301
169.38278 -40.70256 7.637249 11116696
169.55865 -40.799694 8.5852814 8419185
169.76648 -40.862812 9.6197739 8089963
169.92957 -40.784172 10.695107 12234659
170.06079 -40.517185 11.483574 9603200
170.15648 -40.328236 12.106674 7761509
160.36308 -39.573147 -23.074272 9736329
160.66838 -39.82621 -22.134354 9276035
161.04073 -39.886051 -21.200729 9210237
161.48659 -39.752914 -20.273296 8025450
161.86061 -39.815445 -19.333216 9209210
162.23529 -39.879398 -18.390223 10260614
162.6315 -39.829617 -17.502354 8024680
163.06108 -39.81649 -16.501642 7564392
163.36401 -40.080746 -15.54129 8222321
168.43088 -40.262638 2.6481133 9997960
168.99698 -39.968178 4.6903152 9997700
169.26938 -39.893436 5.7845116 10458251
169.44739 -39.868187 6.538784 13813949
