# .PCD v0.7 - Point Cloud Data file format
VERSION 0.7
FIELDS x y z rgb
SIZE 4 4 4 4
TYPE F F F U
COUNT 1 1 1 1
WIDTH 1228
HEIGHT 1
VIEWPOINT 0 0 0 1 0 0 0
POINTS 1228
DATA ascii
172.06429 -32.627777 44.482258 10393995
97.640938 -32.668007 134.17593 9735555
97.09948 -32.649239 134.44972 9998727
96.253685 -32.570953 134.89709 10130313
95.561577 -32.198929 135.38701 9735811
172.58833 -31.702606 42.9366 9210491
172.47903 -31.718861 43.791931 10196872
97.088966 -31.847946 134.7769 11379356
96.408836 -31.625628 135.20074 10458510
95.506691 -31.597397 135.65573 10261388
95.007523 -31.382269 135.98756 10261388
173.20445 -30.418831 42.203732 9736836
173.04684 -30.582037 42.922604 9605250
172.808 -30.862572 43.652653 9210491
96.396782 -30.823694 135.52901 10327181
95.725967 -30.60573 135.96742 9866630
94.881485 -30.532007 136.41878 10985367
94.212425 -30.170471 136.94684 12433069
173.97032 -29.529659 41.355976 13090480
173.73019 -29.72835 42.065514 10591631
173.57707 -29.819656 42.736492 9736836
95.812462 -29.833906 136.44005 9734788
95.13311 -29.721018 136.86922 11051160
94.410988 -29.487812 137.47267 10393231
93.762604 -29.343208 137.99559 8748408
93.414856 -29.060209 138.63054 8617080
182.49039 -28.549196 31.191029 11904668
181.94623 -28.8368 31.999638 10852752
181.59506 -28.927019 33.064884 9208182
177.85049 -28.922058 36.818707 8813683
177.67004 -28.919987 37.673576 9538435
175.21561 -29.066193 39.801414 9735812
175.08093 -29.073952 40.657516 9472127
174.97896 -29.080099 41.299934 9208443
92.883568 -29.05106 138.92235 8618099
92.557175 -28.855316 139.76799 8946808
91.810188 -28.760517 140.59363 9473153
90.961296 -28.760214 141.14272 10788247
90.450325 -28.76004 141.46974 9143681
87.445068 -28.751112 146.30165 11905701
86.738525 -28.750963 146.72026 9734787
85.852531 -28.750797 147.23842 9340029
82.3908 -28.575298 152.23438 7629670
81.53933 -28.529179 152.67572 8288369
80.865265 -28.456482 153.03633 8222576
182.87093 -27.656 30.575596 9603193
182.70589 -27.929153 31.317196 10786699
182.5686 -28.114557 32.108341 11904668
82.206749 -27.909332 152.5966 9209467
81.715462 -27.490173 153.00659 9209467
80.778496 -27.485716 153.46916 8683381
80.098106 -27.066746 153.97218 7039331
183.41238 -26.316946 29.98354 8287859
183.19991 -26.766369 30.531818 10721423
183.07997 -26.885159 31.401829 10260867
81.668709 -26.656395 153.36412 9209467
81.140617 -26.44525 153.70872 8419700
80.20179 -26.441721 154.1721 7565161
79.484962 -26.23097 154.60938 8091248
183.66963 -25.646364 29.797588 7301479
183.59238 -25.65369 30.692341 9537667
81.057533 -25.818419 154.00101 8814201
80.340111 -25.606865 154.43892 9142906
79.399719 -25.604265 154.90273 10457993
78.869446 -25.394194 155.24786 8682867
184.05663 -24.515938 29.176739 7038307
183.97427 -24.795685 29.709187 7498857
183.85388 -24.9825 30.507496 9537667
80.59272 -24.840448 154.62207 9274492
79.759415 -24.558737 155.14503 10523786
78.868263 -24.473248 155.61786 9669248
78.318962 -24.137354 156.02283 8682867
184.28375 -23.839338 28.984295 7959146
184.29762 -23.933681 29.820293 6643543
79.897057 -23.720198 155.41374 9537662
79.17588 -23.508781 155.85336 9274748
78.12471 -23.465633 156.38789 8748660
184.71581 -22.47776 28.366711 8945527
184.70113 -22.720713 29.047863 7235677
184.58038 -23.185843 29.712711 6511954
79.123352 -22.66757 156.2166 9077369
78.491074 -22.396114 156.6366 9012088
77.602028 -22.315641 157.10637 9538176
185.02727 -21.574743 28.185062 8419696
185.09654 -21.592781 28.879597 11183001
78.494942 -21.472431 157.0052 10262155
77.810524 -21.401796 157.37032 10262155
76.944237 -21.359907 157.81339 10459023
185.29271 -20.658749 27.539654 6511954
185.36247 -20.675735 28.234409 9603201
77.944954 -20.556238 157.6433 10262155
76.994514 -20.556593 158.11084 10261643
76.26693 -20.345737 158.55347 10788244
185.64079 -19.679605 27.437374 10591633
185.66272 -19.847828 28.202335 10261643
77.855675 -19.920776 157.94214 11314844
77.299988 -19.58152 158.35162 10525072
76.398811 -19.497484 158.8288 10656657
75.552971 -19.215851 159.358 11315102
185.95499 -18.609646 26.72002 7563619
185.93867 -18.898615 27.540989 9274748
76.680321 -18.505369 159.08818 10130313
75.80014 -18.435717 159.54927 9472384
75.036034 -18.437231 159.92462 8092019
186.34039 -17.552048 26.697323 9340283
186.24271 -18.01927 27.370533 8420464
76.663445 -17.795227 159.38133 10459278
75.931404 -17.582911 159.82674 9077626
74.974548 -17.584806 160.2968 10392718
74.432503 -17.372711 160.64859 9932681
186.61697 -16.553055 25.895123 7563619
186.68936 -16.565832 26.592495 7958889
76.030098 -16.941936 160.03526 8682867
75.272705 -16.568789 160.55762 9341058
74.369652 -16.517376 161.0226 9472387
73.825981 -16.304829 161.37538 9735554
186.99818 -15.529929 25.946194 7695721
186.94258 -15.883458 26.627262 7564643
75.459557 -15.65747 160.83122 9932681
74.660866 -15.491619 161.34843 9340800
73.787575 -15.452004 161.80797 10261642
73.074593 -15.244581 162.31259 10788243
187.54099 -14.506742 24.870892 6182223
187.29887 -14.778258 25.894642 6774359
74.101784 -14.718637 162.24033 9735555
73.26461 -14.616211 162.73645 9933191
72.473923 -14.415639 163.39468 9801348
72.080589 -14.023305 164.32283 9077625
71.300377 -14.025978 164.69728 9538176
188.71008 -14.111846 23.641972 6840919
188.5481 -14.10637 24.543545 6379856
69.640923 -13.718462 167.47066 9011063
68.630241 -13.71875 167.88564 9406589
61.658535 -13.703425 177.11348 9208435
61.085854 -13.484883 177.53389 9077368
60.347572 -13.417479 177.94029 8682867
59.716873 -13.280553 178.43459 9537662
60.53059 -12.633733 178.29413 8814453
59.589588 -12.597262 178.7717 9406079
58.99754 -12.374707 179.1523 8419702
60.697933 -11.900982 178.50609 8682867
59.97765 -11.724352 178.93144 8945784
58.983166 -11.458348 179.52751 8682617
58.325787 -11.00525 180.03291 7564651
59.979519 -10.990529 179.22533 9537662
59.463825 -10.443004 179.69891 9932167
58.402744 -10.314005 180.27275 9668738
57.598545 -10.090496 180.75821 9734531
59.309536 -9.614666 180.10753 9405566
58.71336 -9.3883057 180.49178 9734531
57.762913 -9.3495941 180.9749 9273980
58.609112 -8.4629993 180.91475 10458254
57.984837 -8.4674931 181.22008 9602945
57.151463 -8.4736538 181.62758 9471359
58.009243 -7.6152272 181.55037 10590097
57.252621 -7.5426536 181.95174 10261388
56.598064 -7.5434561 182.16887 9734531
57.354038 -6.6086502 182.27705 10656146
56.472591 -6.6089106 182.54375 9341053
56.712566 -5.7199669 182.85429 9669762
55.868214 -5.6683974 182.9326 9209467
56.008663 -4.4947662 183.39619 10064521
55.980236 -3.3938487 183.83492 10327692
55.358936 -3.2343056 183.91342 10853780
55.301159 -2.3662248 184.26021 10393741
55.412624 -1.4161963 184.63554 10064777
54.691235 -1.4157594 184.65315 9867398
54.556896 -0.58224618 185.02071 9538432
54.145145 -0.22464222 185.27083 9209467
54.738834 0.25530005 185.64203 9867398
54.070606 0.49460649 185.8506 8485749
53.402081 0.73346114 186.05876 7564651
52.591671 1.2222286 187.49364 11379356
142.07889 -51.177971 81.004845 11906725
141.59573 -51.335426 81.725533 9472131
140.96628 -51.446075 82.633156 10129545
140.30951 -51.758347 83.24929 9405822
139.62056 -51.667068 84.116791 9274236
138.99478 -51.622818 84.883125 9867141
138.36954 -51.580444 85.647781 8815483
137.74471 -51.539665 86.411034 7827305
137.12033 -51.50071 87.172737 8879479
136.49634 -51.463432 87.933067 7563619
135.87268 -51.42791 88.691963 8090986
135.24934 -51.394005 89.449638 10590096
134.62627 -51.361946 90.20594 11313560
134.02518 -51.399216 90.897453 10984593
133.32188 -51.500092 91.674759 8089963
132.57547 -51.467789 92.577812 10261643
131.95357 -51.44265 93.329163 11380380
131.33168 -51.419373 94.079483 9801607
130.70987 -51.397659 94.828789 10787732
130.088 -51.377716 95.577232 9340797
129.46613 -51.35939 96.32476 9407106
128.90761 -51.321869 96.876152 10788759
142.84004 -50.485115 80.190292 10919317
142.26677 -50.580521 81.111153 9077374
141.7737 -50.578362 81.963829 9208703
141.24284 -50.564789 82.794228 9866117
140.55977 -50.719688 83.533714 9735043
139.93179 -50.674576 84.303116 9866629
139.30434 -50.63105 85.071037 9012863
138.67746 -50.589348 85.837234 9210499
138.05103 -50.549263 86.602058 9736329
137.36406 -50.708984 87.326782 8353135
136.73877 -50.672165 88.088387 7563619
136.11385 -50.637123 88.848541 7300702
135.48924 -50.603683 89.60746 9997703
134.86488 -50.572021 90.365036 9471614
134.13783 -50.603867 91.208824 8550513
133.51195 -50.758873 91.863914 8813428
132.80994 -50.679031 92.740723 9472642
132.1868 -50.654289 93.493385 10788244
131.56375 -50.631271 94.244926 11511709
130.94072 -50.60981 94.995552 11511199
130.31769 -50.590149 95.745178 10656146
129.69463 -50.571983 96.494026 9341055
129.01384 -50.576607 97.137352 9538434
128.14169 -50.553596 97.876678 7827814
144.58058 -49.20784 78.105743 11906725
144.12302 -49.400635 78.75695 11511198
143.56691 -49.593147 79.5783 11313819
143.07368 -49.587776 80.433594 12959153
142.57997 -49.584114 81.28846 9340545
142.08575 -49.581963 82.143013 7827565
141.55362 -49.684952 82.909874 9669252
140.87291 -49.725784 83.718597 9800579
140.24327 -49.681435 84.489571 9735041
139.61414 -49.638626 85.259071 8683383
138.98561 -49.597641 86.026833 10328723
138.35753 -49.558266 86.793205 11184031
137.66893 -49.718689 87.519485 11840932
137.04201 -49.682503 88.282661 9341054
136.4155 -49.648064 89.044357 7629924
135.71037 -49.560997 89.928673 7432289
135.0748 -49.637039 90.63932 8221548
134.41264 -49.548775 91.473381 8221805
133.78865 -49.601242 92.183495 10655885
133.10327 -49.692665 92.944572 9012090
132.4785 -49.668251 93.6987 8092019
131.85399 -49.64563 94.451843 10459536
131.22943 -49.624557 95.204063 10261645
130.6049 -49.605171 95.955269 9735299
129.98041 -49.587372 96.705704 8682867
129.21397 -49.623596 97.417664 8748917
128.32657 -49.665398 98.139267 7564642
127.58062 -49.605644 98.790459 6643540
126.91097 -49.439247 99.427971 7827814
145.72243 -48.428177 76.695427 10458507
145.35127 -48.553833 77.245995 10591377
144.86972 -48.611145 78.036156 10788756
144.37633 -48.602715 78.89431 10459535
143.88243 -48.595963 79.751915 10590610
143.38817 -48.59066 80.609146 14012095
142.91153 -48.68708 81.362434 9406851
133.78014 -49.120941 92.46228 12432037
133.27945 -49.100563 93.066978 9538176
132.65373 -49.07637 93.822029 8092019
132.0282 -49.053947 94.576035 9275777
131.40277 -49.033081 95.329216 9275262
130.77739 -49.01387 96.081413 8682867
130.15193 -48.996239 96.832748 8682867
129.41005 -48.849564 97.617271 8354158
128.61488 -48.684761 98.358902 7893607
127.86689 -48.626045 99.011322 6511954
127.12026 -48.56916 99.661659 8090733
126.31835 -48.709427 100.26567 8353906
125.63069 -48.46035 100.95706 7697261
124.94334 -48.213242 101.64735 9144191
147.21033 -47.360191 74.895256 7827815
146.73378 -47.447166 75.655602 8682871
146.17583 -47.634087 76.484444 10129543
145.6819 -47.622635 77.345558 9406848
145.18768 -47.612862 78.206116 10328205
144.69312 -47.604553 79.066139 8551539
144.16196 -47.837997 79.815178 10327694
143.67592 -47.992882 80.542885 12433066
128.63795 -48.08419 98.621559 9143675
128.02699 -47.903358 99.21685 6511954
127.35312 -47.635979 99.905357 8353651
126.65732 -47.535385 100.53375 7696235
125.85505 -47.678452 101.13676 8288627
125.1104 -47.627266 101.78284 10262157
124.43739 -47.542725 102.38472 10196365
123.82784 -47.34436 102.98705 12038058
148.44044 -46.491035 73.397079 8287853
147.98006 -46.67746 74.057831 10195338
147.48721 -46.662193 74.923622 7301470
146.99449 -46.64846 75.788971 8288115
146.50133 -46.636276 76.653419 11181971
146.00764 -46.625465 77.517197 8617079
145.52715 -46.715797 78.274818 9603972
126.88348 -46.752113 100.71266 8090736
126.09286 -46.749756 101.38963 8880507
125.40384 -46.655373 102.02083 10262157
124.66239 -46.60836 102.66974 9735814
123.77379 -46.553932 103.44623 9275519
123.09102 -46.435997 104.08888 9275519
122.65952 -46.29528 104.5363 9538691
151.44255 -45.483482 69.73629 7038307
151.1487 -45.470406 70.263107 7761772
150.5955 -45.541107 71.110374 9011324
150.07591 -45.652 71.838882 9208187
149.48195 -45.73288 72.740601 7760997
148.9415 -45.8144 73.548973 7695204
148.46764 -45.808388 74.375511 10261131
147.8613 -45.952057 75.202705 7959401
147.21086 -46.083473 76.124268 10195336
146.81665 -46.074211 76.817978 11905692
124.87505 -45.868141 103.09713 8881020
124.13998 -45.826439 103.75214 9078397
123.50982 -45.608727 104.49388 7039331
122.66061 -45.700813 105.11166 9077371
121.93757 -45.709435 105.70672 7563619
121.30639 -45.496635 106.44437 10195339
120.57265 -45.462029 107.09121 9077625
119.94016 -45.252106 107.8271 9735555
119.35297 -45.226562 108.34259 10262156
155.69336 -44.222916 64.773521 8814454
155.33839 -44.231895 65.724617 7367008
154.73273 -44.304832 66.788918 8156527
153.9109 -44.495041 67.313965 10129802
153.26874 -44.677895 68.00161 10459279
152.76649 -44.685852 68.940208 8552312
152.0208 -44.941902 69.559395 9669765
151.52982 -44.919945 70.439842 7761771
151.0383 -44.899391 71.318993 9537152
150.42003 -45.063789 72.136681 9208187
150.02644 -45.049385 72.837708 9208187
122.79235 -45.022697 105.67413 10063753
122.35045 -45.00061 106.06473 10262411
121.59193 -44.872704 106.82477 10788243
120.98057 -44.753098 107.4537 10262156
120.24422 -44.720383 108.10065 9275004
119.37033 -44.686287 108.88353 9538176
118.64824 -44.661568 109.53992 9406590
118.06662 -44.558922 110.19337 8024681
117.61423 -44.340523 111.23734 7367005
117.00581 -44.300667 111.89583 9077108
116.38338 -44.168869 112.75765 10260867
115.58807 -44.125168 113.34304 10260611
167.07478 -43.532425 51.110542 8090987
166.65077 -43.67466 51.946777 8090987
166.31853 -43.707664 52.85458 8813686
165.90225 -43.893288 53.602543 9406335
163.26396 -43.891014 55.800114 8879991
162.9924 -43.889206 56.584591 9406847
162.64752 -43.887077 57.563084 8288366
160.06465 -43.885498 59.47821 10789009
159.70245 -43.883392 60.43906 8287597
159.33476 -43.881248 61.397923 8616821
159.11145 -43.879951 61.972145 9011838
157.04158 -43.962967 63.349651 9998728
156.69011 -43.970299 64.306313 8814454
156.407 -43.976807 65.071098 8814454
115.05798 -43.96785 114.18993 12694184
114.52593 -43.812553 115.0383 11115668
113.65337 -43.797302 115.82293 9866371
112.95331 -43.796425 116.50378 10393739
112.24889 -43.795578 117.1801 8618355
111.54064 -43.794746 117.85247 8618355
110.97104 -43.79409 118.38721 8092019
108.26954 -43.785309 123.00658 9932163
107.52602 -43.784592 123.65462 9340027
106.77889 -43.78389 124.29848 10260871
106.04932 -43.714134 125.11641 8813429
105.50859 -43.519341 125.79243 8813429
104.59489 -43.598434 126.30003 7696236
103.95834 -43.370422 126.76871 7564651
167.76149 -42.416191 50.29071 11709348
167.36607 -42.691544 51.198154 8551281
167.01817 -42.7686 52.148094 10919829
166.68922 -43.101105 52.750935 10064009
105.53568 -42.866768 126.19474 9340030
104.86268 -42.624092 126.62331 9406336
103.96412 -42.56942 127.08727 10064522
103.51792 -42.142403 127.47817 8617336
168.22827 -41.416656 49.694702 16777207
168.02505 -41.601364 50.427151 11183003
167.68945 -41.680679 51.383602 9405821
167.39146 -41.843826 52.086414 14077894
104.84063 -41.686058 127.01109 9867400
104.19579 -41.580948 127.37039 10525328
103.37792 -41.493645 127.80772 9011835
168.47899 -40.778076 49.547382 15461090
168.27985 -40.800507 50.590427 11248797
167.94969 -41.006973 51.373711 9208443
104.30584 -40.851814 127.60938 9933191
103.52676 -40.540306 128.11771 9341055
102.68148 -40.413788 128.58421 7433064
168.9861 -39.595245 48.922276 8814454
168.83821 -39.72747 49.745819 11314846
168.56296 -40.168564 50.453476 9208443
103.57635 -39.540405 128.49513 9209470
102.85522 -39.501884 128.86525 9143678
102.06023 -39.527168 129.24602 8946299
169.49348 -38.412483 48.294655 9735812
169.33679 -38.681084 48.779629 9143675
169.20677 -38.737411 49.684082 8222060
103.53361 -38.936195 128.75905 8419440
103.02899 -38.588791 129.14679 9670020
102.20715 -38.581322 129.55391 9801606
101.31124 -38.556023 130.00462 9669506
169.77666 -37.726891 48.020985 9669763
169.63278 -37.797806 48.995876 7234653
102.25922 -37.667831 129.89545 9341054
101.46034 -37.629311 130.30377 8485749
100.85928 -37.334351 130.7179 8748920
170.30437 -36.480507 47.416656 8419703
170.10866 -36.773399 48.151276 8551287
169.95927 -36.945473 48.86726 8814454
101.78407 -36.682861 130.52499 8748920
100.78219 -36.596977 131.05217 9209470
100.10538 -36.366806 131.4774 9735812
170.81725 -35.394432 46.452255 10261132
170.63126 -35.628059 47.285133 9735046
170.51967 -35.650612 48.138916 9866631
101.63844 -36.03434 130.85732 8288371
101.03876 -35.656548 131.304 9341055
100.1916 -35.512604 131.77841 9538689
99.498703 -35.274078 132.215 8420464
171.04576 -34.718361 46.601654 9998216
170.88721 -34.854279 47.502228 9537667
101.18278 -34.810127 131.57338 7564651
100.50309 -34.580856 131.99973 7564651
99.418594 -34.536789 132.55072 8288366
98.740189 -34.309937 132.97556 9537918
171.64609 -33.390968 45.640724 11380380
171.41689 -33.697227 46.612419 10590864
171.15572 -34.143005 47.427814 11380380
100.4237 -33.841751 132.33583 7564651
99.72831 -33.603874 132.77336 8485488
98.938698 -33.401871 133.24286 9537918
98.277565 -33.09124 133.69284 9537918
172.08858 -32.38324 45.018616 9210491
171.90315 -32.61451 45.85553 10261643
171.71739 -32.846611 46.692535 10261643
99.812546 -32.746849 133.07643 9537918
99.131287 -32.520741 133.5023 9537918
98.126213 -32.444553 134.02715 9603969
172.34196 -31.740088 44.862267 9210491
172.20021 -31.803295 45.844513 9144187
99.054878 -31.613989 133.90431 9077371
98.441696 -31.492186 134.25475 9274495
97.639412 -31.465178 134.66011 11050391
172.90062 -30.560698 44.22913 9210491
172.70177 -30.734112 45.120598 12432550
172.43034 -31.122509 45.993412 9210491
98.587624 -30.560417 134.56725 9866118
97.687981 -30.551086 135.02014 9931910
96.924973 -30.542435 135.40721 9537408
96.370064 -30.228767 135.83763 9734788
173.87997 -29.416731 42.810543 9736836
173.64203 -29.628439 43.417511 9999495
173.47852 -29.685175 44.398109 9341309
97.797485 -29.890108 135.41751 9537408
97.159073 -29.681467 135.90771 9340029
96.387535 -29.537407 136.44281 9734788
95.824036 -29.192261 137.15863 9406847
95.008156 -29.089422 137.75015 9538178
182.34752 -28.565128 32.749134 9602939
182.26549 -28.575066 33.640476 9011574
181.39102 -28.924339 34.155972 10853004
181.18094 -28.921671 35.245823 10853004
177.43837 -28.91741 38.740917 9538435
177.20073 -28.914843 39.806942 11512220
174.87614 -29.086496 41.942482 10525584
174.73787 -29.095407 42.799736 9736836
95.32476 -28.806801 138.56842 8617080
94.612923 -28.793797 138.96182 7893615
93.722786 -28.778093 139.45181 8617080
93.188324 -28.768997 139.74477 8618099
90.250282 -28.751825 144.59392 9208699
89.552055 -28.751629 145.02594 9735299
88.676315 -28.751402 145.56099 9341058
87.973503 -28.75123 145.98573 8617593
85.175613 -28.742502 150.63655 9735553
84.387215 -28.5826 151.19144 9011835
83.521278 -28.498085 151.69406 8813684
82.884239 -28.329748 152.09457 7563619
182.88841 -27.22616 32.162914 10063488
182.67586 -27.676285 32.709217 10458248
182.55531 -27.796724 33.578846 9143160
84.454506 -27.925507 151.4843 8617334
83.777367 -27.503334 151.98688 9866114
82.840019 -27.496756 152.45073 9932164
82.313179 -27.285292 152.79485 8814711
183.14915 -26.556538 31.980412 9603193
183.06737 -26.565096 32.874577 9735297
83.734123 -26.66873 152.34294 11576730
83.138618 -26.414122 152.73805 10919315
82.161736 -26.408438 153.22104 8814456
183.61172 -25.436079 31.376659 10853012
183.46635 -25.708389 31.897823 9537664
183.32851 -25.894197 32.692631 9735297
83.087288 -25.689117 153.05409 10985367
82.40934 -25.615562 153.41721 8814201
81.550919 -25.569656 153.85805 10261130
183.90175 -24.718409 31.060688 9800582
183.77191 -24.845327 32.009937 9011576
82.535187 -24.652813 153.74144 8814201
81.682838 -24.617441 154.17503 9669508
80.942711 -24.247786 154.68748 8945786
184.29738 -23.788429 30.426929 6840925
184.19591 -23.868963 31.245556 7301479
184.05411 -24.098219 31.905659 8814195
81.934868 -23.586592 154.46451 7038307
81.064957 -23.513332 154.92194 8748407
80.194885 -23.440777 155.37923 9208954
184.82317 -22.512348 29.75053 7630435
184.69583 -22.677446 30.51244 8222572
184.49895 -23.046125 31.219234 9077112
81.211967 -22.630066 155.20387 8880246
80.444084 -22.406754 155.6713 9209211
79.647881 -22.352396 156.0849 9406590
185.14523 -21.608727 29.572208 10590864
185.06633 -21.691132 30.397419 8025193
80.573669 -21.447252 155.9924 9341054
79.707939 -21.403305 156.43607 9011832
79.023552 -21.33201 156.80139 9538432
185.43222 -20.692921 28.930294 12433581
185.45076 -20.753819 29.756657 12630447
79.952751 -20.600187 156.63768 9143418
78.964607 -20.59901 157.12442 10656913
78.549095 -20.344694 157.43085 10262155
185.78123 -19.711887 28.830273 9208443
185.78278 -19.878805 29.594303 11314844
79.793404 -19.709776 157.0733 9735812
79.256439 -19.496841 157.4229 11446173
78.412895 -19.49642 157.83818 12433068
77.799706 -19.0718 158.3102 9998727
186.09637 -18.63936 28.113171 9208443
186.07988 -18.929501 28.936337 10459023
79.202782 -18.6467 157.79024 10459278
78.664337 -18.433548 158.1407 12038054
77.709755 -18.433661 158.61041 9538176
76.979286 -18.221172 159.0551 9538176
186.48271 -17.603142 28.169735 8749429
186.3362 -18.201403 28.83704 13223353
78.609352 -17.580772 158.5098 11051415
77.914177 -17.623602 158.83472 9735555
77.095947 -17.474676 159.2971 10656657
186.76184 -16.578756 27.291035 7564643
186.83397 -16.591928 27.990887 8157292
78.095695 -16.797316 159.07686 10459278
77.285927 -16.565847 159.56813 10525071
76.437607 -16.370483 160.0639 9669762
75.778008 -16.085915 160.50261 9012350
187.12724 -15.623793 27.434696 9999496
187.1122 -15.912525 28.261478 8420464
77.380363 -15.654843 159.88713 9735812
76.672691 -15.446061 160.39206 9933191
75.795265 -15.37748 160.8752 9274750
75.193504 -15.238934 161.27477 9406078
195.32152 -15.040607 18.300541 9340543
194.57063 -14.988127 18.93771 9143422
194.07213 -14.953478 19.359806 10854036
187.44658 -14.512036 26.466335 7037274
187.41588 -14.798536 27.291203 9867142
76.128799 -14.714468 161.24844 8946039
75.325783 -14.569139 161.76343 9208955
74.489113 -14.40325 162.31197 9801092
74.029114 -14.018023 163.38503 8090987
73.249954 -14.019898 163.75995 8617331
189.33308 -13.693651 25.341358 5920074
188.34181 -14.099647 25.669376 6248015
188.13467 -14.093428 26.794476 8090218
74.808083 -14.016454 163.00981 10393229
71.654671 -13.717949 166.62202 8090475
70.649055 -13.718196 167.04912 8748149
63.759529 -13.696351 176.27879 11379356
63.173206 -13.474232 176.65248 11379356
62.341076 -13.478771 177.01161 10063747
61.769173 -13.260099 177.43314 9931904
63.257324 -12.791443 176.8893 10655630
62.594013 -12.523662 177.32323 9603194
61.645142 -12.577662 177.76831 10392199
61.055862 -12.354853 178.14766 9537662
62.547665 -11.885046 177.60252 9208435
61.882034 -11.616114 178.03801 9340023
61.007927 -11.59299 178.47731 8682867
62.19574 -10.819367 178.20377 8090987
61.315392 -10.577441 178.73399 9274748
60.394115 -10.374029 179.26894 9866373
61.378445 -9.5992193 179.09596 9406078
60.655712 -9.4198666 179.52354 9800580
59.763248 -9.26478 180.02489 9208187
60.81432 -8.5251122 179.8049 9866373
59.93327 -8.5001669 180.24837 9076601
59.1721 -8.381794 180.67039 9405566
60.091015 -7.6020799 180.53157 9471615
59.207195 -7.576561 180.97659 9800580
58.530132 -7.3015838 181.42012 10787476
60.040852 -6.8268685 180.86761 9735299
59.442287 -6.5968804 181.25444 10524303
58.607929 -6.6014628 181.6631 10524560
57.981327 -6.6050572 181.96991 11050648
59.312557 -5.8966966 181.59955 10853012
58.711849 -5.6654572 181.98796 9735812
57.87479 -5.6695395 182.39809 10787732
57.271664 -5.438024 182.78777 11379356
58.789989 -4.9615064 182.23232 10261644
58.134701 -4.5722055 182.71103 10261643
57.260738 -4.4298649 183.19814 11116440
56.545124 -4.0260134 183.56975 10985111
57.488422 -3.4343429 183.48601 11313303
56.788868 -3.2383387 183.83867 11314331
57.578175 -2.6052046 183.77489 12431013
56.729977 -2.3686047 184.17513 10854036
56.831051 -1.6555613 184.50609 10459278
56.135555 -1.4166565 184.61787 9209467
56.003338 -0.58148849 184.98616 9341053
55.350246 -0.22338086 185.24243 9209467
55.421162 0.41696453 185.75529 8222060
54.851353 0.73680329 186.02615 9735812
54.049099 1.2264986 187.46709 9538176
53.319576 1.2243122 187.4803 9209467
141.56587 -49.165482 83.210808 9537667
142.85701 -48.386955 81.672737 7564651
142.39812 -48.584915 82.322334 7038307
141.8701 -48.573547 83.159431 9011323
141.15002 -48.670525 83.980537 11050132
140.50778 -48.73513 84.705482 11313302
139.88783 -48.585236 85.524033 9537919
139.24702 -48.652878 86.245552 9605000
138.58516 -48.511261 87.109138 13552837
137.91145 -48.764519 87.765839 14342349
137.21982 -48.685326 88.629715 9209211
136.59175 -48.651695 89.392815 9406590
135.96402 -48.61982 90.154579 6511187
135.33661 -48.589417 90.915092 7169373
134.70949 -48.56076 91.674332 8814452
134.08252 -48.533623 92.432503 8090987
133.45573 -48.508194 93.189484 9735297
132.82909 -48.484215 93.945465 8486776
132.20258 -48.462006 94.700371 8881020
131.57614 -48.441315 95.454445 8287853
130.94987 -48.422325 96.207596 8682867
130.19272 -48.399551 97.106049 10459022
129.54976 -48.290779 97.763 9603969
129.08788 -48.119629 98.229057 9735812
144.24339 -47.297791 80.06369 8880251
143.67863 -47.45903 80.922737 10985623
143.16649 -47.638939 81.677528 8617337
142.61133 -47.586845 82.673424 8222319
142.06987 -47.571831 83.505127 8485489
141.43639 -47.64415 84.215324 9669249
140.74034 -47.684456 85.017601 9866371
140.10808 -47.643593 85.789787 9406335
139.47627 -47.604248 86.560478 7433321
138.845 -47.566612 87.329582 12368564
138.1532 -47.728882 88.058662 11973549
137.52318 -47.694336 88.824577 10656913
136.89351 -47.66127 89.589279 10393741
136.26422 -47.629929 90.352531 6445908
135.63524 -47.600105 91.114655 8222316
135.0065 -47.571945 91.875458 7827814
134.37804 -47.54525 92.635216 8814452
133.76643 -47.570892 93.345604 8419951
133.063 -47.694336 94.110146 8946295
132.43527 -47.672417 94.866302 8682611
131.80759 -47.651939 95.621567 10524047
131.17999 -47.633194 96.375893 9603713
130.42316 -47.611359 97.277222 11906213
129.71283 -47.565964 97.966988 10064521
128.96114 -47.506905 98.622688 9406591
128.27977 -47.387825 99.247749 7038042
127.81822 -47.219673 99.712265 9143166
145.48587 -46.417 78.591118 9734788
144.9196 -46.606949 79.415108 7893356
144.42406 -46.600784 80.276848 7169635
143.92793 -46.59623 81.138054 8090995
143.43118 -46.592995 81.998863 9471871
142.95909 -46.630722 82.781906 10853009
142.32205 -46.774216 83.652359 8090987
141.58591 -46.886894 84.461739 8617075
140.98984 -46.888191 85.167381 8682867
140.3562 -46.847931 85.940826 8090736
139.72308 -46.809143 86.71273 7038307
139.09052 -46.772079 87.483101 7564651
138.45844 -46.736473 88.252106 7038307
137.82681 -46.702553 89.0196 9933449
137.19551 -46.670097 89.78582 9604228
136.56554 -46.639595 90.55127 8222320
135.93846 -46.611465 91.317352 10524555
135.31177 -46.585052 92.082222 8551280
134.61456 -46.754051 92.797455 10261383
133.89268 -46.825897 93.612701 8354159
133.29709 -46.903908 94.274879 8090987
132.66814 -46.882286 95.032333 7630179
131.97533 -46.820351 95.88797 10853012
131.34853 -46.88166 96.596466 9537664
130.65379 -46.822655 97.448524 12103335
130.02571 -46.590057 98.202538 10853012
129.27689 -46.533852 98.863365 8814197
128.52309 -46.555229 99.46817 6511954
127.69201 -46.610405 100.10826 8353649
127.01511 -46.366837 100.81677 9143166
126.5737 -46.338638 101.21317 9143166
148.59407 -45.377518 74.811661 10261131
148.19966 -45.366531 75.509003 9735043
147.58208 -45.536568 76.315872 10458508
146.99429 -45.634209 77.181007 11905692
146.4702 -45.697678 77.988091 8550514
145.97508 -45.689079 78.85498 9077115
145.35692 -45.864288 79.654243 7367013
144.85324 -45.919411 80.43882 6840926
144.24223 -46.036079 81.314827 8288115
128.8045 -45.867775 99.817963 7564386
128.07797 -45.88134 100.41072 9340286
127.44822 -45.655388 101.16063 8748408
126.70979 -45.609314 101.82265 10984852
125.97195 -45.564568 102.48283 9735814
125.33745 -45.422287 103.15353 9209984
124.49399 -45.332619 103.94635 7960175
154.53966 -44.252319 67.811363 10195339
154.08575 -44.238571 68.720131 9604229
153.61783 -44.222244 69.62191 8552312
152.90614 -44.305679 70.321625 10261387
152.24825 -44.378151 70.99707 9997703
151.60251 -44.425316 71.808891 9734531
150.85115 -44.552673 72.566605 9537152
150.23927 -44.638092 73.432808 9668994
149.66615 -44.738319 74.07663 9998215
149.00235 -44.866295 74.88224 10721682
148.53799 -44.778694 75.816193 10590096
148.01546 -44.896233 76.539619 10524303
147.35901 -44.974808 77.553246 11774107
126.40121 -44.85202 102.83218 9735814
125.66103 -44.80928 103.49219 8618105
124.64684 -44.844879 104.3032 8815227
124.08938 -44.739243 104.98456 8486263
123.43404 -44.665718 105.64645 8288628
122.7788 -44.50869 106.43664 9736323
122.16279 -44.456108 107.0929 11971750
121.5847 -44.326698 107.99147 9998983
120.87505 -44.305244 108.6691 9011832
120.16422 -44.284653 109.34445 8682867
119.45177 -44.264931 110.01725 8880246
118.59509 -44.242477 110.82146 8288109
166.03577 -43.609612 53.976242 8813942
165.65125 -43.6632 54.977253 9011577
165.25116 -43.7938 55.81702 10064521
164.90401 -43.886574 56.585159 10459534
162.29715 -43.884865 58.539684 8090987
161.94055 -43.882767 59.51405 8288110
161.5784 -43.880623 60.48629 8879990
158.8858 -43.878799 62.545475 11906725
158.58183 -43.877151 63.308701 11643040
158.19661 -43.875099 64.260612 9997960
157.88466 -43.873474 65.020653 8814454
156.19353 -43.982056 65.644615 7366752
155.90723 -43.989609 66.408791 6248786
155.5471 -43.999733 67.363594 7630187
155.24889 -44.006233 68.123337 8879995
119.99445 -44.03138 110.5184 8156524
119.27728 -44.012566 111.1918 7827302
118.55859 -43.994667 111.86255 6774357
117.69323 -43.973869 112.66334 9274486
116.92303 -43.93988 113.28195 10261124
116.12351 -43.896156 113.86954 12431012
114.07307 -43.79171 117.66262 8945271
113.50439 -43.791023 118.20953 9144699
112.78967 -43.790176 118.88915 9144187
112.07117 -43.789345 119.56477 8353649
111.34834 -43.788536 120.23569 8617592
110.62175 -43.787735 120.90258 8617592
109.89088 -43.786957 121.56478 8354675
109.00879 -43.786049 122.35381 8814712
108.3887 -43.509987 124.44753 8551537
107.58138 -43.394646 124.93 8880502
106.60166 -43.296585 125.49268 9340030
167.11278 -42.262245 52.441639 14077894
166.70284 -42.625557 53.251038 11116953
166.3683 -42.673889 54.193619 9537664
166.03114 -42.811394 55.042698 9208957
107.69249 -42.635773 125.18084 9209467
106.89008 -42.549637 125.64823 9734788
106.07257 -42.458549 126.0948 9340030
167.31902 -41.588081 52.593517 12827827
166.99767 -41.625153 53.509594 9537665
166.72867 -41.692207 54.235435 10459023
107.56265 -41.983566 125.51788 9209467
107.07324 -41.634026 125.92485 8813941
106.22797 -41.502274 126.40276 9077114
105.35291 -41.582939 126.80065 9208443
167.95816 -40.723763 51.670521 9143680
167.62238 -40.787788 52.598984 8156013
167.28644 -40.852882 53.526844 8089963
106.38316 -40.544998 126.71122 8748404
105.42121 -40.706154 127.11945 8814197
104.73656 -40.367867 127.59209 9472640
168.9142 -39.323349 50.335873 9208443
168.60469 -39.660805 50.9515 8090736
168.25461 -39.737885 51.907768 10064524
167.91713 -39.83757 52.800739 7301221
106.24445 -39.891769 127.04197 9537920
105.74728 -39.661446 127.37897 8879990
104.84138 -39.610062 127.84512 8551026
104.11794 -39.569901 128.21701 9340798
169.18112 -38.614662 50.266476 7301217
168.92979 -38.645378 51.136772 7959664
168.58383 -38.786812 52.007683 8617337
105.70695 -39.054886 127.64271 8287597
105.0176 -38.664238 128.13864 7760998
104.16834 -38.568115 128.59488 8616819
103.56612 -38.26873 129.01131 9011833
169.54836 -37.817108 49.635185 7037274
169.53807 -37.56559 50.391972 7236710
169.19411 -37.883224 51.215385 7696747
104.89795 -37.80217 128.54391 12039082
104.39964 -37.574699 128.88037 9735812
103.49313 -37.528442 129.34476 9341054
102.81455 -37.293846 129.77264 9011832
169.98305 -36.689156 49.443447 10787985
169.89601 -36.634483 50.327232 9406848
104.35683 -36.96859 129.14505 12039082
103.72252 -36.534378 129.63147 9735812
102.81547 -36.490494 130.09514 8946039
102.31734 -36.266151 130.43028 9341054
170.4357 -35.668129 48.780117 9997959
170.32338 -35.692169 49.636028 9735298
170.16399 -35.923004 50.256966 10590607
103.72431 -35.729324 129.95416 9735812
103.16119 -35.461174 130.33885 9209211
102.11629 -35.539658 130.82109 8946041
170.94995 -34.578537 47.814747 8090995
170.7632 -34.813362 48.650257 9734787
170.65102 -34.836555 49.507324 9932419
103.14937 -34.762642 130.62538 8748660
102.38744 -34.575157 131.07541 8156526
101.48394 -34.555229 131.52771 7564651
171.26186 -33.67662 47.955997 9735301
171.08592 -33.839767 48.918449 10918286
102.36044 -33.922249 131.35115 7564645
101.77998 -33.578888 131.77452 8156786
100.87496 -33.458138 132.26811 11117214
171.77469 -32.53706 47.15184 9669251
171.59964 -32.708618 48.082405 10261131
101.78072 -32.689529 132.13162 9538440
100.94637 -32.58934 132.58217 13683139
100.11308 -32.490257 133.03175 8551281
172.22429 -31.558439 46.383362 8089963
172.03815 -31.790817 47.222866 7563874
171.85168 -32.023994 48.062466 10261132
101.80869 -32.018631 132.38756 10591127
101.29668 -31.676046 132.77699 11183261
100.44004 -31.563295 133.24352 8551544
99.584518 -31.451752 133.70909 8748665
172.87151 -30.273684 45.664524 12103841
172.60226 -30.587793 46.483631 10985874
172.302 -31.043404 47.293972 7827046
100.57962 -30.600931 133.56262 10459024
99.63398 -30.568251 134.04468 9274752
99.075935 -30.309925 134.44 8617080
173.58984 -29.451891 44.960732 9210491
173.36385 -29.627026 45.704765 10065286
173.08345 -29.882816 46.389 10722446
99.969673 -29.956968 134.29439 9735046
99.149658 -29.740469 134.88036 8814202
98.528389 -29.409294 135.51131 10260875
97.693466 -29.234648 136.13596 9734531
96.954788 -29.128098 136.664 9734788
182.16252 -28.588493 34.755718 9603453
182.07979 -28.599812 35.648754 9932161
180.96384 -28.919014 36.334362 9866632
180.78593 -28.916895 37.204365 8617080
176.95622 -28.912291 40.871468 12827826
176.70586 -28.90975 41.934582 9208443
176.55241 -28.908232 42.571671 9208443
174.63326 -29.102354 43.442745 9209467
174.52769 -29.109653 44.085926 10524299
174.38582 -29.11972 44.943802 10984337
97.460144 -28.848679 137.37834 8617334
96.570602 -28.830738 137.87584 8881015
95.858803 -28.816908 138.27206 9341310
93.022331 -28.752731 142.83228 9538950
92.15963 -28.752428 143.3884 8089963
91.293839 -28.752142 143.93953 8089963
90.772774 -28.75198 144.26776 7563619
87.885323 -28.742945 149.07741 8814715
87.125084 -28.648943 149.63631 8814715
86.225945 -28.590044 150.2058 8025201
85.505219 -28.351574 150.79622 9011833
182.62389 -27.469627 34.159054 10590092
182.44743 -27.764772 34.938587 9011574
182.23943 -28.155609 35.67918 9932161
86.478951 -27.805616 150.53596 8683127
85.690659 -27.571682 151.01778 9275260
84.864403 -27.373043 151.50417 9143675
183.08604 -26.349081 33.559994 9735297
182.94049 -26.622154 34.080105 11379607
182.8022 -26.809406 34.874355 13023917
85.950912 -26.54744 151.30055 8748917
85.085869 -26.470142 151.75735 9736066
84.220757 -26.393682 152.21375 8945271
183.37581 -25.631544 33.247097 9735297
183.24529 -25.760193 34.19598 10787727
85.214455 -25.738968 151.98734 9012857
84.411659 -25.586254 152.44366 8024426
83.613152 -25.55287 152.84999 9011321
183.77104 -24.701414 32.617207 8814195
183.66911 -24.783424 33.435604 9932675
183.52705 -25.013706 34.094852 8090987
84.543816 -24.640873 152.75784 8419440
83.627693 -24.634893 153.21103 9932423
83.074928 -24.292088 153.62056 10261645
184.21548 -23.650019 31.932735 8814195
184.07347 -23.879618 32.593273 7433056
183.9715 -23.961466 33.412823 9998211
84.005791 -23.568996 153.45255 9537665
82.954559 -23.521158 153.98901 7827565
82.234123 -23.307499 154.4292 7038307
184.5876 -22.660742 31.812366 13090226
184.4493 -22.846661 32.611996 10590348
184.25435 -23.212116 33.310207 8814195
83.819077 -22.894251 153.815 9341059
83.270851 -22.554131 154.22121 8682870
82.376183 -22.465738 154.69691 9340797
81.653915 -22.252281 155.13792 9275004
185.06635 -21.544571 31.00713 9405823
184.96449 -21.625067 31.829617 13025206
184.82213 -21.85524 32.492756 10064009
83.277435 -21.625597 154.59044 9932934
82.623039 -21.453671 154.9814 10656657
81.726295 -21.365894 155.45787 9932934
81.071083 -21.194864 155.84886 9341054
185.51344 -20.48719 30.315861 11183001
185.37112 -20.716881 30.980289 8550514
185.26929 -20.797249 31.803997 10064009
82.661232 -20.776909 155.23404 9932934
81.936531 -20.562572 155.67659 9932934
80.986092 -20.559877 156.14537 9011832
80.450577 -20.346977 156.49423 9011832
185.79875 -19.732546 30.208042 8814197
185.6685 -19.858419 31.166103 9142906
81.852501 -19.92638 155.97319 9932934
81.312996 -19.447092 156.43083 9011576
80.399338 -19.498308 156.85994 8617075
79.896889 -19.072819 157.27783 9143419
186.23792 -18.670256 29.511417 12433581
186.10927 -18.856367 30.318264 10656657
185.94197 -19.132526 31.072697 9406590
81.301804 -18.649771 156.75615 9143419
80.694923 -18.392988 157.15778 8616563
79.70208 -18.391645 157.64688 9406590
186.60832 -17.607189 29.491474 11051927
186.43269 -17.9923 30.231144 9735555
80.63755 -17.653589 157.48259 8748405
79.948021 -17.581589 157.85075 9604226
79.183083 -17.580963 158.22739 9801604
186.90593 -16.605246 28.691837 9341822
186.94887 -16.665012 29.52808 8879990
80.626457 -16.941345 157.77376 9143419
80.069084 -16.598104 158.18564 9538176
79.202469 -16.565414 158.62523 9933190
78.44738 -16.190536 159.14714 10459278
198.61623 -15.272845 15.486508 9735808
187.27269 -15.64865 28.838764 8946295
187.23378 -15.936542 29.664013 8089963
79.470543 -15.514726 158.96408 10262156
78.659302 -15.486679 159.38422 9998984
77.856895 -15.340222 159.88879 9735812
198.10481 -15.236567 15.925305 9209467
197.59502 -15.200495 16.361973 9209467
196.83369 -15.146741 17.012745 9867142
196.07561 -15.093396 17.659306 9867142
187.57718 -14.533042 27.86755 7037274
187.56186 -14.821769 28.696888 9209467
78.79464 -14.81715 159.85417 9538432
78.057732 -14.712586 160.30286 9998984
77.256416 -14.566366 160.81772 10130570
76.614891 -14.399349 161.27139 9735812
189.19093 -13.690212 26.249332 8484720
188.98253 -13.684198 27.379711 7037274
187.92664 -14.087546 27.91885 8287340
187.84686 -14.089443 28.831608 8616304
76.753273 -14.013636 162.06885 9341054
75.975578 -14.014601 162.44569 9735043
75.392036 -14.015401 162.728 9406078
73.658073 -13.717515 165.74919 9669248
72.657654 -13.717721 166.1884 8090987
66.001778 -13.677688 175.1832 9406340
65.343613 -13.410637 175.6142 9340799
64.399773 -13.463781 176.05721 10655889
63.815231 -13.241651 176.43404 11379356
65.301094 -12.774895 175.89055 9538176
64.640762 -12.506852 176.32301 10195594
63.771839 -12.483356 176.7599 11379356
64.625481 -11.64032 176.67863 10655889
63.806049 -11.646454 177.07933 11379356
63.063187 -11.576009 177.47304 9668731
64.109184 -10.843481 177.2527 10261388
63.285069 -10.447926 177.81703 9800580
62.405922 -10.205516 178.34697 8682867
63.596703 -9.4305935 178.07237 9932166
62.644073 -9.3599758 178.56941 9669250
61.68985 -9.2894926 179.06712 10129545
62.882954 -8.5122013 178.7924 9932166
61.927444 -8.4409142 179.29111 10458510
61.126472 -8.2145195 179.77612 9406078
62.243965 -7.5122795 179.50841 9209211
61.207325 -7.5181174 180.01608 9472127
60.403622 -7.2903533 180.50298 10261387
62.119049 -6.8159251 179.84959 9209211
61.523373 -6.5860367 180.23495 9340797
60.572208 -6.5442467 180.71974 9801092
61.424168 -5.6530466 180.65858 9209211
60.79929 -5.6557636 180.96489 9209211
59.96513 -5.6595464 181.37375 10129801
59.3652 -5.4281807 181.76186 9735299
60.828518 -4.7966976 181.29561 10458510
60.098248 -4.486187 181.77962 10195850
59.313557 -4.3950138 182.20222 9998470
58.684803 -4.0206833 182.66188 9932163
59.995655 -3.5448802 182.20818 10130313
59.524227 -3.2629213 182.55336 10655886
58.553013 -3.3128674 183.01108 9274747
57.948048 -3.0781991 183.403 12431013
59.682491 -2.6003661 182.74165 10130313
58.867863 -2.3649933 183.23694 9932163
57.893604 -2.287904 183.74721 10918802
58.973133 -1.414363 183.56705 9274747
58.208508 -1.4630347 183.92363 9735298
57.296978 -1.2973661 184.43861 9472639
58.377705 -0.54030633 184.25557 9406589
57.48064 -0.50889301 184.71782 9538432
56.791416 -0.22194475 185.17506 9406590
57.551785 0.25881469 185.26445 9406590
56.864964 0.41959441 185.68431 6511954
56.105793 0.57896614 185.86882 7300702
55.756504 1.2315071 187.43625 7893096
55.023823 1.2293663 187.44945 8353647
51.714352 1.7547982 192.38368 9736836
142.80673 -46.394249 83.245018 9734788
142.47147 -46.382622 83.73983 8090987
141.8475 -46.343513 84.524788 8419696
141.22368 -46.30571 85.308083 9077371
140.59984 -46.269501 86.089516 7827565
139.97607 -46.234558 86.869301 7038307
139.35228 -46.20118 87.647316 7038307
138.72844 -46.169128 88.423843 7038307
138.22928 -46.144493 89.043869 8354164
134.75566 -46.365944 92.894402 10261383
134.1317 -46.343651 93.659462 9867141
133.50754 -46.322685 94.423271 9670019
132.88295 -46.303154 95.185783 8156523
132.133 -46.281517 96.099319 9997959
131.50758 -46.264954 96.859337 9735043
130.88141 -46.24984 97.617958 12168614
145.72322 -45.317314 79.854683 9011322
145.06516 -45.401718 80.861015 7300963
144.5416 -45.525658 81.575111 8222318
143.97781 -45.61628 82.40937 9340796
143.43159 -45.712379 83.204933 10853263
142.89229 -45.605576 84.1604 8617075
142.22346 -45.665726 84.881172 8156780
141.63922 -45.530106 85.733315 9406335
140.97119 -45.592865 86.450027 9143166
140.45074 -45.510567 87.163612 7630187
139.70621 -45.658852 87.869751 8683131
139.02893 -45.587204 88.756401 6775132
138.29367 -45.713249 89.477875 7761767
137.69241 -45.694283 90.21212 7827820
137.02728 -45.764465 90.916542 9406850
136.44121 -45.640694 91.756889 12103330
135.77634 -45.713516 92.457909 9998212
135.14484 -45.597694 93.342598 9669505
134.48015 -45.673073 94.040329 10854036
133.83228 -45.599365 94.894554 9472640
133.20537 -45.580254 95.659363 8222060
132.57808 -45.562622 96.422905 8814453
131.95039 -45.546265 97.185371 10524815
131.32225 -45.531372 97.946709 14537159
130.63277 -45.49675 98.660759 12497578
129.77872 -45.624123 99.246948 10064008
129.14757 -45.395119 100.00111 8090730
128.4062 -45.346413 100.66804 8419697
152.58029 -44.189522 71.59993 10261132
152.20018 -44.178734 72.317055 10261132
151.72331 -44.165932 73.212181 10261132
151.34004 -44.156372 73.927071 9932934
150.07697 -44.387016 74.655479 9538432
149.69194 -44.378876 75.364563 10524815
149.20854 -44.369469 76.249489 9735043
148.46991 -44.423653 77.228249 10063752
147.81847 -44.505577 77.886185 10392457
147.15738 -44.695091 78.535271 8616306
146.4886 -44.773819 79.359673 9274235
145.99052 -44.767036 80.229393 9734788
145.49161 -44.761627 81.098366 10655887
144.98468 -44.818787 81.885963 9471870
144.37 -44.937927 82.765144 9472125
130.14168 -44.939552 99.623924 11116184
129.47917 -44.857903 100.25786 8814197
128.73557 -44.809647 100.92626 9077625
127.9927 -44.76268 101.59281 10326924
127.25239 -44.718002 102.25876 10261131
126.65385 -44.507454 103.03793 10524558
126.24132 -44.362762 103.97112 11905952
125.3975 -44.330513 104.80453 10590866
124.9765 -44.187767 105.73687 11051418
124.26878 -44.162811 106.42736 8617337
123.55983 -44.138657 107.11547 9407106
122.84943 -44.115471 107.80093 11314332
165.34569 -43.50985 56.292198 8682867
165.0006 -43.603844 57.062031 8682867
164.59122 -43.734787 57.897705 10064776
164.13762 -43.881737 58.76059 9472383
163.92372 -43.880432 59.352226 10261132
161.35832 -43.879356 61.068687 7037274
161.13591 -43.87809 61.650108 7629667
160.76057 -43.875977 62.617397 7037787
160.45657 -43.874306 63.389782 5393730
157.72717 -43.872566 65.400002 8814454
157.40926 -43.871017 66.157524 6576980
156.92598 -43.868645 67.291054 8222063
156.59956 -43.86705 68.044945 8287859
154.98076 -43.999306 68.673714 7038307
154.69928 -43.989281 69.217804 8617336
154.22829 -43.97316 70.123238 9340799
153.75522 -43.957939 71.0271 9077625
153.27986 -43.943581 71.929131 9998216
151.05168 -44.149574 74.462563 10656657
150.76251 -44.143074 74.997337 10656657
150.47256 -44.136871 75.5317 10656657
122.13779 -44.093071 108.48407 11314332
121.70162 -43.953941 109.4142 8288369
120.9855 -43.93335 110.09386 7696235
120.55663 -43.801544 111.03759 7827559
119.88268 -43.799629 111.75779 6510930
119.20665 -43.798622 112.47587 6774358
118.52666 -43.79763 113.19019 8090470
117.84206 -43.796661 113.90012 9537919
117.01505 -43.795517 114.74673 10918804
116.32137 -43.794586 115.44786 10984340
115.62325 -43.793671 116.14443 9602945
114.9212 -43.79277 116.83707 8089963
114.49799 -43.792236 117.25076 8089963
111.58068 -43.78273 122.24972 10853012
111.13778 -43.782257 122.65109 8617592
110.40754 -43.567238 123.32849 8813937
109.34795 -43.501595 123.93379 9603452
108.68871 -43.259163 124.38843 8288109
166.04213 -42.3899 55.489376 7959408
165.69273 -42.609085 56.281864 10591890
165.33156 -42.721657 57.230843 9998983
165.02647 -42.880165 57.960327 10459534
110.35517 -42.822861 123.6686 8813936
109.56388 -42.619865 124.17838 9998209
108.79237 -42.538727 124.62759 8353901
108.1742 -42.4217 125.00872 8288109
166.59877 -41.549965 54.784378 10722452
166.32944 -41.618256 55.509987 8486007
165.99464 -41.616959 56.509956 9012349
165.65437 -41.827423 57.285229 10065291
108.97483 -41.660828 124.88866 7564129
108.06855 -41.558479 125.41918 8156523
107.39954 -41.168449 125.93954 8814709
167.29413 -40.570526 53.824799 8089963
166.95387 -40.778229 54.603348 10064264
166.5932 -40.73307 55.730225 8090993
166.2784 -40.985046 56.382404 7564651
108.91454 -40.848991 125.2536 6510930
108.31362 -40.653793 125.65751 6511954
107.48116 -40.527718 126.15796 8090730
106.87592 -40.33271 126.55421 8287597
167.92613 -39.519073 53.136204 7564135
167.58525 -39.726311 53.916962 9274748
167.24995 -39.722458 54.921158 9472383
166.90709 -40.002075 55.625637 9209211
108.39619 -40.011917 125.87589 6511954
107.72451 -39.62262 126.39734 6906712
106.7603 -39.468361 126.95851 8879990
106.0703 -39.075485 127.45574 10854036
168.55954 -38.466705 52.443993 8617337
168.21806 -38.673584 53.227108 8353909
167.88237 -38.668739 54.233719 11577760
167.60793 -38.877998 54.814125 13551549
107.61575 -38.758774 126.80971 6511954
107.12337 -38.530174 127.15705 7037274
106.21212 -38.478493 127.62592 8682355
105.53139 -38.239105 128.05675 7563619
169.26389 -37.34359 51.621044 8748921
168.91185 -37.559875 52.424877 8814972
168.54178 -37.736099 53.327969 8025969
168.16846 -38.034744 54.101772 9012350
107.13158 -37.721931 127.47778 7827302
106.48251 -37.534409 127.87238 10657172
105.39037 -37.586517 128.38844 13816007
169.82448 -36.500664 50.89888 8814969
169.55585 -36.566208 51.634525 8814969
169.21925 -36.559349 52.646061 7565160
106.36383 -36.669136 128.27847 16053484
105.72472 -36.635567 128.60626 16777207
104.87054 -36.541306 129.06416 13815750
170.31375 -35.498268 50.300438 10590607
170.11746 -35.722137 50.911079 10130313
169.78296 -35.714935 51.925446 10393227
169.43962 -35.922134 52.713524 8617331
105.88294 -35.700867 128.9041 15987434
105.04604 -35.591759 129.35954 12433840
104.21035 -35.483871 129.81381 10459792
170.67505 -34.5784 50.086857 9932419
170.48909 -34.658287 51.020454 9603970
170.14326 -34.936676 51.73605 10261641
105.12591 -34.720299 129.67053 10393742
104.36501 -34.549538 130.11327 9603713
103.60503 -34.380219 130.55505 8683124
171.145 -33.484917 49.499535 10392456
171.01683 -33.577011 50.281212 9538175
170.85301 -33.807167 50.90419 9932419
104.51961 -33.613937 130.41331 8945271
103.68192 -33.509193 130.86731 7564643
102.84536 -33.405617 131.3203 7564643
171.45808 -32.695755 49.290928 9735042
171.30191 -32.792839 50.289032 9209467
104.5517 -32.941063 130.66789 8681843
103.88497 -32.623055 131.12363 9866629
103.11846 -32.475132 131.56003 9340541
102.29679 -32.575981 131.92348 9998473
171.90886 -31.713936 48.524334 9603458
171.77513 -31.771999 49.455074 9603458
103.25462 -31.604767 131.84283 9274491
102.32073 -31.584473 132.31027 9735558
101.62278 -31.204149 132.80624 11380380
172.52283 -30.419716 47.800282 8945781
172.23679 -30.808687 48.671394 7564386
