# .PCD v0.7 - Point Cloud Data file format
VERSION 0.7
FIELDS x y z rgb
SIZE 4 4 4 4
TYPE F F F U
COUNT 1 1 1 1
WIDTH 1198
HEIGHT 1
VIEWPOINT 0 0 0 1 0 0 0
POINTS 1198
DATA ascii
130.07426 -46.945202 -61.396881 7827815
130.81499 -46.864483 -60.647652 10919830
131.48276 -46.657795 -60.081882 12893876
132.12755 -46.647812 -59.371086 9537664
132.81026 -46.596436 -58.647728 9932166
133.72456 -46.374996 -57.905193 7563619
134.06679 -46.421631 -57.481804 7563619
75.020271 -45.473793 -111.9089 7760997
75.696983 -45.718563 -111.39137 7892583
76.492851 -45.902824 -110.86963 8748405
77.25267 -45.982105 -110.45244 9208700
78.09523 -46.10759 -109.95835 7630180
78.826927 -46.2686 -109.48573 7235421
127.62872 -46.299458 -64.600014 9406590
128.29889 -46.20797 -63.976044 7235421
129.08301 -46.13076 -63.212715 13484982
129.8141 -46.132717 -62.417763 10327177
130.38881 -46.083542 -61.849785 11051157
131.11247 -46.036289 -61.118176 8092019
131.90616 -45.965366 -60.337349 9275778
132.58904 -45.881142 -59.691422 9997959
133.2868 -45.856865 -58.962147 9932166
133.94832 -45.829132 -58.276005 8419184
134.64984 -45.808006 -57.539062 8485491
135.28232 -45.850967 -56.804993 7368295
136.00485 -45.820415 -56.055817 8879734
136.71524 -45.695404 -55.425968 9406078
137.43047 -45.672188 -54.676567 8485232
138.01308 -45.697956 -54.015774 11379607
138.55064 -45.650291 -53.397667 12695466
71.738289 -44.604317 -114.85299 8682611
72.736137 -44.627754 -114.31217 11445661
73.551651 -44.722977 -113.6068 12761777
74.313522 -44.857136 -112.94879 9472126
74.994835 -45.089584 -112.24319 7432032
75.935669 -45.06942 -111.82497 7037274
76.745316 -45.258648 -111.29267 9340286
135.12056 -45.176422 -57.738346 8486262
135.69759 -45.254124 -57.025349 7499625
136.33891 -45.079163 -56.526508 9077627
137.09515 -45.096046 -55.687485 9011320
137.75232 -44.97665 -55.109234 9472126
138.38182 -45.101772 -54.28595 11445401
139.05547 -45.049965 -53.447281 11247766
139.81792 -44.683365 -52.759163 9800581
140.60658 -44.488129 -52.067711 9997959
140.84453 -44.485077 -51.39016 8813685
65.248093 -43.852821 -120.74362 8682608
66.037392 -43.910515 -120.39705 7629410
67.070351 -43.994377 -119.94015 7827305
67.739449 -44.162518 -119.59914 9735561
68.188133 -44.178436 -118.07995 5393738
68.891518 -44.177334 -117.67007 5393738
69.852631 -44.21936 -116.9929 6116945
70.606003 -44.294132 -116.41445 7761765
71.354652 -44.369389 -115.83252 8749428
72.328651 -44.430218 -115.18391 8287597
73.044373 -44.447048 -114.7959 10985110
141.4576 -44.275475 -51.610687 8353134
142.03688 -44.18771 -50.7444 5919050
142.66792 -44.059093 -50.12178 9208187
142.90236 -44.057899 -49.436405 9932419
144.50481 -44.034126 -48.824051 8813685
144.84671 -44.032734 -47.782696 7366240
146.64813 -44.03001 -46.816193 10459023
146.92154 -44.028851 -45.935715 13353397
148.78796 -44.025841 -44.756714 10787986
149.04901 -44.024677 -43.86335 9537923
150.68893 -43.805183 -43.35965 13550517
150.92607 -43.814377 -42.645542 11183257
151.22453 -43.763195 -41.817951 9539462
21.446533 -42.583626 -162.01755 10787215
64.508286 -42.829857 -121.4498 6511954
65.295319 -43.045486 -121.04211 8682608
66.329361 -43.142475 -120.57969 9011319
67.066994 -43.357307 -120.19256 8288117
151.19389 -42.96365 -42.818485 11117721
151.49417 -42.880234 -42.022346 11183772
151.85957 -42.640766 -41.21019 11709858
22.001419 -42.531357 -161.74345 11708316
23.421623 -42.373547 -159.2982 11709855
24.145233 -42.305222 -158.93126 9736070
25.045609 -42.220112 -158.46896 7696747
25.94175 -42.135288 -158.00311 9734529
27.624985 -41.952679 -155.41913 9735296
28.498535 -41.869759 -154.94908 8682867
29.367332 -41.787266 -154.47514 8617331
30.392147 -41.672096 -153.84036 9340797
31.067291 -41.589687 -153.39287 9736836
63.870514 -41.784283 -122.12275 8879222
64.626091 -42.085308 -121.69434 7893093
65.656052 -42.085194 -121.27183 7827557
66.328804 -42.329174 -120.89983 9472382
151.85408 -41.854099 -42.121479 12499118
152.20616 -41.711861 -41.238434 9407359
152.56068 -41.392014 -40.550148 7563619
32.920429 -41.333672 -150.46797 9933191
33.575279 -41.253532 -150.02055 8682867
34.38905 -41.153805 -149.45888 9406334
35.198086 -41.054615 -148.8949 10854036
36.001656 -40.955956 -148.32831 8814453
36.959423 -40.838242 -147.64528 9735044
37.752129 -40.740688 -147.07347 9077370
38.539494 -40.643677 -146.49925 9143418
63.175266 -40.816841 -122.78853 8747635
63.92971 -41.068779 -122.37991 8879222
64.912056 -41.061546 -121.97972 9011317
65.586632 -41.303581 -121.60778 6840919
152.46263 -40.809799 -41.503479 9012601
152.80986 -40.787563 -40.498257 10129541
40.798576 -40.336037 -143.18788 9209467
41.557549 -40.242168 -142.6123 10788241
42.461906 -40.130154 -141.91884 10919317
43.210327 -40.037331 -141.33862 8090219
43.953545 -39.945065 -140.7562 8813686
44.839104 -39.834927 -140.05457 12038571
45.571888 -39.743736 -139.46771 13552582
46.29937 -39.653118 -138.87874 13880773
47.022453 -39.562885 -138.28792 14077894
62.423351 -39.799988 -123.49701 13879227
63.179909 -40.049953 -123.08829 10852496
64.164009 -40.040077 -122.68838 9142393
64.840439 -40.280228 -122.31641 9734273
152.78648 -40.118359 -41.329067 8289134
153.1144 -39.876595 -40.630867 9011062
153.49348 -39.605766 -39.813442 7563619
47.453922 -39.509007 -137.93245 12959157
47.883488 -39.455326 -137.57622 12432556
48.595581 -39.366264 -136.98097 10195854
49.443897 -39.260014 -136.26431 9735296
50.285324 -39.154469 -135.54497 9341052
50.981411 -39.067097 -134.94359 7761509
51.672367 -38.980202 -134.34029 9866888
52.495445 -38.87656 -133.61407 8749947
53.176311 -38.790756 -133.00713 8420210
53.852093 -38.705448 -132.39825 8024937
54.657005 -38.603729 -131.66557 6906203
55.322758 -38.51944 -131.05325 6774618
61.065155 -38.671803 -124.63397 11380380
61.713146 -38.886471 -124.19952 11576983
62.49947 -39.00526 -123.7966 11576983
63.413055 -39.021305 -123.40022 9010805
64.090164 -39.25901 -123.02599 8089963
153.49188 -38.832565 -40.697426 7563619
153.79486 -38.750687 -39.891026 11970971
154.16374 -38.511696 -39.067421 11642264
55.71994 -38.469131 -130.68501 6510930
56.246548 -38.402359 -130.19312 9011576
58.543583 -37.884403 -127.0843 10524816
59.36982 -38.013859 -126.48426 14408150
60.33313 -38.023937 -125.88801 10328207
60.926079 -38.222618 -125.10621 10130311
61.820248 -38.221157 -124.6655 10063744
62.621368 -38.301731 -124.2244 9603193
63.271656 -38.382477 -123.85352 9208435
154.07005 -37.796459 -40.158978 12234143
154.37019 -37.811615 -39.250561 12365729
154.6776 -37.634026 -38.539875 12432037
154.3315 -37.227982 -40.02927 12234143
154.67474 -36.905479 -39.37677 12234400
155.01225 -36.745102 -38.556858 10590092
155.32301 -36.502857 -37.90974 7037274
154.97603 -36.095116 -39.403496 11378324
155.35237 -35.725296 -38.706661 10983825
155.66911 -35.664516 -37.835361 7431775
155.70831 -34.834591 -38.662655 7563617
155.97034 -34.7444 -37.987244 8418669
156.23755 -34.733231 -37.206573 13880258
156.28732 -33.879311 -38.029682 7694947
156.63786 -33.793716 -37.086258 8879735
157.01518 -33.472523 -36.33136 7563619
156.90208 -32.793556 -37.439121 7893358
157.29063 -32.653919 -36.444107 8551544
157.18944 -32.108356 -37.364956 8354166
157.57021 -31.73612 -36.6577 9143681
157.90965 -31.656984 -35.739845 9143680
157.8421 -31.029421 -36.653893 8617337
158.20271 -30.789921 -35.938515 9472901
158.55968 -30.549868 -35.220173 10262414
158.69991 -30.051977 -35.916424 9933193
159.01714 -29.879978 -35.386707 9933193
104.10768 -50.478474 -86.330635 8814969
104.84536 -50.536594 -85.680481 10262928
105.58421 -50.597149 -85.02829 11381407
106.32425 -50.66013 -84.373848 9735812
107.15213 -50.647903 -83.681602 10656915
107.85793 -50.626888 -83.096497 11051417
108.59572 -50.825325 -82.378731 11183001
109.26458 -50.885334 -81.7593 6511954
109.99467 -50.798748 -81.030533 7959144
110.704 -50.667889 -80.334267 8682867
111.90561 -50.398556 -79.180901 8682867
98.293877 -49.434296 -91.734154 9932160
98.904434 -49.466133 -91.204254 8089963
99.637634 -49.50634 -90.567039 8089963
100.44823 -49.72139 -89.780495 8946042
101.30504 -49.774532 -89.03289 7302246
102.04018 -49.822704 -88.390007 7039331
102.77615 -49.873158 -87.745117 9472385
103.56036 -49.760349 -87.138214 8814198
104.29861 -49.815407 -86.489128 11578529
105.0379 -49.872841 -85.837959 8618362
105.77837 -49.932671 -85.184723 9736584
106.52003 -49.994938 -84.529289 9801863
107.29595 -49.948605 -83.897247 7434089
108.10673 -49.793411 -83.288307 10328208
108.85328 -49.862625 -82.625404 12762033
109.58092 -49.925098 -81.945023 9077625
110.2457 -49.961098 -81.215508 8419953
110.90622 -49.997326 -80.480995 10722706
111.56712 -50.035919 -79.744873 11249050
112.33086 -49.741081 -79.07917 9340541
112.97864 -49.740234 -78.3787 9735043
113.70824 -49.66132 -77.632263 9142906
114.42448 -49.540585 -76.923073 9208186
114.86765 -49.573383 -76.425591 9536894
91.759857 -48.533867 -97.673767 7696741
92.247444 -48.545235 -97.257393 6512211
92.978897 -48.563923 -96.631874 11052183
93.83242 -48.588577 -95.900665 9209211
94.643524 -48.780376 -95.124916 9537918
95.37516 -48.80661 -94.495735 9142902
96.107048 -48.835114 -93.865128 8813937
96.855423 -48.937878 -93.18502 7564385
97.527946 -49.063454 -92.557907 7432800
98.307465 -48.834156 -92.011101 8485491
99.083755 -48.806961 -91.369926 8419185
99.818398 -48.846756 -90.731606 8089963
100.55375 -48.888802 -90.091652 10524301
101.37074 -48.968819 -89.364624 8946812
102.23266 -48.959686 -88.642563 6775387
103.01064 -49.045712 -87.945564 7827047
103.84417 -48.766499 -87.377251 9603970
104.58493 -48.820644 -86.726784 12499631
105.32673 -48.877075 -86.074173 9144191
106.0696 -48.935844 -85.419418 10853778
106.81372 -48.997025 -84.762466 8814456
107.59207 -48.949493 -84.128944 7894383
108.40539 -48.793076 -83.518463 9209985
109.15441 -48.861042 -82.854065 13617083
109.89732 -48.964542 -82.130424 9341058
110.54697 -48.955769 -81.437492 9538437
111.20956 -48.991383 -80.701164 15722456
111.87251 -49.029255 -79.963173 13880510
112.65327 -48.777283 -79.255676 9735043
113.30299 -48.775848 -78.553543 9866629
113.96799 -48.820351 -77.809525 9340541
114.63354 -48.867172 -77.06356 8551281
115.29971 -48.916252 -76.315559 9143674
115.965 -48.868744 -75.62088 8420469
116.65343 -48.815063 -74.904388 15526891
117.42943 -48.532654 -74.217422 10197140
118.18778 -48.459003 -73.436134 7893615
85.151566 -47.497833 -103.74107 7368037
85.64238 -47.495331 -103.32862 8222318
86.378189 -47.493362 -102.70947 8419696
87.291458 -47.603203 -101.88689 8617075
88.053734 -47.660919 -101.21677 7563619
88.787735 -47.666191 -100.5956 9208444
89.521912 -47.796844 -99.914001 9142907
90.214539 -47.847115 -99.306107 8091762
90.947563 -47.858963 -98.682663 8420727
91.680443 -47.87302 -98.058205 9933704
92.413315 -47.889286 -97.432732 5920074
93.146202 -47.907726 -96.806183 7762278
94.001373 -47.932114 -96.073738 9603711
94.856743 -47.95937 -95.339737 11971743
95.590157 -47.985203 -94.709213 10195590
96.323853 -48.013229 -94.077332 9537660
97.057961 -48.043514 -93.444115 7235679
97.834648 -48.011299 -92.804962 9143677
98.616371 -47.781403 -92.256584 10262156
99.352707 -47.818188 -91.618385 10261899
100.08963 -47.857212 -90.978516 8945271
100.82722 -47.898499 -90.337013 8418926
101.56557 -47.942055 -89.693787 6182479
102.3048 -47.987865 -89.048782 5919050
103.08485 -48.072441 -88.350693 6511444
103.89697 -47.949417 -87.72538 8682611
104.6993 -47.982365 -87.03334 9670019
105.51907 -48.213074 -86.231529 10721935
106.26378 -48.271191 -85.575912 8747892
107.00948 -48.3316 -84.917938 8353649
107.6319 -48.38372 -84.36795 9012606
110.96906 -48.29686 -81.339912 7564651
111.41182 -48.320633 -80.847954 15985628
112.12704 -48.190216 -80.145111 11249050
112.86045 -48.005737 -79.451813 9669506
113.5826 -47.863136 -78.747368 9406590
114.20473 -47.805721 -78.104782 9669762
114.87223 -47.851322 -77.357094 8551537
115.54037 -47.89922 -76.607437 6906712
116.20928 -47.949429 -75.855728 8552311
116.87896 -48.001926 -75.101891 14342616
117.60477 -47.813351 -74.418251 12696500
118.25414 -47.768883 -73.739113 8551537
118.89408 -47.781155 -73.039368 8485744
119.52563 -47.782051 -72.354881 11511966
120.22256 -47.737156 -71.624466 10392974
120.87574 -47.659756 -70.959099 9537665
121.7786 -47.397823 -70.123535 8748150
79.842865 -46.621601 -108.69103 7235421
80.598198 -46.608608 -108.08776 8945784
81.503387 -46.665989 -107.28341 8485488
82.157341 -46.729874 -106.68214 7827046
82.899536 -46.717831 -106.06514 10787473
83.595795 -46.867424 -105.39077 10261129
84.335396 -46.859291 -104.77249 9077627
85.074097 -46.853172 -104.1535 7958890
85.812088 -46.849121 -103.53392 8484719
86.549377 -46.847195 -102.91362 7959145
87.408714 -46.847584 -102.18884 6313808
88.267334 -46.850643 -101.46294 7234910
89.002724 -46.855598 -100.83978 9273722
89.737671 -46.862583 -100.21563 10326150
90.472221 -46.871643 -99.590485 8947070
91.206497 -46.882812 -98.964302 8947070
91.940468 -46.896023 -98.33699 10854293
92.67424 -46.911324 -97.708496 8090989
93.407951 -46.928696 -97.078812 8814457
94.263779 -46.951698 -96.342522 7893352
95.119576 -46.977386 -95.604492 9077368
95.853172 -47.001766 -94.970352 8946039
96.586899 -47.02821 -94.334755 9800579
97.32093 -47.05685 -93.697762 7367013
97.986862 -47.085297 -93.121681 8880250
98.794235 -47.122589 -92.423302 9472642
99.532036 -47.158886 -91.784012 10262156
100.27044 -47.197418 -91.14315 11050900
101.00959 -47.238186 -90.500648 6971738
114.93204 -47.167152 -77.663979 9275260
115.6881 -47.082188 -76.891296 8748916
116.38251 -47.025585 -76.176704 8485488
117.0539 -46.978329 -75.478127 9471872
117.76755 -46.920818 -74.74659 10655628
118.52841 -46.756439 -74.0411 8419438
119.19848 -46.811867 -73.275108 8551537
119.86934 -46.869507 -72.506691 9801605
120.54105 -46.92939 -71.735756 9537665
121.21366 -46.991508 -70.962196 8024682
122.0306 -46.727077 -70.268272 8879995
122.65894 -46.831299 -69.510284 9537924
123.33666 -46.683292 -68.873619 9801092
123.97053 -46.574936 -68.257111 10985104
124.52491 -46.630207 -67.594002 8092011
125.51549 -46.403095 -66.775017 8814195
125.96075 -46.449688 -66.239929 9208435
77.780609 -45.611561 -110.51913 9340286
78.402878 -45.720253 -110.14079 7630436
79.263741 -45.881237 -109.60851 6643540
80.125328 -46.058304 -109.00132 7827302
80.99202 -46.020145 -108.3459 8616818
81.740799 -46.00507 -107.72939 8551537
82.488281 -45.991879 -107.11211 6971737
83.23455 -45.980595 -106.49395 9668993
83.90419 -46.05534 -105.85413 13550774
84.653046 -46.110184 -105.1674 9471359
85.395287 -46.104553 -104.54694 8484719
86.136528 -46.100792 -103.92549 9471356
86.957603 -46.077965 -103.25578 9801090
87.670792 -46.186954 -102.54488 7893352
88.526794 -46.248215 -101.76118 7761510
89.263481 -46.25267 -101.13517 7563619
89.999466 -46.258919 -100.5079 8352877
90.734642 -46.267067 -99.879265 8617335
91.469276 -46.27718 -99.24929 8091762
91.958687 -46.284843 -98.82856 9144449
119.76984 -46.202091 -73.231117 8814709
120.21133 -46.237507 -72.712593 9538176
120.92476 -46.216034 -71.963112 8420464
121.52859 -46.186954 -71.341057 8157292
122.29263 -46.011112 -70.710342 9669508
122.95442 -45.989491 -70.016914 9735046
123.72734 -45.938877 -69.235893 8748919
124.39317 -45.961605 -68.488304 8749428
125.11855 -45.913467 -67.755974 8682866
125.83289 -45.775902 -67.136101 9011058
126.46629 -45.841312 -66.375488 10392197
127.11843 -45.868896 -65.637192 10524043
127.84543 -45.82288 -64.900688 8090730
128.56523 -45.735756 -64.218063 7696228
129.25807 -45.612923 -63.604733 11182229
129.84526 -45.680767 -62.891842 12497574
130.77203 -45.570511 -62.010754 11445916
131.339 -45.497269 -61.47826 8092019
132.02139 -45.46743 -60.771839 9276035
74.044876 -44.472038 -114.24847 10985620
74.901474 -44.494663 -113.77542 10590863
75.597008 -44.608799 -113.05987 8682355
76.449554 -44.633717 -112.58076 8155755
77.005585 -44.857903 -111.66985 9471872
77.861595 -45.006916 -111.08429 9208700
78.675598 -45.139336 -110.52389 8090731
79.560913 -45.309223 -109.95052 6511954
80.505882 -45.447536 -109.32028 8089963
126.82525 -45.215511 -66.691429 9866110
127.49947 -45.285732 -65.880806 9471610
128.12657 -45.152313 -65.35128 7959144
128.95908 -45.024963 -64.59214 8813940
129.63692 -45.016201 -63.866745 9537149
130.31685 -45.093555 -63.041759 10260870
131.03011 -45.014076 -62.420406 12234402
131.69269 -44.91806 -61.770439 10460051
132.36549 -44.996803 -60.928909 10131343
133.13461 -44.937298 -60.318317 10392974
133.72841 -44.961048 -59.576054 9932422
134.54703 -44.865875 -58.832092 8485490
135.28526 -44.764973 -58.318787 7762796
135.92662 -44.781025 -57.503567 8486262
136.9424 -44.630295 -56.851021 8419184
137.53801 -44.638466 -56.172398 8089963
138.23157 -44.603657 -55.567242 8089963
138.93109 -44.570179 -54.959572 9471101
139.56828 -44.541386 -54.361092 9273465
140.06587 -44.496822 -53.5905 8813428
67.554779 -43.486446 -119.94165 9735561
68.148209 -43.800957 -119.57117 8880509
69.001213 -43.867424 -119.15813 6709853
69.844498 -43.929455 -118.72684 7301732
70.603912 -44.17601 -117.9933 11248795
71.44709 -44.174679 -117.48374 9012600
71.93998 -44.208672 -116.40926 10263180
72.630371 -44.245083 -115.66393 8814709
73.491508 -44.315639 -115.04339 13748669
74.359581 -44.290131 -114.73328 10985620
74.933235 -44.305088 -114.41736 10985620
140.73648 -44.286083 -53.650883 7037274
141.32112 -44.19606 -52.790371 10195339
141.95557 -44.065735 -52.174694 10195082
142.19472 -44.062973 -51.49091 7563618
143.73859 -44.037151 -51.071747 7038298
144.03737 -44.035988 -50.208618 9997700
144.27301 -44.035053 -49.517075 10261132
145.97063 -44.032806 -48.922497 7037274
146.31314 -44.031406 -47.870583 9471872
148.13997 -44.028645 -46.894135 10721937
148.46785 -44.027241 -45.826538 9866629
149.91068 -43.971996 -45.47966 10459022
150.21404 -43.789913 -44.786526 8879995
150.51097 -43.799076 -43.89492 7564651
67.455841 -42.813541 -120.24691 9735561
68.284233 -42.843903 -119.89507 8485752
69.155037 -42.919533 -119.50803 7169891
69.751152 -43.237408 -119.13842 6510930
150.41544 -43.097031 -44.976974 9537923
150.78098 -42.853577 -44.169121 7696749
151.09291 -42.787685 -43.318352 13287345
22.554512 -42.479141 -161.46796 8092019
23.289474 -42.409805 -161.09843 8947326
24.20401 -42.32333 -160.63283 10460048
25.114243 -42.23724 -160.16359 10064777
26.83305 -42.050896 -157.53322 9734529
27.720215 -41.966759 -157.05986 10853777
28.602558 -41.883018 -156.58252 10787728
29.480736 -41.79958 -156.10175 8682867
31.403469 -41.54863 -153.16847 9736836
66.692276 -42.006683 -120.87758 8814454
67.526817 -41.923267 -120.56796 12367533
68.418716 -41.885368 -120.2169 9406853
69.016533 -42.201241 -119.84742 7564651
151.12135 -41.947632 -44.18961 8749434
151.4948 -41.730629 -43.328312 10656657
151.84583 -41.360451 -42.70747 9736324
32.07299 -41.466827 -152.71817 11183260
32.905724 -41.364998 -152.15329 8420727
33.732819 -41.263706 -151.58565 12104361
34.555161 -41.162899 -151.01566 10854036
35.371891 -41.062656 -150.44299 6971481
36.183826 -40.962955 -149.86815 9406334
36.990196 -40.863789 -149.2906 8550514
39.16613 -40.566372 -146.03844 10130313
65.949768 -40.980125 -121.58595 7564643
66.746368 -41.116261 -121.20559 7301470
67.725517 -40.999718 -120.84972 8683126
151.75674 -40.820545 -43.586182 8420726
152.10457 -40.794895 -42.583179 10459791
39.478077 -40.527931 -145.80736 10130313
40.099361 -40.451195 -145.34402 9472641
40.871857 -40.355675 -144.76311 9209467
41.639076 -40.260723 -144.17986 11380377
42.553242 -40.147491 -143.4771 13880253
43.309761 -40.053604 -142.88919 9143163
44.060905 -39.960331 -142.29909 8813942
44.95599 -39.849075 -141.58833 11709347
45.69664 -39.75687 -140.99382 12960187
46.431908 -39.665234 -140.3972 13552581
47.308018 -39.555889 -139.6787 13683653
65.203316 -39.955856 -122.2951 9274749
66.00161 -40.089729 -121.91496 9077882
66.9832 -40.119366 -121.50056 8156780
67.476753 -40.470161 -121.16006 8814710
152.13077 -40.028263 -43.377609 9735814
152.40501 -39.894245 -42.716057 11906981
152.74031 -39.731312 -41.906303 10065289
48.032806 -39.465305 -139.07793 12959157
48.75243 -39.375267 -138.47513 11643296
49.609673 -39.267868 -137.74934 9209467
64.452858 -38.933601 -123.00513 8156012
65.320015 -39.033691 -122.60997 8419184
66.291969 -39.205544 -122.14359 8551026
67.038719 -39.450882 -121.74068 9735812
152.70689 -38.960583 -42.882252 16249822
153.07567 -38.718113 -42.063435 8485744
153.39024 -38.654221 -41.202156 7564131
59.351601 -37.739914 -127.63351 13024949
59.971992 -37.651146 -126.98003 12828858
60.780567 -37.588177 -126.33903 9933960
61.606186 -37.723141 -125.74044 9868167
62.478951 -37.705688 -125.24209 9208435
63.165604 -37.814259 -124.59008 9208435
63.89183 -38.050468 -123.84865 8813937
64.759514 -38.160851 -123.353 8287598
65.631111 -38.333004 -122.80691 8616563
153.34673 -37.82951 -42.269135 8485744
153.64949 -37.777466 -41.42926 7564131
153.88988 -37.787991 -40.703644 9866113
153.94574 -36.93417 -41.508553 7564131
154.30197 -36.790653 -40.614128 11642007
154.60027 -36.465187 -40.098484 12234143
154.60667 -35.800632 -40.835117 9338997
154.99196 -35.658672 -39.852539 9273204
154.89226 -35.055489 -40.834457 9207411
155.26683 -34.748322 -40.071587 8944239
155.55171 -34.696808 -39.284298 7563617
155.58965 -33.867676 -40.114452 8812653
155.90804 -33.80444 -39.241062 7300445
156.21861 -33.624527 -38.523468 8418669
156.1862 -32.841835 -39.509655 8813428
156.49046 -32.856293 -38.589909 9734529
156.51878 -32.07542 -39.393642 12432037
156.79854 -31.941675 -38.715176 10984593
157.14067 -31.778801 -37.884472 8682358
157.17183 -30.930445 -38.756691 10260871
157.47385 -30.800539 -38.080627 9603715
157.83578 -30.64097 -37.2509 9933196
157.9769 -30.016851 -38.150513 8682867
158.35118 -29.883959 -37.357185 11511450
158.85764 -29.691252 -36.551979 11643035
159.39775 -29.443901 -35.770248 10262157
160.42479 -29.098484 -35.693359 8486262
109.75549 -48.573399 -82.485786 12959410
104.0983 -47.432186 -87.804214 8156268
104.81824 -47.567749 -87.132317 8090730
105.53897 -47.70557 -86.458633 7892583
106.34498 -47.743244 -85.761238 8879734
107.1563 -47.832458 -85.0345 8024940
107.90467 -47.894691 -84.373619 7368039
108.62062 -47.785244 -83.822556 9011323
109.37199 -47.851715 -83.156929 12432554
110.1047 -47.911804 -82.473892 9932938
110.75008 -47.902817 -81.79174 7564651
111.50739 -47.790161 -81.033699 11709601
112.27976 -47.686653 -80.25425 9735812
112.72362 -47.712349 -79.759636 9142649
113.38124 -47.409813 -79.211678 9011832
97.572784 -46.435146 -93.940071 8287858
98.325699 -46.539837 -93.204414 8222578
98.959045 -46.642979 -92.577477 8419956
99.693718 -46.676929 -91.933205 9209469
100.42879 -46.712929 -91.287178 11314331
101.1642 -46.751022 -90.639282 11840675
101.84991 -46.954548 -89.945107 9143163
102.58768 -46.997814 -89.295296 7038303
103.39762 -46.930931 -88.665649 7037789
104.14098 -46.835079 -88.096153 8222060
104.92802 -46.821053 -87.435928 8288365
105.66993 -46.872753 -86.777252 7497825
106.41274 -46.926613 -86.116402 10064006
107.15658 -46.982697 -85.453308 9011064
107.97562 -46.928295 -84.808044 7959150
108.7753 -46.780067 -84.218925 7038307
109.52352 -46.842464 -83.547997 8353651
110.26328 -46.902985 -82.867363 10261902
110.93682 -46.937363 -82.134727 8156530
111.60023 -46.969555 -81.392815 8288367
112.26374 -47.003834 -80.649193 9537408
113.0006 -46.881191 -79.955345 9208442
113.72338 -46.754295 -79.248253 8156780
114.38859 -46.794777 -78.498291 9801348
115.11529 -46.672531 -77.78759 9275260
115.76044 -46.632252 -77.118858 10262156
116.40186 -46.59182 -76.44516 11709090
118.0272 -46.388687 -74.911049 7037274
84.243629 -45.676609 -105.94769 10129289
84.864532 -45.670532 -105.43008 10326924
85.608604 -45.664879 -104.80805 8024169
86.351677 -45.661121 -104.18497 7563619
87.217369 -45.659195 -103.45675 8616817
88.072571 -45.777103 -102.61707 8551282
88.748039 -45.808815 -102.01544 8090218
89.486771 -45.813232 -101.38796 7958120
90.224625 -45.819492 -100.75925 7760741
90.961876 -45.827621 -100.1292 9406850
91.698433 -45.837681 -99.497826 7564647
92.407272 -45.960003 -98.77684 7563619
93.092209 -46.009903 -98.148796 8814457
93.904915 -45.878704 -97.594856 10590867
94.639473 -45.896267 -96.95752 6248531
95.455475 -45.947937 -96.217171 7564646
96.332947 -45.909565 -95.51545 7630441
97.085526 -45.96851 -94.821136 9603459
97.900833 -45.847359 -94.255318 7038048
98.634605 -45.875004 -93.608368 6972255
99.368294 -45.904556 -92.959587 6840411
100.10201 -45.936035 -92.3088 7893607
100.83564 -45.969406 -91.656143 11248794
101.5694 -46.004742 -91.001427 11314331
102.30321 -46.042023 -90.344666 7300959
103.03726 -46.081249 -89.68576 6116943
103.71908 -46.068516 -89.123322 7169374
104.50589 -46.16576 -88.361496 9670019
105.24078 -46.210873 -87.695869 8090730
105.97601 -46.258015 -87.028061 8419952
106.71177 -46.307117 -86.357758 13354163
107.44791 -46.358219 -85.68515 13353910
107.939 -46.393353 -85.235405 12433066
110.80183 -46.291264 -82.857399 10261902
111.24146 -46.309799 -82.359634 9144702
111.9008 -46.339035 -81.611382 7367523
112.65414 -46.219894 -80.928818 9603202
113.40859 -46.102451 -80.243095 8747889
114.16425 -45.986557 -79.554298 8814710
114.82462 -46.023396 -78.796364 9932934
115.58216 -45.91095 -78.101692 8551282
116.24308 -45.951588 -77.338867 9340286
116.94349 -45.933525 -76.59951 11511967
117.60912 -45.883347 -75.934296 8287340
118.29771 -45.836266 -75.240501 7629411
119.01488 -45.824749 -74.475487 11248536
119.6663 -45.834007 -73.758545 10459278
120.35993 -45.735989 -73.116722 9932161
121.02803 -45.71471 -72.416069 9736836
121.83053 -45.566521 -71.712967 8815478
122.47323 -45.589294 -70.990067 8946298
123.26842 -45.529922 -70.194603 9735046
123.71362 -45.570454 -69.665909 7564651
125.04134 -45.368134 -68.454201 8089963
77.607422 -44.573997 -112.2541 8945784
78.601921 -44.606091 -111.68478 9340286
79.374992 -44.709175 -110.97189 7959145
80.127029 -44.809994 -110.37534 8353134
80.735771 -44.962605 -109.71109 9405566
81.404503 -45.141914 -108.89794 8287598
82.160248 -45.128773 -108.28232 7037786
82.914261 -45.117241 -107.66531 7761509
83.666695 -45.107334 -107.04683 7367009
84.417519 -45.099056 -106.4269 8748148
85.166817 -45.0924 -105.80543 10195082
85.914604 -45.087341 -105.18243 9208185
86.729401 -45.056538 -104.53857 9010806
87.546478 -45.106758 -103.77816 7695203
88.307297 -45.160263 -103.06107 7695716
89.043961 -45.22126 -102.35531 7366495
89.785126 -45.225567 -101.72578 9602685
90.525597 -45.231758 -101.09497 8352877
91.26535 -45.239815 -100.46291 9734273
92.004448 -45.249737 -99.829475 9339515
92.743088 -45.261524 -99.194656 7563619
93.481148 -45.275169 -98.558357 7169376
94.29734 -45.143345 -98.002136 7038047
94.912186 -45.157658 -97.469116 7761255
117.07727 -45.373428 -77.08709 10985367
118.7155 -45.165565 -75.544762 9208184
119.27 -45.205009 -74.89872 11905693
120.0612 -45.135239 -74.119286 9932418
120.70354 -45.15237 -73.403198 9603453
121.44492 -45.105263 -72.664085 8881015
122.24752 -44.954502 -71.956978 7959657
122.84855 -45.037193 -71.206497 8749176
123.47198 -45.059189 -70.505463 9143167
124.2482 -44.939838 -69.916084 8090993
124.83642 -45.027443 -69.120033 8287341
125.59631 -44.930222 -68.36628 8287341
126.39487 -44.866028 -67.757607 8945266
127.15534 -44.779621 -67.05793 9537144
127.76356 -44.802895 -66.326103 9208435
128.65012 -44.634888 -65.887642 8221803
129.24699 -44.655701 -65.141525 9076600
130.03206 -44.620331 -64.446068 7366240
130.81801 -44.561611 -63.861839 6313551
131.46059 -44.552479 -63.202568 8879219
132.20203 -44.552479 -62.392803 10722707
132.99269 -44.495811 -61.793697 9538438
133.7854 -44.440014 -61.188595 9340801
134.37936 -44.492134 -60.296326 8419183
134.87305 -44.536465 -59.549931 8682355
135.97289 -44.383835 -59.061668 6841181
136.56483 -44.439335 -58.155632 9933193
136.95853 -44.477009 -57.549484 9933193
138.36604 -44.354763 -56.583378 8089963
138.75923 -44.39426 -55.969208 8747636
70.30088 -43.5966 -118.77169 8287597
71.034447 -43.797379 -118.39162 11445918
72.106445 -43.847401 -117.93208 9144186
72.657379 -44.032059 -117.31691 9012600
73.261131 -44.171776 -116.35859 10196361
74.230774 -44.170212 -115.7413 12564394
75.057655 -44.168869 -115.20559 8682867
75.673729 -44.227161 -114.47004 10722449
76.426941 -44.265892 -113.87847 9669251
77.22393 -44.370033 -113.13697 9274237
78.080902 -44.396542 -112.65043 9537409
78.794502 -44.419437 -112.24229 10261132
134.9816 -44.29409 -60.563423 9406334
135.37863 -44.329594 -59.964027 9406334
137.08167 -44.230473 -58.56673 6776151
137.57671 -44.277599 -57.805916 8419696
138.07036 -44.325565 -57.042713 8089963
139.19142 -44.173447 -56.528709 9405309
139.78395 -44.23333 -55.601849 7366239
140.56863 -44.202202 -54.823189 7037274
141.229 -44.077126 -54.223286 7037274
141.47292 -44.072758 -53.540924 8813685
142.99991 -44.03997 -53.135571 8682355
143.3112 -44.038795 -52.276821 8748146
143.55678 -44.037857 -51.588696 7038298
145.26303 -44.035629 -51.018822 9931648
145.50208 -44.034683 -50.321171 9866374
145.73833 -44.033749 -49.622494 7037274
147.4615 -44.031471 -49.021988 10458252
147.74754 -44.030293 -48.136478 10458252
149.49989 -43.773659 -46.924324 9801092
149.84654 -43.742455 -45.930977 10459022
21.663681 -42.587406 -163.68272 11972259
69.721115 -42.564713 -119.41537 6511442
70.363914 -42.927376 -119.00896 8616562
71.344925 -42.970261 -118.58963 11051416
72.142403 -43.119179 -118.20387 8485488
149.69612 -43.207939 -46.98563 9537664
150.06583 -42.835026 -46.312576 10130057
150.42778 -42.716423 -45.373363 10130314
22.596367 -42.499382 -163.21689 9472900
23.524773 -42.411705 -162.74727 10459537
24.079521 -42.359283 -162.46367 8092019
26.019569 -42.151581 -159.69034 11905438
27.100094 -42.049152 -159.11746 10787215
27.995659 -41.964199 -158.63615 10261899
28.708717 -41.896519 -158.24826 11379865
30.005226 -41.749474 -155.81081 11905951
30.518768 -41.686836 -155.47089 10854805
31.200478 -41.603561 -155.01628 9736836
69.015465 -41.641994 -120.06783 7367263
69.690582 -41.891884 -119.69257 6577747
70.611595 -41.929306 -119.29996 7169116
71.4104 -42.075607 -118.91467 7958632
150.45171 -41.955544 -46.168045 10459278
150.7784 -41.70908 -45.478718 10854036
151.15617 -41.432922 -44.671799 10130314
31.709782 -41.541374 -154.67418 9736836
32.216789 -41.479385 -154.33113 9736836
32.889988 -41.396969 -153.87238 8618359
33.726681 -41.294525 -153.29646 10328465
34.558327 -41.192581 -152.71825 9868171
35.38435 -41.091137 -152.13736 9670534
37.791775 -40.765125 -148.71088 8813686
38.58783 -40.667027 -148.12868 9011065
39.379086 -40.569401 -147.54437 8880762
68.275497 -40.608772 -120.77779 9275261
68.952217 -40.85659 -120.40272 8025193
69.874542 -40.891212 -120.01069 7696228
70.674721 -41.034958 -119.62586 7695716
151.08765 -40.76305 -45.637199 10459278
151.38712 -40.770817 -44.739666 10261900
151.69261 -40.588612 -44.04031 9735814
40.164944 -40.47234 -146.95758 7828590
41.101307 -40.356541 -146.2506 7828590
41.87624 -40.260612 -145.65912 9209467
42.645718 -40.165245 -145.06531 12300709
43.410461 -40.070312 -144.46959 10787215
44.16975 -39.976025 -143.87151 11445660
44.924446 -39.882187 -143.27159 12433069
45.673702 -39.788887 -142.66951 12893876
46.26989 -39.714581 -142.18651 14078925
67.594826 -39.80357 -121.3738 8814710
68.210083 -39.823811 -121.11348 9012089
69.133736 -39.855724 -120.7219 8748916
69.960144 -40.087654 -120.29165 9012088
151.34537 -40.196648 -45.516888 10459278
151.6642 -39.877148 -44.93404 11117207
151.98883 -39.784035 -44.076488 10262412
152.32976 -39.459579 -43.433949 9735814
50.318817 -39.178932 -137.14256 9209467
51.022827 -39.0905 -136.53381 9538174
51.861439 -38.985073 -135.80112 10656912
52.555107 -38.897724 -135.18869 10262414
53.243664 -38.81089 -134.57436 8815484
54.063709 -38.707378 -133.8351 8617847
54.742027 -38.621658 -133.21718 9537667
55.415226 -38.536446 -132.59763 9932424
66.693985 -38.770332 -122.14985 9735812
67.451027 -39.086452 -121.7149 9406847
68.389183 -38.822594 -121.43378 8814710
69.06916 -39.069351 -121.05773 8946295
151.98184 -39.06562 -44.91441 10657681
152.33421 -38.801891 -44.168884 11447197
152.71977 -38.576599 -43.280754 14868429
56.217003 -38.434872 -131.85204 8090735
57.011913 -38.333946 -131.10429 10656914
57.669254 -38.250443 -130.47945 12894388
58.321655 -38.16737 -129.85304 10919830
59.098442 -38.068352 -129.09943 8747893
63.776127 -37.581192 -124.84234 7367005
64.33551 -37.559208 -124.46564 7367005
65.202248 -37.59396 -123.77823 9669763
65.951393 -37.765732 -123.14179 9143163
66.751152 -37.968807 -122.60416 9669252
67.59922 -38.078213 -122.13952 8880247
68.354103 -38.149586 -121.71289 8814710
152.49167 -38.185379 -44.402958 9210491
152.92757 -37.750519 -43.60334 12499627
153.23076 -37.696693 -42.764481 10459532
61.821815 -37.484432 -126.9482 8815739
62.187771 -37.43132 -126.54775 8157811
62.795677 -37.342869 -125.87848 9077365
63.623482 -37.299255 -125.28231 7958884
64.673958 -37.300823 -124.75601 7367005
65.573708 -37.303661 -124.3034 9537921
153.25612 -36.927254 -43.564026 9341309
153.62227 -36.811279 -42.6087 8156780
153.99725 -36.439228 -41.918427 7564643
153.84619 -35.892883 -42.988117 9340027
154.1981 -35.866974 -41.972679 9340027
154.16127 -35.156685 -42.889809 11050385
154.50142 -34.959152 -42.104454 9668733
154.82942 -34.768326 -41.347527 9536376
154.8062 -34.01767 -42.269947 9734784
155.1794 -33.772865 -41.440285 10062720
155.48651 -33.688049 -40.624943 11049359
155.45338 -32.876442 -41.646004 8748921
155.76009 -32.823513 -40.795593 8748921
156.00368 -32.833649 -40.06102 7039331
155.7191 -32.237728 -41.583454 10261132
156.09688 -31.911152 -40.833179 10064010
156.4037 -31.874933 -39.963268 11050645
156.72282 -31.497879 -39.44458 12432037
156.36971 -31.09236 -40.954124 9143422
156.77245 -30.769709 -40.206726 8813943
157.14095 -30.682549 -39.262863 10984593
157.62573 -29.852455 -39.588646 9473157
158.1028 -29.715734 -38.64809 8815227
158.74419 -29.417912 -37.930302 11774622
159.0938 -29.345211 -37.207657 10459019
159.86418 -29.077253 -37.586018 10459019
160.14531 -29.087551 -36.640285 11906465
102.03478 -45.419685 -91.198082 12432812
102.64864 -45.450584 -90.648949 7169373
103.38547 -45.489433 -89.988152 5392706
104.13998 -45.607826 -89.232262 6708566
104.77137 -45.72126 -88.585205 10327693
105.5084 -45.766056 -87.91819 8419951
106.24578 -45.812843 -87.248886 9538944
107.08267 -45.751976 -86.604042 14209216
107.81365 -45.763313 -85.975822 11511966
108.55331 -45.815948 -85.298698 8222322
109.29372 -45.870548 -84.618996 7038307
110.03472 -45.927185 -83.936676 8748151
110.75606 -45.94054 -83.28817 9209727
111.6144 -45.708103 -82.634727 9736837
112.27614 -45.737083 -81.884155 8880761
113.0323 -45.617191 -81.199333 9142649
113.69426 -45.649963 -80.444359 8747889
114.45194 -45.533546 -79.753906 9932934
115.11426 -45.570061 -78.99424 8880247
80.077232 -44.462849 -111.50124 9208187
80.646667 -44.482994 -111.16905 9800324
81.389091 -44.573349 -110.40785 9931910
82.074486 -44.581909 -109.79251 8813686
82.842751 -44.572273 -109.18002 8090732
83.608543 -44.563793 -108.56491 8222579
84.371887 -44.556431 -107.94717 7498856
85.231171 -44.536644 -107.29975 7301214
85.905609 -44.563057 -106.61668 9668994
86.589264 -44.631966 -105.74878 7234910
87.466286 -44.628967 -105.01628 7103580
88.215408 -44.627701 -104.38544 6708565
88.861519 -44.700161 -103.535 6510930
89.517517 -44.719261 -102.89835 8090474
90.258247 -44.721344 -102.26051 9537406
90.996735 -44.724579 -101.6199 8287084
91.733009 -44.728943 -100.97647 9800323
92.467041 -44.73444 -100.33018 9339515
93.199005 -44.741104 -99.680992 9010807
93.928673 -44.748852 -99.028999 6379860
94.656883 -44.75808 -98.374733 8221806
95.37339 -44.827728 -97.641464 8484464
96.004654 -44.917542 -96.954529 9340801
96.763878 -44.963745 -96.238266 8551542
97.586388 -44.95681 -95.537422 7169891
98.42289 -44.958294 -94.847549 7629927
99.174309 -45.00798 -94.119362 7892840
99.903687 -45.033245 -93.459244 7235421
100.63239 -45.060146 -92.796822 8749684
101.36047 -45.088688 -92.132042 11315355
102.10311 -45.03297 -91.541161 13288377
102.90798 -45.005199 -90.877457 6511954
103.64709 -45.043797 -90.215271 6248015
104.38645 -45.084354 -89.550919 6576980
105.12609 -45.126797 -88.884315 10656401
105.86607 -45.171146 -88.215416 8024681
106.68607 -45.157997 -87.548195 9537661
107.45954 -45.030437 -87.021622 9340542
108.27232 -45.016964 -86.340439 8814458
109.01579 -45.068958 -85.660851 7038307
109.75997 -45.122868 -84.978722 7564136
110.50475 -45.178783 -84.293945 9011064
111.22827 -45.227821 -83.590096 8288625
111.98841 -45.104637 -82.910576 9473666
112.68388 -45.010265 -82.262871 9144189
113.30088 -45.00729 -81.596962 9142649
113.96537 -45.039303 -80.839928 8682095
114.62975 -45.073311 -80.08091 9734785
115.40546 -45.010174 -79.39608 8748405
116.05993 -45.008678 -78.692688 7959145
116.69336 -45.003559 -77.98941 8089963
117.31718 -44.987003 -77.30143 9932423
118.24223 -44.846336 -76.641083 9735042
118.9427 -44.804832 -75.94487 8880245
119.67919 -44.786205 -75.154167 10327947
120.49114 -44.710022 -74.541718 7893349
121.27946 -44.632458 -73.94976 8288107
121.88609 -44.641968 -73.243156 8814965
122.67086 -44.596321 -72.599174 7564643
123.4493 -44.528351 -72.065079 9604483
124.06168 -44.563419 -71.233215 9538179
124.84202 -44.49744 -70.68943 9735558
125.45168 -44.534634 -69.849724 9208698
126.3209 -44.498173 -69.070091 8813683
127.2207 -44.419132 -68.456947 8418925
127.7262 -44.453072 -67.746284 9208435
128.2301 -44.487865 -67.033058 8682351
130.00575 -44.379963 -65.59774 10260872
130.5074 -44.417652 -64.873749 8089963
132.79063 -44.355949 -62.667755 7564651
73.242577 -43.847294 -117.46598 8814713
73.949219 -43.940079 -117.1395 8814713
74.905739 -43.821747 -116.79211 8946041
75.653641 -44.091003 -116.2701 9209211
76.526985 -44.167892 -115.63829 7760998
77.547981 -44.183804 -113.6115 9734788
78.414528 -44.213249 -113.1308 9274237
79.261589 -44.289154 -112.4783 9405822
79.940414 -44.341114 -111.98563 9076601
80.706169 -44.289654 -111.81116 9734531
126.00065 -44.340775 -70.152565 10064004
126.40845 -44.366272 -69.588921 8089963
128.28801 -44.257629 -68.041405 8484973
128.79517 -44.292694 -67.325523 8945265
129.40169 -44.335732 -66.463585 8221547
130.47971 -44.17551 -66.030121 10524044
130.98486 -44.213318 -65.303688 10260872
131.58925 -44.259743 -64.428726 5919050
132.38605 -44.224678 -63.720901 6642772
133.03413 -44.190872 -63.170307 6840667
133.78407 -44.191109 -62.351425 7564651
134.62059 -44.145084 -61.760983 8880509
135.10539 -44.153267 -61.084099 7366239
135.88731 -44.121029 -60.381046 10854036
136.38615 -44.166115 -59.626934 7630182
137.36516 -44.089344 -59.269482 6184272
138.01257 -44.061501 -58.375412 8288622
138.59688 -44.114857 -57.451485 13352371
139.9326 -44.047096 -57.215733 10720911
140.33519 -44.045681 -56.207169 7366239
140.61946 -44.050922 -55.541054 7037274
142.23161 -44.042809 -55.188591 9011318
142.55515 -44.041626 -54.334396 8879734
142.81071 -44.04068 -53.649868 7958888
144.52499 -44.038471 -53.104824 7958888
144.77411 -44.037521 -52.410561 10391942
145.0813 -44.036335 -51.541309 9208182
146.75211 -44.034317 -51.139912 9734014
146.9917 -44.033363 -50.434963 8221547
147.28688 -44.032181 -49.552429 8616048
148.75089 -43.859852 -49.04911 10458252
149.11711 -43.741375 -48.097034 11247765
21.885094 -42.591228 -165.38055 9538435
72.513786 -42.799591 -118.17722 9011832
73.189011 -43.05714 -117.79887 9604226
74.113495 -43.103687 -117.40125 9077884
74.855736 -43.02969 -117.12584 8485749
148.97864 -43.200016 -49.123901 9734788
149.34717 -42.871849 -48.403538 9932163
149.70885 -42.781391 -47.432995 9669249
22.827034 -42.502312 -164.90628 9012606
24.632423 -42.307011 -162.17844 9078398
25.367165 -42.237465 -161.79614 10064777
26.281296 -42.150887 -161.31468 8288365
27.190994 -42.064617 -160.82961 8419952
27.734627 -42.013088 -160.5368 8617331
29.241703 -41.845798 -157.95592 11905951
29.772789 -41.795334 -157.66211 9472126
30.647224 -41.701904 -157.13344 8682867
31.507904 -41.596786 -156.55591 12697007
71.781311 -41.755051 -118.8886 7958888
72.45797 -42.010197 -118.51061 9800833
73.383461 -42.053722 -118.11377 9406592
74.185555 -42.205769 -117.72488 8814713
149.66946 -42.070168 -48.359047 9208435
149.97462 -41.884132 -47.665127 9274488
150.38153 -41.637127 -46.738373 9406590
32.362816 -41.492203 -155.97559 13618879
33.212673 -41.388157 -155.39293 8090987
33.720066 -41.326008 -155.04204 6510930
36.205395 -40.990303 -151.55423 7301474
37.020943 -40.889965 -150.96852 8683642
37.99279 -40.770283 -150.26271 9011836
38.797131 -40.671135 -149.67194 10261132
39.595814 -40.572521 -149.07884 9341054
71.045212 -40.713425 -119.60035 8288109
71.723305 -40.966328 -119.22263 9406076
72.718216 -40.976189 -118.81055 12694953
73.477211 -41.247494 -118.39244 10064006
150.28786 -41.01487 -47.724457 9011574
150.62254 -40.835281 -46.935337 9143418
150.90781 -40.759045 -46.175514 9538176
40.389645 -40.474434 -148.4836 8880762
41.177967 -40.376907 -147.88597 9932424
41.961399 -40.279896 -147.28635 8420470
42.739414 -40.183411 -146.6844 8287597
43.358376 -40.106586 -146.20149 8089963
46.7146 -39.659077 -141.82341 14342097
47.304886 -39.585419 -141.33812 14605270
47.745682 -39.530319 -140.97343 14078925
70.181892 -39.641884 -120.37601 9209467
70.984985 -39.925251 -119.93504 9077881
71.974686 -39.965546 -119.51315 9603711
72.777924 -40.337479 -119.03728 10129798
150.93246 -39.933987 -47.040936 9143674
151.2684 -39.76548 -46.235722 9735555
151.54327 -39.628319 -45.576077 10327691
48.184395 -39.475521 -140.60796 14078925
48.911606 -39.384495 -139.99734 13945540
49.634243 -39.293976 -139.38506 11840676
50.351559 -39.203987 -138.77071 10393229
51.206039 -39.096684 -138.03123 10064774
51.912853 -39.007771 -137.41312 10855060
52.614429 -38.919422 -136.79309 9407358
53.450054 -38.814087 -136.04698 10591378
54.141174 -38.726841 -135.4234 11380380
54.82719 -38.640121 -134.79805 9868171
55.644154 -38.536667 -134.04558 7432808
69.438606 -38.745911 -121.03337 9012088
70.311195 -38.855564 -120.63226 8617330
71.314491 -38.994637 -120.16591 8617330
72.039146 -39.293324 -119.75108 9209467
151.56644 -38.864811 -46.37587 10064518
151.91685 -38.83429 -45.370487 10525839
56.319775 -38.451042 -133.4169 8287859
56.990334 -38.365948 -132.7865 9537667
57.788795 -38.264473 -132.02803 14341834
58.580364 -38.1637 -131.26746 10393742
59.234936 -38.080284 -130.63205 9735812
59.88443 -37.99744 -129.9951 9340286
60.657784 -37.898579 -129.22897 11182490
61.424316 -37.800449 -128.46085 12104361
61.931896 -37.735344 -127.94779 11381404
67.971741 -37.526497 -122.39914 8814710
68.770927 -37.733292 -121.85851 9143675
69.679817 -37.870499 -121.34318 8616563
70.604988 -38.018803 -120.85606 7630435
71.29673 -38.251869 -120.46535 9209467
151.82466 -38.2967 -46.255703 9735554
152.17809 -37.92168 -45.633537 9473151
152.55522 -37.70108 -44.765102 9210491
64.527473 -37.191547 -125.94135 7367005
65.12455 -37.103355 -125.25854 6380368
65.916145 -37.094292 -124.41232 8419439
66.675156 -37.153812 -123.87107 8879995
67.542236 -37.142078 -123.3555 9143167
68.310989 -37.148163 -122.8028 9932935
69.145981 -37.24015 -122.09769 9669762
69.903137 -37.254662 -121.73349 9011320
152.59265 -36.877003 -45.591087 9210235
152.89783 -36.788582 -44.785519 9210491
153.26843 -36.54261 -43.964718 9210491
153.16948 -35.834461 -45.063908 8682867
153.47227 -35.842613 -44.155506 9274748
153.78114 -35.659195 -43.447147 9340027
153.42966 -35.263653 -44.940407 8682867
153.77379 -34.935589 -44.291645 9735042
154.11314 -34.76862 -43.473904 9537405
154.42488 -34.520943 -42.82996 10590091
154.07271 -34.123711 -44.327217 9735043
154.44991 -33.747829 -43.63483 9734784
154.81906 -33.630455 -42.672211 8682099
154.77896 -32.983265 -43.527061 9406846
155.06682 -32.759506 -42.9268 8814453
155.33591 -32.742596 -42.147053 8485490
155.38124 -31.892834 -42.978809 9275260
155.73375 -31.800289 -42.037334 9603458
156.11174 -31.472946 -41.287106 10261132
156.02843 -30.822794 -42.333504 9472641
156.42238 -30.660746 -41.418571 8222834
156.86131 -30.344305 -40.680252 7039331
156.93657 -29.852343 -41.63673 9210491
157.2645 -29.80162 -40.783195 9144701
158.05147 -29.394547 -40.177082 8749691
158.47324 -29.32457 -39.273819 7565675
159.23622 -29.056475 -39.661423 9144449
159.46556 -29.063751 -38.907448 7894381
159.69411 -29.071295 -38.152599 10459019
162.15889 -28.876083 -36.81768 11906718
162.39091 -28.818171 -36.12027 10261895
162.80318 -27.918312 -36.169891 10064517
163.17413 -27.046629 -36.087524 12433061
86.579353 -44.450981 -106.51171 9537665
87.08371 -44.448696 -106.09257 7695461
87.838371 -44.446259 -105.46175 6182222
88.590736 -44.444927 -104.82814 6182222
89.340767 -44.444748 -104.19183 7169117
90.08857 -44.445709 -103.55271 8617075
90.834183 -44.447731 -102.91071 8550514
91.577385 -44.450954 -102.26598 8155756
92.318405 -44.455315 -101.61848 7037274
93.05722 -44.460773 -100.9681 9339515
93.793922 -44.467396 -100.31483 10523531
94.528358 -44.475151 -99.65873 9077369
95.260658 -44.484001 -98.999619 8484464
95.990761 -44.494019 -98.337677 7958376
96.718887 -44.505177 -97.672844 9800838
97.444794 -44.517529 -97.005104 9143678
98.16861 -44.530952 -96.334389 7367271
98.890533 -44.545597 -95.660583 7037274
99.610191 -44.56134 -94.983917 7497825
100.32798 -44.57822 -94.304085 7235165
101.2116 -44.551773 -93.663712 8683123
102.01197 -44.538422 -93.039597 9933446
102.80695 -44.547195 -92.327881 12762545
103.51794 -44.568905 -91.633827 6972505
104.22695 -44.591759 -90.936676 6840407
104.934 -44.61578 -90.236336 7169117
105.63917 -44.64098 -89.532784 9669507
106.3424 -44.667282 -88.826012 7695203
107.01971 -44.673557 -88.224792 6971481
107.85816 -44.626492 -87.708611 8353391
108.55767 -44.656086 -86.991219 7038307
109.25526 -44.686977 -86.270485 7038307
110.18794 -44.646908 -85.645081 8945785
110.88463 -44.659363 -85.001549 9076857
111.57044 -44.690594 -84.26339 8485234
112.2166 -44.708008 -83.493889 8092016
112.92284 -44.676163 -82.87043 8618359
113.90965 -44.602482 -82.135292 8748399
114.61541 -44.572594 -81.503738 8681835
115.25049 -44.592876 -80.716438 9734270
115.95464 -44.565037 -80.077065 8419696
116.76292 -44.542023 -79.301628 8090987
117.39244 -44.56583 -78.504059 11445918
118.18124 -44.512581 -77.890106 11709089
118.94721 -44.416805 -77.49826 10656914
119.57359 -44.443741 -76.689514 13354171
120.19766 -44.471912 -75.877785 9012601
120.71618 -44.496288 -75.198883 7893349
122.79261 -44.381615 -73.464272 7564651
123.10151 -44.398193 -73.050453 9341057
76.032333 -43.659008 -116.39555 8616306
77.011482 -43.796627 -115.93966 8353135
77.73671 -43.977482 -115.35799 8879479
78.175049 -44.165165 -114.52777 8813686
78.992989 -44.163803 -113.96357 9011065
79.941986 -44.162205 -113.29774 9273980
80.885628 -44.160606 -112.62434 9866374
81.467957 -44.217476 -111.84869 9800581
82.156708 -44.237492 -111.27899 9339773
82.821129 -44.246655 -110.67844 10720910
83.501442 -44.295479 -109.7739 9800581
84.399864 -44.285908 -109.05083 7038307
85.167313 -44.278866 -108.42807 7038307
85.932335 -44.273022 -107.80271 8419183
86.694916 -44.268276 -107.17466 10853781
87.455208 -44.264698 -106.54381 9603969
88.213112 -44.262222 -105.91021 7103580
88.968742 -44.26091 -105.27384 6511187
89.722031 -44.260696 -104.63489 7169117
90.473 -44.261688 -103.993 8419184
91.221725 -44.263706 -103.34842 8550514
91.968285 -44.266926 -102.70094 9405823
92.712585 -44.27124 -102.05066 7300446
93.454605 -44.276695 -101.39756 8813428
94.194466 -44.283276 -100.74156 9406590
94.932182 -44.291054 -100.08268 8419695
95.667702 -44.299938 -99.420959 8945015
96.401093 -44.309952 -98.756294 7958376
97.132324 -44.321064 -98.088692 10261645
97.861473 -44.333347 -97.41806 9077886
98.588516 -44.34679 -96.74456 7630443
99.313545 -44.361366 -96.067978 7037274
100.03642 -44.377075 -95.388458 7037274
100.75737 -44.393948 -94.705803 7366495
101.35666 -44.408886 -94.134712 7827814
117.26562 -44.350647 -79.640518 10261132
117.68758 -44.366402 -79.106796 10721939
118.10863 -44.382645 -78.572029 11183001
120.19563 -44.255608 -76.883141 9736324
120.71803 -44.279175 -76.203667 9012601
121.3429 -44.308544 -75.385506 7893349
121.96573 -44.339069 -74.564125 7893349
122.74033 -44.245747 -74.151482 9208698
