# .PCD v0.7 - Point Cloud Data file format
VERSION 0.7
FIELDS x y z rgb
SIZE 4 4 4 4
TYPE F F F U
COUNT 1 1 1 1
WIDTH 1207
HEIGHT 1
VIEWPOINT 0 0 0 1 0 0 0
POINTS 1207
DATA ascii
-32.876995 3.5709686 166.68462 7565153
-33.875854 3.4797382 166.38258 6447185
-31.334185 4.9033718 167.59938 8089963
-32.113876 4.6875186 167.30927 10721678
-33.105957 4.6838012 167.04198 8683120
-31.378023 5.5434408 167.82852 10392715
-32.372612 5.5392346 167.56039 13023917
-32.953579 5.3233557 167.32339 13023917
-29.882654 7.0524802 168.79706 6840151
-30.596392 6.7619791 168.49648 10985365
-31.497561 6.5605235 168.17854 10722192
-32.233582 6.3958983 167.91826 12168866
-29.795969 7.7723365 169.09119 6182222
-30.725061 7.6949463 168.81174 9406334
-31.521547 7.689693 168.57698 9735297
-29.049219 8.6436472 169.61913 6182222
-29.980844 8.5652037 169.33813 6379858
-30.906893 8.4859419 169.03401 7762027
-28.442324 9.6639442 170.16571 7038307
-29.155558 9.4841709 169.90408 7629924
-30.109728 9.3888083 169.58298 7235425
-27.702089 10.764783 170.77831 8090736
-28.383417 10.602037 170.52519 9471874
-29.342188 10.474814 170.18399 8288114
-30.068407 10.084947 169.81842 7038307
-26.957682 11.872733 171.39464 8681843
-27.551523 11.646221 171.14471 9011323
-28.553865 11.633543 170.81473 9866631
-29.341547 11.403964 170.47739 9143678
-26.792398 12.538038 171.68291 9405566
-27.797358 12.523908 171.34908 8682358
-28.728579 12.43722 171.00819 7367271
-26.10113 13.508314 172.22946 10129289
-26.959055 13.464931 171.9269 8945015
-27.83584 13.296302 171.57863 9537152
-24.523745 15.046564 173.53595 9010805
-25.340281 14.662015 173.00221 7103836
-26.258898 14.611975 172.67386 9668995
-27.103968 14.21069 172.30144 9537152
-23.180223 16.003153 174.62343 10788247
-23.837358 15.827424 174.21622 8024686
-24.566401 15.727851 173.83041 8418926
-25.490122 15.746273 173.43123 8682356
-26.158937 15.459172 173.05862 8419440
-18.129473 16.845224 179.45125 14603206
-18.756403 16.82535 179.18481 8091242
-19.590105 16.799339 178.83055 6511954
-18.157587 17.545803 179.71748 12959409
-18.78528 17.525101 179.4503 9341309
-19.401773 17.271326 179.09538 6511954
-18.196566 18.25968 180.09312 11381404
-147.44476 -47.407333 68.005348 7892581
-145.35365 -46.213577 69.818176 6510930
-145.91518 -46.448212 69.368858 6510930
-146.56593 -46.631245 68.886948 6313807
-147.39142 -46.653946 68.367004 5656390
-148.09978 -46.620094 67.712318 8090216
-148.63316 -46.299625 67.038422 7892581
-143.4249 -45.492363 71.458244 7038303
-144.34673 -45.40855 70.9655 6906970
-145.08705 -45.686176 70.291924 6577748
-145.90334 -45.741352 69.735413 6905944
-146.84384 -45.662006 69.231674 6511443
-147.69591 -45.671249 68.693695 5459523
-148.42055 -45.734013 67.889824 8287338
-148.93385 -45.686466 67.086685 8287338
-149.46626 -45.563679 66.333084 8945527
-150.10594 -45.226898 65.752991 9735812
-137.0098 -44.206936 77.13858 14407115
-137.42415 -44.251961 76.719635 9537921
-137.83859 -44.297279 76.299545 9341054
-139.61139 -44.210514 75.533234 7564643
-140.00836 -44.363609 74.87925 7366751
-140.62294 -44.462585 74.252541 7761253
-141.29085 -44.587963 73.607635 7564130
-142.13203 -44.715523 72.961517 9669508
-143.14592 -44.634602 72.489395 7235686
-143.80966 -44.783928 71.864891 7038305
-144.71303 -44.771439 71.317383 6709334
-145.45592 -44.914806 70.728691 6511954
-146.23097 -45.168343 70.020752 6643285
-148.8405 -45.156555 67.994064 9866368
-149.2926 -45.087276 67.333527 8287595
-149.92618 -44.841602 66.628372 8419953
-150.51709 -44.725685 65.802673 9143933
-151.21565 -44.503826 65.227905 7302502
-151.89841 -44.351364 64.584229 7959147
-152.48906 -44.303303 63.754223 8813942
-111.89191 -43.359943 99.057396 10196366
-112.72941 -43.45528 98.595329 10524815
-113.57037 -43.552536 98.13073 10064520
-114.55405 -43.660282 97.544846 10064520
-115.1918 -43.839813 96.662247 10195081
-115.77122 -43.841351 95.96714 9734531
-116.34615 -43.842888 95.26828 10063753
-116.91719 -43.844418 94.566269 8814715
-119.93155 -43.850346 93.00975 8814713
-120.48897 -43.851879 92.286179 7038307
-121.04164 -43.853413 91.558998 8814455
-121.69924 -43.855247 90.682175 9602941
-122.24259 -43.856777 89.948074 11378324
-124.79337 -43.861565 88.848282 9734788
-125.11308 -43.862488 88.396851 13747899
-125.64227 -43.86401 87.641998 9537924
-126.27156 -43.865837 86.732079 8419952
-126.791 -43.867355 85.970428 8880503
-129.12639 -43.871628 85.079529 9010808
-129.53398 -43.872849 84.456573 8945784
-130.14009 -43.874668 83.5186 9274747
-130.73952 -43.876488 82.57634 9866883
-132.97835 -43.880539 81.76738 9142907
-133.37001 -43.881752 81.12587 7564130
-133.99619 -43.898006 80.186646 7367269
-134.66647 -43.961525 79.491089 8683131
-135.35591 -44.032494 78.803299 13025208
-136.37767 -44.002167 78.302795 13222585
-136.92506 -44.058723 77.743027 12959156
-137.94716 -44.028595 77.228638 8221803
-138.63994 -44.103409 76.524483 8419952
-139.19455 -44.164127 75.958557 8419952
-153.17961 -44.064304 64.042358 8682867
-153.63548 -44.086933 63.1493 8682867
-154.08945 -44.110382 62.254543 8814715
-155.23419 -43.932571 62.065166 10064779
-155.60484 -43.934052 61.129787 7564651
-157.85078 -43.938385 60.045822 10854036
-158.13753 -43.939571 59.284866 9471871
-158.42123 -43.94075 58.52285 8813942
-160.68156 -43.945164 57.386673 8089963
-161.02351 -43.946636 56.418385 8287342
-163.23648 -43.950825 55.434113 11379095
-163.50093 -43.952 54.647346 10260872
-163.76219 -43.953171 53.859539 8089963
-165.99397 -43.95734 52.827034 7958120
-166.24583 -43.958607 52.027061 8616563
-168.7451 -43.964119 50.144276 5854284
-168.9847 -43.965282 49.33123 5196868
-171.20207 -43.96941 48.416233 9736324
-171.48988 -43.970871 47.384869 7629667
-172.90053 -43.6586 47.027782 8814454
-173.43422 -43.66407 46.351757 10787472
-173.98009 -43.746819 45.601254 9603455
-174.45161 -43.737453 44.902729 7037530
-175.04201 -43.671284 44.082447 8485494
-110.32242 -42.262459 100.30219 8287854
-111.10469 -42.67038 99.73909 8092019
-112.17716 -42.570168 99.239052 9603202
-112.99988 -42.555859 98.829651 10392461
-113.71026 -42.860054 98.345634 10590864
-114.41032 -43.090137 97.897316 9735555
-173.8199 -43.042206 46.229893 10854036
-174.31952 -42.890366 45.688969 8287597
-174.9409 -42.754875 44.952457 6971481
-175.35699 -42.805264 44.160465 7959407
-175.82451 -42.558399 43.453403 11380380
-109.55197 -41.566311 100.97353 9011321
-110.36591 -41.528969 100.58261 8419440
-111.36789 -41.634907 100.03316 8156526
-112.20618 -41.725014 99.5728 6971738
-112.87918 -41.798454 99.202797 9208187
-175.6761 -41.758114 44.374111 9537922
-176.14757 -41.766457 43.457157 11380380
-108.12413 -40.182739 102.1703 9143163
-108.93624 -40.592491 101.64317 9340286
-109.73927 -40.726326 101.22538 9077114
-110.69868 -40.561283 100.8136 8091247
-111.5228 -40.818344 100.29161 7630439
-176.36514 -40.886089 43.73473 9340286
-107.30086 -39.362846 102.86731 9734788
-108.17895 -39.559265 102.39642 8748661
-109.13752 -39.602013 101.95138 8814454
-109.94028 -39.641373 101.57146 8617077
-110.5976 -39.953239 101.11533 8222577
-176.60289 -40.233475 43.792934 8089963
-176.88153 -40.03767 43.409946 10590609
-106.06625 -38.142311 103.90897 9011574
-106.60226 -38.31683 103.59956 8089963
-107.33414 -38.634014 103.14536 9142907
-108.3361 -38.690449 102.67549 8879991
-109.20711 -38.704094 102.28123 8617075
-109.75005 -38.883888 101.96661 8616822
-105.24336 -37.334522 104.60091 9210491
-105.954 -37.547901 104.19791 9669247
-106.79584 -37.556057 103.81886 9208444
-107.64127 -37.565628 103.43766 9537409
-108.5128 -37.92786 102.90308 9734788
-104.34902 -36.161751 105.47139 9210491
-105.15658 -36.553112 104.95364 10591376
-106.01453 -36.730289 104.49947 9603713
-106.84192 -36.651604 104.16179 9011065
-107.67361 -36.835571 103.7166 8418928
-103.52557 -35.363865 106.15955 10854036
-104.39629 -35.543247 105.69882 9933958
-105.39983 -35.528202 105.25693 10262923
-106.20231 -35.673428 104.84039 8618355
-106.84353 -36.024677 104.41305 9142651
-102.29029 -34.175041 107.18872 8618099
-102.82274 -34.339081 106.88515 8289133
-103.55042 -34.641029 106.43896 9801861
-104.54208 -34.679794 105.98077 9078650
-105.53809 -34.720436 105.51987 8881527
-102.24021 -33.508377 107.479 8420208
-102.99124 -33.507881 107.14399 8091755
-103.84252 -33.576748 106.73631 8157294
-104.70846 -33.92107 106.21145 7564905
-100.56835 -32.238136 108.73576 8813686
-101.37236 -32.613552 108.226 10393230
-102.30397 -32.684586 107.78159 8945528
-103.23267 -32.620819 107.3927 9736067
-103.86658 -32.852333 107.01672 8091247
-99.958595 -31.2941 109.38725 9997955
-100.58689 -31.518768 109.01658 8682869
-101.60216 -31.592319 108.53384 9208444
-102.54562 -31.765629 108.04309 9537665
-103.20709 -32.074623 107.62364 9537665
-98.437866 -30.316153 110.62666 9076851
-99.096077 -30.469912 110.20399 11116176
-99.834793 -30.635418 109.779 11313815
-100.84052 -30.56859 109.36435 8748921
-101.7428 -30.791733 108.81314 8089963
-95.203156 -29.166908 113.42165 8287341
-95.98497 -29.199163 112.96539 8221804
-96.875381 -29.360306 112.25031 7037530
-97.714981 -29.558535 111.62495 8484716
-98.626831 -29.650543 111.10583 8024165
-99.366669 -29.865177 110.59225 8879987
-99.946991 -29.957954 110.25575 9932681
-75.693542 -28.091375 130.31497 8814966
-76.323822 -28.286797 129.95624 9012089
-77.320686 -28.310858 129.50316 9275006
-78.318909 -28.336378 129.04884 10655890
-78.608971 -28.700089 128.13383 9209215
-79.416855 -28.757116 127.37846 9931910
-80.334312 -28.759024 126.80138 9932167
-81.247574 -28.760933 126.21774 8749178
-82.005463 -28.762522 125.72644 8092019
-82.760239 -28.764114 125.23035 9013121
-83.512192 -28.765705 124.72999 16249834
-92.239433 -28.802382 115.99203 9735046
-93.024658 -28.831549 115.54522 8090480
-93.967239 -28.867355 115.00578 10260875
-94.909897 -28.904198 114.46286 8945015
-95.695953 -28.935678 114.00764 8287341
-96.167633 -28.954884 113.73331 6972762
-75.163254 -27.35557 130.84543 7893352
-75.734802 -27.512758 130.52826 8419952
-76.519402 -27.602919 130.14311 8814966
-77.473137 -27.511353 129.75551 8354677
-78.256836 -27.790253 129.29518 10853012
-74.22789 -26.369011 131.64766 7103323
-74.964058 -26.626387 131.22609 7629923
-75.963051 -26.647064 130.77341 9276029
-76.796394 -26.665266 130.39536 9603458
-77.262543 -26.857693 130.11099 9011579
-73.474312 -25.118078 132.28391 9209467
-74.199432 -25.472668 131.99557 6708309
-75.163994 -25.54056 131.57199 6510930
-76.031754 -25.679117 131.13043 8354160
-73.599503 -24.455412 132.5061 7893095
-74.441116 -24.485184 132.30177 7498337
-75.230629 -24.722754 131.86984 7169116
-72.856964 -23.553192 132.97028 8682867
-73.708633 -23.623188 132.7937 8485488
-74.493149 -23.706522 132.60481 8288109
-71.986717 -22.244658 133.60695 10196106
-72.819992 -22.527401 133.35515 11643552
-73.651596 -22.658821 133.15945 10656657
-72.005592 -21.45249 133.89574 8419957
-72.904625 -21.484009 133.72491 12630449
-71.19352 -20.532009 134.37894 9011579
-71.985397 -20.61124 134.20953 7827820
-72.779045 -20.691393 134.0394 9143678
-70.637833 -19.409241 134.89137 7564906
-71.468834 -19.533924 134.69826 7498856
-72.190552 -19.747036 134.49187 7038307
-69.782211 -18.367161 135.42709 8814971
-70.570015 -18.501118 135.23825 8157043
-71.426926 -18.501703 135.08635 8024943
-69.681534 -17.505476 135.76274 9537923
-70.625961 -17.615175 135.55507 7762030
-68.891113 -16.250957 136.3653 9077369
-69.727386 -16.523794 136.11659 11116438
-70.565025 -16.797949 135.86717 9537923
-68.369034 -15.262337 136.96182 9077369
-69.149178 -15.450559 136.70241 9340797
-70.014565 -15.672378 136.40437 9867398
-67.390717 -14.369587 137.82321 7958633
-68.22171 -14.660832 137.45164 8813941
-69.080963 -14.684774 137.28149 9209467
-55.373505 -13.103713 148.04247 5919050
-56.109093 -13.307199 147.83702 7959146
-56.989227 -13.386207 147.65186 8617593
-60.54694 -13.713395 143.67412 7169885
-61.582664 -13.715336 143.23302 8946296
-62.615196 -13.717278 142.78452 8090730
-65.880714 -13.938288 139.16182 8748405
-66.986923 -13.961618 138.89618 8616307
-55.448708 -12.53097 148.24036 8024425
-56.401249 -12.546222 148.06589 9537923
-54.669262 -11.483704 148.76472 7893352
-55.574299 -11.573588 148.57121 9603715
-56.286861 -11.96877 148.29915 10261132
-53.97588 -10.140738 149.38298 6840664
-54.706474 -10.406843 149.15532 7367008
-55.436909 -10.67374 148.92744 7696233
-53.198929 -9.2310362 149.85623 7367008
-53.938301 -9.4326448 149.65079 6248271
-54.822025 -9.5075397 149.46652 7103838
-53.056763 -8.3263674 150.215 8288362
-54.006729 -8.5138922 149.97751 8617073
-54.777229 -8.8617592 149.71266 7038307
-52.531178 -7.4156404 150.64383 6511954
-53.416687 -7.4885201 150.46008 7959398
-54.158943 -7.6902165 150.25426 10262156
-51.668098 -6.110085 151.27792 5919050
-52.387192 -6.5056329 151.00473 6445905
-53.297977 -6.5911899 150.81183 6840918
-51.666756 -5.4846497 151.50868 6445908
-52.578514 -5.5693407 151.31592 6116685
-50.94392 -4.4609542 152.01405 7630954
-51.856682 -4.544806 151.8214 6511702
-52.578087 -4.942225 151.54712 5919050
-50.07423 -3.3552706 152.57561 9341051
-50.820175 -3.555789 152.3696 8617331
-51.710274 -3.6259255 152.18605 7104096
-49.441647 -2.1680002 153.12526 9341051
-50.219753 -2.5168428 152.85887 12301476
-51.081116 -2.6488199 152.65762 10722702
-51.660545 -2.9677989 152.43739 6643287
-49.388596 -1.5072337 153.37822 9341051
-50.280788 -1.5760238 153.19476 12104097
-51.029598 -1.7770303 152.98801 14077885
-48.629944 -0.27900976 154.08159 9077626
-49.436256 -0.62913954 153.73213 8288366
-50.236515 -0.84686255 153.47137 11709340
-47.945927 0.52250552 154.82574 10656401
-48.673496 0.32089108 154.53969 9801348
-49.424313 0.21944307 154.32764 8419952
-35.719395 1.7903001 165.25278 6447186
-36.629539 1.7182859 164.97192 6050892
-37.422554 1.7168913 164.79036 5919050
-46.474979 1.0306749 156.03371 8618106
-47.447086 1.0297494 155.86298 9144449
-34.996807 2.6325264 165.76335 5657926
-35.908558 2.5598567 165.4789 7565411
-36.812256 2.4868326 165.16286 5919562
-34.302998 3.9015336 166.42679 6118220
-35.09116 3.6770256 166.10759 5591621
-35.971207 3.4923899 165.76045 7236446
-36.729183 3.1880693 165.40956 6973018
-33.700806 4.6816802 166.88168 8683120
-34.29052 4.6789684 166.69812 8091240
-35.267406 4.6738839 166.36842 6710106
-36.034042 4.458014 166.04251 6973018
-33.444633 5.5769095 167.2657 8683120
-34.463436 5.5706911 166.92079 7565415
-35.186703 5.4529757 166.64023 7565675
-32.757694 6.6680632 167.83986 11116435
-33.712292 6.6612005 167.51616 8025452
-34.511055 6.3380694 167.14568 7565675
-32.113464 7.6847358 168.37602 9735297
-32.901905 7.6782765 168.10847 8880246
-33.804626 7.6281815 167.78862 6248272
-31.18696 8.7714329 169.02931 9209467
-31.965677 8.5482063 168.69695 9603968
-33.073727 8.5814476 168.33411 8287854
-33.531387 8.3187065 168.09743 5919050
-31.223269 9.4209089 169.22096 8354161
-32.213234 9.4110804 168.88438 8946296
-32.933804 9.3319635 168.61685 9274237
-30.49637 10.640676 169.84872 7696235
-31.394197 10.443797 169.48453 7433063
-32.231285 10.409872 169.19188 7564388
-29.622866 11.692753 170.47322 9472642
-30.549212 11.607958 170.1346 7696236
-31.54426 11.595845 169.79564 8879993
-29.010668 12.726874 171.00414 7038307
-29.798731 12.495861 170.66612 8419956
-30.796633 12.482536 170.32582 7301478
-31.38225 12.255195 170.05724 7762027
-28.254053 13.621809 171.53992 9405566
-29.013292 13.667872 171.32385 8748665
-29.968531 13.533224 170.93466 9933192
-30.645449 13.365663 170.65402 9143678
-27.559893 14.882597 172.48755 10063753
-28.350878 14.535728 172.11815 10327182
-29.176142 14.532609 171.96321 11379356
-26.658319 15.756863 173.06981 7959145
-27.613024 15.673109 172.81258 8814714
-28.419344 15.440071 172.52603 8486006
-20.628687 16.767475 178.38943 9142393
-21.663889 16.736256 177.95001 9209467
-22.489328 16.711908 177.59979 9209467
-19.913637 17.535341 178.98885 7433312
-20.867945 17.458298 178.56458 8485488
-21.696878 17.432398 178.21236 9209467
-22.305849 17.181189 177.86147 9209467
-18.446184 18.744015 180.38597 7564386
-19.13228 18.421837 179.82579 6511954
-20.223909 18.479616 179.40547 9275774
-20.90246 18.159967 178.8506 7564651
-21.523012 18.137735 178.56615 9209467
-18.696558 19.230284 180.6801 9472384
-19.534494 19.197453 180.29373 11381404
-142.2431 -44.220676 73.885132 7959144
-142.66243 -44.269222 73.450035 8814201
-144.62405 -44.204224 72.488213 7038307
-145.18683 -44.271202 71.897636 7301214
-145.85449 -44.534534 70.921844 7432800
-146.5901 -44.602879 70.321732 7498338
-147.46532 -44.670242 69.783279 7366496
-148.23024 -44.658276 69.323189 6905945
-148.84145 -44.784676 68.551483 7695203
-149.47266 -44.536491 67.847107 6379600
-150.4127 -44.303932 67.256622 7103580
-151.11775 -44.241478 66.411072 7894382
-115.08884 -43.169594 97.522102 9735555
-115.54343 -43.410976 97.193108 9471615
-116.39632 -43.513489 96.720268 9602945
-117.334 -43.663021 96.170219 9273980
-118.104 -43.663204 95.665909 9998474
-118.57654 -43.846645 94.732826 11183260
-119.25712 -43.848499 93.873734 9735812
-122.06533 -43.853874 92.563766 7300963
-122.6197 -43.855419 91.827141 8286567
-123.2793 -43.857269 90.93898 9273721
-123.93233 -43.859116 90.046005 9602688
-124.47185 -43.860649 89.29834 9734788
-126.82992 -43.864887 88.469696 8617331
-127.25386 -43.866119 87.857605 8419952
-127.88464 -43.867962 86.936035 8419952
-128.40529 -43.869492 86.164757 9077113
-128.81841 -43.870716 85.545319 8550257
-131.27864 -43.875351 84.471786 8682867
-131.6835 -43.876575 83.838593 8682867
-132.18518 -43.878101 83.044243 8682867
-132.68236 -43.879623 82.247101 10787988
-135.04384 -43.884033 81.255142 9143675
-135.43291 -43.885258 80.603683 7564651
-136.01109 -43.887081 79.623283 9077889
-136.39284 -43.888294 78.967438 7564651
-138.75658 -43.892784 77.900757 10260359
-139.23712 -43.898914 77.072105 11775138
-139.8701 -43.954384 76.326439 7564643
-140.56714 -44.031113 75.61235 8551282
-141.26436 -44.108994 74.894882 7235421
-142.15486 -44.035824 74.622963 8353902
-143.07695 -44.024216 74.09903 8024683
-143.77962 -44.105251 73.368774 8222065
-144.3425 -44.171021 72.782478 7038307
-150.19188 -44.204224 68.172913 5919050
-150.37784 -44.211349 67.82103 6840151
-151.79941 -44.001919 66.710007 9735812
-152.07692 -44.01376 66.177811 7894382
-152.5377 -44.034256 65.289253 8617078
-152.90504 -44.051174 64.577202 8682867
-154.32234 -43.928993 64.3013 10788244
-154.78233 -43.930786 63.184883 9472387
-157.26553 -43.93594 61.563129 7168861
-157.63303 -43.937496 60.615429 10195850
-159.90846 -43.941898 59.509506 10262156
-160.19255 -43.943089 58.738628 6840408
-160.47356 -43.944279 57.966679 5919050
-162.69531 -43.948456 57.003544 9537409
-163.03532 -43.94994 56.023277 10458252
-165.34669 -43.954491 54.821522 8681835
-165.60817 -43.955666 54.024586 7694945
-165.86647 -43.956848 53.226543 6510930
-168.06723 -43.960884 52.374424 7169629
-168.59148 -43.901752 51.42651 6643029
-169.73309 -43.642982 51.030388 8616563
-170.25694 -43.643597 50.369553 7695716
-170.84608 -43.771641 49.5168 8617587
-171.42751 -43.589722 48.925327 9736836
-172.11252 -43.691113 48.002285 7629667
-172.68803 -43.325588 47.490902 7037274
-114.00993 -42.390514 98.387924 8946039
-114.8217 -42.70153 97.849915 9537920
-115.74706 -42.559177 97.441483 9274492
-116.67812 -42.606007 96.952202 9405566
-117.48012 -42.890377 96.430061 9997703
-117.93968 -43.135147 96.097191 9208187
-170.49715 -43.007256 50.439629 9275773
-171.12297 -42.872421 49.729656 8354159
-171.75121 -42.737926 49.016346 7761509
-172.30052 -42.817421 48.277195 8221548
-172.93335 -42.684303 47.557392 8813941
-173.4865 -42.765831 46.812222 8353390
-173.98502 -42.613197 46.273151 9406334
-113.29118 -41.471466 99.129646 9866117
-114.17158 -41.568489 98.645226 8748661
-115.02147 -41.663517 98.177017 9866629
-115.77721 -41.749313 97.760147 10326924
-116.56009 -41.839314 97.327927 9735043
-171.50163 -42.253429 49.614964 8814966
-172.21278 -41.904556 48.922802 9210491
-172.70778 -41.749409 48.389645 11051160
-173.26085 -41.828232 47.646152 8813941
-173.89293 -41.783466 46.875423 8879734
-174.45505 -41.774509 46.171955 8879990
-175.01924 -41.766243 45.465534 7037530
-175.53311 -41.471336 44.877621 7958632
-111.81734 -40.348843 100.33648 7958891
-112.52779 -40.645607 99.855515 6445394
-113.34389 -40.685825 99.426964 9405566
-114.44545 -40.664787 98.879585 10064009
-115.2225 -40.812176 98.426529 8946040
-115.75545 -40.996284 98.081619 9735043
-173.36809 -41.165928 47.899044 7629411
-174.08846 -40.814896 47.196537 7563618
-174.80205 -40.643665 46.397182 7366751
-175.42924 -40.778481 45.525555 7629666
-175.86865 -40.831215 44.736958 8089961
-110.32574 -39.311077 101.51731 7894126
-111.02119 -39.527641 101.07693 7696747
-111.95226 -39.658371 100.55302 9406080
-112.79276 -39.505421 100.19181 6774616
-113.64177 -39.692917 99.685944 8221292
-114.43937 -40.1036 99.113953 10129289
-174.9781 -40.03236 46.533421 8090216
-175.54762 -39.92989 45.870792 8090216
-176.20859 -39.682228 44.991108 9273977
-176.67369 -39.697906 44.080547 9077114
-177.12004 -39.383953 43.467541 11906725
-109.56041 -38.310757 102.28156 9734788
-110.25236 -38.519558 101.87725 8551285
-111.20684 -38.65831 101.34161 8682871
-112.0495 -38.740978 100.88217 9734788
-112.8376 -38.726746 100.49023 7629923
-176.55917 -38.645603 45.135792 8090216
-176.90285 -38.726547 44.407856 9537921
-177.31862 -38.64957 43.666058 10985623
-108.80855 -37.461025 102.95868 9734788
-109.53031 -37.680843 102.54818 9734788
-110.54007 -37.531818 102.14041 9537666
-111.44481 -37.676682 101.62622 9340287
-112.26241 -38.019917 101.072 9208698
-177.18318 -37.879993 44.537449 9800837
-177.57744 -37.845097 43.804142 10853012
-108.08129 -36.446636 103.69096 8419185
-108.98858 -36.595444 103.22618 9538179
-109.85875 -36.680733 102.8035 8419443
-110.58543 -36.751297 102.43983 8814200
-177.96486 -36.840797 43.852757 8222320
-106.52929 -35.264519 104.85877 8618355
-107.19563 -35.586555 104.43195 8879735
-108.13439 -35.673412 103.97803 7301988
-109.12634 -35.503616 103.60349 11906983
-109.69613 -35.803707 103.22855 9867146
-105.96101 -34.361736 105.47526 8947320
-106.55877 -34.53569 105.13851 9539200
-107.42242 -34.612232 104.72227 9538946
-108.40682 -34.746861 104.22878 7499624
-104.99582 -33.45335 106.27113 7564649
-105.86787 -33.699425 105.783 8223597
-106.87581 -33.538189 105.3979 9539202
-107.57829 -33.647667 105.04035 9933960
-104.21204 -32.412292 107.03937 7959410
-105.16446 -32.592121 106.54197 9867921
-106.02558 -32.66198 106.12952 9604999
-106.66219 -32.78764 105.79489 9078397
-102.71737 -31.312284 108.14856 9537665
-103.44987 -31.609091 107.70236 11182745
-104.44989 -31.546532 107.28116 7564651
-105.40591 -31.561853 106.84826 14079187
-106.05256 -31.932755 106.41055 13684429
-101.27719 -30.156441 109.4961 9012350
-102.10771 -30.347498 108.96528 8089963
-102.78829 -30.602833 108.48224 9603455
-103.63397 -30.661968 108.06464 11445399
-104.50948 -30.782167 107.58699 8748664
-99.630508 -29.103544 111.69202 7563619
-99.868301 -29.247915 111.14845 8024941
-100.62408 -29.409468 110.57671 9078143
-101.38302 -29.650511 109.87407 9603973
-102.39076 -29.715277 109.3709 9603970
-103.13998 -29.936331 108.85142 9932419
-103.64592 -29.97007 108.5975 11182228
-79.392296 -28.329052 128.57433 9538180
-80.319771 -28.391689 128.1366 10919318
-81.155334 -28.416368 127.755 11445918
-81.890099 -28.530081 127.38258 10524816
-83.961899 -28.766661 124.42767 14076861
-84.559578 -28.767933 124.02158 11380379
-85.452675 -28.769842 123.40746 9407363
-86.193588 -28.771433 122.89093 8223345
-86.931198 -28.773026 122.36972 10261646
-87.812279 -28.774935 121.73853 9143936
-88.688797 -28.776844 121.10098 8552055
-89.560654 -28.778755 120.4571 8879478
-90.28376 -28.780344 119.91596 8089963
-91.003433 -28.781935 119.37014 9208186
-91.86277 -28.78384 118.70967 9010807
-92.717293 -28.785748 118.04295 8748150
-93.425827 -28.787336 117.48283 9406335
-96.639671 -28.974342 113.45779 7499106
-97.426224 -29.00741 112.99678 8814194
-98.370552 -29.048002 112.44004 8550509
-99.158119 -29.082529 111.97323 7037274
-77.895378 -27.054522 129.7506 8092019
-78.560974 -27.33078 129.3439 9669509
-79.495399 -27.45908 128.8768 9275264
-80.499001 -27.486668 128.41928 9801093
-81.232307 -27.75082 127.98732 10985367
-77.365639 -26.314516 130.28258 9011579
-77.832283 -26.507353 129.99779 8420213
-78.668175 -26.527569 129.61781 8815228
-79.6726 -26.55298 129.1608 9077626
-80.307236 -26.752165 128.79871 8682867
-76.433754 -25.323252 131.09409 8288627
-77.168755 -25.58177 130.66362 9471873
-78.139938 -25.557913 130.2411 8617335
-78.875916 -25.742495 129.8398 9998216
-79.579018 -25.881531 129.47134 8682867
-75.471558 -24.234846 131.95804 7038042
-76.369034 -24.470953 131.46422 7038299
-77.374855 -24.491428 131.00856 8814457
-78.246735 -24.632071 130.56441 8683127
-74.935028 -23.494932 132.493 8354158
-75.699692 -23.544989 132.1328 7235421
-76.538872 -23.560619 131.7532 8419695
-77.31134 -23.636728 131.3791 9998729
-74.193146 -22.519854 133.11479 9209211
-75.027756 -22.61845 132.80272 7959146
-75.985657 -22.680679 132.35168 7564642
-76.809097 -23.016476 131.85086 9406590
-73.43425 -21.271774 133.70943 12696241
-74.158424 -21.488621 133.50124 10064521
-75.177513 -21.566471 133.15739 7433059
-75.834518 -21.898626 132.73206 7959144
-73.273949 -20.492041 134.02533 9406591
-74.247475 -20.608305 133.81007 7959402
-72.720276 -19.531849 134.47746 8485750
-73.685089 -19.670494 134.25549 8025451
-74.433876 -20.025528 133.99193 7564645
-71.967384 -18.356131 135.0443 7630443
-72.80439 -18.480408 134.85028 8222575
-73.531113 -18.693766 134.6429 7762277
-71.832893 -17.519892 135.37648 9603972
-72.782677 -17.554352 135.19566 9275773
-70.547447 -16.180885 136.09792 9537923
-71.198532 -16.44911 135.88368 7893359
-72.038483 -16.647367 135.66183 8880250
-72.69326 -16.99497 135.41776 9011321
-69.706154 -15.061783 136.88048 9209467
-70.505592 -15.325488 136.54955 8617333
-71.389114 -15.576604 136.22513 7564393
-72.132484 -15.861542 135.93509 9011321
-68.831871 -14.317884 137.60872 9209467
-69.61058 -14.483155 137.34364 9538432
-70.567909 -14.582047 137.0984 10985878
-57.515221 -13.267881 147.60225 9143681
-58.398441 -13.347629 147.41632 8880509
-59.137386 -13.553188 147.20947 7564651
-63.473244 -13.718902 142.40518 9143163
-64.328606 -13.720524 142.02039 7696235
-65.352386 -13.722476 141.55203 9537668
-66.032936 -13.723778 141.23596 11379356
-68.095673 -13.985592 138.62808 7168860
-69.021698 -14.006004 138.40276 8090986
-56.973751 -12.555603 147.96092 9340801
-57.738426 -12.568434 147.82068 10919575
-58.623177 -12.647716 147.63458 8419959
-56.774563 -11.543503 148.36955 9800838
-57.814915 -11.655908 148.14366 9866631
-56.061466 -10.296179 148.95599 8420725
-56.916431 -10.484925 148.7348 8946300
-57.59037 -10.83276 148.48708 9340801
-55.349201 -9.3849154 149.41829 8815225
-56.235764 -9.4602814 149.23332 8683896
-56.978176 -9.6635284 149.02684 7565675
-54.493217 -8.082406 150.05043 7038307
-55.265041 -8.4304266 149.78525 8881018
-56.218315 -8.6192379 149.54663 9144446
-54.649368 -7.4613276 150.25171 8748920
-55.528812 -7.5089221 150.07834 8354419
-56.08091 -7.7095423 149.90651 9144446
-53.838467 -6.4199471 150.77921 7367264
-54.691887 -6.524879 150.58929 8946296
-55.437214 -6.7270808 150.38272 7696488
-53.66016 -5.5380034 151.13583 6248783
-54.623623 -5.5451694 150.96249 7696229
-53.065552 -4.5030394 151.6226 5919050
-54.051266 -4.6146212 151.40686 6511955
-52.239929 -3.4971039 152.13966 6643287
-53.132542 -3.5674281 151.95557 5919050
-53.880829 -3.7690005 151.74869 5919050
-51.610573 -2.3079045 152.68947 7762021
-52.438194 -2.5256457 152.46255 7169888
-53.21764 -2.8758159 152.19536 5919050
-51.521568 -1.5400798 152.98817 9538174
-52.518444 -1.622808 152.7811 8748919
-50.103077 -0.18197432 153.89502 8419952
-50.887299 -0.44947493 153.57994 11314582
-51.614674 -0.71709055 153.3008 7958887
-52.309292 -0.7853356 153.12679 9735299
-49.325962 0.62122017 154.65877 9341054
-50.18055 0.45952624 154.38144 8748917
-50.976273 0.21719076 154.05153 8353902
-38.025593 1.716295 164.69048 6182478
-38.946598 1.6734879 164.51961 7695970
-48.615475 1.0288227 155.65794 9012090
-49.395565 1.0281917 155.52109 9341054
-37.291973 2.7658715 165.12749 6445906
-37.960449 2.5134428 164.94542 5919306
-38.819088 2.4849372 164.80077 6511954
-36.395973 4.0333333 165.78722 8091754
-37.204342 3.6612031 165.42792 8223340
-38.239128 3.5476921 165.21326 6972505
-36.444626 4.7738581 166.00333 7499618
-37.298565 4.6223025 165.69966 8025449
-38.026978 4.664475 165.58372 7038298
-35.712414 5.5208769 166.48448 7565675
-36.493401 5.5164824 166.22005 8157549
-37.477047 5.5124412 165.92668 7564642
-34.88475 6.8771014 167.18903 9605259
-35.735416 6.6398802 166.828 10592412
-36.671162 6.5196061 166.47508 10524818
-37.3172 6.1501679 166.14438 9209467
-34.292404 7.882112 167.70407 5919050
-34.868591 7.6629891 167.44121 12105652
-35.849682 7.6558118 167.10849 12368053
-36.61961 7.4359183 166.78011 8287341
-34.135311 8.5292463 167.96014 6182222
-35.119015 8.5211573 167.62625 12696761
-36.031292 8.4421539 167.29419 8287341
-32.844692 10.055486 168.87407 8682608
-33.456551 9.7025614 168.5571 9208444
-34.352684 9.6616583 168.24248 6642773
-35.176075 9.4271069 167.89148 7169372
-32.755142 10.78151 169.13211 7235420
-33.476871 10.70134 168.86388 6643284
-34.383663 10.64857 168.54184 6379601
-32.152939 11.807378 169.65703 8682608
-32.614311 11.53955 169.41754 7367006
-33.727116 11.570793 169.05252 6774869
-34.505714 11.344033 168.7191 5919050
-31.874796 12.512618 169.97215 12365988
-32.90889 12.499789 169.6198 9932418
-33.568329 12.228737 169.31253 9735039
-31.174486 13.642349 170.56267 8090732
-32.054565 13.567147 170.24266 9077112
-32.909035 13.408856 169.90512 7761763
-29.686945 14.799228 171.9585 8748921
-30.616228 14.743581 171.66713 9603715
-31.578157 14.492501 171.10033 7761510
-28.93104 15.707869 172.52165 7565418
-29.87221 15.655602 172.28099 7630952
-30.470949 15.425221 172.04375 9210491
-23.517939 16.682066 177.16357 10261901
-24.543482 16.652966 176.72894 8089960
-25.361391 16.630135 176.38248 6445392
-25.973665 16.61334 176.12328 8089960
-22.814531 17.444729 177.75616 9472639
-23.771418 17.601831 177.42372 9275006
-24.546976 17.485943 177.05775 6248015
-25.386911 17.091022 176.55467 6445392
-21.362841 18.634298 179.04486 7564651
-22.305666 18.503153 178.53886 10919829
-22.993158 18.333082 178.11758 12038310
-23.838121 18.54578 177.91051 10261903
-18.599413 19.812094 181.87076 9998472
-19.421389 19.756363 181.28163 12696241
-20.143457 19.528078 180.49849 11906977
-20.816713 19.403906 179.97867 9800838
-21.495424 19.288622 179.53517 8748665
-22.238771 19.094942 179.04964 9998473
-147.31693 -44.226864 70.756851 7761509
-147.6003 -44.261475 70.456268 6116941
-118.4577 -43.198635 95.809532 8353646
-119.26587 -43.488827 95.281937 8617331
-120.13521 -43.598484 94.797867 7038298
-121.0517 -43.561707 94.285583 8551539
-121.71664 -43.681 93.613434 8024686
-122.47442 -43.70874 93.571541 7563619
-124.44461 -43.858082 91.797729 8088931
-124.88457 -43.859325 91.197144 8549739
-125.53949 -43.861183 90.292625 9734788
-126.08041 -43.862728 89.535324 11314074
-126.50975 -43.863964 88.927086 12959152
-129.10329 -43.868881 87.763702 11379348
-129.41901 -43.869812 87.296768 11379348
-129.94154 -43.871357 86.515953 9537409
-130.56255 -43.873199 85.575066 9537409
-130.97307 -43.874432 84.94545 9143163
-133.35408 -43.878822 84.001869 8090479
-133.85669 -43.88036 83.197472 7893609
-134.45363 -43.882202 82.228378 8748917
-134.84792 -43.883423 81.580032 9143675
-137.2317 -43.887897 80.559006 7564651
-137.61771 -43.889122 79.897263 9143164
-138.09558 -43.890648 79.067261 6445137
-138.47466 -43.891872 78.40155 8616048
-140.76875 -43.896114 77.47715 8616560
-141.32417 -43.897949 76.45829 8616560
-141.78163 -43.899471 75.606247 7564386
-143.99611 -43.903484 74.794418 8682867
-144.35408 -43.904705 74.099976 8551282
-145.05167 -43.956852 73.139114 8748403
-145.75845 -44.039654 72.398621 7761509
-146.61716 -44.041653 71.87381 8156267
-147.25507 -44.067059 71.382294 8353646
-148.18874 -44.027615 70.955338 7103323
-148.90211 -44.114815 70.198395 6510930
-149.63223 -44.183681 69.226242 6313551
-150.39384 -44.035297 68.84729 6511187
-151.05545 -43.971981 68.125969 6840151
-151.52104 -43.990437 67.241562 8748660
-153.53783 -43.925991 66.154404 8222579
-153.93307 -43.927494 65.229141 8682867
-156.20699 -43.931816 64.204941 11380380
-156.51373 -43.933018 63.45192 9669507
-156.89268 -43.934517 62.508709 10787988
-159.1071 -43.93861 61.621696 7037274
-159.40169 -43.939808 60.854839 7629667
-159.69258 -43.940956 60.086521 8617847
-161.92717 -43.945175 59.152992 10262156
-162.27974 -43.946671 58.177223 10261388
-164.81129 -43.952072 56.411232 9800063
-165.38524 -43.869385 55.571835 10128769
-166.50725 -43.611 55.116173 10457478
-167.13615 -43.651577 54.299458 8681843
-167.67119 -43.724571 53.582169 6840150
-168.14995 -43.71199 52.918217 6905943
-168.92226 -43.52845 52.119793 8090218
-169.52324 -43.316139 51.486477 11906725
-117.65096 -42.344357 96.568993 9997703
-118.45747 -42.630386 96.043938 7893100
-119.38255 -42.553246 95.608749 7893608
-120.25417 -42.660652 95.124474 7762022
-121.03157 -42.884953 94.639595 7367266
-167.23613 -43.003185 54.553375 7761250
-167.99184 -42.735901 53.757214 7235162
-168.60109 -42.744141 52.984318 7893094
-169.14557 -42.729549 52.306385 8616563
-169.76175 -42.681011 51.557953 10656402
-170.41325 -42.660172 50.748817 9538177
-116.32918 -41.436592 97.610428 9735043
-117.05511 -41.58276 97.183746 9734531
-117.82114 -41.55489 96.808502 9537667
-118.74519 -41.717552 96.275032 8419444
-119.67315 -41.638264 95.839302 7827819
-120.31365 -41.905872 95.405647 8617331
-168.08482 -42.232128 53.935135 6511954
-168.91618 -41.899349 53.082012 7893094
-169.47136 -41.706833 52.494926 7958633
-170.08015 -41.833199 51.653343 7037274
-170.70044 -41.783718 50.900314 9801605
-171.25197 -41.77013 50.212898 8749428
-171.88127 -41.633274 49.499622 8288621
-172.37518 -41.477444 48.968281 8288621
-114.95104 -40.15847 98.833153 10853012
-115.48412 -40.341187 98.488625 9735043
-116.2669 -40.630814 97.974113 9735043
-117.05833 -40.691093 97.549789 9603456
-118.06517 -40.611027 97.074493 9669253
-118.91739 -40.884949 96.531357 9537667
-170.22287 -41.072304 51.919247 7695716
-170.96123 -40.761246 51.170681 8682355
-171.65474 -40.704983 50.32935 8025449
-172.20518 -40.779545 49.591602 7367007
-172.75734 -40.855217 48.851078 8288109
-173.47496 -40.503258 48.152531 7432288
-173.97426 -40.346321 47.614964 7037274
-114.14671 -39.325848 99.582329 9405566
-114.60373 -39.56041 99.254967 9734531
-115.53178 -39.578606 98.779015 8945784
-116.54575 -39.580391 98.266403 8945782
-117.35181 -39.743683 97.792191 9011575
-117.96867 -39.988289 97.379944 9208956
-171.75911 -40.046722 50.583359 7367007
-172.4915 -39.76963 49.822384 6906200
-173.12875 -39.715202 49.050831 7432801
-173.80292 -39.644661 48.24229 7038048
-174.36098 -39.720478 47.49419 7038307
-174.90181 -39.719032 46.813206 10260357
-113.26526 -38.366295 100.42294 6511954
-114.02376 -38.566776 99.957397 8747636
-114.87797 -38.65398 99.490211 9405566
-115.7068 -38.692997 99.055756 9339773
-116.57674 -38.706036 98.611237 9800577
-173.35237 -38.907978 49.241985 7564643
-173.91945 -38.802055 48.58913 8617078
-174.62352 -38.804768 47.69981 7959150
-175.33072 -38.808533 46.805996 10391686
-175.89961 -38.794518 46.096943 8090216
-176.35954 -38.625214 45.537365 8090216
-111.7979 -37.233685 101.63065 9801091
-112.42226 -37.478359 101.21456 11379349
-113.18909 -37.691792 100.73949 8682608
-114.29578 -37.660759 100.1936 9273979
-115.08257 -37.626926 99.810448 9405566
-115.78531 -37.997746 99.302818 8813686
-174.23793 -38.120613 48.586834 7038307
-174.76009 -38.037521 47.977207 7038307
-175.38615 -37.816708 47.317326 9668992
-176.03419 -37.674232 46.58379 8945269
-176.67026 -37.75235 45.616116 7629666
-177.15541 -37.575321 44.832592 7564904
-110.99447 -36.419029 102.37202 9734788
-111.7485 -36.61121 101.9122 9932932
-112.57488 -36.517616 101.53363 11642521
-113.54133 -36.654858 100.98918 9866624
-114.34226 -36.918148 100.4763 8814195
-176.38774 -36.885189 46.600368 7959145
-176.89162 -36.870583 45.899265 6840408
-177.39378 -36.91975 44.89175 6906973
-177.93465 -36.293034 44.344753 5921106
-110.15075 -35.477833 103.15658 8156786
-111.03511 -35.682636 102.65511 8749173
-111.86931 -35.682697 102.23402 9473408
-112.78583 -35.653973 101.7832 8946294
-113.41484 -35.897686 101.36516 8682608
-177.21614 -36.072491 45.906368 6313808
-177.69093 -35.815628 45.193089 6578008
-178.21913 -35.685276 44.278057 6249814
-178.55815 -35.445667 43.814732 5921106
-108.91454 -34.378773 104.15004 9209984
-109.38642 -34.60611 103.84805 13880772
-110.34538 -34.55603 103.44019 9801093
-111.34958 -34.599083 102.9431 7564898
-112.07217 -34.909016 102.45058 9012600
-112.60461 -35.079762 102.1114 9012600
-178.11072 -34.94825 45.070454 7564904
-178.49466 -34.757378 44.482029 6183762
-178.799 -34.786407 43.872868 8157037
-108.02785 -33.319096 104.97173 9934216
-108.77274 -33.629303 104.51461 9801864
-109.64705 -33.706837 104.09315 11183004
-110.42549 -33.71513 103.74234 9537409
-111.21945 -33.846939 103.31884 7762277
-178.73512 -34.097897 44.540981 9471867
-179.07947 -33.826439 44.092655 9800831
-107.18871 -32.513607 105.66997 10263180
-108.05522 -32.568298 105.26126 9999752
-108.96797 -32.592991 104.84389 9275776
-109.76717 -32.67046 104.45602 9405823
-110.38352 -33.032509 104.03538 8813686
-179.36205 -33.245029 44.008785 8485229
-105.90622 -31.189377 106.77466 14078918
-106.38035 -31.519388 106.43037 10064776
-107.19352 -31.657494 106.01196 8815226
-108.20842 -31.693689 105.54433 9209983
-109.11449 -31.814505 105.09133 9537918
-104.97924 -30.406015 107.63668 7564651
-105.83601 -30.467951 107.21659 11578273
-106.69281 -30.530575 106.79167 9275004
-107.46452 -30.76399 106.27753 8486005
-108.2691 -31.007877 105.79288 7564651
-101.8382 -29.205473 110.36595 8749176
-102.78547 -29.250854 109.79106 9801090
-103.45103 -29.447048 109.17822 10524555
-104.24237 -29.622795 108.63084 9603455
-105.19092 -29.729113 108.11168 8682868
-106.0426 -29.787952 107.68305 9538432
-106.55497 -29.823652 107.42477 10459534
-82.19632 -28.266304 127.352 10524816
-82.998016 -28.474352 126.91205 9143421
-84.005753 -28.508009 126.45026 12103335
-84.940498 -28.577076 126.00677 10919061
-94.13076 -28.788925 116.91816 9142651
-94.972328 -28.790831 116.23516 8747893
-95.808899 -28.792734 115.5461 8550770
-96.502342 -28.794319 114.96735 8617330
-97.192116 -28.795902 114.38427 7696228
-98.015282 -28.797804 113.67918 8682866
-98.883728 -28.81422 113.0253 9998214
-99.834137 -28.855694 112.46287 8747893
-100.62679 -28.891083 111.99119 9340286
-101.42001 -28.92717 111.5167 8092019
-102.3723 -28.97139 110.94368 9143417
-81.640244 -27.398033 127.94708 10524560
-82.343269 -27.540804 127.57716 10327181
-83.183685 -27.567026 127.19279 8419701
-84.05632 -27.717266 126.74439 9537408
-84.792389 -27.986156 126.30923 9208443
-80.752876 -26.545301 128.68333 8748660
-81.755653 -26.472706 128.26628 9274494
-82.636353 -26.452522 127.88258 9341059
-83.351059 -26.74885 127.44596 9143681
-79.249313 -25.264559 129.86505 8682867
-79.98584 -25.526306 129.4326 8682867
-80.858582 -25.670713 128.98651 9143418
-81.841438 -25.592596 128.5806 9340802
-82.542999 -25.716974 128.21864 7564651
-78.652618 -24.275261 130.5267 8682867
-79.357452 -24.489521 130.12733 9143418
-80.14994 -24.606453 129.72792 8682867
-81.023903 -24.621679 129.33308 9012089
-81.846062 -24.964149 128.83015 7038307
-77.7827 -23.524176 131.21446 8288627
-78.591545 -23.418774 130.89684 10064520
-79.603012 -23.440819 130.43805 9472383
-80.343002 -23.702728 130.00401 9077625
-80.881882 -23.838066 129.71007 8682867
-76.44046 -22.276127 132.31133 10854036
-76.911674 -22.468224 132.02484 9735555
-77.719696 -22.667028 131.58575 10392973
-78.766617 -22.504354 131.18515 9669762
-79.543167 -22.581926 130.80867 9932934
-75.63208 -21.160242 133.11777 7564645
-76.28981 -21.492786 132.69203 8748661
-77.251709 -21.555538 132.23903 9537920
-78.096436 -21.571074 131.85701 9735043
-78.669762 -21.827734 131.49916 9143162
-74.780617 -20.225416 133.85689 8090987
-75.428833 -20.420673 133.50439 7498852
-76.44294 -20.436504 133.04697 8419439
-77.322319 -20.574154 132.60063 9471871
-78.066154 -20.833319 132.16591 10129545
-74.190514 -19.275656 134.31161 9012600
-74.904953 -19.487257 134.07637 7169889
-75.766029 -19.503222 133.72182 7433059
-76.538528 -19.551846 133.35872 7695462
-74.065506 -18.476727 134.62837 8815221
-75.074432 -18.565775 134.37631 7104092
-75.833183 -18.826012 133.9631 7366497
-73.354195 -17.575312 135.08669 8354670
-74.152969 -17.419153 135.00287 8288877
-74.996666 -17.698214 134.74129 7301726
-73.198677 -16.594667 135.47588 9340798
-74.133438 -16.487741 135.34979 9276029
-71.78595 -15.122854 136.46651 7564135
-72.677917 -15.467541 136.06993 9142907
-73.59816 -15.664704 135.78828 10919830
-70.321564 -14.03542 138.08423 12762290
-71.202148 -14.16469 137.62303 11183001
-71.795891 -14.58088 136.88258 9077113
-72.662292 -14.666534 136.6637 7563619
-59.629936 -13.332063 147.20378 7893357
-60.618008 -13.427863 146.9933 7761770
-66.542427 -13.724754 140.99648 10261646
-67.220337 -13.726059 140.67439 7827818
-68.065399 -13.72769 140.26707 7366495
-69.076233 -13.729648 139.7718 7959656
-69.57811 -14.018496 138.26671 9209467
-59.060364 -12.270368 147.69627 7761772
-59.957882 -12.414394 147.48405 9208958
-60.590614 -12.811418 147.22551 9208958
-58.305981 -11.22977 148.21376 10459278
-59.048477 -11.4345 148.00667 8485749
-59.938175 -11.51339 147.81987 8485237
-57.695068 -10.060641 148.75334 9340801
-58.226383 -10.406758 148.53142 9801349
-59.100643 -10.597122 148.30626 8946041
-57.471031 -9.4371853 149.0229 8486262
-58.462543 -9.5278273 148.81372 9538176
-56.65453 -8.2351694 149.61095 9144446
-57.519619 -8.5045509 149.35829 9735555
-58.385162 -8.7747793 149.10521 11051415
-56.13205 -7.3198795 150.04115 8091248
-56.806007 -7.4828129 149.86159 8353905
-57.63765 -7.6282873 149.66058 9603970
-55.96587 -6.4801674 150.38005 6775131
-56.952927 -6.5940657 150.16319 7234909
-55.202583 -5.5495596 150.85825 7367264
-55.97591 -5.5555668 150.71907 6709338
-56.750278 -5.5616755 150.57965 7366498
-54.579979 -4.3648567 151.40523 7367264
-55.328873 -4.566658 151.19815 7893353
-56.187901 -4.6710553 151.00746 9866375
-54.375023 -3.5344741 151.74757 7498853
-55.37281 -3.6190455 151.53961 9472129
-53.748543 -2.3426733 152.29781 7170146
-54.605038 -2.6339889 152.0387 9210242
-55.337467 -2.9848709 151.77957 12695729
-53.012669 -1.3855013 152.78096 8092019
-53.831833 -1.4375621 152.61662 7499368
-54.663315 -1.6563803 152.3887 9538179
-52.236889 -0.18583786 153.51523 8090218
-53.027927 -0.52999622 153.15984 9932678
-53.778728 -0.68893355 152.90198 7564389
-51.4645 0.61888301 154.27878 7300446
-52.261543 0.37646526 153.94864 6510930
-53.117237 0.21409906 153.67058 8879990
-39.450397 1.9246461 164.52467 7695970
-40.235493 1.7141274 164.30806 8156779
-41.166862 1.6432902 164.11713 12499629
-49.981384 1.0277424 155.41843 9341054
-50.959137 1.0270247 155.24713 10327180
-39.367279 2.6248009 164.75615 7695970
-40.304989 2.5543587 164.58595 6972761
-38.777786 3.8188117 165.20969 11379348
-39.525295 3.6606896 165.04356 8353899
-40.226318 3.3265378 164.83171 6512211
-38.634384 4.6646509 165.48759 8485744
-39.563366 4.6226983 165.32771 8222314
-38.085026 5.5127916 165.83044 7038298
-38.818119 5.555819 165.72726 8617330
-39.489941 5.3013239 165.5441 8485744
-37.806141 6.6302681 166.21175 7301470
-38.850243 6.5171938 166.01221 8025193
-37.106674 7.6898923 166.69676 9537408
-38.15266 7.6887989 166.47615 9274492
-38.62331 7.4324656 166.32423 7038298
-36.311699 8.7268772 167.28917 8287341
-37.082481 8.5059338 166.96085 8879478
-38.013268 8.4323816 166.72258 10392461
-35.594578 9.8126507 167.87155 6511954
-36.367779 9.589818 167.54115 6971737
-37.350513 9.5817318 167.20848 8484720
-37.92606 9.1494093 166.95264 9537408
-34.873978 10.904537 168.45711 6511954
-35.573643 10.72385 168.16467 6511954
-36.51416 10.628143 167.81783 6511954
-37.225826 10.665164 167.58974 7366751
-34.787357 11.63209 168.71468 8485229
-35.705135 11.549874 168.37971 8156264
-36.621498 11.468098 168.04533 6511954
-34.048714 12.515488 169.24078 9208951
-34.969067 12.431938 168.90456 10392712
-35.958508 12.42111 168.56787 10458505
-33.33316 13.844153 169.89896 7958886
-34.133705 13.603103 169.5536 9406586
-35.083603 13.473506 169.19295 11050897
-35.802647 13.080273 168.82741 12432037
-31.256533 14.969007 171.66679 9734788
-31.870493 14.965425 171.52284 7564131
-32.755974 14.761942 171.01291 5656902
-33.350349 14.454947 170.34355 5657414
-34.331444 14.435041 169.92586 7367774
-30.983248 15.693319 172.03931 9276028
-32.127953 15.641034 171.75142 7564131
-25.999651 17.073774 176.29506 8089960
-26.597841 16.826841 175.95033 8484975
-27.427675 16.815023 175.71184 7959146
-28.042124 16.580812 175.4903 8090987
-25.028231 18.028315 177.07423 8089960
-25.709124 17.72986 176.675 10655885
-26.777918 17.792789 176.27031 8814200
-27.467806 17.505018 175.96217 7038049
-23.478075 19.049677 178.48088 10261903
-24.351976 18.85499 177.94542 8090993
-25.223108 18.791895 177.51984 7564135
-25.971277 18.63587 177.07021 8813686
-26.699076 18.448778 176.60368 9734788
-22.080095 19.595907 179.53128 11182231
-22.702021 19.572418 179.24525 8616820
-23.529268 19.541592 178.8651 9406852
-24.559908 19.503906 178.39207 8090993
-19.984003 20.339611 182.37996 9275260
-20.805391 20.283178 181.78947 9933702
-21.62253 20.227608 181.20357 11182231
-122.24181 -43.294518 93.859802 9011065
-122.97122 -43.543205 93.389069 8089963
-123.8248 -43.57328 92.914162 8155240
-124.62036 -43.541119 92.448189 8154724
-125.60548 -43.609688 92.031876 8418410
-126.44974 -43.83847 91.40889 9406078
-127.06383 -43.862976 90.693764 9734788
-127.60679 -43.864536 89.927155 11840417
-128.25252 -43.866402 89.00296 10064519
-128.78563 -43.867954 88.229332 9997699
-131.60841 -43.873562 86.713409 8748661
-132.2308 -43.875423 85.76046 8616820
-132.74434 -43.876968 84.962997 8616822
-133.05016 -43.877895 84.483002 8616822
-135.45551 -43.882347 83.513916 9143675
-135.95515 -43.883892 82.696861 9274749
-136.5484 -43.885746 81.712639 10459795
-136.94017 -43.886974 81.05423 11907495
-139.34819 -43.891506 80.006607 8616048
-139.73152 -43.892742 79.33461 8616048
-140.20601 -43.894283 78.491989 11510682
-142.90137 -43.899811 76.866699 7169628
-143.45236 -43.901653 75.832443 7695972
-143.81583 -43.902878 75.140945 8682867
-146.05721 -43.906902 74.30838 11182228
-146.5013 -43.908451 73.427742 8024938
-146.9404 -43.910011 72.544617 9603458
-149.19722 -43.914162 71.65847 8484976
-149.53993 -43.915352 70.939102 7168860
-150.11798 -43.937649 69.889679 8484976
-152.56706 -43.922356 68.36557 11643552
-153.05644 -43.924175 67.261742 7893615
-155.5817 -43.92939 65.706284 9407106
-155.97417 -43.930908 64.768639 10656658
-158.27812 -43.935188 63.723301 10787988
-158.58246 -43.936501 62.960247 8089963
-158.8838 -43.937607 62.196056 7037274
-161.20409 -43.942165 61.098057 12038821
-161.56834 -43.943672 60.126575 10262156
-163.62578 -43.890877 59.104103 10261132
-164.01442 -43.710293 58.575367 9142651
-164.5063 -43.749676 57.63707 9011065
-165.19803 -43.614212 56.765083 9273720
-165.80476 -43.474072 56.082066 10457478
-166.28041 -43.316967 55.57449 9536888
-121.24796 -42.402458 94.729279 7038307
-122.14507 -42.624397 94.184921 8616308
-123.0721 -42.687618 93.690865 8879479
-123.93727 -42.63364 93.276398 7826534
-124.77684 -42.724232 92.815231 8088931
-164.3401 -43.092251 58.467735 8089963
-164.82497 -42.848053 57.821484 8287342
-165.42726 -42.713657 57.009354 8484718
-166.03996 -42.758511 56.20504 9602683
-166.64566 -42.705158 55.472469 9405305
-167.25783 -42.564983 54.782776 8024422
-120.68999 -41.461208 95.398949 7959150
-121.48515 -41.666748 94.91288 7630187
-122.33904 -41.723843 94.458267 8682359
-123.31569 -41.701202 93.974594 9011065
-123.96788 -41.975986 93.532043 8418670
-165.64291 -41.773556 57.286728 8419700
-166.21962 -41.81604 56.532078 8813683
-166.96288 -41.719158 55.650764 7629410
