# .PCD v0.7 - Point Cloud Data file format
VERSION 0.7
FIELDS x y z rgb
SIZE 4 4 4 4
TYPE F F F U
COUNT 1 1 1 1
WIDTH 1180
HEIGHT 1
VIEWPOINT 0 0 0 1 0 0 0
POINTS 1180
DATA ascii
-57.334213 -50.649055 -148.80667 8484976
-135.50475 -50.130035 -126.75048 8288618
-134.92749 -50.402069 -127.24914 10722445
-134.34464 -50.585808 -127.8027 7564651
-56.736309 -50.592941 -148.85051 7761509
-55.741131 -50.499474 -148.91881 7893355
-54.74736 -50.406273 -148.98169 9998215
-53.755291 -50.313332 -149.0385 12037793
-52.962616 -50.239182 -149.08011 10459275
-50.853073 -50.017395 -150.52473 8092011
-50.057266 -49.943291 -150.54875 9341307
-49.064213 -49.850822 -150.57343 9406846
-48.072575 -49.758385 -150.59209 10064777
-47.477612 -49.702087 -150.59764 8089963
-136.46072 -48.785431 -126.41671 11972257
-135.80852 -49.235855 -126.90132 8551534
-135.19365 -49.352097 -127.52794 6907736
-45.912891 -49.528702 -151.94525 9537409
-45.315105 -49.472229 -151.93988 8879991
-44.320404 -49.378227 -151.9263 11643035
-43.12949 -49.265892 -151.90297 9866883
-41.127277 -49.052246 -153.1864 8287859
-40.331753 -48.977539 -153.15338 8879480
-39.339111 -48.884377 -153.10774 7563619
-38.546688 -48.810081 -153.06715 8156012
-37.10368 -48.649971 -154.32591 8617075
-136.7433 -48.069107 -126.49348 12170151
-136.0748 -48.192215 -127.17654 8880498
-36.50724 -48.5942 -154.28554 8090731
-35.515171 -48.501564 -154.21378 8879991
-34.525318 -48.409256 -154.13724 6511954
-32.651257 -48.209694 -155.31854 8025198
-31.660141 -48.117638 -155.22169 7038307
-30.869228 -48.044235 -155.14043 8353906
-29.559586 -47.89769 -156.34723 8880246
-28.766254 -47.82431 -156.25308 10261641
-27.777149 -47.732895 -156.13065 10196107
-137.45113 -47.141624 -126.20891 10327949
-136.88324 -47.218727 -126.80423 12170409
-136.37479 -47.445335 -127.25058 8814707
-25.844767 -47.52935 -157.23109 11381404
-24.855278 -47.438263 -157.08862 10262926
-24.065512 -47.365669 -156.97136 7564643
-22.896675 -47.232826 -158.15523 8881015
-21.907251 -47.142204 -157.99281 7169629
-21.117617 -47.069885 -157.85968 6511954
-19.724848 -46.916908 -158.98941 7563619
-19.131498 -46.862732 -158.87993 7563619
-18.34199 -46.790665 -158.73154 8287340
-16.726782 -46.617737 -159.80122 9208435
-138.28386 -46.11087 -125.95303 7563874
-137.74867 -46.328011 -126.37823 8353646
-137.17142 -46.402229 -126.96677 9011832
-16.133886 -46.563843 -159.67992 10787468
-15.34516 -46.492256 -159.51556 11313812
-14.100534 -46.353241 -160.64641 7564651
-13.310371 -46.281715 -160.46976 9011581
-12.325377 -46.192642 -160.24519 14077894
-11.055794 -46.051552 -161.3569 7564643
-10.463833 -45.998222 -161.21297 7827303
-9.6748238 -45.920258 -160.99391 8485492
-8.3837471 -45.784355 -162.1154 10984593
-7.5927773 -45.698471 -161.8553 10130311
-140.26013 -44.892776 -125.29919 7169634
-139.58318 -44.990952 -125.90713 8748151
-138.72084 -45.45134 -126.22554 9011321
-138.06912 -45.700172 -126.66913 7037274
-5.489502 -45.474327 -162.69366 9537409
-4.7008629 -45.38842 -162.4166 10261132
-3.3656578 -45.247917 -163.5085 7563619
-2.5772972 -45.161949 -163.21794 8353391
-0.62984467 -44.95472 -164.07202 12235172
-0.040111542 -44.890366 -163.84283 10459019
2.1234665 -44.659447 -164.58984 7039331
-147.4463 -44.426453 -123.62245 8092016
-146.85416 -44.426727 -124.33371 7039331
-144.0062 -44.422829 -124.33561 9735558
-143.55956 -44.423012 -124.8567 10525073
-143.11119 -44.423195 -125.3763 10787988
-141.53165 -44.613174 -125.20992 9142907
-140.92889 -44.612495 -125.88996 8419443
2.9070053 -44.573883 -164.26907 7235421
4.1111183 -44.447655 -165.39627 10262929
4.6988525 -44.383461 -165.1461 9209979
6.1171532 -44.223854 -166.14764 10460308
6.8973274 -44.121094 -165.73598 10460308
8.9143677 -43.861595 -166.32812 8551537
10.75935 -43.651268 -167.10725 9932676
11.343414 -43.586533 -166.82465 7564643
13.0266 -43.445633 -167.87265 8419440
13.807522 -43.372063 -167.53032 9603456
15.713375 -43.218666 -168.50665 6511954
16.492893 -43.145004 -168.1488 8092019
18.423588 -42.98909 -169.10277 9209211
19.20145 -42.915283 -168.72946 8617334
20.573624 -42.81237 -169.95132 11904668
21.157108 -42.756874 -169.66101 10260873
23.331417 -42.577606 -170.48276 8156012
23.913296 -42.522148 -170.18083 9210491
25.292736 -42.341492 -171.09558 14209736
26.302479 -42.317497 -170.85341 8881015
27.162308 -41.980904 -171.67157 9012089
28.107319 -41.897934 -171.65462 11183002
29.201794 -41.768822 -171.89005 10919571
30.037632 -41.785973 -171.82678 10788244
28.406822 -41.360588 -172.20479 8617331
29.121307 -41.248291 -172.25769 11051414
30.00407 -41.06395 -172.34276 10919829
31.039433 -40.995995 -172.40106 10853778
32.067421 -40.886673 -172.48747 9998725
32.942577 -40.720673 -172.59827 9538175
30.188446 -40.185524 -172.71625 10459019
30.909233 -40.075233 -172.77696 11511194
31.912579 -40.047089 -172.81551 10130054
32.985046 -40.092789 -172.82893 10327434
33.623276 -40.113106 -172.80321 8813686
31.960426 -39.314613 -173.08456 9406332
32.963696 -39.0411 -173.21265 9735042
33.980865 -39.05191 -173.07576 10524303
34.52422 -38.609962 -173.02922 11379356
33.839912 -38.047218 -173.49936 9932422
34.768513 -37.971489 -173.18126 8550770
34.2267 -37.155434 -173.7224 10853012
35.028271 -37.12249 -173.41 8814969
34.936821 -36.160385 -173.82579 10460048
35.795246 -35.982597 -173.5473 8223090
35.898724 -35.029686 -173.88039 10460048
36.599709 -34.751205 -173.70546 9538948
36.043758 -34.139778 -174.17175 11051927
36.770267 -34.071342 -173.90379 8815227
36.848675 -33.197014 -174.21611 9275777
37.674072 -32.887344 -174.00293 9736071
36.989494 -32.206413 -174.54878 9933193
37.811012 -31.967651 -174.30937 9735815
38.632065 -31.729727 -174.06967 9012350
37.871037 -31.228094 -174.59447 10393230
38.701656 -30.997128 -174.39224 9209472
38.796387 -30.395212 -174.82756 9209472
39.744629 -30.011141 -174.81401 8617848
40.77314 -29.672045 -174.82318 8092011
41.601292 -29.360598 -175.53136 8552049
42.421036 -29.344936 -175.24666 9538174
45.700527 -29.24313 -176.74135 9933191
46.546291 -29.241636 -176.52197 10788244
47.17989 -29.240513 -176.35489 9143675
49.430599 -29.110256 -177.94055 8814715
50.265778 -28.867331 -177.64711 9932679
50.429455 -28.030052 -177.90723 9932422
51.166492 -27.966236 -177.58778 10261387
50.417377 -27.327793 -178.1954 10261387
51.254433 -27.086048 -177.90062 10064008
51.347237 -26.159691 -178.23019 10130057
52.030041 -26.113541 -177.92894 10656657
52.271038 -25.0793 -178.23343 9406846
53.133049 -24.618196 -178.01562 9735811
52.384129 -23.971857 -178.62752 9735811
53.124725 -23.911289 -178.30493 9472382
53.293839 -23.066185 -178.56683 9800320
54.135235 -22.827112 -178.26906 9734014
53.38612 -22.176374 -178.88275 10260101
54.128254 -22.117142 -178.55893 8616048
54.198792 -21.111406 -178.93188 9273720
54.901241 -20.737764 -178.75351 11049872
54.440529 -19.92766 -179.29646 10262156
55.184795 -19.869904 -178.97104 10392970
55.152351 -19.020407 -179.32918 8354158
55.914246 -18.933132 -179.0074 8682867
55.454117 -18.118361 -179.55191 6511954
56.071709 -18.108627 -179.26642 8551280
56.713264 -17.874388 -179.06026 11904668
56.224972 -17.072157 -179.61302 8551537
56.932674 -17.121956 -179.26132 10655629
57.046013 -16.073601 -179.69728 9932675
57.946484 -15.76687 -179.4807 10524299
57.969749 -15.072125 -180.05017 9866883
58.854702 -14.842749 -179.84482 9998727
60.091766 -14.345865 -180.70169 10459278
60.719749 -14.339931 -180.42435 8682867
-129.05611 -56.708099 -129.46172 9143675
-128.31847 -57.082138 -129.65611 9209723
-127.35649 -57.123344 -130.24232 9538944
-126.60037 -57.223083 -130.51405 8682611
-125.61008 -57.270142 -130.95779 8221548
-124.88069 -57.223938 -131.45776 8813685
-122.28027 -57.097038 -131.23991 7038307
-121.68593 -57.040054 -131.55109 8089963
-120.69432 -56.945198 -132.06435 9142649
-119.70164 -56.850594 -132.57144 8879477
-118.9066 -56.77507 -132.97224 8616818
-118.30991 -56.718506 -133.27022 9143419
-129.97212 -55.849152 -129.12964 9143675
-129.3101 -56.001671 -129.58966 8485745
-128.42801 -56.290154 -130.15419 10065288
-127.66982 -56.645683 -130.55957 11381404
-115.29805 -56.518097 -133.08229 8288880
-114.70595 -56.462418 -133.36847 7892584
-113.91586 -56.38842 -133.74654 7563619
-112.9274 -56.296143 -134.21307 10261128
-111.93803 -56.204086 -134.67366 9340027
-111.1459 -56.130653 -135.03735 8089963
-110.35323 -56.057411 -135.39699 8879475
-106.0455 -55.734665 -135.6992 8288108
-130.3183 -55.190544 -129.16072 9143675
-129.46205 -55.156128 -129.86446 8090987
-128.7198 -55.351524 -130.36884 9933702
-105.05331 -55.640694 -136.10916 5920074
-104.25925 -55.565742 -136.43243 5920074
-103.26627 -55.472275 -136.83072 5919050
-102.27287 -55.379135 -137.22302 6379600
-101.47781 -55.304871 -137.53224 5919050
-100.4838 -55.212227 -137.91301 8089962
-99.48938 -55.119957 -138.28789 10524560
-98.69368 -55.046318 -138.58315 12433069
-131.20116 -54.254295 -128.89111 11380380
-130.38036 -54.295464 -129.5309 8090987
-129.69402 -54.268295 -130.09477 7564643
-92.538651 -54.558182 -139.31206 9933961
-91.552658 -54.468857 -139.64186 13354939
-90.76384 -54.397614 -139.90128 9012857
-89.770782 -54.304626 -140.20888 7236702
-88.735672 -54.18647 -140.44499 7762533
-87.90094 -54.087746 -140.61745 7630696
-87.067047 -53.989311 -140.78577 8617080
-132.09674 -53.062935 -128.73108 8616306
-131.30287 -53.265999 -129.27324 7695205
-130.47974 -53.476257 -129.83549 7564643
-82.194672 -53.35643 -143.0744 8616818
-81.150787 -53.234962 -143.24446 10261894
-80.31691 -53.138123 -143.37598 10261894
-79.277176 -53.01815 -143.53638 9471868
-78.247147 -52.904045 -143.70587 9735039
-77.221512 -52.792274 -143.87395 7169891
-76.19722 -52.680893 -144.03648 6511962
-132.94048 -52.078041 -128.51566 9340544
-132.26402 -52.169655 -129.01585 10458249
-131.6544 -52.099625 -129.53824 10458249
-75.378891 -52.59201 -144.16191 7761513
-74.3573 -52.481354 -144.31319 9932679
-71.316559 -52.098816 -146.07042 9537667
-70.701614 -52.032883 -146.14465 7630187
-69.678131 -51.923302 -146.26353 7629928
-68.656204 -51.814095 -146.37701 8616307
-67.636139 -51.705406 -146.48425 8287342
-133.92848 -51.035469 -128.0226 10064780
-133.25786 -51.25956 -128.61382 7564393
-132.44652 -51.306259 -129.27441 8484719
-66.617783 -51.597069 -146.58611 9735040
-65.804428 -51.510674 -146.66328 13023917
-62.939266 -51.177673 -148.29288 8223346
-61.9352 -51.082726 -148.39856 8616822
-60.932491 -50.988037 -148.49777 8551026
-59.931103 -50.89357 -148.59148 8813936
-58.931179 -50.79937 -148.67876 6840918
-57.932671 -50.705399 -148.76048 8484976
-134.05901 -50.321747 -128.2688 7564651
-133.33815 -50.365852 -128.99896 7564651
-55.851589 -50.484688 -150.29094 9011579
-55.249653 -50.428268 -150.32663 9011579
-54.247646 -50.334465 -150.38132 8879992
-53.047359 -50.222206 -150.43951 9275003
-52.048901 -50.128975 -150.48181 10459275
-51.450596 -50.073189 -150.50439 9341307
-49.913918 -49.905045 -151.9192 10590603
-49.312634 -49.849091 -151.93126 10064777
-48.31155 -49.755692 -151.94553 10459535
-47.310829 -49.661026 -151.94981 8551026
-134.91063 -49.020195 -128.02846 8091242
-134.3015 -49.313225 -128.55135 7959405
-133.68867 -49.702576 -129.02534 7564651
-46.511559 -49.585381 -151.94855 9142651
-44.525009 -49.372208 -153.28636 9933196
-43.523125 -49.277779 -153.26334 7893613
-42.5233 -49.183578 -153.23526 9077371
-41.725079 -49.108498 -153.20856 10195339
-40.299351 -48.949226 -154.50832 11380380
-39.698357 -48.892815 -154.47824 11380380
-38.698601 -48.799149 -154.4238 8813942
-37.701077 -48.705803 -154.36429 9735043
-135.80656 -47.896355 -127.64064 6511954
-135.22696 -48.169289 -128.14137 8222570
-134.70116 -48.129845 -128.75363 7761509
-35.83979 -48.506554 -155.59357 10064009
-34.840508 -48.413399 -155.51358 8089963
-33.84388 -48.320633 -155.42804 8484977
-31.949955 -48.119164 -156.60971 7235421
-30.952141 -48.026619 -156.50381 7367269
-30.155611 -47.952858 -156.41574 8090987
-28.830397 -47.804695 -157.62759 10787985
-28.031853 -47.730942 -157.52615 11314072
-27.035986 -47.639076 -157.39514 9143934
-136.08832 -47.179024 -127.71888 7433055
-135.4183 -47.303726 -128.40271 8025192
-26.439814 -47.584137 -157.3141 11381404
-25.283569 -47.452065 -158.52438 9671047
-24.287056 -47.360451 -158.37386 8683637
-23.491713 -47.287437 -158.25035 7564643
-22.109543 -47.134911 -159.4091 7563619
-21.31292 -47.061981 -159.27211 7563619
-20.319405 -46.971184 -159.09685 7563619
-19.109846 -46.834717 -160.26895 5919050
-18.512472 -46.780327 -160.15454 8814454
-17.519247 -46.689835 -159.95996 11511446
-136.82878 -46.260315 -127.46575 7169372
-136.25084 -46.335899 -128.05399 8222570
-135.71751 -46.555809 -128.47827 13551541
-15.687733 -46.497162 -160.98984 8616816
-14.694748 -46.407097 -160.77657 8617080
-12.640547 -46.194702 -161.73218 9735556
-11.649063 -46.105133 -161.49901 7564643
-10.365009 -45.962631 -162.61884 9010808
-9.769207 -45.908989 -162.46973 9931910
-8.9767609 -45.837646 -162.26834 10392461
-7.669445 -45.693192 -163.37317 9537150
-7.0741119 -45.639786 -163.21324 9537150
-138.90555 -44.893547 -126.81768 8616563
-138.04573 -45.213692 -127.31853 7300702
-137.28502 -45.497604 -127.78429 7037274
-136.71729 -45.706627 -128.18015 6511954
-6.4791718 -45.582146 -163.03609 8089963
-6.0827217 -45.539001 -162.8997 9537409
-4.7527924 -45.399124 -164.01003 8945784
-3.9590836 -45.312599 -163.72441 8813686
-2.2111816 -45.127182 -164.67526 9998728
-1.2214813 -45.019234 -164.29948 8682867
0.15224838 -44.874557 -165.3812 8682867
0.94285965 -44.788292 -165.0665 9407106
2.5352325 -44.61972 -166.05602 8486262
-149.45468 -44.430817 -124.67976 15722454
-146.40749 -44.426926 -124.8649 7039331
-145.80905 -44.427185 -125.57085 8090992
-142.66083 -44.42337 -125.89395 7563619
-142.05754 -44.423599 -126.58186 8353135
-140.62692 -44.612297 -126.2295 7169634
-140.02184 -44.612572 -126.90744 7959149
3.127552 -44.555084 -165.80972 9473414
3.7183342 -44.490547 -165.56221 11907239
4.9376907 -44.362717 -166.69966 10788244
5.5288048 -44.297554 -166.44066 9143675
6.960968 -44.11869 -167.38312 7564643
7.7449303 -44.015305 -166.96156 10656910
9.3901138 -43.806656 -167.77559 9867139
10.173603 -43.716194 -167.38876 9143417
11.455433 -43.593513 -168.54843 7564643
11.84938 -43.556519 -168.38057 7563619
12.438705 -43.501022 -168.12738 7563619
14.341873 -43.348145 -169.12608 7959400
15.126934 -43.274124 -168.77338 6511954
16.466438 -43.174408 -170.02499 5920074
17.251434 -43.100105 -169.65805 8288106
19.198612 -42.927849 -170.56479 8288627
19.988171 -42.867966 -170.23993 10260873
21.117702 -42.648392 -171.03932 9537408
22.134323 -42.63382 -170.86081 8813942
22.74358 -42.624916 -170.74977 8813942
22.215118 -42.343094 -171.50117 8813686
23.065453 -42.171906 -171.62001 10064265
23.994293 -42.044495 -171.6412 12893875
24.983578 -41.839638 -171.86296 15459547
26.030025 -41.867981 -171.83632 10525584
26.89016 -41.700684 -171.95798 10261900
24.894974 -41.097275 -172.23314 11710113
25.883293 -41.063377 -172.27344 9012601
26.940239 -41.102394 -172.28906 10261900
27.91663 -41.097427 -172.31578 8946038
29.085484 -40.768318 -172.47189 9076851
26.127605 -40.447968 -172.50554 7827814
26.906525 -40.059395 -172.66965 9735555
27.846436 -40.09417 -172.6835 8748660
28.859661 -40.080635 -172.71704 9274487
29.921104 -39.895775 -172.81473 9537659
30.641655 -39.785049 -172.87553 11576729
27.972664 -39.124191 -173.04192 9077365
28.757984 -39.083664 -173.07896 9274487
29.825485 -39.124382 -173.0941 9340023
30.895107 -39.166405 -173.10876 9735297
31.712765 -38.709358 -173.29878 8682867
32.438313 -38.598732 -173.35951 8682867
28.794674 -38.457047 -173.30901 9273972
29.712616 -38.155716 -173.44492 9537917
30.746597 -38.111099 -173.49025 10261384
31.834198 -37.94339 -173.58211 8682867
32.695602 -37.977837 -173.59367 8879991
33.356991 -37.79406 -173.67944 9735043
30.584126 -37.264389 -173.79514 11445146
31.673317 -37.095184 -173.88751 10590092
32.75169 -37.137146 -173.9025 8090731
33.612637 -37.16761 -173.89494 10261131
31.713806 -36.464478 -174.11909 10129798
32.656242 -36.13092 -174.26749 8156523
33.684696 -36.113914 -174.28119 9932166
34.407829 -35.992378 -174.10663 13222322
33.8232 -35.13002 -174.63632 10327694
34.775967 -35.030632 -174.33572 12696492
34.683128 -34.064064 -174.75388 9012862
35.440067 -34.16217 -174.40799 12038820
34.910149 -33.125893 -175.03094 7565675
35.663258 -33.151161 -174.71532 10525327
36.353416 -32.651253 -174.63196 10393486
35.654221 -32.111492 -175.12822 9143419
36.524254 -31.968422 -174.83133 10327693
36.612591 -31.098598 -175.19514 11050647
37.298595 -30.93631 -174.9895 10524815
37.50927 -30.373091 -175.36938 10327181
38.409016 -29.876135 -175.47104 9275008
39.342041 -29.701159 -175.3141 8092019
39.547924 -29.40159 -176.23848 8092019
40.370144 -29.384867 -175.95636 8552049
43.369347 -29.247213 -177.32388 9405822
44.21785 -29.245733 -177.11536 10326924
45.065544 -29.244246 -176.90338 10656657
48.228378 -28.926628 -178.5775 10064779
48.966976 -28.86088 -178.25797 10327694
49.128723 -28.022436 -178.51955 10196107
49.966347 -27.779356 -178.22502 10261387
49.213467 -27.14052 -178.83466 9801095
49.953434 -27.076376 -178.51382 9932678
50.1264 -26.140558 -178.80998 10129801
50.849628 -25.702087 -178.64806 10261387
50.225529 -25.129045 -179.17184 9932166
51.066677 -24.887259 -178.87532 10853524
51.01107 -24.077354 -179.22836 10984849
51.769943 -23.985828 -178.90968 10261898
51.221539 -23.333479 -179.43002 10984849
52.064606 -23.092632 -179.13217 10787727
52.010353 -22.279249 -179.48599 11905950
52.770767 -22.189049 -179.16603 10392712
52.222614 -21.5327 -179.68785 12432037
53.033466 -21.12607 -179.47205 9537917
53.548115 -20.614298 -179.43747 9932675
53.205811 -19.950323 -179.866 9011315
53.823467 -19.938892 -179.58115 9471867
53.916847 -19.041649 -179.89961 9406331
54.534988 -19.030863 -179.61429 9735812
54.071491 -18.215988 -180.16043 9012088
54.835812 -18.128395 -179.83762 8354159
54.859577 -17.067135 -180.25491 9275260
55.689842 -16.877384 -179.9424 8222572
55.795689 -15.911981 -180.36848 9603968
56.60099 -15.63851 -180.22006 10261382
56.822601 -15.02015 -180.62833 10129796
57.630676 -14.745896 -180.47951 9735296
58.624157 -14.360462 -181.34766 9538176
59.463261 -14.351999 -180.97867 8682867
66.972702 -14.224504 -183.6212 11905951
-126.41588 -56.998985 -131.15984 8813685
-125.72423 -56.970863 -131.70398 9405822
-124.745 -57.024994 -132.1575 10392717
-123.77055 -57.14904 -132.18666 9932423
-122.7798 -57.05764 -132.7202 9208958
-121.97806 -56.981071 -133.13362 8089963
-121.37634 -56.923775 -133.44096 8089963
-127.55583 -56.052597 -130.96504 8946808
-126.71182 -56.223839 -131.54184 7827560
-125.87698 -56.429207 -132.07249 8485234
-117.71274 -56.66214 -133.56555 7630181
-116.91591 -56.587044 -133.95581 8288880
-116.11853 -56.512093 -134.34193 8288880
-115.32048 -56.437286 -134.72383 9340030
-114.32204 -56.344131 -135.19521 9603197
-113.52269 -56.269669 -135.56808 8089963
-109.75845 -56.002556 -135.66406 10260100
-109.16328 -55.947746 -135.92865 10260100
-108.36783 -55.874138 -136.27612 8814710
-107.36641 -55.77906 -136.69638 8222572
-106.56474 -55.703064 -137.02832 6445650
-128.56854 -55.047356 -130.63298 8222830
-127.75124 -55.09259 -131.26804 7894123
-127.06741 -55.069099 -131.82822 7039331
-106.16385 -55.665176 -137.19257 6445650
-105.5623 -55.608421 -137.43698 6445650
-104.55937 -55.514061 -137.83916 6708822
-103.55611 -55.419991 -138.23544 6905944
-102.95396 -55.363625 -138.47012 6510930
-97.698837 -54.954559 -138.94656 11050646
-96.703812 -54.863144 -139.30418 10457481
-95.907654 -54.79023 -139.5856 8484205
-95.111389 -54.717415 -139.8632 11643036
-129.35103 -54.255203 -130.37636 8617331
-128.66533 -54.230003 -130.93884 7630953
-127.84663 -54.275703 -131.57475 7565160
-94.51413 -54.66301 -140.06883 7564651
-93.916885 -54.608704 -140.27219 7564651
-92.921371 -54.518448 -140.60606 7564904
-91.925888 -54.428543 -140.93431 10460303
-91.129456 -54.356796 -141.19234 9012857
-90.133911 -54.267448 -141.50934 8551537
-89.123276 -54.169174 -141.79663 9077880
-88.279938 -54.069679 -141.96622 8288369
-87.227173 -53.945648 -142.17227 10458767
-86.17572 -53.82206 -142.37234 13550261
-85.335663 -53.723457 -142.52776 8419702
-130.41553 -52.837677 -130.18671 8354159
-129.5825 -53.367226 -130.60718 8946296
-128.72369 -53.336174 -131.31137 8091245
-84.706345 -53.649712 -142.64166 13023917
-84.077576 -53.576172 -142.75323 11379352
-83.240021 -53.478294 -142.89861 6511954
-79.363602 -52.969414 -144.90852 10326922
-78.533997 -52.878983 -145.04463 9011574
-77.705292 -52.788857 -145.17686 8616822
-76.877594 -52.698914 -145.30521 9734788
-131.30933 -52.08593 -129.82184 9010806
-130.61948 -52.05938 -130.38817 9011833
-129.7112 -52.340073 -130.98586 9472383
-129.06808 -52.675995 -131.34459 8617331
-76.257355 -52.63166 -145.39902 9734788
-75.637802 -52.564545 -145.49039 7563619
-74.60643 -52.452988 -145.63783 9471872
-73.576492 -52.341866 -145.77966 13550517
-72.54837 -52.231163 -145.91522 12103329
-71.726852 -52.142899 -146.01981 12103329
-69.057556 -51.802414 -147.67528 9208444
-68.027557 -51.69278 -147.77997 8287342
-132.2946 -50.999756 -129.54025 7563619
-131.54393 -51.195457 -130.05127 9931906
-130.67998 -51.162811 -130.76031 9143417
-66.999496 -51.583572 -147.87846 8682867
-65.973221 -51.474747 -147.97154 8682867
-64.952591 -51.369354 -148.06677 11381404
-63.944538 -51.272842 -148.1815 11381404
-61.092587 -50.977455 -149.89159 8681835
-60.28371 -50.90126 -149.96323 8681835
-59.273781 -50.806152 -150.04794 8681835
-58.26548 -50.711342 -150.12636 8418928
-132.47166 -50.330994 -129.71188 8616048
-131.60548 -50.297562 -130.42311 8747629
-131.02773 -50.501137 -130.7915 8681835
-57.258636 -50.616722 -150.1992 7761509
-56.454239 -50.541252 -150.25291 9077115
-53.53582 -50.242622 -151.80228 10459275
-52.52742 -50.148506 -151.84239 8682867
-51.520885 -50.054611 -151.87631 8881013
-50.515961 -49.961044 -151.90483 9341307
-48.351887 -49.734047 -153.32196 11380380
-47.745594 -49.676567 -153.3217 9143163
-133.92549 -48.808144 -129.2516 7761509
-133.36258 -49.23838 -129.50841 7959144
-132.59344 -49.208435 -130.14095 9405046
-132.01366 -49.411957 -130.51096 8681835
-46.736885 -49.581169 -153.31662 8813686
-45.529125 -49.467049 -153.30336 8616566
-43.51907 -49.25174 -154.63483 9143681
-42.913612 -49.194778 -154.61537 10525075
-41.906345 -49.100075 -154.57838 8089962
-40.901306 -49.005653 -154.53622 9077115
-38.852318 -48.787979 -155.80194 9340540
-38.046787 -48.712646 -155.75111 9143163
-37.242821 -48.63752 -155.69687 9143163
-134.25272 -48.134918 -129.25449 8090986
-133.58553 -48.118027 -129.85587 7761509
-133.00369 -48.321571 -130.22763 8681835
-36.640812 -48.581276 -155.65411 9735043
-35.160896 -48.417625 -156.91283 10261388
-34.154675 -48.323959 -156.82373 8484977
-33.150932 -48.23069 -156.72969 8682867
-32.549961 -48.174828 -156.67078 9406590
-31.035969 -48.008713 -157.88887 7038307
-30.23241 -47.934326 -157.79675 8814713
-29.430679 -47.86013 -157.70128 8814713
-27.486416 -47.654808 -158.83711 9800316
-135.05908 -47.158272 -128.88626 6643284
-134.49016 -47.239021 -129.48077 8090986
-133.86183 -47.299835 -130.01799 9210491
-26.283175 -47.543999 -158.66951 8092019
-24.311157 -47.336685 -159.76865 9341822
-23.508881 -47.263138 -159.64072 8420464
-22.708662 -47.189735 -159.50951 8420464
-20.70883 -46.980629 -160.56496 14671311
-19.708519 -46.889313 -160.38142 10262156
-17.68322 -46.678436 -161.40233 8551282
-16.883286 -46.605759 -161.23988 8485488
-135.88425 -46.122978 -128.63454 11182996
-135.45503 -46.133881 -129.1572 8814707
-134.7729 -46.421379 -129.64664 8222572
-16.484192 -46.569481 -161.15738 7038298
-15.03368 -46.411232 -162.27284 7959152
-13.834669 -46.30265 -162.00589 10458511
-11.960091 -46.106415 -163.00804 9735556
-10.962147 -46.01638 -162.76617 9340286
-9.6632843 -45.87233 -163.89424 8089963
-9.0636902 -45.818466 -163.73978 9010808
-8.2661934 -45.746758 -163.53125 10260871
-6.9439735 -45.600746 -164.64436 8089963
-137.84706 -44.896187 -127.99451 6510930
-137.24474 -45.029816 -128.46385 7169116
-136.44891 -45.302216 -128.98665 8353645
-6.1454468 -45.529243 -164.42343 8419952
-5.3490143 -45.457977 -164.20004 10261899
-4.0026474 -45.310066 -165.29529 9144449
-3.2052269 -45.235291 -165.04591 9933708
-1.2392082 -45.026344 -165.92517 9801092
-0.44301987 -44.939529 -165.6153 9538175
0.94701004 -44.793091 -166.70544 7039331
1.7423744 -44.706306 -166.38184 9407106
-148.85683 -44.431099 -125.40017 8618102
-148.25613 -44.431374 -126.1181 8683635
-145.05611 -44.427498 -126.44912 8090992
-144.45042 -44.427742 -127.14879 13023917
-141.29852 -44.423866 -127.43747 8419443
-140.68805 -44.424072 -128.11905 9209467
-139.26379 -44.613609 -127.75333 8485491
-138.65576 -44.615166 -128.42877 8617335
3.5511284 -44.51413 -167.29324 11052188
4.3445816 -44.427521 -166.95493 9473414
5.7773323 -44.274673 -168.01172 10788244
6.3700752 -44.196579 -167.69781 10788244
8.2117615 -43.959824 -168.416 8092011
10.269947 -43.708427 -169.06085 9472381
11.060837 -43.630615 -168.71562 7564643
13.159172 -43.459702 -169.65033 8682868
15.066936 -43.252129 -170.45123 8880502
15.873844 -43.225815 -170.28046 8090986
16.963863 -42.963982 -170.92685 7695970
17.889839 -42.758133 -171.09644 7695970
18.772247 -42.746574 -171.08444 7828331
19.89389 -42.661324 -171.22783 8683128
18.96949 -42.140114 -171.64276 8288627
19.857639 -42.134308 -171.64993 8748921
20.862648 -42.08252 -171.69766 9471873
21.753216 -42.078133 -171.70168 10524047
22.793659 -41.678848 -171.94489 7563619
19.973938 -41.490349 -171.95032 9537923
20.818806 -41.308975 -172.04053 8550771
21.787716 -41.072762 -172.15431 8089963
22.723888 -40.954674 -172.22397 7563619
23.775158 -40.989532 -172.24092 8617338
24.627701 -40.810959 -172.33028 7564651
21.987778 -40.170876 -172.48991 8813686
22.76194 -40.125992 -172.52823 8682357
23.728745 -40.198868 -172.52887 7564651
24.790043 -39.984818 -172.63719 8748666
25.688377 -39.932495 -172.68169 8748916
26.383747 -39.623589 -172.8143 8682867
23.001183 -39.510345 -172.76021 9735046
23.692154 -39.199516 -172.89346 7564651
24.573296 -39.075485 -172.96371 8814202
25.655613 -38.931061 -173.04712 9669248
26.629635 -39.006378 -173.04709 10195591
27.412968 -38.964554 -173.08453 9669245
24.752419 -38.317085 -173.24626 9735046
25.611855 -38.136543 -173.33658 9472126
26.674732 -38.17234 -173.35347 12103072
27.626221 -38.055962 -173.42279 10195330
28.617622 -37.821976 -173.53609 10523527
29.485752 -37.643776 -173.6256 10654857
25.644108 -37.510757 -173.56628 8682867
26.652679 -37.264969 -173.68451 10853262
27.596554 -36.947601 -173.82695 9208435
28.578083 -37.023544 -173.82678 10457734
29.611813 -36.976364 -173.87305 9932162
30.610199 -36.844582 -173.94923 11379356
27.63158 -36.319435 -174.05753 9537144
28.500351 -36.138702 -174.14793 10260355
29.485237 -36.21492 -174.14775 9932420
30.504116 -35.945747 -174.2747 9932678
31.487297 -35.949791 -174.3009 9472382
32.200508 -35.638496 -174.43466 9537918
28.751312 -35.516243 -174.38246 10654857
29.408775 -35.327942 -174.46971 9735299
30.423027 -34.983383 -174.62415 10458766
31.465363 -34.93557 -174.67087 9472126
32.458611 -35.013748 -174.6702 8419951
33.258801 -34.972832 -174.70761 9011831
30.550922 -34.311821 -174.87308 10655889
31.340446 -34.169884 -174.94716 8946038
32.386707 -34.121941 -174.99405 8090987
33.397911 -33.988602 -175.07118 8551539
34.151253 -33.894348 -175.03653 8486005
32.436722 -33.360291 -175.27379 9801089
33.34156 -32.882103 -175.47397 9800835
34.318165 -32.936241 -175.34589 9077627
34.94001 -32.701691 -175.18581 8814712
33.731064 -32.299831 -175.69765 8814712
34.3769 -32.086487 -175.65654 9077627
35.124817 -31.98889 -175.39134 8551539
34.641552 -31.230444 -175.90216 10063750
35.422798 -31.052231 -175.70857 9143419
36.143719 -30.574268 -175.75859 9735043
35.594078 -30.192295 -176.29785 8090987
36.424538 -30.066599 -176.06393 9932679
37.291718 -29.745298 -176.0092 9734787
38.105282 -29.432066 -176.72968 8681843
38.930122 -29.414509 -176.44933 10261132
41.243557 -29.250895 -177.82654 8813942
42.094517 -29.249426 -177.62823 11904927
42.944656 -29.247952 -177.42645 9405822
46.991566 -29.074341 -179.09731 13354427
47.690372 -28.869768 -178.85231 10065544
47.062462 -28.303192 -179.37434 11906207
47.902119 -28.058022 -179.07968 11117461
47.841267 -27.252779 -179.43216 10788753
48.599438 -27.157692 -179.1153 10262666
48.04707 -26.51194 -179.63451 10788753
48.852982 -26.103384 -179.42175 10327180
49.567402 -25.587738 -179.29512 10392461
49.015522 -24.938591 -179.81578 9932166
49.759178 -24.875378 -179.49286 9340285
49.836624 -24.07597 -179.77927 9011576
50.561386 -23.792521 -179.55408 9274747
50.009724 -23.139374 -180.0762 8551281
50.754818 -23.077688 -179.75201 9801089
50.769188 -22.098383 -180.14062 9537918
51.528252 -21.903658 -179.86353 10392969
51.031124 -21.111347 -180.41634 8090987
51.791298 -20.916798 -180.13863 8814452
52.31308 -20.63826 -180.00661 9011315
51.823212 -20.051479 -180.47298 8090213
52.587391 -19.96203 -180.15102 8748143
52.03598 -19.300264 -180.67659 9340539
52.797924 -19.106554 -180.39771 8616556
53.321278 -18.827873 -180.26494 9932675
52.831577 -18.237328 -180.73285 9800832
53.536274 -18.075224 -180.46809 10459278
53.046143 -17.483078 -180.93683 11182228
53.713821 -17.020782 -180.81056 9537920
54.35833 -16.785021 -180.60364 8617331
53.807373 -16.115784 -181.13211 9406078
54.570541 -15.841608 -181.00266 9603457
55.356865 -15.655386 -180.78981 9735812
54.621449 -15.225766 -181.49075 10129545
55.502087 -14.993288 -181.27017 9735554
56.383125 -14.761275 -181.04893 9735296
57.573647 -14.371373 -181.80836 9604225
65.431519 -14.227461 -184.17427 9538177
66.312744 -14.225774 -183.85976 13550517
67.099289 -13.812819 -184.65945 9472126
67.401276 -13.100828 -184.80544 10261641
-124.14459 -56.900482 -132.90005 8880248
-123.23004 -56.846603 -133.52107 8945784
-122.31496 -56.793823 -134.13893 8354159
-120.97487 -56.885529 -133.64455 8089963
-120.17148 -56.809311 -134.04799 7958633
-119.36746 -56.733261 -134.44791 9011065
-125.98756 -55.927032 -132.29277 7894126
-125.07639 -56.289421 -132.80046 7959660
-124.21492 -56.344215 -133.42075 9011577
-123.51433 -56.484283 -133.82549 8090987
-118.96515 -56.695213 -134.64612 9011065
-118.36136 -56.638382 -134.9413 7563619
-117.55576 -56.562683 -135.33141 8155499
-116.74956 -56.48716 -135.71718 8155499
-113.1228 -56.232605 -135.75275 8089963
-112.52266 -56.176956 -136.02786 11709090
-111.52177 -56.08445 -136.48105 9208697
-110.52017 -55.992233 -136.92822 10260867
-109.71826 -55.918678 -137.28108 10787211
-108.70998 -55.824249 -137.70963 13023917
-107.6978 -55.728401 -138.12781 10985364
-126.72559 -55.057854 -132.10794 7433832
-126.01817 -55.131134 -132.64163 7762540
-125.20894 -55.382942 -133.17328 7630953
-124.50914 -55.660011 -133.60512 9734788
-107.09023 -55.670952 -138.37564 6445650
-102.55238 -55.32621 -138.62531 7366751
-101.74921 -55.251419 -138.93225 8880509
-100.74503 -55.158241 -139.31085 7564651
-99.941483 -55.083847 -139.6091 8354419
-98.936798 -54.991226 -139.97604 8090730
-97.931976 -54.898857 -140.3372 7037274
-97.127975 -54.825188 -140.62141 7760997
-96.122894 -54.733429 -140.97104 7497825
-127.69438 -53.972374 -131.83942 7565160
-126.95236 -54.1717 -132.34171 7565418
-126.09657 -54.145126 -133.04137 8091248
-95.117706 -54.641945 -141.31477 9208187
-94.313538 -54.569008 -141.58522 8484979
-93.308319 -54.478119 -141.91757 6644311
-92.303024 -54.387611 -142.24408 8683379
-91.498932 -54.315346 -142.50089 9406846
-90.493835 -54.22541 -142.81606 8617073
-89.488861 -54.135704 -143.12556 9932676
-88.450531 -54.026161 -143.37498 11708316
-87.387131 -53.901161 -143.57645 9866371
-86.537567 -53.801537 -143.73291 8814454
-85.68895 -53.702171 -143.88522 8353647
-127.86548 -53.306961 -132.01421 7828074
-127.00769 -53.279396 -132.71596 7762540
-126.43678 -53.485443 -133.07767 7894126
-84.629776 -53.578384 -144.06979 7301220
-83.572113 -53.455017 -144.24847 9998215
-82.516312 -53.332169 -144.42047 11906463
-81.461975 -53.20974 -144.58665 11709339
-80.619919 -53.112137 -144.71494 8090987
-79.989059 -53.039169 -144.80876 6512978
-129.64317 -51.79921 -131.29416 9735555
-128.87196 -52.092957 -131.77571 9077625
-128.03625 -52.257324 -132.3696 8354160
-127.34949 -52.619194 -132.75134 7565160
-75.899368 -52.536568 -146.83719 11050641
-75.066116 -52.446602 -146.95276 7038298
-74.026093 -52.334518 -147.09151 10853520
-72.98764 -52.222923 -147.22467 11379864
-71.950989 -52.111641 -147.35136 9406336
-70.916016 -52.000809 -147.47263 7038307
-70.089294 -51.912476 -147.56514 8287859
-129.81671 -51.132027 -131.46797 9142644
-128.95399 -51.102806 -132.17441 9077368
-128.3795 -51.30838 -132.53934 9537406
-67.391342 -51.573578 -149.20137 8682867
-66.372131 -51.476822 -149.32851 9077625
-65.354019 -51.380272 -149.44983 8682867
-64.337311 -51.284004 -149.5645 9538688
-63.321781 -51.18792 -149.67354 9867655
-62.30772 -51.09214 -149.77606 9012093
-61.497334 -51.015656 -149.8541 9340801
-58.603222 -50.717285 -151.51442 8089963
-57.992943 -50.659958 -151.55693 8089963
-130.6825 -50.218864 -131.20125 9273972
-129.87521 -50.235786 -131.84157 8681835
-129.35652 -50.218552 -132.26605 8681835
-57.383244 -50.602783 -151.59705 8682099
-56.571304 -50.526703 -151.64743 9932937
-55.557804 -50.43174 -151.7048 7498857
-54.54591 -50.33709 -151.75668 10458765
-52.40369 -50.111481 -153.24568 10853265
-51.794125 -50.05468 -153.26326 13023663
-50.779644 -49.960258 -153.28792 11576731
-49.766975 -49.866112 -153.3071 8814710
-48.958275 -49.79097 -153.31822 10722450
-131.70651 -49.02523 -130.93907 8747628
-130.89201 -49.416595 -131.40945 11247762
-130.14499 -49.421059 -132.00726 10787211
-46.965317 -49.57682 -154.7067 9866374
-45.949112 -49.480888 -154.69209 9537409
-44.935032 -49.385185 -154.67224 7564651
-44.125397 -49.308846 -154.65216 7564651
-42.09 -49.091522 -155.97006 7826790
-41.075691 -48.996292 -155.92337 9011576
-40.063568 -48.901443 -155.8716 11709340
-39.457417 -48.844612 -155.83778 9867395
-38.195225 -48.700584 -157.14743 14078918
-37.586578 -48.643791 -157.10429 8618362
-132.65691 -48.037788 -130.63922 9602683
-131.84453 -48.05368 -131.28407 9207667
-131.14857 -48.367462 -131.69576 11839387
-36.978703 -48.58709 -157.0594 7565675
-36.169834 -48.51162 -156.99617 10919318
-34.064842 -48.28965 -158.20464 7959144
-33.457111 -48.233223 -158.14523 7235421
-32.446522 -48.139481 -158.0419 10854036
-31.639767 -48.064644 -157.95587 7038307
-30.309919 -47.915527 -159.19977 7038307
-29.500996 -47.840736 -159.10008 9932419
-28.492186 -47.747589 -158.97133 10984590
-133.43597 -47.133087 -130.43819 8222572
-132.7765 -47.184288 -130.94373 9405046
-132.11771 -47.236259 -131.44836 9010801
-26.729292 -47.558952 -160.13324 9537918
-25.719767 -47.46608 -159.98473 9537918
-24.91398 -47.392044 -159.86269 10263180
-23.525959 -47.238373 -161.05321 9143931
-22.718657 -47.164383 -160.91748 7695717
-21.712109 -47.072357 -160.7439 9077370
-20.094877 -46.898117 -161.87164 11709858
-18.886755 -46.787971 -161.64049 10722707
-17.445778 -46.630089 -162.78638 9932934
-135.2117 -45.719124 -129.85695 7563619
-134.53664 -46.050606 -130.20874 9933446
-133.73723 -46.322746 -130.62552 8288365
-133.06964 -46.371941 -131.12515 9275002
-16.841024 -46.575218 -162.66052 7761765
-16.036367 -46.502151 -162.4902 8485488
-14.167439 -46.305832 -163.52405 8814203
-13.162127 -46.214966 -163.29219 7367781
-11.268887 -46.016876 -164.29759 8946040
-10.264362 -45.926376 -164.04691 8089963
-8.3471756 -45.726601 -165.0235 8089963
-7.5445328 -45.654617 -164.80788 9537150
-136.32748 -44.902969 -129.66934 10260873
-135.66737 -45.065987 -130.16542 9274235
-134.97177 -45.30529 -130.56302 10525071
-134.05147 -45.695976 -130.92894 8090986
-5.4034958 -45.435158 -165.70105 10261899
-4.6019592 -45.363503 -165.4704 9143675
-3.4410553 -45.231796 -166.63443 12433069
-2.638546 -45.160362 -166.39157 9670536
-1.8381157 -45.089149 -166.14641 10985110
-0.45285797 -44.937622 -167.23428 10064008
0.34805298 -44.858482 -166.94626 7565159
2.1549492 -44.666634 -167.879 9078397
-147.95428 -44.431511 -126.47594 8683635
-147.34789 -44.43177 -127.18908 7762533
-144.14607 -44.427856 -127.49746 16777207
-143.53477 -44.428085 -128.19212 9604483
-140.22778 -44.424217 -128.6281 9209467
-139.61133 -44.424408 -129.30415 10591639
-138.19894 -44.616707 -128.93468 7564651
-137.58852 -44.619339 -129.60803 8419701
-136.9769 -44.62249 -130.28035 10260873
2.9541359 -44.57933 -167.5453 13551549
4.382782 -44.42878 -168.62779 10525586
5.1809196 -44.341545 -168.2803 9143675
7.0251732 -44.11631 -169.06104 10196619
9.0832748 -43.851021 -169.67265 14077120
10.345291 -43.59761 -170.36261 8682867
10.954067 -43.585205 -170.2809 8682867
11.978214 -43.492195 -170.29503 8484977
12.837917 -43.201271 -170.85677 9406335
13.746689 -43.074066 -170.91174 9866629
14.777035 -42.882675 -171.08528 8419952
15.835155 -42.746056 -171.23112 10590607
16.795418 -42.611755 -171.33047 9537659
14.11182 -42.567894 -171.37068 9735043
14.74596 -42.175949 -171.55176 9208699
15.704292 -42.034485 -171.63062 9143161
16.703255 -41.977394 -171.67975 8287849
17.77998 -42.08548 -171.65717 8419436
18.497852 -41.860847 -171.77309 7959402
15.807827 -41.377937 -171.87378 9931902
16.708508 -41.105766 -171.99875 10458246
17.69421 -41.01329 -172.06042 9537401
18.682964 -41.091743 -172.05966 9143421
19.647552 -40.929504 -172.14624 8288627
20.635201 -40.682526 -172.26453 8550771
17.723278 -40.187859 -172.36325 9537918
18.566601 -40.003197 -172.45462 10262155
19.613045 -40.031898 -172.47368 8683383
20.660976 -40.061859 -172.49234 8813686
21.433533 -40.015671 -172.53102 9208444
18.798939 -39.388382 -172.68619 13550517
19.559921 -39.243156 -172.76074 10064776
20.548382 -38.969803 -172.8887 7760740
21.545349 -39.050423 -172.88736 8747635
22.548458 -39.028564 -172.92368 10918804
23.462315 -38.69278 -173.0723 7564651
20.738327 -38.196327 -173.17705 7037274
21.46545 -37.967262 -173.28139 8747376
22.434681 -38.036934 -173.28326 9998470
23.491909 -38.068848 -173.30144 7827820
24.48365 -38.030266 -173.34357 9472129
21.828411 -37.394577 -173.50116 8286826
22.472157 -37.204605 -173.58884 7893608
23.417068 -37.083275 -173.65987 7762022
24.445694 -37.002548 -173.71835 8683378
25.414742 -37.001442 -173.74603 9077624
26.248524 -36.832924 -173.83099 9077368
23.580444 -36.192825 -173.98993 7038298
24.354023 -36.048264 -174.06453 6972505
25.380764 -35.995575 -174.11263 7696996
26.36026 -36.06813 -174.11362 9473151
27.328144 -35.994492 -174.16771 9734267
25.419281 -35.241882 -174.3891 8420975
26.327259 -34.957497 -174.51855 9538689
27.361404 -35.110016 -174.49188 9669504
28.352859 -34.96167 -174.57391 9340538
29.446301 -34.696877 -174.70143 9209467
26.674892 -34.187042 -174.80989 9735812
27.330513 -33.996407 -174.89793 9735812
28.190769 -34.023201 -174.91229 9275519
29.268204 -34.057838 -174.9299 8880762
30.280052 -34.020821 -174.97182 9932678
27.580353 -33.37149 -175.13341 9735812
28.306507 -33.252899 -175.19704 9341057
29.203224 -33.059418 -175.29294 8683642
30.253189 -32.979599 -175.35159 8683384
31.279804 -33.066238 -175.34879 8551538
32.094601 -32.810776 -175.46501 10458763
29.380161 -32.157585 -175.62741 9143936
30.111179 -32.038811 -175.69142 9011834
31.129166 -32.000301 -175.73404 9734528
32.217537 -32.03569 -175.75168 10918286
33.090088 -32.064838 -175.76555 11049616
33.76004 -31.87463 -175.85385 10063750
31.168999 -31.363886 -175.96773 10391943
32.149498 -31.144264 -176.10538 9931648
33.08807 -30.953196 -176.26729 10129026
34.045448 -31.037706 -176.21289 10129285
34.718277 -30.6196 -176.30086 9143419
34.153858 -30.228815 -176.78705 9931646
35.011688 -30.010511 -176.68506 9275004
35.859043 -29.783884 -176.52769 9143419
36.246166 -29.473225 -177.35611 11379356
37.073235 -29.454699 -177.07825 10590097
39.751945 -29.253454 -178.16302 10064265
40.604649 -29.251995 -177.9722 9406335
45.685783 -29.050064 -179.71866 13814721
46.407219 -28.763229 -179.49615 14604238
45.850906 -28.120533 -180.01524 13617342
46.594414 -28.053438 -179.694 13551034
46.691154 -27.139433 -180.01666 12169380
47.389717 -26.971928 -179.75677 10788753
46.854214 -26.10388 -180.35814 9867142
47.631176 -26.026543 -180.0253 10393996
47.636448 -25.048929 -180.41753 9538176
48.398483 -24.954693 -180.09845 9866885
47.84277 -24.304029 -180.6216 9144446
48.601654 -24.106787 -180.34555 10130059
49.121677 -23.827354 -180.21463 8090987
48.628185 -23.246809 -180.6803 8420469
49.391598 -23.154057 -180.35997 7827817
48.836235 -22.499367 -180.88451 8091248
49.580978 -22.099533 -180.69695 8485491
50.28471 -21.722694 -180.51929 9537406
49.813087 -20.913708 -181.06689 9734529
50.561909 -20.852962 -180.74051 8418671
50.521049 -20.002892 -181.10283 9274235
51.28714 -19.912748 -180.78026 9603199
50.81625 -19.099031 -181.32941 13023917
51.437748 -19.087095 -181.04305 12103072
52.081196 -18.850348 -180.83704 9340539
51.527149 -18.185663 -181.36502 11182228
52.294727 -18.096767 -181.0412 9340539
51.802002 -17.504461 -181.51123 11182228
52.381054 -17.042778 -181.42621 9077367
53.11536 -16.804804 -181.17815 9340540
52.561371 -16.13522 -181.70807 8090987
53.254322 -15.795247 -181.66061 9208955
53.579319 -15.24052 -181.96759 10853012
54.275932 -14.899599 -181.92316 9735043
55.467728 -14.394399 -182.72795 9011832
56.310898 -14.38498 -182.36037 9275004
63.885738 -14.230405 -184.71436 10721679
64.76973 -14.228725 -184.40755 8090987
66.028519 -13.822347 -185.1572 11050383
65.962173 -13.192009 -185.44263 13418931
66.758255 -13.106191 -185.10445 9997953
66.201263 -12.399764 -185.65045 12234657
66.874634 -12.156734 -185.43311 10524041
67.518768 -12.151669 -185.13345 9011576
67.053406 -11.283374 -185.70192 10129286
67.636688 -11.199659 -185.46246 9932166
67.662033 -10.125819 -185.88399 9208955
-121.39786 -56.741608 -134.7523 8090987
-123.32259 -56.173714 -134.26244 8485489
-122.48895 -56.288727 -134.77989 8946296
-121.60956 -56.422752 -135.30885 8354159
-120.47849 -56.689529 -135.3596 8616307
-119.74226 -56.648605 -135.84283 7563619
-116.14455 -56.430626 -136.00403 7366237
-115.53917 -56.374184 -136.28809 7366237
-114.73151 -56.299049 -136.66338 7366237
-113.72113 -56.205421 -137.12642 8089963
-112.70996 -56.112045 -137.5834 8089963
-111.90051 -56.037529 -137.94398 9405819
-111.0905 -55.963211 -138.30049 10260867
-125.07356 -54.784523 -133.56279 9143163
-124.31107 -55.08197 -134.03552 9208956
-123.48373 -55.251419 -134.62033 8880247
-122.85995 -55.395164 -135.0538 9406847
-106.68512 -55.632851 -138.53957 6445650
-106.07727 -55.575584 -138.78319 6445650
-105.06396 -55.480537 -139.18431 7761765
-104.05026 -55.38578 -139.57941 6510930
-103.23907 -55.310188 -139.89069 7366751
-102.22491 -55.215988 -140.27396 8880509
-101.2104 -55.122078 -140.65132 11512225
-100.39868 -55.047226 -140.94849 7037274
-99.383942 -54.953888 -141.31403 7037274
-98.369003 -54.860855 -141.67368 10262155
-97.556931 -54.78672 -141.95677 9932678
-96.744873 -54.712685 -142.23593 7037274
-125.24113 -54.120453 -133.73982 9274493
-124.38603 -54.097443 -134.43726 9011577
-123.81786 -54.305786 -134.79572 9143163
-126.1785 -53.142853 -133.44588 9406080
-125.38499 -53.276787 -134.02019 9734788
-124.77937 -53.215996 -134.53503 9142651
-84.76239 -53.530777 -145.47827 7038307
-83.907898 -53.43132 -145.61739 7038307
-83.05455 -53.332207 -145.75249 9274748
-81.989517 -53.208763 -145.91541 9538174
-80.926132 -53.085678 -146.07266 9274747
-80.080856 -52.990273 -146.20097 9011576
-79.033218 -52.876282 -146.36903 9275005
-77.987045 -52.762611 -146.53139 8683642
-77.360062 -52.694649 -146.62578 7565675
-127.15155 -52.038048 -133.18292 9537408
-126.29546 -52.409111 -133.69629 9932423
-125.5555 -52.418411 -134.28607 9274493
-76.733643 -52.626778 -146.71782 9867401
-73.433395 -52.214447 -148.55368 8419951
-72.386322 -52.102264 -148.67792 9406076
-71.341232 -51.990555 -148.79581 9734528
-70.297791 -51.879219 -148.90814 9208187
-69.256424 -51.768326 -149.01411 8484721
-68.424469 -51.679977 -149.09521 9011065
-128.12035 -50.964241 -132.90887 8879991
-127.32219 -51.097061 -133.48749 9208698
-126.54286 -51.365501 -133.98726 8945784
-68.009018 -51.635872 -149.13408 8682867
-64.530655 -51.275948 -150.99217 9538688
-63.710201 -51.198387 -151.07613 8486005
-62.685825 -51.101646 -151.17609 9340801
-61.66293 -51.005211 -151.26959 8814198
-60.641502 -50.908974 -151.35736 10457990
-59.621647 -50.813049 -151.43875 9273716
-128.91487 -50.129601 -132.66251 8288368
-128.23946 -50.228378 -133.15855 8288368
-127.49533 -50.236328 -133.75232 8222574
-56.689125 -50.511772 -153.06244 7761772
-55.870411 -50.435173 -153.10545 8485494
-54.848751 -50.33963 -153.15353 10590864
-53.828609 -50.244408 -153.19614 10590348
-53.013981 -50.168388 -153.22581 8814195
-50.842365 -49.940369 -154.69707 8682867
-50.228951 -49.883392 -154.70621 8748404
-49.208057 -49.788521 -154.71635 10459279
-47.983753 -49.673149 -154.71524 9274747
-129.81773 -49.110657 -132.41565 9471351
-129.15984 -49.359352 -132.82724 9537661
-128.37526 -49.290649 -133.4895 9537406
-45.966053 -49.45623 -156.09602 11511449
-45.351929 -49.398361 -156.08147 11050899
-44.330078 -49.302155 -156.05263 9143681
-43.31041 -49.206223 -156.01852 8879994
-42.699791 -49.148796 -155.99535 7037274
-41.047848 -48.96756 -157.32219 8090987
-40.434982 -48.910118 -157.28827 8090987
-39.415531 -48.814713 -157.22728 11051667
-38.601536 -48.738586 -157.17502 11907751
-130.87865 -47.945648 -132.11043 9734523
-130.16443 -48.278748 -132.52765 9208436
-129.36624 -48.287506 -133.16452 9537402
-128.7197 -48.627548 -133.52406 8288368
-36.709438 -48.535782 -158.43938 9209726
-35.690281 -48.440903 -158.35315 12300709
-34.673569 -48.346268 -158.26195 10195593
-32.748013 -48.141228 -159.4774 7827564
-31.730152 -48.046928 -159.36546 7893614
-30.917931 -47.971718 -159.27196 7038307
-28.960999 -47.764549 -160.44138 10392453
-27.741982 -47.652153 -160.27635 10787469
-131.78912 -46.924309 -131.85869 8550507
-131.12679 -47.172935 -132.27393 11115920
-130.33778 -47.102829 -132.94051 8814193
-25.756491 -47.442924 -161.40897 9537918
-24.943653 -47.368362 -161.28241 10262667
-24.132818 -47.293953 -161.15257 10262667
-22.931746 -47.157188 -162.38354 10985876
-22.118809 -47.082893 -162.24109 10985876
-21.105141 -46.990242 -162.05901 13881537
-19.267723 -46.795799 -163.15279 8419952
-18.254347 -46.703651 -162.95096 9538176
-132.78142 -46.073235 -131.57629 9471867
-132.0836 -46.310387 -131.9608 8813935
-131.30156 -46.24263 -132.63844 9471609
-130.68567 -46.437897 -132.97331 9932160
-16.188681 -46.48893 -163.97302 7893354
-15.176453 -46.397148 -163.75075 9208960
-13.490927 -46.217354 -164.83305 7367781
-12.47884 -46.125984 -164.59241 6512729
-10.364075 -45.907768 -165.54973 9472383
-9.5556183 -45.835091 -165.34146 8485488
-8.9506111 -45.780724 -165.1835 8089963
-7.6193047 -45.633385 -166.32124 7564651
-134.76157 -45.029869 -131.09148 9143674
-133.93431 -45.144356 -131.653 7564642
-133.04106 -45.411743 -132.02025 9011315
-132.31401 -45.640717 -132.37808 9011315
-6.6099586 -45.54306 -166.04202 9143675
-4.6499748 -45.339661 -166.99266 8420725
-3.8433418 -45.267723 -166.75455 9144449
-1.8605881 -45.06263 -167.67853 10985110
-1.0550957 -44.991135 -167.42581 10985110
0.14430237 -44.855774 -168.58826 9341054
0.95048904 -44.784363 -168.32324 9735812
2.5746078 -44.611496 -169.34467 8485235
-146.58556 -44.432091 -128.07674 9735297
-146.12552 -44.432266 -128.60721 8090987
-142.61195 -44.428406 -129.22919 10064775
-141.9928 -44.428604 -129.91708 13551287
-138.83601 -44.424629 -130.14508 7564651
-138.21252 -44.424805 -130.81479 7563619
-136.67046 -44.62429 -130.616 15721430
-136.05006 -44.62635 -131.28036 8090218
3.1793365 -44.557045 -169.13235 11445144
3.7821426 -44.494339 -168.88676 10458508
5.8295288 -44.271706 -169.69342 11314845
7.0820312 -44.052643 -170.53419 10065289
7.8935738 -43.912552 -170.39523 9539201
8.7236938 -43.654526 -170.66231 12104102
9.7359962 -43.610413 -170.44336 10459019
8.9405975 -43.274986 -170.91931 10459019
9.6438141 -43.043465 -171.03355 11840415
10.708237 -43.130905 -170.9716 9669505
11.617771 -43.008781 -171.05765 9735300
12.4445 -42.924286 -171.11658 10064265
9.9864807 -42.48864 -171.30289 14076861
10.608646 -42.294746 -171.39146 10327434
11.644463 -42.109108 -171.48865 9800836
