# .PCD v0.7 - Point Cloud Data file format
VERSION 0.7
FIELDS x y z rgb
SIZE 4 4 4 4
TYPE F F F U
COUNT 1 1 1 1
WIDTH 1186
HEIGHT 1
VIEWPOINT 0 0 0 1 0 0 0
POINTS 1186
DATA ascii
-119.36472 -68.037483 -81.376839 9471612
-118.85588 -67.937973 -82.132774 10457736
-121.09365 -66.586952 66.334114 7564651
-121.43807 -66.847992 66.010735 7564651
-119.58797 -67.330101 -81.509445 10063235
-119.14343 -67.072273 -82.27549 9471356
-118.78269 -66.693405 -83.001976 10261132
-121.40249 -65.664207 66.548721 8419702
-119.44416 -66.012169 -82.52037 7761509
-118.94124 -65.904564 -83.273232 7564386
-121.02437 -64.382309 67.337845 8353135
-121.34421 -64.840759 66.943321 9143164
-119.34689 -64.923424 -83.326096 6906456
-118.92429 -64.835457 -83.957222 8024681
-121.23949 -63.623695 67.537865 9867910
-121.67201 -63.972424 67.12265 8092011
-119.56112 -63.976482 -83.619095 7761509
-119.02942 -64.04776 -84.300682 8024681
-118.73724 -63.720726 -84.901512 6511954
-120.92223 -62.469761 68.234047 12434093
-121.48824 -62.711575 67.783936 13947332
-119.34058 -63.090408 -84.467827 7695972
-118.91472 -62.822479 -85.214615 7893352
-121.21657 -61.678795 68.398209 13026230
-121.56844 -62.056572 68.019524 14605262
-119.59229 -62.245613 -84.646538 6511954
-119.24697 -61.982849 -85.411659 7761509
-118.85771 -61.695141 -86.20565 10392718
-121.10067 -60.303513 69.295036 8420720
-121.44165 -60.769691 68.716255 10986647
-119.26495 -61.04034 -86.401054 9471872
-119.11703 -60.721767 -86.920265 10261132
-121.10535 -59.326591 70.462494 10262156
-121.3692 -59.720333 69.690216 8618101
-121.75509 -60.094719 69.086182 8420720
-119.54912 -60.301861 -87.235458 10261132
-121.42894 -58.575226 78.921509 9208443
-121.36984 -58.900101 77.642113 14603974
-121.58035 -58.901901 76.680725 11248535
-121.43562 -58.903549 75.63826 8090987
-121.46203 -58.905254 74.64373 8288111
-121.48128 -58.906956 73.650406 7169634
-121.3271 -58.908558 72.627617 7827306
-121.41688 -58.968761 71.625412 7367269
-121.49534 -59.148785 70.885025 10525072
-121.39742 -57.488125 79.384941 9011064
-121.7747 -57.94743 79.006058 8484720
-121.61189 -56.62574 79.632782 9340285
-121.32926 -55.322239 80.313034 10458249
-121.54884 -55.820415 79.996979 9668992
-121.50945 -54.599838 80.520821 8747633
-121.96337 -55.067028 80.099907 6510930
-121.11303 -53.391117 81.219009 10458249
-121.57303 -53.792313 80.822311 8813426
-121.46198 -52.576107 81.380302 9734527
-121.84602 -53.024597 81.002258 7695459
-121.62433 -51.654663 81.679329 8025452
-121.27763 -50.536564 82.315109 8420982
-121.64916 -50.852322 81.998138 11578272
-121.56799 -49.711143 82.510124 9933706
-121.49429 -48.19883 83.17157 15722454
-121.67754 -48.711231 82.868034 12564908
-121.81537 -47.627434 83.24633 13682618
-121.96139 -47.901405 83.059906 15722454
-121.92802 -46.959034 83.465797 8090986
-120.97433 -78.376808 -60.56842 8682867
-120.68162 -78.069504 -61.333721 9274488
-120.23862 -77.900719 -62.267193 10721934
-119.96675 -77.607262 -62.984203 11577244
-120.86691 -77.258987 -61.611862 8682867
-120.63049 -76.919907 -62.299126 10590607
-120.20922 -76.735809 -63.204697 11906725
-122.24498 -75.368355 58.396515 5919050
-122.18423 -75.760612 57.839188 7629924
-122.25536 -75.81311 56.544369 8090475
-122.08695 -75.793724 55.576149 8288110
-122.24405 -75.755409 54.584282 7893096
-122.12464 -75.739517 53.82663 7629924
-122.19924 -75.698784 52.598476 8945014
-122.07999 -75.679108 51.7122 7827308
-122.2117 -75.642441 50.729141 7564393
-122.01712 -75.625328 49.788807 8880247
-122.12911 -75.584755 48.637051 6578004
-122.03381 -75.56366 47.748859 6972762
-121.97399 -75.533798 46.712029 8682866
-122.23248 -75.45507 45.63258 9011579
-122.43182 -75.378716 44.701168 9011579
-120.86606 -76.039047 -62.593868 10591374
-120.5851 -75.85878 -63.356747 10327949
-120.20187 -75.773872 -64.174934 6511954
-120.04235 -75.49662 -64.881546 6511954
-122.20776 -74.525192 59.526276 6511186
-122.29141 -74.927734 58.901054 6577491
-120.7154 -75.087898 -64.309296 6775126
-120.40134 -74.891251 -65.262962 8353134
-120.35603 -74.584755 -66.273445 9537150
-120.23045 -74.45192 -67.245689 8419184
-119.90746 -74.45359 -67.825371 10261132
-122.25576 -73.600883 62.553158 13024174
-122.37555 -73.886642 61.688202 11774623
-122.31252 -73.955231 60.735226 11445918
-122.19022 -74.135605 60.064312 11248795
-120.68047 -74.289734 -67.497116 8353135
-120.4182 -74.234421 -68.420105 9603202
-120.25778 -74.148209 -69.367165 8879991
-120.55799 -74.150398 -70.510155 9471615
-120.22701 -74.151749 -71.487 9208187
-120.42231 -74.153473 -72.389809 10261132
-120.34758 -74.155006 -73.334381 9142907
-120.26558 -74.15654 -74.280472 8090479
-120.33139 -74.158257 -75.258095 7564393
-120.32227 -73.85759 -76.331108 7893100
-119.93842 -73.683022 -77.104271 10129287
-121.93617 -72.330101 63.316837 11709087
-122.24529 -72.81292 62.918224 12498088
-120.5849 -73.016197 -76.634056 8681843
-120.13394 -72.905228 -77.318115 9603201
-122.21 -71.625648 63.457497 10525328
-122.58931 -71.930786 63.093742 13550517
-120.42765 -72.091957 -77.419937 9207930
-119.98521 -71.870819 -78.160545 8024686
-121.87266 -70.359886 64.214729 7366752
-122.3306 -70.766678 63.758793 10196362
-120.64266 -71.060005 -77.764412 10129030
-120.29555 -70.857246 -78.363464 7169117
-119.86874 -70.747269 -79.013962 8419440
-122.13903 -69.527542 64.415764 8945271
-122.52527 -69.95829 63.992954 9076857
-120.55254 -70.018036 -78.531487 6182478
-120.09283 -69.844666 -79.266006 7958889
-122.31161 -68.686806 64.677505 9208443
-120.36646 -69.0597 -79.377823 8287854
-119.92061 -68.836891 -80.124031 8748404
-122.10719 -67.458138 65.337685 7893357
-122.37172 -67.86235 65.000504 9208443
-120.58846 -68.106682 -79.663956 8287854
-120.23985 -67.80854 -80.32402 8814453
-119.83543 -67.647614 -80.975479 8813939
-122.34026 -66.670311 65.539551 7695980
-122.78851 -67.124504 65.068832 8681843
-120.44148 -67.008774 -80.543243 8485233
-119.97637 -66.840851 -81.281837 8288109
-122.11541 -65.415375 66.223625 9866371
-122.2846 -65.840904 65.935143 8551029
-120.63867 -66.359268 -80.675629 8090219
-120.28848 -66.013908 -81.367035 7893096
-119.88306 -65.780785 -82.064453 6775126
-122.26283 -64.59404 66.492218 9603200
-122.61726 -64.969131 66.112999 9866371
-120.51819 -65.048721 -81.650154 7037274
-120.11145 -64.816437 -82.348816 8090218
-119.75778 -64.474937 -83.04261 7761509
-121.86885 -63.451561 67.230087 8092011
-122.43712 -63.698883 66.776405 8813941
-120.44098 -63.929153 -82.447624 7958630
-119.97672 -63.883598 -83.109375 8353389
-122.22445 -62.65321 67.360458 9144699
-122.52022 -63.040329 67.012047 8946295
-120.56035 -63.187256 -82.743195 8945523
-120.20165 -62.995358 -83.351433 8616815
-119.76276 -62.896332 -84.011642 6840919
-122.36966 -61.678997 67.69471 12631472
-120.45358 -62.16375 -83.669716 8879730
-120.17238 -61.895683 -84.335205 7564385
-119.87392 -61.590706 -85.062752 7958888
-122.2403 -60.541237 68.392334 11775906
-122.64044 -60.865559 67.907455 11381404
-120.48971 -61.269741 -84.630409 7235421
-120.19907 -60.968689 -85.365982 7432800
-119.85378 -60.671535 -86.137978 8024938
-121.96157 -59.210911 70.371857 9933193
-122.23575 -59.427322 69.617561 8223604
-122.49937 -59.846016 68.85894 7959656
-120.27859 -60.352661 -86.443039 7761509
-120.16638 -60.02562 -87.316574 9406079
-122.48366 -58.601067 78.353615 8748408
-122.60997 -58.901203 77.605423 9932936
-122.46407 -58.902863 76.552498 10196106
-122.66207 -58.904667 75.584305 8879990
-122.15903 -58.906147 74.464462 8485235
-122.69408 -58.908092 73.579567 8485235
-122.18551 -58.909534 72.476288 7827306
-122.53084 -58.929916 71.488945 9472899
-122.47333 -59.047707 70.666618 9012606
-122.45971 -57.72588 78.752892 7037274
-122.36452 -56.478523 79.315636 12630704
-122.758 -56.902359 78.943008 10261643
-122.5418 -55.60886 79.58567 15525852
-122.15405 -54.534779 80.223961 6510930
-122.59241 -54.733925 79.921585 13486013
-122.53065 -53.611176 80.416229 7301215
-123.02753 -54.133778 79.95092 7564651
-122.60446 -52.598408 80.797379 8090987
-122.40772 -51.616581 81.301575 8090987
-122.70162 -51.985317 81.001732 8090987
-122.57295 -50.639511 81.622101 11841187
-122.32078 -49.464561 82.233887 12959666
-122.78637 -49.695782 81.90464 13354424
-122.5158 -48.691597 82.455162 12235432
-122.21025 -47.192127 83.227821 9734531
-122.65898 -47.694809 82.794891 9931910
-122.42836 -46.571091 83.37471 7695460
-122.85332 -46.921131 83.016792 8089962
-122.67985 -45.820393 83.598488 7103835
-123.07043 -44.772331 84.243027 8090986
-122.83865 -45.089806 84.084991 6511954
-121.73418 -78.073898 -59.41666 8288365
-121.28421 -77.970161 -60.31348 6972505
-121.05899 -77.63607 -60.976536 8682867
-121.95679 -77.30069 -59.598736 6511954
-121.66411 -76.99054 -60.366257 7564642
-121.22098 -76.817612 -61.303123 8880246
-123.22414 -75.552475 57.713924 7827559
-123.25471 -75.760201 56.646343 7235166
-123.14861 -75.735855 55.629745 7366495
-123.18024 -75.704826 54.646618 7564131
-123.20763 -75.674141 53.666618 7366497
-123.08442 -75.651154 52.663143 10260617
-123.15079 -75.613907 51.536652 8616566
-122.96845 -75.599113 50.696182 7038307
-123.08453 -75.557968 49.533714 7300190
-123.04376 -75.53418 48.658009 7563362
-123.15347 -75.498779 47.674812 8418671
-122.99874 -75.463829 46.691986 9669250
-123.09201 -75.393311 45.700455 8485236
-123.14365 -75.318871 44.624969 8617337
-122.78674 -75.294174 43.827259 9933196
-121.85016 -76.181175 -60.642296 10853780
-121.62831 -75.914528 -61.387318 10590608
-121.30882 -75.73967 -62.206982 9538944
-121.0636 -75.508064 -63.004906 10591374
-122.98598 -74.474754 59.234818 6510930
-123.22387 -74.78701 58.665863 7301471
-123.68786 -74.99794 58.112026 9209467
-123.36639 -75.230171 43.532013 9143681
-122.96553 -75.210388 42.758617 8156787
-123.05109 -75.127632 41.595097 7432808
-123.22334 -75.053284 40.662971 9077373
-123.36478 -74.993294 39.887043 9537667
-121.71918 -75.083054 -62.49192 8552562
-121.42654 -74.901184 -63.379963 8092011
-121.367 -74.604897 -64.344032 7959658
-121.26818 -74.450714 -65.355293 8418927
-123.00141 -73.431381 62.188564 11709087
-123.36098 -73.694115 61.785347 9998471
-123.18109 -73.886986 60.674133 10064265
-123.17587 -74.079414 59.764824 6510930
-121.72222 -74.288315 -65.599709 8089963
-121.44555 -74.252289 -66.397209 11313558
-121.32715 -74.174301 -67.246132 8616306
-121.43073 -74.147583 -68.428787 8353135
-121.23051 -74.149002 -69.344955 10458254
-121.44168 -74.150658 -70.243462 9340030
-121.11296 -74.152084 -71.225784 9339773
-121.41154 -74.154259 -72.387772 8945015
-121.34141 -74.155853 -73.339264 10063492
-121.44549 -74.020813 -74.432343 9405561
-121.13036 -73.820724 -75.318199 10063238
-120.89851 -73.539391 -75.882591 11904668
-123.21439 -72.647736 62.40086 11182743
-123.51035 -72.989494 62.071789 8092019
-121.47406 -72.999008 -75.431122 12431269
-120.97229 -72.972069 -76.132568 13023917
-122.79566 -71.401878 63.198826 9933702
-123.2897 -71.740883 62.750565 11512476
-121.62054 -72.30867 -75.657936 8485233
-121.24508 -72.001122 -76.360497 9537150
-120.81625 -71.824944 -77.054611 10129030
-123.12591 -70.556343 63.366821 9670018
-123.42633 -70.929016 63.021538 10855060
-121.56578 -70.988861 -76.548538 9406076
-121.10415 -70.891167 -77.238884 10918544
-120.81461 -70.500183 -77.875717 8419696
-123.37354 -69.70784 63.586266 8485489
-121.73914 -70.163681 -76.822136 8419696
-121.39172 -69.958435 -77.423012 8419184
-120.93802 -69.876053 -78.09317 7564131
-123.04222 -68.481453 64.322624 8681843
-123.38197 -68.898132 63.934284 8813429
-121.53474 -69.272148 -77.652031 6972256
-121.15378 -68.970718 -78.358353 6182222
-120.77663 -68.614014 -79.093468 8419696
-123.2795 -67.68988 64.523598 10327436
-123.72858 -68.150414 64.049561 9537664
-121.54106 -67.944283 -78.464294 8024941
-121.04368 -67.824913 -79.216866 8156268
-123.05798 -66.424789 65.210075 7564643
-123.37122 -66.727219 64.887703 9340796
-121.63986 -67.142082 -78.825294 8419702
-121.28796 -66.941689 -79.429482 7629412
-120.82954 -66.864136 -80.103027 8090219
-123.2091 -65.599014 65.478348 8616562
-123.56418 -65.979103 65.096588 9537918
-121.52628 -66.162239 -79.586082 7827047
-121.08157 -65.923302 -80.340675 8353647
-123.38766 -64.69915 65.762123 8813685
-121.46053 -64.933998 -80.435028 7695204
-120.95789 -64.819763 -81.191635 7234653
-123.1777 -63.645264 66.348351 9274235
-123.59129 -63.874897 65.996414 8089963
-121.51996 -64.141594 -80.843727 7037274
-121.23063 -63.920589 -81.375183 7366238
-120.75083 -63.935593 -82.020775 7037274
-123.36342 -62.716743 66.638123 8221548
-121.50428 -63.096554 -81.511108 8484973
-121.03015 -63.010891 -82.211143 7432031
-120.72735 -62.632637 -82.858208 7037274
-123.11758 -61.60268 67.271637 11381404
-123.49094 -61.792259 66.961594 7629412
-121.36485 -62.177853 -82.524391 9142901
-121.03304 -61.88028 -83.282654 8945523
-122.89353 -60.33102 68.175522 11381404
-123.37984 -60.749821 67.541664 9341309
-121.39696 -61.193001 -83.605164 6511954
-121.11658 -60.976013 -84.295265 6709333
-120.99763 -60.673069 -84.987038 6511954
-122.89203 -59.337448 69.338997 7038298
-123.39532 -59.586216 68.64698 8486000
-123.55677 -60.123642 67.96006 9209723
-121.32629 -60.354729 -85.43586 6906718
-120.94147 -60.175766 -86.214645 6709336
-120.98209 -59.900608 -87.168648 9011320
-123.58605 -58.649345 77.805969 9735558
-123.26022 -58.903503 76.568924 8617336
-123.71903 -58.905151 75.824982 9340539
-123.20527 -58.906631 74.695778 10787726
-123.742 -58.908596 73.803329 8090987
-123.22277 -58.910046 72.690826 8814970
-123.6586 -58.911667 71.947479 8092019
-123.27356 -58.972565 70.496361 8618105
-123.4088 -59.174355 69.62999 7696230
-123.40125 -57.648655 78.311752 8617336
-123.84763 -57.93483 77.969437 9735558
-123.55615 -56.721722 78.61676 7169375
-123.19659 -55.691925 79.222618 11314587
-123.70982 -55.795113 78.922218 7827306
-123.52514 -54.659534 79.483917 10590611
-123.56329 -53.665936 79.875031 7564651
-123.4608 -52.640736 80.349854 6972764
-123.82064 -52.953091 80.040169 7564651
-123.54401 -51.67963 80.704933 7762022
-123.3457 -50.524654 81.281464 8090987
-123.66372 -50.834064 80.994011 8222831
-123.58651 -49.636997 81.527084 9144191
-123.2154 -48.487041 82.188354 11379356
-123.64302 -48.61356 81.921333 9274751
-123.50442 -47.673523 82.379082 10195082
-123.61555 -46.668705 82.738213 9142650
-123.52269 -45.471298 83.422729 8484976
-123.84305 -45.768883 83.032997 9734531
-123.72117 -44.366219 84.468971 10721935
-123.67016 -44.858189 83.868156 8814710
-122.98029 -78.438103 -56.649769 7564651
-122.67179 -78.460922 -57.40546 9341825
-122.21333 -78.435699 -58.271133 8354673
-122.81361 -77.94503 -57.54451 8223091
-122.3955 -77.883926 -58.358524 8420470
-122.08584 -77.866966 -58.934383 7893866
-122.75202 -77.043747 -58.347931 8420470
-122.31141 -76.862564 -59.286552 10196618
-122.04206 -76.560257 -60.005665 10853780
-124.27026 -75.420349 57.41457 8090986
-124.13591 -75.695015 56.72551 6972762
-124.25121 -75.669708 55.480301 7038042
-124.12634 -75.653709 54.708649 7563873
-124.271 -75.615646 53.70293 8024170
-124.07855 -75.597603 52.735046 8419186
-124.20448 -75.555458 51.556194 8090479
-124.11415 -75.533379 50.643894 6905947
-124.01837 -75.511719 49.735882 7694948
-124.12376 -75.470993 48.56699 7432032
-123.90102 -75.451515 47.62122 7432033
-124.11796 -75.37822 46.677525 8089963
-123.99232 -75.31797 45.60981 8221549
-123.82785 -75.271339 44.704128 7039331
-122.94089 -76.232567 -58.620171 7564651
-122.71521 -75.955788 -59.361458 11380381
-122.30329 -75.798065 -60.317749 10853780
-122.07699 -75.532478 -61.122921 13024949
-124.04239 -74.576042 58.56966 8090986
-124.29474 -75.018463 57.849625 7499106
-124.18823 -75.241096 44.666119 7039331
-124.04948 -75.182327 43.605061 7039331
-123.95979 -75.125732 42.635674 8749435
-123.94538 -75.067627 41.731037 8683129
-123.93143 -74.995079 40.56572 9997961
-123.95228 -74.941467 39.582699 8551283
-123.90403 -74.897133 38.675835 8682867
-123.96369 -74.842903 37.701973 8946039
-123.9813 -74.787056 36.648602 10590866
-124.14376 -74.729187 35.722721 10985625
-124.29993 -74.671684 34.7966 7038307
-122.81001 -75.114838 -60.457829 10919574
-122.46133 -74.951698 -61.389271 12762032
-122.39504 -74.656883 -62.286388 10065032
-122.28942 -74.48922 -63.231789 8092011
-121.97611 -74.453613 -64.040779 8092011
-124.22672 -73.561813 61.386448 7564130
-124.21314 -73.889084 60.748947 6510930
-124.16502 -73.970337 59.617157 6643028
-124.36588 -74.171799 58.794907 7367263
-122.82317 -74.294357 -63.544853 8092011
-122.59409 -74.231773 -64.440376 9603714
-122.28296 -74.201691 -65.257217 9800838
-122.4166 -74.14492 -66.354019 10590094
-122.38034 -74.146484 -67.290436 9537150
-122.34104 -74.148041 -68.230804 8550257
-122.21109 -74.149757 -69.320168 10129289
-122.52821 -74.152 -70.47757 9208186
-122.20164 -74.153381 -71.469383 9734531
-122.49453 -74.094635 -72.434006 8945015
-122.34248 -73.865997 -73.274971 9273974
-122.05717 -73.694878 -74.173187 8681835
-124.28328 -72.738724 61.71101 7104091
-122.67904 -72.898254 -73.584404 9010800
-122.26765 -72.885132 -74.382324 9010800
-121.99212 -72.647301 -74.941475 12234145
-124.05524 -71.609009 62.342445 8617586
-124.45329 -71.883385 61.980656 8880244
-123.99065 -72.089119 11.613334 6510930
-122.56526 -71.951546 -74.564217 9339766
-122.03858 -71.951393 -75.30825 10392971
-124.30148 -70.699936 62.589195 9802116
-122.39314 -71.033043 -75.39209 8814454
-121.95831 -70.781265 -76.141136 8156524
-124.07533 -69.415398 63.286892 9012344
-124.332 -69.87915 62.928623 9736323
-122.65426 -70.084984 -75.621712 7959145
-122.20158 -69.997505 -76.293594 9077626
-121.85441 -69.790688 -76.895241 8419696
-124.25463 -68.63533 63.518143 9604225
-124.67033 -69.190361 63.02327 9933702
-122.45103 -69.11084 -76.501282 9406592
-121.9564 -68.985558 -77.253792 8024945
-124.00214 -67.447815 64.189629 9537918
-124.42286 -67.728081 63.811501 9340540
-122.72206 -68.320656 -76.619835 10261132
-122.34593 -67.959343 -77.356491 8419702
-121.96368 -67.656731 -78.065269 8419702
-124.20795 -66.672256 64.40271 8946038
-124.51284 -67.002693 64.073181 8551280
-122.56271 -67.055084 -77.619652 7564651
-122.1054 -66.972694 -78.294685 8288115
-121.75372 -66.770691 -78.899475 7563619
-124.3399 -65.712769 64.740913 11774621
-122.68591 -66.432877 -77.836121 7564651
-122.39108 -66.044495 -78.478584 8813943
-121.92226 -65.95121 -79.176125 7958377
-124.09067 -64.614082 65.370865 12366501
-124.49669 -64.871437 65.011597 11511449
-122.67654 -65.116974 -78.662323 9142651
-122.23766 -64.947075 -79.366318 8813429
-121.92204 -64.527588 -80.056419 8089963
-124.38486 -63.737888 65.571831 11840415
-122.50385 -63.986034 -79.597107 10524047
-121.98864 -63.968895 -80.310867 8550513
-124.07948 -62.594074 66.254616 8353391
-124.45427 -62.787437 65.942039 8879735
-122.57094 -63.427006 -79.851128 11905692
-122.33643 -63.091522 -80.399651 10721677
-121.91351 -62.889011 -81.1064 10063748
-124.30239 -61.715744 66.49984 7958377
-122.62604 -62.369137 -80.7314 10590091
-122.27811 -62.091827 -81.490814 10392713
-121.90704 -61.799618 -82.293541 10655885
-124.21579 -60.349995 67.351669 10656657
-124.45891 -60.885849 66.787827 9077113
-122.33671 -61.245659 -82.455017 10984595
-122.14123 -60.899067 -83.396744 9932419
-122.14758 -60.571438 -84.121506 7695714
-124.22688 -59.352127 68.522125 8091242
-124.45724 -59.750866 67.772606 8156779
-122.11629 -60.334091 -84.678894 7827300
-121.93021 -60.180473 -85.203926 7630182
-122.31186 -60.348034 -87.233444 10851980
-122.36334 -60.25441 -88.609489 10391942
-121.91178 -60.190369 -88.955704 9931904
-124.44717 -58.551247 77.346893 11446171
-124.55444 -58.862091 76.750374 12432549
-124.61464 -58.906139 75.687599 11445398
-124.44411 -58.907784 74.629219 10130053
-124.44951 -58.909504 73.617615 9538434
-124.44756 -58.911213 72.607414 9012863
-124.26803 -58.912823 71.569557 9473413
-124.4313 -58.914597 70.602531 9078397
-124.3785 -59.03001 69.625099 8288621
-124.86639 -59.139793 68.874649 7762021
-124.42799 -57.752037 77.737373 9406594
-124.35748 -56.540699 78.287148 7960177
-124.74152 -56.963417 77.901886 7960177
-124.59687 -55.718449 78.505913 7960433
-124.22953 -54.367874 79.250618 9735302
-124.53753 -54.875408 78.886375 8288372
-124.50591 -53.609112 79.425133 9406594
-124.87814 -54.112095 79.030525 7564651
-124.55914 -52.750015 79.753159 10985366
-124.37271 -51.596649 80.323044 10327434
-124.76383 -52.050354 79.93927 11905696
-124.59944 -50.670635 80.59156 10722707
-124.28477 -49.617142 81.184578 7565675
-124.66441 -49.797871 80.919319 9801864
-124.54602 -48.76178 81.406654 7828847
-124.60426 -47.695396 81.817749 8419955
-124.53067 -46.691788 82.26915 9801093
-124.89677 -46.878155 82.008308 11906725
-124.16924 -45.283138 83.250679 10065291
-124.56247 -45.745132 82.701904 9999242
-124.39852 -44.298294 84.273819 13023917
-124.6737 -44.657219 83.587547 8355190
-125.07512 -45.062748 82.986778 10065291
-124.41499 -44.042904 85.162239 13023917
-124.84395 -44.086788 84.794922 11971488
-124.008 -78.287163 -53.719128 7563619
-123.88719 -77.996735 -54.421936 6775126
-123.5918 -77.994995 -55.316219 9472382
-123.29521 -77.996437 -56.211464 11446175
-123.09384 -77.840317 -57.002407 9605252
-124.05477 -77.230247 -54.808392 9340795
-123.88367 -77.022163 -55.567318 12169380
-123.63427 -76.943665 -56.411987 12892593
-123.29544 -76.989182 -57.337177 7893614
-123.13038 -76.61705 -57.983791 7564651
-124.85265 -75.367584 57.197701 8090986
-125.13956 -75.597046 56.601505 6775126
-125.20914 -75.618019 55.546524 6511954
-125.23363 -75.586975 54.548878 7169885
-125.05262 -75.571304 53.683407 9406079
-125.10746 -75.535057 52.568466 11248795
-125.12382 -75.507477 51.673199 8221549
-125.27084 -75.466934 50.588848 8616563
-125.07482 -75.452682 49.739933 7431776
-125.10816 -75.41494 48.604893 7103067
-125.00851 -75.365356 47.528473 8550514
-125.0144 -75.308754 46.671043 9340030
-124.9825 -75.265511 45.973949 10261132
-123.92047 -76.126244 -56.543293 9470847
-123.73067 -75.953171 -57.419693 7102557
-123.36433 -75.838745 -58.336739 7498343
-123.15948 -75.573341 -59.089394 8813941
-124.82045 -74.494972 58.276318 6972762
-125.2191 -74.78714 57.729816 7235934
-125.43914 -75.19574 57.100716 6511954
-125.0815 -75.226738 45.497753 10985881
-124.9119 -75.180092 44.585777 7368039
-125.09979 -75.103409 43.635796 8683641
-124.94996 -75.045364 42.572784 9012606
-124.96993 -74.984444 41.573612 8289140
-124.9288 -74.938965 40.654091 9012606
-124.84563 -74.885796 39.53677 8682867
-125.02571 -74.826393 38.601505 9472383
-124.86562 -74.782043 37.565414 11380380
-124.95512 -74.730392 36.674911 11775140
-124.85956 -74.680305 35.603172 9669767
-124.86066 -74.625381 34.548664 7498857
-124.83022 -74.580505 33.650902 6249039
-124.95705 -74.471481 32.625843 7761766
-124.84966 -74.347969 31.662622 8222318
-124.59296 -74.2854 31.022835 9011579
-123.85165 -75.207603 -58.415695 9076857
-123.53794 -74.985939 -59.344296 8419183
-123.49203 -74.653442 -60.304825 7695204
-123.28744 -74.510284 -61.265785 7827819
-123.05915 -74.464661 -61.985809 7038307
-125.20958 -73.623703 60.629299 8814451
-125.20036 -73.870682 59.558414 7564904
-125.27022 -74.06366 58.706066 7301729
-125.23216 -74.24057 31.182032 9011579
-124.97272 -74.178268 30.542154 9011579
-124.90085 -74.063782 29.664381 9669251
-124.81256 -73.959007 28.692011 8353647
-124.66215 -73.872643 27.552301 7563619
-124.72009 -73.7929 26.6208 7563619
-124.77193 -73.713554 25.690048 8813683
-124.82433 -73.621605 24.605265 7432032
-124.86884 -73.530182 23.521511 6445650
-124.90018 -73.452339 22.593555 6840919
-124.92551 -73.374969 21.666529 6051660
-124.94205 -73.310806 20.894766 6182476
-123.90257 -74.308151 -61.477921 8617847
-123.52042 -74.269104 -62.441902 7038307
-123.41096 -74.179718 -63.284546 8091501
-123.36681 -74.142151 -64.265762 8748919
-123.41669 -74.144096 -65.365471 8090736
-123.46244 -74.146011 -66.472061 7367271
-123.27963 -74.147423 -67.397827 8747893
-123.51131 -74.149124 -68.298592 9340030
-123.20035 -74.150543 -69.293396 9931910
-123.56705 -73.964111 -70.397385 8813429
-123.31387 -73.835686 -71.324471 8813429
-123.00383 -73.672821 -72.256447 8747636
-124.98595 -72.676353 61.310844 9208952
-125.48357 -72.852417 60.931404 11905951
-124.94988 -73.272537 20.43194 6971223
-124.95921 -73.20887 19.661364 8089189
-124.96592 -73.120316 18.583551 7300957
-124.96497 -73.044876 17.660875 7565410
-124.95612 -72.957504 16.585857 6512978
-124.93954 -72.870697 15.512321 6249038
-124.91874 -72.796837 14.5934 6972249
-124.72586 -72.62706 13.657573 8682867
-124.39056 -72.387344 12.862233 8485488
-124.64705 -72.368851 9.5578899 7565416
-124.86609 -72.458931 8.6674538 7565416
-124.96677 -72.489052 7.9183407 8092019
-123.62781 -73.020714 -71.506691 9471358
-123.24966 -72.932831 -72.367157 8682097
-122.89011 -72.9888 -73.068481 9471353
-125.2985 -71.786018 61.509064 10524555
-124.20314 -72.25293 12.388868 6510930
-124.53638 -72.153305 11.573991 6642772
-124.48151 -72.115013 10.601301 7564644
-124.80492 -72.160942 9.7963543 7565416
-123.61227 -72.063416 -72.345154 7695720
-123.18462 -72.053108 -73.244408 8813679
-122.90285 -71.835213 -74.014854 9997695
-125.01437 -70.466888 62.257217 9472895
-125.32792 -70.820648 61.912228 11248534
-123.72847 -71.27977 -72.764107 7038307
-123.53758 -70.931763 -73.45517 8221803
-123.07334 -70.972374 -74.387703 8419183
-122.83574 -70.602005 -75.054382 7169373
-125.19753 -69.682549 62.487885 8749173
-125.75459 -69.890198 62.058563 8090987
-123.7726 -70.18502 -73.595467 8484973
-123.5021 -69.926071 -74.377243 9472128
-123.06161 -69.712479 -75.294891 7959148
-124.94788 -68.484749 63.162086 11380380
-125.37013 -68.770081 62.780899 10261899
-123.71704 -68.920029 -74.778328 8156529
-123.35973 -68.922913 -75.375816 7564651
-122.90627 -68.834808 -76.050636 8419696
-125.22066 -67.648125 63.361118 9472640
-125.46325 -68.040184 63.042625 10261899
-123.57835 -68.114059 -75.578217 8156785
-123.13462 -67.879875 -76.3293 10064264
-125.35476 -66.693756 63.695827 8419952
-123.46109 -66.941475 -76.463829 9998727
-123.02052 -66.825111 -77.136978 7959406
-125.04745 -65.632202 64.345207 8748659
-125.45489 -65.894188 63.983006 7564643
-123.67672 -65.914421 -76.804413 9735555
-123.19865 -66.032738 -77.38369 8485490
-122.85786 -65.876015 -77.945602 8090479
-125.34655 -64.752174 64.544991 8222316
-123.4823 -65.089111 -77.579926 8486256
-123.07021 -64.851723 -78.28907 8682612
-125.03696 -63.468712 65.290894 9143417
-125.42365 -63.785816 64.917374 8748916
-123.39332 -63.973694 -78.390877 8617587
-122.90047 -63.938148 -79.085419 8287085
-125.20787 -62.695133 65.522415 10590350
-125.7726 -62.882763 65.096527 7564643
-123.54208 -63.214462 -78.660095 8288877
-123.18037 -63.051746 -79.321922 8814453
-122.85165 -62.714443 -80.034409 9340027
-124.93585 -61.528294 66.194786 10064265
-125.44862 -61.706638 65.804604 10787986
-123.6313 -62.311089 -79.556679 8024170
-123.21794 -62.063839 -80.357712 8484721
-122.91733 -61.710571 -81.135612 9340027
-125.27785 -60.651535 66.459854 9340285
-125.82624 -60.977058 65.890938 7563619
-123.47838 -61.416782 -80.867142 8089963
-123.20063 -61.282829 -81.450279 8550513
-123.23086 -60.88385 -82.340218 9734788
-123.03638 -60.60931 -83.141693 9603203
-123.38249 -60.513336 -86.437263 9536894
-125.37422 -59.484383 67.588051 8945784
-125.36198 -60.04063 66.933914 9011836
-123.12346 -60.314903 -84.066238 7564392
-123.08639 -60.47068 -86.672478 10851980
-123.10218 -60.416088 -87.350677 10851980
-122.96434 -60.339924 -88.144882 10851980
-123.13422 -60.250668 -89.392448 8484205
-125.48956 -58.645542 76.701591 11379863
-125.24478 -58.907299 75.314735 11905692
-125.69603 -58.908958 74.558937 7893867
-125.15763 -58.910427 73.426521 7565675
-125.68517 -58.912407 72.520058 10460307
-125.14165 -58.913837 71.404762 9736585
-125.65451 -58.915802 70.498428 7762021
-125.16435 -58.944431 69.432343 8222572
-125.48231 -59.106609 68.624069 8485744
-125.24088 -57.557629 77.337105 9604741
-125.76118 -57.811756 76.907623 11117976
-125.55531 -56.649677 77.540993 8618361
-125.22073 -55.45414 78.267731 10723219
-125.59233 -55.841908 77.870972 9078655
-125.5035 -54.611256 78.462608 10854292
-125.92348 -55.070415 78.005005 14077885
-125.13976 -53.396538 79.194557 9735302
-125.58192 -53.795784 78.770622 8354163
-125.43256 -52.575489 79.377785 10195591
-125.76212 -53.126072 78.952667 7564643
-125.60075 -51.67741 79.663918 10919056
-125.30157 -50.654884 80.245461 10722191
-125.70639 -50.824059 79.972351 9932419
-125.57181 -49.654572 80.522858 9472641
-125.08384 -48.427158 81.274727 8815227
-125.63796 -48.751301 80.862587 8815226
-125.46079 -47.677181 81.395119 9341055
-125.98112 -48.010288 80.996254 10064777
-125.6101 -46.670773 81.735718 10854037
-125.39243 -45.682281 82.33107 12828078
-125.81104 -45.889755 81.957314 10985623
-125.56984 -44.443058 83.401054 8092019
-125.69906 -44.97715 82.747871 10065291
-125.23724 -43.890015 85.503426 10984852
-125.57016 -44.03183 84.626968 8289141
-125.07467 -78.165634 -50.639828 9537923
-124.95805 -77.867653 -51.338982 8814714
-124.6172 -77.892967 -52.338692 7301732
-124.30231 -77.820549 -53.373779 8090475
-124.14751 -77.567474 -54.135796 9340795
-124.94339 -76.978363 -52.418739 7565418
-124.68839 -76.84153 -53.348 7958891
-124.37243 -76.83799 -54.306015 9208953
-124.16167 -76.604736 -55.214039 9340795
-126.08551 -75.459373 56.444382 9735038
-126.00397 -75.573174 55.536018 7695714
-126.32176 -75.527206 54.588974 8879990
-126.13665 -75.511597 53.716995 10459023
-126.14556 -75.481384 52.718445 9406079
-126.10125 -75.451508 51.632355 7892584
-126.0493 -75.422218 50.550209 7037274
-126.16341 -75.385757 49.540329 7037274
-126.00016 -75.367508 48.776699 8616300
-126.04825 -75.299789 47.750416 9997951
-125.58234 -75.256348 46.538422 10261132
-125.05557 -76.402901 -52.749939 7039331
-124.97927 -76.072227 -53.428841 5722182
-124.8011 -75.825974 -54.467361 6840663
-124.50837 -75.824722 -55.36895 8945526
-124.27478 -75.75444 -56.22401 7891815
-124.14688 -75.577141 -57.008747 10655121
-126.19059 -74.632164 57.441322 7367009
-126.32539 -75.119049 56.770397 10393227
-126.16 -75.212288 46.54541 10129540
-126.06324 -75.158722 45.613983 11183259
-125.97384 -75.100731 44.622852 7697004
-126.16201 -75.024834 43.665565 11249053
-125.95498 -74.983452 42.673214 10196622
-125.87925 -74.928329 41.539505 8025969
-126.07092 -74.867729 40.594463 9209729
-125.85145 -74.829956 39.616936 8814716
-125.91177 -74.774834 38.626324 11643298
-125.9289 -74.718094 37.554676 11907236
-125.92622 -74.66671 36.564613 10065035
-125.85375 -74.62355 35.652405 7827822
-125.8886 -74.570389 34.669945 7564391
-125.86018 -74.504768 33.60355 9537665
-125.8784 -74.376045 32.635242 8090731
-125.87865 -74.285545 31.988344 8090731
-124.93154 -75.201019 -55.557568 7826793
-124.79858 -75.016045 -56.426704 6246991
-124.52474 -74.967735 -57.364014 8747124
-124.4694 -74.68354 -58.371311 7827564
-124.41973 -74.490303 -59.325966 7038307
-124.12054 -74.483452 -59.918812 7037274
-126.10645 -73.575615 60.237106 7564904
-126.2647 -73.809937 59.766487 6907231
-126.27644 -73.949623 58.584686 6447193
-126.27961 -74.155983 57.848194 7893868
-125.87691 -74.217911 31.503851 9011579
-125.87064 -74.105721 30.697617 9011579
-125.87357 -73.981026 29.735628 11642780
-125.81492 -73.885063 28.571766 10459017
-125.67376 -73.815643 27.616865 8287340
-125.68587 -73.731781 26.600811 8682354
-125.78796 -73.642326 25.583622 7629410
-125.8308 -73.562996 24.646286 7300446
-125.79838 -73.492493 23.759789 7169376
-125.56368 -73.421394 22.713724 6511962
-125.58833 -73.343597 21.7817 6511962
-124.81061 -74.326157 -59.696686 7038307
-124.55073 -74.277222 -60.496395 8813943
-124.44188 -74.180534 -61.335068 9341824
-124.43105 -74.140594 -62.488159 7564649
-124.42326 -74.141617 -63.424736 9144446
-124.41337 -74.143242 -64.365906 9208442
-124.39635 -74.144821 -65.30912 8419700
-124.37627 -74.146408 -66.256439 8616823
-124.26793 -74.148155 -67.355385 9011065
-124.63765 -74.054184 -68.529045 9274237
-124.24986 -73.948845 -69.377373 9076858
-123.95477 -73.638466 -70.307899 9471358
-126.15694 -72.740067 60.570827 9340538
-125.60167 -73.291954 21.160822 5920082
-125.61175 -73.240646 20.540455 9077114
-125.62224 -73.163925 19.610678 9077114
-125.62663 -73.0877 18.681952 7300957
-125.62392 -72.999374 17.599852 7696996
-125.61347 -72.911629 16.519215 6512978
-125.59785 -72.836914 15.594252 6117196
-125.57622 -72.762657 14.670441 5262143
-125.52548 -72.666405 13.592389 5854024
-125.2017 -72.417908 12.489479 6774358
-125.91418 -72.372475 11.795005 8288109
-125.36561 -72.317131 8.2469187 8092019
-125.29945 -72.421112 7.5759974 6446165
-125.5033 -72.548973 6.5870776 6182995
-125.78175 -72.72422 5.5999403 5919050
-125.91395 -72.950996 4.9375987 5919050
-124.85011 -73.400146 -68.646423 9734788
-124.63194 -73.090942 -69.359726 9800581
-124.24309 -73.023438 -70.224968 10721681
-123.93214 -72.846092 -71.020592 13550517
-125.80171 -71.487671 61.333092 14603206
-126.37475 -71.77137 60.860828 12498344
-125.72974 -72.243629 11.319057 9209467
-125.48078 -72.071823 10.687102 8091502
-125.44242 -71.936951 9.4662981 7565416
-125.60555 -72.003052 8.6041193 7433830
-125.84884 -72.160347 7.6697016 6512215
-125.95231 -72.195389 6.9148841 6248786
-124.75188 -72.303673 -69.771759 9340286
-124.56537 -71.949089 -70.457458 10327181
-124.10644 -71.980476 -71.386078 10853266
-123.91807 -71.629265 -72.074486 7038307
-126.14221 -70.744247 61.450264 13682876
-126.7017 -70.957558 61.016846 13551549
-124.80288 -71.201897 -70.592445 9340286
-124.53767 -70.935837 -71.369156 8353651
-124.11609 -70.845009 -72.323631 7038307
-123.96413 -70.533005 -72.903282 7038307
-125.89551 -69.536003 62.127335 8090987
-126.40346 -69.737694 61.730362 13551549
-124.75729 -69.927597 -71.7621 10984340
-124.44923 -69.949966 -72.384789 7367015
-124.02869 -69.946136 -73.263756 8222062
-126.1729 -68.695343 62.32523 10261899
-126.48612 -68.914742 62.039036 13551549
-124.64227 -69.244255 -72.578041 8616566
-124.32236 -69.014549 -73.437912 9341054
-123.9307 -69.010307 -74.257095 9800835
-126.33794 -67.732956 62.6446 9341054
-124.67027 -68.006905 -73.563354 8881531
-124.32059 -67.962608 -74.328911 8551542
-123.96989 -67.919998 -75.095131 7564651
-126.06261 -66.737747 63.245811 8617331
-126.51336 -66.82708 62.932564 8090987
-124.60641 -66.972939 -74.568443 9604996
-124.23171 -66.839401 -75.418106 9143419
-123.85412 -66.678757 -76.089905 9406590
-126.26292 -65.719078 63.566288 7301476
-124.60732 -65.983864 -75.40078 8485742
-124.08589 -65.93573 -76.232841 10196106
-126.00343 -64.485817 64.259918 7564643
-126.47582 -64.737312 63.862591 7367267
-124.66814 -65.400246 -75.766403 11378324
-124.37545 -65.007599 -76.41143 10392971
-123.90614 -64.908401 -77.113167 8617586
-126.23044 -63.714558 64.456177 7564643
-126.74545 -63.901031 64.061058 9143417
-124.57696 -64.138374 -76.673683 9734785
-124.19058 -63.834316 -77.388916 8486000
-123.80818 -63.475128 -78.132858 9209467
-125.90842 -62.531658 65.165985 7564643
-126.4236 -62.714741 64.772308 7959401
-124.5057 -63.034981 -77.598564 8420464
-124.20538 -62.791958 -78.264343 8814965
-126.17338 -61.699825 65.365486 8353646
-126.64931 -61.944412 64.969017 7564643
-124.34861 -62.240639 -78.753716 8223341
-124.2121 -61.866005 -79.41449 7629668
-124.19041 -61.480911 -80.057549 8287342
-126.10388 -60.317616 66.228561 9932163
-126.40047 -60.848492 65.637833 8550768
-124.20379 -61.242054 -80.560669 8879479
-124.12982 -60.862488 -81.476608 8813685
-123.93916 -60.602585 -82.238823 9208702
-124.09386 -60.590157 -83.854759 9208702
-124.41613 -60.662998 -85.606827 8090736
-124.08752 -60.576992 -86.33828 9472130
-124.16277 -60.511543 -87.205544 8682615
-126.15151 -59.322792 67.419212 9208699
-126.33553 -59.706448 66.67276 9603199
-126.78288 -60.11198 66.001366 9932163
-123.71394 -60.447117 -87.559494 8287600
-124.19611 -60.401539 -88.574448 6116431
-124.05804 -60.324295 -89.380821 7300190
-123.91436 -60.24678 -90.185501 9667964
-126.29249 -58.48243 76.289474 9670790
-126.46544 -58.773972 75.703445 10065803
-126.78156 -58.909481 74.790604 7038307
-126.23169 -58.91095 73.648499 7565675
-126.67321 -58.912617 72.886971 14078918
-126.20605 -58.914383 71.609764 10986392
-126.72049 -58.916367 70.69574 8683123
-126.16091 -58.917767 69.588402 8222572
-126.3976 -59.004986 68.532677 9735553
-126.6861 -59.157703 67.704826 8485235
-126.47118 -57.761738 76.494713 9473668
-126.24046 -56.411469 77.225441 10065291
-126.59077 -56.863945 76.813431 11118233
-126.52106 -55.628929 77.395279 11051927
-126.94793 -56.030048 76.958778 8815739
-126.18051 -54.34906 78.16259 14077885
-126.46474 -54.784573 77.798393 10920342
-126.47451 -53.524242 78.342651 9932678
-126.79193 -54.074501 77.908051 10854036
-126.51961 -52.710613 78.670242 8946040
-126.32999 -51.617558 79.263496 7564643
-126.80575 -51.870228 78.861923 8353902
-126.57303 -50.673141 79.527023 9340539
-126.29208 -49.525394 80.199547 10656141
-126.58612 -49.826775 79.888519 8682867
-126.53297 -48.626564 80.439705 9801348
-127.00348 -49.130539 79.936897 8090987
-126.17626 -47.471836 81.12059 8288365
-126.70245 -47.634571 80.770538 9670019
-126.47252 -46.650127 81.309029 6972505
-126.66084 -47.172344 81.000969 6511954
-126.25411 -45.23745 82.244637 11051670
-126.62897 -45.758991 81.654335 7498849
-126.41675 -44.250576 83.437294 8683385
-126.66885 -44.692799 82.544785 9209984
-126.41177 -43.889641 86.305672 8880503
-126.82635 -43.891026 85.695717 9537664
-126.44325 -43.992046 84.331825 8682614
-127.01875 -44.052143 83.834442 8089963
-126.07388 -78.084976 -47.717003 8813685
-125.91368 -77.891556 -48.425903 8879222
-125.55944 -77.944412 -49.433819 9274495
-125.30504 -77.789169 -50.382725 12563626
-125.21748 -77.443169 -51.049854 11379356
-126.0625 -77.370491 -48.58334 9010808
-125.89917 -77.09819 -49.393398 10063495
-125.64038 -76.916267 -50.386589 11774111
-125.29738 -76.905113 -51.435257 10392975
-125.146 -76.744545 -52.079105 8486006
-126.91979 -75.310738 56.304703 14604238
-127.11765 -75.491173 55.661156 7892838
-127.12153 -75.481865 54.571358 9406079
-127.25777 -75.443619 53.543747 12631215
-126.93764 -75.436172 52.690506 14078918
-127.15585 -75.388306 51.492786 9603458
-127.00691 -75.369461 50.579311 7037274
-127.112 -75.329826 49.559605 8813683
-126.96101 -75.286514 48.621624 9208435
-126.72559 -75.264435 48.006855 9208435
-126.12051 -76.298256 -49.656391 9931910
-125.94173 -76.174995 -50.358631 11313555
-125.69266 -76.035484 -51.373379 11247768
-125.38996 -75.995003 -52.358475 8485490
-125.34337 -75.614029 -53.299335 5261887
-125.21861 -75.454666 -54.067333 4867385
-127.17876 -74.293221 57.152443 14604238
-127.23376 -74.834595 56.718098 13485757
-127.40803 -75.22876 48.26535 9208435
-127.17074 -75.206779 47.650578 9471607
-126.99886 -75.158806 46.715687 8814451
-127.09941 -75.071747 45.504929 8092019
-126.9986 -75.021942 44.572674 9933451
-126.91351 -74.973007 43.583439 11906725
-127.11694 -74.911186 42.628456 8025969
-126.90229 -74.872307 41.634888 9012606
-126.97248 -74.815926 40.632019 8419959
-126.99955 -74.75782 39.546535 12367276
-126.89158 -74.713745 38.575359 12630192
-126.9402 -74.661049 37.618366 10328463
-126.82699 -74.60939 36.495056 7498857
-126.98432 -74.550705 35.548344 7038307
-126.85278 -74.508102 34.589947 8748920
-126.80499 -74.415215 33.621998 8090735
-126.74739 -74.301224 32.752018 8090732
-126.04879 -75.377625 -51.745121 10984590
-125.89433 -75.275291 -52.46302 9405566
-125.79406 -75.029289 -53.368805 4867385
-125.62906 -74.861046 -54.424446 5327680
-125.44705 -74.76001 -55.380474 7301222
-125.5509 -74.524818 -56.268021 7037793
-125.32586 -74.484528 -57.367672 8550259
-127.17505 -73.637756 59.560081 7827819
-127.39681 -73.896362 58.508907 9735045
-127.26585 -74.091866 57.560032 9669251
-126.96488 -74.225327 32.373341 8354162
-126.85141 -74.12706 31.585531 9209213
-126.85094 -73.997635 30.613012 9209213
-126.9092 -73.906555 29.657698 8222318
-126.63498 -73.839348 28.629591 7563619
-126.69578 -73.758064 27.682009 7563619
-126.75861 -73.663887 26.577616 10261128
-126.81335 -73.570274 25.474258 9997955
-126.85336 -73.490532 24.529474 8484976
-126.61954 -73.418488 23.472858 7958890
-126.57783 -73.348228 22.582529 7432804
-126.25658 -73.311958 21.897661 7958890
-126.62122 -73.328148 3.133909 7366751
-126.79832 -73.424965 2.6799614 7366751
-125.85896 -74.318855 -57.428104 10853011
-125.63431 -74.274231 -58.499653 8090736
-125.34615 -74.234436 -59.323338 8090736
-125.48344 -74.148827 -60.389587 8814200
-125.47292 -74.138962 -61.317307 8880504
-125.47886 -74.140564 -62.258492 8222833
-125.40147 -74.142357 -63.352859 8814968
-125.58521 -74.144249 -64.397079 10128771
-125.30552 -74.145714 -65.401108 8090987
-125.56876 -73.983994 -66.37413 8682612
-125.27496 -73.931908 -67.316231 8682100
-124.94273 -73.886391 -68.045311 9142651
-126.96971 -72.43541 60.209312 7564904
-127.31873 -72.857407 59.813004 7564648
-126.66814 -73.261673 21.59223 7630183
-126.66417 -73.182632 20.623055 7893355
-126.62544 -73.102226 19.610878 9077114
-126.57979 -73.022446 18.601118 8485233
-126.623 -72.936623 17.584484 7301214
-126.61223 -72.860916 16.650862 6511698
-126.64102 -72.77607 15.635387 6576979
-126.51838 -72.695671 14.559913 6051147
-126.53426 -72.612823 13.547594 7695972
-126.48687 -72.533112 12.618263 6577235
-126.75269 -72.428421 11.71998 8880502
-126.6462 -72.337379 11.094532 9736070
-126.15267 -72.472931 5.2507744 5919050
-126.2719 -72.683334 4.6085849 6379601
-126.56943 -72.889725 3.6809597 8485232
-126.89143 -73.062874 2.8344216 7366751
-125.81705 -73.169769 -66.829201 8550513
-125.57517 -72.995789 -67.478355 8353134
-125.15501 -72.970016 -68.373596 8550514
-124.93719 -72.659874 -69.087181 9340286
-127.2028 -71.676323 60.39867 8222575
-127.65078 -72.039932 59.967529 8616822
-126.3912 -72.16378 10.458495 8288882
-126.52383 -71.992004 9.5478067 6447193
-126.64539 -71.818535 8.6376419 7170917
-126.36423 -71.801651 7.6132236 6380372
-126.46717 -72.016685 6.5187159 6972766
-126.35535 -72.141808 5.6246057 5919050
-126.69119 -72.146118 4.6612053 6708822
-126.87782 -72.240791 4.0563669 8419696
-125.81503 -72.247704 -67.60791 8089963
-125.55433 -71.973938 -68.380005 8616306
-125.13792 -71.873642 -69.330124 8353135
-124.98962 -71.556099 -69.905273 9340286
-126.98791 -70.246078 61.153225 8420208
-127.24296 -70.718689 60.791912 9143675
-125.80875 -71.022125 -68.650452 8748149
-125.47314 -70.978752 -69.385086 8682356
-125.05473 -70.881393 -70.33831 9340286
-124.88707 -70.465828 -71.03804 9011323
-127.1836 -69.588074 61.321121 10985878
-127.51313 -69.802422 61.027172 5920074
-125.66899 -70.272011 -69.57309 8550514
-125.38955 -69.987709 -70.394829 9208700
-124.98792 -69.911804 -71.295235 11510170
-127.24861 -68.735634 61.653366 9538432
-125.73075 -69.074425 -70.454575 8419955
-125.31794 -69.015167 -71.364258 9997703
-124.99981 -68.781799 -72.223511 9800325
-127.20716 -67.540359 62.199539 10525071
-127.47649 -67.87796 61.888653 9209212
-125.65416 -67.916046 -71.591125 7630697
-125.25169 -67.891273 -72.450165 8157297
-124.93255 -67.823547 -73.171822 8618359
-127.19431 -66.701881 62.571606 10064522
-125.65807 -66.990845 -72.363281 7236194
-125.18271 -67.014305 -73.333397 7302502
-124.91827 -66.706322 -74.143883 7697259
-126.97207 -65.516594 63.221615 7038307
-127.4464 -65.77327 62.820896 9669765
-125.72229 -66.405174 -72.723526 8092016
-125.52879 -66.056099 -73.420952 8552566
-125.11681 -65.983635 -74.339989 7302498
-124.86521 -65.745224 -75.064911 8090984
-127.20314 -64.741692 63.41703 8682872
-127.72055 -64.933121 63.018295 8485494
-125.68526 -65.319572 -73.716293 10263180
-125.45075 -65.01532 -74.46125 8222570
-125.03443 -64.963066 -75.372314 9274488
-124.90066 -64.657982 -75.908226 11378324
-126.88326 -63.548531 64.130089 9143417
-127.40092 -63.736412 63.732697 11051415
-125.70338 -64.051041 -74.748444 8879987
-125.44992 -63.89156 -75.417923 9734526
-125.00316 -63.855556 -76.26593 9931907
-127.15269 -62.71291 64.328377 9537919
-127.63068 -62.962456 63.928478 10524813
-125.78003 -63.198929 -75.61657 9734526
-125.42841 -63.013943 -76.466614 9208444
-125.06391 -62.750587 -77.251259 8485233
-124.78384 -62.491676 -77.911194 9209467
-127.36239 -61.734402 64.625183 8221805
-125.49043 -62.120796 -77.514931 9340286
-125.13933 -61.858158 -78.342712 8682868
-124.99851 -61.547806 -79.095016 9734788
-127.21843 -60.503628 65.386925 7760998
-127.48721 -60.86792 64.944542 7563619
-125.68909 -61.317009 -78.897469 9011065
-125.31387 -61.213272 -79.505867 8089963
-125.14213 -60.939964 -80.315674 7563619
-124.87228 -60.67281 -81.136589 7892584
-125.23357 -60.898266 -83.529755 8813939
-125.44571 -60.81324 -84.766136 8090736
-125.005 -60.748829 -85.127693 7564393
-125.20704 -60.662357 -86.371902 8814201
-125.40499 -60.574703 -87.626305 7498853
-124.95229 -60.50967 -87.98365 6972762
-127.29842 -59.433117 66.528702 11116177
-127.39281 -59.890251 65.831528 7563619
-124.65006 -60.466419 -88.220665 6972762
-124.98709 -60.398842 -89.364288 6050893
-125.16882 -60.308403 -90.636711 9667964
-124.70383 -60.242855 -90.988708 10062979
-127.38027 -58.634068 75.557274 8157299
-127.32738 -58.910324 74.562614 8090737
-127.49635 -58.912159 73.565315 10261391
-127.29855 -58.913792 72.500633 11905698
-127.45593 -58.915607 71.509331 9471610
-127.42966 -58.917309 70.48954 7103579
-127.39603 -58.919006 69.471336 7959401
-127.23611 -58.945587 68.459175 8945528
-127.44316 -59.084232 67.518234 10261127
-127.13298 -57.419823 76.238716 9473411
-127.59944 -57.760826 75.804314 8091762
-127.46973 -56.626553 76.378922 10855063
-127.97427 -57.001095 75.906464 8815739
-127.20845 -55.306396 77.115219 10986652
-127.49277 -55.745945 76.749237 11052443
-127.41559 -54.572449 77.308792 9735557
-127.81352 -54.903275 76.920708 9013120
-127.44333 -53.696381 77.674263 10064264
-127.37383 -52.447418 78.262085 8287342
-127.74413 -52.858395 77.855927 8813941
-127.54448 -51.626152 78.516129 8221549
-127.20621 -50.501335 79.214287 11182228
-127.6303 -50.763412 78.840218 9406079
-127.55247 -49.648865 79.374458 11774108
-127.25894 -48.407383 80.0961 8090987
-127.5337 -48.769119 79.77002 8617074
-127.43963 -47.617554 80.330353 9537919
-127.86626 -47.993122 79.905174 8090987
-127.58068 -46.658073 80.662766 8353901
-127.3856 -45.5457 81.374367 6971993
-127.73447 -45.909447 80.927933 8354414
-127.47925 -44.446335 82.38649 9604994
-127.68655 -44.945835 81.738754 7959144
-127.50193 -43.888916 87.27565 8617331
-127.92086 -43.890316 86.66021 8353903
-127.13529 -43.892063 85.236946 9931910
-127.54443 -43.893448 84.623207 9931910
-127.68343 -44.058491 83.502846 10195851
-127.13651 -77.914787 -44.706642 8879478
-126.91649 -77.862 -45.432453 9142394
-126.60547 -77.87542 -46.355919 9472127
-126.32655 -77.85437 -47.222481 10393229
-127.11112 -77.222656 -45.58926 8287341
-126.91969 -76.960922 -46.471943 10129289
-126.60667 -76.97757 -47.397621 9406079
-126.32116 -76.950935 -48.290783 10129289
-126.20708 -76.646996 -48.989189 9010808
-128.1125 -75.374115 55.508854 6972249
-128.10417 -75.42852 54.627895 7367263
-128.2366 -75.390274 53.592171 7104091
-128.03719 -75.375298 52.71307 8287341
-128.03271 -75.345467 51.704044 9537408
-128.13573 -75.302521 50.492996 8484720
-127.84602 -75.28685 49.668365 8879731
-127.1185 -76.232971 -46.719227 8287341
-126.93457 -76.073547 -47.52137 7235421
-126.7569 -75.897789 -48.432034 8484464
-126.42981 -75.908585 -49.383392 9602944
-126.23764 -75.726341 -50.318794 11445141
-128.21922 -74.63858 56.404762 8089963
-128.41866 -75.065544 55.861668 7367263
-128.26492 -75.242027 49.476105 9143159
-128.09569 -75.192833 48.525936 10853004
-128.13068 -75.121841 47.482811 11971743
-128.03734 -75.07634 46.67746 9933451
-127.94991 -75.020714 45.67012 8881021
-128.0071 -74.958786 44.563732 11183003
-128.0237 -74.908691 43.620098 10787988
-127.87635 -74.861359 42.540615 9734787
-128.07158 -74.799675 41.579651 9866373
-127.97031 -74.754417 40.594135 11314589
-127.85087 -74.713852 39.676697 12038055
-127.92319 -74.647568 38.485546 9341314
-128.09192 -74.587715 37.528599 7498857
-127.88271 -74.55352 36.631714 8683385
-127.82724 -74.505844 35.651699 8420213
-127.83497 -74.422134 34.461239 8090992
-127.84451 -74.310043 33.638779 8090992
-127.13409 -75.301598 -48.646915 9405822
