# .PCD v0.7 - Point Cloud Data file format
VERSION 0.7
FIELDS x y z rgb
SIZE 4 4 4 4
TYPE F F F U
COUNT 1 1 1 1
WIDTH 1198
HEIGHT 1
VIEWPOINT 0 0 0 1 0 0 0
POINTS 1198
DATA ascii
-103.71724 -71.645004 73.303741 7761773
-104.62592 -71.70192 72.817932 8090993
-150.37556 -72.249031 24.815304 7037274
-150.98445 -72.195465 24.417274 7695716
-151.59006 -72.112976 23.641415 8090730
-101.42183 -70.455643 74.964737 12432045
-102.1339 -70.558647 74.55986 7828333
-102.95694 -70.721931 74.073471 8024943
-103.78689 -70.69294 73.663345 8551287
-104.37295 -71.087181 73.201653 9537923
-100.767 -69.459496 75.711143 6971738
-101.49409 -69.636299 75.267975 8748921
-102.41147 -69.62278 74.806931 8682358
-103.17202 -69.908813 74.30143 10457738
-100.05482 -68.519165 76.463539 7300446
-100.86208 -68.626793 76.008286 6576979
-101.82586 -68.643517 75.511131 8090220
-102.44659 -68.9133 75.083458 8287600
-98.690506 -67.206581 77.702095 9867404
-99.25872 -67.475433 77.301521 9867404
-100.04585 -67.631783 76.836281 7432032
-100.97736 -67.730034 76.321716 6906456
-101.67853 -67.717049 75.97049 7564642
-98.069511 -66.369415 78.365334 7564651
-98.703156 -66.50843 77.985298 10854298
-99.458366 -66.676247 77.531563 9867404
-100.3059 -66.632484 77.118637 8222317
-100.98715 -66.905571 76.658821 8946296
-97.259491 -65.146469 79.261909 6510930
-97.937592 -65.574234 78.760994 7630183
-98.90403 -65.619888 78.251808 10393491
-99.728592 -65.727455 77.787773 9275263
-96.605888 -64.306892 79.895439 8682867
-97.19178 -64.536339 79.539101 6708309
-98.172928 -64.651443 79.025284 7498337
-99.07296 -64.784271 78.512604 10064780
-96.002228 -63.313789 80.568474 7565153
-96.573296 -63.566547 80.209442 7367775
-97.439827 -63.626907 79.795319 7564130
-98.274254 -63.731903 79.355499 8288110
-98.798447 -64.088371 78.940941 9209726
-95.396484 -62.328888 81.239243 10853518
-95.967575 -62.563011 80.887703 8157033
-96.832077 -62.632664 80.470711 7236188
-97.583092 -62.794655 80.067429 7037530
-94.552605 -61.134735 82.101646 12235172
-95.12001 -61.589901 81.662392 13550517
-96.131683 -61.58112 81.210945 8288618
-97.019836 -61.848087 80.703529 8683120
-93.710609 -60.337082 82.9645 7563874
-94.531601 -60.482376 82.481163 9866883
-95.364212 -60.636566 82.002052 11643035
-96.085648 -60.826923 81.555466 8946292
-91.093285 -59.137691 85.669884 8616306
-91.694824 -59.196011 85.201454 9274235
-92.579399 -59.265224 84.64904 8682099
-93.26503 -59.499306 83.964577 9340540
-94.055153 -59.795162 83.267563 8616818
-94.850616 -59.857372 82.857994 8682867
-95.423813 -60.033375 82.452072 8682867
-77.280418 -58.162773 99.90155 9538435
-77.800354 -58.383537 99.579773 9209468
-78.637917 -58.475174 99.167259 9735554
-79.385193 -58.656456 98.541328 9603968
-79.903419 -58.788284 97.637077 10590349
-80.641281 -58.790428 96.814613 7958377
-81.337723 -58.792225 96.229042 8813942
-82.144806 -58.794312 95.53936 10920086
-82.946274 -58.796398 94.843262 12367532
-83.628448 -58.798187 94.241089 8419440
-84.418663 -58.800278 93.532242 7563618
-85.028503 -58.802414 92.538101 10064520
-85.594711 -58.804066 91.902939 10656913
-86.358147 -58.806023 91.263977 9670019
-87.027565 -58.808033 90.464149 7958633
-87.780098 -58.80999 89.813782 7432288
-88.229492 -58.811569 89.08683 8550509
-88.885757 -58.813721 88.143242 8089959
-89.643692 -58.828117 87.408897 8484975
-90.365303 -58.890457 86.848 9011322
-91.116936 -58.996765 86.147026 8484720
-92.059494 -59.051643 85.539497 8484719
-92.542534 -59.099022 85.161682 9340027
-77.136528 -57.415218 100.26565 10656658
-77.988937 -57.577641 99.818092 9143677
-78.784187 -57.704788 99.410355 9209467
-79.312828 -58.053093 99.033592 9209467
-76.513588 -56.329346 100.98029 10590865
-77.265984 -56.543781 100.55678 10590865
-78.170525 -56.648014 100.10915 8880507
-78.700592 -56.992794 99.733192 9209467
-75.725677 -55.520424 101.65797 8946807
-76.572594 -55.510769 101.28184 9077626
-77.536179 -55.648445 100.79429 8090992
-78.084572 -55.93869 100.43194 9538435
-75.059265 -54.55735 102.34289 9078649
-75.87854 -54.532242 101.98535 9077625
-76.738152 -54.615993 101.56609 9472127
-74.432938 -53.525936 103.03721 8485745
-75.198654 -53.634956 102.64996 9011833
-76.041359 -53.579063 102.29425 10656146
-73.642395 -52.473465 103.81366 8288367
-74.46434 -52.694176 103.3564 8485745
-75.331352 -52.62595 102.99475 9998215
-75.93277 -52.786354 102.66065 9735299
-72.888519 -51.457478 104.55902 7367015
-73.754417 -51.631516 104.10076 8945784
-74.694443 -51.746758 103.63282 9537664
-72.250565 -50.442242 105.25206 9668995
-73.085754 -50.580765 104.82184 8485235
-73.993813 -50.750271 104.34649 9208697
-74.597054 -51.049305 103.95605 9406078
-71.608856 -49.431572 105.94503 12825771
-72.33683 -49.588348 105.55553 10589838
-73.278366 -49.684345 105.09461 10392713
-73.959633 -50.028278 104.65118 10458505
-70.963387 -48.425232 106.63786 11116180
-71.692673 -48.579021 106.24902 12694442
-72.635544 -48.671284 105.78899 10458506
-73.318527 -49.011932 105.34609 9011574
-70.187637 -47.402325 107.39582 9669508
-71.044769 -47.57391 106.94251 9669761
-71.892326 -47.627056 106.54108 10919057
-72.507561 -47.88158 106.16297 10129798
-69.452431 -46.382988 108.1348 9800837
-70.284897 -46.595936 107.6761 8945787
-71.198776 -46.660652 107.24068 10195850
-71.742531 -46.974842 106.87059 13023917
-68.181862 -45.223591 109.34957 7694947
-68.765373 -45.444458 108.91927 10062980
-69.623268 -45.58543 108.4383 9208445
-70.53965 -45.717705 107.9377 9274751
-71.090744 -45.972588 107.5662 10590351
-66.203041 -44.060543 111.47798 10063235
-66.80143 -44.148724 111.11159 9142646
-67.578026 -44.309101 110.53748 6116940
-68.199539 -44.622025 109.84537 6313551
-69.063438 -44.784832 109.32327 9273465
-69.845963 -45.013123 108.78262 8550515
-57.798046 -43.297043 120.23994 10919314
-58.583527 -43.455448 119.92844 10130313
-59.225861 -43.693096 119.32802 10656657
-60.08215 -43.731998 118.71218 8287597
-60.542873 -43.733738 117.85931 9143163
-61.137146 -43.735779 116.9306 10064521
-62.119617 -43.737942 116.41089 8748665
-62.958241 -43.739796 115.95871 9143166
-63.268749 -43.741966 114.5521 7367013
-64.093887 -43.743813 114.09171 7958633
-64.915665 -43.745659 113.6253 9406079
-65.523697 -43.786854 112.79268 8945526
-66.193405 -43.873947 112.07397 8879474
-66.937515 -43.922169 111.79228 11904668
-57.17416 -42.096756 120.79251 13022893
-57.770039 -42.472652 120.54869 10853778
-58.618862 -42.651352 120.33287 9998727
-57.055637 -41.383793 121.07618 10064262
-57.930843 -41.498512 120.87926 9406589
-58.528515 -41.875164 120.63487 9406590
-56.389091 -40.177311 121.63853 8485488
-57.183933 -40.421932 121.40797 11906720
-57.838322 -40.723557 121.18118 10459276
-56.340477 -39.367111 121.94572 9473408
-57.170662 -39.514732 121.74467 11775134
-55.676113 -38.312252 122.45184 11973541
-56.562817 -38.46859 122.2376 8947319
-55.021114 -37.023178 123.04263 8682867
-55.746826 -37.368504 122.78716 10986132
-56.460564 -37.66489 122.55183 11446682
-55.035732 -36.321384 123.29867 9274236
-55.838867 -36.542431 123.07536 11643549
-54.315861 -35.176559 123.84795 8682867
-55.063843 -35.436005 123.62006 9076601
-55.878059 -35.764347 123.35519 9734531
-54.341515 -34.417599 124.12338 9142650
-55.16534 -34.48811 123.95174 8681843
-53.705082 -33.392269 124.61412 9208699
-54.462677 -33.488979 124.44451 9669251
-53.093178 -32.320164 125.11771 10459278
-53.647778 -32.486061 124.9585 10064264
-54.383373 -32.55302 124.80379 10064009
-53.002235 -31.535414 125.42329 11643294
-53.795353 -31.417276 125.32664 10590864
-52.254128 -30.332911 126.1343 11182486
-52.990089 -30.521221 125.87447 12762032
-53.664154 -30.704971 125.61259 10854036
-50.925926 -29.10059 127.61052 7565675
-51.574581 -29.458832 126.96429 8946554
-52.482574 -29.624111 126.61918 10262410
-41.868671 -28.178864 136.74925 9736068
-42.631237 -28.316999 136.49757 12697009
-43.296459 -28.637238 135.86795 14801873
-44.106346 -28.686897 135.47356 15195094
-45.316086 -28.69154 133.17752 9735812
-46.116486 -28.693123 132.90184 9011320
-46.75552 -28.694391 132.6783 10129545
-47.902172 -28.69891 130.40216 9537918
-48.842121 -28.7008 130.05206 7828327
-49.592922 -28.773384 129.21181 9801859
-50.209221 -28.861933 128.50003 10854035
-51.018421 -28.88447 128.2886 7565675
-41.850491 -27.300467 137.07613 9801347
-42.661556 -27.603039 136.8212 10788243
-41.111465 -26.212967 137.60754 11379606
-41.945881 -26.423067 137.38257 8946041
-40.581131 -25.282589 138.04419 8287850
-41.14756 -25.49152 137.86702 9669504
-41.933334 -25.483784 137.73087 10854036
-40.413681 -24.539194 138.34772 6906456
-41.292358 -24.649475 138.15172 9077628
-39.748878 -23.365211 138.89793 7367008
-40.487259 -23.551968 138.6985 7038047
-41.241638 -23.913059 138.43202 8288371
-39.183819 -22.141417 139.44882 6643029
-39.837502 -22.499657 139.20119 7630181
-40.603664 -22.599995 139.0287 7038307
-39.012192 -21.393482 139.75473 6775129
-39.896454 -21.500948 139.55876 6709082
-38.338512 -20.213409 140.30878 4340793
-39.141895 -20.367832 140.10974 4670013
-39.842304 -20.759426 139.84158 5919564
-37.765007 -18.982094 140.86394 5920082
-38.42408 -19.340717 140.61519 4340793
-39.248981 -19.422253 140.43925 3815474
-37.705467 -18.3971 141.08997 5920082
-38.509827 -18.465826 140.92245 4933442
-37.675678 -17.49893 141.42622 7762024
-38.404636 -17.76182 141.20044 6972252
-36.965515 -16.411694 141.95247 8222574
-37.818893 -16.609978 141.72853 9472640
-36.300735 -15.366749 142.55313 8287853
-37.021122 -15.502627 142.3349 8090474
-37.741318 -15.639004 142.11705 9932678
-34.919971 -14.087697 143.98344 9734270
-35.56554 -14.254739 143.62459 10458253
-36.342987 -14.652736 143.07234 9077369
-30.753389 -13.650405 148.46657 10525070
-31.646105 -13.652028 148.27878 9538178
-34.253067 -13.796795 145.03462 9865856
-35.134678 -13.802179 144.86562 11378324
-116.16228 -75.357262 61.071575 7563619
-116.78114 -75.461418 60.680416 8089963
-117.5856 -75.509727 60.261131 8945272
-118.29882 -75.71521 59.715309 9734787
-118.90654 -75.989128 58.802181 8682613
-119.66302 -75.980515 58.205318 8485491
-120.34171 -75.929184 57.463581 7958889
-121.00262 -75.869774 56.708851 5919050
-121.70522 -75.81057 56.039566 7629924
-122.31472 -75.750885 55.181606 8814454
-123.10226 -75.692184 54.681976 7498338
-123.78019 -75.624985 53.702785 7629924
-124.54144 -75.565971 53.14381 7827049
-125.18453 -75.506363 52.351845 11051416
-125.96902 -75.439545 51.577679 7760997
-126.75283 -75.380081 51.044682 7563618
-127.33629 -75.320396 50.14204 7629668
-127.99734 -75.250229 49.407745 9011059
-113.86488 -74.310005 63.695614 8419440
-114.69337 -74.424194 63.095737 9603970
-115.49545 -74.543007 62.505592 11972002
-116.16274 -74.751442 61.831028 10787728
-116.81623 -75.013702 61.126736 7761253
-117.66698 -75.13414 60.60046 8616307
-128.72386 -75.157875 48.834465 9143417
-129.42664 -75.049011 47.998302 9735555
-129.96051 -74.973053 47.307796 11446174
-130.71545 -74.898148 46.72794 8946296
-131.44814 -74.810707 45.885506 9669762
-132.17628 -74.723083 45.034824 6446417
-132.92795 -74.647285 44.434574 6775382
-133.57759 -74.57663 43.817924 10459274
-134.30937 -74.492264 43.032669 10919316
-134.93364 -74.413315 42.231243 10655888
-135.62181 -74.346497 41.729881 10524300
-136.22255 -74.270523 40.958126 6116429
-106.35429 -73.462479 71.20829 8617337
-106.98898 -73.454926 70.888664 7433575
-107.91869 -73.571335 70.341492 8748661
-108.58632 -73.726166 69.669868 10129545
-109.40017 -73.858475 69.122032 7038042
-109.95068 -73.842361 68.180046 8485488
-110.6713 -73.838486 67.341896 9143418
-111.34224 -73.858925 66.756767 10787988
-111.92359 -73.929016 65.906807 8287597
-112.55071 -74.032372 65.185616 7300446
-113.5781 -74.055168 64.597954 8879991
-114.33459 -74.083168 64.119843 7432289
-115.02545 -74.151772 63.509758 6510930
-136.80759 -74.22023 40.655258 6642517
-137.11253 -74.169212 40.027912 7234654
-137.7813 -74.091911 39.503429 7169375
-138.38457 -73.941299 38.68541 10261127
-139.18303 -73.828796 37.975956 7893097
-139.78596 -73.73732 37.297203 8682867
-140.40933 -73.634987 36.438911 8287853
-141.28168 -73.549507 35.939152 8024423
-141.907 -73.448036 35.068043 8550250
-142.5153 -73.361061 34.369274 9734523
-143.10977 -73.288361 33.844475 8879732
-105.79259 -72.382515 71.942131 7038307
-106.35728 -72.675987 71.53315 9012094
-107.2903 -72.609978 71.08596 6709334
-108.08298 -72.769669 70.616501 7301214
-143.14339 -73.244446 33.306789 9143166
-144.00789 -73.171341 32.959419 7827565
-144.89684 -73.068169 32.245197 7038307
-145.50209 -72.979378 31.521984 9735558
-146.10472 -72.890327 30.793499 10392974
-146.70465 -72.800941 30.059731 10459023
-147.58867 -72.710197 29.500153 9932935
-148.1895 -72.619835 28.754375 7761254
-148.79668 -72.533684 28.00502 8485233
-149.47423 -72.467194 27.077564 8155755
-150.43654 -72.409111 26.503365 7564651
-151.0132 -72.322609 25.917297 7169890
-104.98501 -71.339615 72.785606 8025201
-105.66238 -71.749268 72.271103 8814715
-106.61802 -71.648552 71.82682 8616819
-107.48862 -71.830597 71.308479 8879990
-151.61067 -72.231972 25.143105 7038042
-152.22227 -72.149239 24.366257 8616818
-153.15495 -72.08403 23.947659 9735043
-104.18551 -70.432205 73.568733 8222323
-104.91064 -70.544083 73.153519 9274752
-105.74873 -70.718025 72.655052 11248023
-106.60213 -70.797699 72.18792 8419439
-107.19096 -71.102715 71.761925 9735043
-103.45229 -69.491928 74.331833 10983825
-104.26305 -69.605797 73.872208 8485494
-105.19795 -69.602135 73.398209 7959151
-105.97182 -69.899246 72.881294 8287859
-102.89698 -68.485481 75.031868 8550771
-103.63567 -68.726685 74.556053 8682100
-104.6058 -68.607101 74.112213 7761772
-105.12202 -68.917427 73.720886 8287859
-102.15018 -67.571625 75.790909 8025195
-103.08173 -67.634911 75.29081 7498342
-103.92441 -67.764084 74.808601 8748407
-104.54693 -67.87114 74.447586 7038307
-100.7923 -66.272385 77.020607 9735812
-101.37727 -66.641602 76.569923 7696229
-102.24992 -66.642654 76.125587 7827815
-103.15571 -66.730309 75.628494 7169888
-103.91312 -66.999443 75.131577 10262156
-100.16344 -65.428703 77.690544 7959144
-100.72598 -65.553474 77.352669 6840919
-101.62289 -65.684357 76.842155 7762021
-102.46129 -65.693375 76.411949 8419952
-103.13573 -66.102402 75.899216 6972250
-99.402054 -64.303055 78.544868 10064521
-100.09503 -64.713585 78.022072 8880502
-101.04752 -64.571045 77.596725 7301214
-101.78525 -64.792511 77.129608 7169628
-98.586426 -63.351192 79.354607 9209726
-99.456154 -63.563484 78.824203 10064519
-100.46224 -63.674843 78.266296 9077625
-101.21743 -63.819649 77.822052 8682867
-97.99913 -62.367039 80.052795 10130055
-98.652946 -62.673553 79.601982 12103586
-99.550583 -62.580189 79.184151 9209726
-100.31728 -62.785328 78.709053 9275262
-97.288239 -61.441383 80.747276 7893863
-98.062027 -61.587276 80.338165 8946297
-98.961922 -61.700871 79.848381 8486261
-99.666458 -61.842438 79.431305 8091760
-95.973373 -60.130829 82.123001 8682867
-96.659416 -60.447422 81.558334 7762278
-97.561028 -60.623161 81.034149 7301474
-98.38755 -60.734131 80.562767 7893611
-99.026703 -61.024994 80.095955 7039331
-94.561676 -59.225433 83.829475 9077881
-95.344566 -59.404381 83.136086 10853777
-96.035301 -59.603291 82.575371 8222060
-96.82415 -59.712158 82.094864 6314323
-97.407722 -59.982796 81.60434 5393738
-79.924973 -58.205704 98.697769 9275005
-80.653465 -58.479584 98.200783 8221805
-81.528984 -58.575275 97.703262 8879735
-82.052254 -58.782776 96.883705 9537921
-82.794128 -58.794704 96.059242 9735812
-83.485115 -58.796505 95.45816 9011320
-84.171707 -58.798313 94.852104 7037274
-84.967064 -58.800411 94.138618 7037274
-85.756638 -58.802509 93.418785 8484976
-86.428459 -58.804302 92.796364 12236202
-87.206406 -58.806396 92.063972 9603970
-87.978477 -58.808491 91.325325 7959145
-88.635124 -58.810287 90.686951 8419696
-89.099693 -58.812107 89.769089 7892581
-89.751244 -58.814053 88.99987 6839896
-90.497398 -58.816128 88.239899 8221548
-91.131683 -58.817905 87.583389 9142651
-91.87635 -58.826859 86.821655 9274237
-92.659737 -58.864334 86.095558 8221805
-93.344154 -58.907539 85.483536 7827307
-94.067963 -58.977779 84.905251 8090991
-94.363533 -59.099941 84.351723 9209467
-79.396461 -57.399559 99.257973 8748661
-80.029343 -57.470402 98.94558 8682612
-80.875015 -57.567291 98.527313 9406591
-81.618607 -57.854687 98.078522 8024426
-78.571297 -56.318699 100.06128 8288371
-79.283554 -56.559883 99.645058 8222062
-80.261871 -56.501507 99.229477 7827047
-80.869392 -56.790993 98.840919 9340798
-77.812462 -55.253292 100.82871 7038307
-78.55159 -55.584221 100.36443 8353908
-79.49575 -55.563725 99.949043 9142910
-80.253807 -55.727757 99.543167 8090475
-77.212807 -54.319649 101.47186 10064265
-77.820595 -54.59713 101.08797 7695979
-78.808006 -54.695736 100.60543 8616824
-79.656395 -54.782944 100.18981 9340289
-76.587486 -53.279865 102.16912 11905701
-77.196526 -53.554008 101.786 10327180
-78.043449 -53.634319 101.37379 8223343
-78.772781 -53.815022 100.97417 8551287
-75.653458 -52.110786 103.05668 10129545
-76.472755 -52.47826 102.54181 9143162
-77.416519 -52.592892 102.07241 8288877
-78.146866 -52.769978 101.67376 8618099
-75.04361 -51.193249 103.69793 9603457
-75.796272 -51.472145 103.24849 9800580
-76.786041 -51.556797 102.77047 9735043
-77.535744 -51.819183 102.32896 8618099
-74.489555 -50.230484 104.33234 9011574
-75.083382 -50.406723 103.99529 9077368
-76.042465 -50.546394 103.50896 9340541
-76.76564 -50.794411 103.08508 10853012
-73.815125 -49.370758 104.97948 10458505
-74.366959 -49.476433 104.68951 10261383
-75.37249 -49.488785 104.23341 9537662
-76.129288 -49.765343 103.78301 10064008
-73.171898 -48.356216 105.67458 10129798
-73.760696 -48.559086 105.32922 8814452
-74.653069 -48.429985 104.98091 8156523
-75.342552 -48.708328 104.55984 8353389
-72.52549 -47.346268 106.37022 11576729
-73.115425 -47.546585 106.02532 11248021
-73.902596 -47.50388 105.68991 10327176
-74.680115 -47.602173 105.30208 8353645
-71.591957 -46.323307 107.20043 9144187
-72.322365 -46.609726 106.75789 11050643
-73.254738 -46.49292 106.38733 10524555
-73.915443 -46.687542 106.01298 11050642
-70.913307 -45.209888 108.14128 9012346
-71.674042 -45.4823 107.59972 8881015
-72.527565 -45.637585 107.11987 8222572
-73.276436 -45.684883 106.72733 8682867
-68.754326 -44.164368 110.26172 5392706
-69.556541 -44.281357 109.65908 9076342
-70.313431 -44.497925 109.0613 8221548
-71.102295 -44.644466 108.54051 10196876
-72.043678 -44.763119 108.01063 9933703
-59.287331 -43.256718 119.99169 10130313
-59.911949 -43.47541 119.80074 10459278
-60.788197 -43.493931 119.62744 9998469
-61.221767 -43.734482 118.12743 10063492
-62.072758 -43.736347 117.68163 10063492
-62.920506 -43.738216 117.22979 9472130
-63.483902 -43.739464 116.92534 10261132
-63.93227 -43.741966 115.42332 6972509
-64.902 -43.744137 114.88015 8156267
-65.729523 -43.745995 114.40794 9011320
-66.187752 -43.748032 113.30651 8353389
-66.819885 -43.749969 112.51411 9471354
-67.605644 -43.844772 111.86639 9275261
-68.358559 -43.882938 111.40887 7564642
-69.046158 -43.991997 110.72862 5392706
-69.739326 -44.011429 110.35573 7694947
-59.198559 -42.479454 120.29378 9011832
-60.051655 -42.661125 120.07611 9077625
-58.609913 -41.38739 120.80022 10459276
-59.236427 -41.6026 120.61025 9603969
-59.959324 -41.744373 120.43027 8682867
-58.466236 -40.511158 121.14856 10459276
-59.353424 -40.662983 120.93588 12301223
-57.805065 -39.448387 121.65701 10459276
-58.64642 -39.577087 121.46095 9077625
-59.182667 -39.947971 121.22958 10656657
-57.154846 -38.151073 122.25004 8092011
-57.828651 -38.495071 122.00419 8880758
-58.644726 -38.785259 121.75306 8748916
-57.033043 -37.437584 122.53445 9144442
-57.941818 -37.620754 122.30641 9078650
-56.356625 -36.233303 123.09772 14867146
-57.2533 -36.511646 122.83678 10789010
-58.023483 -36.89336 122.56001 9539462
-56.432629 -35.404457 123.38981 11445405
-57.224739 -35.652733 123.15836 9670531
-55.715473 -34.328957 123.91322 9010808
-56.566833 -34.556313 123.67883 10195339
-54.967319 -33.078835 124.5066 10064009
-55.741196 -33.452396 124.23197 9208187
-56.540966 -33.664299 124.01245 9603458
-55.006527 -32.389568 124.7539 9997960
-55.957123 -32.522591 124.5368 9932166
-54.434219 -31.337362 125.24323 10459022
-55.217857 -31.444706 125.06509 9998216
-55.829582 -31.808008 124.8229 10985367
-53.698036 -30.189596 125.96871 11117720
-54.408173 -30.429682 125.67422 10196106
-55.121696 -30.673153 125.38779 9734788
-52.214893 -29.138218 127.26763 9210491
-53.02433 -29.2187 126.97233 10065544
-53.760345 -29.553865 126.46204 9933958
-54.427277 -29.812893 126.13107 9210491
-43.927994 -28.265036 136.35326 14275785
-44.726326 -28.498114 135.81961 14734799
-45.408241 -28.689451 135.04169 9077375
-46.219852 -28.691051 134.76587 7038307
-47.234097 -28.695345 132.50829 9405566
-48.189369 -28.697252 132.16295 11774882
-48.983635 -28.698849 131.87068 12434093
-50.091694 -28.703327 129.57555 10788496
-50.870266 -28.704914 129.27129 10196363
-51.747665 -28.785286 128.5872 8552311
-52.476177 -28.926697 127.90231 10722963
-53.124531 -28.946091 127.72843 12104359
-43.221287 -27.295927 136.83533 7827046
-44.073315 -27.475948 136.61833 11183258
-44.76638 -27.796347 136.37778 14605262
-42.543591 -26.187981 137.36348 7366754
-43.338264 -26.34823 137.16389 6510930
-44.028313 -26.742119 136.89665 7827046
-42.638638 -25.326855 137.664 10064778
-43.370152 -25.459146 137.48587 8222061
-41.937202 -24.389009 138.13361 10854036
-42.590549 -24.590595 137.94379 9735557
-43.402992 -24.652231 137.77737 9538435
-41.142948 -23.217779 138.70572 9011838
-41.842548 -23.535049 138.46504 7696236
-42.61438 -23.663809 138.28113 7038307
-41.171051 -22.407701 138.99921 7367015
-42.013592 -22.616993 138.77309 7235686
-40.498276 -21.119001 139.59303 7038307
-41.197628 -21.511408 139.32477 8419958
-42.000149 -21.668665 139.12489 7038307
-40.445114 -20.376183 139.87617 6775131
-41.33287 -20.484549 139.67924 11511969
-39.825287 -19.220444 140.41168 3947059
-40.613293 -19.450436 140.18758 5262148
-39.222069 -18.299683 140.85768 3749937
-39.798107 -18.508373 140.67889 3749937
-40.595936 -18.494762 140.5428 5327941
-39.048313 -17.543684 141.16696 6774359
-39.941017 -17.649813 140.97002 4144438
-38.367489 -16.351505 141.72678 11380380
-39.178616 -16.505558 141.52657 8879734
-39.885941 -16.899843 141.25615 7037274
-37.654835 -15.121434 142.47844 8288371
-38.470043 -15.474394 142.09879 9406334
-39.248878 -15.714075 141.81546 9406334
-36.322277 -14.09722 143.7113 8287853
-36.996037 -14.184018 143.46672 7893356
-37.69088 -14.52378 142.95779 7959407
-38.423538 -14.786692 142.60202 8024685
-32.181217 -13.653007 148.16353 10590351
-32.893879 -13.654309 148.00639 9406080
-33.606098 -13.655617 147.84645 9011574
-35.663815 -13.805579 144.76344 11378324
-36.545815 -13.811582 144.59215 9208442
-119.06157 -75.392448 59.694859 7893355
-119.54223 -75.578232 59.288723 8156780
-120.38715 -75.623611 58.795021 7564642
-121.27745 -75.728844 58.267578 7564387
-121.81521 -75.835991 57.267597 9011833
-122.54366 -75.784775 56.711109 8814454
-123.16126 -75.724426 55.84798 7103324
-123.8642 -75.664772 55.162533 7037274
-124.56648 -75.604965 54.470917 7235164
-125.34092 -75.537628 53.662426 9537921
-125.88776 -75.492798 53.180122 11512223
-126.65771 -75.425262 52.357975 10854037
-127.34945 -75.365273 51.640942 10787988
-128.04037 -75.30513 50.917698 8813685
-128.57539 -75.25161 50.164547 8287341
-116.43221 -74.189301 62.648945 7038298
-116.84116 -74.403214 62.145645 9537918
-117.53365 -74.518036 61.608692 9340284
-118.29244 -74.68148 60.981159 8485235
-119.05006 -74.849457 60.36187 8748663
-119.83502 -74.981651 59.792324 7827816
-129.00647 -75.211861 49.975155 9670019
-129.4637 -75.153183 49.614311 9472640
-130.08429 -75.055603 48.847942 8946039
-130.78706 -74.959084 47.964733 10064521
-131.52005 -74.882935 47.336624 9538177
-132.25424 -74.806396 46.702686 11709346
-132.83743 -74.726204 45.831486 7762277
-133.5666 -74.649292 45.18446 5919050
-134.29695 -74.571945 44.53154 8354670
-134.91121 -74.496002 43.774815 9208958
-135.59497 -74.413727 42.976025 9208958
-136.51155 -74.32756 42.362919 10261129
-136.90825 -74.26638 41.643959 7432033
-109.26383 -73.355049 69.773018 8090730
-109.84995 -73.524681 69.404503 6774870
-110.75157 -73.582596 68.859367 7235682
-111.44215 -73.744766 68.282799 8880506
-112.14735 -73.85862 67.500481 10064265
-112.6063 -73.844063 66.673279 10656658
-113.41798 -73.850708 65.947296 7366496
-114.02812 -73.876953 65.235413 8814197
-114.7684 -73.903458 64.635017 8484975
-115.63513 -73.948891 64.026787 6971481
-116.25523 -74.053276 63.277126 7827814
-117.11323 -74.096535 62.651196 8682866
-117.52413 -74.167618 62.144993 9537918
-137.46008 -74.230064 41.570076 7563619
-137.57602 -74.187065 40.8829 7563619
-138.48607 -74.096451 40.246853 7432033
-139.1241 -73.971764 39.524773 7037789
-139.80208 -73.844971 38.626862 7037789
-140.55811 -73.738976 37.86544 7761509
-141.17601 -73.652466 37.182037 7234909
-142.05801 -73.566544 36.682789 8748661
-142.54413 -73.47892 35.893799 8681835
-143.2395 -73.376747 35.060799 9734523
-143.92052 -73.288963 34.401787 9734523
-108.55662 -72.343636 70.552368 9735043
-109.19784 -72.64901 70.09951 8945783
-110.10894 -72.706085 69.612389 7235167
-110.92053 -72.742393 69.184525 7038307
-143.95503 -73.244766 33.860584 10261132
-144.81793 -73.185898 33.695168 8419701
-145.43135 -73.097061 32.976658 6643549
-146.0421 -73.007957 32.252857 8616822
-146.65024 -72.91851 31.523746 9011321
-147.54803 -72.813179 30.78783 9735044
-148.44809 -72.707092 30.043316 8024170
-149.05579 -72.616142 29.294548 8024426
-149.36571 -72.541695 28.546726 9340798
-150.33018 -72.481873 27.980549 9406851
-151.02348 -72.417152 27.043869 7564651
-151.32515 -72.357048 26.471447 7564651
-152.24066 -72.299034 26.253155 7564651
-107.71134 -71.42894 71.361832 10129545
-108.43954 -71.629013 70.908424 9537664
-109.28404 -71.630913 70.478073 9603714
-110.10537 -71.7584 70.007408 8879479
-152.23738 -72.25396 25.686661 6511954
-153.17067 -72.159119 24.895962 8616818
-154.11037 -72.078522 24.286602 8090730
-154.10252 -72.048355 23.905155 9933193
-106.89207 -70.379089 72.214127 8485232
-107.74194 -70.559975 71.706779 7103835
-108.57491 -70.692787 71.228035 10326924
-109.43394 -70.881561 70.712776 10064009
-106.25953 -69.481277 72.908401 7038307
-107.08576 -69.605057 72.43676 7630437
-107.9829 -69.657852 71.958549 6972506
-108.79491 -69.966743 71.417336 8419184
-105.66521 -68.511047 73.613228 7367015
-106.45011 -68.710396 73.131279 7038307
-107.38873 -68.632362 72.686234 6840925
-107.96515 -68.918907 72.27417 7432801
-104.37346 -67.46917 74.702583 9143678
-104.99827 -67.57711 74.339966 7564650
-105.89057 -67.601898 73.875816 7827565
-106.74905 -67.74118 73.381332 7038307
-103.56441 -66.202492 75.63961 7038307
-104.24888 -66.650627 75.105553 8814714
-105.23953 -66.64653 74.60334 8617335
-106.02621 -66.689911 74.185242 7169892
-102.78551 -65.311951 76.405296 8089962
-103.52238 -65.525604 75.941856 6576980
-104.36201 -65.676682 75.45208 7762027
-105.15248 -65.709915 75.036308 9735814
-105.8077 -66.019775 74.574455 9143678
-102.23227 -64.363609 77.080162 6445650
-102.86207 -64.622047 76.652626 6708309
-103.79603 -64.597374 76.18792 8155499
-104.56451 -64.77375 75.724037 8353649
-101.48966 -63.405823 77.855293 8748662
-102.25906 -63.666176 77.356026 8682357
-103.19067 -63.636711 76.894661 5853257
-103.83801 -63.78075 76.505821 6971738
-100.85027 -62.572037 78.52652 9143162
-101.64339 -62.564957 78.126305 8682615
-102.52544 -62.744431 77.603516 8222064
-103.26569 -62.948814 77.142395 6445394
-99.98214 -61.462017 79.428841 8420212
-100.76299 -61.719921 78.924858 9537922
-101.81896 -61.622372 78.428802 8879993
-102.62045 -62.108093 77.819687 9734788
-98.63929 -60.310055 80.767448 7038304
-99.461967 -60.56184 80.160522 7236453
-100.27515 -60.603603 79.715233 7959150
-101.05166 -60.790672 79.197449 9143166
-101.65089 -60.860367 78.830841 9143166
-96.67836 -59.157665 83.126076 7300702
-97.38623 -59.292442 82.418716 5919566
-98.048279 -59.594803 81.671532 5854288
-98.965813 -59.722481 81.112457 6182996
-99.707039 -59.880882 80.602432 8156525
-100.49355 -60.017994 80.084785 8090736
-82.737297 -58.415264 97.34494 10327436
-83.503265 -58.53091 96.879478 8353390
-84.246658 -58.632755 96.385231 7826790
-84.835388 -58.798733 95.36731 7037274
-85.635315 -58.800846 94.648552 7037274
-86.316025 -58.802658 94.026985 6906716
-86.992241 -58.804466 93.400505 11051417
-87.775246 -58.806572 92.663361 8617332
-88.552322 -58.808678 91.919914 7564131
-89.213272 -58.810478 91.277351 8419696
-89.869507 -58.812283 90.630043 6576980
-90.62912 -58.814388 89.86869 5919050
-91.382523 -58.816486 89.101326 7563619
-92.023056 -58.818287 88.438385 7366239
-92.764069 -58.820377 87.659042 8682612
-93.498856 -58.822464 86.873764 8090475
-94.123215 -58.824253 86.195618 7038307
-94.742683 -58.826042 85.512985 7235685
-95.300003 -58.920898 84.569992 8748919
-96.145866 -59.007076 83.883209 9735298
-97.067528 -59.011478 83.459686 6510930
-97.794922 -59.090363 82.864243 8156011
-82.091301 -57.502735 98.007469 8879735
-82.937691 -57.480011 97.636803 8682867
-83.746147 -57.622295 97.217041 8485488
-84.280602 -57.98381 96.83239 11380124
-81.305931 -56.477039 98.770874 9735556
-82.156563 -56.657833 98.31675 8748660
-83.057648 -56.603451 97.934242 7959144
-83.66954 -56.900803 97.540581 7959144
-80.614479 -55.43623 99.498199 8551026
-81.48774 -55.643681 99.023224 8683124
-82.402702 -55.748127 98.570847 8090987
-79.383522 -54.095539 100.58778 9340289
-79.936829 -54.388107 100.22222 9734789
-80.726448 -54.565979 99.796677 9011835
-81.677155 -54.699718 99.316505 9077882
-82.357628 -55.077667 98.859734 8090987
-79.332314 -53.432205 100.87651 9603204
-80.103783 -53.510284 100.49909 9471617
-80.913139 -53.635624 100.08572 9142907
-81.451561 -53.982235 99.705284 9341054
-78.714073 -52.527229 101.51653 9012857
-79.43409 -52.521793 101.19566 8748921
-80.287651 -52.581799 100.78861 8813686
-80.827286 -52.925014 100.40897 8681843
-77.762405 -51.398457 102.39587 8354927
-78.670792 -51.601055 101.90707 9078138
-79.658691 -51.533619 101.49085 8814968
-80.199608 -51.873585 101.1119 8681843
-77.12191 -50.499115 103.0436 10853012
-78.042969 -50.638115 102.57466 8420464
-78.906311 -50.626003 102.19211 9078394
-76.484917 -49.46928 103.74211 9866629
-77.220345 -49.638592 103.34442 9471871
-78.133461 -49.716728 102.90367 7762022
-75.844902 -48.444584 104.44102 9273978
-76.581398 -48.610626 104.04425 9406335
-77.53566 -48.717953 103.5736 9208955
-78.223351 -49.07198 103.12293 7564643
-75.201561 -47.42453 105.14004 8550513
-75.939171 -47.587402 104.74406 8353135
-76.796852 -47.653503 104.33327 8484720
-77.416801 -47.91943 103.94848 10064008
-74.391159 -46.384121 105.9221 11115923
-75.229317 -46.596386 105.46118 10655629
-76.107231 -46.66848 105.03891 10392714
-76.653702 -46.993271 104.66334 8089963
-73.091484 -45.182465 107.19155 8682867
-73.751251 -45.388355 106.73422 9340540
-74.561752 -45.592838 106.22335 11576218
-75.455498 -45.709248 105.74426 10129542
-76.006836 -45.97282 105.36407 12432037
-71.261711 -44.057007 109.52692 10459278
-71.747803 -44.145245 109.00752 13749696
-72.454124 -44.281666 108.41145 11183769
-73.126541 -44.574905 107.68464 7038555
-73.992958 -44.749947 107.15115 10458250
-74.775787 -44.990204 106.60038 11773340
-61.349194 -43.2374 119.63454 10195078
-62.053539 -43.537235 119.26012 9800833
-62.879856 -43.73661 118.51791 9209467
-63.591625 -43.738186 118.13702 9209467
-63.905479 -43.740402 116.69504 8617330
-64.745827 -43.742275 116.22958 6972762
-65.722351 -43.744461 115.67954 6906456
-66.417061 -43.746025 115.2816 7761509
-66.690605 -43.748169 113.8496 7761509
-67.510368 -43.750034 113.36412 7498594
-68.462593 -43.752209 112.79086 7893607
-69.274887 -43.754078 112.29301 6840919
-69.479485 -43.822323 111.12382 6248014
-70.389633 -43.921036 110.38133 8945782
-71.111519 -43.942654 109.98823 10064520
-60.691677 -42.164173 120.14619 9143161
-61.349594 -42.474781 119.91546 10064005
-62.151226 -42.733448 119.67857 9537918
-60.604252 -41.384335 120.44903 9603711
-61.463749 -41.567108 120.22984 10129798
-60.025867 -40.476826 120.88564 12037795
-60.773308 -40.404709 120.78019 9472125
-61.376858 -40.785744 120.53315 8682867
-59.292103 -39.295879 121.45049 10656657
-59.91441 -39.564026 121.24177 11577759
-60.680187 -39.48613 121.13518 9669762
-59.200153 -38.518219 121.75337 9406846
-60.043884 -38.581326 121.58103 10327692
-58.501568 -37.366714 122.30112 9539462
-59.307404 -37.611485 122.06857 9735811
-59.869553 -37.851067 121.88094 9209467
-58.454887 -36.55167 122.60976 10460563
-59.351162 -36.696659 122.39799 13025718
-57.784363 -35.491173 123.11903 8486776
-58.683537 -35.64698 122.90275 10855321
-57.124466 -34.194763 123.71368 9932166
-57.899704 -34.5737 123.43682 7959918
-58.702076 -34.790787 123.21503 9539462
-57.130157 -33.461182 123.98322 10063752
-58.01223 -33.730343 123.728 9471873
-56.534966 -32.288036 124.52116 9406078
-57.260441 -32.580513 124.28504 8353646
-57.998356 -32.925358 124.02743 9932166
-56.42836 -31.480547 124.83788 9340285
-57.279949 -31.641035 124.62817 8090730
-55.156929 -30.154957 125.73867 10064009
-55.780594 -30.457537 125.41431 8418928
-56.650768 -30.63089 125.14864 8089963
-54.31218 -29.203032 126.69816 9210491
-55.15213 -29.469549 126.27382 9932679
-55.887623 -29.757408 125.91618 8945272
-45.283634 -28.270376 136.11154 8814201
-46.171547 -28.37883 135.91454 8551029
-46.705933 -28.692015 134.59796 7038307
-47.514687 -28.693623 134.31364 9010808
-48.321888 -28.695232 134.02541 8092019
-49.45932 -28.699806 131.69267 9144699
-50.250603 -28.701405 131.39214 8092011
-51.040092 -28.703007 131.08717 8092011
-52.421932 -28.708088 128.64926 10065033
-53.064812 -28.722429 128.45366 13355195
-53.815903 -28.878437 127.82565 10657425
-54.58466 -28.991402 127.33192 10393485
-44.674831 -27.104275 136.6489 10985622
-45.423923 -27.470009 136.38167 10196109
-46.266457 -27.724516 136.13887 9406336
-44.630695 -26.369261 136.92755 8813685
-45.510365 -26.48538 136.72916 10458766
-43.937321 -25.270901 137.45491 8616562
-44.771263 -25.378153 137.2679 9340029
-45.351273 -25.739574 137.03215 9208443
-44.078648 -24.407923 137.74791 7563875
-44.9105 -24.57254 137.54015 9208443
-43.244385 -23.492119 138.23293 6971997
-44.032673 -23.668842 138.0284 6510930
-42.616764 -22.377525 138.75464 7038307
-43.362843 -22.532101 138.56575 7366496
-44.071411 -22.814371 138.33643 7169116
-42.548111 -21.417341 139.12059 7959916
-43.39455 -21.620974 138.89586 8946551
-41.976536 -20.27083 139.64418 9999497
-42.702072 -20.536587 139.41791 8355184
-41.21891 -19.206738 140.17024 7037274
-41.969707 -19.359262 139.98126 12958383
-42.683346 -19.640633 139.75139 10459532
-41.216705 -18.277893 140.51291 6577237
-41.99786 -18.440924 140.31471 9208955
-40.548397 -17.261684 141.00566 3749937
-41.21962 -17.535637 140.78598 5919050
-42.083664 -17.636782 140.59596 5919050
-40.494236 -16.510204 141.29219 6050636
-41.278389 -16.635725 141.10725 5919050
-39.744884 -15.340224 141.95761 8419440
-40.636303 -15.629308 141.62062 6576980
-38.427338 -14.113448 143.29677 8288371
-39.131424 -14.453835 142.78055 8090477
-39.961575 -14.665401 142.42479 8879734
-29.386591 -13.434351 152.94856 13617346
-30.22928 -13.493517 152.70218 8945269
-34.317013 -13.656926 147.68248 9471868
-35.205013 -13.658568 147.47327 9011574
-37.781143 -13.820715 144.35023 9143677
-29.101923 -12.305957 153.44765 16248807
-29.597372 -12.654089 153.18523 15261651
-29.167635 -11.360655 153.78473 12433326
-29.505991 -11.738064 153.55318 16774119
-121.59701 -75.314682 58.600208 6511954
-122.40285 -75.509697 58.022549 5919050
-123.25471 -75.64711 57.399521 7827559
-123.80231 -75.704735 56.64167 7038042
-124.60386 -75.644905 55.850906 6511954
-125.23589 -75.592239 55.266537 6840918
-126.04389 -75.524368 54.502026 8288109
-126.64777 -75.47155 53.859989 10064265
-127.35137 -75.410988 53.14724 11117721
-127.95025 -75.350456 52.242939 9077369
-128.74966 -75.289894 51.702374 9537408
-129.18954 -75.237007 50.762203 9537408
-119.00407 -74.247864 61.285641 8288627
-119.70571 -74.457817 60.737812 8288627
-120.43572 -74.541733 60.19936 7498853
-121.06437 -74.824799 59.48476 7433056
-121.92304 -74.90316 58.93697 6511954
-122.74329 -75.060204 58.333397 6972762
-129.94994 -75.198654 50.879601 10853012
-130.0974 -75.144745 50.21608 9867141
-130.82838 -75.043282 49.50425 10788243
-131.47385 -74.957199 48.695095 9077625
-132.17827 -74.875656 47.932709 8683124
-133.10426 -74.791214 47.362797 9801605
-133.54698 -74.722672 46.555676 8025193
-134.24457 -74.640503 45.773712 6182222
-135.17035 -74.554886 45.181938 7696485
-135.71815 -74.484566 44.457916 10261898
-136.29288 -74.403381 43.558052 9208958
-137.18689 -74.32756 43.115807 7301470
-137.72835 -74.256767 42.376034 7563619
-112.02496 -73.405823 68.347534 9341057
-112.5457 -73.522339 68.034294 7498599
-113.38813 -73.626137 67.429802 9274749
-114.28472 -73.721748 66.99752 9078141
-114.81973 -73.859322 65.944069 8748661
-115.5164 -73.846809 65.055321 9537662
-116.3409 -73.852211 64.782936 8484975
-116.89219 -73.860863 63.805058 8156266
-117.75746 -73.917877 63.067802 9011833
-118.35888 -73.997971 62.403011 7564649
-118.99812 -74.056999 61.826843 7301735
-119.73942 -74.135605 61.117241 8288627
-138.17592 -74.218498 42.149338 7563619
-138.29361 -74.175133 41.458233 7563619
-139.21881 -74.087349 40.82296 11050386
-140.07947 -73.963417 40.160244 6116945
-140.55367 -73.861679 39.381401 6051406
-141.04312 -73.770927 38.603863 6643540
-141.94832 -73.670311 37.933788 7564386
-142.85579 -73.569016 37.255386 8814197
-143.4818 -73.481094 36.557922 10063750
-143.83315 -73.392548 35.665333 10392453
-144.7263 -73.30452 35.146996 9339765
-111.23673 -72.418671 69.157982 7038307
-111.80512 -72.664421 68.766945 8025199
-112.79395 -72.682983 68.256279 9867398
-113.68894 -72.795036 67.754578 8749432
-144.774 -73.245071 34.420753 10787211
-145.64552 -73.185966 34.257027 8222321
-146.26569 -73.096565 33.53582 7893356
-146.59221 -73.022095 32.806423 8090479
-147.48988 -72.931725 32.261578 8879736
-148.39911 -72.825714 31.524635 9011321
-149.01514 -72.734688 30.780521 9209215
-149.62851 -72.643425 30.031013 7433064
-150.24127 -72.552917 29.276516 8288371
-151.20813 -72.488045 28.708862 8025200
-151.59969 -72.434814 27.775166 7564651
-152.4489 -72.340714 27.045883 8880509
-153.14145 -72.288605 26.787945 9341059
-110.5186 -71.400635 69.945732 10721939
-111.17 -71.709717 69.48613 8024943
-112.14925 -71.738602 68.976082 9406849
-113.00703 -71.891724 68.476204 11051671
-153.18427 -72.264641 26.22543 9537923
-153.75169 -72.137497 25.750591 11576732
-154.44281 -72.001373 25.025417 10655631
-155.15036 -71.807274 24.37302 8616562
-155.76443 -71.412262 24.160923 7038298
-109.73174 -70.461601 70.735527 12038055
-110.56902 -70.667358 70.224258 12433069
-111.482 -70.750465 69.72541 8682357
-112.2442 -70.886795 69.281197 8617592
-108.49165 -69.240723 71.87281 8419184
-109.09042 -69.547409 71.441078 8156012
-109.96613 -69.634827 70.959335 12367020
-110.88211 -69.697853 70.467445 10524816
-111.60408 -70.082764 69.940552 7827307
-107.85044 -68.340172 72.572678 8419184
-108.51536 -68.573685 72.137566 8419184
-109.32143 -68.723907 71.665276 7563875
-110.25533 -68.707932 71.197266 9208700
-110.80605 -69.119797 70.746254 10064009
-107.20838 -67.447937 73.269356 7367272
-107.79392 -67.596024 72.91021 7564651
-108.716 -67.709732 72.394318 8090219
-109.60682 -67.800522 71.903915 7695461
-106.47755 -66.362206 74.091728 8420212
-107.05227 -66.684174 73.665955 6972514
-107.98582 -66.598679 73.227051 7367272
-108.73797 -66.741791 72.785393 6511704
-109.33034 -66.891678 72.42205 5919050
-105.61052 -65.375099 74.942566 9143678
-106.30728 -65.600876 74.494675 9143932
-107.20594 -65.637642 74.022743 7827822
-108.00967 -65.773384 73.55793 6709342
-104.96616 -64.510361 75.629356 8287857
-105.68182 -64.55748 75.246124 7958889
-106.59598 -64.652428 74.742142 10065288
-107.42545 -64.825638 74.24865 8354418
-104.36088 -63.473515 76.367821 8681843
-105.03468 -63.696419 75.932785 7498594
-106.02186 -63.565784 75.485466 8090474
-106.6293 -63.944035 75.0196 8682867
-103.05177 -62.20018 77.562279 7564392
-103.59169 -62.567825 77.135094 7563619
-104.46076 -62.623711 76.670258 7827558
-105.3707 -62.707722 76.172935 5985867
-105.95512 -62.838711 75.821518 5920074
-102.88151 -61.551491 77.91832 9406080
-103.80055 -61.624084 77.421135 8287598
-104.70893 -61.754246 76.905457 7564899
-105.30196 -61.984467 76.508423 5920074
-101.46748 -60.268627 79.373726 9143166
-102.14829 -60.592587 78.773277 7169635
-103.01188 -60.594009 78.343048 8550514
-103.91658 -60.836353 77.70594 8944757
-104.55741 -60.942772 77.319756 9603455
-98.521133 -59.170681 82.264496 7038304
-99.361275 -59.262867 81.554695 6183248
-100.30633 -59.346584 80.969887 6906458
-101.02515 -59.568302 80.268295 8090736
-101.82555 -59.634933 79.750458 9735045
-102.54863 -59.918423 79.128807 7235427
-84.983353 -58.411938 96.34552 10261643
-85.613068 -58.488056 96.006111 7958632
-86.419403 -58.568005 95.51265 6050893
-87.034988 -58.700916 94.961441 4342073
-87.674973 -58.804928 93.905464 9341313
-88.462494 -58.807049 93.162781 9604227
-89.132393 -58.808868 92.520889 10129799
-89.797668 -58.810688 91.874153 8024936
-90.567696 -58.812801 91.113365 7695716
-91.331619 -58.814915 90.346443 6116429
-91.98114 -58.816723 89.683884 7103068
-92.625801 -58.818535 89.01664 7695205
-93.265671 -58.820343 88.344711 8419440
-94.00589 -58.822449 87.554893 7760998
-94.739723 -58.824547 86.759163 7762027
-95.363235 -58.826344 86.072083 7235685
-95.981766 -58.82814 85.38047 8288368
-96.696869 -58.830235 84.567863 7958632
-97.45887 -58.864418 83.795219 7300702
-98.189682 -58.943451 83.19783 9406590
-98.919487 -59.023911 82.5961 7433058
-99.642097 -59.102306 81.985374 6511954
-84.159279 -57.296825 97.162041 7959144
-84.861252 -57.600357 96.72551 10393229
-85.87941 -57.519108 96.301277 9340798
-86.494576 -57.826328 95.902138 6510930
-83.42379 -56.313469 97.886116 6972505
-84.150604 -56.551113 97.464821 8222572
-85.068581 -56.679741 97.001396 8484975
-85.883018 -56.733315 96.614532 7761253
-82.807327 -55.240192 98.592819 8880503
-83.421532 -55.534321 98.199394 7104091
-84.425446 -55.655037 97.700584 10392458
-85.103088 -55.905891 97.295998 9470843
-82.230141 -54.399075 99.18885 9341054
-82.802612 -54.463531 98.906189 10130570
-83.663231 -54.56242 98.480446 8551538
-84.403053 -54.760803 98.068947 9207927
-81.486107 -53.434547 99.909195 11511967
-82.146049 -53.660248 99.522644 9933191
-83.041267 -53.493587 99.187737 9669762
-83.772354 -53.825592 98.726723 10656401
-80.695114 -52.252209 100.7379 8681843
-81.379715 -52.62236 100.28239 10327436
-82.376732 -52.592072 99.847191 8814454
-83.034714 -52.718384 99.501373 8353903
-80.0653 -51.203083 101.44086 9012606
-80.674469 -51.51844 101.04117 8747636
-81.59816 -51.714531 100.54813 9800836
-82.356888 -51.762821 100.1884 8681843
-79.311775 -50.257748 102.15795 9012606
-79.930206 -50.533783 101.76991 8486519
-80.935066 -50.630188 101.28078 9143421
-81.81234 -50.964092 100.75326 8879222
-78.676132 -49.21994 102.86054 9143676
-79.295563 -49.492744 102.47319 9275778
-80.222519 -49.544601 102.0371 8092018
-80.91761 -49.839653 101.60696 8683898
-78.120522 -48.248367 103.5008 9998214
-78.657692 -48.456852 103.17619 9801347
-79.520088 -48.531704 102.75973 10590865
-80.26313 -48.707203 102.35621 8486519
-77.950859 -47.479614 103.88638 10064263
-78.879433 -47.49696 103.46347 9669761
-79.623352 -47.66906 103.06094 9341053
-76.509712 -46.333752 104.99339 8089963
-77.261009 -46.590569 104.55348 8814197
-78.235451 -46.466866 104.16681 9275260
-78.859375 -46.734417 103.77957 9867140
-75.873215 -45.252445 105.89063 8485232
-76.582314 -45.46851 105.4172 8485232
-77.421974 -45.621227 104.93363 8419695
-78.224243 -45.712296 104.49807 8090987
-73.194389 -44.12051 108.45502 8682867
-73.745621 -44.139782 108.1451 9274748
-74.527588 -44.257198 107.50443 11904926
-75.272369 -44.47963 106.88224 9471869
-76.011292 -44.715595 106.27866 8682868
-76.897408 -44.830761 105.78649 8090987
-62.623383 -43.219135 119.41611 10260614
-63.42033 -43.459179 119.18687 10063495
-64.171684 -43.604355 118.64342 8813941
-64.584038 -43.740383 117.59628 8814709
-65.571838 -43.742592 117.04713 7235934
-66.555214 -43.744797 116.49014 7958890
-66.832619 -43.746964 115.04084 8484979
-67.385292 -43.748219 114.71716 9931651
-68.348709 -43.750416 114.14454 8156527
-69.307549 -43.752609 113.56424 8683125
-69.853287 -43.753864 113.22914 7564651
-70.083519 -43.755947 111.78928 8288112
-71.022209 -43.758129 111.19405 9998727
-71.9561 -43.760315 110.59129 10459278
-72.470718 -43.844135 109.80645 12170152
-73.242722 -43.894058 109.23265 10459278
-74.060562 -43.966324 108.6056 9866629
-74.613602 -43.986134 108.2934 9537920
-62.717045 -42.488598 119.66882 9340285
-63.6315 -42.69297 119.43192 9405566
-62.024044 -41.305058 120.22742 8748660
-62.844776 -41.608803 119.97048 8814198
-63.521793 -41.968582 119.7183 8616307
-61.491035 -40.131561 120.75403 10129798
-62.030216 -40.508263 120.51997 9011832
-62.828823 -40.658794 120.32343 7762027
-61.322216 -39.412739 121.04881 10327178
-62.220947 -39.568352 120.83267 8748918
-60.711086 -38.3284 121.55635 10656657
-61.444164 -38.467873 121.37545 9143418
-62.080978 -38.684067 121.18328 7762027
-60.007641 -37.033249 122.15795 13551549
-60.616272 -37.409279 121.91184 10656657
-61.484661 -37.585087 121.69364 9932934
-59.996281 -36.303242 122.42899 13617853
-60.735401 -36.463879 122.23922 9406590
-61.394634 -36.802715 121.99789 9932934
-59.285458 -35.326313 122.91462 14605262
-60.029972 -35.404518 122.75422 12301993
-60.729107 -35.75761 122.5006 8682867
-59.248402 -34.536648 123.21218 11381150
-60.042301 -34.492481 123.08817 12301477
-58.482235 -33.396797 123.76798 8945527
-59.376942 -33.591248 123.53806 8814709
-58.56234 -32.561691 124.06183 8485234
-59.289783 -32.755474 123.86177 9142907
-57.891762 -31.498352 124.57261 8024937
-58.756214 -31.717327 124.33903 7367013
-57.142513 -30.251743 125.31391 9537665
-57.924015 -30.63623 124.92329 10787474
-58.678562 -30.807682 124.68829 7827308
-55.721539 -29.028242 127.01836 11050903
-56.499439 -29.386297 126.20606 10590609
-57.288177 -29.677731 125.73046 9471872
-58.074455 -29.988838 125.35253 12432037
-46.783623 -28.200413 135.87199 10590351
-47.551304 -28.372538 135.67285 9275008
-48.288521 -28.59396 135.46086 8881022
-48.805328 -28.696201 133.84973 9342084
-49.609657 -28.697815 133.5531 8092019
-50.412189 -28.699432 133.25191 13881540
-51.513012 -28.70397 130.90196 9208443
-52.299362 -28.705576 130.58873 8551538
-53.24091 -28.707506 130.20764 10065033
-54.369019 -28.762094 128.10214 10657425
-55.162312 -28.831665 127.74302 10656145
-46.737804 -27.360172 136.18974 11379608
-47.54401 -27.631699 135.94713 11577503
-46.151707 -26.280638 136.69118 10985366
-46.920113 -26.510265 136.47069 11182745
-47.641201 -26.843538 136.22037 11906727
-45.432301 -25.048313 137.27251 10985366
-46.082191 -25.412264 137.02348 12564910
-46.903297 -25.504091 136.84444 10392718
-45.296364 -24.234663 137.59641 9340029
-46.157314 -24.415684 137.37743 12499118
-44.595882 -23.290451 138.0683 6510930
-45.44194 -23.484426 137.84709 7892839
-46.288273 -23.679331 137.62558 9011064
-44.723885 -22.552788 138.3174 6905688
-45.612003 -22.666477 138.11842 7893095
-44.022957 -21.446442 138.84901 9275517
-44.795345 -21.550055 138.67424 7300702
-45.450783 -21.91416 138.42419 9867140
-43.212563 -20.117886 139.48193 8092011
-44.000343 -20.451492 139.21968 8289133
-44.77256 -20.732531 138.97951 7564386
-43.338207 -19.374166 139.73376 9275771
-44.2314 -19.484661 139.53505 8749428
-42.628994 -18.262377 140.26888 11116694
-43.405964 -18.363419 140.09424 11972257
-44.066311 -18.727486 139.84334 10263180
-42.633747 -17.409906 140.58224 7827046
-43.379749 -17.539442 140.40257 9143162
-41.917084 -16.45591 141.06061 5919050
-42.772758 -16.665155 140.83215 6708565
-41.193783 -15.27445 141.73654 7366239
-41.974277 -15.516189 141.45421 6642516
-42.754688 -15.758968 141.174 6116684
-39.831799 -14.125549 143.01649 9208443
-40.561966 -14.265618 142.71138 7366496
