# .PCD v0.7 - Point Cloud Data file format
VERSION 0.7
FIELDS x y z rgb
SIZE 4 4 4 4
TYPE F F F U
COUNT 1 1 1 1
WIDTH 1169
HEIGHT 1
VIEWPOINT 0 0 0 1 0 0 0
POINTS 1169
DATA ascii
-103.15182 -44.665985 -154.02168 9536888
-102.189 -44.648849 -154.5844 9406335
-101.41827 -44.635796 -155.03229 8813942
-100.64672 -44.623329 -155.47847 8156525
-99.68161 -44.608616 -156.03358 9209469
-98.715591 -44.594814 -156.58607 9275004
-97.942078 -44.584385 -157.026 9208953
-96.974335 -44.572224 -157.5733 8551024
-96.199265 -44.563004 -158.00957 7366493
-93.248009 -44.394264 -161.32173 7563618
-92.474472 -44.394009 -161.77138 8089963
-91.6987 -44.393742 -162.21722 8813428
-90.920883 -44.393463 -162.65939 8616819
-89.945496 -44.393105 -163.2066 9143675
-88.967056 -44.392731 -163.74826 7827817
-88.181885 -44.392422 -164.17729 10261132
-87.394608 -44.392101 -164.60251 9143422
-86.802917 -44.391857 -164.91905 7038307
-84.400444 -44.07457 -167.75943 8484716
-83.614471 -43.967644 -168.03575 8681835
-82.6054 -43.972668 -168.33318 9208443
-83.514641 -43.289051 -168.33846 9143163
-82.899818 -43.040344 -168.62112 9736323
-81.836258 -43.168724 -168.88509 9209211
-80.761505 -42.736813 -169.37794 13025462
-82.798714 -42.361702 -168.92432 10263180
-82.044586 -42.153873 -169.23186 9407102
-81.013901 -42.027145 -169.58875 11709602
-80.090263 -41.965313 -169.88774 8090987
-82.080673 -41.435055 -169.51048 10263180
-81.246056 -41.180775 -169.8606 8946039
-80.155853 -41.143845 -170.19899 8090987
-79.369804 -41.043224 -170.47276 8945783
-80.923676 -40.494553 -170.23248 10064777
-80.306641 -40.249012 -170.51445 10064777
-79.433975 -40.221115 -170.7847 10063750
-78.647255 -40.121765 -171.0582 9207928
-77.945908 -39.950874 -171.33519 8813171
-80.201202 -39.57 -170.81903 10129545
-79.583313 -39.325409 -171.10097 10984340
-78.709976 -39.298904 -171.3708 9207929
-77.714203 -39.224804 -171.69621 8813428
-79.476646 -38.646034 -171.40611 9931910
-78.857803 -38.402271 -171.68787 8550257
-77.916428 -38.214283 -172.04295 8353135
-76.91069 -38.234985 -172.33311 9405823
-77.947922 -37.248848 -172.42227 9931910
-77.073082 -37.225426 -172.69133 9142651
-76.038544 -37.108631 -173.04543 9142651
-75.178169 -36.727077 -173.45432 9669507
-77.217537 -36.326485 -173.01036 11379356
-76.376556 -36.078991 -173.35641 10260875
-75.280594 -36.051636 -173.68694 8353135
-74.488838 -35.957199 -173.9541 8418928
-76.260803 -35.396717 -173.6548 8617080
-75.555405 -35.107475 -173.97205 8156529
-74.539223 -35.128883 -174.25974 8287857
-73.746582 -35.035526 -174.52673 8156529
-75.468483 -34.31937 -174.30222 9604228
-74.673996 -34.225571 -174.56985 8617336
-73.795654 -34.20623 -174.83316 7564649
-73.002258 -34.113918 -175.09993 8419957
-74.555222 -33.542225 -174.86864 9341057
-73.929092 -33.301762 -175.14412 8880506
-73.049988 -33.283646 -175.40717 9143678
-72.255646 -33.19231 -175.6738 8090478
-73.809113 -32.61792 -175.4435 9143678
-73.157715 -32.241051 -175.77898 9143678
-72.082214 -32.356853 -176.04738 8419185
-71.235344 -32.114307 -176.38788 8089963
-72.432755 -31.454048 -176.29465 9603714
-71.427826 -31.2721 -176.70596 10063750
-70.581329 -30.873489 -177.20442 9406332
-69.513367 -30.749969 -177.61443 8156780
-70.738358 -30.337986 -177.59294 8617074
-69.845757 -30.066542 -178.07823 9077368
-68.822891 -30.096582 -178.36099 7827815
-68.013969 -29.87508 -178.812 7564643
-67.505379 -29.542444 -180.05817 9340283
-66.625015 -29.534451 -180.33797 8090987
-65.744614 -29.526905 -180.61636 9932166
-65.084351 -29.521532 -180.8241 8090987
-61.053722 -29.391623 -184.75563 6511954
-60.167778 -29.390945 -185.04961 7235420
-59.058613 -29.390087 -185.41165 7827557
-58.392029 -29.389566 -185.62567 8486000
-52.742821 -29.100672 -190.53329 7761766
-51.986069 -29.060797 -190.46571 8617330
-52.565716 -28.382559 -190.77861 8090730
-51.99007 -28.069376 -190.83141 6314064
-51.932884 -27.167639 -191.15744 7564130
-51.175743 -27.130787 -191.08878 9536888
-51.274075 -26.188629 -191.44649 8945010
-51.119255 -25.232676 -191.78188 8879730
-50.361645 -25.198769 -191.71199 10457478
-50.458424 -24.253531 -192.07072 7893349
-50.301895 -23.295359 -192.40677 6709333
-49.543842 -23.264349 -192.3358 7564651
-49.639038 -22.315794 -192.6956 7169890
-49.557308 -21.437611 -193.01027 7564651
-48.89859 -21.253958 -193.0063 12235687
-48.81596 -20.374941 -193.32115 8288373
-48.732731 -19.494123 -193.63664 7564651
-48.173065 -19.155741 -193.70049 8748920
-47.735954 -18.422493 -193.92311 7169884
-47.551365 -17.696495 -194.17061 8288365
-46.922012 -17.197117 -194.28644 7367263
-46.173569 -16.215471 -194.58614 9012606
-121.79587 -45.81995 -140.59953 8419956
-121.10072 -45.812187 -141.16264 9734788
-120.2314 -45.803757 -141.86546 9340797
-119.36191 -45.796688 -142.56729 10064777
-118.66588 -45.79203 -143.12799 8090987
-117.96954 -45.788258 -143.68813 9471355
-116.96217 -45.886639 -144.39664 9537405
-116.12893 -45.986855 -144.96432 9997445
-115.43195 -45.986183 -145.5219 7301222
-114.73458 -45.986355 -146.07899 9406081
-113.79198 -45.959797 -146.68494 6510930
-112.90494 -45.714371 -147.36075 5393730
-135.18184 -44.885292 -130.8566 10260873
-134.69339 -44.879555 -131.32799 8880502
-134.01645 -44.864143 -131.93126 6511954
-133.33855 -44.84927 -132.53288 8551022
-132.4897 -44.831612 -133.2825 9011315
-131.45924 -44.9347 -133.95406 11182228
-130.76695 -44.98111 -134.43002 9274747
-130.07745 -44.965916 -135.01437 7893868
-129.38753 -44.951523 -135.59744 8617335
-128.63701 -44.90213 -136.31235 9603459
-127.72101 -44.954212 -136.9166 9537665
-126.78082 -45.170143 -137.3598 8682098
-125.93768 -45.263126 -137.8376 8616049
-125.24126 -45.250603 -138.4061 8089963
-124.37077 -45.236229 -139.11554 10064264
-123.50013 -45.223171 -139.82382 8617335
-122.80342 -45.213737 -140.38959 8419442
-122.10652 -45.205128 -140.95462 9472129
-121.3255 -45.155403 -141.62746 9734787
-120.4476 -45.22953 -142.25581 9537921
-119.66604 -45.182091 -142.92688 10064777
-118.96815 -45.177452 -143.48894 8090987
-118.27007 -45.17371 -144.05032 9471355
-117.3969 -45.170277 -144.7513 9997185
-116.52319 -45.168114 -145.45143 9471358
-115.72566 -45.372555 -145.88826 7038307
-115.02638 -45.372681 -146.44681 8880248
-114.03752 -45.242401 -147.17976 5985611
-113.2043 -45.105339 -147.74719 5393730
-112.32445 -45.279518 -148.06963 5393730
-111.62688 -45.173359 -148.55386 5393730
-110.68169 -45.020535 -149.22771 6972249
-109.71173 -44.989971 -149.79301 9011832
-109.10256 -44.79245 -150.47054 8682867
-108.33626 -44.774078 -150.93503 8616306
-107.56973 -44.756401 -151.39763 7563618
-106.61066 -44.735077 -151.9733 7827302
-105.65097 -44.714664 -152.54613 7103835
-104.88259 -44.699024 -153.00226 6511954
-156.56433 -44.399857 -115.47283 7039331
-156.01071 -44.400414 -116.22768 7039331
-155.45346 -44.400963 -116.97994 9209985
-155.03334 -44.401375 -117.54239 12432037
-150.72169 -44.39901 -119.51369 7762027
-150.29211 -44.39938 -120.05895 8090991
-149.57193 -44.399971 -120.96421 7038307
-148.84662 -44.400558 -121.86539 8288365
-148.40892 -44.400902 -122.40401 8288365
-143.49191 -44.398605 -124.88613 9735558
-143.043 -44.398907 -125.40514 11051416
-142.29083 -44.399384 -126.26672 8616307
-141.53372 -44.399849 -127.12401 7563619
-140.92419 -44.400208 -127.80643 8419443
-138.58388 -44.590893 -128.45332 8617075
-138.12617 -44.592461 -128.95831 8617335
-137.36156 -44.595753 -129.79854 8419701
-136.59486 -44.599854 -130.63702 10260873
-135.97981 -44.603836 -131.30643 11642524
-135.50798 -44.604053 -131.79866 6511954
-105.38409 -44.425095 -153.7263 8090729
-104.50964 -44.502563 -153.90273 9076340
-103.65781 -44.397614 -154.76944 11049359
-102.72825 -44.396717 -155.39125 9406335
-101.98313 -44.396572 -155.8866 10722194
-101.23565 -44.39642 -156.37836 9406848
-100.29785 -44.396217 -156.98773 9209468
-99.356636 -44.396004 -157.59181 8814968
-98.60096 -44.395817 -158.07089 9208953
-97.843071 -44.395626 -158.54633 9735296
-96.892227 -44.395367 -159.13525 8747632
-95.938133 -44.395103 -159.71881 9207155
-95.172256 -44.394875 -160.18143 8352619
-94.404282 -44.394638 -160.64034 7037274
-93.826782 -44.394455 -160.98212 7037274
-87.507317 -44.358955 -166.72281 10524045
-86.672096 -44.096073 -167.07655 10195081
-85.578331 -44.048885 -167.42012 9077113
-84.744614 -43.788723 -167.77235 8090730
-86.575859 -43.414894 -167.37936 10853012
-85.95916 -43.163055 -167.66374 10195082
-84.864845 -43.11792 -168.00671 8090730
-83.858246 -43.002537 -168.3519 9472128
-85.861542 -42.48185 -167.9669 9537408
-85.025131 -42.222321 -168.3197 8090730
-83.93042 -42.179413 -168.66185 10261132
-83.14193 -42.07439 -168.93813 9868166
-84.212372 -41.333145 -168.91884 9143163
-83.212746 -41.250668 -169.24867 9604481
-82.42366 -41.147007 -169.52467 10263180
-83.988251 -40.602108 -169.27968 8090730
-83.369614 -40.353745 -169.56325 9275260
-82.493019 -40.32272 -169.83589 9209467
-81.494064 -40.243359 -170.16432 9670019
-83.267845 -39.672352 -169.86771 10459278
-82.648422 -39.424942 -170.1512 10459278
-81.809723 -39.170818 -170.5024 10064264
-80.847702 -39.214828 -170.77019 10458510
-81.743996 -38.264774 -170.88664 10853012
-80.866287 -38.237026 -171.15833 9997959
-79.941376 -38.058231 -171.50482 9537664
-78.968842 -37.728851 -171.92607 8550257
-81.01815 -37.337215 -171.47554 8682867
-80.177307 -37.085938 -171.82619 9011576
-79.080086 -37.054394 -172.16452 9010808
-78.288696 -36.957123 -172.43857 9273980
-80.070335 -36.403786 -172.13255 8813941
-79.367935 -36.112347 -172.45834 9537406
-78.350296 -36.130035 -172.75327 8550257
-77.558044 -36.033905 -173.0269 9142651
-79.120087 -35.471352 -172.78996 9932419
-78.495728 -35.227596 -173.06912 8946039
-77.614807 -35.204323 -173.33482 9735046
-76.81971 -35.108341 -173.60353 9011581
-78.381744 -34.542755 -173.36732 8682867
-77.755363 -34.299267 -173.64391 9735046
-76.873749 -34.277275 -173.90918 8617080
-76.077927 -34.182377 -174.17769 9670021
-77.640091 -33.613956 -173.94249 9735046
-77.012924 -33.371094 -174.2191 8090737
-75.9916 -33.39267 -174.50819 9472643
-75.046158 -33.21233 -174.85335 9341057
-76.896393 -32.685249 -174.51826 8617080
-76.244873 -32.305779 -174.85483 7762028
-75.198875 -32.191811 -175.20355 8551543
-74.153595 -32.078968 -175.55161 9801606
-73.501503 -31.70187 -175.88731 9143678
-75.555893 -31.287611 -175.4492 8682867
-74.513992 -31.049629 -175.92659 9735814
-73.410873 -31.028765 -176.25998 8814971
-72.592987 -30.798674 -176.67921 10064521
-73.605972 -30.385147 -176.72197 8157555
-72.78891 -30.155268 -177.14906 8617590
-71.90567 -30.140774 -177.41733 12168866
-71.087326 -29.912418 -177.84358 9735297
-70.586273 -29.5741 -179.0668 13023917
-69.706116 -29.564518 -179.35197 9735297
-68.605713 -29.553143 -179.70619 9471869
-64.1427 -29.393913 -183.69179 9275005
-63.041599 -29.39311 -184.0778 9801347
-62.159023 -29.392452 -184.38171 8682867
-61.496143 -29.391956 -184.60692 8682867
-55.783897 -29.393528 -189.94884 7563619
-55.100903 -29.392963 -190.15076 7039331
-54.238674 -29.169237 -190.5872 8749947
-53.501389 -29.140951 -190.60088 7039331
-54.112167 -28.225512 -191.00453 10526100
-53.350636 -28.186178 -190.93623 6972766
-53.453125 -27.24263 -191.29501 8748661
-52.691891 -27.204847 -191.22615 6445394
-53.301304 -26.284559 -191.6315 7959144
-52.539398 -26.248241 -191.56206 7695973
-52.640308 -25.301676 -191.92175 9011832
-51.878654 -25.266987 -191.85175 7959144
-52.461567 -24.57901 -192.16858 10854036
-51.724476 -24.30821 -192.18822 8683123
-51.569485 -23.347834 -192.52519 7367263
-51.061699 -23.326721 -192.47772 7367263
-50.812954 -22.44162 -192.77681 6511954
-50.241089 -21.383652 -193.10442 7038302
-49.805508 -20.649654 -193.32753 7564651
-127.02507 -44.74004 -138.01851 9142392
-126.50952 -44.733452 -138.45726 9668479
-125.64913 -44.72311 -139.18633 9142907
-124.78738 -44.713612 -139.91312 8353135
-124.09682 -44.706734 -140.49261 8089963
-123.4053 -44.700459 -141.07062 9011320
-122.88586 -44.69611 -141.50327 9932678
-115.92196 -44.962288 -146.13335 8682867
-115.22163 -44.96241 -146.69267 8682867
-114.48243 -44.948559 -147.20282 7630180
-154.61087 -44.401775 -118.10319 7037274
-154.04463 -44.402302 -118.84869 9537403
-153.47481 -44.402824 -119.59145 8418925
-153.0452 -44.403206 -120.14675 10851980
-148.11583 -44.401127 -122.76212 7565675
-147.67467 -44.401459 -123.29794 7565675
-146.93498 -44.402004 -124.18739 7697260
-146.19029 -44.402534 -125.07263 7039331
-140.31145 -44.400562 -128.48592 10262154
-139.54066 -44.400986 -129.33098 11117980
-138.76523 -44.401402 -130.17163 7564651
-138.14107 -44.401722 -130.84073 7564651
-137.51373 -44.402031 -131.50679 7563619
-135.16817 -44.596218 -132.10185 6511954
-134.65758 -44.584721 -132.55621 6511954
-133.80569 -44.566315 -133.31117 8682866
-132.95274 -44.548786 -134.06349 10788756
-132.26903 -44.535461 -134.66365 9538948
-131.58456 -44.522728 -135.26196 9143422
-130.89917 -44.510582 -135.85863 9669509
-130.04118 -44.496269 -136.60204 8814457
-129.18181 -44.482758 -137.34302 9669509
-128.49319 -44.472652 -137.93393 9143422
-127.80359 -44.463146 -138.52332 9668479
-126.9402 -44.452095 -139.25757 10655374
-122.53916 -44.693344 -141.79121 9932678
-121.8452 -44.688438 -142.36555 9274748
-120.97643 -44.68298 -143.08167 9011576
-120.28005 -44.679279 -143.65288 14077894
-119.58257 -44.676189 -144.22253 8090987
-118.70927 -44.673172 -144.93246 9670275
-117.83433 -44.67094 -145.64014 9472895
-117.13305 -44.66993 -146.20468 9012344
-116.43051 -44.669411 -146.76778 11905951
-115.72702 -44.669537 -147.32933 8682867
-114.81159 -44.657364 -147.98566 7301215
-113.85268 -44.629547 -148.58461 5985611
-113.08492 -44.607994 -149.06152 5393730
-112.31686 -44.587036 -149.53661 5393730
-111.3561 -44.561699 -150.12758 7169885
-110.39482 -44.537247 -150.71567 7235421
-109.6253 -44.518372 -151.18398 9406590
-108.85519 -44.500103 -151.65048 10524816
-108.08482 -44.482426 -152.1149 7037274
-107.12089 -44.461166 -152.69298 7564648
-106.15643 -44.440739 -153.2682 8090729
-93.907951 -44.39864 -163.34741 7563618
-92.92836 -44.398308 -163.91263 8550513
-91.945663 -44.397957 -164.47227 7827303
-91.156929 -44.397667 -164.9156 7564643
-90.469978 -44.202557 -165.54285 8945783
-89.662491 -44.195629 -165.95406 9011578
-88.631195 -44.177509 -166.42639 10063753
-87.590126 -43.91103 -166.87862 10524304
-89.834396 -43.543976 -166.26826 8945271
-88.814568 -43.287624 -166.76614 8089962
-87.714546 -43.238453 -167.1124 7958376
-86.922958 -43.128704 -167.39148 8682099
-88.940651 -42.613594 -167.00012 8089962
-88.004448 -42.391285 -167.36748 7037274
-87.000488 -42.303108 -167.70087 8287341
-86.208351 -42.194832 -167.97957 7826790
-87.78479 -41.656898 -167.72823 8287341
-87.14563 -41.267803 -168.0746 7760997
-86.352982 -41.235638 -168.32281 7760997
-85.405205 -41.333843 -168.56451 8353646
-84.786598 -41.083927 -168.84874 8090730
-86.378021 -40.240078 -168.71609 8551025
-85.606842 -40.210339 -168.957 8813680
-84.571777 -40.114998 -169.30257 8682350
-85.547791 -39.301792 -169.34024 9011571
-84.926498 -39.052357 -169.62508 9011571
-83.808533 -39.109673 -169.93379 9143160
-82.765053 -38.750679 -170.38799 10459278
-84.825874 -38.368443 -169.93025 9011571
-83.983398 -38.112423 -170.28336 9077367
-82.881927 -38.075466 -170.62511 11117208
-82.088272 -37.97419 -170.90147 10656401
-84.101959 -37.435791 -170.5206 8682867
-83.258606 -37.180992 -170.87346 9209211
-82.156433 -37.145836 -171.21465 10524559
-81.362114 -37.045807 -171.49071 9866373
-82.934311 -36.489586 -171.248 9734784
-82.311066 -36.243195 -171.5322 10590092
-81.428955 -36.216633 -171.80464 9801604
-80.633972 -36.117813 -172.0804 9275516
-82.206161 -35.558529 -171.83899 10657166
-81.582069 -35.312935 -172.12305 9539199
-80.699318 -35.287769 -172.39511 9539199
-79.692749 -35.214554 -172.7225 9406332
-81.475922 -34.627773 -172.43034 9210491
-80.826889 -34.244732 -172.77039 11183254
-79.824081 -34.399311 -173.00272 9669504
-78.876663 -34.214508 -173.35013 8946039
-80.022949 -33.523235 -173.28363 10327177
-79.083969 -33.25145 -173.66219 9537919
-78.102394 -33.017815 -174.03842 10655633
-77.33847 -32.695606 -174.38554 9735046
-79.180695 -32.283821 -174.00827 9208955
-78.329559 -32.034626 -174.35251 9932423
-77.22213 -32.008698 -174.6851 9143165
-76.593094 -31.766306 -174.96207 8682867
-78.213959 -31.346287 -174.65244 9340286
-77.388184 -31.108503 -175.05528 9471615
-76.502823 -31.089611 -175.32407 8880246
-75.680855 -30.855167 -175.73534 9077625
-76.702583 -30.443304 -175.77553 9077625
-75.885773 -30.210976 -176.20457 9998727
-75.000061 -30.194286 -176.47534 9143677
-74.037918 -30.068933 -176.85811 8486263
-73.667557 -29.611279 -178.05666 8157555
-72.566895 -29.597383 -178.41954 8090987
-71.46669 -29.584131 -178.78012 8090987
-67.869057 -29.396545 -182.3309 10326666
-66.994827 -29.395941 -182.65797 10261132
-66.118973 -29.395329 -182.98087 10261132
-65.241653 -29.394705 -183.29955 10590349
-58.281712 -29.395552 -189.18672 9274237
-57.190193 -29.291359 -189.67621 11314588
-56.501881 -29.11824 -190.13582 13486012
-55.492073 -28.979223 -190.63622 8815226
-56.684593 -28.506769 -190.46573 12630703
-55.770782 -28.505768 -190.73708 8551798
-54.775826 -28.336514 -191.0135 12499888
-54.190163 -27.517179 -191.27397 11710373
-53.784615 -26.545876 -191.58772 9406590
-152.75766 -44.403458 -120.51603 7563619
-152.17952 -44.40395 -121.25233 8221804
-151.45244 -44.40456 -122.16927 9078906
-150.86667 -44.405037 -122.89946 11052696
-145.59064 -44.402946 -125.77747 8090992
-144.98759 -44.403351 -126.47948 7301477
-144.3811 -44.403744 -127.17843 11379609
-143.61816 -44.404221 -128.04805 13684421
-143.00452 -44.404598 -128.74084 7564643
-136.72491 -44.402405 -132.33493 7563619
-135.93143 -44.40276 -133.1586 7038814
-135.29291 -44.403038 -133.81396 9144449
-134.65129 -44.403305 -134.46631 9144449
-134.00648 -44.403564 -135.11551 10788756
-133.35869 -44.403809 -135.76154 7039331
-126.07526 -44.441868 -139.98962 9143419
-125.3823 -44.434399 -140.5733 8353135
-124.68843 -44.427525 -141.15546 8550513
-123.99329 -44.421192 -141.73616 9932678
-123.1231 -44.414146 -142.45958 9275005
-122.25121 -44.407906 -143.18089 8551281
-121.55257 -44.403664 -143.75609 9471871
-120.85826 -44.401886 -144.33614 9538176
-120.16613 -44.401966 -144.91884 9735039
-119.29694 -44.402046 -145.64236 9998726
-118.42365 -44.402122 -146.36105 9933702
-117.72187 -44.402164 -146.93187 9472895
-117.01727 -44.402203 -147.49957 10261641
-116.13255 -44.402237 -148.20409 9208954
-115.2439 -44.402252 -148.90367 8287853
-114.52986 -44.402256 -149.4593 7893096
-113.81316 -44.402252 -150.01152 8550769
-113.0938 -44.402233 -150.56026 7367264
-112.19076 -44.402199 -151.24107 7169885
-111.28393 -44.402157 -151.91685 7761772
-110.55545 -44.402103 -152.45343 8485494
-109.82439 -44.402046 -152.98647 9077887
-109.0908 -44.401981 -153.51593 10261903
-108.17003 -44.401882 -154.17264 8748920
-107.24569 -44.401768 -154.82419 7564643
-106.50323 -44.401669 -155.34126 9735038
-105.75834 -44.401558 -155.85474 10655113
-105.01092 -44.401436 -156.36464 9997183
-104.07312 -44.401272 -156.99672 9997698
-103.13178 -44.401096 -157.6236 8485233
-102.37596 -44.400948 -158.1208 6445394
-101.61771 -44.400784 -158.61441 11380121
-100.66644 -44.400566 -159.22607 11380121
-99.711746 -44.400333 -159.83234 9405046
-98.94529 -44.400139 -160.31317 8681835
-98.176514 -44.399933 -160.79015 9405046
-97.40551 -44.399723 -161.26349 8288115
-96.438354 -44.399437 -161.84979 8485493
-95.467987 -44.399143 -162.43057 8287597
-94.898689 -44.25029 -163.24748 10195850
-94.282776 -44.0825 -163.99216 8813941
-93.457794 -44.064259 -164.37947 8616303
-92.4272 -44.042839 -164.86287 8813680
-91.39727 -44.022678 -165.34534 8418927
-94.986816 -43.644432 -163.84576 10458505
-94.326408 -43.477962 -164.21764 8616813
-93.56694 -43.24942 -164.66019 9471608
-92.551208 -43.364929 -165.08113 9340280
-91.520729 -43.345524 -165.56572 8945269
-90.697861 -43.331566 -165.95464 8616305
-89.917053 -43.093452 -166.41925 8945271
-92.842644 -42.539089 -165.28731 9932416
-91.875175 -42.276447 -165.84937 9406074
-90.906746 -42.203869 -166.33185 8155756
-90.082703 -42.191341 -166.72174 8221549
-89.305588 -42.084957 -167.10173 8879479
-88.625443 -41.919567 -167.37303 8089962
-91.074097 -41.300407 -166.63408 8089963
-90.289978 -41.062046 -167.10033 8484719
-89.453232 -41.045658 -167.46991 9274493
-88.333359 -41.096874 -167.79089 9011321
-87.509209 -40.738712 -168.17966 9208955
-89.578461 -40.368103 -167.70125 9471871
-88.739845 -40.107841 -168.06841 9471871
-87.63343 -40.062885 -168.41484 9471871
-86.790627 -39.80267 -168.7697 8682867
-88.643921 -39.421562 -168.37315 9932678
-87.799149 -39.160511 -168.72897 9800836
-86.692574 -39.11776 -169.0746 9735043
-85.895905 -39.012211 -169.35353 9209464
-87.923378 -38.482616 -168.96492 9735043
-87.077904 -38.22298 -169.3204 9997959
-85.970802 -38.182289 -169.66542 8813935
-85.173645 -38.078064 -169.94392 9011571
-86.75737 -37.528313 -169.69524 10261132
-86.133034 -37.278301 -169.98119 9472894
-85.247116 -37.247391 -170.25652 9341307
-84.449394 -37.144577 -170.53471 9341822
-86.032921 -36.591667 -170.28725 10459278
-85.407852 -36.342503 -170.5731 11380380
-84.521492 -36.313137 -170.84798 10524814
-83.511574 -36.235157 -171.17911 9734784
-85.306519 -35.655415 -170.87978 11380380
-84.680763 -35.407223 -171.16545 11050901
-83.861946 -35.244633 -171.47388 11181459
-82.783295 -35.30294 -171.77055 11642009
-83.729675 -34.465542 -171.8268 9734784
-82.927254 -34.270691 -172.14304 9735040
-81.945251 -34.033012 -172.52565 9210491
-81.181046 -33.707043 -172.87515 13550517
-83.033752 -33.302658 -172.49211 9734784
-82.180984 -33.049259 -172.83841 9473151
-81.069374 -33.018509 -173.17404 9670529
-80.26754 -32.920902 -173.44534 10721934
-82.070015 -32.359283 -173.13754 9011576
-81.357513 -32.065144 -173.45885 9603457
-80.326881 -32.084084 -173.75168 9866373
-79.524406 -31.987537 -174.02275 9537664
-81.327011 -31.422636 -173.71622 10195338
-80.494461 -31.179895 -174.10905 10261132
-79.605774 -31.158678 -174.38026 9735043
-78.811958 -31.066971 -174.67242 9340286
-78.113525 -30.905083 -174.98735 9734788
-79.809052 -30.509253 -174.81975 8945783
-78.894119 -30.344524 -175.22139 9011576
-77.956329 -30.29567 -175.53381 9274492
-77.06395 -30.017628 -176.02257 9143419
-76.74968 -29.654074 -177.02744 10459278
-75.648727 -29.638138 -177.39717 9406591
-74.547981 -29.622902 -177.76454 10064267
-71.566803 -29.399012 -180.89386 8682867
-70.916367 -29.398588 -181.15283 12300195
-70.047768 -29.398016 -181.49471 8682867
-68.959595 -29.397289 -181.91586 9274490
-61.220356 -29.397854 -188.24348 9998983
-60.091919 -29.396978 -188.61189 7038307
-59.435406 -29.151348 -189.2094 7892841
-58.459393 -28.984316 -189.75447 9274237
-57.774624 -28.982506 -189.95822 10064265
-57.598335 -28.508423 -190.19411 10064265
-150.27739 -44.405499 -123.62684 12170666
-149.68462 -44.40596 -124.35143 15722454
-148.93855 -44.406517 -125.25294 10986135
-148.18748 -44.407059 -126.15018 7828587
-142.69623 -44.404778 -129.08592 7564643
-142.23216 -44.405052 -129.60204 11380377
-141.61079 -44.405403 -130.28781 13551287
-140.82912 -44.405827 -131.14069 14604746
-140.0428 -44.406239 -131.98901 10789017
-139.5685 -44.406475 -132.49579 8092019
-132.87076 -44.403988 -136.24419 7039331
-132.38097 -44.404167 -136.72495 9669509
-131.7254 -44.404388 -137.36311 10261132
-131.06685 -44.404602 -137.99815 7038819
-130.40506 -44.404808 -138.6301 9471359
-129.57352 -44.405048 -139.41534 8090479
-128.73749 -44.405277 -140.19595 9143163
-128.0652 -44.405445 -140.81656 8617075
-127.55917 -44.405571 -141.28014 8617075
-100.28202 -44.243191 -161.16391 10128513
-99.620407 -44.071018 -161.5385 9405046
-98.875 -43.973186 -161.92159 9010544
-98.046295 -43.949814 -162.3127 7564651
-97.272751 -44.004723 -162.64665 7564651
-96.141098 -44.127094 -163.11813 8880249
-98.800362 -43.287056 -162.23465 8682867
-98.138206 -43.116852 -162.60883 7565675
-97.324898 -43.155964 -162.96744 7565419
-96.313324 -43.221466 -163.40672 9143162
-95.337021 -43.106983 -163.90286 9866625
-94.576759 -42.877487 -164.34627 7564643
-93.915466 -42.711601 -164.71814 9208435
-97.315659 -42.33532 -163.30513 9341313
-96.507339 -42.201374 -163.7318 10064520
-95.624847 -42.021137 -164.21147 9537917
-94.663658 -42.045582 -164.64619 9011574
-93.83699 -42.028904 -165.03795 9537657
-93.094238 -41.939224 -165.42235 10393225
-92.434662 -41.776192 -165.79887 9932416
-95.62191 -41.383823 -164.47646 9735039
-94.837692 -41.140202 -164.94505 11510935
-94.009872 -41.123978 -165.33821 10261639
-93.182541 -41.108696 -165.73076 9537657
-92.148987 -41.090889 -166.22064 9405816
-91.157867 -40.848137 -166.78532 9010801
-94.139732 -40.444519 -165.56364 9734015
-93.354103 -40.202747 -166.03203 8089963
-92.525642 -40.188591 -166.42464 8747633
-91.490616 -40.172184 -166.91457 9997699
-90.456116 -40.15699 -167.40376 8879477
-89.662003 -39.915924 -167.85561 9932678
-92.653351 -39.50845 -166.65132 8353131
-91.658974 -39.2654 -167.21768 10195080
-90.622505 -39.250538 -167.70766 9668994
-89.787468 -39.236946 -168.08742 10393229
-88.995728 -39.132149 -168.38525 9932678
-91.370155 -38.578342 -167.64163 10853012
-90.706047 -38.417404 -168.01936 10195594
-89.955025 -38.33028 -168.39696 10130057
-89.076012 -38.299618 -168.69656 9208699
-88.274902 -38.192474 -168.97746 9537664
-89.871017 -37.646 -168.72371 8089963
-89.225212 -37.255241 -169.07272 9077370
-88.353745 -37.359253 -169.28951 8880503
-87.339363 -37.276138 -169.62398 9275005
-88.520737 -36.451817 -169.60521 7894120
-87.563858 -36.254009 -169.96886 8617843
-86.646286 -36.080593 -170.31099 9538432
-87.613388 -35.276184 -170.34781 11315612
-86.681686 -35.113785 -170.68971 10525328
-85.669762 -35.119587 -170.98767 10788243
-84.800369 -34.726688 -171.40385 10590350
-86.885422 -34.336132 -170.94226 9538176
-86.034012 -34.079845 -171.29814 9801348
-84.920219 -34.045067 -171.64272 9603712
-84.117905 -33.944622 -171.92128 10392457
-85.93235 -33.389702 -171.60616 11379356
-85.079391 -33.134396 -171.96001 9406335
-84.186455 -33.107475 -172.23181 10326920
-83.38118 -33.007347 -172.50507 10524298
-84.972092 -32.442345 -172.26019 9537918
-84.339584 -32.193909 -172.54057 9998211
-83.445663 -32.168232 -172.81081 10524299
-82.639847 -32.069248 -173.08379 10589840
-84.230583 -31.501251 -172.84016 9537918
-83.61377 -31.259571 -173.15414 9669248
-82.7211 -31.235977 -173.42786 9735043
-81.747078 -31.099831 -173.79541 9932423
-82.703949 -30.577477 -173.9234 9406078
-82.010361 -30.415564 -174.25859 9143162
-80.995026 -30.319132 -174.63286 8945783
-79.954498 -30.078341 -175.13377 8945783
-79.651398 -29.822842 -175.76562 9077369
-79.172806 -29.691593 -176.20499 9734788
-78.511871 -29.680998 -176.43047 9734788
-77.630737 -29.667234 -176.72966 10064265
-75.44902 -29.401432 -179.29024 14075837
-74.804321 -29.401041 -179.56322 10787729
-73.727715 -29.400381 -180.01294 9472126
-72.648544 -29.3997 -180.45674 10261383
-71.999817 -29.399286 -180.71986 10984849
-64.816513 -29.400547 -187.02036 8092011
-64.143982 -29.400055 -187.25488 9867141
-63.246063 -29.399387 -187.56398 9011320
-62.344654 -29.266127 -188.11169 8090218
-61.655537 -28.997196 -188.80202 10786699
-60.742191 -28.992697 -189.07454 7893614
-147.58258 -44.407478 -126.86465 8683635
-146.9743 -44.407898 -127.57626 7301982
-146.36253 -44.408298 -128.28487 10524556
-145.59286 -44.408791 -129.16631 7893608
-144.97377 -44.409172 -129.86844 7564643
-139.25127 -44.406631 -132.83266 10986652
-138.77367 -44.40686 -133.33643 8092019
-138.13435 -44.407162 -134.00546 8092019
-137.33054 -44.40752 -134.83733 9407364
-136.52193 -44.407867 -135.6646 11578018
-135.87144 -44.408131 -136.32274 10788759
-135.38153 -44.408325 -136.81447 7039331
-127.22079 -44.405651 -141.58798 8616563
-126.71172 -44.405762 -142.04826 9406847
-125.85969 -44.405937 -142.81122 9208956
-125.00322 -44.406097 -143.56943 9209467
-124.31485 -44.406219 -144.17204 9209467
-123.6235 -44.406326 -144.77142 9208951
-122.92937 -44.406425 -145.36725 9800572
-122.05732 -44.40654 -146.10751 10590090
-121.18118 -44.406635 -146.84271 10129798
-120.47694 -44.4067 -147.42705 9405816
-119.76995 -44.406757 -148.00786 9012344
-119.0603 -44.406803 -148.58519 8551537
-118.16892 -44.406849 -149.30209 8090475
-117.2738 -44.406879 -150.01372 10788243
-116.55424 -44.406891 -150.57925 10261899
-106.20551 -44.406071 -158.12468 8550507
-105.44718 -44.405937 -158.6367 9011315
-104.39647 -44.198311 -159.28714 6313807
-103.44672 -44.118671 -159.75691 5919050
-102.6136 -44.090034 -160.15224 7564902
-101.78138 -44.062428 -160.54677 8091760
-100.8344 -43.986465 -161.01375 8617588
-99.956726 -43.776939 -161.50308 8681835
-103.58617 -43.436398 -159.96988 7498594
-102.79804 -43.180676 -160.43672 9209211
-101.96424 -43.153545 -160.8318 9208956
-101.13127 -43.127357 -161.22601 9208956
-100.09122 -43.096008 -161.71779 9011317
-99.136284 -42.992275 -162.19971 9011576
-98.473579 -42.821796 -162.57416 7565675
-102.10149 -42.471172 -161.04575 9208443
-101.31276 -42.217793 -161.51195 9669250
-100.27076 -42.187008 -162.00435 9340541
-99.229897 -42.1576 -162.49571 9208955
-98.398041 -42.135117 -162.88795 9275263
-97.650635 -42.039669 -163.27094 9341313
-96.987251 -41.87096 -163.64494 9341313
-100.32361 -41.387737 -162.30472 9603201
-99.407692 -41.247932 -162.78339 10261132
-98.574265 -41.225922 -163.1761 9340801
-97.74157 -41.204807 -163.56821 8618104
-96.910133 -41.184776 -163.96069 9341313
-95.998772 -41.050636 -164.44084 10458505
-99.332443 -40.559349 -163.0977 9208955
-98.667297 -40.389946 -163.47481 8683383
-97.919365 -40.295906 -163.86226 9275519
-97.088135 -40.277 -164.25815 9538434
-96.049866 -40.254662 -164.75209 10853520
-95.01239 -40.233604 -165.24513 11905694
-94.226334 -39.990986 -165.71411 9734015
-97.846573 -39.609341 -164.18524 9735555
-97.182724 -39.442406 -164.56526 9735555
-96.301208 -39.393356 -164.99734 11248022
-95.320915 -39.282551 -165.50145 12563623
-94.356445 -39.310024 -165.94002 8616049
-93.52597 -39.295345 -166.3338 8089963
-92.738525 -39.054523 -166.80264 8353131
-96.359657 -38.663834 -165.27711 10261641
-95.478798 -38.463974 -165.7724 10261641
-94.573608 -38.17326 -166.31718 9471356
-93.741196 -38.158916 -166.71167 9865857
-92.866501 -38.372906 -167.02982 10918288
-92.035278 -38.36018 -167.4231 9537147
-91.246368 -38.121056 -167.89191 9405560
-93.913666 -37.248257 -167.01451 9142392
-93.080124 -37.234962 -167.4091 9274234
-92.246941 -37.222572 -167.80315 9734783
-91.206062 -37.20821 -168.29497 9603455
-90.223442 -37.104412 -168.79648 9209470
-89.594345 -36.720608 -169.17841 8814713
-92.416534 -36.310894 -168.10776 10590091
-91.624283 -36.071365 -168.57831 9932163
-90.581421 -36.058411 -169.0705 8025199
-89.497864 -36.030212 -169.48494 8090992
-88.646217 -35.770237 -169.84238 7236190
-90.622574 -35.258175 -169.38811 7433064
-89.667175 -35.119438 -169.80133 7433064
-88.771866 -35.087521 -170.07994 7236190
-87.966194 -34.983074 -170.36108 11315612
-89.569946 -34.427383 -170.1088 8814713
-88.939682 -34.175743 -170.39716 13091765
-88.043991 -34.145344 -170.67523 8617843
-87.237938 -34.042259 -170.95599 10722962
-88.841232 -33.483238 -170.70512 9538430
-88.210342 -33.232521 -170.99336 9538430
-87.314285 -33.203621 -171.27094 8814455
-86.328239 -33.058083 -171.62215 11379356
-88.110764 -32.539585 -171.30191 12630442
-87.478256 -32.28936 -171.58824 8814455
-86.580154 -32.261307 -171.86194 9735046
-85.556183 -32.184006 -172.19008 9669252
-87.37323 -31.594311 -171.88885 6511962
-86.656631 -31.420824 -172.1813 7564392
-85.626755 -31.315243 -172.53546 9800837
-84.599907 -31.211403 -172.89278 9537918
-85.834137 -30.658678 -172.94821 9735046
-84.910797 -30.459372 -173.38081 9537918
-83.896835 -30.389542 -173.7327 8682867
-83.112213 -30.162891 -174.23796 9208955
-82.455734 -29.877251 -174.8342 9011315
-81.597717 -29.732592 -175.3703 8945523
-80.715752 -29.717241 -175.6752 8682867
-79.508156 -29.40378 -177.50645 10261382
-78.443817 -29.403187 -177.98459 9603709
-77.376801 -29.402573 -178.45674 8681835
-76.521088 -29.402071 -178.82968 10129798
-75.87822 -29.40169 -179.10677 10787729
-68.165733 -29.402935 -185.81041 9866374
-67.274734 -29.402313 -186.13893 9537409
-66.158722 -29.401524 -186.54329 8288878
-65.26432 -29.400873 -186.86256 8092011
-144.66278 -44.409359 -130.21829 7564643
-144.19473 -44.409637 -130.74158 6445906
-143.56776 -44.409996 -131.43674 7828075
-142.93755 -44.410347 -132.12895 7565675
-142.30388 -44.410686 -132.81807 9736585
-141.82657 -44.410934 -133.33308 8092019
-135.05385 -44.408451 -137.14125 7564651
-134.56079 -44.408634 -137.62982 9998732
-133.90089 -44.408871 -138.27855 8550772
-133.07127 -44.409149 -139.08479 7958120
-132.2372 -44.40942 -139.88644 10853012
-131.56645 -44.409618 -140.52394 9405823
-130.89249 -44.409813 -141.15828 8616566
-130.21558 -44.409992 -141.78926 9997702
-115.83211 -44.406898 -151.14116 9670277
-115.10734 -44.406891 -151.69963 10262156
-114.37984 -44.406872 -152.25461 7301729
-113.46661 -44.406837 -152.94315 9012088
-112.54949 -44.406796 -153.62656 7301474
-111.81273 -44.406742 -154.16917 7038307
-111.07344 -44.406685 -154.70815 9209215
-110.33153 -44.406612 -155.2437 9341059
-109.40039 -44.406517 -155.90788 8813942
-108.70014 -44.253197 -156.90187 9865600
-107.90468 -44.235748 -157.36385 8878963
-107.10855 -44.2188 -157.82356 9142135
-106.41786 -43.998589 -158.43735 9011315
-105.581 -43.966755 -158.83572 10854036
-104.95397 -43.943432 -159.13394 8089955
-108.19216 -43.60862 -157.77861 8089705
-107.40073 -43.346828 -158.24944 9405306
-106.56162 -43.314445 -158.64906 9208695
-105.72358 -43.283089 -159.04778 10393227
-104.67746 -43.245239 -159.54494 7629922
-103.67927 -42.981113 -160.11195 7498594
-106.70557 -42.629749 -158.86092 9471867
-105.91387 -42.370476 -159.33087 8353645
-104.86574 -42.333378 -159.82867 9275261
-103.819 -42.297569 -160.3253 9735812
-102.9827 -42.270058 -160.72163 10919574
-102.19313 -42.015785 -161.18858 11182745
-105.84663 -41.677795 -159.64322 7564643
-104.9609 -41.46307 -160.13844 9472128
-104.07555 -41.249477 -160.63293 9735812
-103.16763 -41.358192 -161.0069 14670031
-102.33064 -41.332111 -161.403 12630703
-101.49452 -41.306927 -161.79831 10656401
-100.70424 -41.054943 -162.26459 9471615
-103.93579 -40.693249 -160.92326 9735812
-103.35285 -40.445007 -161.29259 11183258
-102.5602 -40.191006 -161.76086 11511710
-101.72205 -40.166466 -162.15678 11314588
-100.63052 -40.365257 -162.57874 9734787
-99.670166 -40.262875 -163.0627 9208955
-99.004951 -40.093403 -163.44084 9208955
-101.90437 -39.252754 -162.44405 8552312
-101.06734 -39.230122 -162.84274 9603973
-100.02244 -39.203465 -163.34059 9998217
-98.979065 -39.178169 -163.83818 9472128
-98.249321 -39.161301 -164.18579 10261899
-97.520081 -39.145199 -164.53294 9735555
-100.12537 -38.174763 -163.72554 9800838
-99.207283 -38.038521 -164.21136 8551540
-98.302475 -38.155632 -164.58434 9932934
-97.491203 -38.229733 -164.93178 10393486
-96.716354 -38.122334 -165.33858 11905951
-95.785049 -37.852715 -165.88672 9077368
-99.135048 -37.348858 -164.53539 8682867
-98.467743 -37.181328 -164.91733 9735555
-97.715797 -37.089123 -165.30707 10788244
-96.879471 -37.072483 -165.70438 9143418
-95.909737 -37.099888 -166.14542 8222316
-94.925217 -36.990765 -166.65079 9142646
-93.999992 -36.792282 -167.16615 7367005
-97.641289 -36.399353 -165.63213 8682867
-96.973198 -36.233383 -166.01379 8090730
-96.220619 -36.142933 -166.40311 8353646
-95.174767 -36.124638 -166.89893 7695971
-94.129684 -36.107494 -167.39384 6643539
-93.294174 -36.094662 -167.78923 9669245
-92.501541 -35.854366 -168.26027 10590091
-96.143883 -35.452942 -166.72931 9142905
-95.257355 -35.254238 -167.22676 7959142
-94.302841 -35.193077 -167.69791 8419435
-93.465759 -35.180542 -168.09392 10392711
-92.629059 -35.168777 -168.48932 9932163
-91.792809 -35.157768 -168.88428 9932163
-90.998611 -34.918945 -169.35539 7893614
-94.43293 -34.506165 -167.92636 9537402
-93.637619 -34.264698 -168.39919 9142647
-92.799393 -34.253231 -168.79523 9340027
-91.96154 -34.242474 -169.19077 10590091
-91.124054 -34.23243 -169.58588 8287856
-90.1539 -34.170242 -170.02568 7761513
-92.927399 -33.565498 -169.02495 8617075
-92.1306 -33.325424 -169.49785 8617075
-91.291573 -33.315662 -169.89357 8879478
-90.225365 -33.297977 -170.35402 8089706
-89.196671 -33.188465 -170.71834 11577755
-91.417435 -32.626976 -170.12468 9537408
-90.615829 -32.387112 -170.59161 7958376
-89.501465 -32.354046 -170.96378 8814196
-88.465759 -32.243885 -171.31549 10590860
-89.57325 -31.479969 -171.2973 8682865
-88.615036 -31.181543 -171.76755 6511954
-87.783707 -31.066648 -172.07875 7432802
-87.021049 -31.127905 -172.21645 6511962
-87.78965 -30.275261 -172.69783 10656657
-87.035019 -30.473 -172.75325 8551285
-86.324371 -30.157024 -173.30307 9472385
-85.560852 -29.942888 -173.78525 9998211
-84.466141 -29.785629 -174.36772 9538174
-83.583168 -29.768753 -174.67819 10261129
-83.163223 -29.426159 -175.95471 9537402
-82.057594 -29.40764 -176.34734 9208435
-81.20488 -29.404705 -176.7278 9471608
-80.357483 -29.404249 -177.11916 9735039
-71.934509 -29.405483 -184.36673 9931646
-71.050323 -29.4049 -184.71297 9208435
-69.942917 -29.404156 -185.14055 9208435
-69.055115 -29.403551 -185.47762 10063491
-141.34724 -44.411175 -133.84602 8092019
-140.70535 -44.411499 -134.52742 9539207
-140.06024 -44.411804 -135.20583 10986138
-139.4119 -44.412102 -135.88107 11906724
-138.76025 -44.412388 -136.55315 12433069
-138.10545 -44.412663 -137.22202 10656657
-129.36511 -44.410206 -142.57329 8485745
-128.51013 -44.410416 -143.35255 10262411
-127.82263 -44.410561 -143.97215 9209723
-127.13219 -44.410702 -144.5883 7038298
-126.43877 -44.410828 -145.20123 11445913
-125.74242 -44.410946 -145.81081 10459019
-124.86774 -44.411083 -146.56784 10458761
-123.98874 -44.411209 -147.31999 11708313
-123.28224 -44.411293 -147.91777 11576987
-122.57291 -44.411369 -148.5121 11248795
-121.86074 -44.411434 -149.10295 8683124
-121.14566 -44.411491 -149.69041 8090475
-114.21284 -44.339779 -154.70877 7038298
-113.54038 -44.152611 -155.09451 8090472
-112.78096 -44.039436 -155.49022 13026230
-111.93497 -44.000378 -155.89571 10065033
-111.09027 -43.962349 -156.30016 9143675
-110.11678 -44.035095 -156.71899 8616563
-112.72219 -43.341572 -155.8008 12039079
-112.05009 -43.156765 -156.18544 9406847
-111.29121 -43.046047 -156.57986 8617075
-110.1451 -43.17025 -157.05728 8484977
-109.13149 -43.185692 -157.51778 7958377
-108.28973 -43.151691 -157.91936 8089705
-111.23031 -42.349049 -156.8911 8089963
-110.40924 -42.198833 -157.33025 8419183
-109.51435 -42.000484 -157.82301 11116181
-108.48506 -42.236774 -158.20108 8616561
-107.64281 -42.204292 -158.60213 9866628
-106.84964 -41.944187 -159.07304 9340286
-109.52569 -41.353527 -158.08057 14076864
-108.72955 -41.091522 -158.55367 8090218
-107.88524 -41.059792 -158.95543 9143419
-107.04205 -41.029053 -159.35626 9208956
-106.21327 -41.137878 -159.69376 7696229
-105.27731 -40.852417 -160.24077 9866630
-108.03093 -40.37215 -159.16768 9143419
-107.23465 -40.112522 -159.63985 9011577
-106.39087 -40.083282 -160.04034 8156780
-105.33765 -40.047993 -160.53976 9143419
-104.28586 -40.014072 -161.03796 9735812
-103.49195 -39.759266 -161.50717 9735812
-106.53431 -39.395519 -160.25371 8419696
-105.60185 -39.180035 -160.77072 9669504
-104.60891 -39.056339 -161.27827 9933446
-103.63117 -39.072643 -161.72192 10130825
-102.79015 -39.047909 -162.11931 9012606
-101.99734 -38.795929 -162.59045 9012606
-104.7427 -38.299042 -161.52449 9012088
-103.81824 -38.156368 -162.01051 10130825
-102.97787 -38.132988 -162.41193 8092019
-102.1386 -38.110531 -162.81305 9472899
-101.30014 -38.088905 -163.21342 9143935
-100.50876 -37.839787 -163.68767 10261132
-103.75137 -37.463531 -162.3327 9406846
-103.08206 -37.291836 -162.71732 8092019
-102.32722 -37.195396 -163.11018 9670278
-101.48711 -37.174263 -163.51115 10064522
-100.43811 -37.149033 -164.01134 9800838
-99.475273 -37.050358 -164.50226 7894381
-98.80748 -36.882622 -164.88451 9735555
-102.25844 -36.502739 -163.43385 9933193
-101.58866 -36.332737 -163.81798 10985366
-100.83351 -36.238117 -164.21027 11445918
-99.783379 -36.214443 -164.7103 11182486
-98.734314 -36.191917 -165.20935 13023917
-97.980629 -36.099918 -165.59984 8682867
-97.312057 -35.933712 -165.98186 7564643
-100.76252 -35.545433 -164.53491 13551549
-99.873962 -35.34161 -165.03542 9866884
-98.916275 -35.27552 -165.51022 10129798
-98.076164 -35.258835 -165.90935 9406332
-97.236664 -35.242878 -166.30782 8748147
-96.482407 -35.152611 -166.69781 9668992
-95.812973 -34.987801 -167.07962 10786959
-99.052956 -34.58717 -165.73618 8682867
-98.256874 -34.341095 -166.21127 9011831
-97.415741 -34.325531 -166.61034 9142905
-96.575218 -34.310749 -167.00883 9537406
-95.735283 -34.296638 -167.40675 10524042
-94.812729 -34.167114 -167.89182 9537402
-97.550278 -33.636456 -166.83757 9142905
-96.753044 -33.392036 -167.31258 8879732
-95.911514 -33.3783 -167.71107 9800576
-94.860352 -33.362209 -168.20844 8551024
-93.809929 -33.34713 -168.70499 7827558
-93.012772 -33.106377 -169.17833 8617075
-96.043892 -32.688446 -167.93976 8353645
-95.110474 -32.489677 -168.45898 8682868
-94.194489 -32.142139 -169.03271 8682612
-93.183914 -32.186684 -169.48561 8617075
-92.342484 -32.17654 -169.88258 8419696
-91.543472 -31.937094 -170.35625 9537408
-93.987816 -31.273323 -169.49495 10853012
-93.355247 -31.26544 -169.79338 10853012
-92.496162 -31.109488 -170.32275 10064008
-91.750771 -31.028648 -170.7373 8879478
-90.853088 -31.246201 -171.0327 9734787
-90.1259 -30.928284 -171.48018 9537663
-89.429283 -30.761238 -171.82045 9538430
-90.940987 -30.36503 -171.68869 13023917
-90.25235 -30.200397 -172.04868 10195337
-89.305367 -30.145023 -172.38428 9340541
-88.392937 -29.97238 -172.85191 10327180
-87.337997 -29.843575 -173.34763 9538432
-86.716324 -29.493986 -174.70546 9932934
-86.049789 -29.480751 -174.94167 9998211
-85.16124 -29.463404 -175.25522 9209467
-84.273087 -29.446507 -175.5672 9998471
-75.672935 -29.407856 -182.8459 11313820
-74.796082 -29.407314 -183.21053 10129801
-73.917557 -29.406761 -183.57103 9405822
-73.037231 -29.4062 -183.92725 9668734
-72.375954 -29.405771 -184.19174 9931646
-138.14482 -44.076588 -138.24976 10656657
-137.40044 -44.269642 -138.30403 10656657
-136.6384 -44.219734 -139.06628 9670023
-135.92807 -44.206066 -139.68085 7564651
-135.21654 -44.192902 -140.29338 8222577
-134.49753 -44.178204 -140.89735 11773597
-133.7489 -44.154617 -141.46947 11115664
-132.80948 -44.125 -142.17857 9339765
-131.87093 -44.096825 -142.88649 9405815
-131.12068 -44.075397 -143.45184 10130054
-130.37091 -44.05489 -144.0164 11906725
-129.62163 -44.035339 -144.58014 9012089
-128.87276 -44.016754 -145.14317 10657425
-128.12428 -43.999073 -145.70546 9209725
-127.37621 -43.982368 -146.26709 9998470
-126.44153 -43.962826 -146.96811 10327434
-125.50733 -43.944603 -147.66818 8748661
-124.70518 -44.162968 -148.16272 7564651
-123.95869 -44.150379 -148.72127 8353908
-123.21243 -44.138744 -149.27919 9209470
-122.46629 -44.128056 -149.83661 9341054
-121.72028 -44.118271 -150.39345 8683124
-120.51779 -44.25948 -150.7543 8682100
-119.60066 -44.254757 -151.46381 9537409
-118.86533 -44.251526 -152.02908 9801349
-118.1226 -44.246487 -152.58467 8551026
-117.33732 -44.2267 -153.08504 8551282
-116.5437 -44.20451 -153.57318 9538175
-115.534 -44.171104 -154.15765 10656141
-114.56495 -44.047436 -154.66531 10260614
-113.89182 -43.860138 -155.05144 8616560
-137.70024 -43.587292 -138.80188 10656657
-136.94414 -43.559074 -139.37466 9735555
-136.18877 -43.531799 -139.94641 9735555
-135.43417 -43.505527 -140.51726 8946039
-134.68019 -43.480152 -141.0871 8681835
-117.6188 -43.58065 -153.4485 8814198
-116.81683 -43.30619 -153.92935 8682867
-115.74967 -43.25301 -154.44247 9800833
-114.68463 -43.201225 -154.95395 10260614
-113.83424 -43.160969 -155.362 9011061
-113.07294 -43.048397 -155.75833 10722963
-112.40009 -42.863422 -156.14333 12039079
-115.8267 -42.441559 -154.73663 9932419
-114.89268 -42.280632 -155.23216 11049873
-114.0406 -42.241146 -155.64066 9865856
-113.18987 -42.202667 -156.04805 9011575
-112.34047 -42.165131 -156.45451 9077882
-111.5798 -42.055046 -156.84955 8288109
-110.90715 -41.872307 -157.23355 8682867
-114.83531 -41.579544 -155.54338 11904668
-114.15887 -41.393711 -155.9305 7959144
-113.39474 -41.282368 -156.32758 7498591
-112.54369 -41.245537 -156.7345 7761763
-111.69391 -41.209698 -157.14041 8485229
-110.84545 -41.174763 -157.54536 9340540
-109.91715 -41.021935 -158.035 12695468
-113.33538 -40.582031 -156.63945 8485229
-112.65918 -40.398426 -157.02544 8485229
-111.89571 -40.289455 -157.42134 8485229
-111.0456 -40.255264 -157.82677 9340540
-109.98466 -40.213848 -158.33217 9538175
-108.92553 -40.173717 -158.83627 8616818
-108.12813 -39.913269 -159.30936 9143419
-111.83432 -39.589909 -157.73383 8485229
-111.1583 -39.408436 -158.11885 8682867
-110.183 -39.293804 -158.61462 8682867
-109.12175 -39.254543 -159.11934 7563618
-108.27409 -39.224133 -159.52203 7563618
-107.4276 -39.194645 -159.9239 8682354
-106.63005 -38.936539 -160.3961 9209467
-110.1192 -38.594975 -158.92789 10458505
-109.3183 -38.333874 -159.40282 8419182
-108.469 -38.304161 -159.80602 7103835
-107.62083 -38.275288 -160.20837 9340540
-106.77376 -38.247299 -160.60985 9603711
-105.92776 -38.220112 -161.01053 10524297
-105.12987 -37.964256 -161.48192 8682867
-108.61538 -37.613247 -160.0193 9603458
-107.81436 -37.354462 -160.49333 9603458
-106.96566 -37.327072 -160.89531 9603711
-106.11883 -37.300812 -161.29768 9866881
-105.06332 -37.269737 -161.802 9275003
-104.09599 -37.165627 -162.29727 9867653
-103.42618 -36.993793 -162.68224 8092019
-107.11168 -36.636616 -161.11252 9735296
-106.31459 -36.381382 -161.59196 9472381
-105.25768 -36.351295 -162.0979 10130568
-104.2021 -36.322323 -162.60271 9406846
-103.35871 -36.300064 -163.00569 9209726
-102.60208 -36.203934 -163.39931 9670279
-101.93169 -36.033699 -163.78374 13024949
-105.32213 -35.543411 -162.40787 11182487
-104.38132 -35.263615 -162.96471 11511451
-103.54964 -35.381157 -163.30341 10064778
-102.70544 -35.360195 -163.70616 9473156
-101.8621 -35.340042 -164.10823 10722709
-101.10519 -35.245693 -164.50121 11906724
-100.43426 -35.077095 -164.8853 11906724
-103.65447 -34.535534 -163.61043 9078141
-102.88126 -34.300819 -164.07001 7828589
-102.09716 -34.190075 -164.48259 7697004
-101.25252 -34.171253 -164.88464 8946039
-100.15172 -34.378887 -165.31105 8682867
-99.144173 -34.127651 -165.88695 8682867
-102.07392 -33.263683 -164.88341 7039331
-101.39996 -33.094742 -165.26906 9011831
-100.59388 -33.23225 -165.58736 10064519
-99.538033 -33.211311 -166.08891 9275004
-98.483215 -33.191406 -166.58958 9603968
-97.685013 -32.946251 -167.06526 8616816
-97.097466 -32.705341 -167.44092 8616816
-100.56773 -32.305378 -165.98973 9735296
-99.673615 -32.102905 -166.49219 8353902
-98.710136 -32.039051 -166.96878 8419952
-97.864998 -32.024464 -167.36928 8748659
-96.951508 -32.148125 -167.74355 11839646
-96.176514 -31.997358 -168.16872 7235678
-95.37693 -31.75441 -168.6441 9143163
-98.846504 -31.346201 -167.19672 9341054
-98.000153 -31.331963 -167.59769 8946039
-97.234421 -31.098289 -168.13487 10590092
-96.389633 -31.085777 -168.53691 9800835
-95.545349 -31.073942 -168.93834 9669251
-94.701469 -31.062733 -169.33913 9406079
-93.728249 -30.831285 -169.9846 10064008
-92.88533 -30.821785 -170.38579 10853012
-95.79702 -30.418085 -169.37831 10261132
-94.951874 -30.407402 -169.78169 8616818
-94.047455 -30.2208 -170.36476 7235685
-93.066559 -30.122223 -170.90767 9800838
-92.078194 -30.156176 -171.33939 9997959
-91.331017 -30.076101 -171.75745 10063752
-90.663315 -29.918468 -172.15904 9734788
-90.053421 -29.564529 -173.50943 10853012
-89.16288 -29.545094 -173.83069 9932166
-88.273026 -29.526108 -174.15025 10261899
-87.383331 -29.507565 -174.46809 9932934
-79.596481 -29.410179 -181.15273 9210491
-78.727753 -29.409679 -181.53633 9998215
-77.857208 -29.409172 -181.91574 9998215
-76.766357 -29.408524 -182.38387 10787732
-137.63338 -43.112514 -139.0677 10263180
-137.06581 -43.091743 -139.49745 9144187
-136.30972 -43.06472 -140.06964 8880502
-135.55441 -43.038647 -140.64087 8090986
-134.79971 -43.013569 -141.21117 8681835
