# .PCD v0.7 - Point Cloud Data file format
VERSION 0.7
FIELDS x y z rgb
SIZE 4 4 4 4
TYPE F F F U
COUNT 1 1 1 1
WIDTH 1185
HEIGHT 1
VIEWPOINT 0 0 0 1 0 0 0
POINTS 1185
DATA ascii
-32.507706 -48.103065 -159.39868 8090991
-31.491095 -48.00906 -159.28557 7038307
-30.477478 -47.915363 -159.1669 7564650
-29.466494 -47.822086 -159.04329 10984590
-28.458532 -47.729191 -158.91415 10984590
-27.654001 -47.655098 -158.80753 9208435
-77.201736 -47.05434 -163.61536 9208951
-76.255264 -47.074005 -163.94833 10260871
-75.608795 -47.275703 -164.10165 10655630
-27.252592 -47.618099 -158.75285 8090987
-26.451073 -47.544403 -158.64084 8420983
-25.451509 -47.452606 -158.49677 9671047
-24.455172 -47.361172 -158.34724 8683637
-23.461542 -47.270096 -158.19307 7959657
-22.470974 -47.17939 -158.03362 7564131
-21.680431 -47.10709 -157.90279 6511954
-16.742666 -46.631008 -158.36655 11313812
-78.182388 -46.16151 -163.69806 9932419
-77.234612 -46.241261 -163.98573 9208435
-76.465981 -46.290981 -164.22438 9208435
-16.350946 -46.595486 -158.28812 10261123
-15.568716 -46.523319 -158.12457 11313812
-14.589652 -46.421745 -157.87636 7039331
-13.613 -46.315708 -157.60666 8486262
-12.640083 -46.210033 -157.33252 7631211
-11.671273 -46.104881 -157.05345 7433064
-10.898685 -46.020939 -156.8273 8288627
-8.298975 -45.742592 -157.49251 8089963
-7.5308843 -45.6591 -157.24802 10195339
-80.016518 -45.019474 -163.88881 10460047
-79.18631 -45.27404 -164.01712 9342080
-78.382698 -45.336193 -164.26181 7434088
-77.629486 -45.64492 -164.30649 8092016
-6.5740838 -45.555107 -156.93889 11379356
-5.6215634 -45.451553 -156.62508 10458254
-4.6728635 -45.348442 -156.30727 9734527
-2.2517726 -45.089222 -156.92616 10129286
-1.4975545 -45.007149 -156.65462 10326666
-0.55808806 -44.9049 -156.31174 10854036
0.3769286 -44.803154 -155.96449 10986902
1.1221335 -44.721985 -155.68413 11316124
-92.063255 -44.042957 -165.07097 8813683
-91.237274 -44.184147 -165.26671 8945526
-90.440361 -44.417973 -165.41701 9143420
-87.271477 -44.412979 -164.77084 7038307
-86.481995 -44.412487 -165.19185 8616566
-83.972298 -44.414547 -164.23529 6510930
-83.172546 -44.407394 -164.6152 6642516
-82.136192 -44.648888 -164.03874 7037274
-81.31871 -44.631393 -164.37193 9011320
-80.705475 -44.618664 -164.62062 13024949
3.3676016 -44.481644 -156.27815 7960175
4.2936769 -44.380802 -155.90765 9736071
5.2149 -44.277767 -155.5237 8683898
5.947711 -44.184284 -155.17432 9209467
7.6498933 -43.969185 -155.81192 7762796
8.3808012 -43.888355 -155.49245 7762796
9.2903042 -43.787819 -155.08978 12827052
10.015027 -43.707718 -154.76537 9209726
-92.187645 -43.365768 -165.2908 8813683
-91.366386 -43.351639 -165.68311 8418927
11.557224 -43.537689 -155.53494 10064009
12.279433 -43.457802 -155.19766 11445662
13.357682 -43.338558 -154.68782 11445662
14.073047 -43.259441 -154.34535 9143422
15.633812 -43.087341 -155.07217 9143422
16.346373 -43.008579 -154.71698 9932419
17.2334 -42.9105 -154.27045 10261641
17.76339 -42.85186 -154.0009 8682867
19.524349 -42.673244 -154.65103 10065033
20.233244 -42.606277 -154.31865 10065033
20.763243 -42.55621 -154.06781 10065033
-92.810966 -42.24448 -165.46815 9537403
-92.217957 -42.324932 -165.71393 8813683
21.291517 -42.506287 -153.81534 9998214
23.439524 -42.32539 -154.37286 10984593
24.140585 -42.25885 -154.02147 9865600
25.18741 -42.159378 -153.49002 7432549
27.526018 -41.959717 -153.90138 9537659
28.218323 -41.893688 -153.53093 9735555
29.080288 -41.81144 -153.0648 9143675
31.237383 -41.595432 -153.40025 9736323
-93.024513 -41.114223 -165.84351 10261124
32.076305 -41.492462 -152.83775 13024949
34.230957 -41.258171 -153.07133 11052187
35.06041 -41.155895 -152.49139 9868171
37.223427 -40.919941 -152.68443 9143936
38.043045 -40.818455 -152.08725 9012350
39.562565 -40.661797 -152.72935 10853012
40.213696 -40.58094 -152.23956 9537667
40.861931 -40.500324 -151.74861 9341054
42.396629 -40.34156 -152.366 8879991
43.20089 -40.241241 -151.73743 9340286
45.2309 -40.020416 -151.95207 11708316
46.025944 -39.920765 -151.30759 9208443
47.591454 -39.757862 -151.88312 9012606
48.222244 -39.678555 -151.3558 9933451
50.273582 -39.454304 -151.51263 8616563
51.053116 -39.355816 -150.83827 7563619
52.958122 -39.149704 -151.09839 10788244
53.575081 -39.071476 -150.54706 12433581
55.406406 -38.9305 -151.10678 8682867
56.019485 -38.85387 -150.54776 8682867
58.354027 -38.671394 -150.73044 10064267
58.95895 -38.59465 -150.15599 9603459
61.156445 -38.42844 -150.44395 9735296
61.753555 -38.351643 -149.85461 9735296
64.113907 -38.163212 -149.95677 9801347
64.702385 -38.086529 -149.35234 9932419
66.928864 -37.914383 -149.567 9143166
69.31926 -37.720337 -149.60217 7959661
69.893288 -37.643414 -148.96918 7564651
71.868584 -37.504345 -149.44695 11182228
72.294319 -37.446453 -148.96179 11182228
72.576874 -37.408058 -148.63806 9340539
74.851135 -37.227638 -148.76019 9669762
77.283257 -37.025257 -148.69141 9538176
77.696533 -36.967453 -148.18513 8682867
80.003426 -36.781647 -148.24898 9143161
82.330132 -36.593113 -148.29007 10261641
82.732201 -36.535248 -147.76335 8617073
84.940643 -36.363346 -147.95035 7564647
87.302628 -36.16943 -147.93866 5393738
87.693932 -36.111557 -147.39156 4340785
90.070015 -35.914879 -147.34645 4275765
90.454262 -35.857002 -146.78914 5393730
92.338737 -35.73481 -147.46689 8682867
92.718475 -35.676922 -146.89954 8090986
95.130005 -35.474773 -146.80051 6511955
97.683464 -35.250648 -146.48163 5393730
100.01203 -35.062328 -146.53018 7696236
100.37347 -35.004475 -145.93274 7367013
102.02419 -34.81588 -146.44789 8023911
102.84303 -34.683056 -146.00414 11642522
103.87381 -34.450455 -145.73349 7103067
103.98904 -33.918938 -146.14249 8880506
104.71434 -33.789745 -145.58365 7169373
104.27518 -33.213425 -146.29947 9736073
104.89818 -33.027969 -145.84135 6708824
105.50674 -32.758492 -145.43654 7169373
105.09512 -32.023239 -146.15448 7038047
105.82289 -31.846769 -145.59979 8879733
105.97417 -30.906965 -145.96315 12827051
106.70805 -30.78124 -145.40755 8353133
106.96428 -30.076925 -145.85567 7563619
107.79484 -29.867949 -145.40199 9011064
108.7203 -29.428223 -145.43513 9735560
109.21297 -29.419472 -145.00621 6511954
110.02293 -29.129333 -145.71869 7564389
110.89179 -29.127337 -145.05707 9011315
112.04734 -28.82897 -145.48164 7563614
112.68163 -28.81209 -144.86603 9208435
112.30332 -28.387596 -145.4548 5919050
112.80914 -27.939486 -145.18559 7103321
113.45707 -27.814539 -144.61171 9340536
113.07308 -27.061882 -145.37343 7827816
113.67236 -26.785675 -144.9245 7565675
114.28374 -26.597055 -144.41902 6511954
113.85 -25.995579 -145.15268 8749691
114.55492 -25.86314 -144.52646 7170658
114.10367 -25.289837 -145.26292 7565675
114.70456 -25.013893 -144.8123 8420726
114.89983 -24.10323 -145.08456 9932424
115.55773 -23.767771 -144.60823 9143162
115.76846 -22.839813 -144.8741 7432800
116.45736 -22.60677 -144.315 6511954
116.05949 -22.025784 -145.00287 6972249
116.63432 -21.831524 -144.53621 6906711
116.81172 -21.05471 -144.75781 7235932
117.50244 -20.821943 -144.19678 11380372
117.01495 -20.16489 -145.01158 9208435
117.67961 -19.876747 -144.50446 9274999
117.8389 -18.89245 -144.84969 6249038
118.44421 -18.809313 -144.29626 7169631
118.11697 -18.145325 -144.95683 7564643
118.81107 -17.912394 -144.39259 7893613
118.89362 -17.091677 -144.72968 8288114
119.50047 -17.009216 -144.1745 10261385
119.17368 -16.341181 -144.83665 8419696
119.86517 -16.037748 -144.38202 11511449
120.52298 -15.59061 -144.11917 10327692
120.86278 -15.005908 -144.40932 7959144
121.5731 -14.678408 -144.20332 9011832
122.30225 -14.565255 -143.66743 9406590
123.73476 -14.181371 -143.94698 10130572
-71.171219 -51.135765 -163.9734 9010806
-70.101448 -51.157772 -164.25461 9406333
-69.282478 -51.332817 -164.19037 9406076
-68.436752 -51.288658 -164.38478 9142135
-64.983688 -51.074047 -163.245 11379348
-64.318123 -51.011723 -163.28212 9471871
-63.210648 -50.908173 -163.33893 8682355
-62.104992 -50.804913 -163.38977 7038298
-61.222069 -50.722549 -163.42555 7564643
-72.768295 -49.81321 -164.12772 9932161
-72.182457 -50.233543 -164.17346 10326661
-71.200249 -50.214207 -164.53456 9931905
-70.614967 -50.634163 -164.57547 10853004
-60.340538 -50.640381 -163.4574 9537666
-59.240623 -50.537964 -163.49126 8748409
-58.362103 -50.456211 -163.5143 8419702
-53.040607 -49.991581 -162.01727 10853012
-52.395546 -49.931828 -162.01714 9209467
-51.322437 -49.832649 -162.01218 10985105
-50.250053 -49.732395 -161.99718 11182227
-49.607201 -49.671829 -161.98351 9208952
-73.198135 -49.129883 -164.24124 9932161
-72.25869 -49.153736 -164.56996 10853004
-71.618286 -49.357571 -164.72044 10853004
-49.179184 -49.631557 -161.97313 9208952
-48.324352 -49.551102 -161.94919 8682610
-47.257984 -49.450859 -161.91461 10261899
-46.406689 -49.370899 -161.88258 8617331
-45.34502 -49.271317 -161.83717 8682867
-44.285713 -49.172043 -161.78642 9932675
-43.22916 -49.073135 -161.72948 11379609
-42.175133 -48.974613 -161.66733 9735043
-41.333817 -48.896038 -161.6133 10129798
-40.284737 -48.798119 -161.54062 10590607
-39.238174 -48.700596 -161.46275 9144191
-38.611511 -48.642258 -161.41339 9736070
-74.014709 -48.324322 -164.26361 9011321
-73.201775 -48.306892 -164.563 9340286
-72.446022 -48.363815 -164.81268 9931649
-38.194302 -48.60347 -161.37926 10854036
-37.361465 -48.525978 -161.30806 10460046
-36.322548 -48.429447 -161.21471 9209467
-35.286541 -48.333309 -161.11557 10459023
-34.253181 -48.237518 -161.01138 7038307
-33.428692 -48.161175 -160.92398 7038307
-32.400581 -48.066059 -160.80981 10195847
-31.375216 -47.971325 -160.69066 9932676
-30.352892 -47.876945 -160.56592 9274746
-29.333277 -47.782963 -160.43634 10524039
-28.316759 -47.689335 -160.30107 11247762
-75.08773 -47.118828 -164.35089 9077111
-74.103996 -47.179825 -164.68103 9208444
-73.390717 -47.516003 -164.80547 9734788
-27.303003 -47.596096 -160.16103 9537918
-26.494144 -47.521736 -160.04518 9537918
-25.485901 -47.429203 -159.89565 9735810
-24.480419 -47.336998 -159.74132 9341822
-23.478148 -47.24519 -159.58173 8420464
-22.478693 -47.153751 -159.41737 7959145
-21.48247 -47.062706 -159.24771 7563619
-20.489134 -46.972042 -159.07352 7563619
-19.498985 -46.881779 -158.8941 7563619
-18.511765 -46.791874 -158.71007 9011318
-17.527828 -46.70237 -158.52092 9998465
-75.961121 -46.144135 -164.51227 9931904
-75.082909 -46.152653 -164.82224 9471870
-74.315796 -46.378017 -164.92029 9340286
-13.159501 -46.270573 -158.95396 7039331
-12.375076 -46.185398 -158.72781 8881019
-11.398294 -46.079292 -158.44078 9933960
-10.42526 -45.973583 -158.14951 10459793
-9.4565144 -45.868382 -157.85341 12564653
-8.6841383 -45.784454 -157.6136 8089963
-77.971733 -44.973732 -164.68323 8091244
-77.069511 -45.167828 -164.86961 9668986
-76.251556 -45.40696 -164.96091 9931902
-75.586624 -45.601246 -165.0815 9931902
-6.2568116 -45.524769 -158.30653 11379356
-5.4883151 -45.441223 -158.04942 11378840
-4.5315394 -45.337181 -157.72401 10457736
-3.5786922 -45.233524 -157.39461 10194565
-2.8194835 -45.150928 -157.12799 8681835
-0.37912151 -44.889595 -157.72087 9736835
0.37551621 -44.807438 -157.43733 9342077
1.5026991 -44.684731 -157.00746 10262667
2.250972 -44.603245 -156.71785 9933193
-90.092873 -44.146622 -165.87999 9471873
-89.087845 -44.190083 -166.2438 10063753
-88.176514 -44.377651 -166.45973 11904668
-85.88839 -44.412113 -165.50476 7038307
-85.09523 -44.411606 -165.91881 6839893
-82.186249 -44.40675 -165.11597 7037274
-81.394951 -44.406227 -165.51216 9998215
-80.092049 -44.606228 -164.86812 10263180
-79.069427 -44.586239 -165.27827 9144702
2.6239293 -44.56266 -156.57195 8486262
4.888185 -44.32024 -157.14943 9867657
5.4447494 -44.255039 -156.90375 10788500
6.3668213 -44.133854 -156.44508 10393743
7.1011066 -44.03735 -156.07619 9735558
8.6385536 -43.860344 -156.86076 9933193
9.3723555 -43.779251 -156.53265 11380121
10.467951 -43.658108 -156.03629 7039331
11.194977 -43.577686 -155.70267 7039331
-90.956055 -43.345051 -165.87939 8813683
-90.128418 -43.329155 -166.25806 8747893
-89.221596 -43.520767 -166.48988 8089962
12.753163 -43.405941 -156.47035 10985367
13.477501 -43.325832 -156.12381 11840931
14.379242 -43.226135 -155.68799 10787729
15.097208 -43.146736 -155.33681 7564651
16.852949 -42.953117 -155.97304 8682867
17.389181 -42.893757 -155.7001 10459534
18.279299 -42.795723 -155.244 9537919
18.991083 -42.723614 -154.8988 10065033
20.963428 -42.55991 -155.58264 13024949
-91.866783 -41.775597 -166.11101 8418927
-91.103546 -42.273121 -166.26137 8353134
-90.144775 -42.501259 -166.6021 8747893
21.496759 -42.50943 -155.32593 10459278
22.382149 -42.425621 -154.89487 9209467
23.087807 -42.35878 -154.54759 10984593
25.431215 -42.159184 -154.99788 7958634
26.307152 -42.075844 -154.54364 9867139
27.00461 -42.009407 -154.17749 9537659
28.841349 -41.857529 -154.85367 8682867
29.36261 -41.807774 -154.56895 8617331
30.223202 -41.718658 -154.06789 8617331
-92.654655 -40.881092 -166.11617 8813683
-92.108704 -41.144558 -166.2627 9142649
-91.223793 -41.161133 -166.67305 8616304
32.388058 -41.485004 -154.33878 9736836
33.228851 -41.381588 -153.76413 8289395
35.401909 -41.145092 -153.98997 10789015
36.23299 -41.042473 -153.39792 8552313
38.249153 -40.824818 -153.70422 9143936
39.071724 -40.722771 -153.09564 10853012
-92.989075 -40.205017 -166.24319 10129286
-92.162704 -40.191868 -166.63852 10129286
41.261177 -40.483074 -153.24237 9537922
41.911552 -40.402035 -152.74223 10261132
43.625069 -40.221325 -153.23532 8419696
44.269829 -40.140675 -152.72289 10130057
46.47839 -39.897667 -152.80278 9735814
47.115681 -39.817654 -152.27773 10459537
48.698349 -39.652878 -152.85649 7565675
49.330936 -39.573215 -152.3197 8485747
-93.044411 -39.25053 -166.61916 8813421
-92.496643 -39.515022 -166.76613 9405560
51.401226 -39.346832 -152.47276 8089963
52.026451 -39.267693 -151.92374 10064265
54.323792 -39.065189 -152.08118 14078918
54.943779 -38.988201 -151.52496 10591124
57.28598 -38.806175 -151.73218 12038055
57.897896 -38.729099 -151.16034 11379356
60.101864 -38.563416 -151.47218 10525843
-93.581779 -38.165123 -166.82295 10853012
-93.288521 -38.616573 -166.77107 9734527
60.706112 -38.48616 -150.88524 8682867
62.626972 -38.356285 -151.463 11905692
63.224464 -38.278858 -150.86137 9735812
65.462646 -38.10741 -151.11032 10591119
66.051895 -38.030006 -150.49379 7762027
68.450813 -37.836262 -150.54977 7564643
68.886307 -37.778172 -150.07632 7564643
71.153893 -37.601028 -150.25439 9011831
-93.667831 -37.710026 -166.97412 10129286
73.441673 -37.421131 -150.4106 11182228
74.008293 -37.343536 -149.75096 10459023
76.310364 -37.160767 -149.87125 12433069
76.72876 -37.102612 -149.36581 9077625
79.18322 -36.897663 -149.28139 12169128
81.518608 -36.709343 -149.34282 8682867
81.925392 -36.651176 -148.81659 9472126
84.007408 -36.499043 -149.20253 13484984
84.409096 -36.440777 -148.66606 7038298
86.512741 -36.285892 -149.03239 7169888
86.908745 -36.227558 -148.4856 5788495
89.294586 -36.031094 -148.46074 5327424
89.683632 -35.972858 -147.90369 6314063
91.828156 -35.812393 -148.22324 8288109
94.252167 -35.610378 -148.14781 6512986
94.62989 -35.552185 -147.57034 8222832
96.944016 -35.366814 -147.65668 8092019
98.934494 -35.118881 -147.59006 8221548
100.05486 -34.91806 -147.4738 8155756
101.10649 -34.636986 -147.37485 7169632
101.84132 -34.589844 -147.05852 8352876
102.75718 -34.488758 -146.75087 11971487
102.18315 -34.077236 -147.42744 9010805
102.8852 -33.836533 -147.16005 10589835
103.60076 -33.793449 -146.58472 10130315
103.21671 -33.099495 -147.2856 9736073
103.93757 -32.967037 -146.71567 12302253
103.4746 -32.383316 -147.4054 7564651
104.05524 -31.942104 -147.10834 8617594
104.69476 -31.841061 -146.59477 7564651
104.39915 -31.080364 -147.22293 7564651
105.04735 -30.90114 -146.79401 7630443
105.69004 -30.639944 -146.43042 7038307
105.38013 -30.247034 -147.11147 7038307
106.04048 -30.070925 -146.69542 8748664
106.88874 -29.637079 -146.60979 7827049
107.73275 -29.44643 -146.29196 8156271
108.80607 -29.133831 -146.64418 9998987
109.49998 -29.130529 -146.11302 8814715
111.09438 -28.855419 -146.40599 8419183
111.57107 -28.841993 -145.9437 5919050
111.19077 -28.417913 -146.53423 9998215
111.81668 -27.911039 -146.17679 6708566
112.49834 -27.512175 -145.70941 8089957
112.16697 -26.866533 -146.36478 7564132
112.76719 -26.778563 -145.81891 8551024
112.84041 -25.975775 -146.15634 9801607
113.52708 -25.740683 -145.60042 13551549
113.12656 -25.166166 -146.28763 10459536
113.68746 -24.787796 -145.9286 9209985
114.0449 -23.901691 -146.02875 7302245
114.61048 -23.743101 -145.55296 8748919
114.11992 -23.0933 -146.3672 7958888
114.80965 -22.858633 -145.80807 7958888
114.98434 -22.083031 -146.03174 9405822
115.55979 -21.887871 -145.56494 6511954
115.15942 -21.30579 -146.25577 9405822
115.85092 -21.071571 -145.69478 8813941
116.06271 -20.136507 -145.96324 9274230
116.72547 -19.799549 -145.48285 6446160
116.92478 -18.876848 -145.75723 6314831
117.53244 -18.600088 -145.30034 5920074
117.20319 -17.935528 -145.96317 8090469
117.7928 -17.882097 -145.41019 7235678
117.89116 -17.030722 -145.74731 8419696
118.49896 -16.947729 -145.19154 8419696
118.26955 -16.130095 -145.85985 7959401
118.84622 -15.903522 -145.50072 7827815
119.5531 -15.601607 -145.0629 10458510
119.90617 -14.844892 -145.58687 9405824
120.6783 -14.722594 -145.00951 7959144
122.08974 -14.19514 -145.51991 7959144
122.74837 -14.189393 -144.89096 8881526
-69.067833 -50.988293 -164.77859 9143675
-67.984619 -51.034966 -164.96414 8616562
-67.173965 -51.118435 -164.87096 8945526
-66.06662 -51.134079 -164.78964 9209210
-64.960365 -51.041248 -164.89003 9932678
-64.064293 -50.957535 -164.93402 9932678
-63.169579 -50.874012 -164.97379 9471871
-70.744286 -49.77372 -164.87158 9931905
-70.071617 -50.192024 -164.94164 9801347
-69.100021 -50.227146 -165.26471 8156780
-68.168259 -50.57653 -165.40294 8617331
-57.923332 -50.415447 -163.52417 8419702
-57.266056 -50.354347 -163.53693 9735298
-56.172333 -50.252811 -163.55334 10261385
-55.080711 -50.151619 -163.56389 10786958
-54.209091 -50.070881 -163.56772 10260871
-53.121788 -49.970261 -163.56693 8946295
-52.036713 -49.869968 -163.56042 9604224
-51.170094 -49.789665 -163.54976 9209467
-50.303551 -49.708256 -163.53062 8090729
-71.682899 -48.926243 -164.86644 10853004
-71.042717 -49.130726 -165.01659 10392454
-70.029968 -49.113342 -165.38788 9406333
-49.222584 -49.606529 -163.50049 9932418
-48.143993 -49.505188 -163.4648 8157037
-47.498108 -49.44445 -163.44058 13023917
-71.926201 -48.209446 -165.06027 10523272
-71.05555 -48.22253 -165.36845 9340026
-70.327553 -48.46973 -165.53345 9340797
-72.932205 -47.130932 -165.12199 9997444
-72.06752 -47.139355 -165.42996 10325893
-71.171059 -47.445229 -165.6322 9011318
-24.303333 -47.293858 -161.12483 10262667
-23.292742 -47.201435 -160.95877 8090731
-22.285032 -47.109325 -160.78816 9077370
-21.280584 -47.017612 -160.61227 14671311
-20.279036 -46.926327 -160.43167 12697009
-19.280924 -46.835407 -160.2459 7827303
-18.285696 -46.744873 -160.05556 10327689
-17.293898 -46.654701 -159.86006 10590089
-73.921852 -46.102577 -165.27664 8485233
-73.044258 -46.113285 -165.5836 9931650
-72.278061 -46.339329 -165.67555 10851980
-16.304972 -46.56496 -159.66013 12432037
-15.319536 -46.475586 -159.45505 9340283
-14.33705 -46.386642 -159.24551 8617080
-13.749083 -46.333458 -159.11763 8617080
-11.120152 -46.053257 -159.84949 7038307
-10.335299 -45.968018 -159.60988 8486007
-9.3574982 -45.861786 -159.30682 11380639
-8.3841257 -45.755993 -158.99898 10788757
-7.414619 -45.650581 -158.68698 8617591
-75.926468 -44.932022 -165.46725 9931902
-75.023872 -45.126537 -165.64476 8945269
-74.086281 -45.317863 -165.77942 8879732
-73.340691 -45.559048 -165.92603 9076855
-6.8348756 -45.587574 -158.49762 8814203
-4.1946139 -45.304691 -159.09764 8813939
-3.4262941 -45.221165 -158.82744 9734528
-2.4692743 -45.116985 -158.48627 9143163
-1.5168436 -45.013367 -158.1407 9997701
-0.7576158 -44.930775 -157.86159 9736835
1.7011988 -44.667332 -158.42477 10262156
2.2673361 -44.605648 -158.20308 10262156
-87.940254 -44.065899 -166.65643 10195081
-87.001335 -44.054699 -166.94382 10589839
-86.209824 -44.290951 -167.08711 8616304
-84.100838 -44.410969 -166.43076 7760736
-83.303337 -44.41045 -166.83644 15196110
-80.800377 -44.40583 -165.80695 10985366
-80.005661 -44.405293 -166.19618 9144702
-79.209335 -44.404747 -166.58221 9144702
-78.046463 -44.567104 -165.68567 9143672
-77.023079 -44.548973 -166.09001 9668730
2.831815 -44.54422 -157.97989 8353646
3.5819552 -44.462494 -157.68005 7367524
4.3294396 -44.381073 -157.37778 9867657
6.0508814 -44.180054 -158.10948 8092019
6.6079874 -44.106865 -157.82837 9735558
7.5325212 -43.987019 -157.3636 7893615
8.2704315 -43.901043 -157.02397 10854036
10.561514 -43.648281 -157.49559 9209726
-88.984909 -43.208206 -166.68701 7366239
-88.042564 -43.196812 -166.97548 8747892
-87.049522 -43.312073 -167.22823 10195082
11.477987 -43.546936 -157.07086 9603458
12.207678 -43.466232 -156.72849 10524560
14.509367 -43.212257 -157.14162 10327693
15.414308 -43.112175 -156.69466 9011578
16.314825 -43.012573 -156.24466 8682867
18.453922 -42.796967 -156.7612 9208954
19.533411 -42.695068 -156.25986 9604225
20.428486 -42.6105 -155.83781 14078918
-89.97583 -41.8526 -166.92459 8879478
-88.992622 -42.378208 -167.01883 7366239
-87.952637 -42.408749 -167.31982 8287341
22.778059 -42.41116 -156.33824 9209467
23.489431 -42.343613 -155.98424 11906465
24.374577 -42.259609 -155.53809 9011321
26.740023 -42.058048 -155.97926 9867139
27.443094 -41.990967 -155.60626 9867139
28.318346 -41.907482 -155.13699 9275003
30.690207 -41.693516 -155.47998 11972771
31.371908 -41.609829 -155.02472 10855573
31.881037 -41.547318 -154.68219 9736836
-90.798637 -40.852703 -167.00357 9011320
-90.028259 -41.105419 -167.21033 9274236
-89.00985 -41.335739 -167.43332 8747892
33.723251 -41.352177 -155.1666 6510930
34.397316 -41.269085 -154.69713 9143677
34.900616 -41.207012 -154.34404 8092019
36.588486 -41.030437 -154.91481 10985369
37.255203 -40.947964 -154.43161 9012607
39.455597 -40.707634 -154.61108 9077371
40.27951 -40.605194 -153.99022 7827565
-91.585258 -39.956043 -167.01019 10853012
-91.039314 -40.220753 -167.15616 8945269
-90.137856 -40.232166 -167.53775 9603713
42.323933 -40.38372 -154.25595 7564643
43.138786 -40.282055 -153.61868 7564643
44.707497 -40.119614 -154.24066 8092019
45.35434 -40.038616 -153.71884 8618105
45.998203 -39.957859 -153.19597 9735814
47.582108 -39.793308 -153.7928 12893619
48.221264 -39.712971 -153.25816 10459537
-91.918381 -39.278824 -167.13834 10853012
-91.091026 -39.2672 -167.53352 9471871
50.455772 -39.466267 -153.29399 9603713
51.087101 -39.386497 -152.74677 8089963
53.229523 -39.20068 -153.05064 10788244
53.856434 -39.123142 -152.49733 9208443
55.740391 -39.000126 -153.15565 10591124
56.361309 -38.922367 -152.58727 10591124
58.575417 -38.757511 -152.93407 7565675
59.188755 -38.679684 -152.35031 7960176
-92.861786 -38.305977 -167.1032 9405560
-91.971397 -38.323406 -167.51581 10261128
-91.423637 -38.589081 -167.66222 9011320
61.72279 -38.472843 -152.36288 10064265
62.175816 -38.41452 -151.91321 11972257
64.421257 -38.243576 -152.18628 11972511
65.017738 -38.165646 -151.57188 11511962
67.278885 -37.991833 -151.80966 8090987
67.866837 -37.913895 -151.18025 9143166
70.288193 -37.717617 -151.22137 9605250
72.583488 -37.538139 -151.39824 10985369
72.870537 -37.499027 -151.06921 9340539
-93.796913 -37.026592 -167.20107 9340027
-92.984993 -37.185776 -167.51697 9734784
-92.214302 -37.688477 -167.66873 9405560
73.15657 -37.46003 -150.74002 7564643
75.324577 -37.297142 -151.04875 10985367
75.889351 -37.219124 -150.37613 11709090
78.075089 -37.053398 -150.65576 8682867
78.631508 -36.975349 -149.96899 10459278
80.421989 -36.865501 -150.7446 15195094
80.972038 -36.787308 -150.04398 11576991
83.332565 -36.596539 -150.09615 13484984
-93.760994 -36.11087 -167.60376 10590091
-93.135918 -36.101795 -167.90239 10590091
85.980453 -36.363926 -149.76108 13023917
88.377983 -36.167583 -149.76018 10261132
88.772331 -36.108944 -149.20338 6314063
91.054764 -35.929413 -149.35762 8682867
93.489136 -35.727482 -149.30257 8091760
93.871696 -35.66893 -148.72513 8091760
-93.988602 -35.273926 -167.84894 10590091
95.168106 -35.435535 -149.19289 8354674
96.125237 -35.344952 -148.72429 7565158
97.217789 -35.029003 -148.84758 6644313
98.103012 -34.905415 -148.49107 8156270
99.09893 -34.785461 -148.21823 7037274
99.68412 -34.803089 -147.94176 7892584
-94.271919 -34.512905 -168.03578 8089963
98.276245 -34.356289 -148.90926 8813686
99.137444 -34.081902 -148.66248 8813686
100.08789 -33.932423 -148.32463 7432290
100.94487 -33.940853 -147.97426 6775644
101.77746 -33.776451 -147.72279 6644058
100.1678 -33.034935 -148.66451 7301988
101.08732 -32.919037 -148.33858 9735813
102.00933 -32.997299 -147.93529 9867399
102.76436 -32.954124 -147.6403 9208699
101.15314 -32.211975 -148.5899 11183001
102.09308 -31.869938 -148.34457 13879741
103.0402 -31.957647 -147.91357 10919574
103.60897 -31.740341 -147.5985 7564651
102.21082 -31.065443 -148.61316 14603206
103.05978 -30.991503 -148.32222 8288115
103.8988 -30.847876 -147.86349 7301479
104.54732 -30.667845 -147.43301 7564651
104.23446 -30.275444 -148.11618 7301479
104.89858 -30.017916 -147.77997 9011579
105.82581 -29.572206 -147.7348 11379609
106.57686 -29.468996 -147.28955 11379609
107.30698 -29.160315 -147.92532 10525326
107.97098 -29.147398 -147.35201 9275775
110.08199 -28.711098 -147.47595 8419958
110.66516 -28.65032 -146.933 9011579
110.33089 -28.007208 -147.59 7038307
110.93086 -27.728535 -147.14162 8616822
111.10445 -26.938444 -147.37373 8616822
111.68875 -26.878988 -146.82907 9011579
111.19506 -26.236593 -147.64253 7038307
111.88277 -25.999722 -147.08649 9866629
112.147 -25.043633 -147.31415 8748404
112.80518 -24.705816 -146.83864 7367008
113.01116 -23.778185 -147.10905 6906713
113.70089 -23.542688 -146.55037 5920074
113.20792 -22.892496 -147.3672 9077114
113.79494 -22.835651 -146.81839 7367011
114.04726 -21.991369 -147.00069 7696236
114.73881 -21.756382 -146.44 10853012
114.24591 -21.101994 -147.25868 7038307
114.84667 -20.868605 -146.78653 8485237
115.13866 -19.975302 -146.95482 10195595
115.67144 -19.743525 -146.54869 9800574
115.33945 -19.081697 -147.21297 12432037
116.03407 -18.84684 -146.64915 8353642
116.11215 -18.027163 -146.99033 7827300
116.71999 -17.942949 -146.43492 7695712
116.3885 -17.277075 -147.10072 6511954
117.0102 -17.088291 -146.58507 8353389
117.45881 -16.812912 -146.28397 9340286
117.17131 -16.219465 -146.8846 9010806
117.8756 -15.916058 -146.44569 8287854
118.54426 -15.468873 -146.1996 7564643
118.42988 -15.033974 -146.77582 10261132
119.05173 -14.811234 -146.46776 8682614
119.67979 -14.589442 -146.16553 9011323
120.93465 -14.205734 -146.62012 7038307
121.59505 -14.199552 -145.99152 7498597
-66.827728 -50.93763 -165.52605 8681843
-66.006615 -50.915512 -165.77777 10392458
-64.957199 -50.871338 -166.03366 9866371
-62.053238 -50.769836 -165.01749 6906456
-61.161556 -50.686779 -165.0484 10261132
-68.722092 -49.74073 -165.61226 8090987
-67.935074 -50.013546 -165.77281 8945527
-66.972267 -50.191826 -166.01984 12103075
-65.926369 -50.53051 -166.1517 10260872
-60.716286 -50.645306 -165.06204 10261132
-60.049126 -50.583252 -165.08063 10260875
-59.160751 -50.500565 -165.10199 10260875
-58.05246 -50.397621 -165.12279 9143419
-56.946281 -50.294956 -165.1378 9209467
-56.063072 -50.213158 -165.14502 11050130
-54.961288 -50.111095 -165.14835 9734784
-69.017593 -49.097404 -165.75842 8617331
-68.005646 -49.083256 -166.12814 8945527
-67.165985 -49.288342 -166.34988 10655630
-47.067986 -49.404167 -163.42317 11182487
-46.209286 -49.323589 -163.38522 8157554
-45.138046 -49.223221 -163.33315 9932675
-44.28297 -49.143188 -163.28722 8222314
-43.216702 -49.043488 -163.22443 9011320
-42.152924 -48.944118 -163.15625 9734531
-41.092148 -48.845184 -163.08209 9340029
-40.033817 -48.746544 -163.00264 10787728
-39.189281 -48.667946 -162.93489 7565675
-69.896431 -48.174385 -165.80455 9866630
-68.93943 -48.232109 -166.12624 9208956
-68.12841 -48.220951 -166.42249 8353393
-38.136196 -48.57 -162.84509 9341567
-37.085693 -48.472397 -162.75 9736067
-36.247467 -48.394592 -162.66994 10262667
-35.202366 -48.297718 -162.56468 7695204
-34.15992 -48.201221 -162.45441 8090479
-33.120518 -48.105064 -162.33839 7893610
-32.083904 -48.009239 -162.21732 9143417
-31.256725 -47.932976 -162.11656 9932676
-30.225595 -47.83783 -161.98552 10525071
-29.197237 -47.743176 -161.8497 8814710
-28.376692 -47.667656 -161.73711 10063744
-70.899712 -46.891987 -165.9476 9077369
-69.966774 -47.111782 -166.19691 9866374
-69.048279 -47.476959 -166.38374 9340030
-27.762514 -47.61113 -161.6506 10984849
-27.149649 -47.554859 -161.56206 11708315
-26.333948 -47.479988 -161.44124 9537918
-25.31719 -47.386745 -161.28532 9999238
-19.058706 -46.788269 -161.61751 11709858
-18.256105 -46.715309 -161.46005 8551282
-17.455128 -46.642551 -161.30005 8485488
-71.885773 -46.067665 -166.03955 9602941
-71.009445 -46.081062 -166.3457 8813942
-70.245949 -46.309002 -166.4357 9537409
-17.055555 -46.606319 -161.21875 8485488
-16.258081 -46.533993 -161.05351 8484970
-15.26387 -46.443932 -160.84315 8617080
-14.273108 -46.354275 -160.62779 7564651
-13.285478 -46.265022 -160.40802 10787989
-12.301205 -46.175571 -160.18105 14077894
-11.513711 -46.096027 -159.96797 8288627
-8.2742453 -45.748272 -160.46947 8881274
-7.2963319 -45.641964 -160.14966 7565667
-74.00811 -44.773018 -166.34698 10261132
-72.951569 -45.011902 -166.47858 9011575
-71.943192 -45.317699 -166.53041 8945782
-71.08297 -45.514881 -166.73349 8813686
-6.3223243 -45.536125 -159.82581 8618099
-5.3528285 -45.43066 -159.49725 8353645
-4.5799079 -45.346569 -159.2316 8813939
-2.1129339 -45.082455 -159.86536 9143163
-1.3444831 -44.998882 -159.58247 8683126
-0.38806793 -44.894756 -159.22507 8617590
0.56427598 -44.791088 -158.8638 10000007
1.1336195 -44.729111 -158.64507 10263179
-85.754951 -43.971306 -167.35283 7629921
-84.942406 -44.012669 -167.58098 8418924
-84.071892 -43.97739 -167.85742 8945011
-82.929359 -44.331581 -167.42067 11182486
-81.902855 -44.409523 -167.53658 10195336
-78.810493 -44.404472 -166.77365 9144702
-78.011139 -44.403915 -167.15318 9405814
-76.000458 -44.532372 -166.49425 9734526
-74.979065 -44.517742 -166.89908 8813680
3.0436308 -44.525398 -159.41122 9011576
3.6113141 -44.463554 -159.18184 8090732
4.5538621 -44.360886 -158.79642 8946296
5.491631 -44.253613 -158.38922 8092019
7.7854409 -43.957981 -158.7585 10261901
8.7150021 -43.852463 -158.33458 11906980
9.6407089 -43.750103 -157.91701 11578016
-86.673119 -42.957516 -167.48431 9537408
-85.97628 -43.154194 -167.6151 7564386
-84.963921 -43.1581 -167.91849 8682868
11.766041 -43.515617 -158.46153 11906725
12.50151 -43.434299 -158.11241 10392973
13.599438 -43.312912 -157.58487 8683898
15.737205 -43.077007 -158.07498 8681835
16.644623 -42.976654 -157.61638 9275004
17.549877 -42.882206 -157.17468 10459534
20.085814 -42.666039 -157.64346 8682867
20.627291 -42.614792 -157.3853 7827302
21.167425 -42.563747 -157.12573 9209467
-87.715034 -42.097023 -167.51688 8287341
-87.015259 -42.294029 -167.64841 8287341
-85.919792 -42.249374 -167.99638 7696228
21.705795 -42.512753 -156.86461 9209467
22.242733 -42.461853 -156.6022 9209467
24.612928 -42.260403 -157.08311 9736070
25.502344 -42.175858 -156.62582 9735299
26.210655 -42.108448 -156.25719 9537659
28.419733 -41.921604 -156.77405 11182485
29.474878 -41.820839 -156.19756 8682867
30.174913 -41.753922 -155.81046 11905951
31.851854 -41.582443 -156.44928 10985620
32.19413 -41.540398 -156.21698 14408395
-88.845787 -40.784252 -167.70479 9735043
-87.946205 -41.144012 -167.8309 8156011
-86.900436 -41.309174 -168.07947 7958633
-86.041306 -41.576557 -168.23056 8090730
32.705696 -41.477421 -155.86772 14408395
33.215588 -41.414646 -155.51775 9736836
34.905754 -41.238407 -156.11572 6510930
35.581161 -41.154964 -155.63638 9011835
36.253708 -41.071888 -155.15582 8092019
37.790962 -40.914165 -155.84601 12432045
38.459435 -40.831249 -155.35313 8354675
38.958691 -40.769318 -154.98259 8682867
40.678246 -40.588764 -155.52432 8682867
41.009216 -40.5476 -155.27133 7038307
-89.677681 -39.909527 -167.80627 9932678
-88.875084 -40.149448 -167.95151 9537665
-87.867783 -40.063423 -168.28955 9077369
41.50396 -40.485962 -154.8912 12499118
43.566349 -40.262341 -155.15071 9538433
44.219761 -40.180656 -154.63113 9210491
46.4547 -39.934975 -154.72559 9999243
47.100525 -39.853905 -154.1931 13551549
48.702011 -39.687439 -154.79347 12235946
49.502457 -39.58659 -154.11292 11248279
-90.512215 -39.0322 -167.90549 10854036
-89.929512 -39.282356 -167.98289 10064520
-88.918648 -39.196003 -168.32219 9997959
-88.213158 -39.395596 -168.45441 9735043
51.646816 -39.395344 -154.42719 9933193
52.282539 -39.317303 -153.8777 10854036
54.643948 -39.136749 -154.14619 9867911
55.2719 -39.058594 -153.58067 9670023
57.647644 -38.874763 -153.80693 7564651
58.112522 -38.816036 -153.37083 8419702
60.656635 -38.609596 -153.40898 10064265
61.267262 -38.531372 -152.81163 11051416
-90.844124 -38.353802 -168.0347 10854036
-89.974777 -38.326431 -168.35411 9471871
-89.266335 -38.52652 -168.48697 10261132
63.519016 -38.36095 -153.10562 10063747
63.971344 -38.302162 -152.64639 12433061
66.389282 -38.109226 -152.75162 8682867
66.835396 -38.050426 -152.28104 8090987
68.825386 -37.913425 -152.82834 8485747
69.41333 -37.834923 -152.18622 9670531
71.716164 -37.655758 -152.38388 9538694
72.150856 -37.596848 -151.89131 10261903
-91.858879 -37.135807 -168.06914 9801091
-90.961052 -37.21452 -168.45248 9341056
-90.102364 -37.646549 -168.58931 8550513
74.469658 -37.414822 -152.05621 11577759
74.898407 -37.355907 -151.5528 10985367
77.23304 -37.171009 -151.68492 10064520
79.588486 -36.98336 -151.79462 8682867
80.006241 -36.924377 -151.26971 9735299
82.377167 -36.733921 -151.3461 8091248
82.788422 -36.674881 -150.81064 6511962
85.039589 -36.501225 -151.03551 11182231
-92.719337 -36.09605 -168.10127 10590091
-91.886467 -36.085075 -168.49876 8353906
85.444649 -36.442276 -150.48952 11182231
87.581673 -36.285477 -150.87331 10260617
87.980881 -36.226429 -150.31677 11904668
90.241417 -36.035156 -150.44113 9143418
92.105293 -35.749523 -150.27042 10590608
92.971779 -35.735535 -149.66617 8618104
-93.767624 -34.964901 -168.08327 10590091
-92.889793 -35.182217 -168.40582 9734784
-92.055321 -35.171444 -168.80402 7893614
93.284401 -35.325085 -150.37076 7565675
94.335464 -35.181183 -149.98985 7368295
95.223038 -34.915459 -149.83276 7696744
96.13858 -34.801701 -149.52895 9735812
96.956963 -34.724133 -149.22758 8683381
-93.821907 -34.230927 -168.36688 9011062
-92.906937 -34.341209 -168.75201 10590091
95.373505 -34.112507 -150.17778 7959659
96.118835 -34.066677 -149.89476 10262156
97.160507 -33.889393 -149.54359 7235679
98.13913 -33.838623 -149.16818 6905688
98.850517 -33.522358 -149.0052 9734788
-94.488647 -33.366085 -168.41679 8090730
-93.859978 -33.357548 -168.71684 8090731
-93.188751 -33.578857 -168.94023 8617075
96.339737 -33.292557 -150.10976 7959659
97.172707 -32.82225 -149.95808 8616563
98.176392 -32.856503 -149.53915 6839895
99.181984 -32.891876 -149.11899 8353135
99.830132 -32.700783 -148.93222 9209726
-94.705872 -32.216297 -168.79861 8090730
-94.088188 -32.515831 -168.96376 7564643
97.501198 -32.19162 -150.07321 8616307
98.147202 -31.99901 -149.88792 7563618
99.154495 -32.033283 -149.46754 7300445
100.16382 -32.068642 -149.04593 9603970
101.00897 -31.596983 -148.88988 10985622
-94.880051 -31.294689 -169.10471 10261132
99.180786 -31.247253 -149.76859 6116172
100.16853 -31.119827 -149.44139 10720910
101.17385 -30.782337 -149.23767 8025198
102.04756 -30.784245 -148.88435 11182490
102.77586 -30.671379 -148.6725 9537924
101.33526 -30.214516 -149.6313 10983825
102.1888 -30.139601 -149.34721 7630443
103.14339 -30.027412 -149.05299 7038307
104.1498 -29.814638 -148.82722 7038048
105.08456 -29.500067 -148.56906 9866628
106.14172 -29.184027 -148.92694 10392715
106.80817 -29.170277 -148.35486 11379609
109.06998 -28.698616 -148.47824 7761767
109.75647 -28.459749 -147.92442 7038307
109.35067 -27.891041 -148.61382 8485745
109.92344 -27.692175 -148.15157 7169893
110.09081 -26.923199 -148.37909 7235685
110.77883 -26.685274 -147.82341 7038307
110.37329 -26.11307 -148.51421 7301221
110.94736 -25.914898 -148.05038 8617079
111.13705 -25.048416 -148.3056 8419700
111.7638 -24.614161 -147.91029 9734788
111.35828 -24.037926 -148.6032 8617331
112.04911 -23.800797 -148.04431 8617075
112.21984 -23.025364 -148.27173 8748661
112.79616 -22.828173 -147.80515 8419440
112.39094 -22.248337 -148.49957 6511954
113.08342 -22.01182 -147.93877 8090733
113.22478 -21.011972 -148.30965 6445910
113.89622 -20.823883 -147.74478 7433064
114.14787 -19.816063 -148.01111 7301221
114.75581 -19.537659 -147.55486 8090736
114.42171 -18.875063 -148.22148 8287854
115.01277 -18.819878 -147.668 8551024
115.10652 -17.969387 -148.00946 7959142
115.71554 -17.884615 -147.45323 8485229
115.46944 -17.067446 -148.11211 8485229
116.06166 -17.013176 -147.55687 8090471
116.0564 -16.205963 -147.98877 9142904
116.85003 -15.783189 -147.56622 8747634
117.57042 -15.481481 -147.14539 9010806
117.29112 -15.048553 -147.88187 9734527
117.99633 -14.780107 -147.53481 8089962
118.69228 -14.599653 -147.1013 10458249
120.10783 -14.213822 -147.40543 9668995
-63.895271 -50.817799 -166.25156 10524814
-62.816654 -50.751179 -166.42039 10261132
-61.953915 -50.698112 -166.55104 9011320
-65.863136 -49.920269 -166.56912 13221553
-64.874352 -50.166397 -166.73824 10918801
-63.993576 -50.365688 -166.89696 9274235
-63.27705 -50.484116 -167.02434 8814713
-60.868523 -50.625183 -166.68597 8287597
-53.861656 -50.009369 -165.14595 10786958
-52.983826 -49.928265 -165.1394 8288365
-52.107521 -49.847347 -165.129 8288365
-51.013298 -49.745373 -165.10637 10261644
-50.138458 -49.663052 -165.08144 8089963
-66.80674 -48.960552 -166.60779 10655630
-65.895622 -49.101803 -166.88022 12629416
-65.144066 -49.267143 -167.08574 13550517
-49.701889 -49.622059 -165.06718 8089963
-49.047657 -49.560574 -165.04417 12432293
-47.959438 -49.458389 -165.00095 8157554
-46.873749 -49.356602 -164.95222 7565675
-46.007259 -49.275452 -164.90887 9801349
-45.142448 -49.194508 -164.8618 8682867
-44.064018 -49.093708 -164.79755 8485232
-42.988213 -48.993259 -164.72792 7563619
-42.129562 -48.913105 -164.66791 7563619
-41.058983 -48.813354 -164.58757 11511195
-39.991074 -48.713932 -164.50204 11905951
-39.351624 -48.654472 -164.44798 9735297
-67.722916 -48.215813 -166.57047 7827307
-66.912239 -48.206299 -166.86594 8353393
-65.95665 -48.268143 -167.18553 9669249
-38.92598 -48.614864 -164.41072 9735297
-38.076214 -48.535954 -164.33333 10722707
-37.016235 -48.437576 -164.2321 8617075
-35.959446 -48.339607 -164.12506 8616307
-34.905304 -48.24202 -164.01282 9142651
-34.064316 -48.164249 -163.91896 9668995
-33.015739 -48.067345 -163.79666 8946296
-31.970003 -47.970825 -163.66936 8880246
-31.135588 -47.893944 -163.56354 11906208
-30.095568 -47.798096 -163.42624 9209468
-29.058306 -47.702652 -163.28403 10064777
-28.437422 -47.645622 -163.19626 10261899
-68.865547 -46.861481 -166.6918 8089963
-67.8759 -47.137222 -166.93951 7498600
-66.946732 -47.234554 -167.23567 7827564
-27.817713 -47.588642 -163.10622 9670019
-26.993151 -47.512959 -162.98358 8090987
-26.170527 -47.437565 -162.85767 10590862
-25.145247 -47.343586 -162.69543 9473152
-24.122793 -47.250042 -162.52844 10262667
-23.103788 -47.156902 -162.35603 10722961
-22.087666 -47.064171 -162.17902 10985876
-21.277124 -46.990219 -162.03354 14736846
-20.266972 -46.898186 -161.84718 11709858
-19.460875 -46.824799 -161.69496 11709858
-69.851463 -46.038754 -166.79936 9011065
-68.882622 -46.093143 -167.10544 10261132
-67.808105 -46.279922 -167.34164 8616823
-15.006974 -46.393574 -162.20926 8814203
-14.207709 -46.321342 -162.03215 10261133
-13.211676 -46.231373 -161.80626 10064265
-12.218888 -46.141785 -161.57599 8617331
-11.229634 -46.05267 -161.34087 7695973
-10.24292 -45.961216 -161.09163 9010808
-9.256752 -45.855087 -160.7845 7762797
-71.967339 -44.743999 -167.12895 8682867
-70.903603 -44.978813 -167.23306 9800320
-69.890572 -45.281338 -167.26126 9537409
-69.03228 -45.480732 -167.46269 10261132
-5.996758 -45.504986 -161.23901 8813686
-5.2144523 -45.419857 -160.96971 8813686
-4.2406058 -45.313938 -160.6292 9011320
-3.2707593 -45.208424 -160.28461 8879991
-2.6909845 -45.14539 -160.07582 8090987
-0.20411846 -44.879017 -160.68327 8814713
0.75628018 -44.774502 -160.31384 8748919
1.7125123 -44.670334 -159.94061 9603970
2.2841074 -44.608089 -159.71472 9011576
-83.45903 -43.728455 -168.14221 9208443
-82.827713 -44.003391 -168.22171 9208443
-81.862167 -44.116234 -168.46716 12235176
-80.977272 -44.329655 -168.19006 13353658
-79.892067 -44.408154 -168.51633 10591889
-76.808937 -44.403065 -167.71591 9537402
-76.005302 -44.402496 -168.08653 9537406
-73.95697 -44.503883 -167.30101 9077368
-72.934235 -44.490929 -167.69977 9077368
2.664263 -44.566692 -159.56339 9011576
4.9723096 -44.319637 -160.15994 8486003
5.727469 -44.227417 -159.8062 9407102
6.6662183 -44.103992 -159.33002 10393741
7.2267861 -44.030231 -159.04276 8617336
8.9803982 -43.823647 -159.74989 9208443
9.7273617 -43.741077 -159.40944 9998215
10.656688 -43.638317 -158.98059 9800837
-84.488228 -42.868946 -168.17822 10261132
-83.794846 -43.067055 -168.30731 9736323
-82.766403 -43.102791 -168.60272 9538688
-81.977859 -43.447685 -168.70143 12170152
11.397145 -43.556427 -158.63518 11906725
12.985884 -43.381275 -159.43025 9933193
13.723489 -43.299706 -159.07162 9275777
14.641768 -43.198147 -158.62071 9933193
15.190482 -43.137478 -158.34851 8092019
17.17132 -42.941124 -158.9959 9405816
17.721056 -42.889271 -158.7455 8682867
18.633858 -42.803165 -158.32472 9735297
19.542643 -42.717335 -157.90025 8682867
-84.826225 -42.206135 -168.34317 9669251
-83.829811 -42.122967 -168.67685 10000008
-83.041512 -42.363678 -168.81743 9736323
21.918703 -42.51606 -158.43219 9208955
22.6411 -42.447598 -158.07588 9209211
23.539927 -42.362316 -157.62688 10459535
25.932737 -42.158756 -158.09872 9734529
26.646736 -42.090763 -157.72313 9734529
27.535648 -42.006001 -157.25063 9800834
29.943262 -41.800278 -157.66209 10261641
30.646418 -41.729378 -157.25526 8682867
31.336756 -41.645729 -156.79688 9801347
-85.803009 -41.265797 -168.42751 8748661
-84.862831 -41.259937 -168.7131 8945783
-84.024925 -41.348885 -168.9297 9736323
33.543449 -41.406364 -157.06938 11117209
34.396545 -41.301243 -156.47411 7497825
35.934322 -41.143955 -157.19382 9208958
36.612331 -41.060101 -156.70493 10655888
37.287399 -40.976513 -156.21472 12432045
39.009987 -40.796093 -156.784 11905951
39.679672 -40.712925 -156.28107 11905951
40.346432 -40.630032 -155.77698 8682867
-86.825661 -40.098179 -168.58949 8748144
-85.780373 -40.265911 -168.83685 8682094
-84.767662 -40.473156 -169.0585 8748658
41.751183 -40.488918 -156.57268 9735046
42.414108 -40.406212 -156.05667 8946040
43.074081 -40.323841 -155.53958 9538433
44.661137 -40.159794 -156.18388 12433064
45.479771 -40.057224 -155.52209 8815736
47.571304 -39.829735 -155.74316 12630704
48.218979 -39.748249 -155.20099 12235946
50.040035 -39.591526 -155.79312 11181975
50.363251 -39.552151 -155.52072 11181975
-87.833504 -39.039902 -168.7119 9603457
-86.833176 -39.160927 -168.96452 9275001
-86.007233 -39.311611 -169.15266 9011571
50.685638 -39.512875 -155.24799 11181975
51.167171 -39.454109 -154.83806 9011320
53.535576 -39.274113 -155.13199 9275777
54.170609 -39.195515 -154.56937 9933193
56.55415 -39.01231 -154.82095 8814715
57.180412 -38.933594 -154.24197 7564651
59.578239 -38.747204 -154.45091 9735300
60.196175 -38.668484 -153.85612 12038823
62.302025 -38.518387 -154.32716 8418927
-88.784676 -38.234352 -168.74969 9472127
-87.757179 -38.24091 -169.05656 9997959
-86.932655 -38.286129 -169.28671 8879728
62.76046 -38.459236 -153.86978 8813683
63.064632 -38.419846 -153.56439 8813683
65.339867 -38.24696 -153.84747 11248275
65.941315 -38.168121 -153.22189 9340539
67.935318 -38.031742 -153.78941 7762027
68.381332 -37.972527 -153.30917 8485747
70.692368 -37.793839 -153.5313 10458768
71.278908 -37.714813 -152.87596 10985369
73.605484 -37.533154 -153.062 9209467
-90.49572 -36.746983 -168.83304 8814713
-89.742302 -37.175518 -168.88739 9143931
-88.810608 -37.368786 -169.0903 9143675
-87.983025 -37.414116 -169.32138 9669507
74.038887 -37.473934 -152.55934 9209467
76.381554 -37.289398 -152.71246 10064520
78.745491 -37.102028 -152.84314 8682867
79.167999 -37.042648 -152.31898 9208187
81.547729 -36.85239 -152.41631 8354161
81.963806 -36.793056 -151.88138 8091248
84.359169 -36.599998 -151.94518 6840928
-90.83902 -36.069725 -168.98239 7893614
-89.791412 -36.110016 -169.30157 8222830
-88.97834 -36.461437 -169.40503 7236190
86.537376 -36.380444 -151.98883 7564651
87.179832 -36.344669 -151.4296 9405823
88.359245 -36.081547 -151.7944 10260617
89.271873 -35.931561 -151.4399 11313559
90.296593 -35.751266 -151.35298 10525328
91.235909 -35.763275 -150.86928 13024949
-91.638184 -35.166359 -169.00288 8354163
-90.78817 -35.150627 -169.37047 7564650
-89.858269 -35.348827 -169.5878 8617843
90.256195 -35.356789 -151.6992 12433837
91.304176 -35.087421 -151.39247 12169896
92.241646 -34.934509 -151.07381 9999242
93.1604 -34.816559 -150.77756 8749433
94.003136 -34.634201 -150.52631 8354676
-92.684921 -34.032253 -168.98685 10590091
-91.806587 -34.251225 -169.3089 8485235
-90.967239 -34.240379 -169.70001 7037790
92.410385 -33.990795 -151.42271 11445401
93.331268 -33.976269 -151.05641 10327692
94.237411 -34.047226 -150.66248 8354675
94.963829 -33.815449 -150.46004 6841693
-92.737503 -33.297291 -169.27168 8945784
-91.821724 -33.409161 -169.65649 8682099
93.44149 -33.059059 -151.37238 9933191
94.331787 -32.944191 -151.05789 7828590
95.269211 -33.026768 -150.64671 6249554
96.192146 -32.683193 -150.40884 6644055
-94.372421 -31.750286 -169.15218 10853012
-93.631042 -32.110168 -169.35028 8617075
-92.816116 -32.192657 -169.69986 8879991
-92.10202 -32.645504 -169.84602 9537408
94.496452 -32.097187 -151.32417 7565675
95.3377 -31.909163 -151.0583 6117711
96.25071 -31.980207 -150.66153 5985611
97.163345 -31.859587 -150.34019 8353135
-94.708206 -30.999592 -169.43068 9537664
-93.909599 -31.063187 -169.7524 10853012
-93.196991 -31.274027 -169.90724 9735043
95.663109 -31.278061 -151.17488 5393730
96.318832 -31.087362 -151.00958 5392706
97.261917 -30.969618 -150.72144 8023912
98.26252 -30.887968 -150.36143 7892583
99.223038 -30.692152 -150.09383 6708565
99.950699 -30.579172 -149.89221 8418669
-95.38279 -29.9828 -169.98972 7039331
-94.833733 -30.306274 -169.9687 7301478
98.311783 -30.122118 -150.93126 7892325
99.306007 -29.988144 -150.63879 7366239
100.30888 -29.93672 -150.27505 8418669
101.26595 -29.817226 -150.10933 7761508
102.20738 -29.564163 -150.145 5920074
103.29118 -29.501371 -149.80316 7038307
103.88357 -29.515913 -149.51126 7038307
104.44208 -29.212425 -150.31427 5919050
105.13959 -29.205389 -149.78391 5919050
107.46886 -28.750832 -150.02733 8353391
108.10999 -28.729502 -149.40718 8617587
108.29835 -27.851177 -149.66983 8024938
108.93967 -27.830976 -149.049 8814966
108.48717 -26.971071 -149.93286 7037274
109.12928 -26.951488 -149.31093 7432548
109.2456 -26.116081 -149.62244 6840154
109.87064 -25.981127 -149.07622 6840154
109.51001 -25.186752 -149.83621 7169634
110.20119 -24.947813 -149.27792 7367015
110.94022 -24.488611 -148.78474 7564651
110.31795 -23.917871 -149.68826 7893613
111.03047 -23.781988 -149.0564 7762021
110.58578 -23.1756 -149.80324 8617331
111.2787 -22.937477 -149.24275 8222573
111.97146 -22.700026 -148.68216 8617331
111.34914 -22.125051 -149.58783 7893607
112.06309 -21.990358 -148.95392 8222572
111.6187 -21.380114 -149.70241 8617331
112.25598 -20.985151 -149.27669 7761509
112.89551 -20.686012 -148.79988 6708566
112.60754 -19.802298 -149.53392 10853012
113.25407 -19.789129 -148.90448 8089962
113.29008 -18.896503 -149.32428 8747892
113.93704 -18.884138 -148.69389 9208187
113.65018 -17.995293 -149.42944 8550512
114.22317 -18.029646 -148.84799 9931392
114.6716 -17.753206 -148.54779 7958629
114.3356 -17.086468 -149.21834 8287338
114.98375 -17.075474 -148.586 7564128
114.64793 -16.407259 -149.25726 6511954
115.2767 -16.041319 -148.8931 8221544
