# .PCD v0.7 - Point Cloud Data file format
VERSION 0.7
FIELDS x y z rgb
SIZE 4 4 4 4
TYPE F F F U
COUNT 1 1 1 1
WIDTH 1170
HEIGHT 1
VIEWPOINT 0 0 0 1 0 0 0
POINTS 1170
DATA ascii
-88.462776 -51.223114 -157.53735 9011320
-87.748009 -51.128613 -157.94788 9471871
-86.940544 -50.976315 -158.4305 8419184
-181.94917 -50.107925 -41.270569 9405564
-181.80888 -50.18256 -42.299667 9208187
-87.866997 -50.112057 -158.30766 9340284
-87.173454 -50.033432 -158.70056 9866370
-86.291405 -49.981689 -159.17183 8484720
-182.36543 -49.158501 -40.656837 9865857
-182.32068 -49.030624 -41.493271 9865600
-182.07812 -49.500282 -42.130871 9734531
-87.251915 -49.233971 -158.99129 10458504
-86.35923 -49.152454 -159.47647 9142649
-85.589676 -48.910107 -159.88432 11379095
-183.02063 -47.631172 -39.800682 8879473
-182.76314 -48.102406 -40.56926 8878962
-182.67097 -48.122765 -41.341286 9734014
-86.63427 -48.356377 -159.67613 9734529
-85.706108 -48.257244 -160.0992 10260872
-183.29579 -46.90604 -39.721573 9340542
-183.13832 -47.050255 -40.674332 7695205
-86.634087 -47.628128 -159.97832 11379095
-85.943459 -47.316002 -160.38454 10524044
-85.09417 -47.011322 -160.80362 7760998
-183.7897 -45.975601 -39.117416 9274749
-183.64221 -46.064716 -39.935265 9537665
-183.42633 -46.293682 -40.583557 8089963
-85.263222 -46.164394 -161.11948 7563876
-84.511116 -45.936653 -161.56963 9735046
-185.48239 -44.617519 -36.832687 8089963
-185.16089 -44.740841 -37.543419 9274749
-184.63632 -45.079998 -38.242409 10064777
-184.31879 -45.277306 -39.074036 9537665
-84.72921 -45.336582 -161.98192 9143167
-83.869576 -45.166622 -162.42146 8419701
-83.528999 -44.779343 -163.16357 8024683
-191.94675 -44.263577 -28.793005 7367263
-191.77444 -44.265404 -29.95043 9734788
-189.0654 -44.267391 -32.815224 8354164
-188.90927 -44.26881 -33.727448 7564651
-186.63011 -44.312035 -35.190002 9866369
-186.53345 -44.319912 -35.870941 8945270
-186.40311 -44.330902 -36.778625 8089963
-83.091713 -44.665005 -163.59702 7761253
-82.542534 -44.56094 -164.13734 8551026
-82.077827 -44.37915 -165.01257 6510930
-81.286263 -44.37896 -165.40823 7037274
-79.579384 -44.382469 -168.50786 13353658
-78.983231 -44.263351 -168.99162 10328717
-78.25872 -44.1926 -169.37996 9998984
-77.70504 -43.981216 -169.78328 10261132
-78.379723 -43.407585 -169.81544 9011571
-77.475548 -43.258568 -170.14153 9602942
-78.357857 -42.660736 -170.12228 7563619
-77.780281 -42.19408 -170.48003 7760741
-76.970718 -42.07933 -170.76448 8287084
-77.708839 -41.295502 -170.86249 8813171
-76.955879 -41.093395 -171.16544 8616047
-76.260582 -40.804176 -171.48648 9208435
-77.153282 -40.23188 -171.45392 8352877
-76.244423 -40.086239 -171.78001 10063232
-77.128525 -39.482418 -171.76263 8813171
-76.51078 -39.240452 -172.04179 10589580
-75.72419 -39.144222 -172.31209 9405564
-76.435875 -38.338963 -172.4265 9668995
-75.643692 -38.363121 -172.64995 9142651
-75.162712 -38.081032 -172.905 9142651
-75.831779 -37.310051 -173.01817 9142651
-75.085037 -37.178917 -173.29074 10261387
-74.499565 -36.714493 -173.64931 9142907
-75.258186 -36.054924 -173.68501 8616307
-74.38131 -36.03373 -173.94652 8616307
-75.174377 -35.147312 -174.05998 8222064
-74.515556 -35.13184 -174.25621 8024685
-73.857216 -35.116829 -174.45219 8748664
-74.565514 -34.30209 -174.56245 8419958
-73.770782 -34.208916 -174.82799 8222578
-74.530876 -33.544849 -174.86501 9341057
-73.903877 -33.304256 -175.13911 9472642
-73.108101 -33.212105 -175.40459 8748921
-73.952614 -32.472054 -175.44667 9867399
-73.292595 -32.090389 -175.78485 9406850
-72.560188 -31.913851 -176.06451 9143678
-73.32061 -31.245462 -176.10323 8814971
-72.646004 -30.973957 -176.50731 9603971
-71.903084 -30.789024 -176.869 11379607
-72.694077 -30.371296 -176.98109 8617590
-72.021553 -30.101295 -177.39769 11050642
-71.277458 -29.91699 -177.76408 11379607
-70.771767 -29.576471 -178.97404 11379607
-69.890617 -29.566755 -179.25838 13023917
-68.91468 -29.393927 -181.87166 8682867
-68.260544 -29.393637 -182.12093 9537662
-67.386955 -29.393242 -182.4498 10326666
-64.545143 -29.398111 -187.05232 8815220
-63.647835 -29.397657 -187.36317 9867141
-167.65555 -64.59623 -60.14016 6249295
-169.2861 -63.921822 -58.200459 9340798
-168.90248 -64.093422 -59.071911 8354415
-168.59059 -64.149628 -60.013615 7630947
-167.9025 -64.422806 -60.759678 8354671
-167.01773 -64.519409 -61.279026 7367008
-166.53169 -64.44651 -62.014244 11906725
-165.92024 -64.355621 -62.928722 8618105
-165.30489 -64.265022 -63.838737 10722193
-164.80951 -64.192741 -64.563103 9735555
-164.18648 -64.102623 -65.464012 9933193
-163.55954 -64.012779 -66.360374 9472642
-163.05507 -63.941124 -67.07383 11182746
-162.54802 -63.869701 -67.784111 10590608
-161.9104 -63.780678 -68.667496 10129541
-169.91266 -62.806843 -57.500923 7958889
-169.65125 -62.993187 -58.268169 7760998
-169.33009 -63.222088 -59.205147 9011833
-169.02376 -63.537754 -59.937225 9012600
-170.43283 -61.902832 -56.76273 9340539
-170.23741 -62.050503 -57.336445 8156268
-170.01141 -61.990257 -58.356926 8222061
-149.83084 -62.200245 -83.504471 8683379
-149.20143 -62.106388 -84.099701 7959912
-148.41241 -61.989426 -84.838272 7235934
-147.62128 -61.872944 -85.571487 6840919
-146.99203 -61.782417 -86.156807 7301214
-146.26083 -61.693634 -86.916847 7827299
-145.68138 -61.625847 -87.52597 5920074
-171.09332 -60.802399 -56.067257 8090987
-170.82053 -61.02549 -56.662701 10327433
-170.54921 -61.090973 -57.623825 9011320
-145.39073 -61.592155 -87.829117 5920074
-144.95383 -61.541512 -88.282104 8419693
-144.22296 -61.457363 -89.032959 7696229
-142.95724 -61.183395 -92.097473 8814457
-142.35666 -61.116455 -92.684517 8946043
-141.60358 -61.032936 -93.414108 9209214
-140.84738 -60.949715 -94.138138 8090991
-140.08847 -60.866776 -94.857147 6446938
-139.32648 -60.784092 -95.570511 8618105
-138.56192 -60.701656 -96.27887 7828590
-137.94809 -60.63591 -96.84166 7235421
-172.69196 -59.641605 -54.292122 9077882
-172.09254 -59.953529 -55.170189 8814454
-171.72861 -60.104687 -55.998627 8222573
-171.27222 -60.32959 -56.925472 9537920
-136.66818 -60.378555 -99.669746 7431772
-135.85164 -60.28302 -100.33381 7300186
-134.97795 -60.163605 -100.95135 6905686
-134.1028 -60.044518 -101.56306 5920074
-133.42787 -59.822567 -103.5969 3749937
-132.53886 -59.703754 -104.19283 5132102
-178.05743 -58.859463 -47.429989 8814453
-177.92809 -58.970013 -48.238235 9735043
-177.84378 -59.000008 -48.905937 9406079
-176.075 -59.282696 -49.798565 10260875
-175.89648 -59.283611 -50.435749 11904668
-175.59406 -59.285126 -51.496243 8288627
-173.94458 -59.39661 -52.845028 7762282
-173.64575 -59.404057 -53.899403 8353647
-131.64862 -59.585316 -104.78294 7170917
-131.11389 -59.514488 -105.13405 6315608
-130.80956 -59.310333 -106.7071 7039331
-130.05598 -59.201561 -107.1409 7039331
-129.30792 -59.095989 -107.57545 7894382
-128.39659 -58.865761 -109.71939 8420719
-127.50835 -58.761181 -110.29632 8618098
-126.79669 -58.677738 -110.75342 7563619
-178.52437 -57.780563 -46.787216 9208955
-178.36063 -58.033039 -47.433868 8814197
-178.23138 -58.143116 -48.243286 9735043
-125.86243 -58.459629 -112.90222 7695205
-124.98698 -58.368389 -113.48277 8089963
-124.10959 -58.277393 -114.05688 7563619
-123.35759 -58.103542 -116.12685 9931902
-122.64449 -58.030727 -116.57465 8681835
-121.57294 -57.921803 -117.23964 7695971
-120.89654 -57.738342 -119.13309 7367011
-120.32937 -57.672646 -119.43432 7038307
-178.81023 -57.026047 -46.708408 8682867
-178.68149 -57.134594 -47.518921 8945783
-178.51749 -57.387661 -48.166706 8682867
-119.76197 -57.607037 -119.73305 7038307
-119.19433 -57.541618 -120.02991 7038307
-118.84155 -57.391739 -121.69914 6510930
-118.07572 -57.304516 -122.08586 8681584
-117.30956 -57.217487 -122.46875 9010807
-116.44373 -57.048252 -124.52085 8616304
-115.51205 -56.958374 -125.02426 8090987
-114.76582 -56.886608 -125.42306 9341051
-113.86506 -56.722088 -127.47466 10261384
-113.10835 -56.650223 -127.86139 9735297
-179.27715 -55.948433 -46.061886 9406590
-179.11436 -56.239048 -46.572674 9077625
-179.0304 -56.226357 -47.380535 10854036
-112.72958 -56.614235 -128.05316 8090987
-111.97805 -56.46534 -130.00035 8485229
-111.01878 -56.375443 -130.46605 7301470
-110.03775 -56.206203 -132.49994 9932161
-109.26031 -56.13419 -132.85948 9866881
-108.48243 -56.062328 -133.21567 9339769
-108.24158 -55.962769 -134.88544 8419438
-107.45412 -55.890602 -135.23212 9274747
-106.66273 -55.816708 -135.571 9735812
-105.98353 -55.672543 -137.39685 6445650
-179.63794 -55.037544 -45.824993 8156523
-179.48882 -55.163731 -46.762012 9406590
-105.38091 -55.615944 -137.63991 6445650
-104.77809 -55.559345 -137.88101 6445650
-104.47254 -55.450813 -139.54634 7564130
-103.66006 -55.37529 -139.85863 7103323
-102.84742 -55.299889 -140.16763 6510930
-102.51377 -55.189228 -141.83554 7564651
-101.69251 -55.11364 -142.1346 9538438
-100.71675 -54.944355 -144.02824 7564643
-99.679482 -54.84996 -144.38599 8485745
-98.66906 -54.678493 -146.27145 7564643
-180.08452 -54.020817 -45.160313 9143162
-180.02805 -53.916973 -46.023136 8748659
-97.830818 -54.603096 -146.54472 9735039
-96.78791 -54.429592 -148.42339 11379349
-95.941475 -54.354275 -148.68428 9010806
-95.506966 -54.235329 -150.368 7564898
-94.652473 -54.159882 -150.61833 8222573
-93.550636 -53.98246 -152.49031 9143163
-92.947548 -53.815643 -153.15215 9734788
-92.585899 -53.683971 -153.79839 9143163
-180.65025 -52.72884 -44.331535 9932164
-180.46042 -53.025051 -45.069626 9735297
-180.29697 -53.233814 -45.860363 9735296
-92.311333 -53.496872 -154.17728 9734523
-91.660744 -53.352043 -154.63104 8813421
-90.905388 -53.053947 -155.36034 8945265
-90.07325 -52.875961 -155.90741 9471871
-180.92432 -52.004456 -44.26001 10260871
-180.7644 -52.156895 -45.206863 10261382
-91.177422 -52.372608 -155.65044 9537403
-90.361427 -52.207108 -156.14297 9340797
-89.547791 -52.166477 -156.58247 11183001
-181.32333 -51.12431 -43.570992 9734531
-181.21411 -51.153328 -44.469532 9866885
-181.05127 -51.40107 -45.12392 10853004
-90.477371 -51.306828 -156.45607 9340797
-89.670998 -51.150188 -156.93996 10261899
-89.017723 -51.033054 -157.32791 9669763
-181.80824 -49.97739 -42.992702 8681843
-181.64613 -50.264309 -43.509605 9406079
-181.56407 -50.244686 -44.323303 10196107
-89.979317 -50.106339 -157.21269 9341054
-89.100685 -50.051987 -157.6917 7695973
-88.407143 -49.971794 -158.08524 8089963
-182.40137 -48.598675 -42.205517 8616048
-182.17004 -49.066319 -42.747204 9076857
-182.02289 -49.205376 -43.622593 7630443
-89.799187 -49.4049 -157.59718 9011315
-89.259987 -49.180096 -157.97047 9011315
-88.364029 -49.214561 -158.42166 8813683
-87.754555 -48.94701 -158.84921 8813683
-182.70332 -47.866783 -41.904358 10391686
-182.56259 -47.941006 -42.938499 8024939
-89.186226 -48.523605 -158.28111 9011315
-88.645729 -48.29953 -158.65477 7826791
-87.678711 -48.291084 -159.16066 8353133
-86.943855 -48.067078 -159.63524 11379095
-183.18361 -46.76268 -41.225105 8616048
-182.99467 -47.053986 -41.971123 10851980
-182.83247 -47.25703 -42.769398 9405563
-88.610207 -47.424385 -159.03621 8155755
-87.974007 -47.262657 -159.43378 8221548
-87.121147 -47.069038 -159.95711 10589836
-86.392883 -46.748184 -160.44872 9734788
-183.69226 -45.867382 -40.641815 9537665
-183.47589 -46.096966 -41.290504 8945271
-183.33176 -46.189407 -42.109932 10851980
-88.031151 -46.325256 -159.79314 8089963
-87.288712 -46.218174 -160.26129 8879479
-86.467735 -46.063641 -160.76906 8418927
-85.784813 -45.878361 -161.16515 9734788
-185.18163 -44.644684 -38.865547 8879994
-184.75368 -44.834301 -39.707642 9866631
-184.1768 -45.277271 -40.375633 9537665
-183.91934 -45.467434 -41.38916 8813686
-86.752266 -45.502769 -161.10864 7563618
-85.938591 -45.234482 -161.636 8155756
-85.474464 -44.805756 -162.44835 8353650
-84.524971 -44.699127 -163.01028 8090737
-191.59555 -44.267223 -31.106833 9866374
-191.4472 -44.268665 -32.031113 9406081
-188.82941 -44.269516 -34.183205 9866369
-188.66589 -44.27092 -35.094086 8484461
-186.30402 -44.339432 -37.459473 8089963
-186.20393 -44.34845 -38.140289 10262156
-186.10278 -44.357674 -38.821251 8287859
-84.313393 -44.415462 -164.03723 8617080
-83.288078 -44.393436 -164.46385 7103323
-81.792671 -44.383053 -167.43301 15196110
-80.989449 -44.382851 -167.82718 10195336
-80.352501 -44.231251 -168.56621 12761521
-79.653099 -44.048424 -169.18288 12433068
-80.37899 -43.62656 -169.13884 13353658
-79.699257 -43.218113 -169.50325 10657170
-79.031837 -42.981808 -169.79475 9144443
-79.772728 -42.03516 -169.95744 8090987
-78.950653 -42.157272 -170.1503 8617331
-78.50489 -41.769039 -170.4377 8813171
-79.183678 -41.192417 -170.4698 8748917
-78.274628 -41.043892 -170.79718 8549999
-79.162148 -40.442665 -170.77773 8090987
-78.54493 -40.198616 -171.0576 9734015
-77.758034 -40.09993 -171.32895 8813171
-78.473839 -39.296654 -171.44133 9997444
-77.695305 -39.228939 -171.69777 8352878
-77.94297 -38.245255 -172.02057 8089963
-77.156166 -38.223324 -172.26094 8682100
-77.125603 -37.230782 -172.66924 9405566
-76.431847 -36.987282 -172.97139 9142651
-77.232796 -36.104649 -173.09061 8089963
-76.43602 -36.129593 -173.31416 11379356
-75.950737 -35.845856 -173.56581 8089963
-76.628746 -35.258533 -173.59694 10064010
-75.833763 -35.16317 -173.86342 7762029
-76.597198 -34.501255 -173.89876 8617080
-75.970726 -34.258961 -174.17329 9406850
-75.174637 -34.16465 -174.43964 9604228
-76.022903 -33.426933 -174.47972 8748921
-75.225624 -33.332989 -174.74631 10262156
-74.598122 -33.091991 -175.02072 7564651
-75.337601 -32.288742 -175.11751 7564651
-74.569542 -32.090267 -175.41603 8617336
-75.310234 -31.285141 -175.51329 8682867
-74.7089 -31.055645 -175.85527 10459278
-73.919777 -30.968405 -176.14783 9603973
-74.164467 -30.289032 -176.62584 8814971
-73.298042 -30.09383 -177.03651 8354677
-72.754005 -29.599911 -178.32933 7828331
-71.872925 -29.589235 -178.61687 8090987
-70.437492 -29.394588 -181.28047 12300195
-69.567909 -29.394215 -181.6198 8682867
-66.558517 -29.399099 -186.33716 8813686
-65.888275 -29.398773 -186.5778 8419952
-65.217163 -29.398443 -186.81633 8092011
-168.47073 -63.881622 -61.231094 11709341
-167.98848 -64.097069 -61.936405 10853777
-167.52191 -64.209312 -62.760391 11906467
-166.88918 -64.288933 -63.750648 8618105
-166.33316 -64.223549 -64.6903 8091248
-165.83116 -64.150818 -65.418068 8091248
-161.26898 -63.691807 -69.546165 10459017
-160.75281 -63.620842 -70.245293 9537658
-169.4536 -62.647892 -59.629929 9340798
-169.08127 -63.059231 -60.473736 10788755
-168.82866 -63.143066 -61.359913 13550517
-160.1039 -63.532475 -71.114632 8748143
-159.45146 -63.444378 -71.979469 9274747
-158.92667 -63.37405 -72.667564 11181460
-158.26718 -63.286541 -73.523071 9471869
-157.60422 -63.199249 -74.37394 10062979
-157.07104 -63.129639 -75.050995 10064262
-156.40128 -63.042965 -75.892593 8880503
-155.7281 -62.956524 -76.729614 8682867
-155.1869 -62.887634 -77.395454 16248807
-154.50705 -62.801792 -78.223152 16249319
-153.82401 -62.716251 -79.046181 14407891
-153.27492 -62.648033 -79.700867 10592153
-169.97464 -61.740093 -58.894104 7563619
-169.71992 -61.939331 -59.63155 8616819
-169.43063 -62.05962 -60.632694 12433069
-152.58536 -62.563091 -80.514534 8092019
-151.89261 -62.478424 -81.323563 9537667
-151.33595 -62.410881 -81.967087 11906207
-150.61154 -62.316368 -82.752876 11051156
-149.40756 -61.964096 -85.638512 7893608
-148.7677 -61.870209 -86.227989 8222316
-147.9856 -61.761574 -86.970848 6840919
-147.25108 -61.674011 -87.737663 7103834
-146.81194 -61.622875 -88.197029 7367005
-170.52902 -60.845631 -58.166489 8089963
-170.27005 -61.076397 -58.766308 9209212
-169.99301 -61.104702 -59.818954 9011577
-169.69698 -61.35041 -60.635315 11183002
-146.37135 -61.571781 -88.654259 9209214
-145.78232 -61.503838 -89.261101 9209214
-145.19127 -61.436081 -89.864571 6511954
-144.44948 -61.351601 -90.613922 7893352
-143.70493 -61.267338 -91.358414 9142907
-143.25673 -61.216911 -91.802513 8814457
-142.24066 -60.975002 -94.56601 7564648
-141.78185 -60.924755 -95.001816 5920082
-141.16855 -60.857883 -95.580109 6709597
-140.3992 -60.774578 -96.297928 7565418
-139.62727 -60.691517 -97.010757 7038298
-139.16278 -60.641891 -97.435844 9340283
-172.02954 -59.665916 -56.600307 8419440
-171.60138 -59.860401 -57.377998 8748149
-171.20088 -60.065426 -58.163425 8813942
-170.73492 -60.313625 -59.063236 8879734
-138.69708 -60.592266 -97.858871 7630435
-138.07478 -60.526352 -98.419945 6511954
-137.45076 -60.460583 -98.977684 6511954
-136.76846 -60.267303 -101.25701 6511954
-136.08609 -60.181564 -101.7709 6643540
-135.20149 -60.061474 -102.38594 6972762
-134.31541 -59.941837 -102.99436 6972762
-133.44551 -59.694008 -105.15681 8353647
-177.72379 -59.019096 -49.56459 8089962
-177.46854 -59.014347 -50.416943 7431775
-177.20764 -59.085918 -51.190365 9142135
-175.28566 -59.286633 -52.555096 7564651
-174.97052 -59.288124 -53.611908 6117202
-174.71431 -59.289307 -54.456108 5393738
-173.40417 -59.410805 -54.742001 7893096
-173.09894 -59.42012 -55.794895 8156525
-172.8526 -59.428249 -56.636597 7565675
-132.72552 -59.598484 -105.63071 6510930
-131.80168 -59.469303 -106.19897 6315608
-131.13574 -59.218887 -108.02072 7434088
-130.19136 -59.086109 -108.56631 10591632
-129.28337 -58.970627 -109.13667 15723486
-128.55168 -58.768444 -111.1891 6972506
-127.83268 -58.684399 -111.6486 8354159
-178.21002 -58.01955 -48.852402 9011576
-178.0414 -58.118931 -49.652859 7104092
-177.78023 -58.189556 -50.428001 7037274
-127.29282 -58.621395 -111.99076 9010806
-126.75249 -58.55864 -112.3305 7563619
-126.02153 -58.378109 -114.41201 8616307
-125.31268 -58.304676 -114.87452 8879479
-124.425 -58.21307 -115.44713 8879735
-123.71365 -58.140041 -115.90134 9931902
-123.29974 -58.001011 -117.75407 9931902
-122.75849 -57.946095 -118.0879 8156007
-121.84045 -57.847916 -118.62529 6906712
-178.54636 -57.141144 -48.728645 8419695
-178.35875 -57.218285 -49.741081 8090986
-178.0871 -57.439808 -50.360218 7564642
-120.94537 -57.633083 -120.61501 8420467
-120.18066 -57.545162 -121.01243 6644314
-119.41569 -57.457367 -121.40652 6510930
-118.86185 -57.284058 -123.18472 8681584
-118.30283 -57.228622 -123.49486 10852238
-117.37399 -57.138348 -124.01074 7367008
-116.50759 -56.974812 -126.0909 7037274
-115.7536 -56.90247 -126.491 10196102
-114.80997 -56.812183 -126.98621 11248787
-114.27557 -56.682152 -128.85652 10787726
-178.98926 -56.121067 -48.108723 8748661
-178.88835 -56.155212 -48.914249 6841176
-178.6611 -56.543808 -49.593174 5393730
-113.70182 -56.627815 -129.14597 9735296
-112.93607 -56.555538 -129.52794 11708314
-112.17259 -56.405106 -131.48949 8485229
-111.2028 -56.314575 -131.95232 9471868
-110.42628 -56.242317 -132.31854 9932161
-110.20747 -56.143703 -133.99959 10590091
-109.42142 -56.071186 -134.3566 8551280
-108.635 -55.998901 -134.71028 8419438
-107.58942 -55.824074 -136.73639 8814710
-106.58595 -55.729328 -137.15117 7893608
-179.55769 -54.796223 -47.365414 9406590
-179.36691 -55.123196 -48.009342 9209468
-179.2643 -55.157249 -48.831169 7893608
-105.69081 -55.564625 -139.06932 6445650
-104.87868 -55.488686 -139.38846 7564130
-103.74548 -55.302898 -141.37854 7366751
-102.92439 -55.22702 -141.68437 9209467
-102.58382 -55.114979 -143.3678 8617331
-101.75404 -55.039001 -143.66359 7564643
-100.55523 -54.848991 -145.64169 9011833
-99.926544 -54.792007 -145.8539 10459279
-99.297752 -54.735233 -146.06395 7564643
-180.02553 -53.717102 -46.716148 9406590
-179.86232 -54.0079 -47.229462 9932934
-179.77818 -53.994587 -48.041534 7893608
-98.692757 -54.599972 -147.82245 7039331
-97.846085 -54.524105 -148.09224 11050386
-97.002922 -54.367851 -149.91924 7563619
-96.148018 -54.292061 -150.17714 8287852
-95.601784 -54.112324 -151.71117 8089963
-94.861786 -53.978962 -152.28839 8550514
-94.334908 -53.864571 -152.80072 8419440
-93.598946 -53.737274 -153.38716 9143163
-180.32722 -52.983459 -46.423492 9735296
-180.18352 -53.067291 -47.452663 9012089
-94.383812 -53.386909 -153.4238 8617075
-93.876747 -53.170692 -153.83791 8353903
-93.002754 -53.108311 -154.31702 9011575
-92.210495 -52.928177 -154.84734 9734523
-180.80756 -51.874947 -45.758034 10261382
-180.61705 -52.172585 -46.497986 9603967
-180.45282 -52.382683 -47.290974 9538432
-93.844582 -52.532261 -154.19878 8090987
-93.186638 -52.34375 -154.61862 9274489
-92.281395 -52.238956 -155.13237 9537403
-91.622887 -52.052555 -155.55179 9537403
-181.08199 -51.1492 -45.688049 10129796
-180.92128 -51.303131 -46.637886 9866882
-93.243401 -51.645279 -154.87883 9537403
-92.498421 -51.248699 -155.43031 9405817
-91.594704 -51.178429 -155.92894 9471609
-90.943436 -50.876965 -156.39223 9669505
-181.56265 -50.041084 -45.018887 9340800
-181.4259 -50.159916 -45.867523 9669763
-91.99263 -50.092117 -156.17274 9932164
-91.028427 -50.077065 -156.67986 9801093
-90.490372 -49.850914 -157.05315 9341054
-182.07584 -48.884293 -44.215611 9538435
-181.93439 -49.043835 -44.971397 9801350
-181.80319 -49.160637 -45.776299 9538435
-91.885811 -49.2882 -156.56157 10194823
-91.1912 -49.204803 -156.95703 9734784
-90.418655 -49.194176 -157.36275 9011315
-89.879372 -48.968727 -157.73634 9011315
-182.42654 -47.974239 -44.067928 7630697
-182.31718 -48.001854 -44.972359 8288371
-91.276024 -48.403645 -157.24524 9471353
-90.580185 -48.321289 -157.64085 10260867
-89.69825 -48.266895 -158.12157 10984589
-182.86449 -47.001278 -43.3349 9668478
-182.72298 -47.076809 -44.372292 9405563
-90.663857 -47.519661 -157.92995 9011315
-89.912354 -47.281315 -158.4193 10392709
-89.128548 -47.064579 -158.91629 8419181
-183.43294 -45.915936 -42.676079 9405563
-183.18794 -46.194904 -43.411301 9405563
-182.99329 -46.391411 -44.204426 10851980
-90.167633 -46.345425 -158.67561 9011315
-89.32943 -46.172997 -159.24069 8616303
-88.523109 -46.023129 -159.77521 8089963
-87.780502 -45.915771 -160.24501 8089963
-184.87119 -44.674797 -40.898819 10459023
-184.30609 -45.006287 -41.863785 9471613
-183.90302 -45.291668 -42.784126 9011062
-183.65872 -45.517101 -43.428074 9405563
-88.745766 -45.418987 -160.17279 8747636
-87.941521 -45.272186 -160.71698 8221549
-87.385384 -44.902657 -161.53343 8682100
-86.571922 -44.750866 -162.16191 9142651
-191.33325 -44.269753 -32.723961 9340289
-191.21648 -44.270828 -33.416298 9800582
-191.09747 -44.2719 -34.108231 8419702
-188.45625 -44.272678 -36.231735 7563619
-188.23914 -44.274414 -37.367943 10458504
-186.0005 -44.367352 -39.502205 9537667
-185.86249 -44.380634 -40.410309 10853012
-86.370003 -44.465702 -163.18799 8287342
-85.341454 -44.439938 -163.61353 9735046
-83.792259 -44.383526 -166.43047 6839893
-82.993858 -44.383343 -166.83432 7760736
-82.435127 -44.268673 -167.72205 12169380
-81.922081 -43.983002 -168.54124 9208443
-81.171829 -44.104099 -168.71336 11182486
-81.760048 -43.228424 -168.89243 8814197
-80.953407 -43.142689 -169.16438 11446685
-81.212372 -42.160053 -169.48344 10263180
-80.425987 -42.057537 -169.75615 12038567
-81.194008 -41.409798 -169.7906 8682867
-80.438713 -41.203915 -170.09579 8880503
-79.741966 -40.91098 -170.41869 8090987
-80.642944 -40.340523 -170.38295 10064777
-79.730698 -40.1908 -170.71169 10064777
-80.004189 -39.343487 -170.97205 10458510
-79.129272 -39.316406 -171.24043 10984340
-79.935081 -38.43903 -171.35619 10129545
-79.210533 -38.256016 -171.6431 9800580
-78.560898 -37.871971 -171.98882 8089963
-79.281197 -37.064304 -172.10164 9471359
-78.483879 -37.087132 -172.32719 9142394
-78.001289 -36.802822 -172.58356 9931910
-78.684555 -36.218338 -172.61757 9274235
-77.891357 -36.121735 -172.88991 8089963
-78.660713 -35.462856 -172.92845 9932419
-78.035507 -35.219292 -173.20581 8682867
-77.239037 -35.122791 -173.47314 9340545
-78.091209 -34.387333 -173.51123 9340543
-77.168068 -34.242672 -173.83376 9472131
-77.40992 -33.247292 -174.14857 10129803
-76.694466 -33.139111 -174.39699 8617080
-77.386635 -32.243656 -174.54311 9735046
-76.574989 -32.224892 -174.78479 8814201
-75.956825 -31.907211 -175.08609 8288112
-76.827843 -31.171921 -175.16649 9011576
-76.036079 -31.082325 -175.45644 8880246
-75.434219 -30.852474 -175.79878 9538176
-76.01281 -30.431725 -175.97606 8682867
-75.416565 -30.203968 -176.33575 9735555
-74.597878 -29.972679 -176.76247 8814971
-74.295914 -29.619772 -177.82219 10064267
-73.41468 -29.608265 -178.11266 7565675
-72.388077 -29.395391 -180.50183 9537918
-71.522087 -29.395042 -180.85017 9406333
-68.119057 -29.399834 -185.76555 9997701
-67.227921 -29.399418 -186.0937 9866374
-168.28629 -63.619934 -62.659077 12629672
-167.88876 -63.833668 -63.434261 10985879
-167.62918 -63.851425 -64.260841 7959919
-167.0463 -64.027458 -65.195259 8748921
-165.32651 -64.07827 -66.142769 11380380
-164.69196 -63.987873 -67.043953 8946556
-164.0536 -63.89769 -67.940559 8616564
-163.53992 -63.825771 -68.654198 8682099
-162.89409 -63.736168 -69.541504 11445142
-162.24422 -63.646713 -70.424034 11380377
-168.90645 -62.714756 -61.733654 13550517
-168.60643 -62.963402 -62.546623 9867139
-168.3306 -63.001549 -63.599972 10130313
-168.08475 -63.245049 -64.202194 7039331
-161.72144 -63.575306 -71.126411 9012344
-161.19614 -63.504143 -71.825478 9472895
-160.53596 -63.415474 -72.694725 9209467
-159.87227 -63.327049 -73.559288 8682867
-159.3385 -63.2565 -74.247238 9472126
-158.6678 -63.168697 -75.10247 7959402
-157.99371 -63.081131 -75.953026 8288624
-157.45166 -63.01136 -76.6297 9143675
-156.77087 -62.924393 -77.470879 9275518
-156.08662 -62.837727 -78.307396 12959669
-155.53654 -62.768623 -78.972733 14604750
-154.84576 -62.682514 -79.799782 16052455
-154.29094 -62.613884 -80.458229 15723495
-169.17993 -62.00803 -61.740917 12893102
-168.88698 -62.131508 -62.742783 8419951
-168.62564 -62.334789 -63.479019 7565675
-154.01262 -62.579647 -80.786041 10592153
-153.59393 -62.528339 -81.27623 9538178
-152.89352 -62.443176 -82.089134 9866883
-152.18999 -62.358257 -82.897278 10262666
-151.62155 -62.289291 -83.538383 10788753
-151.00061 -62.200012 -84.148422 10065031
-150.20517 -62.081821 -84.896217 9012088
-148.99136 -61.740143 -87.795753 6906200
-148.25369 -61.654091 -88.569176 7892838
-169.72687 -61.065063 -60.953377 12630448
-169.44858 -61.171562 -61.930962 11511710
-169.15485 -61.421997 -62.749016 11708828
-147.51305 -61.568291 -89.33757 9998729
-146.91815 -61.499844 -89.948349 9209214
-146.17155 -61.414471 -90.706841 7169888
-145.42213 -61.329418 -91.460358 8616819
-144.82021 -61.261551 -92.059074 7433313
-144.06499 -61.176926 -92.802658 8683383
-143.30696 -61.092598 -93.541214 9800838
-142.69833 -61.025295 -94.128044 7959663
-141.33104 -60.748196 -97.179375 9603459
-140.70718 -60.681305 -97.752571 11708060
-140.23819 -60.631187 -98.180382 9340283
-171.35117 -59.695332 -58.905037 9932678
-171.03569 -59.833534 -59.565903 11971488
-170.62558 -60.053169 -60.369514 9932934
-170.15616 -60.364113 -61.167778 10262156
-169.78236 -60.545681 -62.052135 9735812
-139.76805 -60.581306 -98.605995 9340283
-139.13979 -60.514839 -99.170593 8814709
-138.3519 -60.432041 -99.871277 10393485
-137.56151 -60.349529 -100.56692 8748144
-137.08603 -60.300068 -100.98161 6511954
-136.31647 -60.078716 -103.22099 8879991
-135.42079 -59.958023 -103.83266 6643540
-134.5238 -59.837749 -104.43845 6840663
-133.98497 -59.765785 -104.7989 7761253
-177.08952 -58.934135 -51.773441 9142135
-176.82805 -59.007526 -52.546486 8024680
-176.57109 -59.006927 -53.397911 6972508
-176.2995 -59.232197 -54.012352 6117202
-174.58452 -59.289902 -54.877693 5393738
-174.3215 -59.291073 -55.71981 7564132
-173.98779 -59.292538 -56.770939 8091761
-172.72841 -59.432545 -57.057426 7565675
-172.47845 -59.441696 -57.898163 9011320
-172.16312 -59.45396 -58.948803 9011320
-133.63644 -59.587849 -106.60956 9011576
-132.89676 -59.487038 -107.07179 5393991
-131.90166 -59.330334 -107.58823 6315608
-131.08484 -59.075336 -109.56993 6183245
-130.345 -58.979649 -110.02324 8091242
-129.44905 -58.873909 -110.60906 6643028
-128.70221 -58.669941 -112.67199 8681843
-177.73616 -57.887165 -50.956017 7037274
-177.42303 -58.154671 -51.654217 9931650
-177.14339 -58.107433 -52.639904 6840919
-176.87164 -58.331909 -53.256027 6511954
-128.33856 -58.62764 -112.90088 8681843
-127.79337 -58.564678 -113.24311 9734527
-126.90583 -58.470097 -113.82818 9010806
-126.1762 -58.295429 -115.93615 8418670
-125.45869 -58.221539 -116.39608 8418670
-124.5604 -58.129436 -116.96622 8681835
-123.84037 -58.055973 -117.4178 9931902
-123.04395 -57.875668 -119.49851 11906725
-122.09142 -57.765606 -120.01041 8485745
-121.32742 -57.677258 -120.41456 8420467
-178.24559 -56.989365 -50.404922 7564642
-177.97372 -57.211647 -51.023884 7958375
-177.71652 -57.208694 -51.878731 8287852
-177.52342 -57.207249 -52.519699 7959144
-120.98872 -57.526539 -122.10948 6644314
-120.21563 -57.438118 -122.50397 8748148
-119.44218 -57.350037 -122.89442 11904669
-119.13974 -57.229332 -124.65747 10854036
-118.57655 -57.174652 -124.96868 7826790
-117.63696 -57.083702 -125.48226 8616304
-116.88433 -57.011074 -125.88909 7037274
-116.75702 -56.918571 -127.57636 8090987
-115.99425 -56.845657 -127.97449 10064516
-115.03996 -56.754719 -128.46709 9932931
-179.01315 -55.634369 -49.458481 6446418
-178.65472 -56.089802 -50.188229 6775126
-178.3698 -56.085243 -51.137058 6511955
-178.02802 -56.383011 -51.891724 7761766
-114.10909 -56.586906 -130.54434 9735296
-113.1413 -56.495899 -131.01987 8879987
-112.16975 -56.325588 -133.08829 9734788
-111.38523 -56.252762 -133.45552 8484720
-110.60018 -56.180027 -133.81937 8089963
-109.7795 -56.02549 -135.78265 8879475
-108.78577 -55.934441 -136.22156 10260100
-107.92287 -55.774242 -138.17157 13023917
-107.11147 -55.697819 -138.50169 10985364
-179.28737 -54.908035 -49.394566 7301471
-179.02412 -54.962029 -50.391422 5920074
-178.7513 -55.184483 -51.013096 5919050
-106.50272 -55.640671 -138.74675 6445650
-106.00266 -55.512451 -140.51738 6971994
-104.97685 -55.416992 -140.91252 8551281
-104.0357 -55.248466 -142.83958 8155755
-103.20607 -55.172123 -143.14288 8090475
-102.23191 -55.001446 -145.06401 8222573
-101.18394 -54.906067 -145.42705 8288110
-100.17471 -54.733261 -147.34026 8748921
-179.69421 -54.02182 -48.715504 9012089
-179.57278 -54.056377 -49.612591 7893608
-179.32701 -54.286381 -50.243309 7038298
-99.327873 -54.656971 -147.61752 7039331
-98.92704 -54.539402 -149.32404 8617334
-98.0718 -54.46302 -149.5909 9800834
-97.623581 -54.228947 -150.86806 7564643
-96.856468 -54.077332 -151.40465 8617331
-96.307556 -53.947723 -151.88206 8550514
-95.581001 -53.822144 -152.48409 8089963
-180.04401 -53.111271 -48.577404 8156780
-179.93184 -53.147614 -49.478287 8354159
-96.497124 -53.31448 -152.44592 9011065
-95.807961 -53.223549 -152.84267 9537409
-94.933922 -53.158249 -153.32422 8748149
-180.48271 -52.132656 -47.856808 9275261
-180.3381 -52.217937 -48.889561 9735812
-95.92308 -52.434792 -153.15933 9274237
-95.180412 -52.187283 -153.64784 9406078
-94.391556 -52.033836 -154.12126 9340284
-180.9641 -51.021378 -47.191711 9538432
-180.84174 -51.115475 -47.991787 9735812
-180.60779 -51.53196 -48.729 10262156
-95.253242 -51.250473 -153.99847 9735038
-94.451714 -51.107601 -154.47414 9800577
-93.574745 -51.126915 -154.92168 9800577
-93.025108 -50.766262 -155.35672 9866371
-181.55888 -49.635124 -46.413364 9538689
-181.28735 -50.16877 -47.101048 9604225
-181.20337 -50.142769 -47.953842 10262156
-94.651817 -50.360897 -154.67978 9208435
-93.921997 -50.126999 -155.15599 9274229
-92.95713 -50.108654 -155.66481 9340023
-181.83395 -48.907616 -46.343445 9078394
-181.67273 -49.061176 -47.298065 9275517
-93.89669 -49.250195 -155.53273 9208435
-93.123421 -49.235916 -155.94038 9340023
-92.42852 -49.151012 -156.33652 10984081
-182.27094 -47.945583 -45.582638 8815222
-182.12494 -48.093674 -46.417484 8618099
-93.368324 -48.290741 -156.20534 10194818
-92.556847 -48.130947 -156.69316 10128769
-91.744865 -47.972458 -157.18063 9208179
-182.58594 -47.111397 -45.505466 8091244
-182.47589 -47.140141 -46.41296 8092011
-92.685257 -47.109974 -157.05074 9536888
-91.987373 -47.02634 -157.44783 8681835
-91.102821 -46.970379 -157.93031 8879471
-183.06636 -46.146042 -44.782345 9208186
-182.88489 -46.290794 -45.735561 8090734
-92.091637 -46.232399 -157.76823 10457478
-91.271828 -46.194126 -158.21992 9405561
-90.499908 -45.938919 -158.81349 8682093
-184.51508 -44.711849 -43.158627 9537148
-183.87555 -45.188721 -44.024612 9405563
-183.56766 -45.417744 -44.965981 7038307
-91.431793 -45.54557 -158.66931 9208435
-90.793274 -45.376812 -159.14642 8024165
-89.957497 -45.20269 -159.78287 8353130
-89.452415 -44.861874 -160.53102 8418670
-88.547234 -44.770885 -161.17339 8089963
-191.01675 -44.272617 -34.569336 8419702
-190.85132 -44.27404 -35.490685 7498598
-190.6823 -44.275455 -36.41143 8484973
-188.01567 -44.276146 -38.50296 9471872
-187.83186 -44.277523 -39.409988 9537667
-187.69127 -44.278549 -40.089752 9537667
-185.68724 -44.398235 -41.545441 9800578
-185.54523 -44.412792 -42.453865 8682867
-88.380173 -44.496845 -162.24316 10458254
-87.394753 -44.490456 -162.75252 7563618
-86.37352 -44.384056 -165.09161 7038307
-85.779633 -44.383942 -165.4041 7827308
-84.787361 -44.383739 -165.92006 7498084
-83.955391 -44.06348 -167.91032 8484716
-83.045906 -43.90707 -168.24098 8945268
-83.3256 -43.063435 -168.49797 9406591
-82.45256 -43.029861 -168.76849 9736323
-83.22464 -42.384125 -168.80095 9736323
-82.389359 -42.12772 -169.14995 9736323
-81.554314 -41.872387 -169.49852 10263180
-82.677315 -41.312321 -169.3932 9736323
-81.764442 -41.159595 -169.7234 9275517
-82.660759 -40.559963 -169.70068 9209467
-81.902916 -40.353001 -170.00706 9209467
-81.204147 -40.058746 -170.3311 9604226
-81.976646 -39.407513 -170.36568 9538176
-81.182823 -39.21191 -170.67802 10261387
-80.774605 -38.690849 -171.0078 10853012
-81.327873 -38.030247 -171.11064 10458510
-80.509697 -38.080151 -171.33139 9735043
-80.820084 -37.109341 -171.63054 9537664
-79.940338 -37.083279 -171.89995 8682867
-80.713402 -36.426598 -171.9366 9406078
-79.950813 -36.223286 -172.24289 8946295
-79.247017 -35.931774 -172.56726 9932419
-80.154442 -35.352119 -172.53334 9670785
-79.233208 -35.205891 -172.86223 9406332
-79.503319 -34.348843 -173.11826 9932419
-78.704063 -34.251598 -173.38669 8682867
-79.425468 -33.434887 -173.49393 9274747
-78.621452 -33.243103 -173.80025 9669249
-77.98101 -32.714142 -174.18961 10853012
-78.888626 -32.127373 -174.15425 9340541
-77.960724 -31.983196 -174.47798 9932166
-78.158592 -31.201336 -174.76695 9077370
-77.459404 -31.039536 -175.07924 9734788
-77.538048 -30.317984 -175.63103 9340286
-76.74749 -30.229788 -175.9314 9274749
-76.150597 -30.001631 -176.29169 9538176
-76.278938 -29.647289 -177.16341 10459278
-75.397629 -29.634777 -177.4572 8682867
-74.545357 -29.396236 -179.6118 10787729
-73.683563 -29.395906 -179.97057 10327434
-72.820358 -29.395567 -180.32579 8090987
-70.118309 -29.400736 -185.01176 9208435
-69.230705 -29.400343 -185.34917 9537402
-167.59592 -63.6772 -64.943291 8091248
-167.40359 -63.693367 -65.565208 7565161
-166.88023 -63.864426 -66.290733 8880250
-166.49553 -63.912849 -66.991341 9998730
-165.7099 -63.944321 -67.917618 7039331
-165.06317 -63.853638 -68.818413 7565161
-164.5428 -63.781265 -69.535286 9932163
-164.01979 -63.709076 -70.248825 9010807
-163.49402 -63.636982 -70.959175 8681843
-168.04744 -63.001171 -64.744919 7631211
-167.77435 -63.083527 -65.709282 7565161
-167.44595 -63.329212 -66.512779 9143422
-163.09805 -63.583019 -71.489914 8681843
-162.7007 -63.529198 -72.01857 8551537
-162.16864 -63.457581 -72.720863 10855060
-161.50021 -63.368351 -73.593948 9538947
-160.82814 -63.279377 -74.462303 8682867
-160.28769 -63.208439 -75.153221 11905951
-159.74487 -63.137684 -75.840843 11905951
-159.06296 -63.049618 -76.69574 9998727
-158.37759 -62.961784 -77.54583 8090987
-157.82661 -62.891808 -78.222145 10262667
-157.1346 -62.804573 -79.062782 13157303
-156.43925 -62.717644 -79.898689 13749441
-155.88042 -62.648327 -80.563545 15394010
-168.58847 -62.089787 -64.02182 7565675
-168.31741 -62.170799 -64.98806 7697004
-168.08667 -62.274815 -65.753227 9143422
-155.31927 -62.579262 -81.225136 14603466
-154.61469 -62.493179 -82.047417 7037274
-153.90697 -62.407402 -82.864883 8023911
-153.33823 -62.339054 -83.515083 9341052
-152.62418 -62.253902 -84.32299 9077369
-151.86534 -62.152084 -85.103043 8747892
-151.22166 -62.056873 -85.703712 8354159
-150.41493 -61.938351 -86.448936 8814710
-149.60608 -61.820267 -87.188606 7827814
-169.21741 -61.001923 -63.236237 10394001
-168.96344 -61.089565 -64.128769 9144449
-168.623 -61.359753 -65.027657 9144449
-147.61783 -61.444035 -91.104027 9209214
-147.16467 -61.392582 -91.560829 7827816
-146.55879 -61.324017 -92.166954 8420208
-145.79854 -61.238514 -92.919533 6709590
-145.03545 -61.153336 -93.667107 7960173
-144.26917 -61.068382 -94.408943 7828590
-143.50015 -60.983711 -95.145668 7960176
-142.88269 -60.916195 -95.730995 6709597
-142.10817 -60.832088 -96.45768 7564651
-170.4389 -59.879406 -61.670086 10196363
-170.08286 -60.03336 -62.547718 9670278
-169.62906 -60.342697 -63.295689 10459794
-140.85371 -60.570129 -99.36335 9340283
-140.21941 -60.503166 -99.931488 7104091
-139.42389 -60.419727 -100.63647 6709333
-138.62595 -60.336601 -101.33642 6840919
-137.82518 -60.253716 -102.03052 7169884
-137.01801 -60.169472 -102.71661 8616819
-136.36139 -59.95013 -104.80584 7760994
-135.63585 -59.853176 -105.29231 8484714
-134.72775 -59.732353 -105.89465 8156010
-134.00041 -59.635941 -106.3723 9011576
-176.45686 -58.782257 -54.060398 6840922
-176.18494 -59.00827 -54.674828 6117202
-175.92699 -59.01067 -55.525898 6643031
-175.66405 -59.088943 -56.297642 7958632
-173.716 -59.293701 -57.610241 9144191
-173.37041 -59.295143 -58.657528 9012093
-173.08994 -59.296288 -59.493988 7564651
-171.84413 -59.467258 -59.998482 9340545
-171.52231 -59.481609 -61.047798 9340545
-171.32974 -59.491447 -61.677689 9735812
-133.62982 -59.452396 -108.1854 9736836
-133.01009 -59.350674 -108.48259 7564386
-132.23155 -59.236416 -108.91368 6510930
-131.65834 -59.15575 -109.24304 6510930
-131.42303 -58.989162 -110.92341 4340785
-130.51706 -58.882236 -111.51185 6840151
-129.61035 -58.775898 -112.09501 8681843
-129.06563 -58.712242 -112.44199 8681843
-176.81157 -58.061943 -53.79604 6972507
-176.49915 -58.108192 -54.771973 7301216
-176.23613 -58.185368 -55.54528 6510930
-128.6783 -58.555145 -114.29442 7563619
-128.14331 -58.499367 -114.65005 9010806
-127.25019 -58.406509 -115.23803 8484721
-126.53452 -58.332432 -115.70448 9339257
-126.14511 -58.192982 -117.58958 7563619
-125.6004 -58.137325 -117.93262 8418670
-124.8731 -58.063156 -118.38669 11774107
-123.96249 -57.970825 -118.94854 10721418
-123.11242 -57.771 -121.00354 8485745
-122.34058 -57.681923 -121.40948 10459279
-177.33008 -57.206505 -53.160572 7564386
-177.07201 -57.206509 -54.014961 8090730
-176.80893 -57.282612 -54.789867 7695460
-121.95444 -57.63744 -121.61087 10262156
-121.56821 -57.59306 -121.81104 10262156
-121.22183 -57.440853 -123.51868 8089962
-120.45152 -57.357197 -123.92215 7300446
-119.70222 -57.284061 -124.34376 9143163
-118.84982 -57.119751 -126.45946 8616304
-117.89927 -57.028183 -126.97072 8616304
-117.13793 -56.955044 -127.37563 8616304
-116.23408 -56.788006 -129.47504 8617329
-115.26893 -56.696434 -129.96501 9735296
-178.05719 -55.931339 -52.366035 8222831
-177.72467 -56.080269 -53.278488 7564386
-177.44734 -56.170387 -54.082279 7300958
-177.11414 -56.531643 -54.728344 7563619
-114.68919 -56.641647 -130.25592 10787726
-114.12836 -56.50853 -132.15135 8288880
-113.54118 -56.453575 -132.43494 7563619
-112.75772 -56.380409 -132.80972 7563619
-112.35947 -56.263355 -134.61108 10590091
-111.76456 -56.208279 -134.88519 9932163
-110.77242 -56.11676 -135.33688 8484720
-109.93935 -55.960636 -137.31479 10260867
-108.93428 -55.868767 -137.74983 11510934
-108.05334 -55.704311 -139.70724 9998727
-178.69159 -54.911949 -51.555355 6643287
-178.3784 -54.95433 -52.538166 7499368
-178.11478 -55.028461 -53.317043 7761767
-107.02818 -55.608242 -140.11531 7367266
-106.10928 -55.440266 -142.06306 9209214
-105.07256 -55.344177 -142.4543 8484977
-104.11811 -55.173965 -144.39487 8813683
-103.2798 -55.097164 -144.69493 10261899
-102.29208 -54.924839 -146.62962 10262154
-101.23333 -54.828838 -146.98839 8157043
-101.00966 -54.700981 -148.5554 11381404
-100.60664 -54.675632 -148.73007 11381404
-179.31708 -53.945652 -50.706951 6182734
-178.97699 -54.099777 -51.637554 6050636
-178.6902 -54.127365 -52.551662 7104096
-100.20318 -54.650387 -148.90442 10260873
-99.660744 -54.517834 -149.38635 10260873
-99.052795 -54.165874 -150.44569 9800834
-98.275871 -54.033035 -150.94432 8222573
-97.522453 -53.889046 -151.50455 8617331
-179.83734 -53.083851 -50.07436 7827815
-179.55338 -53.200218 -50.867085 5920074
-179.26653 -53.226696 -51.783146 5919306
-98.435387 -53.378765 -151.44981 10064520
-97.741554 -53.2831 -151.84206 9735555
-97.051918 -53.19067 -152.23994 8880247
-180.15649 -52.251587 -50.007114 7959144
-179.84848 -52.250687 -51.090927 6577747
-179.57436 -52.47422 -51.715569 5920074
-98.460396 -52.650814 -151.75166 10854036
-97.914391 -52.28373 -152.18758 9275004
-97.105003 -52.236099 -152.62776 8879991
-96.365952 -51.891033 -153.15479 9142906
-180.72615 -51.043564 -49.286583 9735300
-180.48737 -51.214844 -50.285954 7959145
-180.1521 -51.573315 -50.942295 7761765
-97.339203 -51.156036 -152.95404 9735296
-96.453117 -51.06012 -153.45412 8945781
-95.567207 -50.965614 -153.95349 9208952
-181.23325 -49.891651 -48.522739 10130570
-181.07076 -50.048649 -49.477859 10261132
-96.740463 -50.262794 -153.6355 9011574
-95.853081 -50.168457 -154.13564 9077367
-94.965736 -50.075466 -154.6351 9208435
-181.74359 -48.770199 -47.62817 8815222
-181.5513 -49.028809 -48.514 10064265
-181.35861 -49.288658 -49.399807 10261132
-95.938713 -49.33672 -154.43617 9274745
-95.057121 -49.273506 -154.92027 9340280
-94.476852 -49.261505 -155.2267 9866371
-181.98605 -48.091331 -47.691669 9012601
-181.82912 -48.204071 -48.744286 9932423
-96.153877 -48.639046 -154.61432 9735038
-95.404839 -48.23859 -155.16971 9472124
-94.494476 -48.165314 -155.67278 9603453
-93.839699 -47.860569 -156.1394 9603453
-182.42917 -47.084408 -47.025536 9275517
-182.28241 -47.2337 -47.862991 10196362
-95.246376 -47.302025 -155.64131 9932161
-94.705986 -47.071808 -156.0175 10129539
-93.928917 -47.05759 -156.42686 9208952
-93.230659 -46.972488 -156.82472 9011059
-183.18094 -45.733608 -46.278084 8748661
-182.82779 -46.16328 -46.971237 8749173
-182.55281 -46.505062 -47.839619 9406590
-94.638374 -46.411449 -156.32707 10853004
-94.1222 -46.194202 -156.74539 9471867
-93.214622 -46.221157 -157.19548 9668731
-92.635963 -45.964584 -157.6826 9997183
-184.25871 -44.739952 -44.741188 10261124
-183.90866 -44.955402 -45.596569 9143161
-183.51411 -45.312149 -46.204792 8748661
-93.57151 -45.573467 -157.53453 8813427
-92.739906 -45.399879 -158.11607 9669251
-92.102821 -45.097328 -158.79904 10458766
-91.462944 -44.788197 -159.60005 7234652
-90.686485 -44.782803 -160.02213 7760994
-190.59598 -44.276161 -36.87149 8813683
-190.41962 -44.277569 -37.790833 8682611
-187.54791 -44.279572 -40.768837 7893612
-187.3531 -44.280933 -41.673561 8354159
-185.43712 -44.424263 -43.135246 8945525
-185.29153 -44.43993 -44.043461 9603196
-185.18097 -44.452053 -44.725079 9537659
-90.921776 -44.509857 -160.87907 8484714
-90.140526 -44.505177 -161.30077 7892582
-89.358528 -44.501095 -161.72078 9010808
-88.344612 -44.384399 -164.03429 8091248
-87.754524 -44.384296 -164.35379 10261132
-86.96608 -44.384167 -164.77679 8091248
-85.213371 -44.085758 -167.53108 8747890
-84.517982 -43.786518 -167.85616 7564386
-85.294456 -43.14238 -167.88663 7038298
-84.418747 -43.106781 -168.15878 8090730
-84.710686 -42.291615 -168.40077 7696228
-83.796982 -42.1357 -168.73241 9669507
-84.697441 -41.538597 -168.70753 8090730
-83.939133 -41.328957 -169.01509 9143163
-83.240547 -41.032181 -169.34007 8880758
-84.017082 -40.383099 -169.37263 8551022
-83.311066 -40.206802 -169.65135 9011830
-83.318581 -39.317757 -170.00676 9274747
-82.55365 -39.050274 -170.33951 10130313
-82.728798 -38.120682 -170.66188 10459278
-81.927299 -37.973808 -170.95689 11051415
-82.764717 -37.396545 -170.94258 9538176
-81.92144 -37.14312 -171.2928 10459022
-82.209557 -36.320133 -171.539 10655886
-81.288216 -36.171383 -171.87007 10130568
-82.190758 -35.562191 -171.84935 11904668
-81.425621 -35.357815 -172.15681 10065286
-80.719879 -35.065105 -172.48236 9933700
-81.497086 -34.404339 -172.51851 9210491
-80.693588 -34.210594 -172.82761 11183253
-80.276405 -33.685837 -173.15123 12432037
-80.965851 -33.095444 -173.18022 9210491
-80.003204 -33.069614 -173.46822 10919313
-80.308403 -32.086754 -173.75987 9997959
-79.504921 -31.990175 -174.02928 9735043
-80.19458 -31.396826 -174.05934 10261132
-79.440056 -31.201485 -174.39995 9735043
-78.755974 -30.921345 -174.78474 9734787
-79.565208 -30.50598 -174.8923 8682867
-78.822166 -30.316101 -175.26295 9077369
-78.151146 -30.041687 -175.68279 9011576
-78.263008 -29.677231 -176.49644 9734788
-77.601532 -29.666935 -176.71962 9734788
-76.940315 -29.657038 -176.94197 10459278
-76.263329 -29.396868 -178.88107 10129798
-75.619835 -29.396635 -179.15691 9734782
-74.975471 -29.396397 -179.43066 14075837
-71.888481 -29.401503 -184.32349 9931646
-71.225365 -29.401218 -184.58345 9208435
-70.561485 -29.400932 -184.84134 9208435
-166.74612 -63.7472 -67.63517 9143422
-166.4039 -63.741257 -68.432365 9143422
-165.96185 -63.730591 -69.422577 10261132
-165.5089 -63.717808 -70.407829 13551549
-165.02682 -63.663414 -71.144394 9734531
-164.62766 -63.608948 -71.680016 8681843
-167.4959 -63.018242 -66.883026 9735045
-167.1781 -63.160328 -67.808815 8814714
-166.8327 -63.294189 -68.723923 9932424
-164.36079 -63.572678 -72.035927 9405566
-167.99107 -62.15123 -66.338493 9603716
-167.7959 -62.126892 -67.166183 9866631
-167.52705 -62.364285 -67.871231 9932424
-154.9326 -62.371189 -83.650497 6839895
-154.21379 -62.285179 -84.467049 7366239
-153.63626 -62.216675 -85.11644 6510930
-152.89352 -62.124107 -85.913536 7037274
-152.08801 -62.007721 -86.671951 8090474
-151.4352 -61.912235 -87.270485 9801093
-150.78098 -61.817047 -87.865181 7038298
-150.01492 -61.720558 -88.634407 7432288
-149.26944 -61.633869 -89.412193 15196110
-168.79933 -60.756008 -65.406738 10393744
-168.40439 -61.170162 -66.24736 8683384
-168.13254 -61.367004 -67.018608 8880507
-148.67062 -61.564682 -90.030418 9472127
-148.06967 -61.495739 -90.645111 5920082
-146.01813 -61.129391 -94.542809 5920074
-145.2439 -61.043846 -95.288635 12169380
-144.62227 -60.975639 -95.881287 12038820
-143.84247 -60.890656 -96.61689 8354677
-143.06 -60.805862 -97.34742 9011579
-142.43187 -60.738327 -97.927788 9735043
-141.80199 -60.670883 -98.504654 14075837
-169.96852 -59.804096 -63.747269 8354934
-169.57214 -59.988213 -64.672989 8815484
-169.20633 -60.154663 -65.562965 9472385
-168.89586 -60.281345 -66.380272 9011576
-141.32845 -60.620407 -98.935158 7038298
-140.34991 -60.390537 -101.55373 8288109
-139.70503 -60.323559 -102.11657 7564386
-138.89655 -60.24004 -102.81499 7695972
-138.08556 -60.156834 -103.50815 6511954
-137.25662 -60.067307 -104.18391 7629665
-136.58095 -59.844444 -106.28066 7760994
-135.84644 -59.746941 -106.76437 7103066
-135.11127 -59.649693 -107.24467 7761253
-175.54375 -58.942024 -56.881706 9143420
-175.28012 -59.022038 -57.65337 9998985
-174.96597 -59.074902 -58.626728 9143675
-172.94807 -59.296864 -59.911697 7564651
-172.66087 -59.297997 -60.745853 7564651
-172.29688 -59.299408 -61.786919 9603973
-171.4494 -59.434666 -62.341789 9867657
-170.87671 -59.516354 -63.147156 10788759
-170.61476 -59.531525 -63.986725 7565675
-134.74333 -59.6012 -107.48312 7761253
-134.19107 -59.52861 -107.83868 7368038
-133.92856 -59.338001 -109.49114 6510930
-133.34395 -59.25423 -109.82001 6510930
-132.37784 -59.118813 -110.36993 7696229
-131.41783 -58.869141 -112.54596 7563619
-130.68475 -58.783394 -113.01433 10787988
-129.95076 -58.697884 -113.47874 8681843
-176.11597 -58.037521 -56.130161 6510930
-175.85229 -58.116467 -56.903336 8682355
-175.5928 -58.121887 -57.755825 9604226
-175.31975 -58.351799 -58.369278 8090987
-129.21712 -58.613171 -113.9402 8681843
-128.31781 -58.416656 -116.19467 8287342
-127.41381 -58.323231 -116.78018 9602686
-126.68921 -58.248787 -117.24416 10260100
-125.73759 -58.051834 -119.48381 8089963
-125.0015 -57.977299 -119.93516 8418928
