# .PCD v0.7 - Point Cloud Data file format
VERSION 0.7
FIELDS x y z rgb
SIZE 4 4 4 4
TYPE F F F U
COUNT 1 1 1 1
WIDTH 1179
HEIGHT 1
VIEWPOINT 0 0 0 1 0 0 0
POINTS 1179
DATA ascii
-138.95131 -47.436085 -124.35222 7958888
-27.191786 -47.603127 -160.20868 9537918
-26.221651 -47.487339 -161.48936 9537918
-25.407907 -47.412567 -161.36429 9735810
-24.595747 -47.338024 -161.23657 10262667
-23.193287 -47.182716 -162.43805 10262667
-22.582714 -47.126873 -162.33241 10064775
-21.770348 -47.052593 -162.18878 10985876
-20.54582 -46.91386 -163.40918 8090987
-19.731575 -46.839634 -163.25287 8090987
-18.919132 -46.765652 -163.09392 8814454
-17.465244 -46.606213 -164.25526 8617075
-140.90564 -46.256603 -122.88031 9011321
-140.32933 -46.326317 -123.47146 8879735
-139.75282 -46.396748 -124.06169 7432544
-16.854923 -46.55088 -164.12608 7038298
-16.245674 -46.495548 -163.99538 7038298
-14.767224 -46.334255 -165.13872 7564651
-13.953748 -46.260647 -164.95117 7828076
-12.248658 -46.079002 -166.03168 7367781
-11.231679 -45.987408 -165.77937 7827558
-9.2989855 -45.785576 -166.78366 8419700
-8.4858484 -45.712605 -166.56708 7564651
-142.84044 -44.898003 -122.35934 7169629
-142.10413 -45.162159 -122.8209 7235422
-141.37473 -45.494717 -123.1859 6643284
-140.65604 -45.69857 -123.75594 8419440
-7.3439374 -45.581963 -167.77399 9143422
-6.5295987 -45.509029 -167.54501 7697004
-5.7173276 -45.436432 -167.31348 9143422
-4.3474164 -45.285522 -168.4482 8420470
-3.5343556 -45.213097 -168.20399 7565675
-1.7357184 -45.024036 -169.20226 13222327
-0.92300856 -44.951927 -168.94415 12761778
0.28823793 -44.815155 -170.12465 8090987
1.1016268 -44.743134 -169.85423 9735812
-154.28827 -44.426357 -118.56764 10853004
-153.71982 -44.426704 -119.31138 9207927
-150.5385 -44.423061 -119.78603 8485747
-149.96417 -44.42337 -120.51168 7235685
-146.68434 -44.419792 -121.11916 7893095
-146.1039 -44.420063 -121.82647 7826790
-144.72223 -44.62709 -121.57073 7037274
-144.12163 -44.621895 -122.25353 6116940
-143.52242 -44.617912 -122.93716 8419440
1.9213632 -44.51112 -170.67497 7695976
3.0324054 -44.171402 -170.83879 9011578
3.9675059 -43.983711 -170.84317 9670021
4.7853961 -43.887005 -170.82576 10788759
3.1539073 -43.308273 -171.21187 12432037
3.9734912 -43.085876 -171.20654 10788501
4.996181 -43.064915 -171.10551 8354934
5.6112514 -42.848465 -171.11964 7565675
4.1820445 -42.46727 -171.41173 11051672
4.9166636 -42.042942 -171.48959 9472899
5.9786334 -41.97794 -171.4276 9800838
7.0618091 -41.627289 -171.56024 9405823
5.2181926 -41.012287 -171.83641 11380121
5.8342013 -41.003563 -171.78537 10326668
6.8635173 -41.00993 -171.78333 9340030
7.8260379 -40.951279 -171.81717 8353135
5.910316 -40.250603 -172.0573 9077369
6.8734317 -40.188683 -172.08362 7958888
7.9083743 -39.993393 -172.16829 8879736
8.8060408 -39.866371 -172.22656 8550514
6.7447352 -39.43372 -172.35782 8287853
7.6558146 -39.050415 -172.50972 8485235
8.7513189 -38.97377 -172.55176 8551029
9.7055082 -38.945377 -172.58159 9668993
8.1391783 -38.349094 -172.77228 7564651
8.7645254 -38.14954 -172.85318 8813945
9.8027372 -38.163406 -172.87039 8485489
10.842174 -38.179871 -172.89343 8485745
11.683688 -37.780972 -173.06288 11576729
8.9822149 -37.532909 -173.08138 9734788
9.653533 -37.211346 -173.21451 9537405
10.654883 -37.143951 -173.26717 9340283
11.657516 -37.077541 -173.31953 10392201
12.469188 -36.898453 -173.40776 8945271
10.534991 -36.176556 -173.61768 10260614
11.511352 -36.122833 -173.66467 9537663
12.55701 -36.140347 -173.68756 9537664
13.501842 -36.05349 -173.74574 10590864
11.807082 -35.367279 -173.94936 9208699
12.581866 -35.103146 -174.06767 10459022
13.577106 -35.172386 -174.07014 11380636
14.545032 -34.999561 -174.16051 10657169
15.324302 -34.737022 -174.27837 9209467
12.811858 -34.275612 -174.37689 10459022
13.447829 -34.078156 -174.46687 11315099
14.500243 -34.096737 -174.48955 12565422
15.553771 -34.116436 -174.51186 9209467
16.193169 -33.920322 -174.60146 9209467
13.674567 -33.45702 -174.70045 10657169
14.312556 -33.259377 -174.79057 10986134
15.374 -33.069611 -174.88951 9538688
16.430946 -33.089561 -174.91167 9275260
17.394207 -32.794994 -175.04604 11183770
15.398818 -32.233906 -175.19556 8682867
16.252407 -32.040127 -175.29013 9077881
17.31284 -32.060284 -175.31224 9867910
18.291306 -32.037949 -175.34761 10985883
16.484379 -31.415615 -175.52477 10263180
17.21714 -31.18149 -175.65556 8946554
18.294651 -31.100538 -175.75444 11577507
19.203865 -30.99028 -175.82964 10065038
20.153744 -30.67568 -176.07295 8682867
19.117455 -30.259525 -176.36488 9736073
20.114948 -30.119452 -176.49965 8682867
21.150936 -30.060266 -176.57327 12234659
22.058434 -29.935736 -176.80725 8550511
22.86348 -29.682692 -177.22598 9537147
23.961143 -29.615303 -177.36977 7037274
24.607273 -29.625643 -177.35265 8089963
24.952057 -29.331837 -178.28934 8089963
25.819046 -29.345861 -178.26385 8089963
26.903679 -29.364086 -178.22986 9275521
30.473087 -29.265944 -179.95949 9011065
31.334557 -29.264542 -179.81335 9866885
36.201378 -29.261055 -181.91718 10261388
37.289719 -29.259232 -181.69911 9537921
39.19577 -28.865444 -182.84035 10129543
39.740463 -28.992533 -182.53392 13550517
39.408798 -27.896194 -183.13142 9142651
40.11219 -28.029049 -182.74797 9997958
40.104702 -26.982327 -183.17406 9866117
40.876289 -26.881525 -182.85294 9341054
40.383736 -26.082222 -183.40665 8089963
41.139816 -26.012463 -183.08026 8879991
41.082169 -25.167027 -183.44856 9405823
41.70953 -25.147032 -183.16246 10064265
41.36322 -24.264395 -183.68124 9734531
42.009457 -24.02088 -183.47649 9997703
42.673908 -23.553848 -183.35344 7037274
42.164631 -22.971163 -183.82753 9932166
42.875324 -22.80139 -183.56279 8682099
42.803715 -21.98024 -183.92792 8879478
43.661137 -21.73251 -183.62587 10853012
43.088413 -21.072502 -184.1609 9800578
43.864162 -20.977446 -183.83546 11904668
43.794029 -20.152613 -184.20139 10589320
44.080807 -19.241678 -184.43466 9997183
44.590576 -19.003374 -184.29185 10063232
44.928997 -18.089579 -184.50208 11182488
45.689648 -17.619596 -184.33516 9538438
44.906658 -16.953783 -184.97115 8287856
45.669136 -16.892799 -184.6382 9538438
45.826694 -16.140667 -184.90262 12169896
46.512745 -15.793964 -184.82939 11512225
46.826591 -15.234588 -185.14554 9669252
47.523144 -14.889645 -185.10423 9931651
47.977585 -14.486916 -185.95799 10853012
48.618801 -14.477971 -185.68442 10392203
54.234112 -14.245164 -187.75954 11314329
55.132824 -14.243537 -187.49919 9538174
57.785793 -13.908301 -188.98656 8617331
58.078373 -13.19138 -189.13881 10788241
58.154552 -12.475758 -189.39203 12433063
-131.93677 -56.930374 -126.95744 6774870
-131.10793 -57.145931 -127.48355 7827303
-130.3017 -57.308228 -127.92625 8814711
-129.29948 -57.511856 -128.37746 11380380
-128.40938 -57.567848 -128.42177 8880503
-127.27783 -57.583607 -128.52553 9340540
-126.29388 -57.487392 -129.07678 8486000
-125.50555 -57.410568 -129.5128 7892583
-124.71632 -57.333893 -129.9446 10590097
-123.92627 -57.257408 -130.3721 12958385
-120.2799 -56.992722 -130.58104 9734529
-119.69104 -56.936325 -130.88684 11379095
-118.70871 -56.84256 -131.39142 8419439
-117.72528 -56.749046 -131.88985 8616818
-117.13467 -56.693035 -132.18588 8288880
-132.66389 -55.932934 -126.73618 7827819
-132.08351 -56.202595 -127.21899 7563619
-131.37013 -56.208942 -127.83773 7958377
-116.74073 -56.655689 -132.38181 8288880
-116.14946 -56.599869 -132.67355 7039331
-115.16312 -56.507004 -133.15479 8288367
-114.3734 -56.432896 -133.53557 7563619
-109.85397 -56.092468 -134.04149 7564643
-109.26534 -56.037964 -134.30899 7959144
-108.28362 -55.947483 -134.74966 8814196
-107.29778 -55.855431 -135.18022 9735812
-106.50453 -55.7799 -135.51497 9735812
-105.71094 -55.704559 -135.8456 7564384
-132.98871 -55.264065 -126.73941 10196876
-132.274 -55.344006 -127.4818 7563619
-105.11555 -55.648163 -136.09109 5920074
-104.52003 -55.591919 -136.33397 5920074
-103.72565 -55.517059 -136.65454 5919562
-102.73228 -55.423782 -137.04939 5919050
-101.73862 -55.33078 -137.43837 6379600
-100.94339 -55.256599 -137.74484 5919050
-99.94899 -55.164162 -138.12227 10260875
-98.954407 -55.07201 -138.49384 11314588
-97.959503 -54.980183 -138.85876 11709346
-96.964462 -54.888577 -139.21797 10457481
-96.168259 -54.815613 -139.50072 9470843
-95.172867 -54.724625 -139.8484 11905695
-133.84592 -54.256611 -126.33132 12170148
-133.19624 -54.300381 -127.03655 11117719
-132.57587 -54.603817 -127.56601 8813942
-94.177437 -54.633926 -140.19043 7564651
-93.38092 -54.561596 -140.45943 7564651
-92.385391 -54.471531 -140.79008 8486769
-91.389786 -54.381702 -141.11504 10460303
-90.394119 -54.292233 -141.43355 8551793
-89.394012 -54.200314 -141.7392 9143417
-88.557648 -54.105045 -141.92163 8288369
-87.504333 -53.980896 -142.12929 8288116
-86.452431 -53.857128 -142.33107 13550261
-85.612015 -53.758511 -142.48775 10261388
-84.982285 -53.68462 -142.60271 9340545
-134.79491 -52.915642 -126.00369 11380380
-134.062 -53.310715 -126.60911 9604998
-133.52217 -53.260723 -127.24251 8092019
-84.353218 -53.611027 -142.71519 11379352
-83.515244 -53.51305 -142.86174 8090475
-82.678345 -53.415318 -143.00436 7564386
-80.054955 -53.049358 -144.80949 6512978
-79.013153 -52.933464 -144.97591 9866627
-77.976608 -52.82056 -145.14355 8814198
-76.941681 -52.708118 -145.3047 9340287
-135.50867 -51.909801 -125.75578 8156012
-134.93321 -52.180695 -126.25275 10327436
-134.41188 -52.140465 -126.86008 11249307
-75.908096 -52.596058 -145.46019 8616307
-75.082481 -52.506706 -145.58002 8287342
-72.429161 -52.165119 -147.30328 9209467
-71.393326 -52.054119 -147.42677 8682616
-70.359184 -51.943501 -147.54478 7630187
-69.326904 -51.833336 -147.65643 9471616
-68.296303 -51.723553 -147.7626 8616307
-135.79001 -51.195656 -125.83283 9011576
-135.1252 -51.318714 -126.51137 11905692
-66.433517 -51.484371 -149.32907 9275004
-65.618759 -51.407043 -149.42674 9275004
-64.601601 -51.310741 -149.54306 8946295
-63.585747 -51.2146 -149.65367 9867655
-62.571205 -51.118721 -149.75771 9340801
-60.090279 -50.858772 -151.41014 10457990
-59.071171 -50.762978 -151.48822 8287083
-58.053574 -50.667358 -151.56061 8089963
-136.52356 -50.345165 -125.47723 9406332
-135.92957 -50.348007 -126.1424 9603964
-135.42389 -50.574135 -126.58574 11905692
-57.037621 -50.572029 -151.62669 8616564
-54.297012 -50.289764 -153.18526 10590348
-53.277802 -50.194626 -153.22461 8814195
-52.260578 -50.099773 -153.25775 10129799
-51.447941 -50.024094 -153.28056 15194062
-49.472343 -49.814774 -154.7227 9603714
-48.451759 -49.719131 -154.72601 10064265
-47.839912 -49.661232 -154.72314 9537918
-137.48155 -49.002945 -125.14021 7037274
-136.87228 -49.291855 -125.6652 8419439
-136.19992 -49.528751 -126.28963 10064259
-47.228672 -49.603447 -154.71796 9537663
-45.61668 -49.425018 -156.0966 11708572
-44.798435 -49.347912 -156.07529 9801350
-43.77779 -49.251862 -156.04341 8419700
-41.721382 -49.032349 -157.36578 8616563
-40.903168 -48.955658 -157.32285 8090987
-39.882256 -48.860073 -157.26474 8946295
-38.20039 -48.676479 -158.564 9736585
-138.23274 -47.88385 -124.91254 8682867
-137.80193 -48.152924 -125.24818 8485232
-137.15804 -48.184452 -125.95359 9537920
-37.177269 -48.581043 -158.48566 9736585
-36.156593 -48.485935 -158.40231 8682867
-34.236725 -48.28096 -159.64055 8288114
-33.214657 -48.186115 -159.53629 7038307
-32.602844 -48.12933 -159.47116 7038307
-31.470566 -47.99799 -160.76552 9932676
-30.447268 -47.90337 -160.64111 9801092
-29.630497 -47.827969 -160.53818 9208435
-28.265213 -47.675289 -161.7867 8814710
-27.855635 -47.637535 -161.72896 10063744
-138.66689 -47.167259 -124.81939 8090474
-137.96819 -47.212776 -125.57872 7629667
-27.446449 -47.599884 -161.67015 10984849
-26.833586 -47.543564 -161.58058 11708315
-24.827202 -47.332405 -162.71059 9473152
-23.805023 -47.23877 -162.54178 10262667
-22.590956 -47.100536 -163.78549 10985876
-21.976177 -47.044373 -163.67459 9209467
-21.158075 -46.969673 -163.52409 9209467
-19.09914 -46.754795 -164.59062 7893608
-18.076939 -46.66185 -164.38251 8617075
-139.41254 -46.252235 -124.56068 7432544
-138.83551 -46.32399 -125.15031 7234909
-138.30038 -46.540249 -125.57576 7234909
-16.401314 -46.482182 -165.50383 7893613
-15.378949 -46.389599 -165.27708 7564651
-14.088384 -46.245049 -166.47377 9143678
-13.269444 -46.171093 -166.27899 10459025
-11.341229 -45.969147 -167.31317 6511954
-10.522672 -45.895504 -167.10349 7827558
-8.570466 -45.691826 -168.11137 11182231
-7.75211 -45.618496 -167.88725 9340545
-141.34776 -45.024094 -123.8587 10261132
-140.64009 -45.210152 -124.40033 8748149
-139.87724 -45.490265 -124.87125 7564133
-139.30867 -45.696266 -125.27047 7169634
-5.7761846 -45.412971 -168.86865 7697004
-4.9586949 -45.339989 -168.62965 7565675
-3.7777104 -45.205696 -169.83589 9340801
-2.9591756 -45.13279 -169.58435 10064263
-1.7553641 -44.96106 -170.65347 9209467
-0.93708861 -44.918381 -170.50417 9537919
-0.11957228 -44.851223 -170.25887 8090987
-153.00475 -44.42712 -120.23765 9207671
-152.57295 -44.427372 -120.79125 8616048
-149.09656 -44.423817 -121.59538 7827817
-148.51413 -44.42411 -122.31449 7565675
-145.3735 -44.420395 -122.70658 7563618
-144.78575 -44.420654 -123.40783 8090992
-143.22324 -44.61652 -123.2794 7169629
-142.62398 -44.614162 -123.96272 10590609
-1.1445776 -44.550556 -170.80717 9209467
-0.12206328 -44.535984 -170.76363 8091247
0.74637163 -44.117096 -171.09915 8946041
1.9240488 -43.950985 -171.10637 8024427
0.96810853 -43.223667 -171.47537 11115410
1.8432001 -43.174858 -171.40027 8353133
2.7454104 -43.010391 -171.36482 9997956
1.7896303 -42.383545 -171.69684 8221548
2.748466 -42.088127 -171.70349 7892841
3.7340198 -41.984818 -171.63669 9209726
4.3925509 -41.643402 -171.69218 9209726
2.8888164 -41.127525 -172.04164 8090476
3.657001 -41.001881 -172.00621 7894381
4.6020999 -41.023998 -171.89754 10262155
3.7165408 -40.151684 -172.31236 8486261
4.6770625 -40.132919 -172.21712 11380121
5.4326701 -39.982128 -172.19221 9537664
4.7186847 -39.172749 -172.56563 11116438
5.6463084 -39.15765 -172.47948 9077369
6.6133075 -38.883823 -172.55696 9077369
4.8281436 -38.347363 -172.85741 10853012
5.5729861 -38.170387 -172.84727 9866885
6.5670924 -38.086987 -172.84749 9537664
7.5200915 -38.136749 -172.84189 8090737
8.1451979 -37.936714 -172.923 9734788
5.6617846 -37.508556 -173.07703 9735555
6.5467219 -37.148235 -173.1902 8156782
7.5339465 -37.105217 -173.21901 8748152
8.5219908 -37.06329 -173.24712 9011323
9.412261 -36.711884 -173.39041 9142904
7.4223323 -36.112244 -173.5804 9143422
8.3808813 -36.079796 -173.60475 9011579
9.423152 -36.091579 -173.61848 9142904
10.261832 -35.896408 -173.7126 10260614
7.7645602 -35.4529 -173.82588 9143422
8.4619513 -35.321369 -173.88295 9011579
9.3879004 -35.10696 -173.9776 8484977
10.398414 -35.009773 -174.04074 9800064
11.28435 -34.999229 -174.06938 8747636
11.962337 -34.67762 -174.20596 8681843
9.4554243 -34.225807 -174.30115 8813686
10.297629 -34.029343 -174.39659 8813942
11.34661 -34.044441 -174.42039 8616818
12.313617 -34.017776 -174.45723 9142906
10.309466 -33.405521 -174.62511 10261132
11.210032 -33.053658 -174.77905 9143417
12.210605 -33.016331 -174.82071 7827558
13.21255 -32.980011 -174.86198 10065289
14.329757 -32.633408 -175.01984 10657169
12.303447 -32.043858 -175.17889 9143417
13.079059 -31.985977 -175.22166 10131081
14.135608 -32.002975 -175.2448 9736323
15.124812 -31.949959 -175.29169 9275260
13.170222 -31.223995 -175.52521 9012344
14.074222 -31.210728 -175.55817 9144186
15.074363 -30.935444 -175.76314 8486519
16.041771 -30.920652 -175.79622 10721940
17.167374 -30.620615 -176.03409 8157555
16.030132 -30.107283 -176.39861 9604487
16.996456 -30.023844 -176.48894 9274747
17.975674 -30.080265 -176.47203 9406331
18.935207 -29.859118 -176.66823 10064779
21.165176 -29.573284 -177.43504 10261641
21.594765 -29.579384 -177.42601 10261641
19.019402 -29.544493 -177.47688 9208435
19.877235 -29.555626 -177.46056 9011061
20.735607 -29.567188 -177.44373 10261641
21.707348 -29.283262 -178.37248 8484461
22.571762 -29.295612 -178.35219 8484461
23.653114 -29.311623 -178.32504 10655626
24.302338 -29.321606 -178.30763 10063750
28.316395 -29.269426 -180.3067 8815227
29.395279 -29.267691 -180.13612 9734787
34.020832 -29.264675 -182.33316 9800582
35.111645 -29.262869 -182.12822 9603460
37.877262 -28.842255 -183.4678 8089963
38.650063 -28.738459 -183.14735 8747893
38.152859 -27.942831 -183.70157 8089963
38.781277 -27.919334 -183.41637 8089963
38.848618 -27.026913 -183.74506 8616307
39.477249 -27.004396 -183.45941 9668995
39.126228 -26.125214 -183.97899 8089963
39.755447 -26.10354 -183.69264 9274237
39.824535 -25.208046 -184.0218 7563619
40.453934 -25.187372 -183.73495 8616307
40.104092 -24.303841 -184.2558 7563619
40.666737 -23.997944 -184.11539 8945015
41.417141 -23.591042 -183.92784 10853012
40.840454 -22.935043 -184.46306 9142651
41.617191 -22.837421 -184.13823 9537408
41.104431 -22.25281 -184.6147 8287341
41.630951 -21.967669 -184.48296 7498081
41.82637 -21.105984 -184.73918 8616307
42.457973 -21.089056 -184.44987 7629411
42.531784 -20.184237 -184.78055 8024680
42.817028 -19.271818 -185.01517 7433830
43.483452 -18.847879 -184.87376 8814196
43.563099 -17.892658 -185.22209 8749435
44.426407 -17.64641 -184.91673 9341571
43.77388 -17.053364 -185.4621 8157555
44.350216 -16.889332 -185.25809 7959661
44.559277 -16.165287 -185.48473 7037274
45.244377 -15.817228 -185.40575 10788500
44.68745 -15.384031 -186.02614 7037274
45.48304 -15.191577 -185.812 8024425
46.252693 -14.911263 -185.68288 7300962
46.692513 -14.505206 -186.50478 7564651
47.335438 -14.495959 -186.23146 10721683
52.207745 -14.248807 -188.33046 9275004
53.109146 -14.24719 -188.07954 10525072
56.267315 -13.927698 -189.69055 10262156
56.91853 -13.91925 -189.38869 10262156
56.857727 -13.253802 -189.68576 10854291
57.644512 -13.196581 -189.34009 11314841
57.067776 -12.488213 -189.8963 12433063
57.757858 -12.1221 -189.72066 12696234
57.927387 -11.203023 -190.01222 13090996
58.358356 -10.559403 -190.06996 13157047
58.435131 -9.8375854 -190.32536 12762802
58.512058 -9.1142664 -190.58125 12762802
-130.13046 -56.752747 -128.57751 11380380
-129.42365 -56.969482 -128.9306 10656914
-128.4921 -57.211716 -129.32532 8683379
-127.73929 -57.265903 -129.72839 9604737
-126.75665 -57.343578 -130.16512 8486000
-126.02938 -57.297089 -130.67073 8813685
-123.33311 -57.200077 -130.69009 11379609
-122.73955 -57.142883 -131.00542 7038307
-121.94737 -57.066784 -131.42238 7564135
-120.95596 -56.971901 -131.93736 9142649
-119.96352 -56.877213 -132.4462 8879477
-119.16866 -56.801582 -132.84833 8090218
-118.37305 -56.726192 -133.24632 9143419
-131.22041 -55.902573 -128.10167 7563619
-130.47694 -56.094624 -128.60822 10130057
-129.62184 -56.058636 -129.31137 9143675
-128.85747 -56.549362 -129.6889 9406846
-113.9783 -56.395844 -133.7242 7563619
-113.38526 -56.340405 -134.0052 8616307
-112.39618 -56.24823 -134.46837 9734784
-111.40632 -56.15633 -134.92551 8682099
-110.61371 -56.082993 -135.28644 7564643
-109.62224 -55.991539 -135.73157 10260100
-108.62984 -55.900257 -136.17052 9537405
-107.83014 -55.82473 -136.51045 8814710
-106.82822 -55.729717 -136.92703 7432800
-132.14272 -55.044823 -127.76379 8813942
-131.39716 -55.236336 -128.27234 9406335
-130.53984 -55.199394 -128.97772 10525071
-130.02574 -55.178097 -129.40025 8617331
-105.82575 -55.634933 -137.33765 6445650
-105.02345 -55.559319 -137.66133 6445650
-104.42161 -55.502762 -137.90161 6445650
-132.95985 -53.711433 -127.62578 8092019
-132.29784 -54.224861 -128.01416 8879992
-131.46107 -54.339966 -128.64156 11380380
-130.81169 -54.387413 -129.14046 10261899
-86.604706 -53.812054 -143.73181 8814454
-85.968147 -53.737457 -143.84648 8814454
-133.23798 -52.997551 -127.70639 8683898
-132.43413 -53.167141 -128.41081 8879478
-131.73447 -53.527138 -128.80345 7563619
-85.120216 -53.638271 -143.99605 7893096
-84.061745 -53.514736 -144.1772 8353651
-83.004898 -53.391605 -144.35252 10984852
-81.949883 -53.268959 -144.52109 12433061
-80.896408 -53.146721 -144.6839 9538174
-78.051895 -52.771969 -146.53143 7565675
-77.424805 -52.703949 -146.62581 7565675
-133.96721 -52.144798 -127.35681 11906980
-133.3739 -52.151573 -128.01913 8156787
-132.85474 -52.374531 -128.44505 7564651
-76.380981 -52.590881 -146.77827 11182485
-75.338669 -52.478291 -146.92503 8617072
-74.506035 -52.388466 -147.03793 8024681
-73.466827 -52.276615 -147.1734 11577243
-70.779037 -51.932762 -148.86662 9010807
-69.736542 -51.821663 -148.97575 9011065
-68.696022 -51.710995 -149.07851 9011065
-134.85866 -51.023998 -126.97276 11905692
-134.28221 -51.296425 -127.46996 11972259
-133.64058 -51.333092 -128.17001 8354166
-67.65889 -51.601921 -149.17924 8682867
-67.045006 -51.542393 -149.25331 8682867
-64.181976 -51.244614 -151.03636 9077881
-63.156944 -51.147812 -151.13879 9012093
-62.133228 -51.051205 -151.23546 8880507
-61.111103 -50.954887 -151.32564 9142903
-58.390896 -50.672951 -152.96939 11905692
-135.13916 -50.308945 -127.05118 8617583
-134.44304 -50.359787 -127.80457 9472387
-57.980354 -50.63443 -152.99536 10590091
-57.364887 -50.57679 -153.03232 8089963
-56.340569 -50.48082 -153.08911 7959407
-55.317837 -50.385147 -153.14035 9209215
-53.569637 -50.195869 -154.63911 10590348
-52.74778 -50.119312 -154.66313 8748403
-51.721996 -50.023804 -154.68837 8682867
-50.698292 -49.928631 -154.70738 9406334
-48.697945 -49.715969 -156.14417 7563619
-48.080086 -49.657562 -156.13869 10524555
-136.02264 -49.08353 -126.73354 10656397
-135.3371 -49.237156 -127.41858 7104858
-134.77071 -49.688187 -127.8063 6512978
-47.462986 -49.599255 -156.13136 13550517
-46.846767 -49.541092 -156.12178 9537918
-46.231285 -49.482933 -156.11024 11511449
-44.186085 -49.263824 -157.47197 9932932
-43.157433 -49.167164 -157.4317 6775383
-42.336262 -49.090084 -157.39529 7037274
-40.460587 -48.88773 -158.71646 11971743
-39.226242 -48.772316 -158.63647 12959920
-136.80075 -48.036957 -126.43579 12894132
-136.23357 -48.114567 -127.02978 9143670
-135.72581 -48.341396 -127.47498 6512978
-37.318779 -48.567684 -159.92188 9736585
-36.494511 -48.490891 -159.85175 8682867
-35.466606 -48.395264 -159.75885 9406333
-33.525948 -48.188309 -160.9982 7038307
-32.702431 -48.111992 -160.90767 7038307
-32.085854 -48.054897 -160.83766 10787727
-30.733419 -47.902973 -162.11626 10787727
-29.908934 -47.826809 -162.0094 10525071
-28.880756 -47.732063 -161.87178 8814710
-137.5809 -46.989906 -126.13593 7037274
-137.14967 -47.260162 -126.47143 11051672
-136.50417 -47.293278 -127.17779 9406846
-27.705353 -47.596699 -163.15665 10261899
-27.086571 -47.539806 -163.06447 8617331
-26.05781 -47.44529 -162.90659 9735810
-24.236614 -47.25106 -164.07173 9736067
-23.207062 -47.156887 -163.89433 14604230
-21.359455 -46.960632 -165.03156 10261641
-20.330124 -46.866852 -164.83398 8617074
-18.45623 -46.668663 -165.9431 8617075
-138.47346 -46.108624 -125.73132 9734788
-137.93808 -46.325428 -126.15656 7958632
-137.33928 -46.327522 -126.82699 8880247
-136.80492 -46.545731 -127.25141 7563874
-17.426918 -46.575188 -165.72609 9735043
-15.733602 -46.39378 -166.85341 7959152
-14.704217 -46.300655 -166.6176 10064011
-13.398438 -46.154446 -167.82364 7038307
-12.779817 -46.098663 -167.67233 7038307
-11.956948 -46.024578 -167.46819 6511442
-10.626309 -45.876308 -168.6595 6510930
-9.802289 -45.802311 -168.44237 9603200
-8.2428942 -45.633617 -169.569 10591630
-140.45056 -44.891041 -125.07588 7563619
-139.84875 -45.021767 -125.54935 8024685
-139.11766 -45.290459 -126.00672 8419443
-138.38777 -45.559978 -126.46214 8287341
-7.8301167 -45.596577 -169.45421 9143422
-7.0068479 -45.522961 -169.222 9866631
-5.2167668 -45.333874 -170.26855 9800838
-4.2001195 -45.134476 -170.39951 8617592
-3.3939443 -44.860432 -170.80074 9275007
-2.3690381 -44.974411 -170.69153 10459019
-152.13904 -44.427616 -121.34327 8353901
-151.55756 -44.427925 -122.07685 9078906
-148.22145 -44.424252 -122.6729 7565675
-147.63329 -44.42453 -123.38741 8618359
-144.49043 -44.420776 -123.7573 11380380
-143.89709 -44.421017 -124.45381 10788244
-141.87317 -44.612041 -124.81529 9142907
-141.271 -44.610947 -125.49583 9142907
-3.1917119 -44.584743 -170.89528 9209467
-2.1722264 -44.364964 -171.11133 10195848
-1.3567396 -44.038048 -171.42311 9012089
-0.33010161 -44.009171 -171.32462 9406335
-1.360684 -43.320183 -171.68748 9537920
-0.45635283 -43.151508 -171.65337 8946041
0.42048967 -43.100941 -171.57869 9143164
-0.4043051 -42.30175 -171.96016 10523788
0.64176881 -42.189205 -171.89034 11248023
1.5160517 -41.808743 -171.93719 9997957
0.48585832 -41.114555 -172.3019 11576730
1.5165247 -41.089909 -172.20135 10721678
2.3403468 -41.07106 -172.12071 7563619
0.6914705 -40.492512 -172.50864 9143934
1.5171617 -40.179279 -172.53601 9933191
2.4607806 -39.98196 -172.50824 8157297
3.306335 -39.748787 -172.50409 7762796
2.4279284 -39.053467 -172.85301 8551798
3.5022044 -39.03141 -172.74692 7697003
4.2056689 -38.770729 -172.7679 8091760
2.7614741 -38.180725 -173.13829 8814969
3.3823771 -38.168407 -173.07686 7894382
4.3339572 -38.109112 -172.99748 8288626
3.4550014 -37.410496 -173.34772 7565674
4.3712039 -37.169796 -173.33881 7828072
5.3218608 -36.964058 -173.31329 8617330
6.0843081 -36.679996 -173.35515 6511954
4.42905 -36.290821 -173.65567 8090986
5.2605472 -36.069916 -173.64851 7301470
6.2987628 -36.061565 -173.58395 6775642
6.9256091 -35.859711 -173.666 9143422
5.2667689 -35.345707 -173.91403 8485744
6.1542277 -34.975266 -173.98718 7630696
7.2337031 -35.033916 -173.97185 9143422
8.1923475 -34.731422 -174.09508 10063753
6.3899989 -34.059498 -174.31662 9866631
7.1572337 -33.996128 -174.35001 8091248
8.2030439 -34.005077 -174.36061 9340287
9.1809874 -33.945393 -174.39687 9011065
7.2366252 -33.234879 -174.62921 7433832
8.0056372 -33.171833 -174.66246 8156270
9.0539351 -33.181732 -174.67442 9603202
10.034808 -33.124313 -174.72035 10261132
8.0865355 -32.409214 -174.94221 7695979
9.0690947 -32.259411 -175.01163 9077116
10.033782 -32.092117 -175.0979 8879991
11.036933 -32.095448 -175.12473 7827558
11.817458 -31.758276 -175.26973 9143417
10.036227 -31.215702 -175.43985 7498852
10.988868 -31.126417 -175.51851 7564643
12.045009 -31.140326 -175.53975 9077880
12.898166 -30.948645 -175.66628 8090987
11.22454 -30.533655 -175.94035 8814710
11.936687 -30.411051 -176.05402 9012344
12.842406 -30.396585 -176.08969 8617586
13.845946 -30.125044 -176.33392 8419951
14.864814 -29.990349 -176.45714 8355191
15.72977 -29.805359 -176.62299 9341315
16.021259 -29.509274 -177.52266 8092019
16.663139 -29.516382 -177.51428 9867398
17.733662 -29.528793 -177.49852 11708313
18.590717 -29.539192 -177.48448 9208435
19.351597 -29.279121 -178.58975 9733499
20.420216 -29.277481 -178.47314 9733499
21.275276 -29.27717 -178.38203 10261641
25.506756 -29.273905 -180.71928 8089963
26.155773 -29.272877 -180.62796 8419699
27.236526 -29.271158 -180.47037 11183260
32.054146 -29.267904 -182.68529 10985367
32.92868 -29.266476 -182.53108 10261388
36.618473 -28.892096 -184.03792 10261388
37.248489 -28.866949 -183.75261 12433069
36.892689 -27.991074 -184.27309 12433069
37.523209 -27.966801 -183.98715 9537665
37.588421 -27.072987 -184.31746 9800579
38.219097 -27.049738 -184.03107 8616307
37.718636 -26.249418 -184.58885 11247250
38.495842 -26.147263 -184.26567 8879479
38.48447 -25.093075 -184.69664 10326405
39.211315 -25.004604 -184.39149 7892584
38.857811 -24.119646 -184.91449 9208435
39.431179 -23.951376 -184.71361 7826790
39.576057 -22.97315 -185.04059 8353134
40.208866 -22.953945 -184.75165 7563619
39.839062 -22.289621 -185.19319 7563619
40.366608 -22.003658 -185.06129 7563619
40.560398 -21.140572 -185.31886 9011575
41.19392 -21.123114 -185.02882 8616819
40.825035 -20.45499 -185.47154 9143163
41.353745 -20.169306 -185.33899 9143163
41.414291 -19.230663 -185.68956 8945784
42.216805 -18.877956 -185.45566 7828074
42.294151 -17.921347 -185.80556 8815227
42.503384 -17.080757 -186.04681 11775140
43.081062 -16.91609 -185.84242 10525587
43.303677 -16.078379 -186.13615 10262415
44.18457 -15.83721 -185.88683 7037274
43.411217 -15.40786 -186.60562 11183260
44.088486 -15.172419 -186.48273 9537920
44.765907 -14.937428 -186.35931 7037274
45.404072 -14.524099 -187.05098 12038823
46.048576 -14.514602 -186.77797 7300962
50.175343 -14.252426 -188.87944 9932678
50.853443 -14.251222 -188.69882 9603714
51.531013 -14.250015 -188.51602 9932934
54.962601 -13.945003 -190.2951 9209467
55.615211 -13.936251 -189.99269 9735554
55.552639 -13.270167 -190.29089 9604225
56.36565 -12.973877 -190.0295 11314841
55.761204 -12.503723 -190.50249 10788497
56.376949 -12.018077 -190.40991 13090735
56.727829 -11.151737 -190.59517 13683129
57.323917 -10.729653 -190.4861 13551541
57.561749 -9.8457479 -190.7314 13354426
57.508663 -8.9621134 -191.11299 13551806
58.254871 -8.7946301 -190.83084 13288633
57.739056 -8.1541624 -191.33113 13683648
58.421703 -7.906467 -191.11113 13683391
58.589233 -7.0157871 -191.39211 13683648
58.82172 -6.2033997 -191.61104 12631215
-126.98532 -57.022812 -130.70985 9077625
-125.90802 -57.078457 -131.27702 8221548
-125.18216 -57.093235 -131.67891 8813685
-124.2057 -57.182083 -131.91951 11379609
-123.24442 -57.103874 -132.48645 9208958
-122.24263 -57.007992 -133.00584 8089963
-128.71059 -55.977585 -130.08072 9736323
-127.90504 -56.276451 -130.57132 10131081
-127.16284 -56.184528 -131.20401 7959658
-126.44373 -56.450008 -131.61913 7629411
-117.37758 -56.63216 -133.73766 7827816
-116.38113 -56.538387 -134.22289 8288880
-115.58319 -56.463524 -134.60616 8617076
-114.78468 -56.388859 -134.98532 9734788
-113.78561 -56.295727 -135.45314 9011061
-112.78578 -56.202923 -135.9149 10985367
-111.98521 -56.12883 -136.27951 10985367
-110.98387 -56.03648 -136.7292 9339765
-129.58827 -55.085861 -129.79463 8090987
-128.91823 -55.179405 -130.2885 8551538
-128.14267 -55.105831 -130.94547 8288623
-127.5724 -55.309227 -131.30766 8682867
-103.81957 -55.446243 -138.1394 7366751
-103.01665 -55.371166 -138.45305 6510930
-102.21349 -55.296185 -138.7626 8419698
-101.20935 -55.202866 -139.14372 7564651
-100.20486 -55.109776 -139.51891 8354419
-99.401169 -55.035519 -139.81441 9144187
-98.396278 -54.943047 -140.17809 7366495
-97.391281 -54.850853 -140.53584 7760997
-96.587204 -54.777328 -140.8174 8484976
-95.78302 -54.703995 -141.09509 7760998
-130.48891 -54.074852 -129.54616 8090987
-129.83531 -54.318237 -129.9565 8090987
-129.05789 -54.243732 -130.61537 8091245
-128.48607 -54.446777 -130.97905 8091245
-95.179916 -54.649132 -141.30084 8484979
-94.576668 -54.594364 -141.5041 9208187
-93.772415 -54.521515 -141.77187 7761515
-92.76712 -54.430832 -142.10086 7433824
-91.761826 -54.340393 -142.42421 9406846
-90.957634 -54.268322 -142.67822 8485744
-89.952492 -54.178524 -142.99016 9143417
-88.939728 -54.084332 -143.28403 11248021
-88.092468 -53.986675 -143.45465 11708316
-87.242012 -53.886753 -143.61446 9866371
-131.58507 -52.951168 -129.19351 7826790
-130.7795 -53.252449 -129.6987 7564131
-130.04553 -53.249451 -130.28918 9077625
-129.40274 -53.584129 -130.64803 8617331
-84.188812 -53.466648 -145.58315 7038307
-83.335052 -53.367386 -145.7195 8024943
-82.482353 -53.268463 -145.85187 9538174
-81.418137 -53.145191 -146.01146 9998724
-80.357033 -53.023277 -146.16776 9011576
-79.517204 -52.931175 -146.30212 9011576
-78.679535 -52.840084 -146.43459 9406592
-132.51135 -52.089512 -128.85437 9866371
-131.70508 -52.101265 -129.49597 10063492
-131.05281 -52.150372 -129.99638 8879477
-75.80793 -52.472038 -148.26068 10261382
-74.756836 -52.358822 -148.39856 9669503
-73.917229 -52.268627 -148.50436 8090987
-72.869423 -52.156269 -148.63098 8945782
-71.823265 -52.044281 -148.75201 9734528
-69.74054 -51.771687 -150.37492 9010808
-69.121117 -51.712765 -150.45729 9931910
-68.502121 -51.653938 -150.53773 9010808
-133.3663 -51.037502 -128.62634 7564651
-132.7245 -51.287334 -129.05963 7563620
-131.94044 -51.210438 -129.72499 9734527
-131.36302 -51.41288 -130.09338 10458249
-68.089691 -51.614849 -150.58994 8090216
-67.265518 -51.536606 -150.69109 7564128
-66.23629 -51.439041 -150.81258 7235421
-65.208504 -51.341747 -150.92734 8683123
-62.511627 -51.060436 -152.65645 8681835
-61.479088 -50.963142 -152.74399 11378324
-60.44817 -50.86618 -152.82495 10720906
-59.41877 -50.769405 -152.90028 9010803
-58.80188 -50.711475 -152.94254 11905692
-134.05595 -50.141243 -128.35934 7564651
-133.62292 -50.411888 -128.68642 7564651
-132.86946 -50.346394 -129.3847 7564135
-132.29033 -50.548641 -129.75468 7563619
-56.869453 -50.504025 -154.50362 9602940
-55.836227 -50.407448 -154.55264 8485494
-54.804897 -50.311131 -154.59528 9274748
-53.98111 -50.234211 -154.62556 8814195
-52.000004 -50.023556 -156.11909 8682867
-51.172958 -49.946674 -156.13159 10129799
-49.934605 -49.831726 -156.14388 9603714
-49.110279 -49.755032 -156.14665 8813942
-135.00929 -48.793949 -128.0304 8288618
-134.50656 -49.244984 -128.34656 7893868
-133.84827 -49.340221 -129.02454 7959403
-133.2209 -49.6838 -129.41344 8486000
-47.908333 -49.614548 -157.57089 7564643
-47.2859 -49.555828 -157.55951 7564643
-46.250324 -49.458179 -157.53595 8617331
-45.216946 -49.360806 -157.507 9209467
-43.562363 -49.178471 -158.88148 8617330
-42.52599 -49.0812 -158.83194 7696485
-41.491943 -48.984318 -158.77721 9603711
-39.802055 -48.799324 -160.11145 9735555
-38.765594 -48.702572 -160.0361 9736070
-37.938137 -48.625401 -159.97234 11907751
-135.43941 -48.075829 -127.94253 7762020
-134.74022 -48.127102 -128.69922 7695971
-134.2323 -48.355972 -129.14346 8486000
-35.80011 -48.399414 -161.22916 9735554
-34.764702 -48.303204 -161.12756 10261903
-34.144737 -48.245655 -161.0639 7038307
-33.01086 -48.11351 -162.39143 8090990
-31.974022 -48.017605 -162.26929 8617073
-31.146423 -47.941116 -162.16811 9143417
-29.361252 -47.749161 -163.39299 9209468
-28.32542 -47.653778 -163.24686 10130570
-136.14561 -47.146549 -127.66096 8025192
-135.5771 -47.225597 -128.25563 8222570
-135.12822 -47.229721 -128.75729 6511954
-26.305023 -47.440681 -164.41151 8551538
-25.269165 -47.345654 -164.24432 9077625
-23.428413 -47.149494 -165.41132 9932422
-22.392357 -47.054874 -165.22375 10064264
-20.732426 -46.875652 -166.40373 10854036
-19.695766 -46.781315 -166.19724 9735297
-136.97493 -46.113605 -127.4079 7563874
-136.44023 -46.332413 -127.83218 6511954
-135.8625 -46.408577 -128.42015 11182996
-17.595036 -46.562405 -167.26604 10261131
-16.766239 -46.487236 -167.08464 7564651
-14.847222 -46.285255 -168.16949 7827821
-14.018544 -46.210419 -167.97296 7564649
-12.074494 -46.006561 -169.03181 7234653
-11.246087 -45.931999 -168.82011 6510930
-9.8997622 -45.782074 -170.02101 10591630
-9.2773371 -45.726261 -169.85283 10591630
-8.6561136 -45.670551 -169.68321 13157042
-138.94583 -44.891525 -126.76365 9734788
-138.2365 -45.211086 -127.09628 7300702
-137.58795 -45.374359 -127.60412 7300702
-136.88475 -45.566357 -128.14172 6511186
-7.3830457 -45.377308 -170.75699 9998727
-6.3748937 -45.095348 -170.77203 9603970
-5.4441915 -44.833397 -170.91246 8683125
-4.4880338 -44.745613 -170.89885 9012093
-150.82542 -44.428299 -122.98977 11447199
-150.23627 -44.4286 -123.71725 12959666
-146.89375 -44.424858 -124.27702 7039331
-146.29817 -44.425117 -124.98527 7039331
-143.15121 -44.42131 -125.32085 11051416
-142.3998 -44.421585 -126.1831 8616307
-140.8185 -44.610554 -126.00547 8419443
-140.3651 -44.6105 -126.51434 7169634
-139.75949 -44.610897 -127.19178 9077115
-5.4642453 -44.302368 -171.46136 9011832
-4.5647283 -44.151943 -171.60966 9538176
-3.4954534 -44.138969 -171.59312 9867141
-2.7281499 -44.010288 -171.57912 11708572
-4.2455182 -43.510201 -171.92421 9011832
-3.5883756 -43.160408 -171.983 9143165
-2.5987668 -43.048092 -171.9191 12037537
-1.6385199 -42.746296 -171.92801 9998213
-2.6062779 -42.123154 -172.25993 11511194
-1.6985594 -41.953285 -172.22581 10063493
-0.81815398 -41.90181 -172.15115 9668478
-1.7860914 -41.173847 -172.52168 8155755
-0.54608977 -41.140694 -172.40201 9734014
-1.514649 -40.411209 -172.77312 7037274
-0.75687087 -40.116589 -172.80086 9142135
0.22580278 -40.040638 -172.72424 8551541
1.1041216 -39.659447 -172.77101 7565675
-0.55292571 -39.286789 -173.08408 10260358
0.27551973 -39.060478 -173.07927 10196106
1.3110346 -39.036545 -172.97798 7960175
1.9321054 -38.816742 -172.99278 7565675
0.27396333 -38.234859 -173.38293 7565675
1.0518755 -38.062313 -173.36362 8946555
2.1402011 -38.193592 -173.19966 8025968
1.4153703 -37.17625 -173.65065 7434086
2.1422572 -37.160992 -173.57899 8157553
3.04211 -37.005344 -173.54051 7565674
2.2135653 -36.19434 -173.92668 9012606
3.1007304 -36.149536 -173.84889 8091761
4.0157886 -35.987896 -173.811 7630693
3.0215297 -35.156746 -174.22221 9012606
4.0213008 -35.055885 -174.15297 9275262
4.9944758 -34.763199 -174.15714 10261899
4.0268931 -34.122391 -174.49551 7828846
4.9452052 -33.961926 -174.45683 8814968
5.8347316 -33.921387 -174.38235 9603972
4.9511752 -33.213993 -174.73117 8946554
5.9117351 -33.159149 -174.65669 8880507
6.6797252 -33.092041 -174.67397 7433064
5.1527438 -32.406403 -175.00655 8880506
5.9220347 -32.118599 -175.03755 7433064
6.9175754 -32.174309 -175.01244 7762029
7.8148456 -31.816368 -175.15517 8090737
8.6571608 -31.719059 -175.20197 7564651
6.1398654 -31.2829 -175.32777 7038307
6.8434558 -31.153708 -175.41745 10854036
7.8268275 -31.093834 -175.46761 8946044
8.8796377 -31.102198 -175.47693 7564651
9.7287474 -30.909508 -175.61061 7301474
7.8436503 -30.500319 -175.89159 9735046
8.7778311 -30.349792 -176.01993 7959408
9.7999029 -30.205349 -176.17754 7827816
10.608424 -30.136887 -176.26247 8814710
11.595561 -29.913437 -176.4729 8090987
12.751174 -29.770336 -176.61841 8683124
13.456325 -29.483465 -177.54796 10130570
14.524436 -29.493752 -177.53902 8092019
15.379558 -29.502468 -177.53017 8683899
17.212265 -29.282379 -178.80322 10458246
18.282116 -29.28076 -178.69952 9997951
23.341412 -29.277311 -181.00679 8681835
23.991436 -29.276293 -180.92316 8092019
24.857544 -29.274933 -180.80818 8090991
29.864552 -29.271461 -183.05122 9208955
30.740974 -29.270042 -182.90768 8945527
31.61657 -29.268618 -182.76048 10985367
33.714775 -29.102301 -184.38544 9144187
34.414009 -28.897045 -184.46701 8881015
35.457077 -28.965109 -184.42134 7828075
36.003151 -28.694395 -184.40625 8617080
34.686874 -28.233065 -184.71272 9735812
35.389011 -28.027029 -184.79451 9406338
36.260841 -28.015724 -184.55937 8617080
35.66415 -27.361021 -185.04085 8617080
36.323917 -27.120489 -184.89125 7827566
36.956833 -27.096535 -184.60411 9735046
36.452347 -26.295557 -185.16405 8946044
37.16713 -26.120214 -184.89966 9537661
36.646324 -25.541483 -185.37752 9735046
37.313091 -25.069153 -185.25557 9931902
37.963436 -24.82258 -185.05019 10984078
37.589798 -24.161362 -185.49234 9208435
38.117283 -23.874058 -185.36101 9208435
38.307556 -23.012444 -185.6196 9603195
38.94241 -22.992611 -185.3299 9142905
38.357655 -22.334179 -185.86995 10787983
39.098206 -22.040813 -185.6411 9800833
39.159653 -21.225349 -185.9415 9471869
39.925949 -21.158234 -185.60925 12433061
39.341751 -20.495356 -186.15083 10261384
40.070255 -19.965025 -186.02333 10129801
40.312836 -18.879496 -186.34785 9011058
40.949841 -18.863556 -186.05556 9669251
41.021248 -17.951012 -186.39052 9735038
41.22897 -17.10906 -186.63304 11051407
41.808022 -16.943758 -186.42818 11182227
42.027771 -16.104345 -186.71898 10261123
42.131256 -15.432495 -187.18617 9208435
42.945004 -15.149234 -187.03883 10458760
43.896317 -14.547031 -187.6875 11183001
44.758514 -14.533847 -187.32378 13881026
48.590462 -14.255222 -189.29086 8089963
49.496563 -14.253625 -189.05728 9011320
53.654881 -13.963114 -190.90074 9735812
54.308998 -13.953959 -190.59778 10590606
53.701714 -13.485509 -191.07156 9735812
54.380257 -13.237648 -190.85355 10656400
55.058697 -12.990188 -190.63539 13550517
54.540436 -12.359218 -191.13303 12235172
55.243931 -11.871635 -191.00009 13287602
55.494858 -10.828974 -191.30334 13616567
56.151012 -10.821939 -190.9986 13682618
56.249481 -9.8584051 -191.34138 13880769
56.335972 -9.0128832 -191.64214 14078664
57.031055 -8.6440859 -191.46519 13683648
56.422749 -8.1649952 -191.94366 14210507
57.106358 -7.9168987 -191.7234 13881283
57.789845 -7.6690521 -191.50304 14078918
57.271923 -7.0252905 -192.00572 13815234
58.021114 -6.8577662 -191.72215 13881283
57.502796 -6.2119398 -192.22575 13881283
58.188267 -5.9635396 -192.00478 13617854
58.873608 -5.7153902 -191.78374 13552573
58.265358 -5.2304516 -192.26451 13157303
58.951653 -4.9818754 -192.04323 12170408
-124.9099 -56.938343 -132.34212 10590097
-124.38197 -56.914661 -132.73883 9208958
-123.651 -56.871517 -133.23772 9734788
-122.91908 -56.828766 -133.73335 8617075
-121.44028 -56.931503 -133.41637 8089963
-120.63725 -56.855171 -133.82259 8090987
-119.83354 -56.778927 -134.22467 7892584
-119.23032 -56.721954 -134.52357 9011065
-126.77538 -55.728798 -131.75056 7039331
-126.12854 -56.060329 -132.09273 8025455
-125.38206 -56.34066 -132.51909 8551542
-124.69495 -56.317398 -133.069 8222317
-123.91029 -56.497387 -133.51385 9143163
-118.62668 -56.665024 -134.81976 7563619
-117.8212 -56.589211 -135.21123 7563619
-117.01512 -56.513596 -135.59846 8813171
-116.00667 -56.419388 -136.07632 7432031
-115.19926 -56.344151 -136.45438 7366237
-109.98172 -55.944332 -137.1729 10787211
-109.17816 -55.870209 -137.52138 11905436
-108.36892 -55.793556 -137.85916 13023917
-107.55899 -55.7169 -138.19234 10985364
-127.23064 -55.029247 -131.71336 7499624
-126.43294 -55.047657 -132.34488 7894126
-125.70503 -55.337391 -132.7932 7499625
-125.06926 -55.675171 -133.14502 8090987
-106.95135 -55.659546 -138.43964 6445650
-106.34356 -55.60228 -138.68437 6445650
-105.53293 -55.526108 -139.00723 6971994
-104.51928 -55.431229 -139.40486 7695716
-103.50533 -55.33662 -139.79651 7366751
-102.69395 -55.261127 -140.10515 7893612
-101.67953 -55.167046 -140.48494 10854296
-100.66484 -55.073338 -140.85884 8287856
-99.852997 -54.998516 -141.15324 7037274
-98.838036 -54.905415 -141.51544 8419952
-97.822968 -54.812527 -141.87175 10656401
-97.010773 -54.738434 -142.1521 7037274
-96.401726 -54.683014 -142.35997 7037274
-128.14368 -54.166061 -131.38553 7236453
-127.34408 -54.183613 -132.01903 7302245
-126.69733 -54.237217 -132.51289 7894126
-95.792557 -54.627739 -142.56525 8484979
-94.980392 -54.554234 -142.83562 9931651
-94.168198 -54.480923 -143.10208 7038307
-93.153015 -54.389576 -143.4294 9406846
-92.137909 -54.298473 -143.75089 7959912
-91.325897 -54.225883 -144.00352 10787727
-90.311089 -54.135456 -144.31364 8617073
-89.296387 -54.045391 -144.61807 9472126
-88.473602 -53.966747 -144.83896 8945271
-87.40062 -53.841454 -145.0354 9208699
-86.328278 -53.716038 -145.22452 7893096
-129.97838 -52.708344 -130.597 10854036
-129.05989 -53.302715 -131.05525 8486003
-128.25832 -53.319416 -131.69073 8091245
-127.60999 -53.372341 -132.18619 7565160
-85.471672 -53.616032 -145.37096 7037274
-84.829918 -53.54126 -145.4783 7038307
-81.947449 -53.143509 -147.35999 9538174
-80.877136 -53.021664 -147.51598 9209466
-79.817123 -52.905781 -147.68164 9011576
-78.971107 -52.813961 -147.811 7631208
-78.126175 -52.722393 -147.93642 8683642
-130.90065 -51.844803 -130.26183 8617331
-130.07849 -52.134911 -130.78555 9735555
-129.23329 -52.232735 -131.41801 9340797
-128.55627 -52.29921 -131.93021 8551538
-77.493088 -52.653965 -148.02788 9867401
-76.860641 -52.585583 -148.11703 8419953
-74.162537 -52.237804 -149.88092 8617073
-73.315971 -52.147144 -149.97951 8090987
-72.259521 -52.034252 -150.0972 9339771
-71.204826 -51.921741 -150.20918 8681843
-70.363304 -51.832722 -150.29602 8550257
-131.01857 -51.129902 -130.50258 9866370
-130.21219 -51.145287 -131.14258 8879987
-129.55994 -51.19722 -131.64166 9208179
-67.48822 -51.530693 -152.15132 9734270
-66.656616 -51.451923 -152.24529 10129285
-65.618172 -51.353634 -152.35762 7959144
-64.581215 -51.255638 -152.4633 7433056
-63.545639 -51.157902 -152.56313 9668730
-60.811363 -50.873631 -154.26321 8813939
-59.979435 -50.795528 -154.32121 8419183
-58.941078 -50.698086 -154.38795 9011065
-131.94521 -50.264923 -130.1647 9602426
-131.1367 -50.279625 -130.80669 8681835
-130.48271 -50.331009 -131.30743 9208179
-57.904316 -50.600925 -154.44905 8813686
-55.321594 -50.332874 -156.02946 10195594
-54.281422 -50.235901 -156.06406 9932678
-53.243336 -50.139187 -156.09239 10722193
-52.414085 -50.062016 -156.11122 11708572
-50.404736 -49.848927 -157.58929 10326924
-49.364117 -49.752117 -157.58916 9406078
-48.531761 -49.673462 -157.57999 8156524
-133.63268 -48.797234 -129.49895 7366495
-132.89278 -49.219532 -129.89467 9010803
-132.1234 -49.190159 -130.52596 9010544
-131.40884 -49.464302 -130.97076 8681835
-46.477455 -49.452534 -158.98947 11248024
-45.642605 -49.373993 -158.96313 9209467
-44.601345 -49.276054 -158.92499 10853521
-42.509212 -49.052544 -160.2809 9538432
-41.88298 -48.993927 -160.24504 9077881
-40.841244 -48.896465 -160.18088 10590092
-38.922745 -48.690071 -161.50217 9144191
-38.296165 -48.631638 -161.45166 9736070
-133.91928 -48.082756 -129.58755 8025193
-133.11421 -48.09948 -130.24243 8747376
-132.59172 -48.079891 -130.67096 10128513
-37.879074 -48.592819 -161.41682 10854036
-37.046238 -48.515293 -161.34428 10460046
-35.093544 -48.306564 -162.61928 7563618
-34.25914 -48.22913 -162.5307 8616306
-33.634399 -48.17128 -162.46211 7038307
-32.27739 -48.0182 -163.77477 8617331
-31.441879 -47.941059 -163.66971 10064261
-30.399906 -47.84491 -163.53421 10722450
-28.594971 -47.651043 -164.76154 9604226
-134.67899 -47.234486 -129.25893 7037274
-134.0497 -47.231194 -129.89899 9012856
-133.38969 -47.281464 -130.40508 7959144
-27.552233 -47.55518 -164.60548 10591121
-25.510551 -47.34005 -165.77068 10459278
-24.676058 -47.263638 -165.62936 9538176
-24.051647 -47.206467 -165.52135 10459278
-22.607094 -47.046467 -166.7625 12432045
-21.772711 -46.970448 -166.60481 9405822
-19.885735 -46.770325 -167.74869 9011320
-19.050991 -46.694519 -167.57574 10590356
-18.21806 -46.618912 -167.40007 9735043
-135.56416 -46.128796 -129.01389 9998979
-135.03185 -46.219158 -129.53203 7301470
-134.34148 -46.416904 -130.07487 8947063
-17.138065 -46.492489 -168.69398 7565675
-16.303257 -46.416893 -168.50578 8814459
-15.47025 -46.341526 -168.31487 8814203
-14.15598 -46.194042 -169.54759 8090992
-13.321584 -46.118843 -169.3436 8090992
-12.697267 -46.06255 -169.18871 8090992
-11.356931 -45.910038 -170.39583 8682355
-10.523664 -45.838078 -170.18744 9998982
-137.58411 -44.895058 -128.27599 7037274
-136.72717 -45.217876 -128.77531 7827557
-136.1738 -45.301361 -129.27786 9537662
-10.363301 -45.567299 -170.87025 15722454
-9.5468645 -45.25135 -170.94531 9144442
-8.6102686 -45.050961 -170.97404 8091755
-7.5805135 -44.84103 -171.01393 8946039
-149.79182 -44.42881 -124.26071 15722454
-149.19627 -44.429089 -124.98302 10262670
-145.84933 -44.425301 -125.51467 8090992
-145.39836 -44.425484 -126.04243 8090992
-144.94572 -44.425663 -126.56857 6511962
-141.49146 -44.421898 -127.21197 8090477
-140.88203 -44.422092 -127.8945 8419443
-139.30434 -44.611538 -127.6991 8419443
-138.69624 -44.613022 -128.37434 8617334
-8.5495043 -44.343563 -171.46857 8091499
-7.7258382 -44.328865 -171.45786 10261899
-6.7090154 -44.15876 -171.72339 10459278
-5.7492986 -44.080734 -171.75447 8682867
-5.0665326 -43.948509 -171.85033 9011832
-6.7281957 -43.594357 -172.15729 8090987
-5.8533292 -43.203495 -172.20792 9340797
-4.7820973 -43.116222 -172.12614 9669762
-4.0482945 -42.681206 -172.2081 8419698
-5.5034451 -42.31609 -172.49696 9932934
-4.8841176 -42.089893 -172.5143 9472383
-3.8482556 -42.057426 -172.41611 9274750
-3.0223699 -41.826664 -172.41315 10590351
-4.6871953 -41.258877 -172.79884 9998727
-3.8593984 -41.02729 -172.79593 8419957
-2.820889 -41.202923 -172.62096 8814201
-3.8682256 -40.202164 -173.10017 9012606
-2.9859433 -40.12505 -173.03468 8683128
-1.931645 -40.010071 -172.96489 8089704
-2.7686276 -39.207027 -173.34906 8485746
-2.0069661 -39.117661 -173.30092 7958632
-1.0518767 -39.05172 -173.22362 9207928
-1.9091116 -38.184933 -173.63335 8287853
-0.97347701 -38.058025 -173.58051 7630435
-0.038239121 -37.932228 -173.52733 9801858
-1.1168143 -37.095875 -173.94943 7499105
-0.14492095 -37.003998 -173.87988 9407870
0.82630479 -36.913189 -173.80997 7960424
-0.063671708 -36.214954 -174.16122 9933958
0.89510286 -36.152489 -174.08228 10262923
1.6588434 -36.067486 -174.03229 9012606
0.2686075 -35.54401 -174.37254 9933958
