# .PCD v0.7 - Point Cloud Data file format
VERSION 0.7
FIELDS x y z rgb
SIZE 4 4 4 4
TYPE F F F U
COUNT 1 1 1 1
WIDTH 1182
HEIGHT 1
VIEWPOINT 0 0 0 1 0 0 0
POINTS 1182
DATA ascii
53.0686 -23.289566 -178.57933 9209467
53.90971 -23.050264 -178.28175 9865600
53.858803 -22.237858 -178.63354 8616048
54.617039 -22.148865 -178.31412 8616048
54.073193 -21.492563 -178.83397 8616048
54.816212 -21.096733 -178.64548 10326407
55.518444 -20.72353 -178.46704 11050642
55.059246 -19.913668 -179.0092 10129798
55.802822 -19.85614 -178.6839 10984849
55.771435 -19.00699 -179.0414 9011831
56.532654 -18.920078 -178.71977 10129798
56.07402 -18.105453 -179.26352 8814452
56.691048 -18.09593 -178.97821 10984337
57.332287 -17.861988 -178.77206 11904668
56.789455 -17.195868 -179.29539 10984337
57.55241 -17.109953 -178.97252 11247252
57.069653 -16.516445 -179.4384 9209467
57.667862 -16.062222 -179.40941 10524042
58.568233 -15.755919 -179.19342 10919058
58.698578 -15.060575 -179.71881 9801347
59.609955 -14.868206 -179.47394 9801348
60.722183 -14.336693 -180.4212 9538176
61.558727 -14.329022 -180.05101 8682867
70.261353 -14.214821 -182.38843 9538432
71.313965 -13.885538 -182.51407 10524815
72.226456 -13.770646 -182.27145 9735299
71.467072 -13.067396 -182.91098 10524303
72.241737 -13.015128 -182.56917 9801092
72.233063 -12.115829 -182.93619 10261387
73.027237 -12.032165 -182.59796 9209213
72.573135 -11.164397 -183.16086 9537666
73.215286 -11.160867 -182.8615 9537667
73.889313 -10.919613 -182.64313 10261132
73.34314 -10.208051 -183.18613 8879995
73.986145 -10.204793 -182.88625 9340289
73.653893 -9.4905634 -183.33006 8419702
74.040504 -9.0103006 -183.34285 7959408
74.277771 -8.0507374 -183.61902 9208443
-117.65047 -55.919407 -138.75523 9669251
-116.58354 -56.052311 -139.18655 8089963
-115.64273 -56.166 -139.42284 10787472
-114.90033 -56.130024 -139.89131 10261644
-114.31905 -56.091606 -140.21133 7038307
-110.43275 -55.818264 -140.21536 9209467
-109.81267 -55.75964 -140.46791 8617330
-109.19238 -55.701214 -140.71832 8090986
-118.59703 -55.316029 -138.51291 9011321
-117.73752 -55.302231 -139.19304 7826791
-117.1548 -55.508671 -139.52187 8089963
-108.77885 -55.662292 -140.8839 9209467
-107.95155 -55.584675 -141.21144 10262155
-106.91714 -55.487873 -141.61575 9209214
-106.08939 -55.410664 -141.93433 9011320
-105.26157 -55.333645 -142.24872 7563619
-104.43349 -55.256927 -142.55899 8155755
-99.629303 -54.895897 -142.74521 9011833
-99.014145 -54.839725 -142.95979 8288110
-98.194 -54.764973 -143.24261 9011574
-97.578812 -54.709038 -143.45224 10458505
-120.33635 -53.789715 -137.83493 8090987
-119.57651 -54.095215 -138.30171 8616819
-118.75014 -54.274071 -138.88133 7958377
-118.07445 -54.645721 -139.24954 7563619
-96.963638 -54.653198 -143.65933 9011574
-96.143372 -54.578934 -143.93207 8090987
-95.323257 -54.504856 -144.20084 7564643
-94.298088 -54.41267 -144.53096 9933192
-93.273018 -54.320766 -144.85526 8156787
-92.453064 -54.247467 -145.11009 9143420
-91.428299 -54.156136 -145.42287 9011831
-90.403664 -54.065136 -145.72986 8090987
-89.584183 -53.992611 -145.97081 9209467
-88.556168 -53.899902 -146.25998 7696228
-87.488235 -53.783142 -146.47687 8287336
-86.838333 -53.707264 -146.5878 9208435
-120.43947 -53.081093 -138.08464 9603969
-119.6413 -53.113747 -138.71017 11051416
-119.07478 -53.328125 -139.06454 9011321
-86.405472 -53.656776 -146.66023 7366237
-85.756737 -53.581245 -146.76695 8616301
-84.676895 -53.455742 -146.9397 11181969
-83.598801 -53.330685 -147.10654 9274748
-82.737709 -53.230938 -147.23531 9538174
-81.66304 -53.106785 -147.39032 8946293
-80.596085 -52.986874 -147.55017 8354158
-79.749237 -52.894806 -147.68321 9011576
-78.692123 -52.780109 -147.84369 7565675
-77.847488 -52.688564 -147.96811 9867401
-121.30135 -52.176647 -137.81696 10985621
-120.6324 -52.284504 -138.30345 10130313
-120.02587 -52.231159 -138.81554 10261641
-77.425598 -52.642975 -148.0287 9867401
-76.79332 -52.574642 -148.11757 8419953
-72.6147 -52.068485 -150.04947 8681843
-71.981407 -52.000866 -150.11835 9208185
-71.137985 -51.910992 -150.20706 8681843
-70.090439 -51.802551 -150.32257 8681843
-69.056572 -51.703403 -150.45854 9931910
-122.43687 -50.82439 -137.53975 10328465
-121.61374 -51.366524 -137.94627 10261900
-120.7942 -51.42762 -138.57581 9735297
-68.025406 -51.605488 -150.5905 8090216
-66.995308 -51.507755 -150.71651 6511954
-65.966698 -51.410248 -150.83595 7959144
-64.939209 -51.313026 -150.94951 9077881
-64.323349 -51.254826 -151.01459 8682867
-61.208878 -50.93446 -152.75848 11378324
-60.38446 -50.85685 -152.82231 10720906
-59.355217 -50.76017 -152.89728 9010803
-58.533028 -50.682968 -152.95268 11247763
-123.19888 -49.835636 -137.39201 8354934
-122.5475 -50.091278 -137.79512 9144449
-121.72477 -50.344574 -138.3369 10262157
-57.91703 -50.625179 -152.99185 10590091
-57.301743 -50.567539 -153.02855 7564135
-56.277634 -50.471607 -153.08498 7959407
-55.459427 -50.395103 -153.1263 8485494
-53.095592 -50.148323 -154.646 8814195
-52.479618 -50.090954 -154.6628 8682867
-51.45451 -49.99556 -154.68611 9406333
-50.431305 -49.900448 -154.70401 8748404
-49.410137 -49.805668 -154.71571 9603714
-48.593678 -49.729145 -154.71861 8813942
-124.28128 -48.964184 -136.93187 6510930
-123.5356 -49.172813 -137.43282 7959661
-122.67252 -49.1572 -138.13327 8354934
-46.784279 -49.531647 -156.11258 9537918
-45.759277 -49.434933 -156.09163 11642779
-44.736423 -49.338612 -156.06537 9143681
-43.715973 -49.242538 -156.03319 8946044
-41.659508 -49.023052 -157.35432 8616563
-40.84145 -48.946369 -157.31117 8090987
-39.820885 -48.85078 -157.25275 9867395
-38.802853 -48.755577 -157.18846 11841443
-124.38863 -48.251385 -137.18039 6774102
-123.58194 -48.280621 -137.81447 8814970
-123.00861 -48.493698 -138.17493 7565675
-36.707317 -48.533669 -158.43961 8682867
-35.8918 -48.457714 -158.37099 12300709
-34.874542 -48.363018 -158.28079 13024175
-34.26548 -48.306393 -158.22412 9537665
-32.134869 -48.082439 -159.41089 8090991
-31.118723 -47.988319 -159.29572 7038307
-30.307842 -47.913307 -159.19963 7433064
-28.755253 -47.743492 -160.41463 10984590
-28.145594 -47.687325 -160.33228 11445141
-27.536972 -47.631264 -160.24821 10984590
-125.38693 -47.142052 -136.89949 7103067
-124.54938 -47.181118 -137.55379 7563618
-123.97432 -47.39399 -137.91562 9142907
-26.929432 -47.575306 -160.16222 9537918
-26.322838 -47.519535 -160.07455 9537918
-24.941502 -47.366051 -161.28241 10262667
-24.333162 -47.310219 -161.18515 10789267
-23.321882 -47.217564 -161.0192 8222829
-22.514803 -47.143711 -160.88327 7563619
-21.102966 -46.987938 -162.05884 16777199
-20.294556 -46.914192 -161.90924 12433837
-19.28669 -46.822323 -161.7182 11709858
-18.049717 -46.682808 -162.90987 11380380
-17.443718 -46.627789 -162.78589 9932934
-126.88841 -45.917568 -136.46159 8089963
-126.2644 -46.112705 -136.77727 8616049
-125.5704 -46.098778 -137.34456 8089963
-124.944 -46.293484 -137.65425 8089963
-16.436338 -46.536285 -162.57523 7959400
-14.366808 -46.321686 -163.56931 8814203
-13.56164 -46.248848 -163.38509 9340800
-12.959072 -46.194412 -163.24512 7367781
-11.467834 -46.032513 -164.34692 9867145
-10.663624 -45.960136 -164.14705 8221804
-9.8613834 -45.887894 -163.94479 8089963
-8.3449593 -45.724125 -165.02295 8089963
-7.7427197 -45.670105 -164.86143 8813428
-7.1417522 -45.616188 -164.69838 8089963
-129.82414 -44.797657 -135.63194 10261132
-129.31227 -44.789318 -136.07632 10261132
-128.41023 -44.946953 -136.43683 9932424
-127.46935 -45.34903 -136.55525 9142392
-126.71407 -45.361267 -137.14937 8747891
-6.7418633 -45.580368 -164.58882 8089963
-5.6018219 -45.450554 -165.75781 10261899
-4.8000755 -45.378941 -165.5274 9472640
-4.000412 -45.30756 -165.29463 9144449
-2.6362801 -45.157829 -166.3909 9933708
-1.835972 -45.085804 -166.14267 10985110
-1.236847 -45.023804 -165.9243 10985110
0.15025699 -44.877644 -167.02515 8616819
0.94905841 -44.790512 -166.70441 7039331
2.7569237 -44.598457 -167.62788 8684155
-142.0573 -44.433041 -133.13643 8881534
-141.57906 -44.433151 -133.65047 8092019
-138.04596 -44.429043 -134.14929 8552313
-137.40321 -44.429153 -134.8152 9144449
-134.24034 -44.424984 -134.93286 10328463
-133.5939 -44.42506 -135.58037 7039331
-131.3002 -44.532932 -135.52682 9669509
-130.44423 -44.518307 -136.27245 8814457
3.1555481 -44.554962 -167.46033 13551549
3.7520409 -44.489811 -167.20773 10262929
5.1832047 -44.338898 -168.27914 7564643
5.9769478 -44.245075 -167.90228 9670019
8.0168037 -43.983101 -168.52232 8092011
9.8766136 -43.74799 -169.24435 11314327
10.667622 -43.665058 -168.88078 8090987
12.765736 -43.494232 -169.82254 8419440
13.35915 -43.438282 -169.56233 8419440
14.866215 -43.253231 -170.48149 8090986
15.676182 -43.234459 -170.34131 8090986
16.4632 -43.041676 -170.69626 7301212
17.588715 -42.870342 -170.9543 6775126
18.50816 -42.758419 -171.04774 8617073
19.486103 -42.659412 -171.27362 7039331
20.304611 -42.655533 -171.16992 10853012
18.895035 -42.268173 -171.57127 8288627
19.595177 -42.152142 -171.63817 7828333
20.484089 -42.147236 -171.64595 9537923
21.489372 -42.094784 -171.68729 9537409
22.494331 -42.038727 -171.70944 8287342
23.440704 -41.75489 -171.91025 10722706
24.587193 -41.634911 -172.01431 12959924
20.603268 -41.506508 -171.96039 9537923
21.449219 -41.325726 -172.05043 7563619
22.373074 -41.009705 -172.19212 7563619
23.356728 -40.972698 -172.2334 7564135
24.409134 -41.008442 -172.25005 9999244
25.396626 -40.973774 -172.2906 10000007
26.107861 -40.860718 -172.35202 7038298
22.54446 -40.323917 -172.44781 8155756
23.395954 -40.143627 -172.53781 8090737
24.36375 -40.217258 -172.53821 7762029
25.36121 -39.949635 -172.66428 8682870
26.363865 -40.036953 -172.6606 8354158
27.290482 -39.931618 -172.72531 9406847
28.29781 -39.690845 -172.84186 9537659
24.34708 -39.412296 -172.83215 8222579
25.353745 -39.064034 -172.98799 9866627
26.294498 -38.950195 -173.05621 9669504
27.26965 -39.026276 -173.05591 9932419
28.33408 -39.065117 -173.07175 9471865
29.413074 -38.89629 -173.16385 9076851
26.35257 -38.263039 -173.3092 11445400
27.365444 -38.06789 -173.40907 10458503
28.268715 -38.075977 -173.43144 9668730
29.305794 -38.001507 -173.48776 10260612
30.282284 -38.006477 -173.51334 10656141
31.124409 -37.84272 -173.59682 10129798
28.228474 -37.176361 -173.759 10260611
29.22316 -37.043602 -173.83546 10457992
30.258324 -36.997101 -173.88147 10524558
31.244915 -37.075974 -173.88037 11839903
32.106728 -37.109051 -173.89249 9340540
32.984207 -36.932552 -173.9816 7564643
29.348759 -36.375458 -174.08313 9932678
30.214825 -36.301117 -174.13458 9932678
31.153206 -35.966415 -174.28323 9603968
32.175472 -36.057011 -174.27881 8880245
33.199738 -36.149017 -174.27393 8288110
33.925037 -35.689232 -174.39659 12432552
31.581299 -35.19043 -174.5788 9537918
32.244297 -35.003048 -174.66588 8419951
33.111725 -35.035122 -174.67848 8814452
34.171467 -35.048855 -174.5567 10656913
33.154278 -34.401112 -174.91135 8814452
34.167603 -34.134747 -174.91841 8354932
34.85268 -33.970291 -174.71982 8815483
34.305813 -33.145607 -175.26639 8814712
35.168537 -33.060604 -174.94958 9604483
35.936954 -32.874332 -174.71098 10854036
35.189537 -32.054348 -175.33705 8419953
35.998333 -32.026001 -175.01991 9472128
36.141701 -31.219154 -175.30069 10261387
36.912235 -30.869101 -175.22241 10919317
37.271492 -30.270983 -175.54694 10261131
37.929134 -29.989891 -175.54379 9340030
38.730106 -29.711206 -175.52132 9012350
39.344242 -29.402838 -176.30679 10261132
39.96114 -29.390173 -176.09563 8092015
40.577682 -29.377708 -175.88379 8092011
43.796127 -29.243477 -177.21819 10853012
44.856014 -29.241631 -176.95453 9800836
48.756927 -28.951681 -178.31723 10327694
49.475418 -28.667736 -178.09497 10064779
48.92696 -28.025059 -178.61032 10064779
49.665939 -27.960331 -178.29027 9867143
49.742825 -27.16699 -178.57335 9735299
50.463051 -26.883808 -178.34995 9735299
49.914963 -26.23753 -178.8672 10853012
50.697926 -26.051882 -178.57526 9932422
51.411728 -25.538149 -178.44817 9998471
50.720486 -24.966331 -179.00284 10853012
51.605526 -24.827095 -178.64433 10262155
50.930359 -24.223841 -179.20428 10984849
51.68576 -24.029011 -178.92888 10524813
52.409012 -23.747009 -178.70378 9735811
51.861935 -23.093987 -179.22374 10984849
52.604504 -23.033464 -178.90021 10195591
52.686405 -22.232216 -179.18529 10721421
53.411499 -21.95056 -178.95914 10260101
52.864574 -21.293592 -179.48061 10393227
53.592026 -21.056337 -179.23547 9274488
54.166782 -20.59951 -179.15048 10851980
53.68092 -20.012939 -179.61501 9274744
54.442825 -19.924541 -179.29364 10524814
53.895809 -19.263075 -179.817 9011315
54.655945 -19.070515 -179.53851 8814710
55.178535 -18.792797 -179.4057 7564642
54.692799 -18.202494 -179.87161 8946296
55.456402 -18.115231 -179.54897 6775126
54.909622 -17.449465 -180.07394 9735812
55.576805 -16.988592 -179.94736 8090986
56.195774 -16.97938 -179.661 8617330
55.882782 -16.082687 -180.17976 9735296
56.574131 -15.988243 -179.97092 9932674
57.224564 -15.627171 -179.9323 9735296
57.448002 -15.009213 -180.34088 9735296
58.467789 -14.734028 -180.1106 10459278
59.675194 -14.346773 -180.88322 8682867
60.303627 -14.340645 -180.60605 8682867
68.29229 -14.218643 -183.13335 9997699
69.168427 -14.216947 -182.80502 8682867
70.093979 -13.785496 -183.26431 8682867
70.170227 -13.19451 -183.46706 8090991
70.907913 -12.992319 -183.20316 9538176
70.277176 -12.365438 -183.75156 9340801
71.16378 -12.122496 -183.43431 9735300
71.134827 -11.25213 -183.79913 9340801
71.930702 -11.168127 -183.46025 10261387
71.381302 -10.457198 -184.00443 9340801
72.056335 -10.214892 -183.78609 9011836
72.699921 -10.21141 -183.4861 8419702
72.243523 -9.3382158 -184.05223 9011323
72.990738 -8.9468107 -183.86018 7761773
73.78286 -8.5326738 -183.6563 8419702
73.151329 -7.8954687 -184.20926 8024944
73.895981 -7.691946 -183.94258 7959151
74.009361 -6.8489189 -184.22946 8748150
74.139229 -5.8825312 -184.55795 9537664
74.571259 -5.8808856 -184.35628 9537664
74.702225 -4.9114475 -184.68552 9076857
-115.91385 -55.88628 -140.08537 9537665
-115.03488 -55.867222 -140.73628 7038307
-113.99533 -55.934383 -140.84506 7038307
-112.87167 -55.959106 -140.84122 7761509
-112.04404 -55.883648 -141.19548 8486000
-111.21086 -55.805817 -141.53886 8814965
-110.37525 -55.727066 -141.87543 9209467
-116.82079 -55.245895 -139.94052 8089963
-116.01509 -55.278664 -140.5473 8945271
-115.24048 -55.475677 -140.98494 8090736
-109.74842 -55.668179 -142.12524 8090986
-109.12137 -55.609383 -142.37222 5920074
-108.49427 -55.550793 -142.61725 7564648
-103.81235 -55.199417 -142.78911 8617331
-103.19118 -55.142101 -143.01663 8617331
-102.3629 -55.065861 -143.31659 7564643
-101.32742 -54.97084 -143.68555 7564643
-100.29192 -54.87611 -144.04848 9011833
-99.463379 -54.800598 -144.33411 8288110
-98.634872 -54.725277 -144.61566 9011574
-117.80852 -54.144684 -139.69812 8550513
-116.98389 -54.192402 -140.33792 8945527
-116.41944 -54.409302 -140.68935 8089963
-97.599289 -54.631454 -144.96162 9603712
-96.563766 -54.537956 -145.30168 10261899
-95.735458 -54.463364 -145.56906 9735555
-94.907181 -54.389027 -145.8324 10459279
-118.72752 -53.057884 -139.47012 8354161
-117.92946 -53.093716 -140.09416 11642776
-117.36354 -53.31004 -140.44705 12433061
-82.84845 -53.179787 -148.66852 13022893
-81.981216 -53.080284 -148.79001 9208955
-80.907028 -52.961647 -148.95201 12432037
-80.051689 -52.868862 -149.08192 9933191
-78.984085 -52.753231 -149.23848 11248023
-119.58626 -52.151329 -139.20605 9538175
-118.91772 -52.261642 -139.69113 8486003
-118.17914 -52.283398 -140.27402 9406589
-77.918037 -52.638039 -149.38922 10130058
-77.066544 -52.546196 -149.50513 8617072
-76.003723 -52.431736 -149.64427 9669502
-74.942581 -52.317776 -149.77771 9143416
-74.095108 -52.226868 -149.87988 8617073
-73.248718 -52.13625 -149.97821 8090987
-120.63655 -51.128933 -138.84258 10261641
-119.89584 -51.341087 -139.33784 10721935
-119.07651 -51.405304 -139.96565 7959917
-68.46405 -51.619839 -152.02823 10523529
-67.423416 -51.521229 -152.15111 10260357
-66.384033 -51.422836 -152.26805 8748403
-65.34613 -51.324646 -152.37834 6972505
-64.30957 -51.226711 -152.4828 9274744
-63.481361 -51.148537 -152.56174 9668730
-62.447567 -51.051071 -152.65462 8681835
-61.621521 -50.97327 -152.72493 11378324
-58.46207 -50.649853 -154.40947 8813686
-121.47525 -49.806366 -138.78996 11905951
-120.79449 -50.297218 -139.10622 12300708
-120.00328 -50.320114 -139.73091 9867140
-119.3676 -50.668243 -140.07794 9932675
-57.63343 -50.572212 -154.4561 9208443
-56.598999 -50.475388 -154.50958 9405560
-55.566406 -50.378891 -154.55664 9143421
-54.535606 -50.282581 -154.59804 9669503
-53.712276 -50.205845 -154.6268 9669503
-50.903164 -49.918224 -156.12737 10458765
-49.871658 -49.822456 -156.13638 9603714
-48.841122 -49.726009 -156.13687 8156012
-48.223122 -49.667553 -156.13217 9537918
-121.80959 -49.143246 -138.83282 11577502
-120.94673 -49.130795 -139.53159 9275005
-47.605946 -49.609241 -156.12503 12498087
-44.947987 -49.331985 -157.48988 9209467
-43.917606 -49.235058 -157.45384 8420208
-42.889912 -49.138462 -157.41174 6840920
-42.069168 -49.061447 -157.37447 7037274
-39.986492 -48.839832 -158.67853 9867395
-39.16436 -48.762955 -158.6237 13157558
-38.138718 -48.667156 -158.5509 9736585
-122.65905 -48.22007 -138.58411 8486520
-121.85284 -48.252167 -139.21646 7564905
-121.28043 -48.467018 -139.57529 6511962
-37.32016 -48.590786 -158.48856 9736585
-35.199764 -48.366821 -159.7253 9735298
-34.175423 -48.27166 -159.62572 7038307
-33.153702 -48.176849 -159.5211 7038307
-31.204504 -47.969723 -160.72495 10787727
-30.386337 -47.894081 -160.62456 10261125
-29.366024 -47.79985 -160.49492 9603193
-123.66133 -47.015812 -138.34456 8814200
-122.85471 -47.419567 -138.8028 7959919
-122.1086 -47.437855 -139.39343 9734788
-27.181471 -47.571888 -161.62247 11708315
-26.365211 -47.496834 -161.50159 9537918
-25.550911 -47.421982 -161.37746 9537918
-23.540955 -47.210857 -162.48763 10460046
-22.52284 -47.117718 -162.31258 10985876
-21.71068 -47.043484 -162.16872 10985876
-20.48591 -46.904675 -163.38821 9735297
-19.671917 -46.830448 -163.23164 8090987
-18.65708 -46.738121 -163.032 8814454
-124.65582 -46.040878 -138.13338 8682356
-123.83818 -46.068867 -138.76245 8945529
-123.02124 -46.55896 -139.07797 9011579
-16.795467 -46.541718 -164.10361 7038298
-15.781235 -46.449749 -163.8842 8814203
-14.972065 -46.376465 -163.70563 8814203
-13.691565 -46.233212 -164.88014 7367781
-12.678791 -46.141788 -164.64038 6512729
-11.870903 -46.068909 -164.44557 9867145
-10.766945 -45.941799 -165.65222 10459278
-9.9574566 -45.868973 -165.44524 9801348
-8.9485435 -45.778297 -165.18272 7827307
-7.6170082 -45.630867 -166.32063 7564651
-7.2127457 -45.594639 -166.20952 8089963
-128.11635 -44.771118 -137.10941 9142392
-127.60286 -44.763878 -137.55061 9142392
-126.6848 -44.917145 -137.88739 9405307
-125.73247 -45.315151 -137.98265 8089963
-124.97726 -45.329735 -138.57448 9537664
-6.809166 -45.558521 -166.09775 9143675
-6.2048454 -45.504482 -165.92856 10261899
-4.8495522 -45.355053 -167.05125 10261899
-4.0427399 -45.283119 -166.8134 8618105
-3.2379723 -45.211426 -166.57321 10788759
-1.2541467 -45.006363 -167.48827 12169640
-0.45055401 -44.935078 -167.23343 9208443
0.95287693 -44.781727 -168.32243 9341054
1.956951 -44.685387 -167.9594 9538691
-141.09877 -44.433258 -134.16257 9539207
-140.45564 -44.433392 -134.84291 10986138
-137.08055 -44.429207 -135.14671 10788759
-136.43243 -44.429306 -135.80748 10788759
-133.26942 -44.425098 -135.90277 7039331
-132.61772 -44.425163 -136.54506 9472130
-129.5867 -44.504555 -137.01599 9669509
-128.8997 -44.494244 -137.60869 9143422
3.7842789 -44.491676 -168.88557 10327950
4.5848198 -44.404209 -168.54001 10525586
6.0321922 -44.244797 -169.59421 12433069
6.8287849 -44.139698 -169.16678 10262412
8.6892052 -43.900539 -169.89185 14077894
9.5110435 -43.714928 -170.00179 12235172
10.550571 -43.590858 -170.33461 8682867
11.362267 -43.574417 -170.2253 8682867
11.660664 -43.381962 -170.6237 9208700
12.419128 -43.266083 -170.70895 8813942
13.459797 -43.106831 -170.89397 9932679
14.499905 -42.934929 -171.02696 8880247
15.46154 -42.813671 -171.18298 9932934
16.384537 -42.601841 -171.33636 10130054
17.21106 -42.616615 -171.32309 7695970
13.495556 -42.555801 -171.37585 11380380
14.327671 -42.366932 -171.45853 9143163
15.376057 -41.982586 -171.63867 8617075
16.413567 -42.00848 -171.65849 9405816
17.451965 -42.034809 -171.67453 8616814
18.282619 -42.054092 -171.67542 7827558
19.125317 -41.875973 -171.78348 8288627
15.602417 -41.370243 -171.86908 7564643
16.299507 -41.249916 -171.93277 10326660
17.330235 -41.052685 -172.034 9471352
18.322102 -41.027454 -172.07123 9143419
19.365898 -41.056557 -172.09006 8551542
20.372757 -41.003086 -172.13803 8617078
21.266277 -40.698814 -172.27458 8155756
17.725655 -40.185162 -172.36256 9931902
18.427048 -40.065727 -172.42599 10656656
19.196568 -40.017567 -172.46536 9209726
20.243999 -40.04707 -172.48413 7959661
21.292877 -40.077847 -172.50247 9076858
22.243187 -40.003162 -172.55661 9405823
19.220413 -39.396957 -172.69305 10262155
20.191845 -39.257919 -172.77132 8616562
21.181633 -38.985172 -172.89908 8418413
22.179512 -39.066555 -172.89748 10852755
23.233994 -39.099037 -172.91536 9011581
24.23336 -38.853313 -173.03348 8288116
24.945793 -38.737633 -173.09579 9735046
21.372761 -38.211384 -173.18747 8286826
22.225807 -38.028023 -173.27869 9603455
23.196083 -38.09869 -173.28023 8090990
24.216167 -38.046921 -173.32797 8419701
25.18956 -38.119816 -173.32877 11182228
26.050083 -37.939396 -173.41907 9932419
27.137196 -37.557758 -173.58908 11182228
22.465141 -37.410065 -173.51146 7893608
23.177155 -37.291977 -173.57477 7564643
24.174305 -37.163021 -173.65005 8419953
25.154427 -37.014336 -173.73193 9341051
26.09407 -37.104179 -173.72552 9274747
27.105907 -37.018036 -173.78537 9866366
28.252434 -36.757504 -173.91273 10260611
25.184002 -36.133339 -174.0547 7367775
26.149113 -36.058613 -174.10905 8881014
27.003769 -36.086014 -174.12309 9931646
28.074108 -36.12146 -174.14011 9800060
29.079132 -36.085674 -174.18143 10392200
30.031746 -35.768024 -174.32422 9209467
26.182171 -35.43029 -174.33957 9473151
27.049408 -35.247414 -174.43071 9735812
28.007458 -35.127979 -174.50128 9406330
29.050167 -35.049629 -174.55916 9472126
30.032063 -35.051224 -174.58614 10327180
30.946251 -34.956501 -174.64642 9998214
31.608337 -34.76862 -174.73366 9537918
28.181236 -34.23098 -174.834 9735812
28.907139 -34.113544 -174.89719 8092019
29.918118 -34.076385 -174.93918 9472385
30.999077 -34.112843 -174.95616 9800834
31.993076 -34.189846 -174.95596 8090987
33.081203 -33.868221 -175.10399 8419953
33.864799 -33.578064 -175.23201 10063750
29.956287 -33.443413 -175.17151 8683641
30.972343 -33.053192 -175.34259 8683125
31.933788 -33.085388 -175.35785 8814452
32.803955 -33.115314 -175.37129 10392970
33.81918 -32.891357 -175.45425 9275005
31.988461 -32.237896 -175.66899 11642008
32.874249 -32.054691 -175.76082 11641752
33.958435 -32.084122 -175.7345 9011834
34.784599 -32.068844 -175.49576 9406335
33.135014 -31.424314 -175.99844 10654857
33.87569 -31.308067 -176.06992 10063750
34.917301 -31.066332 -175.90227 9340541
35.854546 -30.713079 -175.75783 9866886
35.906281 -30.019669 -176.31001 9340798
36.793606 -29.886951 -176.0661 9866885
37.69521 -29.438078 -176.86716 9537152
38.726166 -29.415852 -176.51752 10261132
41.033062 -29.248259 -177.87347 8813942
41.671555 -29.24716 -177.72598 11905696
42.734581 -29.245325 -177.47507 9866373
46.779202 -29.187769 -179.14861 14604238
47.617718 -28.942142 -178.85466 10591376
47.556499 -28.13855 -179.20662 11117461
48.31374 -28.042845 -178.89043 11446170
47.761494 -27.398903 -179.40811 10788753
48.601761 -27.154573 -179.11282 10065544
48.593845 -26.162519 -179.51662 9801605
49.415997 -25.967047 -179.21022 10458254
49.428745 -24.924885 -179.62497 9669250
50.188484 -24.832047 -179.30638 9932166
49.720074 -24.031368 -179.84909 9011576
50.464096 -23.969105 -179.52557 9208954
50.423698 -23.126654 -179.88458 9406332
51.245972 -23.107779 -179.50682 10590348
50.717155 -22.230089 -180.10898 9537918
51.438725 -22.055107 -179.84142 10327177
51.996704 -21.757013 -179.70026 12432037
51.674568 -20.871368 -180.20869 8814452
52.422497 -20.930664 -179.83434 9669503
52.383488 -19.962793 -180.24327 8550507
53.147141 -19.873762 -179.92134 9011315
52.68103 -19.060669 -180.46797 8550507
53.300442 -19.049467 -180.18227 9208695
53.942589 -18.81385 -179.97647 9932675
53.39304 -18.149443 -180.50214 10525328
54.158276 -18.061556 -180.17902 8946296
53.692875 -17.243666 -180.72731 9932678
54.337025 -17.007736 -180.52065 9143675
54.981152 -16.772327 -180.31378 9735812
54.432175 -16.103273 -180.84349 9538177
55.195473 -15.82959 -180.71483 9669762
55.981606 -15.643631 -180.50183 9735296
55.456081 -15.211208 -181.10664 9537919
56.221245 -14.936532 -180.97513 9998211
57.009064 -14.750203 -180.75978 9735296
58.206429 -14.361542 -181.52896 9538176
59.046318 -14.353003 -181.16011 8682867
66.315308 -14.222443 -183.85678 13550517
66.975098 -14.221179 -183.61795 12695466
67.795883 -14.011049 -183.81757 10261641
68.812637 -13.795316 -183.86053 10457738
68.902481 -13.085623 -184.10483 10523530
69.7883 -12.842565 -183.78799 7564651
69.022659 -12.13708 -184.43135 11378324
69.799988 -12.084158 -184.08856 8419444
69.9095 -11.228206 -184.38275 7565163
70.675674 -10.937871 -184.14107 9340801
70.123825 -10.226095 -184.68677 8880507
70.768341 -10.222261 -184.38643 9340801
71.443726 -9.9797554 -184.16801 8420470
70.953796 -9.1215897 -184.74377 8749178
71.753372 -8.9257278 -184.44829 8617079
71.805443 -7.8697376 -184.85005 8814201
72.587654 -7.8179355 -184.50458 9340287
72.035744 -7.098465 -185.05347 9734788
72.807625 -6.8056593 -184.80991 9734788
72.826584 -6.0085549 -185.12222 9274494
73.573822 -5.8039851 -184.85455 9537664
72.938583 -5.1603575 -185.41147 8617331
73.836639 -4.9144583 -185.08984 9208699
73.811295 -4.023098 -185.46082 9208955
74.616974 -3.9393842 -185.11707 8879736
74.064346 -3.2095954 -185.67003 11906725
74.748512 -2.963299 -185.4487 11183003
74.942062 -2.0653625 -185.71979 13485757
75.197563 -1.2465255 -185.93004 11709349
-113.73134 -55.808205 -141.55626 7038307
-113.17111 -55.782906 -141.90361 7037274
-112.41492 -55.745441 -142.35402 7761509
-111.81744 -55.702812 -142.65211 8486000
-115.1097 -55.166279 -141.34187 8090736
-114.29102 -55.261642 -141.89709 7169891
-113.62112 -55.320766 -142.34491 7826791
-111.21443 -55.657967 -142.94191 6972762
-108.07619 -55.511662 -142.77917 9209214
-107.44894 -55.453255 -143.01987 7564648
-106.40337 -55.356045 -143.41591 7563876
-105.35756 -55.259212 -143.80585 11379348
-104.52081 -55.181969 -144.11292 9274491
-103.68402 -55.104927 -144.4158 10854036
-102.63794 -55.008888 -144.78841 7893608
-101.59181 -54.913246 -145.15501 8288110
-100.75488 -54.836929 -145.44339 10459279
-100.12715 -54.779839 -145.65709 11906725
-116.04669 -54.122547 -141.12323 8551538
-115.27492 -54.181786 -141.71512 8288366
-114.57997 -54.474072 -142.13603 7564643
-94.286034 -54.333462 -146.02737 11380380
-93.664917 -54.277946 -146.21991 7564651
-92.836861 -54.204132 -146.47324 9143420
-91.802086 -54.112217 -146.78404 9537918
-90.767487 -54.020615 -147.08913 9537918
-89.940018 -53.947582 -147.32845 8748916
-88.905975 -53.85659 -147.62202 6511954
-87.862488 -53.760021 -147.89345 6905687
-87.208298 -53.685093 -148.006 6510930
-117.01529 -53.041588 -140.85275 9143673
-116.21704 -53.080555 -141.47548 9143673
-115.70317 -53.077919 -141.8894 8419952
-86.771042 -53.634197 -148.07681 6510930
-86.115578 -53.558048 -148.18108 8945007
-85.024689 -53.431499 -148.34969 9471351
-83.935593 -53.305401 -148.51231 8813680
-83.283127 -53.229992 -148.60683 13022893
-117.8488 -51.984798 -140.67955 8748659
-117.20274 -52.24556 -141.07593 8156779
-116.46402 -52.27021 -141.65765 9143673
-78.202606 -52.609737 -150.79984 8089963
-77.342682 -52.517178 -150.91249 9406335
-76.483871 -52.424858 -151.02112 11049874
-75.412102 -52.309944 -151.15115 9800317
-74.342102 -52.1954 -151.27536 10458243
-73.487526 -52.104061 -151.37033 9537147
-72.430336 -51.996906 -151.5023 9339771
-71.38485 -51.897335 -151.64983 8681843
-70.340599 -51.798058 -151.79051 8681843
-69.297539 -51.698986 -151.92525 9931910
-118.91789 -51.107555 -140.23286 8486003
-118.17781 -51.322392 -140.7263 8683381
-117.31862 -51.315453 -141.4196 8748915
-64.712135 -51.237526 -153.93216 11117206
-63.666451 -51.138927 -154.02733 10655881
-62.830986 -51.060188 -154.0988 9668730
-61.788223 -50.962086 -154.18237 9602941
-60.746948 -50.864216 -154.26018 8813939
-59.707451 -50.766613 -154.33147 8550513
-58.876942 -50.688686 -154.38452 10261132
-119.75195 -49.78363 -140.18466 7828331
-119.03082 -50.220394 -140.55872 8288625
-118.28168 -50.30225 -141.12184 8748663
-117.64704 -50.652355 -141.46713 10788239
-55.882313 -50.381783 -156.00076 10853012
-55.049362 -50.304039 -156.03139 9932678
-54.00988 -50.207142 -156.06409 10196106
-52.972286 -50.110516 -156.09117 10656399
-51.936783 -50.014225 -156.11205 8682867
-49.0923 -49.722843 -157.57797 8748661
-48.260391 -49.644249 -157.56804 7564643
-120.08393 -49.120083 -140.22957 7564391
-119.22102 -49.110905 -140.92683 8353650
-118.65067 -49.327961 -141.28305 8616822
-47.844986 -49.605072 -157.56148 7564643
-47.015503 -49.526775 -157.54541 7564643
-45.980465 -49.429192 -157.52072 9209467
-43.292034 -49.149483 -158.8604 8288622
-42.256226 -49.052357 -158.80978 7696485
-41.223118 -48.955513 -158.75322 12037279
-40.398232 -48.878345 -158.70444 8682867
-38.496117 -48.673775 -160.0071 10262157
-120.93002 -48.195049 -139.98439 7104098
-120.12402 -48.23003 -140.61523 7564392
-119.55244 -48.446732 -140.97263 7564392
-37.463112 -48.577465 -159.92482 10065291
-36.226997 -48.462372 -159.81914 8682867
-34.289467 -48.255436 -161.06987 9472388
-33.464272 -48.178917 -160.98259 7038307
-32.435474 -48.08363 -160.86844 9537920
-31.614403 -48.007664 -160.77357 9143417
-30.259398 -47.855503 -162.0462 11380380
-29.64172 -47.798481 -161.96513 10064777
-28.614588 -47.703842 -161.82582 9209209
-27.794758 -47.628311 -161.71106 10984849
-121.77628 -47.135639 -139.80219 9734788
-121.12283 -47.394905 -140.20523 8814200
-120.37691 -47.415863 -140.79446 8616822
-26.407894 -47.473766 -162.95174 8090987
-25.791485 -47.417168 -162.85555 10590862
-24.76667 -47.323151 -162.69131 9867909
-22.735699 -47.110035 -163.80147 12762285
-21.711271 -47.016438 -163.61642 9209467
-20.893847 -46.941849 -163.46521 8090987
-19.039093 -46.745514 -164.56865 7893608
-18.017166 -46.652634 -164.36028 8617075
-122.92395 -46.014389 -139.54997 9406080
-122.08534 -46.322685 -140.00839 9011579
-121.28805 -46.535614 -140.48462 9340287
-17.405689 -46.597099 -164.23288 8617075
-15.72777 -46.417404 -165.345 7564651
-14.911606 -46.343513 -165.16142 7564651
-14.300922 -46.288311 -165.02167 8814203
-12.801126 -46.12495 -166.1561 12432045
-11.985931 -46.051529 -165.95653 7038814
-11.172625 -45.978306 -165.75455 10459278
-9.2400646 -45.776447 -166.75754 8748409
-8.2245502 -45.685349 -166.48589 7564651
-126.40257 -44.748264 -138.57672 10260358
-125.88721 -44.742107 -139.01501 9142907
-124.95629 -44.891926 -139.33029 10130057
-123.99519 -45.286777 -139.40501 8551542
-123.23986 -45.3036 -139.99458 8419699
-122.5907 -45.43293 -140.38806 8288627
-6.2676582 -45.481762 -167.46011 8091248
-5.45644 -45.409302 -167.22751 9669764
-3.2734947 -45.185909 -168.11357 8618105
-2.2617378 -45.095924 -167.80322 9208443
-0.46018231 -44.906944 -168.78381 11577760
0.34839237 -44.835308 -168.52142 9341054
2.3746605 -44.626694 -169.41249 9800579
-139.64709 -44.433544 -135.68866 12038311
-138.99687 -44.433659 -136.36214 12433069
-135.61844 -44.429417 -136.62932 7301991
-134.96359 -44.429493 -137.28319 9998732
-131.79929 -44.425232 -137.34406 8617335
-130.97588 -44.425289 -138.1377 8617078
-128.38382 -44.4869 -138.0524 9142392
-127.86745 -44.479851 -138.49478 10786445
-127.17796 -44.470989 -139.08368 10261131
3.1817055 -44.555428 -169.13542 10458508
4.8271942 -44.380676 -170.14484 10788759
5.431118 -44.317261 -169.88792 10788759
6.2707863 -44.073952 -170.65099 7564647
7.2926407 -43.855556 -170.6395 9209212
8.2436829 -43.767666 -170.55254 10065289
9.1319962 -43.638424 -170.5912 12235172
7.7151146 -43.273846 -170.97371 10063753
8.3334465 -43.07523 -171.04906 10195851
9.3578911 -43.07745 -171.0141 11314327
10.383812 -43.086967 -171.00212 10459019
11.312008 -43.002586 -171.06061 9011833
12.241215 -42.919041 -171.11848 8813942
9.2364655 -42.336895 -171.33728 10392972
10.25333 -42.131809 -171.43945 11182230
11.233971 -42.098484 -171.47934 10261644
12.266254 -42.118851 -171.50102 9340542
13.260391 -42.057484 -171.55151 10459022
14.239311 -41.853073 -171.65393 10261131
11.323498 -41.141632 -171.83186 11511194
12.206795 -41.131241 -171.86063 10590608
13.202888 -41.069168 -171.91144 9537664
14.278847 -41.174793 -171.90317 9932422
15.196415 -41.051559 -171.97418 8945782
16.030972 -40.968391 -172.02815 9931902
16.877102 -40.576683 -172.19527 9931902
12.305172 -40.474625 -172.10356 10129798
13.280228 -40.219513 -172.22444 9735041
14.184071 -40.101093 -172.29326 9340541
15.224155 -40.124252 -172.31418 10590093
16.265461 -40.148643 -172.33467 10326660
17.106503 -39.962753 -172.42641 9931902
17.949192 -39.777386 -172.51797 9209726
14.4151 -39.280766 -172.59987 10063747
15.113892 -39.158169 -172.66449 9603453
16.089809 -39.111397 -172.70912 9076593
17.134499 -39.136246 -172.72952 9931902
18.180714 -39.162445 -172.74948 10656656
19.311554 -38.846645 -172.89696 9933191
20.092537 -38.591133 -173.01244 7037274
16.109447 -38.491207 -172.93652 9997953
17.097427 -38.168915 -173.08237 9866626
18.008255 -38.121792 -173.12529 9538690
19.007462 -38.095169 -173.16325 9735812
20.117462 -37.968681 -173.24086 7037274
21.069939 -37.890911 -173.2962 7629154
18.037811 -37.29248 -173.4295 8090987
19.011421 -37.150169 -173.50908 8485747
20.025986 -37.092926 -173.55865 9273464
20.994892 -37.160393 -173.56133 7037274
22.060787 -36.981522 -173.65686 8287852
23.061668 -36.732071 -173.77634 7564643
23.775436 -36.61385 -173.8396 7038298
20.055912 -36.344078 -173.83339 10063492
21.038502 -36.11935 -173.94337 9536635
21.846821 -36.057545 -173.98872 8485488
22.955479 -35.963028 -174.0544 8222572
24.018051 -35.993618 -174.07301 6775126
24.879955 -35.809921 -174.16437 7367775
21.285408 -35.290699 -174.25316 9537920
21.998821 -35.17004 -174.31732 9603712
22.906746 -35.166759 -174.34398 8419952
23.932453 -35.111687 -174.3929 6775126
24.960308 -35.05748 -174.44154 7894375
25.851402 -34.930206 -174.51306 8815477
26.869316 -34.611092 -174.65825 9735812
23.022533 -34.499611 -174.59097 7893608
23.88525 -34.313457 -174.68323 8683891
24.828045 -33.989811 -174.82794 8749684
25.830704 -33.948597 -174.87112 9012344
26.903343 -33.980576 -174.88956 10064777
27.910255 -33.941235 -174.93217 9735812
28.636005 -33.823498 -174.99556 8092019
25.005634 -33.293777 -175.08728 9210491
25.874256 -33.107571 -175.17969 11709858
26.733688 -33.132355 -175.19473 12170409
27.809959 -33.164509 -175.21318 9867399
28.900532 -32.986588 -175.30882 8946557
29.777954 -32.802654 -175.40062 8354934
30.44067 -32.611954 -175.48892 9537406
26.846882 -32.361649 -175.47951 14999764
27.788952 -32.248009 -175.54747 10327952
28.74551 -31.923578 -175.69287 9143936
29.828648 -31.95643 -175.71124 8683385
30.824615 -32.030182 -175.7123 9011576
31.797958 -31.806452 -175.82132 10851980
28.782131 -31.288622 -175.92587 9143936
29.885403 -31.115023 -176.05838 8485748
30.754559 -31.140591 -176.06825 9537406
31.779602 -31.104826 -176.13103 10391943
32.673153 -30.925718 -176.25665 9800060
33.649998 -30.718012 -176.42163 10457478
34.516605 -30.623278 -176.37633 10063750
31.043205 -30.54072 -176.48589 8288368
31.479149 -30.553221 -176.48828 8288368
32.626228 -30.184317 -176.80264 9537144
33.595062 -30.078279 -176.91049 10391941
34.603085 -30.018955 -176.8288 9866368
35.452896 -29.793547 -176.68143 9143419
35.83416 -29.479736 -177.49268 11905692
36.662132 -29.460936 -177.2153 11379356
38.900818 -29.2519 -178.34796 10261132
39.541042 -29.250811 -178.20822 10129802
40.393944 -29.249352 -178.01837 10064265
45.569035 -29.006786 -179.78815 13617342
46.311516 -28.939028 -179.46771 14604238
46.383366 -28.144894 -179.75349 13880257
47.105366 -27.858738 -179.53038 12432294
46.549831 -27.21413 -180.05008 13023917
47.248341 -27.046381 -179.79048 11117461
47.371292 -26.085981 -180.12044 10788753
48.058147 -25.978483 -179.84195 10328459
47.556381 -25.195757 -180.39302 8089963
48.314236 -24.998125 -180.11768 9537664
48.833416 -24.718796 -179.98717 9932166
48.340298 -24.140001 -180.45187 9406848
49.102726 -24.046665 -180.13222 9669250
48.547668 -23.39399 -180.65575 9144446
49.307159 -23.197468 -180.37921 7630439
49.827702 -22.918213 -180.248 8090987
49.38715 -22.148745 -180.76511 7695978
50.120457 -22.020483 -180.47314 9011319
50.783005 -21.559954 -180.34856 9537918
50.229107 -20.9016 -180.87392 8879478
51.055561 -20.884169 -180.49364 8090731
50.501625 -20.224344 -181.01962 9734529
51.263695 -20.029581 -180.74107 9734785
51.786728 -19.750462 -180.60866 9340539
51.29464 -19.161539 -181.07697 11774108
52.060909 -19.072149 -180.75395 9011317
51.50716 -18.408052 -181.28152 13023917
52.151363 -18.171228 -181.07523 9340539
52.772579 -18.160173 -180.7886 9340539
52.357281 -17.152918 -181.38982 8879989
53.094612 -17.027723 -181.09482 10064006
53.762924 -16.565481 -180.96826 8682867
53.287422 -15.974418 -181.49228 9406078
54.011589 -15.817373 -181.28122 9406078
54.207157 -15.228431 -181.67845 10129545
54.903873 -14.887856 -181.63365 9866629
56.102669 -14.384078 -182.44923 9932934
56.944965 -14.374869 -182.08147 9077625
64.772179 -14.225383 -184.40439 9077368
65.654434 -14.223704 -184.09302 10261641
66.887733 -13.811301 -184.75572 8682867
67.529884 -13.805772 -184.45715 10261641
67.160202 -13.336222 -184.81985 10261641
67.709473 -13.047655 -184.67899 10129286
67.869049 -12.224755 -184.93633 9668993
68.460823 -12.062056 -184.72479 10063238
68.713531 -11.188659 -184.95886 8616822
68.833702 -10.23427 -185.28781 9932166
69.478897 -10.230108 -184.98724 8814458
69.754196 -9.1922045 -185.27716 9340029
70.461899 -8.7090254 -185.14067 9274751
69.968819 -8.0713673 -185.62894 9208443
70.647003 -7.827332 -185.40977 9208443
71.325432 -7.583447 -185.19044 9734788
70.832779 -6.9431553 -185.67953 9076857
71.573883 -6.778883 -185.39862 8879478
71.625031 -5.940855 -185.71245 9405822
72.441895 -5.6470962 -185.44801 8681843
71.639053 -5.1653523 -186.01836 9405822
72.4571 -4.8708305 -185.75374 8616563
72.571777 -3.9947209 -186.05301 8617331
73.348251 -3.6998367 -185.80801 9406847
72.793213 -2.9689286 -186.36253 8617331
73.445251 -2.9670012 -186.05782 10656658
74.129692 -2.7206545 -185.83636 11906725
73.574951 -1.9871224 -186.39188 11183258
74.383942 -1.9033188 -186.04663 14077894
73.890541 -1.2495366 -186.54126 7038307
74.601501 -1.0019431 -186.38026 9932940
75.313293 -0.75449812 -186.21889 11709349
-113.22009 -55.183262 -142.77737 9537409
-112.5082 -55.223671 -143.17155 8418928
-111.6255 -55.129044 -143.67667 8156271
-110.55401 -55.428196 -143.7229 6972511
-109.60757 -55.540356 -143.7081 9011576
-108.60228 -55.467308 -144.179 7696228
-107.56468 -55.378834 -144.60309 9209467
-106.71939 -55.300545 -144.91739 7892581
-105.87399 -55.222496 -145.22754 8813680
-105.23983 -55.164074 -145.45749 7892581
-99.708687 -54.741879 -145.79825 7564643
-99.290276 -54.703911 -145.93828 7564643
-114.34008 -54.031689 -142.53632 7564643
-113.56483 -54.178181 -143.09013 9734788
-112.74398 -54.304096 -143.58511 8879479
-98.662575 -54.647156 -146.14645 10458505
-97.825775 -54.571663 -146.42052 8814452
-96.989029 -54.496319 -146.69041 7564643
-95.943214 -54.402527 -147.02203 9406848
-94.89753 -54.309025 -147.34763 8156787
-94.061226 -54.234463 -147.60349 9406851
-93.225006 -54.160191 -147.85518 11248280
-92.179947 -54.0676 -148.16409 9998212
-91.135292 -53.975334 -148.46707 7696229
-90.299713 -53.901844 -148.70488 7367263
-89.255646 -53.810223 -148.99622 7696228
-88.211945 -53.718983 -149.28186 8287336
-115.1892 -53.075985 -142.3031 8880503
-114.50372 -53.074314 -142.85437 8880503
-113.85825 -53.147377 -143.33839 9011065
-87.361786 -53.636803 -149.47949 7366237
-86.258095 -53.508812 -149.64896 10063744
-85.156219 -53.381271 -149.81244 8681835
-84.276291 -53.279655 -149.93843 8813680
-83.397636 -53.178326 -150.06029 9997699
-82.304138 -53.054085 -150.21201 9011832
-81.221481 -52.936008 -150.37419 8354676
-80.357574 -52.842407 -150.50084 9143934
-79.494705 -52.749153 -150.62343 11642780
-78.848328 -52.679348 -150.71288 10458508
-116.13246 -51.97327 -142.06332 8354158
-115.48703 -52.236267 -142.45819 8222573
-114.74795 -52.263821 -143.03883 9341054
-73.763901 -52.095757 -152.8541 14077369
-72.70639 -51.995068 -153.00363 11314067
-71.65004 -51.894596 -153.1472 8354159
-70.805923 -51.814396 -153.2572 7960176
-69.751923 -51.714348 -153.3887 9012093
-116.85492 -51.090706 -141.89751 9143673
-116.38014 -51.354179 -142.15511 7827815
-115.59964 -51.306683 -142.80415 8287850
-115.03262 -51.526688 -143.15627 8681835
-68.69928 -51.614532 -153.51418 8616819
-67.858109 -51.534878 -153.60982 9142648
-66.80806 -51.435497 -153.72346 10985108
-65.759315 -51.336369 -153.83119 9406590
-61.956345 -50.950626 -155.66258 8813939
-61.11512 -50.871655 -155.72121 7959144
-60.064976 -50.773125 -155.78954 7827303
-59.226112 -50.694492 -155.83957 8418928
-118.0284 -49.767342 -141.57643 9734788
-117.30862 -50.206291 -141.94838 8879735
-116.54576 -50.20211 -142.56302 8484721
-115.92586 -50.643059 -142.85371 8681835
-58.59766 -50.635628 -155.87469 8089963
-57.969994 -50.576912 -155.90724 9471356
-56.925282 -50.479191 -155.95688 9866113
-53.264122 -50.110996 -157.54822 10985363
-52.218262 -50.013786 -157.56558 10459019
-51.174564 -49.916904 -157.57668 10590350
-50.132847 -49.820248 -157.58228 10129545
-118.29953 -49.058445 -141.69151 8156014
-117.49496 -49.097343 -142.31937 8287342
-116.92522 -49.316265 -142.67409 9011065
-47.249954 -49.521709 -159.00194 10392461
-46.413857 -49.442974 -158.97902 11511708
-45.370842 -49.344807 -158.94499 9603968
-44.330078 -49.246952 -158.90573 10590606
-42.445915 -49.042999 -160.26854 9538432
-41.611336 -48.96487 -160.21988 8682867
-40.570248 -48.867496 -160.15465 11576729
-39.531937 -48.770439 -160.08344 8617846
-119.20099 -48.176315 -141.38173 7301477
-118.39503 -48.214245 -142.0112 8616822
-117.87627 -48.210705 -142.42949 8287342
-37.39967 -48.544502 -161.36662 10855060
-36.567955 -48.467079 -161.29204 10065288
-35.530514 -48.370674 -161.1944 9735298
-34.909363 -48.313034 -161.13329 10261903
-32.741241 -48.084869 -162.35081 8946041
-31.705059 -47.98901 -162.22771 9143417
-30.878338 -47.912621 -162.12521 9932676
-28.677738 -47.68243 -163.28781 10064777
-28.057072 -47.625298 -163.19885 10261899
-120.04357 -47.11525 -141.20326 8616822
-119.39102 -47.376476 -141.60464 7104098
-118.64509 -47.400078 -142.1926 8945786
-27.644035 -47.587337 -163.13818 10261899
-27.025448 -47.530453 -163.04581 8617331
-25.001274 -47.317345 -164.19025 8682867
-23.969517 -47.222851 -164.01665 11381404
-23.351969 -47.166397 -163.91014 14604230
-21.092754 -46.93251 -164.9709 9538175
-20.064081 -46.83881 -164.77242 8090987
-18.189577 -46.640591 -165.87743 8617075
-121.19106 -45.993462 -140.96198 9537665
-120.35172 -46.303265 -141.41507 9537921
-119.51701 -46.444508 -141.95851 8814456
-17.161476 -46.547329 -165.65889 9340542
-16.341263 -46.4729 -165.48096 7564651
-14.849655 -46.309994 -166.64099 8814203
-14.233713 -46.25428 -166.49745 9143678
-13.414274 -46.180309 -166.30347 9867145
-11.281916 -45.959953 -167.28726 6511954
-10.259047 -45.867954 -167.0249 8485488
-8.3064003 -45.664215 -168.02875 10261388
-7.6931419 -45.609276 -167.86015 9340545
-124.68243 -44.728977 -140.03447 8089963
-124.16512 -44.723972 -140.46973 8089963
-123.22423 -44.871269 -140.76593 9471871
-122.17371 -45.221573 -140.93118 9932166
-121.50157 -45.283096 -141.41022 9274748
-120.85326 -45.414154 -141.8015 9011576
-7.0813637 -45.554531 -167.68977 9143422
-5.5125961 -45.385555 -168.78098 7039331
-4.49263 -45.294533 -168.48022 8091762
-2.4922142 -45.087372 -169.42824 10459019
-1.4740564 -44.996891 -169.10834 14604238
0.34613025 -44.806061 -170.09375 8090987
1.3626174 -44.716106 -169.7554 9341054
-138.50688 -44.433735 -136.86494 10656657
-137.85078 -44.433838 -137.53271 10656657
-134.47035 -44.429543 -137.77168 9143681
-133.97527 -44.429596 -138.25815 8550772
-133.47856 -44.429638 -138.74304 7958120
-129.98155 -44.425335 -139.08372 9142652
-129.31523 -44.425358 -139.71069 8617075
-126.66013 -44.464733 -139.52435 9143419
-126.14203 -44.458775 -139.96381 9143419
-125.45003 -44.451397 -140.54868 8089963
2.1839638 -44.508091 -170.66615 7498598
3.3432198 -44.238567 -170.76886 9142907
4.2276115 -44.076576 -170.70761 10459537
5.2516747 -43.877079 -170.78036 8618105
6.2755661 -43.667885 -170.81096 7564647
4.3042564 -43.146431 -171.14941 10196879
5.2588158 -43.05917 -171.08022 7828590
6.2822647 -43.054264 -171.03525 9406337
7.2262001 -43.022892 -171.05908 9537409
5.128952 -42.31123 -171.36885 9144449
6.0880356 -42.02964 -171.41129 9801094
7.11549 -42.038498 -171.41739 9011065
8.1436691 -42.049789 -171.42673 8418928
9.1085129 -41.788273 -171.53561 9734788
9.7980042 -41.66222 -171.5984 9537409
6.3023071 -41.21064 -171.70921 11379356
7.1284294 -41.013226 -171.79227 8813686
8.1588974 -41.024208 -171.80174 8484721
9.1899757 -41.036774 -171.8119 9668995
10.2225 -41.053463 -171.83308 10458252
11.053562 -40.862583 -171.92641 10129798
8.0324059 -40.269623 -172.07585 8813686
9.051651 -40.058834 -172.16742 9076858
10.035236 -40.022198 -172.20502 8484977
11.070866 -40.039974 -172.22774 10129798
12.06794 -39.975849 -172.27933 10129798
12.87521 -39.799171 -172.36678 11379348
9.4287415 -39.189259 -172.4926 9537409
10.122513 -39.06284 -172.55841 10129798
11.008556 -39.050133 -172.5881 9209210
12.007614 -38.985378 -172.63998 9603455
12.963322 -39.044682 -172.64529 8155755
13.9221 -39.02261 -172.6804 9274233
14.843765 -38.876717 -172.75983 10063747
11.105461 -38.391762 -172.83162 8682867
12.003983 -38.11237 -172.95924 10195078
12.989136 -38.01236 -173.02362 9208440
13.978741 -38.083401 -173.02557 9405819
14.988914 -37.993378 -173.08704 8945781
15.919701 -37.865658 -173.16 9735039
16.764225 -37.677513 -173.25273 11379348
13.218723 -37.189205 -173.33122 11379348
13.851334 -36.994144 -173.42049 10721419
14.897846 -37.014969 -173.44238 10064003
15.945595 -37.036983 -173.4639 9077367
16.994743 -37.06036 -173.48499 8288365
18.052608 -36.877235 -173.58182 8090987
14.915897 -36.393112 -173.67036 9603709
15.887966 -35.997532 -173.84248 9340537
16.819042 -36.017452 -173.8615 9275003
17.871647 -36.041092 -173.88254 10459276
18.92564 -36.065929 -173.90326 10459276
19.710484 -35.807381 -174.02002 9537920
20.420879 -35.686127 -174.08435 9537920
16.846443 -35.185719 -174.16656 9275003
17.822319 -35.040279 -174.24733 11380377
18.83934 -34.980007 -174.29802 10591376
19.810852 -35.044743 -174.30167 9274748
20.787125 -35.027145 -174.33548 9471870
21.727688 -34.884029 -174.41415 10063750
17.930248 -34.375065 -174.49356 10459276
18.86731 -34.228855 -174.57329 10261899
19.851757 -34.000603 -174.68437 9537920
20.789471 -34.082932 -174.68059 11445659
21.819359 -33.996414 -174.74109 11313816
22.789867 -33.990044 -174.77063 9537407
23.701546 -33.6786 -174.91002 9537918
20.097088 -33.168736 -174.99509 10459534
20.811954 -33.045616 -175.06021 12629418
21.72205 -33.039627 -175.08794 8024170
22.750031 -32.981281 -175.13812 12169123
23.731251 -33.048733 -175.14101 10524555
24.699982 -32.969536 -175.19717 10393482
21.62286 -32.36499 -175.33163 7563619
22.700584 -32.180824 -175.4292 12695466
23.780941 -31.997215 -175.52663 13156016
24.639103 -32.019444 -175.54257 10524555
25.713654 -32.048294 -175.56223 12894132
26.733315 -31.794744 -175.68344 14473420
27.46022 -31.674244 -175.74786 11379356
23.599644 -31.289661 -175.78004 12169122
24.76487 -31.044342 -175.94598 8551026
25.560547 -30.997408 -176.00394 9537921
26.638706 -31.02524 -176.01831 13025974
27.718769 -31.054085 -176.03223 12039338
28.603443 -30.87359 -176.16379 9143936
29.253365 -30.891205 -176.16811 8092019
26.486687 -30.419884 -176.45345 11051416
