# .PCD v0.7 - Point Cloud Data file format
VERSION 0.7
FIELDS x y z rgb
SIZE 4 4 4 4
TYPE F F F U
COUNT 1 1 1 1
WIDTH 1191
HEIGHT 1
VIEWPOINT 0 0 0 1 0 0 0
POINTS 1191
DATA ascii
-138.27007 6.5095615 133.58998 10130572
-137.93138 7.5971193 134.20503 7696235
-138.3557 7.2808518 133.86424 9670023
-138.13609 8.5339422 134.48807 8485751
-137.71149 9.6906805 135.17422 10984857
-138.13701 9.3742132 134.83279 9011582
-137.91652 10.423919 135.37358 10458770
-137.59402 11.637465 136.03329 7038307
-137.93509 11.27792 135.71585 7498857
-137.57831 12.3717 136.34357 7564651
-138.17621 12.139253 135.95108 7038307
-137.18669 13.344766 136.93872 8419702
-137.85387 13.36033 136.61404 6774872
-137.55782 14.467706 137.306 6906712
-137.83823 14.099144 136.9261 7038298
-137.23122 15.474396 138.30342 9537663
-137.6841 15.104279 137.76205 6248271
-136.71286 16.842867 143.19458 8420470
-136.97334 16.19248 140.38991 11050899
-136.81805 17.349236 143.30334 8089963
-162.47313 -69.556381 12.789593 9208187
-162.6843 -69.622421 12.018011 8484979
-162.94212 -69.704605 11.051052 9537408
-163.26431 -69.578003 10.085609 9932163
-163.45522 -69.685791 9.1888542 8879732
-163.72597 -69.685524 8.2550793 7892583
-163.88821 -69.831291 7.2349129 7958377
-164.13698 -69.826279 6.2955666 9274237
-164.35565 -69.782333 5.3073673 8089963
-164.79486 -69.650314 4.4130268 9735044
-164.9516 -69.708031 3.4236813 8616563
-165.07373 -69.753708 2.4319038 8353135
-165.08963 -69.804977 1.3190918 9340288
-165.50873 -69.692726 0.44501111 8419443
-165.53374 -69.705109 -0.55152893 8682867
-165.83931 -69.596481 -1.5514107 8156527
-166.22664 -69.524635 -2.556221 8090736
-166.15802 -69.505356 -3.5560608 9143166
-165.96234 -69.435516 -4.5519638 9669764
-162.03493 -68.495819 14.915346 8089963
-162.33739 -68.782127 14.076546 10064520
-162.59683 -68.908821 13.192265 9931651
-162.938 -68.784958 12.232525 8287601
-163.20262 -68.86824 11.264793 9405565
-163.49603 -68.831573 10.352549 10655629
-163.8087 -68.836197 9.3259983 8156522
-164.07312 -68.926514 8.3503437 9077113
-164.33742 -69.019066 7.3722134 9340030
-164.59679 -69.112152 6.391119 8945272
-166.91258 -69.350853 -4.7791481 11380380
-166.86865 -69.341248 -5.3814011 9735555
-166.6543 -69.268806 -6.3792877 8748917
-166.95149 -69.168419 -7.3985443 9537151
-167.25949 -69.075714 -8.4209366 11642523
-166.99977 -68.992432 -9.4165268 11050387
-167.88893 -68.899696 -10.48119 11708316
-167.67 -68.832939 -11.278591 9340027
-167.92981 -68.726791 -12.313091 9209723
-168.26338 -68.653915 -13.35593 8617586
-167.97575 -68.57235 -14.35162 7564386
-168.81102 -68.455566 -15.242565 10260100
-168.66133 -68.426796 -16.048428 9339769
-161.92009 -67.541 15.886749 9077115
-162.18739 -67.858406 15.125116 10392718
-162.68279 -67.793633 14.18358 9208702
-162.97871 -67.884041 13.22139 11378324
-163.32097 -67.759232 12.259411 9208440
-163.58667 -67.841499 11.289478 8813939
-163.8156 -67.960487 10.393993 9997957
-164.04044 -68.218903 9.33811 7038298
-164.30553 -68.30851 8.3610706 8551026
-168.47676 -68.376923 -16.64539 8089963
-168.95757 -68.269112 -17.241348 8353134
-169.16553 -68.229385 -18.154762 8418928
-169.20792 -68.123924 -19.053204 8813686
-169.62228 -68.010559 -20.065746 8682351
-169.5824 -67.933731 -21.304485 7893353
-170.04375 -67.794182 -22.195084 8551025
-170.12756 -67.72361 -23.318523 9143163
-170.23668 -67.642204 -24.03017 9143163
-170.33989 -67.58429 -25.161392 8747893
-170.2097 -67.582573 -25.980488 9734788
-161.71635 -66.56424 17.045578 7103835
-162.1301 -66.826843 16.046671 9800582
-162.58549 -66.844742 15.160414 8616822
-163.03299 -66.807838 14.291515 7564392
-163.28413 -67.064529 13.244669 10063235
-163.49736 -67.127869 12.469616 10063235
-170.91069 -67.368301 -26.08749 8484721
-170.76241 -67.374405 -27.118195 8748404
-170.97881 -67.266479 -27.997429 8617330
-171.28563 -67.006729 -29.022968 9209467
-171.46524 -66.756149 -29.9184 7827048
-171.51199 -66.629608 -30.935059 8089963
-171.40491 -66.618843 -31.826118 9668738
-171.43501 -66.517227 -32.544266 9143417
-161.56921 -65.79348 17.934113 7498593
-162.01775 -65.842476 17.036528 9997960
-162.46545 -65.836281 16.183926 6906459
-162.90395 -66.033943 15.18861 7564392
-171.96866 -65.918243 -31.018475 8747892
-171.89107 -65.907326 -31.988506 8090218
-171.76682 -65.979271 -32.950706 7630436
-171.81967 -65.772636 -33.905933 8617073
-161.21555 -64.6064 19.545647 9734788
-161.39803 -64.885109 18.976753 8419440
-161.91124 -64.814903 18.049156 7761508
-162.36137 -64.862137 17.149935 8747892
-162.69681 -65.057022 16.354155 6183250
-172.18375 -65.120567 -32.115707 6840663
-172.18781 -64.950607 -32.946953 7169883
-172.11769 -64.957664 -33.912029 8025191
-172.10629 -64.800346 -34.897816 7827558
-172.07928 -64.696449 -35.82827 8090987
-160.91838 -63.62698 20.885551 7301221
-161.35541 -63.808186 19.905952 8025199
-161.78859 -63.878731 19.020824 9077884
-162.25293 -63.836723 18.164635 8418668
-162.57503 -64.113831 17.329618 6510930
-172.39658 -64.420448 -32.729523 6511954
-172.50934 -63.888115 -33.900856 7696226
-172.45099 -63.857491 -34.897015 8616306
-172.35982 -63.903961 -35.959904 9274491
-172.31842 -63.867058 -36.74604 9274235
-160.86235 -62.722897 21.704348 8156528
-161.22794 -62.824528 20.92424 9340799
-161.68353 -62.825954 20.050495 7893614
-162.12395 -62.931019 19.124531 8222577
-172.74953 -63.056057 -34.814209 8616306
-172.69058 -63.026474 -35.813278 9405821
-172.59879 -63.074108 -36.879299 9340286
-172.59486 -62.900799 -37.842171 8484721
-172.68456 -62.502476 -38.641327 8287600
-160.64677 -61.654591 22.957869 7432805
-161.09842 -61.8465 21.941961 7958893
-161.6149 -61.8214 20.972557 9208957
-161.91002 -61.977345 20.284714 7893614
-172.90672 -62.384613 -36.07616 8089963
-172.99739 -61.984097 -36.872654 11050388
-172.99368 -61.809937 -37.837563 9011579
-172.90038 -61.860508 -38.909267 7432807
-172.90337 -61.684723 -39.7859 7038307
-160.02406 -60.331135 25.682938 9011573
-160.31505 -60.504791 24.839485 7432798
-160.56117 -60.798214 23.948486 7827298
-161.01628 -60.783134 23.065523 8484977
-161.43533 -60.891369 22.134752 7038045
-161.67181 -61.171886 21.374786 8682871
-173.28378 -61.128735 -37.246475 9011579
-173.31206 -61.029476 -37.981194 7695979
-173.28311 -60.998203 -38.777344 7301479
-173.29703 -60.899361 -39.82262 8090993
-173.32629 -60.763916 -40.837769 7827821
-173.41888 -60.551529 -41.889751 6511954
-173.34839 -60.580826 -42.535927 12432037
-159.19452 -59.365887 29.695171 7563358
-159.5043 -59.417503 28.760281 7432028
-159.81168 -59.470116 27.823311 6510930
-159.97298 -59.697941 26.860359 7958372
-160.26419 -59.887608 25.958048 9077107
-160.7674 -59.880779 25.007385 7695971
-161.02885 -60.153175 24.05657 9011573
-161.35074 -60.231998 23.310854 10063235
-173.88049 -60.115494 -40.674572 7630443
-173.89931 -60.005394 -41.696259 7367264
-173.85252 -59.976334 -42.749001 7433057
-174.06209 -59.758595 -43.675827 7893608
-174.04779 -59.669758 -44.63905 9997186
-174.01956 -59.577732 -45.600834 7630185
-155.83751 -58.289158 47.181637 7169629
-156.25114 -58.588112 46.486824 7827302
-156.79709 -58.773026 45.692196 6840663
-157.12325 -58.980061 45.104267 6840663
-156.84346 -58.986248 41.366192 7366239
-157.04068 -58.987793 40.610107 9078140
-157.33 -58.990105 39.474358 9735812
-157.56506 -58.992027 38.52636 9011576
-157.79404 -58.993946 37.5769 7432032
-158.01768 -58.995861 36.626133 7629411
-158.2352 -58.997765 35.674026 9209218
-158.44736 -58.999672 34.720684 13879492
-158.65341 -59.001568 33.765968 9406082
-158.86438 -59.007225 32.812244 10063238
-159.17041 -59.050396 31.877483 9405309
-159.55132 -59.109688 30.756483 7037274
-159.86572 -59.16024 29.820093 6839894
-160.17738 -59.211937 28.88133 6510930
-160.42509 -59.253933 28.128963 6510930
-174.79103 -59.346474 -45.802956 9536894
-174.6422 -59.372608 -46.66378 9734014
-174.87985 -59.283134 -47.630928 8089705
-175.11169 -59.193222 -48.601154 8089705
-174.91838 -59.229286 -49.683311 9142651
-175.9744 -59.169018 -50.900124 8089963
-175.78947 -59.169907 -51.535381 10260875
-175.53952 -59.171097 -52.381477 9470843
-176.56198 -59.121025 -53.845791 8616048
-176.43874 -58.894836 -54.505821 8024680
-176.1445 -58.84938 -55.485565 6972507
-155.64749 -57.396217 47.941936 9011320
-155.93942 -57.667789 47.416153 8090474
-156.55148 -57.790997 46.574493 7498593
-156.96683 -58.090633 45.877094 6840663
-176.6853 -57.994453 -54.816212 7235421
-176.42664 -58.039318 -55.575298 6906713
-176.29079 -57.769836 -56.327187 7564643
-155.68991 -56.722267 48.282074 8419440
-156.30745 -56.757168 47.485027 6775127
-156.66296 -57.027264 46.880234 9011320
-176.74779 -57.168846 -55.615269 7695972
-176.46939 -57.139744 -56.525497 8090474
-176.4006 -56.870544 -57.066372 7958632
-155.4463 -55.654942 49.21167 9736070
-155.99745 -55.758911 48.457726 8419697
-156.41393 -56.051762 47.763027 5393730
-176.96416 -56.418156 -55.840405 7235421
-176.87251 -56.058411 -56.562157 7827047
-176.61652 -55.970345 -57.473049 7432289
-176.59781 -55.521427 -58.072739 7563619
-155.32942 -54.503204 50.031143 11379356
-155.68555 -54.765697 49.429928 9274752
-156.2458 -54.741814 48.739281 8287858
-177.16324 -55.067036 -56.844368 9142907
-177.03725 -54.843044 -57.510296 9142907
-176.73895 -54.801487 -58.497601 7564133
-155.05121 -53.473522 51.040848 6511954
-155.43561 -53.746845 50.339169 8485238
-156.04991 -53.856777 49.502365 8485238
-156.34528 -54.122608 48.975735 7038307
-177.28246 -53.941425 -57.82716 9142907
-177.07735 -53.943737 -58.468704 8748661
-176.85248 -53.872181 -59.261635 5920082
-154.74391 -52.601883 52.179985 10853780
-155.12483 -52.769402 51.418549 8024937
-155.75386 -52.799309 50.492157 7367271
-156.14836 -53.23875 49.739388 7038307
-177.34169 -53.116425 -58.635921 7433060
-177.11638 -53.044884 -59.430077 6117460
-176.91045 -53.048519 -60.072723 5920082
-154.65912 -51.485317 53.118904 7037786
-155.02509 -51.806572 52.273033 11314331
-155.52626 -51.786358 51.44278 8682867
-155.85036 -51.918804 50.884872 7038307
-177.55708 -52.364101 -58.866196 6840925
-177.42946 -52.141243 -59.536217 5920082
-177.1543 -52.146282 -60.394577 6643288
-177.02583 -51.924721 -61.065536 7366751
-154.45973 -50.496395 54.15979 5919050
-154.78442 -50.740913 53.43821 6971994
-155.37672 -50.811771 52.389484 7696228
-155.80023 -51.071995 51.490337 7367263
-177.59549 -51.464226 -59.830738 5920082
-177.57491 -51.015125 -60.437065 6774359
-177.3143 -50.930885 -61.357475 7366751
-177.21803 -50.574326 -62.090019 8288109
-154.2942 -49.652077 55.040573 9866629
-154.73891 -49.701519 54.255875 7892839
-155.23352 -49.757961 53.382099 8748404
-155.50272 -50.065994 52.708729 9472640
-177.78941 -50.111729 -60.852551 7366751
-177.71736 -49.843666 -61.402306 8419951
-177.43221 -49.820717 -62.325916 9077370
-154.13222 -48.502029 56.133789 9209727
-154.42407 -48.84148 55.399662 8814199
-155.08804 -48.707226 54.376183 7300446
-155.41479 -48.950481 53.652199 8616563
-177.89491 -49.210167 -61.60833 9209467
-177.75293 -48.943913 -62.37542 9603715
-177.4872 -48.996124 -63.14735 9735046
-153.93518 -47.694069 57.042202 9407362
-154.37485 -47.806744 56.220646 7038307
-154.87096 -47.858074 55.347687 8221548
-155.19832 -48.099388 54.623596 7826790
-178.03462 -48.127235 -62.475296 10129803
-177.73013 -48.090702 -63.476009 8617080
-177.59909 -47.870155 -64.153595 9735046
-153.46808 -46.283203 58.836002 7564651
-153.74071 -46.581219 58.163807 7433065
-154.13284 -46.806366 57.342148 9012349
-154.67947 -46.860001 56.382351 7038307
-154.98053 -47.250893 55.596062 7037274
-178.14621 -47.082882 -63.384075 7367528
-177.94043 -46.810604 -64.358856 9143165
-153.2662 -45.472691 60.030628 7564651
-153.59502 -45.653393 59.223 7564651
-154.12 -45.737549 58.23481 7564651
-154.54234 -45.841305 57.404411 9998215
-154.80003 -45.997395 56.794434 8814201
-178.3073 -45.949066 -64.41156 8617331
-178.17574 -45.748623 -65.335907 9011576
-152.52469 -44.327541 63.584229 9537921
-152.79619 -44.341129 63.050457 8682867
-153.13748 -44.442207 62.115013 8946556
-153.35472 -44.6619 61.202339 8617335
-153.70042 -44.855259 60.260376 10064780
-154.06778 -45.02737 59.347191 10591124
-154.4023 -45.183117 58.553017 7893615
-178.70276 -45.083534 -65.367256 8222317
-178.41972 -45.065426 -66.304581 9208697
-178.7155 -44.662025 -67.248535 9669503
-178.7728 -44.509941 -68.254501 10064519
-178.54707 -44.516125 -68.908218 9208435
-149.9792 -43.716827 77.710037 6511954
-150.3997 -43.815334 77.08799 6972505
-150.72742 -43.918774 76.037704 6840663
-151.09227 -43.92046 75.311012 7563619
-150.97539 -43.926697 71.655205 10459022
-151.31859 -43.92836 70.927063 10063496
-151.74319 -43.930439 70.014854 8682867
-152.16179 -43.932514 69.099907 10459278
-152.49323 -43.934174 68.366325 12235690
-152.20422 -44.040062 65.829742 8617080
-152.57349 -44.057178 65.119003 9208956
-153.03319 -44.079441 64.228683 8682867
-153.49101 -44.102489 63.3367 8682867
-179.32683 -44.230629 -69.457222 8879478
-179.02225 -44.239552 -70.332336 8879478
-180.08614 -44.212585 -73.263733 9538176
-179.73175 -44.213684 -74.130112 10263180
-149.98322 -42.240704 78.3974 7892581
-150.16666 -42.811592 78.034332 6971992
-149.87094 -41.660694 78.720444 9076851
-150.52132 -41.894436 78.216843 7037274
-149.45311 -40.476578 79.49617 8813680
-150.04939 -40.812019 78.981293 8418923
-149.7467 -39.531528 79.726974 8353392
-150.16791 -40.010681 79.257675 7037274
-149.37575 -38.569199 80.375992 9800836
-149.95065 -38.643715 79.988228 8287856
-149.48911 -37.741074 80.667183 9011320
-150.06487 -37.813869 80.279602 8089963
-149.25449 -36.238407 81.467659 9471871
-149.63484 -36.826027 80.976303 9142906
-149.3822 -35.580254 81.675903 9603714
-149.98325 -35.904377 81.16301 10854036
-148.90067 -34.515209 82.438049 7563619
-149.5016 -34.836308 81.926613 9406335
-149.24617 -33.592789 82.62693 8814454
-149.62889 -34.176872 82.135605 10327437
-148.81056 -32.614811 83.322777 10064777
-149.38824 -32.67646 82.938843 8288365
-148.91925 -31.785892 83.617188 9471869
-149.49777 -31.845903 83.233467 8288365
-148.81133 -30.457045 84.419899 9471870
-149.14484 -30.900621 83.899216 8879989
-148.48964 -29.482288 85.500267 12431013
-148.98854 -29.771156 84.930298 10655629
-146.40225 -28.560713 96.217819 10261132
-146.98036 -28.606737 95.839546 9208696
-147.43802 -28.889446 90.664948 9274234
-148.08942 -28.892056 89.597488 8484721
-148.51964 -28.893829 88.883461 9011065
-148.25592 -29.119795 86.796906 9142136
-148.90987 -29.167719 86.219841 10851980
-146.4971 -27.711742 96.530655 8484978
-146.26743 -26.537485 97.186951 8484720
-146.63196 -26.936049 96.786667 8747892
-145.74194 -25.300648 98.053871 6511954
-146.26624 -25.694319 97.556763 8089963
-145.85112 -24.593748 98.29567 7104091
-146.53627 -24.71142 97.819672 8156011
-146.24745 -23.671757 98.45369 7564642
-145.76375 -22.620647 99.213486 8288365
-146.3894 -22.623348 98.824661 8814198
-145.47765 -21.421692 99.915466 8089963
-146.09013 -21.715525 99.407455 7892839
-145.58551 -20.71069 100.15991 8089963
-146.21237 -20.709612 99.771973 8945270
-145.41267 -19.2652 100.89975 8089963
-145.77005 -19.714956 100.48141 8089963
-145.43167 -18.618874 101.17081 7958377
-146.01546 -18.647923 100.79643 8945271
-145.52165 -17.759192 101.49134 8024170
-145.22885 -16.602356 102.17825 9274237
-145.8056 -16.906473 101.68768 7826791
-145.0657 -15.365991 102.99591 8879732
-145.446 -15.70048 102.47845 8879476
-144.67412 -14.501084 104.03172 7564643
-145.19626 -14.775889 103.45583 9340026
-143.01062 -13.493441 113.94912 9802122
-143.65625 -13.51661 113.61794 8092019
-143.41754 -13.848981 111.20055 10590862
-144.08484 -13.851274 110.33534 8814451
-144.53185 -14.102591 105.25437 7564643
-145.26122 -14.125862 104.7187 9734270
-142.7879 -12.145574 114.61398 7565675
-143.12579 -12.678304 114.22668 7697261
-142.78395 -11.474008 114.89192 11512481
-143.36 -11.715919 114.50558 13551549
-142.85077 -10.579342 115.22684 8881021
-142.58131 -9.5991268 115.76486 7565675
-143.13385 -9.6882048 115.45329 7565163
-142.65303 -8.7310448 116.087 9998985
-142.42323 -7.3430824 116.77341 13156535
-142.84973 -7.8332562 116.35919 12959156
-142.49469 -6.4703579 117.09759 9933191
-142.12228 -5.5282011 117.6712 10788759
-142.67694 -5.6121984 117.36061 9736329
-142.30917 -4.6987233 117.92001 11775140
-142.88992 -4.933989 117.53419 8092019
-142.01141 -3.5580268 118.53832 9736329
-142.3399 -3.9030375 118.23273 10130830
-142.00435 -2.5805516 118.94476 8551282
-142.65924 -2.879746 118.49563 9866374
-141.84917 -1.2730544 119.56082 9406590
-142.17857 -1.6182177 119.25471 8682867
-141.79697 -0.5390178 119.98282 9077625
-142.42705 -0.81679231 119.46135 7959144
-141.7198 0.412718 120.81626 8485232
-142.10619 0.1044455 120.36067 7959144
-139.80434 1.5512191 130.79086 9406334
-141.25063 1.0348076 122.58522 12432037
-141.69034 1.0351263 122.36989 9537150
-139.34845 2.2628996 131.30975 7234653
-140.01022 2.2647409 130.98169 7563874
-139.65677 3.3355968 131.59717 4867903
-139.99536 2.9792082 131.2825 6510930
-139.15007 4.6467595 132.38751 9736844
-139.67302 4.3155169 131.99162 4933439
-139.52702 5.657115 132.61526 9537920
-138.88225 6.8051987 133.4072 10591124
-139.47832 6.5711536 133.01491 11183002
-139.19093 7.5812535 133.57262 9472645
-139.26149 8.4536753 133.89586 8814715
-138.97337 9.4689245 134.45604 7959151
-139.57153 9.2354517 134.06288 7038307
-139.02766 10.444283 134.83023 9077374
-138.73393 11.497666 135.40994 7893358
-139.30551 11.427763 135.09747 7695978
-138.79436 12.447288 135.77113 5920082
-138.52263 13.376095 136.28865 6050892
-139.09528 13.30744 135.97614 5920082
-138.7347 14.32247 136.62631 6380114
-138.51025 15.38213 137.59062 6182221
-137.1841 16.857679 142.99715 8420470
-137.65614 16.872488 142.79935 9340801
-137.20288 17.697855 143.24438 10590353
-137.81543 17.634043 142.96242 10590867
-137.36328 18.634146 143.52444 10985622
-137.35318 19.40089 143.85834 9735558
-165.87724 -69.366165 1.2446175 10261132
-165.99953 -69.416748 0.64565277 8287859
-166.16307 -69.486374 -0.35407642 8682616
-164.57045 -68.40036 7.3816032 9011065
-164.83537 -68.494812 6.3993168 8945272
-165.02202 -68.798096 5.4122314 8089963
-165.28447 -68.89669 4.4247665 8813686
-165.61395 -68.785622 3.43577 8287342
-165.79643 -68.924652 2.555336 8945272
-166.11827 -68.848816 1.6453972 7760997
-166.40715 -68.863892 0.64638138 9537667
-166.72505 -68.815804 -0.4067879 9208703
-166.96323 -68.857147 -1.362133 8090480
-167.12125 -68.988503 -2.3191109 8682359
-167.1396 -69.186302 -3.3762093 7893358
-167.22121 -69.228767 -4.1835175 9406331
-167.57747 -69.147346 -5.2024651 8419433
-167.80614 -69.096413 -6.2887573 9340542
-167.94402 -69.039276 -7.1584511 9602944
-168.30518 -68.85495 -8.3388062 8681843
-168.30211 -68.841118 -9.2053375 10129286
-168.58237 -68.688133 -10.199009 10721678
-168.8123 -68.563965 -11.151764 9340027
-168.84579 -68.55648 -12.093945 6576979
-169.0146 -68.465462 -13.21101 7564386
-168.91672 -68.460907 -14.227371 6445650
-164.11264 -67.549431 9.9360275 8616819
-164.27211 -67.601738 9.3502121 8287854
-164.53784 -67.690712 8.371769 8156012
-164.80351 -67.781868 7.3909397 8287342
-165.06908 -67.875557 6.4072514 8221549
-165.39211 -67.851349 5.382782 8418928
-165.6256 -67.910805 4.5463715 8616564
-165.96948 -67.736198 3.6411629 7366239
-166.23538 -67.838356 2.6459732 7563618
-166.50119 -67.943054 1.6475792 7760998
-166.76706 -68.050079 0.64633179 9537667
-166.84718 -68.323463 0.044456452 10853012
-169.45102 -68.147636 -13.040417 7564386
-169.59256 -68.078484 -14.147675 8090730
-169.62074 -68.088676 -15.027809 8419438
-169.80913 -67.909866 -16.070004 8419438
-169.89873 -67.882744 -16.95195 8155755
-170.04268 -67.83918 -18.042362 8813428
-170.09749 -67.822281 -19.015438 8747892
-170.38899 -67.656952 -20.018372 8879735
-170.45901 -67.597115 -20.915142 8353390
-170.64865 -67.532997 -22.065628 8617075
-170.64268 -67.574661 -22.900845 8090987
-163.27655 -66.608421 13.837158 7564392
-163.43681 -66.654823 13.2563 9471355
-163.74646 -66.746796 12.130896 9537148
-163.97055 -66.815208 11.314121 8551025
-164.24312 -66.843262 10.389233 8156524
-164.58095 -66.779045 9.3663216 8287854
-164.84756 -66.867142 8.3860798 7892584
-165.17143 -66.837364 7.3658848 7563619
-165.40515 -66.82502 6.6180305 7892584
-165.67802 -66.862968 5.6799145 8879737
-165.9729 -66.871643 4.7065449 7564392
-166.20508 -67.115097 3.645237 7761772
-166.41838 -67.195892 2.8483295 7893358
-170.51311 -67.292686 -18.092873 9931137
-170.61026 -67.249725 -19.038979 8616307
-170.76541 -67.146538 -19.924244 10064006
-170.97037 -66.946983 -20.922916 8287856
-171.05876 -66.94841 -21.910057 8155756
-171.18089 -66.905266 -23.016098 8682100
-171.22458 -66.9422 -23.909897 9471616
-171.34555 -66.914536 -24.941971 8024426
-171.49307 -66.845749 -25.966106 8287342
-171.48846 -66.951607 -26.937595 8090474
-171.67349 -66.785934 -27.899845 8814709
-171.89122 -66.431496 -28.786079 9209467
-163.06313 -65.628548 15.202694 7564392
-163.45734 -65.81012 14.197916 7827563
-163.74211 -65.835663 13.279598 9011061
-164.01569 -65.858727 12.357744 9274233
-164.35429 -65.789215 11.338741 9405820
-164.58525 -65.906219 10.439161 8551026
-164.92329 -65.813843 9.450428 9077114
-165.10371 -66.026054 8.5970612 9011065
-165.36537 -66.066635 7.6923809 7958377
-165.66296 -65.981583 6.8268032 7563619
-171.39528 -66.376526 -22.583515 7892584
-171.66209 -66.055946 -23.882111 9734788
-171.7924 -65.992508 -24.814789 8682867
-171.90146 -66.008499 -25.817467 8484975
-172.06949 -65.889275 -26.903057 7892838
-172.1367 -65.966446 -27.76342 7695973
-172.16547 -65.798027 -28.832886 8090730
-172.07887 -65.833801 -29.88446 7695205
-172.10475 -65.639877 -30.530048 8616307
-162.94693 -64.794815 16.081451 7235423
-163.38159 -64.817848 15.230961 8353904
-163.75525 -64.858437 14.404251 9011833
-164.1066 -64.761993 13.426535 9208698
-164.33873 -64.873566 12.529715 8419182
-164.60747 -64.952614 11.55382 8879476
-164.79926 -65.239067 10.571095 8287854
-165.01392 -65.305893 9.7871037 9340286
-172.46837 -65.12204 -28.031265 9208435
-172.46902 -64.973381 -28.799488 8419180
-172.41727 -64.920753 -29.816219 8155756
-172.32143 -64.998245 -30.78355 8353135
-172.28296 -64.954689 -31.562355 7169373
-162.55731 -63.657322 17.723005 8089960
-162.86423 -63.749828 17.062252 7695202
-163.21782 -63.914478 16.255463 8353645
-163.74258 -63.747486 15.381945 8617330
-164.02376 -64.106789 14.492981 8748916
-164.29857 -64.182854 13.520847 8090218
-172.6983 -64.141853 -29.866043 8023911
-172.74159 -63.850937 -30.768211 8287083
-172.6116 -64.012138 -31.787457 9143415
-172.63084 -63.770649 -32.774929 9735806
-172.63745 -63.587509 -33.638645 6511954
-162.34494 -62.696251 18.885921 7038307
-162.65443 -62.842682 18.178013 7695202
-163.12962 -62.776604 17.319948 8616303
-163.56749 -62.832256 16.43758 6511442
-163.84157 -63.142033 15.668909 8288365
-173.02409 -63.050102 -30.911884 9207155
-173.03185 -62.86409 -31.774254 9273977
-172.93472 -62.944042 -32.747437 7761764
-172.88017 -62.897408 -33.773304 7169627
-172.87785 -62.754974 -34.551723 8089963
-162.21822 -61.766739 19.860138 7433064
-162.55435 -61.797749 19.192051 8551541
-163.00029 -61.764992 18.363811 9734526
-163.39056 -61.922981 17.492031 9076597
-163.71649 -62.19902 16.650652 6510930
-173.24849 -62.222004 -32.030609 7563619
-173.27344 -62.029125 -32.683224 9141879
-173.18416 -62.070229 -33.747341 7958632
-173.20222 -61.83057 -34.741753 8681842
-173.13445 -61.84338 -35.646175 10392201
-173.20102 -61.52549 -36.356377 11379095
-161.83366 -60.352661 22.188305 6511954
-162.07057 -60.719189 21.171417 7433061
-162.42006 -60.848415 20.319904 7630443
-162.91753 -60.851513 19.346739 11314330
-163.2355 -61.160191 18.389219 12102816
-163.50085 -61.235931 17.82139 9340027
-173.48634 -61.270962 -33.662891 7563619
-173.58557 -60.926586 -34.695751 9997956
-173.61066 -60.830685 -35.658295 12563623
-173.48666 -60.907551 -36.635399 10458766
-173.54643 -60.747417 -37.522129 7038307
-160.85413 -59.329224 26.808769 8287336
-161.09702 -59.373173 26.052349 7038298
-161.39807 -59.429058 25.104847 8353644
-161.5042 -59.643578 24.126745 10984849
-161.82486 -59.806339 23.12291 9537147
-162.26163 -59.823174 22.246099 7827300
-162.60464 -59.952473 21.376366 8288112
-162.92584 -60.206535 20.342232 7564651
-174.01263 -60.310062 -36.090977 12432037
-174.04478 -60.209476 -36.827148 8617075
-174.10712 -60.063217 -37.688164 7959148
-174.03165 -60.073853 -38.670979 7630443
-174.15347 -59.837097 -39.722713 10064522
-174.17601 -59.726204 -40.744183 8288371
-174.694 -59.462822 -41.531494 7104094
-174.52155 -59.491592 -42.602081 8354670
-157.0614 -58.540909 45.495338 6840663
-157.53024 -58.698643 44.673309 7103835
-157.90677 -58.773109 43.932438 8617080
-157.75836 -58.984753 42.828957 8222579
-158.06374 -58.987091 41.688034 8222065
-158.31209 -58.98904 40.735603 10459023
-158.55437 -58.990978 39.781574 8024170
-158.7912 -58.992912 38.826267 7037274
-159.02199 -58.994846 37.869366 7826790
-159.24731 -58.996777 36.911289 9537408
-159.46657 -58.998703 35.951675 8617331
-159.68039 -59.000622 34.990913 7564643
-159.88806 -59.002537 34.028805 10063751
-160.09033 -59.004444 33.065582 10260617
-160.28635 -59.006351 32.100998 8418670
-160.51419 -59.008633 30.942015 6510930
-160.69785 -59.010532 29.975033 7958114
-160.8869 -59.016666 29.008982 7234651
-160.96022 -59.130177 27.956406 7366237
-161.27359 -59.157841 27.177479 8287336
-161.78036 -59.166374 26.162537 7038298
-161.96262 -59.199722 25.591988 7038298
-174.86317 -59.434998 -40.461166 8288371
-175.28639 -59.257698 -42.788952 9012600
-175.14973 -59.282936 -43.650398 7762277
-175.00996 -59.308472 -44.511791 7301470
-175.5119 -59.215523 -45.465496 7564642
-175.59579 -59.160858 -46.465973 7564642
-175.42719 -59.161766 -47.100014 7563619
-176.57359 -59.166008 -48.777462 9735812
-176.39639 -59.166916 -49.414967 9142651
-176.15666 -59.168118 -50.264011 8616307
-177.11055 -58.901535 -52.38596 7431775
-176.81755 -58.852573 -53.366131 9273720
-157.40723 -57.627888 45.593422 6314575
-157.82686 -57.924179 44.892662 7761253
-177.27989 -58.225403 -52.669044 10260358
-177.15688 -57.997833 -53.329975 10260358
-176.88757 -57.995472 -54.179306 7958887
-157.05908 -56.677578 46.586147 8024682
-157.74231 -56.742954 45.688629 6774614
-158.16122 -57.043659 44.98624 5920074
-177.4232 -57.172127 -53.488884 8945012
-177.14577 -57.139839 -54.399426 7959144
-177.01028 -56.86871 -55.152153 7959144
-156.75214 -55.618824 47.590351 7366752
-157.3028 -55.796867 46.793839 7234910
-157.85463 -55.977047 45.994614 8288110
-177.55045 -56.058796 -54.431602 7959144
-177.29552 -55.967651 -55.342522 7498593
-177.21025 -55.517086 -56.15382 7563619
-156.61511 -54.810707 48.234547 9603202
-157.1837 -54.704533 47.581402 7563618
-157.5659 -55.098354 46.870743 7432288
-177.7177 -54.840683 -55.375072 8880504
-177.44579 -54.840767 -56.229279 9998216
-177.32007 -54.616104 -56.895241 12433069
-156.39505 -53.282719 49.403553 7038307
-156.78999 -53.725883 48.648003 8484978
-157.36427 -53.799503 47.882725 8221548
-177.8857 -54.164005 -55.663277 10788500
-177.76006 -53.938545 -56.329945 12433069
-177.48732 -53.939796 -57.185513 9537665
-156.19682 -52.400757 50.16777 8485238
-156.49353 -52.664421 49.640633 8485238
-157.11247 -52.774521 48.797852 8353393
-157.53409 -53.0634 48.098843 9011064
-178.00623 -53.035858 -56.644985 12433069
-177.80125 -53.036938 -57.287777 9537921
-177.5766 -52.963764 -58.082047 8485490
-156.23489 -51.731216 50.510765 7367010
-156.94528 -51.80521 49.574085 8353645
-157.33566 -52.176739 48.866165 9340030
-178.11546 -52.133423 -57.390129 8617847
-177.84132 -52.135735 -58.248589 7367525
-177.7139 -51.912174 -58.918602 5920082
-156.01489 -50.475071 51.560028 7827814
-156.5388 -50.769108 50.690231 6709333
-156.9614 -51.051682 49.993828 7498591
-178.2827 -51.455772 -57.681839 8092019
-178.23387 -51.005249 -58.378529 7235938
-177.95879 -51.008617 -59.238834 5919566
-177.90887 -50.559372 -59.937439 6510930
-155.8416 -49.69133 52.404709 10985623
-156.38867 -49.650497 51.556366 8288365
-156.87033 -49.874313 50.795753 6906712
-178.47937 -50.100777 -58.698006 6643287
-178.3511 -49.876938 -59.370811 5787722
-178.07506 -49.881329 -60.232941 6314838
-155.64064 -48.700054 53.450089 10787988
-156.0808 -48.819973 52.622719 11249051
-156.65559 -48.822899 51.698559 8288365
-178.58676 -49.19735 -59.450008 5656394
-178.44594 -48.929008 -60.215927 6578524
-178.16103 -48.904289 -61.140965 8092019
-155.17935 -47.27153 55.246086 7037274
-155.50592 -47.601345 54.460354 8287341
-155.99791 -47.714314 53.550575 11313816
-156.39297 -47.936771 52.726112 10261385
-178.7028 -48.067818 -60.447422 6907489
-178.42543 -48.073078 -61.312691 8092019
-178.29547 -47.850685 -61.98914 8486262
-155.05971 -46.434696 56.044685 10590351
-155.28903 -46.664051 55.49456 9998214
-155.78748 -46.715992 54.617218 8748659
-156.33228 -46.815979 53.62748 13221296
-178.76529 -47.209541 -61.286163 8223348
-178.53947 -46.943871 -62.316013 9209727
-178.48714 -46.494503 -63.022293 7039331
-154.8186 -45.603569 57.223721 8814201
-155.27907 -45.599888 56.492439 8814201
-155.75375 -45.69347 55.567924 9866628
-156.04219 -46.020935 54.705097 9800833
-156.39737 -46.160023 53.985512 13023917
-179.04457 -46.48172 -61.286396 8486262
-178.99011 -46.042137 -62.136219 8157554
-178.80841 -45.792282 -63.233246 7302502
-178.67599 -45.631626 -64.059204 9209467
-154.23123 -44.418915 60.192287 8814715
-154.51498 -44.558601 59.376198 8814715
-154.86877 -44.728363 58.454842 7038307
-155.29128 -44.873962 57.518379 11116437
-155.83463 -44.922638 56.533783 7038307
-179.26183 -45.205376 -63.297108 8486262
-179.1291 -45.043865 -64.124855 8617075
-179.07036 -44.798447 -64.932137 8353647
-179.29576 -44.496788 -66.728577 9340030
-151.21992 -43.440975 77.108978 8485744
-151.81879 -43.787079 76.588074 6511954
-151.36324 -43.921726 74.764618 8550512
-151.72168 -43.923409 74.034698 10524299
-152.16454 -43.925518 73.119797 9734531
-152.60225 -43.927616 72.202454 8616307
-152.86227 -43.928879 71.650803 8616307
-152.65749 -43.935001 67.998917 8617080
-152.983 -43.936665 67.262711 7893615
-153.38551 -43.938732 66.340561 8090737
-153.78209 -43.940796 65.415771 8682867
-154.1734 -43.942863 64.488823 10261900
-154.08507 -44.030468 63.366058 9801351
-154.03748 -44.131485 62.263664 8814715
-154.49057 -44.156597 61.367378 8354165
-154.94112 -44.18235 60.468967 7038307
-155.2093 -44.197903 59.928474 8814715
-179.73944 -44.487019 -65.419739 8617075
-179.51808 -44.491756 -66.074265 8945784
-180.08028 -44.211033 -67.267487 10261132
-179.78027 -44.21846 -68.1436 10064007
-179.55417 -44.2244 -68.800278 9867139
-180.86841 -44.210075 -71.307999 9734529
-180.52309 -44.211201 -72.178093 9867141
-150.94177 -42.379498 77.745117 6511954
-151.40195 -42.765835 77.292122 8682867
-151.07619 -41.719402 77.950844 6906456
-151.6765 -42.061039 77.430931 7959144
-150.67949 -40.433228 78.757126 7695718
-151.24037 -40.783752 78.257607 7038046
-150.98959 -39.627605 78.916954 6972512
-150.52737 -38.718884 79.599075 7564392
-151.10632 -38.794876 79.208099 8748408
-150.65926 -37.617504 79.99794 8024941
-151.22272 -37.961708 79.499588 5920082
-150.42207 -36.520561 80.623047 10854036
-151.01546 -36.734604 80.162987 9209214
-150.53867 -35.717392 80.901382 9800836
-151.14349 -36.044067 80.385086 11379356
-150.13171 -34.444641 81.708076 8089963
-150.69708 -34.781441 81.211761 8682100
-150.43767 -33.634609 81.87233 8814197
-149.96773 -32.738678 82.553574 8288365
-150.5495 -32.801575 82.166626 9143675
-150.09326 -31.636797 82.956696 6972505
-150.66112 -31.967789 82.461365 9143675
-149.93765 -30.565075 83.633141 8419695
-150.48369 -30.755388 83.148056 7498592
-149.5656 -29.216385 85.640442 12431013
-149.90952 -29.363895 85.040695 8090986
-150.11403 -29.875727 84.141083 8288109
-147.5603 -28.653343 95.459839 9998727
-148.10048 -28.752424 94.884911 10064520
-148.38489 -28.884359 94.22937 9735297
-148.73338 -28.894699 88.525581 9405051
-149.15788 -28.896437 87.80806 8945527
-149.68422 -28.898607 86.908623 8485232
-149.23773 -29.192003 85.930389 12431013
-147.65718 -27.801596 95.772621 9538176
-147.35693 -26.560497 96.501892 9997957
-147.79416 -27.023407 96.028381 9340797
-146.90166 -25.381393 97.300079 12037537
-147.5139 -25.682793 96.788803 10063750
-147.27184 -24.689791 97.373413 13353395
-147.74254 -24.86578 97.004799 9932166
-146.8454 -23.226025 98.278336 10261132
-147.41298 -23.747576 97.698395 10326924
-146.95575 -22.514591 98.521385 9471616
-147.55762 -22.695843 98.069168 10063754
-146.64247 -21.489243 99.164276 10261132
-147.25809 -21.784723 98.653564 9537409
-146.80301 -20.548342 99.476669 8813685
-147.3828 -20.7756 99.017975 8879478
-146.50912 -19.538105 100.10099 8945271
-147.09544 -19.569185 99.724106 9405820
-146.60107 -18.677326 100.42076 11247766
-147.18825 -18.706985 100.04395 11511452
-146.72339 -17.723349 100.76186 9472385
-146.39984 -16.654135 101.42908 8222063
-147.05132 -16.745535 100.98498 8090992
-146.22198 -15.411997 102.23633 8616305
-146.61581 -15.749141 101.72585 8353391
-146.18639 -14.355759 103.52509 9142904
-146.35553 -14.820149 102.69604 9801088
-144.30429 -13.540035 113.28539 10261900
-144.74666 -13.853567 109.4659 10853778
-145.53401 -13.856267 108.41753 10261903
-145.80914 -14.143596 104.3156 10851980
-146.17511 -14.155488 104.04605 10851980
-143.89104 -12.330732 113.98833 8552313
-144.31627 -12.823185 113.57406 10985364
-143.96442 -11.46528 114.30765 11182744
-144.65945 -11.756674 113.84164 10787215
-143.78659 -10.380819 114.84303 11511452
-144.11359 -10.727656 114.53741 12037795
-143.78398 -9.7050781 115.12283 8025201
-144.36415 -9.9459734 114.73488 9537923
-143.85278 -8.8043194 115.45992 7696236
-143.62958 -7.5782447 116.07628 11380124
-144.13893 -7.9060001 115.68772 7564651
-143.33289 -6.3036699 116.74925 14077637
-143.66151 -6.6497827 116.44311 14735567
-143.32942 -5.6222973 117.03178 10656401
-143.98375 -5.6325002 116.70206 11379356
-143.49883 -4.6689477 117.34046 8946043
-143.12485 -3.7216916 117.91696 9537409
-143.68352 -3.8038785 117.60512 9537409
-142.87292 -2.1952844 118.67139 10261132
-143.38588 -2.6569023 118.22594 9142651
-143.89903 -3.1198211 117.77986 10261132
-142.96536 -1.4314212 118.94029 9932423
-143.52548 -1.5108588 118.62883 9866374
-142.68582 -0.35771322 119.67733 7959144
-143.21332 -0.58925515 119.24162 7564386
-142.40102 0.56624001 120.60932 7959144
-142.91106 0.3347159 120.15796 9472383
-143.42107 0.10249071 119.70591 9406590
-140.46642 1.5521343 130.46222 9406334
-141.13054 1.5530952 130.13263 7959144
-142.35172 1.0356004 122.04604 8813428
-143.01491 1.0360711 121.72131 9867398
-140.67358 2.266679 130.65277 9274491
-141.11699 2.2679353 130.43301 9208184
-140.84825 3.1741478 130.93877 8747890
-140.26161 4.4154353 131.74014 5919050
-140.90929 4.1001358 131.28877 9208184
-140.68713 5.3794794 131.92471 6050636
-140.31602 6.6611705 132.63559 9208955
-140.74272 6.3439145 132.29321 7563874
-140.42253 7.549242 132.94737 9603971
-140.10135 8.7576399 133.60332 6446426
-140.5293 8.4403162 133.26039 6249047
-140.19064 9.5380993 133.87982 6446424
-139.98981 10.706665 134.46078 7564643
-140.3324 10.346392 134.14238 7367521
-139.97632 11.441497 134.77019 7433061
-140.57822 11.208341 134.37543 6972765
-139.65483 12.663248 135.43306 11379356
-139.998 12.301898 135.11388 10458511
-139.90086 13.532701 135.66905 6775134
-140.24414 13.170325 135.3494 9537667
-139.41797 14.642097 136.50713 7038298
-139.8586 14.318079 136.06267 5920082
-139.11343 15.654721 137.52525 6643284
-139.75008 15.365908 136.96245 6511185
-138.36617 16.895054 142.50194 7564651
-138.4295 17.57016 142.67987 9011838
-139.07797 16.917915 142.20377 7564651
-138.41479 18.244047 142.89204 9472388
-167.6319 -68.661827 -3.1851463 8222065
-167.94356 -68.639145 -4.2702827 7367004
-168.13419 -68.695946 -5.1394272 7630175
-168.41229 -68.652946 -6.0414124 7630177
-168.59953 -68.62542 -7.0648155 8879479
-168.64153 -68.658386 -7.8805313 8616307
-166.84499 -67.362465 1.248291 8287859
-167.00496 -67.426498 0.64616394 8287859
-167.13873 -67.721382 -0.15788653 8945531
-167.40523 -67.832413 -1.1660118 7761772
-167.67168 -67.945763 -2.1772575 9734788
-167.98509 -67.899307 -3.1425514 8813945
-168.30354 -67.815689 -4.0779762 6906712
-168.57986 -67.857826 -5.0326157 6182989
-168.88849 -67.893967 -6.1181297 7958887
-169.0641 -67.842361 -7.0855408 9734788
-169.10449 -67.945366 -7.9906616 8747893
-169.2411 -67.891365 -8.9823074 7564393
-169.27841 -67.990158 -9.955452 7959148
-169.47664 -67.853394 -10.991795 7169377
-169.545 -67.90992 -12.021477 6708822
-169.73576 -67.774559 -13.062832 7564386
-169.95413 -67.523132 -13.903828 8419181
-170.09956 -67.494873 -14.947311 8419438
-170.12759 -67.528641 -15.569374 7564643
-166.14851 -66.62191 4.4441452 7564392
-166.36217 -66.701065 3.6479931 7761772
-166.67142 -66.723106 2.6108932 9011322
-166.86583 -66.893318 1.7642822 8747893
-167.22649 -66.748894 0.76667404 9010035
-167.45667 -66.889221 -0.15958026 7563620
-167.79732 -66.848404 -1.2209778 7629926
-168.07164 -66.902725 -2.1842003 7630184
-168.36618 -66.785316 -2.9993668 8287855
-168.63443 -66.901558 -4.0198898 7695968
-168.90288 -67.020119 -5.0436363 5920074
-169.03673 -67.326523 -5.8622055 8353645
-169.38942 -67.002892 -7.1005478 9142651
-169.46669 -67.048958 -7.921627 9142651
-169.64084 -66.897171 -8.9540062 7959405
-169.73634 -66.958679 -9.9840317 7301477
-169.85106 -66.947708 -10.948936 8485233
-170.00957 -66.813797 -11.901936 9932679
-170.07915 -66.931038 -12.884628 9208956
-170.25127 -66.788803 -13.929352 8879218
-170.34416 -66.86068 -14.969776 7827559
-170.41322 -66.971497 -15.927414 8419438
-170.53296 -66.959656 -16.93346 9339514
-170.70717 -66.772415 -17.864937 8616049
-170.83247 -66.712296 -18.752007 8813428
-171.00247 -66.581039 -19.813591 10064006
-171.07462 -66.648003 -20.657265 10064006
-165.3358 -65.408707 8.6080437 9734788
-165.60397 -65.497063 7.6225719 8287342
-165.83809 -65.73114 6.5668507 7892841
-166.06212 -65.886902 5.6413498 8090479
-166.38768 -65.862083 4.60956 6906719
-166.6432 -65.919952 3.703083 8156272
-167.00662 -65.712242 2.7752686 8945531
-167.23778 -65.847046 1.852787 7038307
-167.55544 -65.867958 0.78962708 7234395
-167.85405 -65.849213 -0.16172412 8089189
-168.04216 -65.924828 -0.87001419 8089446
-168.33789 -66.046158 -1.9864655 7169373
-168.55299 -66.136086 -2.8006554 8419696
-169.99051 -66.336449 -10.205357 7564648
-170.02861 -66.361702 -10.618622 8682867
-170.29947 -66.015976 -11.872009 8748149
-170.45264 -65.946045 -12.983353 8418928
-170.54321 -65.976753 -13.871788 8353388
-170.66444 -65.959999 -14.875099 7432806
-170.81317 -65.857086 -15.84203 9340021
-170.88123 -65.98159 -16.834499 9208186
-171.08165 -65.744568 -17.822353 8813428
-171.15009 -65.859756 -18.788177 9076856
-171.24107 -65.940979 -19.842251 10327177
-171.33157 -66.024315 -20.898632 8682613
-171.48334 -65.87896 -21.756104 8155756
-171.65289 -65.752388 -22.828812 8353135
-171.82225 -65.627464 -23.905022 8616561
-171.87569 -65.681984 -24.545532 8287850
-164.94522 -64.36927 11.177458 9734014
-165.02995 -64.623199 10.58481 9010806
-165.29893 -64.706314 9.603117 9602687
-165.56783 -64.791519 8.6190681 9340031
-165.83667 -64.879135 7.6321945 9734788
-166.16296 -64.848778 6.6047974 7827304
-166.45229 -64.85463 5.6528015 7630185
-166.74185 -64.862198 4.6979904 6906719
-167.015 -64.818832 3.8603954 7893358
-167.28429 -64.916969 2.8590508 7761772
-167.55363 -65.017365 1.854908 6709340
-167.68997 -65.307037 1.0491333 6445136
-170.87793 -65.359657 -14.81179 7235684
-171.14795 -65.021515 -16.082218 9734788
-171.20372 -65.066124 -16.711552 9734788
-171.37547 -64.929268 -17.770901 8945272
-171.46768 -65.007256 -18.824326 9076858
-171.60553 -64.925926 -19.766285 8748149
-171.73615 -64.890678 -20.792328 7432548
-171.88217 -64.810127 -21.808308 8418928
-171.95442 -64.878822 -22.659451 9142651
-172.04424 -64.966774 -23.725861 8748148
-172.18506 -64.931786 -24.844833 8156264
-172.28464 -64.915924 -25.664452 8090214
-172.41393 -64.881798 -26.685196 8353385
-172.55745 -64.810997 -27.761993 8221543
-164.1797 -63.699398 14.506018 8288365
-164.53371 -63.615788 13.459343 8419183
-164.72102 -63.849247 12.557037 9143162
-164.99658 -63.87204 11.629091 8221804
-165.33746 -63.802105 10.603086 9734014
-165.60738 -63.884323 9.6195908 9734014
-165.93442 -63.848591 8.596386 9536894
-166.22455 -63.849377 7.6482334 8682100
-166.51483 -63.85183 6.697382 7695718
-166.74442 -63.866825 5.9292374 6972503
-166.98044 -64.103256 4.8643188 6972503
-167.25044 -64.198174 3.8647423 7893358
-171.70581 -64.367882 -18.851444 9734788
-172.0298 -64.085571 -20.776638 7760998
-172.20058 -63.954773 -21.85001 8879479
-172.27322 -64.02269 -22.702721 8747893
-172.41026 -63.946552 -23.656883 8221803
-172.56117 -63.843712 -24.646282 8287850
-172.68523 -63.842232 -25.725708 8353644
-172.75667 -63.916237 -26.587368 9208435
-172.83809 -64.008194 -27.666039 9208435
-172.80725 -64.060982 -28.72897 8945264
-172.92619 -63.581425 -29.534702 8286824
-164.17471 -62.71439 15.367451 7696228
-164.48508 -62.882153 14.531509 8551537
-164.78412 -62.833866 13.615368 9472127
-165.10326 -62.825081 12.584339 6510930
-165.37421 -62.902061 11.603973 7695461
-165.72194 -62.775799 10.625917 10457479
-165.93332 -62.969669 9.6942577 9997186
-166.19431 -63.071533 8.7154865 10391687
-166.42642 -62.99102 8.0579205 9536894
-172.53053 -63.397564 -22.948944 8089963
-172.85342 -63.125988 -24.901451 8682867
-172.98509 -63.06076 -25.842503 8616816
-173.07765 -63.056301 -26.638031 8616300
-173.21016 -62.983826 -27.604736 8155750
-173.23001 -62.920677 -28.640144 8287080
-173.20668 -62.790497 -29.655228 8286824
-173.16743 -62.714424 -30.615414 6906455
-163.7764 -61.540394 17.054163 7037274
-164.0127 -61.745159 16.440489 6709080
-164.42744 -61.829842 15.579634 6709337
-164.86519 -61.859985 14.563221 8090991
-165.13719 -61.931904 13.585787 10525072
-165.40907 -62.005772 12.606209 6642774
-165.61534 -62.176746 11.719902 7563361
-173.52707 -62.108055 -28.636871 7563359
-173.54497 -61.877735 -29.585411 7695201
-173.44948 -61.953178 -30.558552 6511954
-173.38451 -61.943848 -31.538334 8024169
-163.49101 -60.356045 19.015011 13023917
-163.58835 -60.598633 18.427906 11181972
-163.94766 -60.792259 17.469681 7760998
-164.41049 -60.828003 16.5187 7038307
-164.78099 -60.979939 15.634653 7038307
-165.09328 -61.246761 14.582294 7827822
-165.25685 -61.289124 13.995359 8617337
-173.75323 -61.275864 -29.751003 7366493
-173.78928 -61.096844 -30.619709 7629409
-173.80806 -60.988453 -31.579533 8615792
-173.77863 -60.914051 -32.617584 9602429
-173.83063 -60.730354 -33.585606 7563619
-173.87131 -60.630116 -34.318005 9537406
-162.74089 -59.349094 23.110243 8287594
-162.97675 -59.3965 22.343527 9142646
-163.19458 -59.53997 21.273499 8748408
-163.38641 -59.685139 20.39883 7564651
-163.63486 -59.908363 19.480116 9340544
-164.16907 -59.888359 18.492054 9340027
-164.42863 -60.176361 17.519815 7563619
-174.33968 -60.176044 -32.452335 8813171
-174.31888 -60.116535 -33.535591 7563619
-174.33772 -60.015202 -34.497963 8353133
-174.4792 -59.859314 -35.437561 11050643
-174.48068 -59.752052 -36.407913 9932418
-174.54904 -59.59243 -37.300293 7498591
-158.56013 -58.57048 43.593002 10853012
-158.98906 -58.735771 42.957027 9143167
-159.40613 -58.850178 42.124023 9274494
-159.55144 -58.989906 41.054516 9735044
-159.79561 -58.991867 40.093094 9471872
-160.03436 -58.993816 39.130234 7629411
-160.26694 -58.995762 38.165886 8287341
-160.49405 -58.997707 37.200264 9537920
-160.71495 -58.999649 36.233212 9735555
-160.93045 -59.001587 35.264946 8617331
-161.13976 -59.003513 34.2953 8616046
-161.3436 -59.005436 33.324451 8088931
-161.54114 -59.007359 32.352406 8221032
-161.77081 -59.009663 31.184372 9800579
-161.95592 -59.01157 30.209826 9471871
-162.13481 -59.013477 29.234093 7432801
-162.30807 -59.015381 28.257389 7367263
-162.4752 -59.017277 27.279549 7564130
-162.63684 -59.019165 26.300863 7037274
-162.54112 -59.10907 25.202206 7038042
-162.72981 -59.175262 24.309086 8090472
-163.17216 -59.17551 23.471638 7827300
-175.30956 -59.359791 -37.463196 8485229
-175.15492 -59.386356 -38.534157 8287083
-175.25714 -59.33202 -39.590084 8484721
-175.65088 -59.191826 -40.42083 7629670
-175.48729 -59.221123 -41.497192 6511954
-175.38751 -59.239185 -42.142899 7762277
-176.35304 -59.156559 -43.499275 10789012
-176.14183 -59.157795 -44.348221 8946039
-175.98073 -59.158714 -44.984291 6511954
-177.14735 -59.16296 -46.647789 7038298
-176.97781 -59.163879 -47.287357 8354159
-176.74831 -59.1651 -48.139236 8814710
-177.62614 -59.055531 -49.528549 8682867
-177.61208 -58.860386 -50.217056 9735043
-177.43202 -58.945248 -51.228836 8682099
-177.39056 -58.679966 -51.772972 7037274
-158.25659 -57.495338 44.602501 5920074
-158.67604 -57.799847 43.897217 7893615
-159.31856 -57.806282 43.085354 10063754
-159.59364 -58.213936 42.501339 9735046
-177.8204 -58.196354 -50.508038 8682867
-177.79955 -57.999481 -51.197113 8353902
-177.53578 -57.957958 -52.187675 6905944
-158.49951 -56.68137 44.772324 5919306
-159.00873 -56.840523 44.038895 7235170
-178.07796 -57.106796 -51.510548 8682867
-177.87614 -57.102978 -52.149162 7564642
-177.65547 -57.02417 -52.937439 7366494
-158.25401 -55.626392 45.697002 6642773
-158.74779 -55.782173 44.985046 5919050
-159.25009 -55.826221 44.327587 6643290
-178.1433 -56.276627 -52.306259 7169884
-177.94968 -56.036591 -53.204021 6709334
-177.85841 -55.669434 -53.933548 7565417
-157.94443 -54.564346 46.706474 8419440
-158.49962 -54.743027 45.903843 7827303
-159.05614 -54.923813 45.098377 8288110
-178.34694 -54.920322 -53.302044 6116686
-178.06844 -54.887493 -54.216713 7367525
-178.00021 -54.615868 -54.758823 7367525
-157.80621 -53.753719 47.353619 9011064
-158.17935 -53.823757 46.84343 7563874
-158.74472 -53.859711 46.111343 7958888
-178.44032 -53.94035 -54.190319 6775130
-178.14339 -53.893581 -55.179695 9012348
-158.00385 -52.722664 47.70705 9340030
-158.50108 -52.899494 46.978394 9142907
-178.60904 -53.262672 -54.477409 8092019
-178.48366 -53.035892 -55.14481 11314846
-178.21101 -53.035469 -56.00211 13617343
-157.38452 -51.336147 49.295532 10458505
-157.6638 -51.724686 48.7174 9208442
-158.23988 -51.790325 47.954521 8155756
-158.7328 -52.00103 47.211655 7563619
-178.75005 -52.207607 -55.306789 13485757
-178.52591 -52.131958 -56.102196 13222585
-178.32082 -52.132286 -56.746201 10788500
-157.423 -50.66449 49.639294 8879731
-157.98209 -50.802593 48.85548 9405820
-158.41574 -50.948925 48.224659 7563619
-178.87471 -51.091957 -56.260433 11775139
-178.64578 -51.002193 -57.087959 8947070
-178.51859 -50.77718 -57.758945 7697004
-157.23003 -49.616577 50.49382 6511954
-157.74222 -49.754223 49.769249 10195333
-158.21397 -50.063454 48.995304 9734784
-179.03964 -49.870605 -57.215168 7697004
-178.76453 -49.872341 -58.077423 6972510
-178.63657 -49.647942 -58.750229 5919050
-157.04114 -48.461166 51.405983 8550513
-157.4008 -48.79961 50.756042 10787726
-157.96783 -48.821049 50.030365 12300708
-179.20729 -49.19133 -57.507374 6643287
-179.07944 -48.966129 -58.18084 6445651
-178.85266 -48.893059 -58.981438 5721930
-156.77402 -47.446365 52.433498 10458251
-157.14722 -47.706158 51.71846 8681843
-157.77036 -47.803009 50.873177 9537918
-158.07263 -48.06221 50.341599 11511449
-179.31578 -48.285919 -58.258457 6445394
-179.17543 -48.015961 -59.025005 5459274
-178.91064 -48.06448 -59.798519 5393738
-156.65659 -46.602737 53.232826 14076861
-156.88608 -46.835869 52.67984 10458251
-157.46243 -46.754436 51.872814 9339772
-157.86659 -47.18502 51.112946 9537918
-179.43326 -47.153736 -59.254711 5392964
-179.15591 -47.157475 -60.121502 6709854
-179.02634 -46.933758 -60.798462 8092019
-156.24902 -45.348843 55.199226 9340539
-156.48361 -45.500992 54.57695 8156523
-156.84341 -45.752911 53.663483 9537662
-157.2843 -45.849442 52.811516 9866115
-157.68092 -45.892929 52.100998 10458251
-179.50285 -46.294853 -60.094707 7170402
-179.45586 -45.894756 -61.025791 7565419
-179.3799 -45.615253 -61.884907 8486262
-156.1571 -44.330708 57.609451 7893358
-156.40689 -44.425434 56.74044 7038307
-156.45485 -44.785412 55.694817 9143163
-156.94273 -44.831543 54.806236 10261383
-157.29535 -45.061325 53.869499 9077112
-179.9648 -45.191193 -61.119019 7038307
-179.83405 -45.027756 -61.945282 7893869
