# .PCD v0.7 - Point Cloud Data file format
VERSION 0.7
FIELDS x y z rgb
SIZE 4 4 4 4
TYPE F F F U
COUNT 1 1 1 1
WIDTH 1178
HEIGHT 1
VIEWPOINT 0 0 0 1 0 0 0
POINTS 1178
DATA ascii
-154.22441 -53.175121 -103.57003 9735812
-153.8748 -53.388245 -103.87406 9735812
-79.944473 -53.61845 -131.65924 9538686
-78.11734 -53.347454 -133.28711 9536891
-77.153084 -53.234077 -133.47447 9536891
-76.189926 -53.120987 -133.65634 7367264
-75.228096 -53.008301 -133.83208 5920074
-74.077805 -52.875259 -134.03989 7564386
-73.317787 -52.791027 -134.18477 10262156
-72.409058 -52.641296 -135.58786 8485232
-154.48271 -52.271755 -103.74212 7563874
-71.64476 -52.557674 -135.7222 8222060
-70.499466 -52.432686 -135.91733 8551026
-69.546265 -52.328876 -136.07388 8813942
-68.594307 -52.225456 -136.22443 9077114
-67.833611 -52.142872 -136.34134 9142393
-66.68116 -51.969147 -137.72235 8088931
-65.915833 -51.886642 -137.82643 9275262
-64.960495 -51.783905 -137.95132 8814713
-64.006401 -51.681503 -138.07106 8683126
-63.434643 -51.620228 -138.14023 9735043
-63.053753 -51.579418 -138.18521 8617075
-62.240105 -51.443882 -139.47786 8617591
-61.282108 -51.341873 -139.57722 7565675
-60.13451 -51.219994 -139.68945 8223348
-59.179863 -51.118866 -139.77718 9736326
-58.330269 -50.98064 -141.04326 11906977
-57.562576 -50.899796 -141.10178 7761253
-56.412956 -50.778961 -141.18364 8879734
-55.456856 -50.678612 -141.2462 9734788
-54.573597 -50.538059 -142.48643 8287342
-53.805065 -50.457935 -142.52484 7893096
-52.845901 -50.358089 -142.56863 7695973
-51.893879 -50.263592 -142.62079 7958633
-50.827503 -50.14072 -143.95645 9734529
-50.066395 -50.069527 -143.99852 10457992
-49.116142 -49.980686 -144.04663 9273972
-48.167561 -49.892151 -144.08882 10326660
-47.064316 -49.766415 -145.39432 8089963
-46.300293 -49.694176 -145.41173 8287341
-45.536774 -49.621624 -145.425 8813683
-45.155472 -49.585449 -145.43025 9011576
-44.584053 -49.531284 -145.43629 9011576
-43.443771 -49.399837 -146.70374 9077109
-42.486832 -49.309399 -146.69862 8287592
-41.531712 -49.219185 -146.68854 8287592
-40.553547 -49.10347 -147.93744 7564392
-39.785992 -49.031193 -147.9171 8222321
-38.636993 -48.92318 -147.88062 7368040
-37.053986 -48.751045 -149.08479 11774882
-35.90239 -48.643185 -149.02484 8287342
-34.291893 -48.468933 -150.20143 7761770
-33.138191 -48.361328 -150.11798 9077884
-31.500797 -48.18504 -151.26649 8288622
-30.345484 -48.077732 -151.15964 9538432
-28.681669 -47.899494 -152.27969 8617334
-27.525173 -47.792484 -152.14943 8879993
-26.608864 -47.683704 -153.33942 9011579
-26.02858 -47.630146 -153.26581 9011579
-25.449171 -47.576694 -153.19058 10853012
-24.870907 -47.523438 -153.11333 9932681
-23.930614 -47.412609 -154.2915 9472387
-22.963249 -47.323715 -154.14922 8288629
-22.191174 -47.252789 -154.03215 7564651
-21.227192 -47.139946 -155.19815 7762282
-20.259117 -47.050972 -155.03651 6511954
-19.081154 -46.918919 -156.16496 6511954
-18.303989 -46.844784 -156.01285 9010806
-17.525036 -46.761993 -155.82864 11905692
-16.522144 -46.65654 -157.01509 8551024
-15.546342 -46.551918 -156.76601 9208702
-14.327706 -46.424412 -157.89784 7039331
-13.54633 -46.339451 -157.68097 7960175
-11.720384 -46.145901 -158.63144 9538947
-10.939683 -46.061008 -158.39981 10855060
-9.87391 -45.9501 -159.56554 8486007
-9.0920229 -45.865017 -159.32162 9209985
-8.0067835 -45.751976 -160.48323 9209985
-7.2243357 -45.666809 -160.22643 7894632
-5.3362474 -45.466316 -161.11481 9011065
-3.4280899 -45.263676 -161.98618 8550770
-2.6464508 -45.178497 -161.70207 7563619
-1.3039634 -45.03743 -162.76668 11445401
-0.71774745 -44.97348 -162.54381 14076861
0.44852757 -44.851597 -163.67766 10459019
1.0353997 -44.787628 -163.44576 8551796
2.4166024 -44.642288 -164.49724 7039331
2.8082345 -44.599537 -164.3365 7235421
3.1990502 -44.556984 -164.17511 11381404
4.9912062 -44.366764 -165.04787 9736582
6.8002462 -44.151653 -165.82413 10460308
8.8181067 -43.891857 -166.41624 8551537
10.467498 -43.699795 -167.27754 9143417
12.537723 -43.506477 -168.10831 7563619
14.441833 -43.353802 -169.10622 8880502
15.226398 -43.279797 -168.75279 7301470
17.155651 -43.124641 -169.72847 7695970
18.893913 -42.941303 -170.61311 9077624
19.89616 -42.749847 -170.94327 8683128
21.014721 -42.656994 -171.04778 9734788
20.766148 -42.218685 -171.58195 9011579
21.831059 -42.185181 -171.59943 9800581
22.767136 -41.975349 -171.73631 8813942
23.636425 -41.609776 -171.98137 10327948
21.824585 -41.411884 -172.00363 7563619
22.567749 -41.076572 -172.14688 7563619
23.666302 -40.988464 -172.20955 7564136
24.508247 -41.017097 -172.2224 10854297
22.863667 -40.131878 -172.50073 8813686
23.495415 -40.152317 -172.51076 8090737
24.614529 -40.100422 -172.56071 8156530
25.560558 -39.736401 -172.72012 9011579
23.60202 -39.393635 -172.79131 8288116
24.389954 -39.141613 -172.90535 8222579
25.45895 -38.968903 -172.99814 9603713
26.452469 -38.933369 -173.03857 9932419
24.64286 -38.316448 -173.21422 9735046
25.414829 -38.174721 -173.28748 10656141
26.439049 -38.125389 -173.33383 11379607
27.38958 -37.906971 -173.43985 10853261
28.091049 -37.596531 -173.57263 9208435
25.53418 -37.51012 -173.53394 8682867
26.329082 -37.257278 -173.64816 9669504
27.272194 -36.939682 -173.79021 9603451
28.340866 -36.976227 -173.80624 10260611
27.312618 -36.207016 -174.0591 9734267
28.262863 -36.091751 -174.12735 9931646
29.179806 -36.095062 -174.15137 10392200
27.35302 -35.473362 -174.32837 9735812
28.155048 -35.219013 -174.44333 9340536
29.151203 -35.059055 -174.52919 9472126
30.133072 -35.060795 -174.55559 10327180
30.844448 -34.747799 -174.68953 10655889
29.150108 -34.162865 -174.85672 8354933
30.10833 -34.046692 -174.92557 9538178
31.100403 -34.12252 -174.92509 9800834
31.763664 -33.933842 -175.01224 8090987
30.064213 -33.347393 -175.17993 8552055
31.007534 -33.007732 -175.32999 9011576
32.035423 -33.095196 -175.32629 8814452
32.701843 -32.905838 -175.41389 11708315
31.002831 -32.212173 -175.62067 8288368
31.886337 -32.028408 -175.7121 10655115
32.976196 -32.06461 -175.72882 11641752
33.645748 -31.874319 -175.81677 10063750
31.927265 -31.391645 -175.94592 10851980
32.905918 -31.076677 -176.1424 9997439
33.849056 -30.980999 -176.23846 10260614
34.619591 -30.633919 -176.34631 10063750
33.824619 -30.226912 -176.7756 10654857
34.782948 -30.067879 -176.73999 9866625
35.556091 -29.804314 -176.65097 9143419
35.731468 -29.495285 -177.53069 11905692
36.558903 -29.476461 -177.25333 11510940
38.36404 -29.263998 -178.452 9208187
39.431553 -29.262276 -178.22096 10195339
43.310089 -29.260738 -180.36224 10261132
44.213615 -29.052519 -180.32123 7958891
44.871616 -28.825205 -180.20667 8681835
44.292149 -28.403641 -180.64822 10129539
44.93935 -28.051687 -180.48624 11182485
45.073677 -27.108955 -180.80338 10853263
45.105141 -26.167534 -181.16895 8681835
45.538227 -25.932911 -181.06039 10129539
45.597496 -25.265816 -181.302 9867142
-147.06783 -59.904579 -106.95392 6840407
-146.45639 -60.060932 -107.32206 7630179
-145.51457 -60.134789 -107.71503 7959144
-144.65602 -60.047604 -108.43449 9997961
-142.30623 -59.943134 -108.56968 7563619
-141.79279 -59.891697 -108.99087 7563619
-140.93497 -59.806194 -109.6881 7169373
-140.24719 -59.738071 -110.2422 6511954
-149.60606 -58.863213 -105.79261 7235421
-149.18423 -59.116337 -106.14265 6774358
-148.56906 -59.121346 -106.85841 10590092
-147.44537 -59.50798 -106.9558 8024425
-146.91747 -59.502151 -107.65582 8288109
-137.60451 -59.549362 -110.33848 7564392
-137.03178 -59.473698 -110.69557 7564392
-136.21213 -59.349133 -111.12346 7564392
-135.22505 -59.21027 -111.68227 7367005
-134.23924 -59.072639 -112.23603 6511954
-133.47243 -58.972687 -112.69257 7563619
-132.73424 -58.88586 -113.16946 8616562
-129.98747 -58.684864 -113.29556 8681843
-149.95001 -58.20018 -105.76399 7300702
-149.38025 -58.176331 -106.44292 6774614
-148.88615 -58.38216 -106.90409 12432037
-129.44208 -58.622868 -113.64581 8089963
-128.72998 -58.547581 -114.12347 8287084
-127.83971 -58.454487 -114.71626 8024170
-126.94774 -58.361584 -115.30334 8878963
-126.41159 -58.305958 -115.65271 8418670
-123.77271 -58.132187 -115.73864 9273972
-123.06151 -58.059193 -116.18961 8681835
-122.17102 -57.968201 -116.74778 7695971
-121.2629 -57.869801 -117.28497 7695971
-120.33003 -57.760719 -117.79316 8419441
-119.58315 -57.673603 -118.19567 10590351
-150.76506 -57.255772 -105.34365 8090730
-150.14684 -57.259434 -106.06363 7893095
-149.58116 -57.507187 -106.58486 7037274
-119.20948 -57.630249 -118.39532 10590351
-118.83565 -57.586884 -118.59399 10590351
-115.46373 -57.30529 -118.90559 5919050
-114.53605 -57.199001 -119.37975 7564132
-113.60777 -57.093174 -119.84831 8353908
-112.86469 -57.00882 -120.21872 9143422
-111.93997 -56.906059 -120.68114 7498595
-111.04061 -56.816853 -121.16592 9734779
-110.14453 -56.730247 -121.64951 8484974
-109.42691 -56.661068 -122.03255 8090987
-151.74348 -55.940678 -104.94105 6511954
-151.086 -56.149021 -105.59174 8815222
-150.48831 -56.414555 -106.14043 8880759
-109.06772 -56.626621 -122.2225 8090987
-108.34859 -56.557701 -122.59919 10195848
-107.62885 -56.48888 -122.97272 10459020
-104.06526 -56.222626 -123.33504 8090987
-103.34879 -56.155075 -123.68862 7893096
-102.45212 -56.070755 -124.12513 9011064
-101.55445 -55.98666 -124.55621 7760997
-100.65245 -55.901085 -124.97708 7168603
-99.745499 -55.813385 -125.38744 6510930
-98.837662 -55.725971 -125.79156 9141875
-98.110901 -55.656151 -126.1112 9141875
-152.53914 -54.918526 -104.5871 8288365
-151.96774 -55.07436 -105.16674 7893608
-151.39586 -55.170368 -105.78069 7104091
-97.74736 -55.621342 -126.26949 9141875
-97.019852 -55.55188 -126.58282 8418411
-96.109924 -55.465168 -126.96987 8616048
-95.19928 -55.378819 -127.35085 7892842
-94.288055 -55.292652 -127.72638 7564651
-93.376251 -55.206715 -128.09583 9209728
-92.462051 -55.119987 -128.45731 11512735
-91.503456 -55.007439 -128.75166 9802117
-90.536163 -54.88979 -129.02757 8287853
-89.569595 -54.77248 -129.29697 13880252
-88.796707 -54.678791 -129.50859 12959151
-152.81493 -54.204842 -104.66673 7169628
-152.13441 -54.333458 -105.38914 6906712
-88.410416 -54.632069 -129.61264 6511954
-87.638214 -54.538845 -129.81767 6709333
-86.866417 -54.445747 -130.01942 7958376
-84.897179 -54.152187 -131.8093 7563874
-84.119949 -54.059322 -131.99271 7169626
-83.149094 -53.943558 -132.2171 5393730
-82.179352 -53.828159 -132.43513 8485489
-81.21048 -53.713127 -132.64758 9735812
-80.629623 -53.644283 -132.7722 7039322
-153.70537 -52.969669 -104.29864 8617075
-153.01578 -53.3507 -104.91105 7827558
-152.37218 -53.54985 -105.55251 6511954
-80.049225 -53.575539 -132.89444 7039322
-79.082779 -53.461361 -133.09349 10327946
-77.424599 -53.210827 -134.67519 6512978
-76.646805 -53.119698 -134.81815 8353903
-75.675514 -53.006107 -134.99222 7695975
-74.707695 -52.894287 -135.1636 6577492
-73.557091 -52.767159 -135.37868 7761253
-72.791595 -52.68317 -135.51917 7761253
-154.46892 -51.813751 -104.00214 7037274
-153.90559 -52.064346 -104.5414 7761253
-153.15962 -52.521038 -105.18906 7695461
-71.097717 -52.447788 -137.05409 7169628
-69.942993 -52.322182 -137.23994 7893352
-68.982063 -52.217892 -137.3887 8813942
-68.022476 -52.114002 -137.53149 9142393
-67.255638 -52.031097 -137.64211 9142393
-66.280106 -51.876316 -138.99988 9735812
-65.508682 -51.793491 -139.09821 9077884
-64.353172 -51.669579 -139.23944 8748406
-154.6626 -51.135754 -104.13148 8682867
-154.11623 -51.189266 -104.75529 6839895
-63.391747 -51.566795 -139.3512 8617075
-62.81562 -51.505268 -139.4156 9735043
-61.605171 -51.327251 -140.75438 8552312
-60.640053 -51.224834 -140.84567 7565675
-59.676487 -51.122829 -140.93182 8618104
-58.906841 -51.041504 -140.99672 12959663
-57.659744 -50.861282 -142.29785 8485232
-56.886532 -50.780117 -142.34981 7761253
-55.921535 -50.679001 -142.41058 7563619
-154.92102 -50.231274 -104.30405 7564386
-154.42619 -50.439739 -104.78383 6510930
-55.150829 -50.598343 -142.45517 7892584
-53.881435 -50.427082 -143.75137 5920074
-53.307808 -50.373222 -143.79404 8616819
-52.352779 -50.283577 -143.86076 7827303
-51.399071 -50.194244 -143.9223 8089963
-50.12664 -50.052021 -145.27362 9931902
-49.551277 -49.99823 -145.30046 9273972
-48.59359 -49.908913 -145.34081 9471351
-47.637321 -49.819767 -145.3759 8089963
-46.133194 -49.65464 -146.68874 9866367
-155.20598 -49.403587 -104.40405 6445650
-45.555676 -49.599861 -146.69565 10853012
-44.786762 -49.527 -146.70139 9603457
-44.018799 -49.45422 -146.70422 9011576
-43.057194 -49.339622 -147.97881 8747885
-42.092728 -49.248577 -147.96696 7630176
-41.130096 -49.157772 -147.95013 7959145
-39.366478 -48.968037 -149.18188 7696233
-38.208748 -48.859322 -149.13716 11906466
-36.609238 -48.685574 -150.34573 7368037
-35.835266 -48.613121 -150.30119 7039331
-35.255798 -48.558975 -150.26535 7828590
-33.821884 -48.401127 -151.45805 8551537
-32.659645 -48.29287 -151.36597 9143676
-31.005426 -48.114964 -152.5184 7696487
-29.841736 -48.006966 -152.40274 8814454
-28.161083 -47.827072 -153.52649 8748663
-27.190121 -47.737354 -153.4111 13023917
-26.068501 -47.609394 -154.58676 7038307
-25.289656 -47.537674 -154.48203 9932681
-24.512325 -47.46608 -154.37445 9012350
-23.366386 -47.336113 -155.53455 7564651
-22.392319 -47.246758 -155.38449 9605252
-20.638985 -47.061321 -156.43663 9406074
-19.664448 -46.972214 -156.26828 8682608
-18.472874 -46.838402 -157.4034 7563619
-17.691845 -46.767208 -157.256 9011318
-16.284069 -46.613811 -158.34438 11313812
-15.697042 -46.560528 -158.22476 10787467
-14.915254 -46.487152 -158.05434 11050644
-13.876348 -46.369785 -159.21677 8617080
-12.895879 -46.273701 -158.97368 7565162
-11.444795 -46.119553 -160.04036 12104362
-10.658032 -46.035374 -159.80701 7038307
-9.3830957 -45.901726 -160.92546 7039331
-8.595685 -45.816082 -160.67377 8091762
-7.3001604 -45.680138 -161.78256 9736067
-6.7091608 -45.615826 -161.584 8618099
-6.1196795 -45.551609 -161.38411 10854036
-4.6055536 -45.391937 -162.40762 9537409
-2.8750389 -45.208607 -163.35374 7563619
-2.088063 -45.122894 -163.06155 9406335
-0.92754436 -45.00169 -164.21286 10459019
-0.14011836 -44.915852 -163.90802 10459019
1.2374337 -44.77095 -164.97556 8486262
1.8277504 -44.70657 -164.737 7762796
3.6188347 -44.516552 -165.63107 10262929
5.6265059 -44.301094 -166.42123 9143675
7.4520025 -44.071953 -167.15724 9801603
8.0391417 -43.994553 -166.84048 10985617
9.2931089 -43.836414 -167.86241 8946551
11.160262 -43.635929 -168.69746 7564643
11.751895 -43.580379 -168.44615 7563619
13.061713 -43.483829 -169.71815 8419440
13.654254 -43.428062 -169.45691 8879991
14.964683 -43.261284 -170.4606 8090986
15.973056 -43.228199 -170.24576 7564642
16.737099 -42.856117 -171.07892 7695970
17.611492 -42.827847 -171.00513 6972504
18.550213 -42.647953 -171.27466 8090986
19.377995 -42.66404 -171.25615 7039331
17.750481 -42.25201 -171.56926 7695970
18.503925 -42.105106 -171.63052 7893608
19.506088 -42.049934 -171.67159 8025455
20.476204 -41.921471 -171.77989 9537923
18.614475 -41.454029 -171.8994 9537923
19.460457 -41.182819 -172.02206 8617335
20.423054 -41.033714 -172.10324 8682871
21.423668 -40.985149 -172.1487 7760998
20.425629 -40.09927 -172.44522 7696490
21.392361 -40.086334 -172.47672 9076858
22.232719 -40.112087 -172.49059 9076858
20.368755 -39.434444 -172.68697 8286826
21.277119 -39.097359 -172.83536 8549999
22.366886 -39.137253 -172.85094 10655633
23.26112 -38.855888 -172.97867 9274752
22.197472 -38.074543 -173.23511 9340027
23.296135 -38.107468 -173.25346 8090990
24.234589 -37.990635 -173.32219 8090737
22.565395 -37.418819 -173.48526 7893608
23.258389 -37.105431 -173.61905 7498850
24.156204 -37.108616 -173.64268 8090988
25.136444 -36.959892 -173.72409 9407101
26.003395 -36.688515 -173.84705 8682867
24.186329 -36.074238 -174.02164 6643540
25.095963 -36.073772 -174.0468 7367775
26.123936 -36.021881 -174.09407 8617585
26.902065 -35.87878 -174.16769 9931646
25.079971 -35.262878 -174.34273 7960168
26.035126 -35.064354 -174.44159 8947064
27.026657 -34.902397 -174.52803 9735812
27.828796 -34.647255 -174.64339 9735812
25.999916 -34.0299 -174.81866 9209724
26.916492 -34.029339 -174.8441 10130570
27.952618 -33.976974 -174.89172 9735812
28.737331 -33.832916 -174.96596 8092019
26.903194 -33.213959 -175.14171 11709858
27.911583 -33.173912 -175.18408 9867399
29.002201 -32.996128 -175.27908 8946557
29.811794 -32.739491 -175.39508 8420727
27.811031 -32.396118 -175.46562 9341057
28.695126 -32.069721 -175.60919 9143936
29.803047 -31.919788 -175.69449 8749434
30.730789 -31.920372 -175.71977 9537406
28.884178 -31.298201 -175.89639 9143936
29.680096 -31.157118 -176.00235 8551799
30.730145 -31.105291 -176.05875 9274491
31.836422 -30.837816 -176.25363 9931906
32.454681 -30.588556 -176.46129 9208435
30.4925 -30.532188 -176.45169 8288368
31.451031 -30.238382 -176.70767 8288368
32.538044 -29.987122 -176.92508 10260355
33.570675 -29.950031 -176.98106 10391941
34.322437 -29.837772 -177.08734 9931646
34.263805 -29.516544 -177.93513 9668734
35.109123 -29.509806 -177.73836 8682867
36.439075 -29.267078 -178.85126 8682867
37.295109 -29.265715 -178.67609 9077370
41.796902 -29.263224 -180.7159 9537923
42.897896 -29.012573 -180.87311 7696235
43.635426 -28.866671 -180.76987 9143166
42.846222 -28.452324 -181.30678 8090736
43.612965 -28.161367 -181.06429 9340287
43.775661 -27.221151 -181.36725 9274230
44.445728 -26.630766 -181.29124 9405559
43.862579 -26.205513 -181.73665 9011830
44.631672 -25.915726 -181.49275 9011058
44.701378 -25.11412 -181.78389 9406329
45.429794 -24.826338 -181.55823 9274488
44.866142 -24.174492 -182.08606 11248531
45.488953 -24.157093 -181.80075 10393226
45.621532 -23.127598 -182.15439 8551281
45.875366 -22.13726 -182.43529 8090987
45.915226 -21.688168 -182.59802 9340539
-145.88554 -59.895718 -108.52876 7959144
-145.36043 -59.893963 -109.22867 7564392
-143.79463 -59.96088 -109.14769 7564392
-142.93098 -59.874416 -109.85543 7563619
-142.23817 -59.805481 -110.41721 7563619
-139.90271 -59.704071 -110.51762 7367263
-148.23441 -58.958126 -107.34113 7827300
-147.69115 -59.013084 -107.94468 7893094
-146.89732 -59.240852 -108.40061 7695972
-145.99199 -59.494667 -108.8793 6905944
-139.34846 -59.637619 -110.90018 7827814
-138.38893 -59.512444 -111.50516 8485491
-137.38681 -59.369884 -112.07035 8616822
-136.58345 -59.255768 -112.51635 8419439
-135.7859 -59.144562 -112.9627 8287592
-134.9883 -59.033749 -113.40492 6906711
-132.17999 -58.820915 -113.52454 14077885
-131.62531 -58.756119 -113.87728 16776175
-131.0701 -58.691418 -114.22785 8484976
-149.01973 -57.936279 -106.99909 6511954
-148.52573 -58.14283 -107.45975 8485229
-147.85756 -58.163593 -108.2285 8484973
-130.70992 -58.65284 -114.46917 8484976
-129.992 -58.577534 -114.95138 8156011
-129.09303 -58.483555 -115.54915 7563619
-128.55272 -58.42728 -115.9049 8287342
-125.87487 -58.250473 -115.99962 8878963
-125.15817 -58.176636 -116.45893 8550252
-124.44034 -58.102901 -116.91434 9931902
-123.54156 -58.01107 -117.47805 8747886
-122.63774 -57.917782 -118.03275 7695971
-121.88866 -57.831684 -118.44813 6511954
-149.33752 -57.196522 -107.04429 6643284
-148.7197 -57.20335 -107.76206 6511954
-148.29767 -57.458427 -108.1114 8485229
-118.46177 -57.543526 -118.79169 7366240
-117.71353 -57.45713 -119.18375 5919050
-116.77763 -57.349476 -119.66898 6379600
-116.02843 -57.263683 -120.05251 8682867
-115.09126 -57.156723 -120.52632 8288112
-114.15352 -57.05019 -120.99443 7762277
-113.23515 -56.954071 -121.47741 7301982
-112.33228 -56.866421 -121.97233 8616563
-111.42795 -56.779026 -122.46075 8616563
-110.70356 -56.709187 -122.84768 11379607
-150.23151 -56.064945 -106.63708 7827302
-149.60658 -56.097183 -107.34885 7366751
-148.99184 -56.581902 -107.79401 6511954
-107.26866 -56.454514 -123.15791 10459020
-106.54754 -56.385983 -123.52514 10459020
-105.64529 -56.300354 -123.97945 9538175
-104.74174 -56.21508 -124.42743 8090987
-103.8372 -56.129967 -124.86986 9143163
-102.93149 -56.045036 -125.30608 9011064
-102.0248 -55.960392 -125.73678 6510930
-101.11191 -55.873108 -126.15488 7168603
-100.19595 -55.784824 -126.56461 6510930
-99.279175 -55.696762 -126.96805 9141875
-151.03581 -55.079861 -106.25216 8617331
-150.4621 -55.056984 -106.93517 7893097
-149.82161 -55.258503 -107.56987 7038307
-98.36171 -55.608963 -127.36607 9141875
-97.443497 -55.521446 -127.75784 8747633
-96.524673 -55.434158 -128.14415 8616048
-95.605209 -55.347191 -128.52422 7563877
-94.685158 -55.260418 -128.89885 10065291
-93.764587 -55.173931 -129.26726 11381404
-92.843544 -55.087685 -129.63031 11512735
-91.910904 -54.995193 -129.97176 12301995
-90.939316 -54.879852 -130.25299 10261385
-89.962845 -54.761585 -130.51981 11116949
-89.182129 -54.667221 -130.72925 12959151
-151.94862 -53.985405 -105.80219 6511954
-151.37671 -54.143078 -106.38127 9866885
-150.69724 -54.274673 -107.10085 9735560
-88.791946 -54.620087 -130.83235 7958376
-88.011993 -54.526051 -131.03523 6511954
-87.037674 -54.408825 -131.28394 7366751
-86.064255 -54.29195 -131.52614 8485232
-85.286041 -54.19873 -131.71602 7563874
-83.282539 -53.902584 -133.48035 7038307
-82.499222 -53.809559 -133.65175 9143424
-81.520889 -53.6936 -133.86121 7038307
-152.18591 -53.201813 -105.96596 6445394
-151.50467 -53.332928 -106.68786 7827305
-150.93248 -53.491833 -107.26676 7038307
-80.5438 -53.578053 -134.06425 7038298
-79.567764 -53.462894 -134.26175 8617588
-78.592911 -53.348099 -134.45297 10854034
-77.813812 -53.256504 -134.60217 6512978
-76.129196 -53.00388 -136.16859 7038307
-74.95871 -52.87009 -136.37497 8024939
-73.991776 -52.763939 -136.55357 8090730
-73.218956 -52.679325 -136.69226 6971994
-153.15047 -51.874195 -105.54398 7958632
-152.43147 -52.245831 -106.20341 8616563
-151.8457 -52.394482 -106.81701 9143163
-72.639809 -52.616005 -136.79379 9406590
-72.061226 -52.552776 -136.89319 10854036
-70.344902 -52.315319 -138.42299 8287850
-69.375061 -52.21027 -138.56923 8287850
-68.406364 -52.105461 -138.7101 7564643
-67.43914 -52.001137 -138.84496 10195591
-66.666199 -51.917824 -138.94922 10590606
-65.676041 -51.761429 -140.31023 8090987
-64.898643 -51.67828 -140.40208 8090987
-153.8678 -50.874668 -105.21922 8090474
-153.30431 -51.126957 -105.75774 8353903
-152.80211 -51.062626 -106.39143 10261644
-63.734222 -51.553844 -140.53371 8090987
-62.765499 -51.450638 -140.63741 7828331
-62.185081 -51.388901 -140.69696 7565675
-60.958569 -51.20916 -142.03677 10130568
-60.180611 -51.126881 -142.10387 7169373
-59.209698 -51.024406 -142.18256 10722448
-58.240452 -50.922302 -142.25616 8090474
-57.172234 -50.760841 -143.5459 9734788
-56.39315 -50.679329 -143.59241 7564393
-154.55508 -49.987541 -104.87057 6510930
-154.06049 -50.196697 -105.34978 7827046
-153.487 -50.174973 -106.04592 9143675
-55.42112 -50.577774 -143.64555 8419186
-54.455616 -50.480988 -143.70627 6709078
-52.819054 -50.303936 -145.12064 9275007
-51.663731 -50.195709 -145.19144 9208698
-50.702557 -50.105804 -145.24446 10524044
-49.026409 -49.925877 -146.61278 9210491
-47.868134 -49.818039 -146.65172 8747888
-46.904213 -49.727798 -146.67659 9866367
-154.86574 -49.237213 -104.8987 6116172
-154.31741 -49.292175 -105.5241 7300446
-153.88652 -49.276054 -106.04708 8090474
-45.962238 -49.614418 -147.98132 9012089
-45.18602 -49.540939 -147.98518 9603457
-44.217144 -49.449261 -147.98566 9011576
-43.636833 -49.394367 -147.98332 9208435
-42.274151 -49.241756 -149.26025 8747885
-41.302925 -49.150223 -149.2394 7893354
-40.333607 -49.058968 -149.21352 7564392
-39.328857 -48.940441 -150.47601 10985364
-38.550179 -48.867397 -150.44284 9012088
-37.578545 -48.776291 -150.39709 9538175
-36.546814 -48.655552 -151.64395 11906725
-36.156487 -48.619015 -151.61984 11906725
-155.64717 -48.199539 -104.51767 6972250
-155.17166 -48.115402 -105.13017 6050636
-154.60115 -48.464195 -105.62573 6840407
-35.766335 -48.582584 -151.59508 7039331
-34.98756 -48.509876 -151.5426 8157296
-33.148132 -48.314133 -152.71147 8288365
-32.172768 -48.223385 -152.62668 8683125
-30.893061 -48.08012 -153.82336 7038307
-30.30599 -48.025631 -153.76308 13023917
-29.32954 -47.935204 -153.65848 10985364
-27.631802 -47.753635 -154.78609 7565675
-26.653891 -47.66341 -154.66301 7038307
-155.89662 -46.986664 -104.86495 7300702
-155.46844 -47.123055 -105.30369 6510930
-25.519308 -47.534096 -155.84698 10262926
-24.73489 -47.461891 -155.73592 9012350
-23.95216 -47.38995 -155.62218 8092019
-22.792908 -47.258575 -156.79042 9341825
-21.812138 -47.168659 -156.63243 7498854
-20.04129 -46.981552 -157.6879 10853262
-19.060108 -46.891975 -157.51149 9735039
-18.051899 -46.774662 -158.69237 9011318
-17.068657 -46.685165 -158.50067 10064000
-156.14732 -46.240219 -105.03201 7432032
-15.251706 -46.494453 -159.51227 10064006
-14.464929 -46.423084 -159.34467 7564651
-13.413415 -46.302002 -160.51027 7564651
-12.62499 -46.230743 -160.3309 11906469
-10.763764 -46.036549 -161.30324 7695973
-9.9752665 -45.965473 -161.11005 8089963
-8.6837587 -45.82288 -162.21066 10853012
-7.8928537 -45.744652 -161.97926 10327434
-6.5818872 -45.607212 -163.09636 8089963
-5.7893534 -45.52087 -162.82286 9011065
-4.2593851 -45.359467 -163.85838 8879991
-3.4670494 -45.273106 -163.57121 7563619
-2.1142242 -45.131069 -164.66516 11380380
-1.5200164 -45.066303 -164.43982 8682867
-0.34551692 -44.943558 -165.60413 8682867
0.44724202 -44.857147 -165.29092 8617332
1.6419976 -44.732273 -166.45076 8486262
2.434932 -44.645779 -166.12473 8552055
4.4427557 -44.432117 -166.94086 10262929
6.2715483 -44.227608 -167.78804 10788244
6.8630171 -44.149658 -167.47322 7564643
8.1139059 -43.991047 -168.50816 8092011
9.9741812 -43.756138 -169.22891 12235172
10.567149 -43.691582 -168.94734 8682867
11.460196 -43.582043 -170.20622 8682867
11.86576 -43.574139 -170.15065 8813942
12.554561 -43.460114 -170.24503 8221805
13.550292 -43.200279 -170.76924 9669506
14.475783 -42.944084 -171.01955 9011833
15.560088 -42.82156 -171.16071 9275260
16.276497 -42.606232 -171.31699 11379864
14.419021 -42.576183 -171.34557 8617075
15.349303 -42.028584 -171.59885 8419695
16.427917 -42.055466 -171.61882 9734780
17.346909 -41.935181 -171.68826 8616814
15.701388 -41.378151 -171.84657 7564643
16.331448 -41.187515 -171.93375 10195075
17.325123 -41.058079 -172.00858 9471352
18.287235 -40.894333 -172.09517 9208954
19.063049 -40.640053 -172.20963 8288627
16.55975 -40.574364 -172.16443 12432037
17.273251 -40.041389 -172.37918 9931902
18.250336 -39.997734 -172.42216 9998727
19.29607 -40.02589 -172.44083 9209726
19.93256 -39.836548 -172.52771 9209726
18.13839 -39.236031 -172.6978 9933191
19.181828 -39.105507 -172.7744 11051157
20.137024 -38.930042 -172.8651 8551282
20.823326 -38.617161 -172.99857 7037274
18.303005 -38.549698 -172.95354 11380121
18.986797 -38.235279 -173.08748 10459534
20.007191 -37.971573 -173.21219 7761254
21.060101 -38.000328 -173.23079 7629154
21.701767 -37.810452 -173.31801 8286826
20.036209 -37.244701 -173.47894 8944499
20.970299 -37.123962 -173.54898 7760740
21.988159 -37.068714 -173.59737 8090217
22.73827 -36.728607 -173.74252 8485745
21.001804 -36.37471 -173.82401 9799550
21.851017 -36.00798 -173.98157 8682610
22.969296 -36.011219 -174.01123 8222573
23.703465 -35.781265 -174.11543 7038298
22.099785 -35.178795 -174.2915 9603712
22.882088 -35.130234 -174.33075 8814710
23.946266 -35.16003 -174.34915 6906712
24.809261 -34.975277 -174.4404 7367775
22.988224 -34.365032 -174.61334 8484976
23.783047 -34.106842 -174.72958 9143673
24.795048 -34.187706 -174.72787 8486512
25.514347 -33.735279 -174.91302 8749684
24.046791 -33.063423 -175.11823 9537918
24.689171 -33.080799 -175.1295 10393482
25.761265 -33.110706 -175.14807 10854805
26.631481 -32.924824 -175.23994 13683904
24.798759 -32.311363 -175.41373 10853520
25.600452 -32.051632 -175.53073 12367788
26.6199 -32.132744 -175.5291 14539469
27.556465 -31.789371 -175.68037 12498862
25.858978 -31.213465 -175.84415 10064265
26.590614 -31.098063 -175.94403 13355195
27.514626 -31.096109 -175.97488 13289147
28.479744 -30.979445 -176.07211 9275779
27.454357 -30.451019 -176.43211 14605262
28.470104 -30.317141 -176.56216 9671049
29.522995 -30.174379 -176.72214 7433832
30.452888 -29.896105 -176.99258 7630696
31.259323 -29.756014 -177.11401 8288368
31.422531 -29.457195 -178.05389 9734788
32.077435 -29.47047 -178.02777 9931646
33.169865 -29.493128 -177.98248 10654857
34.938992 -29.269457 -179.14728 8682867
35.796448 -29.268099 -178.97957 9208953
39.630337 -29.266745 -181.1996 10655630
40.497662 -29.265341 -181.00906 10655630
41.774158 -28.931782 -181.61674 8090987
42.3955 -28.909643 -181.33409 7038307
41.620872 -28.273861 -181.95363 9998728
42.421638 -27.969477 -181.70065 9670020
42.55175 -27.023905 -182.02136 9604226
43.202477 -26.670097 -181.85881 9801347
42.616524 -26.245001 -182.3056 9341054
43.387119 -25.953974 -182.06146 10130309
43.454876 -25.15131 -182.35384 11314580
43.976967 -24.86854 -182.22305 10459273
43.617741 -24.210384 -182.65753 10459273
44.242344 -24.192286 -182.37167 10459273
44.372562 -23.161413 -182.72694 9143160
45.077637 -22.941029 -182.48511 9932675
44.62458 -22.169561 -183.00926 9340539
45.148663 -21.886904 -182.87756 9340539
45.348839 -21.028805 -183.1302 9603711
45.975147 -21.013477 -182.84238 9340539
45.617287 -20.347525 -183.27937 10590347
45.922466 -20.040041 -183.26038 9998211
45.989277 -19.286823 -183.53325 9538438
46.1959 -18.528921 -183.74234 9538438
-144.9662 -59.893494 -109.75333 8353651
-144.39986 -59.877281 -110.42194 6709341
-143.73613 -59.822132 -111.01558 10525328
-141.37006 -59.719604 -111.11411 8090219
-146.8132 -58.907959 -109.02926 7959144
-146.09755 -59.014259 -109.6853 7300704
-145.41695 -59.331127 -110.09089 7958893
-144.66676 -59.489746 -110.62388 6709341
-140.49957 -59.634075 -111.80552 8288365
-139.76529 -59.550564 -112.32549 8748916
-138.98734 -59.449337 -112.80737 7038049
-138.36763 -59.358276 -113.13723 8681835
-134.41032 -58.959812 -113.75097 9406590
-133.85075 -58.894169 -114.11005 9406590
-133.10382 -58.806828 -114.58553 8682867
-132.36179 -58.722282 -115.06179 8222060
-147.59514 -57.88435 -108.69221 6510930
-147.10197 -58.093082 -109.15067 8946295
-146.53252 -58.075279 -109.82585 8616818
-131.45555 -58.626968 -115.67099 9142906
-130.72972 -58.551044 -116.15474 8484976
-128.19214 -58.389797 -116.14075 9011065
-127.47006 -58.315052 -116.60918 10260100
-126.56601 -58.22179 -117.18987 7563619
-125.84146 -58.147396 -117.64985 10392457
-124.93424 -58.054684 -118.21909 11181969
-124.20732 -57.98064 -118.67049 9931902
-121.32312 -57.765701 -118.75392 7695971
-120.75721 -57.69986 -119.05723 7038307
-147.93607 -57.220703 -108.66756 6906712
-147.2668 -57.243858 -109.43624 7301470
-120.00226 -57.612293 -119.45831 7038307
-119.05789 -57.503227 -119.95383 6643031
-118.11282 -57.394505 -120.44366 8681584
-117.35625 -57.307804 -120.83085 7037786
-116.40988 -57.199913 -121.3091 8748405
-115.46857 -57.09507 -121.78744 9603458
-114.55646 -57.005409 -122.29086 8156779
-113.82753 -56.934616 -122.69137 9011576
-110.34102 -56.674431 -123.03947 11379607
-148.74706 -56.272488 -108.25402 7564129
-148.05788 -56.324242 -109.02988 7103324
-147.42033 -56.528866 -109.65934 5920074
-109.79677 -56.622192 -123.32539 10524556
-108.88874 -56.535385 -123.797 9143417
-107.97948 -56.448765 -124.26304 8090987
-107.06904 -56.362385 -124.72272 12827053
-106.15742 -56.276154 -125.17677 15327698
-105.24472 -56.190186 -125.62455 9998726
-104.33095 -56.104443 -126.06669 9143163
-103.41608 -56.018955 -126.50251 7300446
-102.49971 -55.933342 -126.93217 7497567
-101.57631 -55.844723 -127.34803 7695972
-100.65124 -55.755745 -127.75709 7367264
-99.910561 -55.684868 -128.07994 8288109
-149.71959 -54.953663 -107.86051 7038307
-149.01419 -55.173286 -108.56084 11050387
-148.39586 -55.509441 -109.09374 9010807
-99.354767 -55.631741 -128.31966 8288109
-98.798782 -55.578754 -128.55707 8288109
-90.360443 -54.750454 -131.75911 10855060
-89.571716 -54.655281 -131.96642 9933702
-150.51051 -53.928291 -107.51389 7038307
-149.86879 -54.131084 -108.14931 8551287
-149.2942 -54.111187 -108.8316 14076861
-89.177544 -54.607841 -132.06841 12039079
-88.389771 -54.513054 -132.26913 12697265
-87.405617 -54.39484 -132.51509 12433069
-86.619049 -54.300545 -132.70717 7038307
-85.636581 -54.18309 -132.94165 7564393
-84.458878 -54.042561 -133.21523 8616566
-83.674446 -53.949146 -133.39299 7038307
-81.834465 -53.673744 -135.09084 7038307
-150.74541 -53.145531 -107.68018 7038307
-150.06506 -53.279549 -108.39936 7433065
-81.045059 -53.580551 -135.25143 15132124
-80.059387 -53.464405 -135.44652 13487042
-79.07489 -53.348648 -135.63611 11182740
-78.091721 -53.233326 -135.81938 7236445
-77.109741 -53.11837 -135.9971 7630693
-75.408539 -52.86771 -137.56891 9011578
-74.432365 -52.760719 -137.74519 9209467
-73.652061 -52.675419 -137.88235 9209467
-151.61897 -52.007401 -107.29458 9669765
-150.95471 -52.285831 -107.91963 9209217
-150.33659 -52.565605 -108.48403 7038307
-73.262268 -52.632824 -137.94946 7959144
-72.483276 -52.547878 -138.08054 6511954
-71.510529 -52.44191 -138.23978 6511954
-70.927483 -52.378563 -138.3325 8287850
-69.773224 -52.202419 -139.76706 7630178
-68.990868 -52.117901 -139.87825 9537918
-68.014252 -52.012653 -140.01186 10195591
-66.844147 -51.886818 -140.16496 10853777
-66.065208 -51.803143 -140.26277 8090987
-65.060326 -51.64513 -141.62703 9340539
-152.44194 -50.97382 -106.86874 8813942
-151.87425 -51.076023 -107.49206 11314330
-151.10117 -51.459942 -108.20597 8289140
-64.276901 -51.561565 -141.71237 8485488
-63.298912 -51.457436 -141.81458 7828331
-62.322655 -51.353733 -141.91084 8289140
-61.54274 -51.271019 -141.98439 14077885
-60.496262 -51.110329 -143.30943 7564387
-59.516441 -51.007019 -143.38562 5919050
-58.538483 -50.904167 -143.45602 7301478
-57.757339 -50.822128 -143.50893 8813945
-56.684601 -50.667053 -144.82571 7038307
-56.297043 -50.630516 -144.85934 8090736
-153.12083 -49.933479 -106.61153 9735812
-152.70047 -50.192577 -106.97559 9604227
-152.08092 -50.202129 -107.71008 10656656
-55.716145 -50.575897 -144.908 8090736
-54.749111 -50.485043 -144.98447 10459281
-53.78331 -50.394325 -145.05559 8288116
-52.126278 -50.215397 -146.46954 10459019
-51.155777 -50.12466 -146.52074 9867139
-50.186928 -50.034149 -146.5658 9670273
-48.491478 -49.852467 -147.93646 9077368
-47.518337 -49.761665 -147.96094 10063750
-46.54538 -49.669754 -147.97577 13024431
-153.45572 -49.260509 -106.56959 9802373
-152.88155 -49.240757 -107.26557 9472897
-152.38763 -49.452541 -107.74268 9209726
-44.809048 -49.481052 -149.28847 9012089
-43.637466 -49.370361 -149.27995 8617073
-42.857933 -49.296814 -149.27017 8287592
-41.869785 -49.179405 -150.55916 8485235
-40.890877 -49.08725 -150.53125 7038049
-39.91407 -48.995415 -150.49834 7038049
-38.897026 -48.875645 -151.77007 8090987
-38.112282 -48.802082 -151.73111 8090987
-37.13327 -48.710403 -151.67818 8354418
-154.34789 -48.058357 -106.14393 7762277
-153.71133 -48.355892 -106.74562 9012600
-153.16283 -48.413399 -107.36984 8222829
-35.30291 -48.514935 -152.87894 8157296
-34.126183 -48.405231 -152.7906 7630435
-32.463524 -48.225922 -153.97446 7762027
-31.481266 -48.134716 -153.88159 8485747
-30.383606 -48.00811 -155.1042 9735297
-29.595333 -47.935162 -155.01718 12432037
-28.612158 -47.844189 -154.90433 10524556
-27.488194 -47.715519 -156.10986 9143934
-26.896345 -47.660938 -156.03299 9143934
-26.305504 -47.606468 -155.95456 7565675
-155.105 -47.033031 -105.78532 6510930
-154.59834 -46.969173 -106.42419 8288109
-153.9671 -47.450542 -106.9218 8025705
-25.912146 -47.570179 -155.90108 9144704
-24.960884 -47.457607 -157.12025 11381404
-24.171062 -47.385048 -157.00284 7894381
-23.382725 -47.312622 -156.88278 10263180
-22.210037 -47.179897 -158.05939 7564643
-21.222504 -47.089512 -157.89339 6840663
-19.433975 -46.900616 -158.95221 7563619
-18.643421 -46.828545 -158.80504 7563619
-17.425381 -46.691875 -159.95831 11577496
-16.633141 -46.619865 -159.7988 9208435
-156.11278 -45.951309 -105.37222 7958120
-155.5013 -46.102444 -105.94382 7365983
-154.78218 -46.227764 -106.65914 9208955
-16.040226 -46.566013 -159.67732 12432037
-14.798787 -46.427395 -160.81628 7564651
-14.006417 -46.355667 -160.64252 7564651
-12.744161 -46.215256 -161.77399 9735556
-11.950475 -46.143543 -161.5878 9011833
-10.070962 -45.947601 -162.56305 9602945
-9.2773409 -45.876179 -162.36292 9931910
-8.1701288 -45.749912 -163.52428 10984593
-7.3750658 -45.678596 -163.31221 9537150
-157.18379 -44.954082 -105.53958 8682608
-156.42874 -45.367924 -105.69257 6510930
-155.8056 -45.517029 -106.25872 6510930
-6.248105 -45.550465 -164.47089 8090987
-5.4514818 -45.479233 -164.24734 9143675
-3.5067337 -45.277046 -165.16374 10196879
-2.7100112 -45.195927 -164.88907 10064265
-1.540673 -45.073914 -166.06862 10985110
-0.94230342 -45.00869 -165.8371 9801092
0.4463799 -44.862762 -166.93469 8090987
1.0448945 -44.797417 -166.69337 7039331
2.6536591 -44.627468 -167.6996 8684155
3.2519295 -44.562107 -167.44815 13551549
3.6497681 -44.518734 -167.27972 10262929
4.881259 -44.389912 -168.44006 9538434
5.6778822 -44.302937 -168.09108 7564643
6.7275686 -44.173756 -169.26039 10393998
7.323451 -44.095295 -168.93881 10065289
8.7871428 -43.908672 -169.8774 14077894
9.5499067 -43.692802 -170.16136 12235172
10.445849 -43.602551 -170.34343 8682867
11.054378 -43.590145 -170.26135 8682867
10.474555 -43.283413 -170.84531 9538175
11.303508 -43.103378 -170.97333 9340798
12.250159 -43.076859 -170.98865 9011577
13.162395 -42.937572 -171.08723 11380380
11.529933 -42.520309 -171.31329 10064265
12.197883 -42.205135 -171.44701 8813942
13.191649 -42.143753 -171.49695 10130057
14.186679 -42.082962 -171.54434 10392717
14.859069 -41.769958 -171.67993 9735043
13.078254 -41.181889 -171.84581 9406078
14.047252 -41.134052 -171.89012 9866629
15.084735 -41.157513 -171.91025 8879991
15.714271 -40.96627 -171.99763 9931902
14.151942 -40.353565 -172.17856 9274748
15.027946 -40.066479 -172.30789 10261129
16.037468 -40.148838 -172.30566 10458246
16.795536 -39.754093 -172.47112 9931902
15.213626 -39.1661 -172.64249 9603453
15.980685 -39.114563 -172.68256 8681835
17.02523 -39.139324 -172.70239 9931902
17.869038 -38.953091 -172.79385 9209726
16.05257 -38.164364 -173.03223 9800831
16.938362 -38.161079 -173.05794 10655626
17.902771 -38.00655 -173.14117 9012347
18.753391 -37.731213 -173.26544 7039331
16.95282 -37.134441 -173.43396 8288365
17.849823 -37.12772 -173.46124 8090987
18.862339 -37.069164 -173.5107 7894124
19.626915 -36.922009 -173.58568 10851980
17.822083 -36.323341 -173.75485 8090987
18.760746 -36.120064 -173.85519 9735554
19.782471 -36.033508 -173.91508 9932677
20.657066 -35.837276 -174.01108 9537920
18.84647 -35.236553 -174.18083 10459276
19.613926 -35.087891 -174.25635 10064520
20.633678 -35.029415 -174.30577 9142906
21.539757 -35.024632 -174.33247 9866628
19.724583 -34.422142 -174.50275 11381404
20.585037 -34.143959 -174.62805 9998214
21.563839 -33.988663 -174.71173 12629418
22.465054 -33.987724 -174.73688 10524301
23.162441 -33.670353 -174.87202 7563619
21.567989 -33.042156 -175.0578 9076600
22.550838 -33.024532 -175.09128 11971489
23.405251 -33.046494 -175.10672 11511449
22.374794 -32.179256 -175.39536 11510938
23.49324 -32.080627 -175.46214 13090223
24.390301 -31.878782 -175.56059 11840158
22.616814 -31.55345 -175.63074 10787471
23.274158 -31.253117 -175.75859 11511449
24.246624 -30.931643 -175.9864 8353901
25.232136 -30.995838 -175.97073 9077114
26.113022 -30.816174 -176.11598 10064265
24.64706 -30.382704 -176.40884 8089963
25.3801 -30.266844 -176.51772 8089963
26.304516 -30.262472 -176.54594 9669251
27.229023 -29.899073 -176.9476 12170923
28.226814 -29.697279 -177.22623 9868428
29.092213 -29.713497 -177.19601 7565675
29.24382 -29.414795 -178.13478 9011065
29.896889 -29.427225 -178.11147 9340030
30.768497 -29.444166 -178.07898 9011065
32.791626 -29.272823 -179.5482 10524811
33.865833 -29.271143 -179.35077 9274489
38.327522 -29.268845 -181.47682 9208956
39.196278 -29.267445 -181.29324 9208443
40.320744 -28.984676 -182.27716 12103073
40.94429 -28.961784 -181.99397 9208443
40.373169 -28.318449 -182.52101 10655630
41.109501 -28.007168 -182.30115 10722451
41.167912 -27.033449 -182.66696 10196107
41.87413 -26.861536 -182.405 10196107
41.366604 -26.285793 -182.8757 9341054
42.138893 -25.993605 -182.6313 10327949
42.083244 -25.149025 -182.99855 11643296
42.709126 -25.129526 -182.71266 9735551
42.365574 -24.247486 -183.23021 9537408
42.96151 -24.095581 -183.01189 8288108
43.134892 -23.016783 -183.36627 8879734
43.826504 -22.975103 -183.0585 9472125
43.807575 -21.966854 -183.47464 9997700
44.093533 -21.060242 -183.70663 11312787
44.721741 -21.044384 -183.41824 9734267
44.799522 -20.141726 -183.74631 10063232
44.957741 -19.28014 -184.02005 9471351
45.736511 -18.991255 -183.77122 13551549
44.93655 -18.556543 -184.32234 10786699
45.768856 -18.028393 -184.145 10788247
46.04995 -17.019884 -184.42044 10854296
46.357338 -16.710661 -184.40106 9538438
45.976711 -16.262615 -184.76071 13551549
46.433647 -16.031406 -184.71085 11512225
-143.21092 -59.770035 -111.43865 10064006
-142.68486 -59.718132 -111.85935 10064006
-145.39207 -58.865391 -110.71312 7564134
-144.64445 -59.003399 -111.43327 7893098
-143.73656 -59.490406 -111.84309 14800841
-141.98207 -59.649132 -112.41711 9537407
-141.27776 -59.580257 -112.97112 9931910
-137.76271 -59.273941 -113.4763 8681835
-136.95616 -59.161728 -113.92481 7037274
-136.14943 -59.049999 -114.36889 8484714
-135.36137 -58.946724 -114.82448 9208435
-134.60695 -58.858528 -115.30454 8682867
-133.67508 -58.754097 -115.90937 6511954
-146.10544 -58.062656 -110.33178 9011320
-145.60591 -58.004063 -110.94819 8682356
-145.04396 -58.258553 -111.46131 7563619
-130.36623 -58.513165 -116.39495 9734788
-129.63838 -58.437454 -116.87196 9471616
-128.72711 -58.343075 -117.46329 7563619
-127.99678 -58.267788 -117.9318 9339257
-127.08228 -58.173946 -118.5116 7958884
-123.84348 -57.943634 -118.89466 9931902
-123.09276 -57.859585 -119.31834 9472384
-122.14032 -57.748699 -119.83034 8288110
-121.56859 -57.682301 -120.13457 8420467
-147.00325 -56.965919 -109.9005 5920074
-146.50969 -57.17609 -110.35868 7169629
-145.84053 -57.202644 -111.12527 7761510
-121.18723 -57.638142 -120.33592 6644314
-120.42409 -57.550102 -120.73545 6644314
-119.46962 -57.440327 -121.22992 6510930
-118.70561 -57.352875 -121.62078 8681584
-117.75032 -57.244007 -122.104 9076857
-116.81829 -57.147133 -122.60604 9340286
-113.46262 -56.899269 -122.89011 9011576
-112.91491 -56.846291 -123.18617 8089963
-112.00096 -56.758183 -123.67471 9011320
-111.26886 -56.687836 -124.06164 10854036
-147.31761 -56.225933 -109.94984 6709334
-146.62877 -56.280998 -110.7234 6511955
-110.90257 -56.652771 -124.25349 13023917
-110.16914 -56.582676 -124.6339 10261384
-109.2514 -56.495224 -125.10466 8090987
-108.33245 -56.40799 -125.56894 8090987
-107.41232 -56.32095 -126.02761 6511954
-106.67548 -56.251534 -126.39008 6511954
-105.75336 -56.164925 -126.83751 8418923
-104.83022 -56.078548 -127.27937 11641496
-148.20689 -55.090393 -109.55039 7563619
-147.52913 -55.182533 -110.29014 8156268
-146.82515 -55.612228 -110.87043 5920074
-97.871536 -55.490551 -128.94803 8353131
-96.943741 -55.402676 -129.3334 7103834
-96.015312 -55.315037 -129.71259 7235935
-95.086349 -55.227711 -130.08627 9539206
-94.156906 -55.140648 -130.45375 9867913
-93.226974 -55.053806 -130.81575 9999499
-92.296631 -54.967289 -131.17157 10131085
-91.346909 -54.86969 -131.49496 8486000
-149.00693 -54.101761 -109.17242 11905695
-148.43253 -54.083778 -109.85349 7563619
-147.7923 -54.28994 -110.48516 8419440
-88.771606 -54.499725 -133.52003 10065033
-87.976326 -54.404358 -133.71452 9867399
-86.982986 -54.285488 -133.95259 8287859
-85.990723 -54.167076 -134.18413 8353652
-84.999382 -54.049046 -134.40991 10260617
-84.009201 -53.931324 -134.62917 7564393
-83.02002 -53.814011 -134.84277 7038307
-82.427032 -53.743752 -134.96805 7038307
-149.27251 -53.208035 -109.36523 8353133
-148.57906 -53.261803 -110.14499 6774614
-80.557831 -53.465942 -136.64906 10262670
-79.563606 -53.349239 -136.83609 6644308
-78.570671 -53.232899 -137.01761 6512978
-77.579102 -53.117016 -137.1927 10064009
-76.588882 -53.001579 -137.36238 7433064
-75.995384 -52.93243 -137.46135 8813945
-74.681854 -52.735882 -138.98877 9209467
-74.091209 -52.671391 -139.08972 8090730
-150.14844 -52.220318 -108.8982 7565162
-149.46732 -52.35656 -109.61707 6314833
-148.89548 -52.519581 -110.1932 5920074
-73.500832 -52.606998 -139.18884 7959144
-72.911072 -52.542797 -139.28557 10854036
-71.92907 -52.436035 -139.44225 9472382
-70.948318 -52.32959 -139.59346 7630178
-70.360489 -52.265884 -139.68146 7038298
-68.992531 -52.066765 -141.14462 7564643
-68.401169 -52.003136 -141.22269 9537918
-67.416763 -51.897388 -141.34818 11577243
-66.237495 -51.771015 -141.49149 8880502
-65.452461 -51.687065 -141.58282 8090987
-151.04189 -50.958519 -108.54825 9341313
-150.34628 -51.273746 -109.19791 7039331
-149.80432 -51.418392 -109.75155 7039331
-64.432602 -51.527328 -142.95021 10590347
-63.643272 -51.443485 -143.02899 9472382
-62.657913 -51.338902 -143.12288 8618104
-61.674347 -51.234772 -143.21091 7433574
-60.024826 -51.010174 -144.5916 6511443
-59.037651 -50.906418 -144.66013 7893358
-57.855316 -50.782528 -144.73537 8156529
-57.072384 -50.703495 -144.79103 7038307
-151.83101 -49.890469 -108.17422 7039331
-151.26834 -50.146484 -108.70975 7039331
-150.76553 -50.086308 -109.34195 12038826
-56.022949 -50.580704 -146.20886 10261132
-55.241798 -50.507401 -146.26811 7367272
-54.266521 -50.415825 -146.33755 9735559
-53.292828 -50.324604 -146.40086 9143678
-51.616295 -50.143803 -147.81761 8946295
-50.638042 -50.052475 -147.86079 9735296
-49.466202 -49.943192 -147.90532 10984593
-47.750038 -49.759392 -149.27443 8089963
-46.76799 -49.666515 -149.28502 8353647
-152.51442 -49.000641 -107.83151 9209726
-152.02057 -49.213097 -108.30811 7565417
-151.44678 -49.195885 -109.00232 8091760
-45.787483 -49.573673 -149.2897 9341054
-44.030869 -49.383083 -150.60072 8551281
-43.047256 -49.290298 -150.58517 8682867
-42.458122 -49.234772 -150.57323 8682867
-41.062813 -49.078888 -151.85841 8287859
-40.27404 -49.004791 -151.82924 7038307
-39.486694 -48.930885 -151.79666 7563619
-37.66655 -48.735718 -153.03281 8682612
-36.679909 -48.643478 -152.9726 10262415
-152.82182 -48.250214 -107.86375 10656656
-152.27356 -48.309254 -108.48687 9735812
-151.77928 -48.5224 -108.96348 7039331
-36.08918 -48.588322 -152.93396 11906725
-34.830994 -48.446194 -154.17654 8024682
-33.64547 -48.335796 -154.07925 6775126
-31.965591 -48.154778 -155.26749 7235685
-30.976097 -48.063011 -155.16699 8353906
-29.865431 -47.935097 -156.39851 8090987
-29.071413 -47.861679 -156.30525 9537919
-28.081059 -47.770187 -156.18468 9933191
-26.94393 -47.640068 -157.39886 9143934
-153.70268 -47.098804 -107.42454 8354670
-153.12263 -47.129372 -108.10067 9801603
-152.5536 -47.481533 -108.59274 12827051
-26.347807 -47.585186 -157.31732 11381404
-25.554657 -47.512196 -157.2058 11381404
-24.393265 -47.380024 -158.40681 9341822
-23.597843 -47.307014 -158.28302 8157036
-22.803947 -47.234211 -158.15663 9341822
-21.617733 -47.099979 -159.3416 7563619
-20.623291 -47.009174 -159.16745 7563619
-18.816841 -46.818497 -160.22975 7827303
-18.020908 -46.746071 -160.0759 8814454
-16.988491 -46.62606 -161.27884 8485488
-154.68091 -45.904694 -107.13811 9012600
-154.06404 -46.055927 -107.70248 8288622
-153.42072 -46.290165 -108.19112 9143932
-16.58918 -46.589722 -161.19647 7038298
-15.991197 -46.535515 -161.07143 8090470
-15.394322 -46.481403 -160.94482 9208435
-14.338479 -46.359356 -162.13669 9077374
-13.340981 -46.269131 -161.91138 10853012
-12.264436 -46.145245 -163.09885 9735556
-11.265405 -46.055157 -162.85803 9472128
-9.7674227 -45.89333 -163.93887 8353135
-8.7679567 -45.803566 -163.68114 10721422
-7.6481104 -45.675804 -164.85472 8813428
-7.0472078 -45.622036 -164.69131 8089963
-156.87981 -44.765434 -106.43284 8287852
-155.83904 -45.107414 -106.82964 9734787
-154.99306 -45.322105 -107.4623 8222319
-154.37097 -45.473103 -108.02503 7564651
-6.6473246 -45.586147 -164.5815 8089963
-5.5066233 -45.456551 -165.74998 10261899
-4.70506 -45.384995 -165.51904 9472640
-2.9416091 -45.199886 -166.50323 10788759
-2.1402099 -45.128582 -166.25876 10064779
-0.95671153 -44.995113 -167.41454 10985110
-0.15406489 -44.923981 -167.1584 9208443
