# .PCD v0.7 - Point Cloud Data file format
VERSION 0.7
FIELDS x y z rgb
SIZE 4 4 4 4
TYPE F F F U
COUNT 1 1 1 1
WIDTH 1229
HEIGHT 1
VIEWPOINT 0 0 0 1 0 0 0
POINTS 1229
DATA ascii
144.95749 -67.772774 26.888405 7695972
49.453438 -67.85968 123.10476 10656657
48.771236 -67.508713 123.26093 8551025
145.40028 -66.314735 25.343281 6248013
145.27103 -66.798538 26.173492 7103321
48.831284 -66.632233 123.60844 10195850
48.012341 -66.553658 123.6595 9998215
145.62154 -65.721458 25.45293 6379599
145.60385 -65.887909 26.220577 5919050
48.910469 -65.874405 123.90829 9735812
48.087284 -65.689667 124.00168 10788244
146.06711 -64.382416 24.732506 9405560
145.94873 -64.816589 25.436081 8222061
145.82977 -65.252586 26.139359 6971994
48.128124 -64.858994 124.33141 8485232
47.358078 -64.510292 124.48884 6840154
146.34088 -63.6348 24.777573 9537661
146.31252 -63.813583 25.437077 9605000
48.165825 -64.045677 124.65435 7563874
47.380775 -63.596924 124.85197 7629926
146.63066 -62.837318 24.779747 10064520
47.343266 -62.699284 125.21025 8748662
46.673183 -62.622559 125.25697 9209469
146.99214 -61.824944 24.666042 10064777
46.583744 -61.748833 125.60699 8025200
45.837086 -61.345089 125.78573 8814713
147.28908 -60.99268 24.568588 8485232
46.68272 -60.994102 125.90511 10065038
45.888714 -60.656189 126.11831 8683385
45.910252 -59.980991 126.6236 8551543
45.242916 -59.67577 126.88489 8814201
44.573143 -59.24115 127.55186 9077372
43.841003 -59.006531 128.33052 10590094
43.215958 -58.872604 129.14133 7037274
42.339668 -58.854362 129.62823 8221548
41.799179 -58.852943 130.45627 8551537
40.894936 -58.852585 131.06651 8946295
40.379341 -58.850311 132.21315 7103323
39.42268 -58.850864 132.50002 6511954
39.050472 -58.848499 133.60504 8815739
38.104553 -58.693451 134.16182 7763052
37.625275 -58.298515 134.31879 12433069
37.716648 -57.563984 134.64803 11511968
37.346138 -56.675701 134.83754 10130573
37.416901 -55.689789 135.25691 8814715
36.884491 -55.496647 135.10214 8814715
36.877518 -54.521122 135.4837 9077373
36.624237 -53.699268 135.69785 10656147
36.096062 -53.477634 135.55612 13550517
36.54163 -53.055798 135.91571 10261391
36.206738 -52.536266 135.97525 9537925
36.037758 -51.558807 136.28729 7695980
35.928452 -50.669071 136.59071 7432808
35.515785 -50.525475 136.46829 7038307
35.401333 -49.651657 136.76312 7038307
35.269249 -48.630619 137.10837 8354163
34.708298 -48.346268 136.97717 9011323
35.151325 -47.915779 137.33908 9012089
34.872757 -47.457848 137.39812 8880503
34.620983 -46.578419 137.63383 8354416
34.500614 -45.810947 137.91148 7038307
34.059208 -45.487274 137.91019 7038307
33.833637 -44.71167 138.433 7828077
33.176651 -44.29253 138.6398 8617847
33.332172 -44.111214 139.29431 10263180
32.59454 -43.926502 139.62801 9144699
31.735714 -43.841644 140.0593 7564898
31.33683 -43.838531 141.46588 7563619
30.313259 -43.839344 141.68695 6775126
29.7234 -43.836361 143.1469 5919050
29.033112 -43.836929 143.28729 5919050
28.342213 -43.837509 143.42499 6510930
27.769413 -43.580631 144.55687 6905688
27.480217 -42.656517 144.79793 8945271
27.602875 -41.743122 145.21381 10853524
27.066437 -41.554695 145.05537 12696496
26.901901 -40.647881 145.34378 11578272
26.781361 -39.665951 145.68069 9341310
26.211281 -39.406513 145.53578 9735812
26.389122 -38.54332 145.95308 6906712
26.1022 -37.720936 146.15256 7169884
26.132225 -36.965549 146.46313 8287853
26.045757 -36.360008 146.66417 8484976
26.07198 -36.006683 146.81467 7037274
131.147 -79.406738 41.795643 8353645
130.9381 -79.432198 42.597504 11379348
131.51172 -78.688133 41.041431 7564643
131.3717 -78.749428 41.924099 8287597
132.06142 -77.411568 40.341278 8092011
131.81581 -77.846176 41.06538 8025194
131.77037 -77.722679 41.816826 8616305
132.35704 -76.614212 40.29969 10460047
132.19286 -76.783722 41.151016 10591122
132.9337 -75.550461 39.732708 12959671
132.76102 -75.687401 40.377625 14144458
132.50768 -75.970512 40.998093 14078923
134.46082 -74.322548 38.083805 9208443
133.95384 -74.509918 38.986012 9932422
133.40791 -74.94545 39.640858 13024950
142.76346 -73.672691 29.701832 9144443
142.51292 -73.779297 30.484707 12762290
141.71609 -73.975342 31.086861 10986135
140.96571 -73.974632 31.751202 8420981
140.47195 -73.973137 32.587406 8485747
139.67606 -73.972855 33.1106 7432545
139.01067 -73.971413 34.013073 7827562
138.17372 -73.970795 34.689003 7038307
137.54771 -73.969772 35.411427 7038307
136.91707 -73.968773 36.127384 10129803
135.87804 -73.96862 36.727131 8682100
135.43126 -74.037178 37.586411 8813429
134.96544 -74.157097 38.226894 9142394
62.322758 -73.873474 111.83147 9208443
61.647991 -73.873421 112.20281 10261130
60.699863 -73.873375 112.7167 10129799
60.054913 -73.872276 113.47546 11905952
59.402111 -73.871208 114.23078 8288111
58.548557 -73.870514 114.94561 8419697
58.076099 -73.869095 115.73649 7367270
57.135624 -73.868729 116.36785 8748660
56.640553 -73.867592 117.06518 10656402
55.731094 -73.867157 117.70525 11315356
55.154881 -73.865952 118.47411 8486773
54.479259 -73.865204 119.11626 8092016
53.772133 -73.864258 119.85227 9603972
53.017414 -73.64212 120.69073 9932169
52.30056 -73.39624 120.83172 9406339
143.35344 -72.310631 28.924061 7037274
143.12105 -72.684273 29.725483 9340798
142.8737 -73.125992 30.441193 11315100
52.999996 -72.808723 121.04879 9406339
52.226704 -72.598686 121.15105 8747895
143.59018 -71.645363 28.970627 7432032
143.4411 -71.803627 29.731319 8945528
52.375706 -71.687836 121.5101 8879480
51.674812 -71.527603 121.5908 9404794
144.02516 -70.565788 28.336212 7037274
143.89424 -70.790779 29.030342 7037274
143.73424 -71.00309 29.718369 7826790
52.23473 -70.740196 121.8908 9340027
51.557831 -70.688683 121.92764 10326664
50.929031 -70.35392 122.0761 9340027
144.30775 -69.762772 28.318298 6511958
144.22466 -69.901779 28.97501 5919567
51.613052 -69.762245 122.29513 11181972
50.836731 -69.523003 122.40913 8353134
144.76668 -68.404358 27.575012 5393738
144.60857 -68.922112 28.267399 5788494
51.486546 -69.041847 122.58506 7563619
50.940163 -68.607437 122.77117 9668993
50.205399 -68.494545 122.83382 13024949
145.04512 -67.662956 27.747307 7038301
144.96481 -67.965248 28.274731 5591116
50.84367 -67.720467 123.12663 13024949
50.167759 -67.66214 123.16617 12103847
145.43494 -66.441429 26.793468 5919050
145.33012 -66.831749 27.453167 6971994
50.209412 -66.755814 123.52599 10392714
49.397114 -66.405754 123.68497 10656657
145.72813 -65.648087 26.891293 7367008
145.6946 -65.857903 27.656029 7498594
50.156212 -65.93779 123.85298 9010549
49.475723 -65.539742 124.02787 8484720
146.1041 -64.503181 26.187126 7565675
146.04099 -64.771057 26.798393 8683123
49.44059 -64.66497 124.37702 8484720
48.784443 -64.474991 124.46849 8617075
146.4225 -63.624401 26.18203 7565675
146.32344 -63.987858 26.770573 7565675
49.560795 -63.891808 124.68199 8617075
48.73061 -63.709087 124.77471 7827303
146.71638 -62.803673 26.111744 8157811
48.745621 -62.861305 125.11192 7563874
48.048557 -62.556004 125.25028 9077626
147.05751 -61.750687 25.363087 11643810
147.03082 -61.940414 26.129299 12104619
48.809368 -62.066597 125.42681 7037274
48.059032 -61.656429 125.60818 8814198
47.394249 -61.197273 125.807 10065038
147.67003 -60.440918 24.753132 8485232
147.4402 -60.840359 25.414425 9209211
48.083256 -60.832687 125.94997 7037274
47.285519 -60.530682 126.16421 10065038
46.768139 -60.171009 126.45 8092019
148.13416 -59.845715 24.890972 9933190
148.00941 -60.045589 25.41964 10459534
47.353073 -59.934006 126.62572 10065038
46.659332 -59.626122 126.92594 8947071
45.80336 -59.310207 127.36876 7893358
46.104591 -59.099415 127.96738 7565163
45.196316 -58.990032 128.34674 8814201
44.364811 -58.853718 128.95332 11511196
43.884121 -58.85104 130.10143 9997959
42.942596 -58.851501 130.41364 8813685
42.530972 -58.849781 131.29236 9736067
41.651718 -58.849606 131.81998 8879222
41.097366 -58.848179 132.65988 8879222
40.175667 -58.847836 133.2726 8090991
39.806347 -58.845436 134.39148 9407875
38.962845 -58.606056 134.71536 10263181
38.685619 -57.798786 134.97585 8815739
38.411514 -57.323429 135.04428 7565675
38.844387 -57.076904 135.32925 10065803
38.302979 -56.597019 135.28362 10393745
38.100693 -55.699551 135.54973 11709858
38.04673 -54.904427 135.8398 10591633
37.649265 -54.609612 135.7836 9340799
37.471535 -53.610519 136.1004 9735812
37.321583 -52.647499 136.41504 8419957
37.482361 -51.868946 136.7917 7038307
36.896927 -51.742825 136.58751 7827566
36.769272 -50.715721 136.93706 9998476
36.655994 -49.837177 137.23428 10129287
36.269764 -49.439163 137.22368 8221807
36.146656 -48.657955 137.47824 9208956
35.856598 -47.708111 137.72684 8880503
36.06485 -46.880558 138.14249 9012089
35.497658 -46.597828 138.00705 9472640
35.318539 -45.59425 138.40036 9077882
34.725574 -44.693649 138.87109 10920598
34.060429 -44.184338 139.36852 11644064
33.853588 -43.963459 139.9872 10130057
33.256908 -43.872925 140.48532 9406334
32.528885 -43.837612 141.19803 8221549
31.848034 -43.838135 141.35249 7563619
31.273888 -43.835106 142.81813 7563619
30.41291 -43.8358 143.00261 5919050
29.643795 -43.832905 144.52022 8813686
28.931355 -43.632969 144.88715 9800837
28.463894 -43.300587 144.96989 9735043
28.387276 -42.635761 145.20045 9405822
28.283665 -41.720402 145.51871 10721938
27.645309 -41.216122 145.44138 10853524
28.261833 -40.952824 145.8139 10064011
27.864773 -40.465305 145.83475 9471875
27.633152 -39.730003 146.02522 9735556
27.442909 -38.793392 146.31174 9209467
27.085846 -38.284298 146.35733 8090986
27.506336 -37.985348 146.65755 9735555
27.028839 -37.562263 146.61707 8090986
26.816513 -36.640282 146.88815 7038298
26.778957 -35.830177 147.19098 7695972
26.307655 -35.501228 147.11603 7234909
26.373974 -34.614761 147.49402 7695972
26.256317 -33.524452 147.8725 8419695
130.78099 -79.429878 43.068512 11379348
130.51855 -79.428108 43.853226 7563619
130.25536 -79.428474 44.637764 9142393
131.42909 -78.313019 42.406193 9142648
131.08247 -78.645493 43.061718 9866369
130.71158 -78.763443 44.033562 8155755
131.61952 -77.752266 42.466679 9142648
131.30644 -77.748833 43.413647 8747891
131.03156 -77.933769 44.023014 8089963
132.18681 -76.595306 41.772186 9340798
131.94447 -76.856606 42.500015 9603454
131.61168 -77.066643 43.279465 9866369
132.87715 -75.422142 40.994957 13157820
132.60457 -75.693794 41.727558 9867398
132.28526 -75.938812 42.608128 8682867
134.09085 -74.373657 39.726227 11709345
133.84715 -74.454781 40.355255 13551550
133.36443 -74.79763 41.066589 12565169
133.05093 -75.058617 41.867088 8682867
142.64418 -73.533516 31.110802 13486013
142.46193 -73.782623 31.867031 10853780
141.62614 -73.971802 32.497761 9736324
141.17052 -73.96991 33.46648 9736836
140.15073 -73.97007 33.936325 8485745
139.64726 -73.968613 34.763031 9341824
138.88515 -73.967979 35.401405 9736325
138.25096 -73.966965 36.125515 9670019
137.61275 -73.965965 36.843159 11906463
136.81383 -73.965782 37.334431 8089963
136.33376 -73.964027 38.261711 9273980
135.25356 -74.040108 38.871281 8945271
134.7962 -74.156151 39.583336 9472383
134.48064 -74.224365 40.370113 11709345
65.794022 -73.873947 109.83317 12432037
65.264 -73.873856 110.14736 9143422
64.33284 -73.873703 110.69144 7564651
63.488064 -73.873047 111.38767 12300710
62.965496 -73.872078 112.03337 11379609
62.136543 -73.871277 112.77285 9932165
61.405689 -73.870369 113.50755 9208954
60.828739 -73.869583 114.11007 9208954
60.036129 -73.868484 114.94685 9011575
59.448303 -73.867729 115.54469 9274487
58.690304 -73.866898 116.26447 9405558
58.015408 -73.865852 117.02181 8550252
57.332611 -73.864807 117.77538 8616307
56.446236 -73.864189 118.48141 8945785
55.946262 -73.862801 119.27717 8223088
54.973358 -73.862511 119.89522 8486773
54.498398 -73.602943 120.69637 7630955
53.727478 -73.407501 120.79283 9669254
142.94989 -72.718834 31.040909 11577760
142.76765 -72.928444 31.916473 9932678
54.436897 -72.774422 121.02773 9209472
53.693512 -72.529869 121.14306 10129804
143.37096 -71.787415 30.364414 10261644
143.25417 -71.8442 31.163319 9932679
53.806107 -71.63253 121.49759 9801864
53.024002 -71.664131 121.50388 8288884
143.93678 -70.433456 29.759186 7037274
143.7086 -70.837318 30.434097 9801092
143.56947 -70.960907 31.217194 9209211
53.57589 -70.962479 121.76991 9012606
53.006744 -70.656219 121.90559 8025454
52.320889 -70.226997 122.09309 7563619
144.25896 -69.612633 29.565933 7169373
144.10231 -69.744461 30.470089 9209211
53.003765 -69.685364 122.29221 8156783
52.351791 -69.529663 122.36993 7958377
144.74983 -68.505554 28.836418 7564643
144.56667 -68.721878 29.705002 9275773
144.38287 -68.940041 30.573181 13024949
52.357441 -68.701767 122.69939 7563619
51.598736 -68.359901 122.85381 7563619
145.02977 -67.702721 28.935997 8486001
144.88109 -67.849899 29.731552 12039591
52.238525 -67.830017 123.04936 8550770
51.556789 -67.567711 123.17025 9274492
145.399 -66.761978 28.236149 6445394
145.35551 -66.803711 28.953911 9407360
145.19563 -67.013344 29.648998 12039591
51.603416 -66.650566 123.53425 8945270
50.895256 -66.335625 123.67678 9734014
145.77838 -65.712769 28.307922 6379600
145.63788 -66.010422 29.008606 9077882
51.680275 -65.756157 123.88857 7563619
50.933132 -65.626839 123.95805 9865343
146.13943 -64.629555 27.647148 6971994
146.11812 -64.765335 28.250614 6971738
50.839012 -64.807861 124.28638 9602428
50.150024 -64.527603 124.41459 9076341
146.44426 -63.769806 27.520947 7696232
146.42743 -63.927704 28.247856 7037274
50.939068 -63.9118 124.64075 8616048
50.171036 -63.599606 124.78353 8616048
49.328667 -63.169567 124.97507 8617075
146.94072 -62.302551 26.880272 10065294
146.78986 -62.817055 27.523163 11972003
50.235043 -62.671883 125.15137 8682867
49.529835 -62.507133 125.234 7761254
147.15746 -61.694866 26.809059 11249053
147.16043 -61.786827 27.468475 10984852
50.216072 -61.909512 125.45538 9932934
49.423805 -61.717602 125.5509 7892583
48.91214 -61.392166 125.69285 11709090
147.69452 -60.503761 26.098225 8946039
147.46049 -60.949043 26.881245 8683127
49.486271 -60.854836 125.91282 9340286
48.742195 -60.659088 126.04277 11380125
48.100632 -60.315083 126.30169 7037274
148.567 -59.486507 25.367611 9274748
148.20102 -59.864201 26.18684 6511186
48.826263 -59.973984 126.5574 11182746
48.085403 -59.6021 126.9072 12366766
47.511223 -59.225395 127.52126 12038058
149.28705 -59.218403 24.900055 6511954
149.24974 -59.238438 25.447472 8485232
47.169815 -59.075043 128.01715 14076870
46.610355 -58.990295 128.30696 11445665
46.005169 -58.864834 129.15788 9472126
45.135967 -58.850449 129.67462 9275004
44.608761 -58.848965 130.5215 9669761
43.868881 -58.848461 131.10249 10460302
43.226089 -58.847477 131.81761 9736323
42.417599 -58.846596 132.57977 9735299
41.702744 -58.845226 133.48077 8879222
40.938148 -58.84478 134.05266 6510930
40.344379 -58.74918 135.01823 8354161
39.667976 -58.508678 135.12212 10723475
39.638302 -57.576561 135.47672 10394254
39.498142 -56.706383 135.75899 11050391
39.062298 -56.426491 135.68028 10064265
39.031307 -55.616657 135.98611 9932679
38.810589 -54.569145 136.30334 9143419
38.863541 -53.747799 136.65012 9143419
38.32597 -53.52187 136.506 9538433
38.19556 -52.623196 136.80376 9143419
38.112801 -51.655579 137.14932 8945272
37.544048 -51.358822 137.01959 7038307
37.706028 -50.578735 137.39742 10129287
37.34795 -49.64809 137.60899 9602943
37.349773 -48.788471 137.94873 10853265
36.888081 -48.434208 137.88811 9734786
36.904106 -47.566288 138.23726 8353134
36.693905 -46.653675 138.50479 6840920
36.123035 -46.370293 138.36803 8288366
36.55563 -46.104546 138.66016 7170141
36.227631 -45.611027 138.77185 8222572
35.996872 -44.839455 139.26434 8222829
35.380936 -44.436878 139.37404 11774882
35.321407 -44.11124 140.13564 11577503
34.668335 -43.944946 140.3959 10853780
33.888412 -43.836594 140.87981 8682867
33.164116 -43.833649 142.39378 9537665
32.477306 -43.834171 142.55075 10853781
31.789978 -43.834705 142.70494 13551549
31.209202 -43.831635 144.19223 7432033
30.339973 -43.832336 144.37634 7366240
29.757339 -43.544544 145.4353 9340030
29.577072 -42.70443 145.69034 8814454
29.141777 -42.337814 145.64665 9340287
29.202488 -41.632053 145.95316 8814203
28.882217 -40.688797 146.18831 8090737
28.956238 -39.803867 146.57025 8814203
28.423164 -39.475296 146.46838 10064011
28.33474 -38.602764 146.77376 10524560
28.160599 -37.789249 147.01868 9735298
27.759655 -37.304077 147.03586 9735555
27.735397 -36.532211 147.32935 8946039
27.538288 -35.551979 147.62997 10130053
27.347614 -34.916698 147.79752 9735296
27.071445 -34.612206 147.79767 9077625
26.994686 -33.658997 148.13983 8485488
26.789455 -32.628914 148.45654 9603714
26.335655 -32.455795 148.32785 9406590
26.55302 -31.687952 148.72464 9932424
26.455162 -30.846451 149.01367 8156531
130.04413 -79.430534 45.265171 9668994
129.77937 -79.43541 46.049335 9932167
129.51376 -79.442436 46.833336 9997703
130.62834 -78.493698 44.588596 7563619
130.3528 -78.682358 45.195778 9076858
130.03201 -78.734093 46.093746 9405823
129.69449 -79.066673 46.721848 10261132
130.98151 -77.710144 44.426727 7432032
130.61903 -77.750114 45.462475 8221549
130.28961 -77.940948 46.227875 8418928
131.62105 -76.658005 43.716415 10852751
131.23015 -76.850525 44.663223 8287084
130.87047 -77.066772 45.48999 7497825
132.69539 -75.414864 42.458 8682867
132.30818 -75.626457 43.153893 10195337
131.9608 -75.734474 43.978855 12365734
131.58308 -75.955727 44.674831 9339771
133.94687 -74.338921 41.724445 8946295
133.29858 -74.674545 42.457565 8879734
132.84804 -74.886475 43.270393 9208443
132.50069 -75.093742 43.804367 9931910
142.31044 -73.669891 33.27317 9011833
142.02565 -73.891075 34.03091 8354159
140.92442 -73.967606 34.483482 8156780
140.45744 -73.965744 35.444462 10065032
139.60078 -73.965149 36.121387 11906976
138.95894 -73.964134 36.847256 9735812
138.31242 -73.963142 37.56649 10854034
137.25063 -73.963036 38.164341 8681843
136.765 -73.961281 39.093819 9340285
135.95808 -73.961136 39.57053 9209467
135.42586 -73.994354 40.40633 9209467
134.6638 -74.135788 41.132263 9604225
69.20108 -73.874802 107.72735 10985878
68.68116 -73.874641 108.05791 10985878
67.898392 -73.874435 108.54961 10130569
66.980606 -73.874199 109.11587 9143416
66.497177 -73.872765 109.92507 10590348
65.770561 -73.871727 110.70089 10721936
64.834915 -73.871574 111.24955 7564651
64.409088 -73.870041 112.06498 10064266
63.582836 -73.869202 112.81733 15130061
62.855473 -73.868263 113.56405 10261129
62.214275 -73.867775 114.08524 9734530
61.473766 -73.866859 114.82309 9866373
60.817303 -73.865746 115.59641 10326924
60.152782 -73.864647 116.36623 12037024
59.209728 -73.864235 117.0171 11445141
58.803036 -73.862495 117.90093 10195074
57.949497 -73.862564 118.32101 9142907
57.333046 -73.814888 119.23741 9932679
56.657681 -73.559692 120.04557 8617333
55.793571 -73.566208 120.46064 9144702
55.231464 -73.377594 120.76838 8092016
142.82121 -72.595024 32.481167 10459278
142.61296 -72.906349 33.264969 9340285
56.644806 -72.875748 120.39486 7564135
55.935997 -72.57283 120.86567 8157043
55.118755 -72.620209 121.0727 8288884
143.31824 -71.459679 31.79567 8089963
143.15547 -71.678329 32.483089 8682355
142.95372 -71.966873 33.282154 8089963
55.79747 -71.819809 121.23672 7564651
55.13549 -71.714325 121.42926 9341314
54.426918 -71.549072 121.51583 11183003
143.61113 -70.658684 31.786774 7367007
143.45958 -70.822578 32.550438 8089963
55.088264 -70.9244 121.74857 9867658
54.413162 -70.5383 121.9186 9736071
144.12509 -69.466301 31.123569 8682867
143.92119 -69.785286 31.853779 6906712
143.69563 -70.15741 32.602699 6511954
54.442619 -69.636719 122.27686 9209985
53.659412 -69.671814 122.28178 10130829
144.40736 -68.727493 31.013611 10656913
144.2856 -68.79483 31.823299 7038298
54.23954 -69.132889 122.48237 9012606
53.749847 -68.66922 122.67876 9275262
53.00275 -68.230156 122.87157 7563619
144.88722 -67.640877 30.313789 10460559
144.68929 -67.897942 31.181873 8617842
53.720642 -67.759483 123.04168 8354159
53.0298 -67.483467 123.16824 9866886
145.33015 -66.635292 29.675755 10065801
145.2368 -66.657555 30.385044 12039591
145.07591 -66.869881 31.080662 11052696
52.995323 -66.672546 123.49194 10919829
52.245022 -66.538124 123.56355 10064265
145.64433 -65.800095 29.592461 9012089
145.56859 -65.748314 30.379642 8815478
52.966518 -65.862076 123.8153 10722194
52.285519 -65.594864 123.93812 8945528
146.19954 -64.472542 28.995674 7037274
145.99756 -64.783096 29.735497 7761510
145.77406 -65.146164 30.494495 7893096
52.315708 -64.709007 124.29009 10261643
51.633907 -64.445084 124.41166 10655372
146.47649 -63.737526 28.878445 8222317
146.36041 -63.799259 29.697502 8551282
52.354324 -63.76722 124.66416 10656142
51.61615 -63.591866 124.75179 10129799
146.92995 -62.546768 28.28109 9011579
146.75865 -62.911854 29.042564 7827562
51.526516 -62.781345 125.07664 10722450
50.863544 -62.573853 125.17524 9472383
147.23146 -61.712349 28.261116 8222322
147.1689 -61.799839 29.029568 8485493
51.606045 -61.926182 125.41519 9932934
50.882298 -61.654339 125.54091 9406590
50.151928 -61.210976 125.73505 7827302
147.67416 -60.624775 27.439735 6643543
147.57587 -60.853195 28.15694 7367015
50.91869 -60.800419 125.89446 9603969
50.246307 -60.493149 126.12061 8485233
49.528709 -60.172642 126.38076 11709090
149.18524 -59.272556 26.360447 6511954
148.72653 -59.4744 26.869678 7038298
148.21022 -59.933083 27.53854 6775126
50.124214 -59.937687 126.55458 8156012
49.507393 -59.546383 126.92829 8748148
48.691067 -59.253689 127.397 9340286
150.88206 -58.978249 25.167427 13023917
149.87215 -59.040329 25.368511 6511954
149.60963 -59.135891 26.188488 6511442
48.888458 -59.091427 127.91625 7563874
48.089386 -58.973133 128.32205 10657429
47.316505 -58.849506 128.89876 12762034
46.803658 -58.84798 129.75438 10262156
45.916542 -58.847504 130.40271 10787726
45.23175 -58.846062 131.3147 10787726
44.488708 -58.845547 131.90292 8288108
43.740738 -58.845032 132.49106 8946808
43.193089 -58.843552 133.34691 8617587
42.433311 -58.843071 133.93156 7432032
41.872505 -58.841599 134.78969 6510930
41.021511 -58.610409 135.5007 8484975
40.325375 -58.141418 135.55205 8815739
40.965191 -57.944881 135.90704 8550768
40.614796 -57.504898 135.92859 7563619
40.231441 -56.655254 136.09723 9142651
40.166203 -55.748692 136.42635 9866117
39.895378 -55.214989 136.51926 8813686
40.337326 -54.964729 136.80969 7563619
39.764359 -54.655895 136.68289 9208444
39.478279 -53.71072 136.93141 8419185
38.928207 -53.235962 136.88002 9143419
39.514442 -52.897858 137.26761 7827822
39.124626 -52.489212 137.25967 7959151
39.006481 -51.698235 137.5202 9734789
38.634617 -50.71624 137.74608 9603460
38.082848 -50.249901 137.69051 8681843
38.918476 -50.074043 138.12238 10261132
38.28587 -49.541874 138.05774 11050644
38.212017 -48.642498 138.38031 14472131
38.077175 -47.79792 138.65483 10458507
37.58094 -47.699635 138.47824 10853265
37.584435 -46.701187 138.87289 6708309
37.361 -45.688213 139.22202 7301470
36.926769 -45.183838 139.39299 7170141
36.753502 -44.712257 139.69231 7893607
36.243404 -44.205074 140.22533 7170141
36.043125 -43.981739 140.85471 7170141
35.487705 -43.925591 140.79938 7893608
34.877251 -43.832386 141.98593 9603969
33.849895 -43.833138 142.23291 8682867
33.290718 -43.830009 143.72876 11709347
32.42421 -43.830681 143.92535 9537665
31.730236 -43.831219 144.07924 7563619
31.318077 -43.827957 145.55116 8090989
30.639793 -43.56218 145.81189 9012089
30.431778 -42.669434 146.07578 8946296
30.242634 -41.684952 146.38428 8683124
29.842354 -41.19249 146.40573 8090991
29.832825 -40.532398 146.6633 8814203
29.567024 -39.713776 146.87076 10721683
29.000645 -39.271961 146.79907 10064011
29.627701 -39.002823 147.17715 9603460
29.136539 -38.452751 147.18071 10129803
29.073143 -37.603943 147.48753 9143166
28.803921 -36.798496 147.68805 9603711
28.425655 -36.495796 147.64319 9735296
28.444885 -35.642742 147.98758 11050641
28.17749 -34.584164 148.28854 9866882
28.109596 -33.749882 148.58771 10196362
27.728905 -33.462837 148.53563 9077625
27.646351 -32.558018 148.85623 8814459
27.446213 -31.572836 149.1575 9800840
26.98695 -30.674387 149.32161 9866632
26.777748 -29.837523 149.79102 9406339
26.65517 -29.316114 150.15512 7564651
129.30072 -79.449844 47.460518 8616307
129.03349 -79.461357 48.244442 7563875
128.76544 -79.47506 49.028313 10524555
129.94231 -78.442978 46.692486 9603202
129.60847 -78.700142 47.395561 8747893
129.28497 -78.759506 48.292957 7564387
128.94597 -79.097885 48.919079 7564643
130.23802 -77.720413 46.632622 8221549
129.92606 -77.766945 47.510162 7958893
129.7117 -77.775169 48.140072 8617080
130.89127 -76.696259 45.849522 7497825
130.55551 -76.789459 46.744858 7958635
130.18843 -77.058235 47.533928 7564651
131.66545 -75.592308 45.139839 7037274
131.23389 -75.767029 46.075623 7563618
130.83482 -75.965324 46.890743 8024943
133.7771 -74.30275 43.158127 9273980
133.18956 -74.435234 43.972412 9142394
132.5188 -74.746933 44.588871 8484464
132.08017 -74.935127 45.433422 7037274
131.7516 -75.094276 46.03017 9011321
142.18291 -73.538719 34.550285 9011576
141.92477 -73.721237 35.407734 9801604
141.10188 -73.962883 36.209736 9801603
140.32167 -73.96228 36.849277 11380633
139.54478 -73.9617 37.482323 10985876
139.01718 -73.960289 38.297688 10262157
138.20058 -73.960129 38.787846 9603712
137.70644 -73.958374 39.722492 10656398
136.6837 -73.958679 40.139355 11577243
136.38954 -73.956528 41.123764 11709345
135.3205 -73.956505 41.689308 9077881
134.74529 -74.056496 42.471657 9604226
134.27739 -74.134766 43.319805 9273980
73.568535 -73.890877 104.83524 9735046
73.049591 -73.877754 105.16832 9011573
72.158562 -73.875847 105.77591 9011573
71.264236 -73.875504 106.37851 9670530
70.603073 -73.874344 107.16845 10460559
69.918648 -73.873894 107.70199 12039591
69.335648 -73.872574 108.51235 9275260
68.418098 -73.872322 109.09074 9012345
67.822334 -73.87104 109.8959 8156779
67.217575 -73.869774 110.69833 8353644
66.281937 -73.869598 111.25915 8222058
65.7687 -73.86821 112.05692 6906716
65.039032 -73.867149 112.84992 8617330
64.245796 -73.866493 113.51797 12169637
63.675549 -73.865654 114.13955 10853265
62.938404 -73.8647 114.88955 10853265
62.087009 -73.863922 115.63745 8419438
61.625896 -73.862419 116.45631 7432800
60.782749 -73.862419 116.89684 9405822
60.110264 -73.86132 117.67314 11774106
59.482342 -73.594826 118.64046 9997697
58.601498 -73.583588 119.07482 11248281
57.855579 -73.401352 119.58744 10787988
57.308937 -73.226166 119.92704 10787988
142.69316 -72.500999 33.825855 8089963
142.50429 -72.73336 34.687634 10787731
59.37603 -72.864426 119.05471 10261132
58.80077 -72.609962 119.4403 9340286
57.995007 -72.510445 119.87705 9274749
57.105408 -72.476532 120.32865 8616822
56.465347 -72.166527 120.76845 8814971
143.19511 -71.327309 33.216175 8089963
142.97447 -71.693626 33.936405 8024169
142.8203 -71.854691 34.726414 9668221
58.79882 -71.97448 119.69681 9011321
58.070885 -71.65683 120.18291 9011321
57.268448 -71.62635 120.59025 8945785
56.402069 -71.634804 121.01342 8814971
55.85078 -71.464333 121.35339 7564651
143.4362 -70.688545 33.149757 8155756
143.30135 -70.787773 33.966866 8878963
143.13699 -71.010139 34.656044 8418670
57.928741 -71.089485 120.48111 9011321
57.36224 -70.783203 120.88313 10788501
56.536797 -70.746956 121.30407 9933705
55.705833 -70.707626 121.71415 8946557
143.78569 -69.723701 33.168148 8156266
143.56487 -70.085548 33.906506 9010549
56.750629 -69.815475 121.57342 10130827
55.889469 -69.657829 122.05891 8551541
55.074341 -69.55368 122.29466 7433831
144.19075 -68.821945 32.530331 7564384
144.1331 -68.718216 33.324493 8946294
55.945576 -68.8983 122.33854 7827302
55.16312 -68.541328 122.67946 7893351
144.78003 -67.462265 31.747383 8092011
144.55464 -67.832428 32.501106 8222314
144.45549 -67.895195 33.136215 8419435
55.14291 -67.636055 123.05653 8814710
54.352764 -67.672943 123.06088 8814710
145.09428 -66.617348 31.692856 8223085
144.90112 -66.859993 32.564896 6314575
54.43251 -66.73394 123.43282 8946296
53.660419 -66.405762 123.58212 11380380
145.51689 -65.668869 31.050827 9407871
145.38437 -65.760223 31.876698 7695715
54.446026 -65.914406 123.75878 9012089
53.770237 -65.503799 123.93858 10920086
145.86458 -64.710358 31.062248 7761767
145.64618 -65.063286 31.810486 8813682
53.681164 -64.679405 124.26896 8748660
52.924221 -64.547043 124.3399 9735042
146.26701 -63.820107 30.411663 8090733
146.21086 -63.709988 31.21278 7038307
53.722992 -63.967659 124.5513 8682867
53.003395 -63.652836 124.69401 10656142
146.853 -62.475285 29.611137 7038307
146.62953 -62.836796 30.374969 7367013
146.53169 -62.893673 31.016666 9209217
53.129925 -62.711113 125.06593 12037538
52.378689 -62.554379 125.14648 9669763
147.15929 -61.614559 29.671288 7564134
146.97505 -61.869274 30.432354 7761256
53.005268 -61.947945 125.37278 12629674
52.35561 -61.6255 125.51682 10787986
51.687984 -61.417904 125.61555 9932934
147.79601 -60.499313 28.997295 8616821
147.54517 -60.724979 29.747543 8221547
147.29539 -60.988747 30.435417 7037274
52.234425 -60.807655 125.8679 8222575
51.628658 -60.614048 126.01173 10459280
149.08955 -59.322113 27.639507 12300708
148.67464 -59.556568 28.340057 7630178
148.25764 -59.886528 28.963795 6840410
51.522282 -59.945797 126.51363 11905701
50.87075 -59.607658 126.83329 8090734
50.300171 -59.223091 127.45119 8090474
151.97029 -58.975815 25.538006 9012088
150.75819 -58.976536 25.89241 9406846
150.32234 -59.014671 26.810497 10919828
149.714 -59.123734 27.569431 12300708
49.965271 -59.070412 127.95512 7037274
49.406139 -58.983185 128.25339 6708309
48.816437 -58.859425 129.12956 7565416
47.953205 -58.846638 129.67136 8815483
47.439945 -58.845089 130.537 8025968
46.706909 -58.844524 131.13763 7959402
45.968914 -58.843964 131.73831 10787726
45.276005 -58.842518 132.65739 9735552
44.316032 -58.842979 132.97998 9736323
43.978092 -58.840481 134.12067 10260101
43.053368 -58.840061 134.76561 9011318
42.464344 -58.602253 135.73862 10524555
41.710098 -58.539837 135.80975 10853520
41.800117 -57.686069 136.14084 9340539
41.777359 -56.742725 136.52354 7564643
41.148808 -56.569233 136.52209 8156012
41.072277 -55.586086 136.86746 7892584
40.881886 -54.737179 137.13564 7037531
40.405148 -54.450489 137.04181 7629668
40.462921 -53.624599 137.39252 8024681
40.240593 -52.571873 137.71112 7235169
40.120052 -51.914852 137.91788 7564651
39.76408 -51.485065 137.93288 8617080
39.618572 -50.61721 138.2119 8879995
39.458549 -49.694134 138.50645 8682873
39.004169 -49.38903 138.4296 9340289
39.44746 -49.128361 138.72473 8092016
39.102554 -48.605427 138.78127 9735557
38.817749 -47.593983 139.05646 8747636
38.78307 -46.76646 139.36766 7958120
38.343605 -46.446934 139.3026 7234397
38.178787 -45.666851 139.58282 10129289
38.175861 -45.076374 140.01804 9405566
37.520264 -44.511513 140.2749 9077625
36.780945 -43.974957 141.18839 9143162
35.902813 -43.83165 141.73154 9341053
34.847309 -43.828857 143.36122 9209467
33.98307 -43.829494 143.56758 9209467
33.419247 -43.826317 145.08621 8090995
32.544483 -43.826988 145.2832 9932937
31.661873 -43.458633 146.29724 9538178
31.078087 -43.183826 146.15262 8617331
31.912315 -42.957821 146.60486 8617331
31.376995 -42.583187 146.52086 8354159
31.093769 -41.745289 146.73029 9143675
30.960144 -40.762589 147.06172 10262156
30.518639 -40.395245 147.01511 9735812
30.588673 -39.606377 147.35629 8945785
30.267788 -38.630852 147.60133 7761772
30.336369 -37.839779 147.94272 8090736
29.893532 -37.476715 147.8936 7893357
29.75499 -36.493309 148.22089 9011324
29.499664 -35.735249 148.40875 10524301
29.127815 -35.325058 148.40895 10787726
29.761341 -35.044441 148.79439 10261132
29.105415 -34.546364 148.70602 10393741
28.998196 -33.617794 149.02528 12170152
28.85561 -32.874306 149.25627 12762290
28.436661 -32.612469 149.17766 9209467
28.361546 -31.650608 149.52397 9011835
28.16206 -30.709455 149.80814 10590097
27.921665 -30.292252 149.92383 11379356
27.522781 -29.693083 150.22839 10063754
26.98056 -29.078949 150.93671 9734531
128.6042 -79.484459 49.498631 7564643
128.33453 -79.502258 50.282612 9538176
128.0099 -79.526329 51.223415 10525071
129.30687 -78.34478 48.69949 9537918
128.93643 -78.658508 49.447353 11708572
128.54115 -78.838242 50.42189 10130055
128.19032 -79.147507 51.116325 11380380
129.49666 -77.785179 48.770035 9537919
129.20692 -77.663811 49.772327 11708828
128.89378 -78.002815 50.320637 13550517
130.14192 -76.717026 48.06078 9340545
129.81262 -76.853798 48.887501 12563881
129.5696 -76.866425 49.597954 9537918
130.91801 -75.633591 47.275505 7762028
130.56352 -75.721359 48.16761 8814459
130.14618 -75.965485 48.940201 10590352
133.13713 -74.29789 45.081989 8089963
132.567 -74.369156 46.05946 8813942
131.82309 -74.746574 46.64838 9274493
131.3916 -74.90609 47.549999 7893355
130.99127 -75.10984 48.253017 7564651
142.0524 -73.50766 36.090084 9604225
141.82272 -73.665482 36.880245 9735555
141.09245 -73.95977 37.415497 10985876
140.43495 -73.958763 38.145447 9933705
139.72615 -73.957413 39.036682 9736072
138.6889 -73.95771 39.465805 9209467
138.39923 -73.955505 40.464573 9209467
137.36577 -73.955833 40.879322 11379864
136.80937 -73.953758 41.969734 8880503
135.9863 -73.953682 42.432949 8485745
135.47823 -73.95549 43.348839 8354159
134.6739 -73.96479 43.805752 9273980
134.07185 -74.074989 44.502502 9931910
133.52629 -74.129654 45.572193 10983825
77.093384 -74.040138 102.60265 8287600
76.443481 -74.010422 103.02185 8879479
75.661804 -73.975922 103.52164 6511962
74.869461 -73.916664 104.27006 8419702
74.224121 -73.88504 104.96294 9537667
73.465988 -73.874092 105.77007 9208954
72.699615 -73.873772 106.29633 9011573
72.042847 -73.872581 107.09788 8222058
71.452309 -73.871895 107.66895 8881527
70.650993 -73.870712 108.54749 8092011
69.733406 -73.870415 109.1373 8288878
69.245323 -73.868958 109.95071 9537920
68.54081 -73.867813 110.76619 9076857
67.738487 -73.867622 111.25675 7563874
67.125854 -73.866356 112.06515 7366495
66.505005 -73.865112 112.87053 7037530
65.687592 -73.864983 113.34631 8617330
65.054405 -73.86377 114.14692 9998727
64.413185 -73.862572 114.94424 8681843
63.487347 -73.862038 115.63089 9932165
63.018341 -73.860764 116.36604 8090218
62.33643 -73.610703 117.20502 7695716
61.460613 -73.59285 117.64996 9405822
60.580273 -73.405281 118.24438 8550767
59.892635 -73.222549 118.65641 8288112
142.34819 -72.718658 36.025265 10064520
142.21002 -72.84198 36.79705 10130569
62.245876 -72.886909 117.63273 8484976
61.673573 -72.624878 118.01992 9274748
60.869991 -72.515305 118.45964 7893353
59.950554 -72.509972 118.91445 8879992
59.49028 -72.152367 119.28489 10261132
142.82335 -71.653404 35.309322 10786701
142.64821 -71.891281 36.040882 9538176
60.952709 -71.660965 118.76244 6709593
60.152103 -71.620781 119.1728 7301474
59.275448 -71.695 119.57456 8748406
58.594891 -71.441742 120.01141 9011321
143.27196 -70.629684 34.688026 10260100
143.17439 -70.663422 35.394253 8221291
143.00887 -70.888672 36.084343 8418670
60.815319 -71.090752 119.05936 6315092
60.238171 -70.834229 119.44669 4868160
59.429321 -70.73111 119.88638 6249043
58.562263 -70.732239 120.31283 8156012
57.924221 -70.498657 120.72086 8024170
143.59566 -69.803581 34.503952 9996928
143.50786 -69.747154 35.401764 7761254
59.483593 -69.785759 120.23981 6314322
58.729492 -69.668907 120.65806 8353391
57.85936 -69.673126 121.08476 7366240
57.218307 -69.442314 121.49316 8419697
144.16428 -68.435089 33.922993 8419435
143.94307 -68.79789 34.664097 8419181
58.804913 -68.819824 120.96239 8287598
58.087502 -68.576103 121.41358 9406335
57.150593 -68.618919 121.85764 8024681
56.391472 -68.509941 122.2752 8550769
144.42667 -67.734985 33.861324 8090212
144.2917 -67.833801 34.684971 8156005
57.987514 -67.906143 121.73222 11906725
57.370625 -67.558884 122.17559 9011320
56.43586 -67.569427 122.63155 7892839
55.744698 -67.508942 122.99618 7367264
144.90393 -66.660843 33.145073 7629920
144.76241 -66.787796 33.938263 8616814
144.53172 -67.196648 34.619026 8814451
57.419918 -66.853889 122.43484 8287597
56.730663 -66.580231 122.88419 7432800
55.772682 -66.480637 123.37527 7169884
55.057205 -66.449158 123.53117 7893608
145.23216 -65.745453 33.188087 7827044
145.09787 -65.84124 34.01511 8617073
56.700623 -65.807144 123.20983 7038307
56.050934 -65.6651 123.58466 7301990
55.054489 -65.595161 123.86982 9012346
145.67789 -64.77787 32.411465 11181203
145.55312 -64.860886 33.198257 10260614
55.923435 -65.116196 123.87038 7039331
55.168377 -64.777817 124.18507 9670277
54.476448 -64.37175 124.37225 9867655
146.24284 -63.423435 31.814945 7038307
146.04366 -63.74155 32.508629 9142908
145.84514 -64.098557 33.078957 10260614
55.15897 -63.832912 124.57035 9144190
54.429256 -63.548702 124.70106 9604226
146.50424 -62.728031 31.747498 8090994
146.37114 -62.818977 32.579624 8485495
54.442429 -62.702145 125.03784 9143675
53.78088 -62.580879 125.10207 13090225
146.97878 -61.666203 31.016705 9735302
146.83899 -61.785595 31.818295 11117211
146.61014 -62.186203 32.508438 7038307
54.443085 -61.804539 125.39518 8682867
53.682499 -61.696041 125.45674 9735041
53.117809 -61.268597 125.64059 10656142
147.68227 -60.418034 30.391056 7037274
147.39308 -60.706844 31.148697 8221546
147.1067 -61.031769 31.87484 11380383
53.798241 -60.794235 125.8417 9076856
52.965588 -60.540005 126.0215 7827049
52.322552 -60.19117 126.29709 7038307
148.96751 -59.36552 28.915958 6510930
148.65855 -59.475376 29.672794 7695204
148.23576 -59.764324 30.318504 7563617
147.94627 -59.988762 30.939632 7037274
53.070107 -59.852943 126.55 7629927
52.320217 -59.525631 126.86929 7038307
51.489418 -59.255562 127.31319 7038307
153.10381 -58.973782 25.729805 6511954
151.87675 -58.974518 26.085861 9012088
151.74841 -58.972797 26.815674 8156779
150.46751 -58.972702 27.521717 12300708
150.13953 -59.016727 28.395374 8682097
149.57021 -59.171295 29.033249 7432032
51.862793 -59.103443 127.7962 7564394
50.986725 -58.95858 128.29007 8419955
50.13332 -58.845821 128.84805 6510930
49.634735 -58.844227 129.7222 8946296
48.754837 -58.843681 130.39345 9341313
48.084099 -58.842163 131.3278 10524561
47.347927 -58.841579 131.93587 8749432
46.606827 -58.841011 132.54396 9340540
46.073105 -58.839466 133.4192 10063752
45.107567 -58.839924 133.74712 9339768
44.773094 -58.837376 134.90198 9010549
43.799889 -58.613964 135.55017 9207928
43.095432 -58.37664 135.84178 11905181
43.209778 -57.616909 136.14116 11445400
43.105862 -56.848061 136.44954 9143160
42.418571 -56.611443 136.56035 7564643
43.201336 -56.074596 136.75514 8419184
42.4594 -55.686825 136.92751 6906201
41.735279 -55.349911 137.07909 6116172
42.396954 -54.817207 137.27524 6708566
41.777473 -54.479839 137.41821 7169116
41.639099 -53.701874 137.73174 7563874
40.964798 -53.339615 137.72258 6510930
41.783325 -52.930573 138.04118 7761253
41.173019 -52.621212 138.07768 6510930
40.98373 -51.613899 138.40141 7366753
40.903599 -50.669231 138.74884 7039331
40.504456 -50.548851 138.62318 7828078
40.329815 -49.613182 138.91631 8486774
40.170853 -48.640892 139.2307 8289394
39.981178 -48.178566 139.33069 8092016
39.761871 -47.579582 139.47171 8420468
39.469498 -46.614746 139.72522 9998216
39.586029 -45.866386 140.08037 9932421
38.948917 -45.465057 140.05803 10589839
38.795338 -44.733578 140.55775 9669248
38.23988 -44.2658 140.92778 8748403
37.708855 -43.946697 141.67122 9340286
36.744301 -43.827511 142.8896 8682356
35.882816 -43.828114 143.10699 8814453
34.816139 -43.825275 144.75899 10459019
33.943432 -43.82592 144.96506 8617335
33.373138 -43.822697 146.50655 9011838
32.662167 -43.61581 146.64349 9932937
32.464737 -42.684986 146.95331 9143422
31.979183 -42.245617 146.91663 8090987
32.416878 -41.952732 147.2231 9011838
32.119564 -41.483303 147.28015 9012089
31.787292 -40.647118 147.46631 12235690
31.639122 -39.730343 147.76321 9735555
31.233433 -39.235729 147.78201 8682867
31.297985 -38.519554 148.09215 8880247
30.923496 -37.668087 148.26506 8945787
31.021332 -37.028049 148.55968 9669253
30.613873 -36.536438 148.57654 10261132
30.461826 -35.619961 148.8716 10261132
30.297958 -34.74984 149.14325 9143166
29.807068 -34.505527 149.02652 9209467
29.883587 -33.605713 149.41418 9143419
29.638294 -32.62846 149.69269 9209467
29.520466 -31.82988 149.95613 9604481
29.108215 -31.448017 149.9277 9209467
29.033379 -30.541143 150.28474 10196362
29.007248 -29.890785 150.71187 9734531
28.337185 -29.494261 150.82025 10260875
27.565105 -29.119347 151.05528 9734531
27.519081 -28.867067 151.84265 10260875
26.931305 -28.826874 151.72209 10853012
127.84706 -79.53968 51.693981 10787988
127.62929 -79.559052 52.321404 9142907
127.30157 -79.590721 53.262791 9143163
128.55089 -78.391487 50.901039 9537918
128.20979 -78.736572 51.525761 10656402
127.85889 -78.812309 52.486172 9603714
127.4819 -79.21048 53.157604 8353135
128.90298 -77.557022 50.800327 11972003
128.50404 -77.701233 51.826107 9932423
128.13188 -78.062439 52.525078 9142907
129.47438 -76.598473 50.186657 9603200
129.1389 -76.737816 51.028732 9076601
128.84135 -76.794693 51.851482 8681843
130.15465 -75.659805 49.491322 9866630
129.80002 -75.786774 50.311657 8747636
129.38104 -76.007385 51.15403 8681843
132.36848 -74.299515 47.319283 9734788
131.86168 -74.371498 48.141659 9406079
131.18887 -74.687035 48.791615 9077373
130.7123 -74.900543 49.582825 8616307
130.27524 -75.138062 50.31509 8089963
81.351631 -74.261665 99.765862 9735297
80.709793 -74.225388 100.20316 8880246
79.93824 -74.183006 100.72475 8090987
141.73999 -73.687103 38.135254 8617848
140.9675 -73.948166 38.958652 7039331
140.44035 -73.954506 39.783714 10657173
139.39172 -73.954819 40.210678 11577243
139.09694 -73.952621 41.214619 10261387
138.0528 -73.952957 41.627293 7366751
137.74785 -73.95079 42.621567 7629923
136.70808 -73.951164 43.020081 8485745
136.3931 -73.949043 44.004642 8156780
135.35786 -73.949448 44.389313 9208700
134.83582 -73.950867 45.297516 9340023
133.97131 -73.960846 45.90427 11313044
133.3745 -74.062454 46.669319 9142907
132.86363 -74.13163 47.496628 9734788
79.55191 -74.162354 100.98394 8090987
79.181564 -74.060081 101.51556 9274748
78.404663 -74.020988 102.02941 9537919
77.630058 -73.956268 102.6309 8945529
76.852364 -73.875191 103.5751 10523531
76.313705 -73.874123 104.26575 9537151
75.625931 -73.873344 104.92699 9406338
74.909187 -73.872406 105.66485 10458511
74.143555 -73.872047 106.20156 9471872
73.481522 -73.87075 107.04706 9274745
72.831009 -73.869614 107.82386 10524302
71.975723 -73.868828 108.57388 11248535
71.225761 -73.867996 109.29023 9471864
70.602066 -73.86721 109.91648 11050900
70.006683 -73.865875 110.74088 12234661
69.204559 -73.865669 111.2421 13813691
68.395882 -73.8647 112.0359 8814197
67.980751 -73.863075 112.87905 9341054
67.163193 -73.86293 113.36549 8617075
66.333138 -73.862022 114.14681 8617330
65.898109 -73.860435 114.98698 7564642
65.101311 -73.67231 115.73974 7564130
64.357162 -73.564247 116.23775 9932421
63.444374 -73.443825 116.81878 8485232
62.758881 -73.252258 117.23327 7037274
142.20819 -72.631386 37.448353 12038054
142.04817 -72.789864 38.294895 11248795
64.485504 -72.690536 116.60911 9143675
63.677567 -72.589722 117.04742 8814454
62.748516 -72.466057 117.55454 8287597
61.934696 -72.169136 118.07467 11380380
142.64018 -71.687454 36.723339 9735555
142.5363 -71.704292 37.53323 8551281
142.37364 -71.956398 38.118916 11380124
63.830559 -71.699745 117.32997 10459278
63.031109 -71.649864 117.74366 9406334
62.023804 -71.635849 118.24522 9735299
61.333477 -71.450386 118.65965 6315092
143.02403 -70.644081 36.698067 9801348
142.82436 -70.925072 37.502613 8090987
63.065617 -70.878616 118.03677 9669506
62.316456 -70.749588 118.4575 9077369
61.351025 -70.707367 118.94979 6906715
60.497898 -70.37883 119.50196 5328454
143.45229 -69.677811 36.071655 7827815
143.31462 -69.783112 36.893501 9538433
62.401108 -69.897804 118.75834 8748406
61.626362 -69.677025 119.22859 7433062
60.647251 -69.702789 119.70028 6380632
59.931408 -69.402473 120.17345 7038048
144.03163 -68.366425 35.234623 7563619
143.8029 -68.745155 35.986809 6314832
143.60878 -69.013405 36.783741 8090987
61.569233 -68.849579 119.58946 7695980
60.930527 -68.609703 120.00036 7038307
59.995335 -68.64212 120.44775 7301220
59.278824 -68.394722 120.9 8616563
144.26674 -67.702431 35.290932 8287600
144.14973 -67.770088 36.059433 6709078
60.870617 -67.784531 120.36164 9011838
60.229038 -67.54744 120.7729 10722452
59.35461 -67.547546 121.20335 8945528
58.523022 -67.506325 121.62936 9406335
57.950565 -67.201408 122.03385 9208443
144.73299 -66.628349 34.666119 10591127
144.56874 -66.849319 35.36327 10920092
144.47112 -66.881943 36.076595 10591127
60.050262 -66.84166 121.14471 10261644
59.493961 -66.666084 121.48923 9142907
58.616936 -66.669136 121.91978 7037274
57.766331 -66.498955 122.40697 8287597
57.234238 -66.152275 122.8084 8287597
145.12599 -65.579704 34.573956 10788506
144.93456 -65.83638 35.38929 16777215
59.400806 -66.020798 121.79456 8419443
58.754032 -65.788872 122.20623 7695978
57.931683 -65.693932 122.6493 7169892
57.084759 -65.591812 123.10735 7038307
145.55452 -64.634148 33.873898 9143164
145.40524 -64.791573 34.639038 10261903
58.863583 -65.085327 122.43525 8090995
58.148853 -64.855995 122.8793 8025201
57.217667 -64.712822 123.39533 7301478
56.313339 -64.715729 123.8394 7565161
55.732399 -64.417969 124.24525 10262156
146.11298 -63.343342 33.138344 10260614
145.88309 -63.747925 33.825508 8748921
145.74106 -63.874214 34.624645 8617336
57.416256 -63.844021 123.64697 8485494
56.574394 -63.704391 124.11758 8814714
55.692356 -63.620945 124.55871 9144190
146.34727 -62.682938 33.190262 7828585
146.19479 -62.844315 33.970215 8617336
56.763046 -62.768135 124.40119 8880507
55.922062 -62.694782 124.83211 8552055
55.124107 -62.39275 125.14455 9144190
146.8109 -61.620617 32.551846 9867655
146.64838 -61.834148 33.257042 8355182
146.48549 -62.048851 33.961967 8092011
56.028744 -61.730167 125.18014 10459539
55.126198 -61.55402 125.478 11314333
147.59592 -60.337898 31.608494 11905692
147.29742 -60.623703 32.410469 14011838
146.99632 -60.933674 33.25988 11578524
55.180122 -60.699787 125.84972 10985625
54.477142 -60.534805 125.995 8550513
148.50568 -59.457672 31.056057 9011061
148.04265 -59.778492 31.703438 10787470
147.80728 -59.919243 32.521572 13353908
54.308929 -59.817352 126.54807 8089963
53.705181 -59.582512 126.79311 8089963
53.006794 -59.178669 127.52073 7695722
154.28362 -58.972157 25.738754 6510930
154.22087 -58.971283 26.109612 7761253
152.94519 -58.971607 26.64946 6906712
152.78139 -58.969448 27.568172 7170142
151.51562 -58.969807 28.091415 8485488
151.34358 -58.967678 29.001617 10853012
150.11821 -58.979836 29.514687 6510930
149.62334 -59.106117 30.240372 7958120
149.24171 -59.19453 31.022968 7037274
53.059681 -59.004128 128.08568 10261391
52.261032 -58.928814 128.42572 8945789
51.72654 -58.842621 129.24887 9537924
50.790936 -58.842934 129.61771 9735812
50.292152 -58.841316 130.50203 9340542
49.566311 -58.840691 131.12241 9406078
48.83551 -58.840069 131.74292 10130057
48.156796 -58.838547 132.68459 9209467
47.196609 -58.838959 133.028 9208696
46.880058 -58.836376 134.18755 9339768
45.746964 -58.836903 134.57645 8813422
45.322296 -58.635017 135.68634 8616048
44.510395 -58.516727 135.75259 8616048
45.289234 -58.059795 135.91582 9142135
44.579205 -57.599258 136.11574 9010805
43.779964 -57.197006 136.29453 9734014
44.562614 -56.702507 136.47266 9537920
43.935196 -56.440201 136.59192 9011063
43.834591 -55.688854 136.89346 8550770
43.288368 -55.371357 137.03311 7169117
43.866413 -54.783821 137.25302 7366496
43.068741 -54.595909 137.34715 6511187
43.178318 -53.66251 137.71613 8024170
42.355103 -53.422848 137.83142 10130314
43.234409 -52.876842 138.0275 9734788
42.505802 -52.547943 138.17612 9603970
42.383705 -51.789089 138.4812 9209727
41.770863 -51.510506 138.6069 7960433
42.392273 -50.850788 138.85458 11183260
41.693626 -50.615311 138.95898 8157555
41.802528 -49.702637 139.32593 9736072
41.259861 -49.496254 139.34346 8092016
41.103195 -48.710331 139.58784 8618359
40.86961 -47.749851 139.88512 8223602
40.519573 -47.224354 139.94043 8092016
40.972366 -46.958755 140.24161 9537918
40.437088 -46.57019 140.16257 9078139
40.268524 -45.622715 140.52565 9800833
39.562561 -45.310577 140.43152 9537918
39.632305 -44.64547 141.00812 9537918
38.835945 -44.062664 141.77713 9801089
