# .PCD v0.7 - Point Cloud Data file format
VERSION 0.7
FIELDS x y z rgb
SIZE 4 4 4 4
TYPE F F F U
COUNT 1 1 1 1
WIDTH 1186
HEIGHT 1
VIEWPOINT 0 0 0 1 0 0 0
POINTS 1186
DATA ascii
-141.73691 -69.277306 -12.133608 8813685
-141.74248 -69.154778 -13.235818 8090990
-141.94449 -69.038795 -14.220749 8617847
-141.62079 -68.934769 -15.223125 8617847
-141.34666 -68.848534 -16.055613 6511954
-141.58728 -68.749779 -16.878109 8880247
-141.55345 -68.626717 -17.981602 7169373
-141.20525 -68.5243 -18.975559 8419693
-141.3239 -68.421967 -19.858709 7959142
-145.48718 -67.75499 41.834187 6051150
-145.73189 -68.191338 41.272945 6248786
-141.55661 -68.353508 -20.413118 6511954
-141.31384 -68.285736 -21.073666 6841693
-141.1207 -68.167007 -22.176088 8354932
-141.21979 -68.06472 -23.063824 11906467
-141.01097 -67.946602 -24.164349 10722451
-140.82819 -67.837112 -25.182102 10525072
-141.18121 -67.741837 -25.947474 9472383
-140.77982 -67.642418 -26.927055 7958888
-140.89409 -67.526512 -27.935352 8945783
-140.87003 -67.43148 -28.883762 9603202
-145.35393 -66.699753 42.616848 6380112
-145.71793 -66.930641 42.025906 5392706
-140.67816 -67.390717 -29.374596 9011064
-140.56297 -67.305237 -30.146828 6905688
-140.79063 -67.187126 -31.171906 7893096
-140.33313 -67.079475 -32.136395 9341054
-140.54239 -66.977959 -33.016811 8222317
-140.40826 -66.873535 -33.938099 8089960
-140.35878 -66.752434 -35.00201 7300701
-140.30043 -66.631416 -36.065632 7695203
-140.14905 -66.526901 -36.988338 6116173
-140.41367 -66.441895 -37.721603 5392706
-145.17828 -65.755211 43.387962 6511954
-145.6593 -65.784264 42.76825 6511954
-140.16295 -66.388863 -38.19791 6839896
-139.99738 -66.301682 -38.969364 7300958
-140.16739 -66.181137 -40.018215 7958888
-139.93312 -66.06488 -41.047894 9341057
-139.97488 -65.937836 -42.159977 8287856
-139.56453 -65.84185 -42.771107 8287856
-139.93376 -65.729004 -43.992081 6510930
-140.0571 -65.554298 -45.517864 7958632
-139.78368 -65.504433 -45.988087 6510930
-145.39648 -64.713097 43.723927 6511954
-145.81866 -64.873505 43.099911 6511954
-139.13963 -65.282082 -46.333031 5920074
-139.99902 -65.353745 -47.370033 10063235
-139.60495 -65.277992 -47.987392 7103834
-139.3736 -65.170372 -48.911343 6314575
-139.39714 -65.049454 -49.989803 7235420
-139.23326 -64.925362 -51.070011 7695714
-139.16325 -64.820129 -51.996197 6511962
-139.27301 -64.716789 -52.931049 7564392
-139.00836 -64.608665 -53.854282 7893356
-139.10791 -64.504646 -54.793842 8486519
-145.25868 -63.715763 44.554401 8946039
-145.66814 -63.802788 43.913292 7300958
-146.04924 -64.099747 43.262424 6510930
-139.04718 -64.433769 -55.415325 9012606
-138.72362 -64.377731 -55.868023 9012606
-139.07193 -64.257935 -56.983032 9341313
-138.52249 -64.164551 -57.734726 8880507
-138.85973 -64.043678 -58.858185 8288371
-138.78183 -63.912605 -60.012177 9011576
-138.39706 -63.791405 -61.035492 6905944
-138.76019 -63.688065 -62.19548 8814198
-138.2144 -63.611568 -62.953014 7432032
-138.60806 -63.526058 -64.141884 9405566
-138.27374 -63.480022 -64.594856 9405566
-145.37495 -62.318062 45.355083 7038307
-145.56961 -62.75845 44.724667 7629926
-145.95366 -63.043747 43.998215 6510930
-138.05016 -63.44936 -64.895889 9405566
-138.53864 -63.374584 -65.940948 9537665
-137.91544 -63.273064 -66.666084 9274495
-138.26305 -63.173794 -67.862961 10722453
-138.11128 -63.070053 -68.823936 8289140
-137.9514 -62.966072 -69.782974 9933450
-138.14987 -62.842579 -71.140503 10262156
-137.61543 -62.756702 -71.706383 10853012
-137.93428 -62.653149 -72.930397 8353907
-137.97485 -62.505131 -74.446014 11380380
-145.44783 -61.684166 45.684452 7038307
-145.89876 -61.84409 44.824318 6708568
-137.56091 -62.440483 -74.865593 11380380
-137.72366 -62.312508 -76.247948 8089963
-137.30309 -62.247746 -76.664627 9932937
-137.45226 -62.118305 -78.054596 7498857
-137.8826 -62.030861 -79.178734 7038307
-137.30521 -61.944122 -79.728935 8222065
-137.43536 -61.811832 -81.136703 8814201
-136.84879 -61.725086 -81.682167 7565675
-137.27402 -61.640617 -82.833862 7039331
-137.0923 -61.556587 -83.854523 8289396
-137.18477 -61.507088 -84.592056 7039331
-145.52705 -60.492287 46.684963 7762286
-145.7948 -60.788109 45.869022 7038307
-146.07628 -61.091999 45.057407 7564392
-136.77026 -61.459198 -85.019928 7039331
-137.22632 -61.391129 -86.22113 8092011
-136.66495 -61.327015 -86.789314 7565675
-137.11452 -61.257874 -88.002945 10459537
-136.54398 -61.1936 -88.568237 10459537
-136.84221 -61.107113 -89.935219 8288365
-136.26221 -61.042664 -90.496994 11905953
-136.54938 -60.954945 -91.875412 8222320
-136.83389 -60.866096 -93.267281 5920074
-136.23618 -60.801327 -93.823868 9143160
-136.50941 -60.711178 -95.227295 12431783
-136.05423 -60.662491 -95.642281 7235421
-136.31807 -60.571144 -97.057549 7564386
-135.85591 -60.5224 -97.470078 8682867
-145.70108 -59.349438 48.747307 10460049
-145.76625 -59.634815 47.746723 9999241
-145.98367 -59.917488 46.77882 7892840
-136.11021 -60.429707 -98.897141 7235421
-136.36143 -60.335949 -100.3384 6511954
-135.8864 -60.286938 -100.74733 7760736
-136.12787 -60.191891 -102.20052 6511954
-135.64178 -60.140961 -102.60364 6511954
-135.86249 -60.039738 -104.06059 9011320
-135.53741 -59.867317 -105.8968 7760994
-135.9245 -59.785873 -107.25606 7760994
-135.36911 -59.712765 -107.61351 7760994
-135.37476 -59.580856 -109.22147 7564645
-146.60524 -58.450016 61.685345 11709089
-146.82695 -58.671825 60.823627 10853780
-146.77791 -58.955429 59.770557 9801348
-147.06467 -58.956818 59.062786 10656913
-146.23579 -58.958134 57.912853 8682099
-146.65088 -58.960197 56.85458 8288624
-146.43953 -58.961872 55.76099 7827819
-146.22043 -58.963531 54.670513 8747891
-146.61211 -58.96558 53.612434 8221547
-145.77361 -58.966812 52.510509 9734779
-146.02493 -58.968166 51.807491 8221544
-146.19922 -59.000324 50.68259 7827301
-145.91766 -59.119148 49.798779 12695979
-146.3002 -59.154938 48.947647 10460049
-146.43585 -57.665188 62.528156 12433069
-146.88446 -57.676666 61.76556 11182745
-147.13744 -57.931877 61.158749 10130057
-146.51517 -56.257694 63.395737 7563619
-146.76787 -56.683125 62.668064 8353389
-147.16789 -56.819561 61.898258 10458765
-146.61726 -55.660717 63.648663 9801601
-147.10001 -55.700848 62.808052 10853775
-146.68127 -54.389259 64.445473 11050644
-146.99307 -54.722843 63.68367 10787983
-147.29936 -55.111294 62.892166 13023917
-146.84592 -53.623188 64.713432 8024169
-147.27924 -53.696625 63.932377 10722189
-146.81085 -52.52095 65.55661 7629411
-147.16058 -52.737751 64.814064 8550513
-147.38066 -53.099598 64.186371 9341307
-146.73888 -51.444664 66.443222 8813686
-147.06352 -51.667625 65.738617 9011065
-147.45378 -51.695034 65.06263 8813686
-146.74103 -50.241142 67.295845 10063235
-146.99338 -50.608292 66.610184 10260359
-147.34 -50.842289 65.860741 9932167
-146.86705 -49.573299 67.495155 10457736
-147.32968 -49.676422 66.707466 7959145
-147.21463 -48.605064 67.632538 8945525
-147.4942 -48.883614 66.99472 8156523
-147.05624 -47.616707 68.294937 6709078
-147.35982 -47.782352 67.918777 9405818
-147.26561 -46.703911 68.562836 5656390
-147.6575 -46.886295 68.140877 9866368
-147.1424 -45.384502 69.410965 5722439
-147.32109 -45.877552 68.918327 5788231
-147.43431 -44.298569 70.63533 6314320
-147.29893 -44.860924 69.787704 6971738
-147.74214 -43.41925 79.29055 9406590
-148.06081 -43.650791 78.774475 7959144
-147.95901 -43.926559 77.580627 7235679
-148.33162 -43.928017 76.867104 8814203
-147.57367 -43.931122 74.678581 9077371
-148.0213 -43.932934 73.788681 8485229
-147.44946 -43.995068 71.737053 7301215
-147.8567 -42.596031 79.579865 9472127
-148.34764 -42.876621 79.154922 7959144
-148.06172 -41.743248 79.826477 9537407
-147.95805 -40.581608 80.398125 8616307
-148.27391 -40.974449 80.031944 10260875
-148.06013 -39.644497 80.744629 7760998
-148.04053 -38.425636 81.287903 7563619
-148.28542 -38.834377 80.958733 7760998
-148.06787 -37.716187 81.580132 7958889
-148.16965 -36.806541 81.913795 9011321
-148.06363 -35.70396 82.459633 8550770
-148.56152 -35.97216 82.035767 10064265
-148.24724 -34.677284 82.7938 8550770
-148.14291 -33.617634 83.319908 10985622
-148.54694 -33.871658 82.960052 8813942
-148.26831 -32.652962 83.662956 10130313
-148.21867 -31.529627 84.183037 8682867
-148.37537 -31.825148 83.957611 9471869
-148.3511 -30.653008 84.594452 9537662
-148.75323 -31.163897 84.012779 8682867
-148.33362 -29.694977 85.430405 11049618
-148.74924 -29.935619 84.956154 11181460
-148.5658 -28.908457 88.690208 8945270
-148.99205 -28.909962 87.973732 9932166
-148.39284 -29.152323 86.657928 9602430
-145.96294 -73.33062 37.761566 7235680
-146.21498 -73.345772 36.888706 5920074
-146.29976 -73.301285 36.161041 5920074
-145.9267 -72.629456 38.439392 8287857
-146.35149 -72.866798 37.748405 6577750
-146.33752 -73.256378 35.60968 8682867
-146.04926 -73.200027 34.682991 9011579
-145.79808 -73.145653 33.807987 7564392
-145.64407 -73.065178 32.664581 7893356
-145.68889 -72.991989 31.753975 10459023
-145.72829 -72.919167 30.844229 10787732
-145.76918 -72.832214 29.753578 8287858
-145.80296 -72.745758 28.664104 8089963
-145.82585 -72.674065 27.757168 8089963
-145.42188 -72.61953 26.773417 10326923
-145.44852 -72.555237 25.87336 10721421
-145.07619 -72.522079 24.906349 9340027
-145.1422 -72.468933 23.838964 10326922
-145.11644 -72.374054 22.758661 9340287
-146.18826 -71.706581 38.650055 7432803
-146.59036 -71.930092 38.015743 6775127
-145.06177 -72.268829 21.67679 6840926
-145.01123 -72.18161 20.776752 7300963
-144.95566 -72.094872 19.878414 9143164
-144.88313 -71.991348 18.802385 7762283
-144.80794 -71.890411 17.729111 7103323
-144.75618 -71.805 16.661516 6774358
-144.71217 -71.736244 15.773682 8880503
-144.66301 -71.667862 14.887158 9011833
-144.59781 -71.586044 13.824841 9011833
-144.52563 -71.504669 12.764291 7761772
-144.44647 -71.423645 11.705613 9208958
-144.37538 -71.356461 10.824748 9735812
-145.95398 -70.681168 39.541912 6643539
-146.37088 -70.833832 38.930424 7827299
-144.29922 -71.289497 9.945323 9538943
-144.20169 -71.209579 8.8917494 12432807
-144.09729 -71.12999 7.8401003 7894122
-143.98608 -71.050827 6.790514 8222321
-143.87109 -70.973557 5.7430511 7893356
-143.75075 -70.897346 4.6977539 7892842
-143.64546 -70.83419 3.8281624 8089963
-143.86401 -70.75518 2.8975165 7761510
-143.81839 -70.682137 1.9262961 8024169
-143.76651 -70.609314 0.95535976 8549999
-143.93965 -70.518242 -0.1529433 10918030
-143.7487 -70.428879 -1.1918837 7960175
-143.59219 -70.356873 -1.882847 8486262
-146.33029 -69.678719 39.655151 7235420
-146.60472 -70.118828 39.05452 6643539
-143.47263 -70.303108 -2.3999226 9209727
-143.26999 -70.213753 -3.2599196 8353907
-143.44615 -70.094543 -4.3019209 7301220
-143.27586 -70.023483 -4.9880724 8354420
-143.4382 -69.904488 -6.0314054 7038307
-143.17 -69.798592 -7.0572324 9932423
-142.89557 -69.69323 -8.0796366 13880253
-143.14073 -69.578712 -9.0627127 11775651
-143.17003 -69.455833 -10.173076 10985877
-142.97383 -69.386192 -10.851966 13023917
-146.22052 -68.531227 40.462215 6644058
-146.47328 -68.951294 39.900394 7235420
-142.82462 -69.334183 -11.359944 9010805
-142.75757 -69.231583 -12.307277 8550513
-142.91791 -69.128983 -13.188623 9209727
-142.83461 -69.024818 -14.135624 7302245
-142.56326 -68.937569 -14.976485 6512986
-142.54544 -68.813293 -16.086798 7564642
-142.73111 -68.69648 -17.083126 7564642
-142.38541 -68.592896 -18.086708 6841693
-142.3447 -68.469154 -19.19792 9538431
-142.63086 -68.386482 -19.86627 6511954
-146.02275 -67.427612 41.35392 6643029
-146.33708 -67.809807 40.737099 7300959
-146.77843 -68.04715 40.045517 8287859
-142.4493 -68.335175 -20.366074 6775642
-142.14354 -68.249969 -21.196768 7039331
-142.09138 -68.147285 -22.123285 9736326
-142.35231 -68.043739 -22.983633 13748925
-141.96748 -67.942444 -23.975716 11972518
-141.9931 -67.822571 -25.03723 9998983
-142.01009 -67.702858 -26.099121 8222060
-141.78287 -67.586403 -27.207008 7366495
-142.06348 -67.481857 -28.237148 7497825
-141.74405 -67.413216 -29.062275 9011064
-146.25711 -66.649727 41.514088 5985099
-146.68016 -66.818512 40.885456 6971994
-141.54124 -67.367844 -29.554089 6510930
-141.58105 -67.298981 -30.156256 6510930
-141.80403 -67.197311 -31.037323 8419440
-141.34416 -67.088799 -32.008972 8617075
-141.56447 -66.969337 -33.04631 7168860
-141.26608 -66.845573 -34.144676 7695203
-141.46843 -66.742836 -35.036327 8747889
-141.32201 -66.637672 -35.964745 7827558
-141.25999 -66.515495 -37.038311 5656390
-141.35741 -66.429054 -37.791859 7563619
-146.07021 -65.350426 42.506363 7893352
-146.36781 -65.78923 41.87738 7432544
-146.83084 -65.958366 41.198502 6643029
-141.10472 -66.37561 -38.27124 8484720
-141.02521 -66.288231 -39.041115 9405822
-141.19902 -66.184258 -39.944294 9405822
-140.84967 -66.06115 -41.03944 7367268
-141.01074 -65.939224 -42.10091 10591383
-140.47472 -65.833809 -43.049065 9866628
-140.97476 -65.728935 -43.945683 9866885
-140.60248 -65.60955 -45.040672 7958632
-140.77525 -65.503677 -46.125439 9471870
-140.39084 -65.429695 -46.749821 7563619
-146.32266 -64.684448 42.578564 7827814
-146.75478 -64.852867 41.938812 9275261
-140.19525 -65.39167 -47.060246 7563619
-140.70058 -65.295845 -47.984398 10195335
-140.40211 -65.174751 -49.018719 7300957
-140.39549 -65.046753 -50.156216 8287594
-140.15065 -64.938217 -51.086422 7893093
-140.26735 -64.83474 -52.023071 6511954
-140.19585 -64.72831 -52.959461 7038045
-140.01056 -64.602989 -54.047596 9209215
-140.27014 -64.464638 -55.315166 11906725
-146.21272 -63.448601 43.437366 7234653
-146.60065 -63.869015 42.705967 9998473
-139.72736 -64.370399 -56.075676 9933450
-140.08232 -64.249794 -57.199192 10853012
-139.52835 -64.155815 -57.955753 7432806
-139.98468 -64.052826 -58.936642 7037792
-139.60828 -63.930599 -59.970104 7893095
-139.52724 -63.799919 -61.131866 6839895
-139.65009 -63.718685 -62.123272 8287598
-139.38298 -63.633827 -63.079189 9800581
-139.50455 -63.555954 -64.080933 9866117
-139.33723 -63.485931 -64.886147 9471615
-146.38367 -62.689651 43.665939 8221548
-146.83139 -62.904488 42.979527 13024949
-138.99911 -63.439587 -65.340866 9537665
-139.61667 -63.383247 -66.246933 10985367
-139.02898 -63.299541 -66.996582 9537665
-139.39091 -63.202553 -68.207253 15195086
-138.86908 -63.116383 -68.783073 9538693
-139.21376 -63.015018 -69.999626 9012606
-139.05191 -62.909718 -70.970787 9801606
-138.88174 -62.804142 -71.939896 8814453
-139.07376 -62.678249 -73.317787 8682867
-138.52499 -62.591621 -73.883247 8484979
-138.98018 -62.507561 -74.987129 10261643
-146.29663 -61.475037 44.48362 7563618
-146.68156 -61.768013 43.830074 7432032
-146.99501 -62.25301 43.15453 13024949
-138.70164 -62.46413 -75.268784 10261643
-138.28314 -62.399033 -75.689621 9142907
-138.58777 -62.291771 -76.94313 10590353
-138.38321 -62.183182 -77.923698 9932679
-138.31442 -62.096081 -78.763474 8880250
-138.45851 -61.964287 -80.174599 11511194
-138.38176 -61.875896 -81.022926 9669508
-138.151 -61.765442 -82.007179 10787215
-138.42914 -61.654934 -83.302391 7563619
-137.87285 -61.587189 -83.874847 10789528
-138.34323 -61.519783 -85.075272 13486525
-146.36436 -60.496716 45.274086 9011320
-146.63383 -60.738617 44.584702 9406081
-146.96689 -61.008423 43.914276 7038307
-137.78575 -61.455391 -85.649689 10262668
-138.10817 -61.370674 -87.005798 12433325
-137.54123 -61.306118 -87.576935 10459537
-137.85271 -61.22015 -88.944572 7433058
-138.16185 -61.133152 -90.325638 6511954
-137.57706 -61.06818 -90.891891 7893608
-137.87508 -60.979809 -92.284599 10261899
-137.28075 -60.914768 -92.847328 7498849
-137.71837 -60.8414 -94.111641 10787471
-137.11478 -60.776241 -94.671158 15720406
-137.39247 -60.68531 -96.087799 8091761
-136.77922 -60.619987 -96.643456 7235421
-137.2011 -60.544113 -97.93383 7696230
-146.48274 -59.510715 46.763264 7037274
-146.70364 -59.805111 45.765339 9011320
-146.96172 -60.099468 44.94157 12498096
-136.99333 -60.401524 -99.789696 6511954
-137.2491 -60.306904 -101.24475 11183001
-136.60899 -60.2411 -101.79211 8748144
-137.01529 -60.161671 -103.12319 7564386
-136.52832 -60.112198 -103.53136 6511954
-136.59927 -59.998104 -105.14616 7169628
-136.65207 -59.878216 -106.766 8287339
-136.68611 -59.752316 -108.39035 7037274
-136.12431 -59.678707 -108.74801 7826786
-136.50919 -59.594799 -110.13494 7563615
-147.32045 -58.558914 60.405167 10130057
-147.70398 -58.597511 59.732738 10459278
-147.52486 -58.916592 58.698353 9340797
-147.62717 -58.959595 57.643002 9998727
-147.90373 -58.960979 56.931202 10459537
-147.12566 -58.962612 55.616241 9012606
-147.45807 -58.964333 54.729156 7565675
-147.72061 -58.965706 54.018238 8089963
-146.9328 -58.967289 52.728626 8616301
-147.24791 -58.968994 51.842781 7892580
-147.49649 -58.97036 51.132858 6510930
-146.75931 -58.972225 49.691639 7565675
-146.98471 -59.031391 48.586624 9736327
-146.83112 -59.206684 47.752556 8156268
-147.2075 -59.244816 46.896633 9011320
-135.94043 -59.520977 -110.48924 7563615
-147.56358 -57.729038 60.586308 11248538
-147.93933 -57.908577 59.826691 11117208
-147.48804 -56.666355 61.468872 12432038
-147.88292 -56.835342 60.68462 12103073
-148.17471 -57.219589 59.920689 11576729
-147.67938 -55.7514 61.797508 11576729
-148.10786 -55.858074 61.001137 11050642
-147.66672 -54.687595 62.5756 8420719
-148.09772 -54.910732 61.691837 9406332
-147.57043 -53.719753 63.426109 11182484
-147.95876 -53.751659 62.750137 9341307
-148.28033 -53.981323 62.045841 8682867
-147.57927 -52.510044 64.271782 8814708
-147.90239 -52.736912 63.566875 9801603
-148.26778 -53.035889 62.739552 10656914
-147.74651 -51.716488 64.55497 8682355
-148.18214 -51.789875 63.770012 9341053
-147.75214 -50.508652 65.404793 9142651
-148.06096 -50.78241 64.690536 8419184
-148.33603 -51.155766 63.962177 9143675
-147.91817 -49.715221 65.68998 9011065
-148.35379 -49.812626 64.88784 9274237
-147.93155 -48.576385 66.4776 7892583
-148.23698 -48.864624 65.758781 8813686
-148.50916 -49.151794 65.096581 11380380
-147.78979 -47.696926 67.341698 9866368
-148.18414 -47.721272 66.661034 8616304
-148.51242 -47.943466 65.950706 10064265
-147.85402 -46.295486 68.230545 5919050
-148.11008 -46.661564 67.539436 9866368
-148.46094 -46.893806 66.78405 9603454
-148.06757 -45.653572 68.472229 7892581
-148.42877 -45.774422 67.715714 8287338
-148.2018 -44.542007 69.604225 7103068
-148.47147 -44.95993 68.761162 8616560
-148.9678 -43.557201 78.475517 7366750
-148.60847 -43.929119 76.330643 8814203
-148.97488 -43.93058 75.613899 7564651
-148.28725 -43.934017 73.253448 10458505
-148.6385 -43.935463 72.538139 8485229
-148.98685 -43.936909 71.821388 8484976
-148.45114 -44.116161 70.683327 6510930
-148.50008 -42.477695 79.235397 8813680
-148.99316 -42.759266 78.808708 8090216
-148.91972 -41.554558 79.380615 8813680
-149.22316 -42.159576 78.929222 9274229
-149.09587 -40.70829 79.642044 8945268
-148.9323 -39.590984 80.230125 8287085
-149.21234 -39.909302 79.918655 9011063
-149.07013 -38.697281 80.534538 9274236
-148.72282 -37.671783 81.19561 8353135
-149.29691 -37.743591 80.810226 9011320
-149.06248 -36.592339 81.456512 9011321
-149.33295 -37.116348 81.061348 8089963
-148.78741 -35.368614 82.159378 7563619
-149.28784 -35.637314 81.733665 9998471
-149.01376 -34.764172 82.283211 8156012
-149.39842 -34.808128 82.026802 11380380
-149.19904 -33.733589 82.618004 9603970
-148.99806 -32.660213 83.209709 10064777
-149.48747 -32.782597 82.854538 7696228
-149.33224 -31.763536 83.394356 8222315
-149.20862 -30.383999 84.268661 8682867
-149.32268 -30.803465 83.859795 8551537
-149.3735 -29.343279 85.471191 9800577
-149.45667 -29.7978 84.645195 8682867
-150.11153 -28.905155 91.339874 7826533
-149.30908 -28.911091 87.434822 9208699
-149.76427 -28.919336 86.735046 8485232
-149.0482 -29.200258 86.080849 10851980
-146.79547 -72.527313 37.410267 5920074
-147.11003 -72.825516 36.736885 7104092
-147.26292 -73.129807 35.741154 7959145
-147.27238 -73.135963 34.711655 9142909
-147.10867 -73.069267 33.738956 7827307
-146.71544 -73.02581 32.90517 8419443
-146.55168 -72.945541 31.75745 9011321
-146.59659 -72.857773 30.65937 9932679
-146.62863 -72.785027 29.745211 9735300
-146.65547 -72.712601 28.831997 8024426
-146.68123 -72.626152 27.737247 8024426
-146.71841 -72.549324 26.647192 7563619
-146.57967 -72.503075 25.528805 8418927
-145.97218 -72.485275 24.698572 7563619
-145.98109 -72.40509 23.616014 7893356
-145.94765 -72.334167 22.889147 9734788
-147.06509 -71.703918 37.552757 7762022
-147.44479 -71.930382 36.944801 8617075
-145.92966 -72.298866 22.526182 8616822
-145.89114 -72.228447 21.800955 8222063
-145.82816 -72.123306 20.714899 7563619
-145.75845 -72.018867 19.631092 9340027
-145.70206 -71.935524 18.730419 8090986
-145.66742 -71.865791 17.834684 9210491
-145.61964 -71.782547 16.761284 8552049
-145.56476 -71.699638 15.689624 8551282
-145.5029 -71.617142 14.619667 9011833
-145.44604 -71.548729 13.72943 10984855
-145.38405 -71.480522 12.840539 9208958
-145.30341 -71.399078 11.775477 9208958
-145.24611 -71.344986 11.066398 9208958
-146.90601 -70.630081 38.378696 10261124
-147.31905 -70.855507 37.729546 9603713
-145.20074 -71.304489 10.535274 9735046
-145.12134 -71.237343 9.6511183 11313821
-145.03749 -71.170418 8.7682505 14603206
-144.94847 -71.103767 7.8868284 7038559
-144.83623 -71.024406 6.8310618 8222321
-144.92474 -70.934036 5.6978827 8879737
-145.02629 -70.856979 4.740129 10985107
-144.89659 -70.780586 3.6875846 8418928
-145.18631 -70.690582 2.6451867 8682099
-145.06685 -70.627365 1.768876 8945271
-144.94237 -70.564362 0.894234 8089963
-144.78702 -70.489197 -0.15337102 8880248
-144.60539 -70.404938 -1.1984698 7039331
-147.13721 -69.789055 38.579544 6643539
-147.6165 -69.763878 37.993633 10261131
-144.36838 -70.297478 -2.2403109 7499625
-144.31744 -70.174431 -3.3705049 8090479
-144.53651 -70.07238 -4.2466736 7827307
-144.4691 -69.949768 -5.3768444 8287857
-144.24715 -69.860672 -6.2390766 7564648
-144.0206 -69.771988 -7.0986629 9735300
-144.06665 -69.64798 -8.2150421 10854293
-144.31245 -69.532639 -9.2056589 9078138
-144.01978 -69.427254 -10.23286 7367008
-146.95856 -68.659721 39.462372 7235423
-147.44841 -68.793892 38.770176 6709337
-143.72099 -69.32235 -11.256411 7037274
-143.94705 -69.206718 -12.251718 7564131
-144.00224 -69.099007 -13.200212 9933707
-143.73315 -69.01078 -14.049058 9736071
-143.58955 -68.888496 -15.17138 8880760
-143.73387 -68.784615 -16.062435 8617331
-143.57428 -68.66288 -17.183439 7893607
-143.22523 -68.558746 -18.192778 10591634
-143.53342 -68.437546 -19.199142 9736326
-147.28342 -67.706978 39.611092 7301479
-147.53107 -68.038162 39.107559 7630187
-143.35075 -68.316689 -20.318012 6841693
-142.98103 -68.213852 -21.321022 7039331
-143.36378 -68.117989 -22.084423 8354932
-143.1918 -68.006371 -23.118515 10327692
-142.98157 -67.88652 -24.235151 8682867
-143.07286 -67.782692 -25.137777 9011832
-142.84683 -67.663528 -26.252232 8090987
-142.78253 -67.569313 -27.190022 7366495
-143.07709 -67.491455 -28.079729 7827303
-142.75661 -67.422348 -28.910936 10261132
-147.16547 -66.603958 40.40247 8879734
-147.4706 -66.89447 39.850574 9142910
-142.55864 -67.379341 -29.407578 9011064
-142.69568 -67.293533 -30.153522 7695204
-142.67473 -67.17115 -31.22715 9011833
-142.21059 -67.06205 -32.204468 7168861
-142.7704 -66.962173 -33.05455 9735040
-142.29292 -66.853455 -34.029438 8418924
-142.5047 -66.732536 -35.079758 8089960
-142.1898 -66.60807 -36.184757 5920074
-142.21149 -66.503067 -37.104023 5920074
-142.39563 -66.434052 -37.70137 9538432
-146.97655 -65.576492 41.238678 9209467
-147.44157 -65.747269 40.556278 8616820
-147.74011 -66.192245 39.922516 9537667
-142.14156 -66.380226 -38.184265 9077628
-142.00574 -66.280243 -39.06673 8879734
-142.06761 -66.151894 -40.18922 9866373
-141.89142 -66.045898 -41.125801 7564651
-142.05783 -65.94075 -42.040249 7564651
-141.69167 -65.817017 -43.141529 15196631
-141.8436 -65.693687 -44.215687 10459020
-141.39156 -65.60981 -45.010941 9406334
-141.87341 -65.521027 -46.106213 11774878
-141.49152 -65.448769 -46.737133 15722454
-147.20578 -64.714172 41.45454 9604486
-147.61627 -64.81665 40.880283 8288371
-141.19597 -65.391289 -47.206051 10261385
-141.70877 -65.294838 -48.136684 8419440
-141.10564 -65.179993 -49.072365 8090730
-141.50761 -65.063148 -50.168518 7301471
-140.99321 -64.967682 -50.944183 9536891
-141.3844 -64.849693 -52.049309 7038041
-141.05685 -64.727409 -53.089935 7038041
-141.02452 -64.597244 -54.243092 9340801
-140.94211 -64.489616 -55.188332 10459537
-147.01918 -63.502193 42.395454 12433839
-147.46707 -63.729443 41.701488 12433839
-147.86057 -63.915314 41.099979 9736073
-140.85231 -64.382004 -56.132641 8025969
-140.94803 -64.275841 -57.090649 10392461
-140.65781 -64.165894 -58.026981 9142394
-141.00978 -64.043251 -59.167496 7366751
-140.61273 -63.932114 -60.09956 8880503
-140.69469 -63.81937 -61.2388 7563874
-140.63435 -63.737968 -62.222725 8353135
-140.56604 -63.656353 -63.206036 9603202
-140.49396 -63.57436 -64.193718 9800581
-140.41383 -63.491982 -65.180542 10459535
-147.31802 -62.604763 42.544056 10788503
-147.64522 -62.904072 41.959198 9736073
-140.3299 -63.409142 -66.171852 8813686
-140.23805 -63.326229 -67.162346 9011321
-140.14247 -63.242809 -68.157204 13879741
-140.00702 -63.144878 -69.135506 8354934
-140.35982 -63.04285 -70.363098 7828333
-139.82388 -62.955875 -70.939438 9209211
-140.02966 -62.830528 -72.319565 9472383
-139.48396 -62.743431 -72.891136 9735555
-139.81296 -62.638271 -74.136909 9537667
-139.6282 -62.530552 -75.119881 10853012
-147.21001 -61.682465 43.216633 8682099
-147.66811 -61.788624 42.579475 7564392
-139.4352 -62.42255 -76.100708 9932678
-139.74782 -62.314537 -77.365982 8682868
-139.17563 -62.227009 -77.92749 9340542
-139.47688 -62.117485 -79.201622 8682611
-138.89558 -62.029762 -79.759071 7038307
-139.33292 -61.940754 -80.903664 9866630
-139.47188 -61.806477 -82.336426 9537665
-139.02321 -61.74044 -82.75032 7563619
-139.3181 -61.634712 -84.064545 10195595
-138.76009 -61.568211 -84.642342 13551549
-139.23668 -61.500179 -85.854568 12433325
-147.23087 -60.283031 44.378571 7038307
-147.47299 -60.674828 43.629906 7038307
-147.84929 -61.003788 42.823467 7038307
-138.81442 -61.451542 -86.287804 11315100
-138.85767 -61.333691 -87.944389 10986135
-139.0352 -61.230759 -89.469528 7038307
-138.59903 -61.181911 -89.898308 7301474
-138.9108 -61.094017 -91.292107 8617331
-138.46764 -61.045052 -91.718628 8617074
-138.62044 -60.939537 -93.266205 8089963
-138.17001 -60.890472 -93.689949 7563619
-138.46167 -60.799995 -95.108009 11906725
-138.37723 -60.729584 -96.034409 10262415
-138.13184 -60.642567 -97.099579 8091761
-138.56604 -60.566219 -98.4039 7038298
-138.25238 -60.533161 -98.682892 9340283
-147.63745 -59.361317 45.569 11906213
-147.68582 -59.678177 44.644154 10130063
-147.81467 -60.017788 43.972069 7038307
-137.78105 -60.483707 -99.099571 6511954
-138.3653 -60.422604 -100.27854 8814709
-137.88751 -60.372898 -100.69389 8814709
-137.98639 -60.260902 -102.30106 6511954
-137.50137 -60.211239 -102.71326 7235421
-137.91377 -60.131016 -104.05807 7827558
-137.25784 -60.064613 -104.60449 6511954
-137.66293 -59.983074 -105.96326 8616048
-137.39511 -59.833778 -107.87868 9405305
-137.79343 -59.749882 -109.2667 7563615
-137.26483 -59.6926 -109.65733 7826786
-137.27759 -59.559296 -111.29984 7563615
-148.33133 -58.622265 58.660198 10656913
-148.80315 -58.755608 57.771904 13486526
-148.10864 -58.962021 56.396435 9012606
-148.44569 -58.96376 55.503395 8486519
-148.71193 -58.965145 54.787743 10459537
-147.91495 -58.96674 53.484112 8089963
-148.23451 -58.96846 52.592331 8813685
-148.5491 -58.970177 51.698784 10327694
-147.68045 -58.971382 50.599529 7565675
-147.98268 -58.973087 49.709232 9473412
-148.27994 -58.974789 48.817265 9736072
-147.58804 -59.026009 47.605751 7695204
-147.88858 -59.121426 46.525623 9471871
-148.40579 -57.514561 59.322403 9998984
-148.71556 -57.773739 58.617237 10327949
-148.25078 -56.413303 60.365913 10129798
-148.54053 -56.732662 59.651714 9735298
-148.99704 -56.759743 58.864765 9341054
-148.5582 -55.629753 60.406094 10984849
-148.8936 -55.798038 59.722359 9603969
-148.42532 -54.534554 61.408405 9143161
-148.78079 -54.787117 60.630863 10853263
-149.17583 -54.875542 59.903515 9735812
-148.59361 -53.765614 61.67234 8288112
-149.02705 -53.84502 60.886616 8945530
-148.59587 -52.658585 62.456074 8354160
-149.02966 -52.881424 61.567822 8024686
-148.49625 -51.572021 63.396679 10064777
-148.82019 -51.800247 62.689331 8880502
-149.21078 -51.832653 62.009239 7038307
-148.50378 -50.36121 64.245308 8288365
-148.80357 -50.737389 63.4734 8485744
-149.20558 -50.900688 62.680946 7564642
-148.65964 -49.700237 64.453362 7235422
-149.09547 -49.800014 63.6492 6183246
-148.66432 -48.490818 65.305809 10524815
-149.02715 -48.734699 64.521942 8551026
-149.27429 -49.072506 63.865955 5920074
-148.82845 -47.722775 65.57618 10064265
-149.26888 -47.793156 64.785133 10393229
-148.87636 -46.557453 66.324547 10064265
-149.18921 -46.829567 65.604683 10064265
-149.36957 -47.194702 65.04171 10064265
-148.79306 -45.566013 67.362625 7892581
-149.07974 -45.773815 66.629021 8616305
-149.50542 -45.864178 65.813866 9932935
-149.00029 -44.581524 68.466606 7103579
-149.23618 -44.889771 67.616249 7169116
-149.53152 -45.233894 66.614166 9209211
-149.84926 -43.761757 77.745544 6511954
-150.21744 -43.929283 76.929306 7959144
-149.42776 -43.932407 74.715385 7827300
-149.87552 -43.934231 73.814362 10458505
-149.24551 -43.938 71.282623 6510930
-149.61607 -43.947746 70.576263 7497825
-149.2352 -44.199772 69.738586 6313551
-149.62279 -44.216713 69.043541 5919050
-149.83243 -42.669548 78.331123 7629665
-150.32895 -42.953842 77.901154 6511954
-149.93536 -41.669239 78.705101 9142644
-149.83742 -40.556389 79.251144 7892581
-150.18243 -40.885647 78.894905 8155752
-150.01978 -39.682968 79.519333 7498339
-149.83588 -38.44455 80.172424 9011320
-150.18245 -38.770878 79.816437 8024685
-150.14993 -37.724159 80.292633 8221805
-149.63699 -36.310692 81.22496 10854036
-150.06255 -36.784096 80.756157 10393229
-150.05853 -35.728207 81.218765 9208699
-150.56206 -35.999489 80.790009 10854036
-150.17969 -34.739578 81.574883 8550514
-150.00835 -33.541695 82.202507 9472639
-150.35883 -33.862278 81.846634 9998216
-150.2513 -32.752102 82.396805 8946296
-149.91405 -31.281319 83.245682 8288365
-150.34512 -31.747831 82.776535 7959400
-150.30556 -30.65234 83.367058 7893608
-150.03357 -29.273323 85.210243 8288365
-150.32802 -29.603113 84.422882 7433056
-150.43977 -30.093218 83.77253 9537406
-150.65912 -28.90703 90.434319 8550512
-151.09372 -28.908592 89.707657 8485232
-150.23383 -28.95038 86.283569 6511954
-150.72844 -28.986519 85.844986 9209467
-148.0269 -72.729889 35.615559 8156268
-148.05026 -73.037842 34.706848 9340287
-148.21603 -72.999817 33.617531 8616822
-147.9173 -72.929291 32.501606 9011321
-147.64749 -72.875694 31.622953 9011321
-147.46519 -72.810455 30.65583 10459023
-147.49527 -72.737366 29.736372 9472128
-147.52498 -72.650131 28.63414 7563619
-147.55429 -72.566681 27.534512 8419183
-147.61789 -72.519348 26.627155 8813683
-147.68675 -72.47744 25.722057 7958376
-147.36108 -72.418488 24.641796 9800576
-147.03247 -72.355217 23.786379 8748150
-147.93159 -71.726135 36.453857 8419696
-148.35405 -71.91433 35.814663 8222061
-147.6413 -72.271355 23.33774 7300961
-147.10165 -72.235069 22.634794 8156528
-147.12936 -72.131813 21.624105 8287598
-147.16786 -72.037323 20.616106 10063493
-146.95758 -71.969742 19.720665 10063493
-146.56926 -71.899666 18.662844 7564642
-146.52493 -71.815643 17.581787 10788243
-146.4827 -71.745911 16.682142 11380380
-146.43515 -71.676498 15.783818 10393485
-146.37177 -71.593552 14.707411 10458767
-146.30136 -71.511002 13.632781 12432041
-146.22391 -71.428787 12.560086 7038307
-146.15424 -71.360634 11.66755 7038307
-147.76967 -70.663986 37.276447 9735043
-148.22243 -70.796059 36.632076 8617075
-146.07933 -71.292709 10.776464 9143168
-145.98329 -71.211609 9.7088556 10261391
-146.31458 -71.117668 8.6692591 7958894
-146.20398 -71.037247 7.6025372 7564130
-146.18414 -70.961266 6.6126585 7629926
-146.0105 -70.90699 5.8290477 8551027
-146.31787 -70.816139 4.7830038 10261385
-146.18564 -70.739044 3.7210925 8089963
-146.04657 -70.662407 2.6613071 9274235
-145.90062 -70.586136 1.6037825 8682099
-145.77406 -70.522903 0.72415382 8945271
-145.64244 -70.459946 -0.15376775 7629410
-145.50424 -70.396194 -1.0301853 6510930
-148.02377 -69.751251 37.490623 10195338
-148.4323 -69.868423 36.910259 9537664
-145.39452 -70.346237 -1.5550247 8090218
-145.23244 -70.273613 -2.2532361 7499625
-145.52277 -70.157585 -3.2399309 6972512
-145.59645 -70.031929 -4.3645825 8616822
-145.33276 -69.923958 -5.4084539 7564648
-145.10837 -69.834351 -6.2757864 7564648
-145.07266 -69.729454 -7.2378154 7827819
-145.27052 -69.626709 -8.1250248 8419696
-145.17339 -69.504356 -9.2600422 9341054
-144.92746 -69.415985 -10.121358 7300958
-147.93709 -68.503319 38.32729 8419699
-148.21661 -68.865288 37.765797 8748659
-144.77795 -69.363136 -10.636935 7037274
-144.76578 -69.276703 -11.425641 7497824
-145.12541 -69.156715 -12.421397 10590609
-144.858 -69.067551 -13.278058 9276035
-144.58626 -68.978905 -14.131856 11578017
-144.68349 -68.856514 -15.198295 9669763
-144.77205 -68.734291 -16.265625 10064777
-144.4254 -68.629005 -17.284748 6644055
-144.39145 -68.503387 -18.411037 9736326
-144.62794 -68.402252 -19.255741 9736326
-148.13393 -67.777908 38.50386 8090477
-148.58983 -67.902855 37.859581 6511954
-144.32278 -68.315437 -20.100574 9932936
-144.13368 -68.193985 -21.226351 7827302
-144.42561 -68.071579 -22.247185 8551281
-144.03935 -67.968651 -23.254738 11183001
-144.0732 -67.846893 -24.330278 9932934
-144.09831 -67.725418 -25.406237 9735812
-143.76778 -67.644394 -26.241919 9341054
-143.90591 -67.565895 -27.163937 9209468
-143.97321 -67.473366 -28.254841 8813685
-143.71487 -67.417763 -28.92412 8089963
-148.04852 -66.695404 39.24242 8287859
-148.45813 -66.857765 38.634354 7498601
-143.51045 -67.372101 -29.422989 9011064
-143.8244 -67.288162 -30.149708 9077114
-143.70911 -67.18148 -31.090195 9340798
-143.42435 -67.055557 -32.206451 8221805
-143.65143 -66.934456 -33.257801 8683125
-143.16959 -66.825104 -34.238373 9340795
-143.6458 -66.7052 -35.267605 7696228
-143.2326 -66.614388 -36.082203 5920074
-143.17293 -66.490608 -37.169895 7696485
-148.15767 -65.759338 39.651745 9011580
-148.64714 -65.796669 39.016579 7630187
-143.104 -66.366928 -38.257175 9867144
-142.94009 -66.260307 -39.199093 8288116
-143.12071 -66.154999 -40.114189 10458511
-142.88568 -66.036346 -41.164936 8551545
-142.93628 -65.906685 -42.299358 9538696
-142.74734 -65.79998 -43.242882 9867399
-142.91881 -65.699265 -44.172558 9012088
-142.40138 -65.611069 -45.142605 9472383
-142.89369 -65.522766 -46.246723 12499115
-142.50592 -65.448845 -46.880939 15722454
-148.02579 -64.794189 40.380199 9538435
-148.51552 -64.828857 39.745926 8617335
-142.20822 -65.390923 -47.353214 10261385
-142.72867 -65.293869 -48.290699 11182742
-142.12054 -65.178223 -49.232529 7170658
-142.63277 -65.079834 -50.180058 8486003
-142.01094 -64.964478 -51.117596 10392201
-142.5146 -64.864845 -52.074921 8090216
-142.05672 -64.734154 -53.172218 8484975
-142.15819 -64.610573 -54.285442 9143166
-141.88799 -64.500191 -55.229328 8616823
-148.07889 -63.342327 41.159702 7038307
-148.39183 -63.83791 40.47818 7827821
-148.85117 -63.952789 39.834431 7038307
-141.99066 -64.393829 -56.189331 8156271
-141.89938 -64.285027 -57.144234 9537408
-141.8007 -64.17617 -58.098148 10853012
-141.6982 -64.06691 -59.055439 7366751
-141.58821 -63.957577 -60.011738 8288365
-141.8862 -63.84343 -61.350227 8288365
-141.33882 -63.76532 -62.126518 9340030
-141.7639 -63.67934 -63.333492 9340030
-141.20412 -63.601177 -64.10627 8879479
-141.61798 -63.513859 -65.324295 8092011
-148.18204 -62.74155 41.379528 7038307
-148.64171 -62.853085 40.737236 8946043
-141.04559 -63.435474 -66.093239 8092011
-141.44832 -63.346901 -67.322441 10064776
-140.86365 -63.26852 -68.08757 12629933
-141.25522 -63.178707 -69.327972 10065036
-140.76059 -63.108219 -69.928757 7565675
-140.98019 -62.983414 -71.311287 7696235
-140.43785 -62.895954 -71.88887 9209211
-140.77985 -62.791454 -73.135551 8354163
-141.11899 -62.685623 -74.393425 9537667
-140.55933 -62.597706 -74.965714 9537667
-141.02928 -62.512486 -76.090202 7564643
-148.42969 -61.759655 41.639641 9210239
-148.81787 -62.060356 40.976978 8091248
-140.74533 -62.468357 -76.375198 7564643
-140.31839 -62.402359 -76.801025 7827815
-140.63498 -62.293514 -78.077042 10787218
-140.42932 -62.183277 -79.073166 10392974
-140.21538 -62.072861 -80.066879 10261132
-140.51526 -61.961102 -81.362808 6511954
-139.91956 -61.872612 -81.920441 8550514
-140.20773 -61.759323 -83.225395 8221549
-139.93764 -61.581451 -85.127899 11710117
-140.28297 -61.496609 -86.49836 7038307
-148.33415 -60.713966 42.511917 7038307
-148.77576 -60.90884 41.735325 7038307
-139.71422 -61.431366 -87.079025 9144190
-140.04869 -61.345257 -88.461266 12037797
-139.47026 -61.279808 -89.038589 8288115
-139.94069 -61.208778 -90.289055 7038307
-139.35286 -61.143166 -90.863411 10327436
-139.66745 -61.054485 -92.27005 8353905
-139.06995 -60.988705 -92.840721 8616563
-139.52512 -60.915203 -94.1175 7892584
-138.91827 -60.849277 -94.684937 8616563
-139.36664 -60.774487 -95.975204 6249303
-139.50427 -60.665596 -97.561935 7039331
-139.03557 -60.61586 -97.983742 7828073
-139.31776 -60.522095 -99.441727 9340283
-148.33072 -59.389851 44.513954 7038307
-148.49361 -59.729137 43.541729 8156787
-148.79362 -60.126637 42.61047 7827820
-138.8419 -60.472244 -99.861069 9340283
-139.27539 -60.393887 -101.1925 7104091
-138.63176 -60.327297 -101.74854 6840919
-138.89487 -60.230942 -103.23225 7695972
-138.65833 -60.083225 -105.14313 7893100
-139.07617 -60.001125 -106.5174 8616048
-138.40483 -59.934055 -107.06443 8221547
-138.8152 -59.850563 -108.45296 8418670
-138.30469 -59.800171 -108.86077 7563619
-138.53712 -59.698612 -110.39922 8418670
-138.01938 -59.648106 -110.80394 7037274
-138.4165 -59.562057 -112.22146 6906712
-149.11508 -58.544682 57.397228 9012606
-149.47261 -58.755318 56.591991 8683897
-149.71513 -58.964565 55.567757 8486519
-148.84355 -58.965836 54.429287 11380380
-149.10413 -58.967216 53.711552 9866886
-149.4888 -58.969299 52.632648 9866885
-148.73528 -58.97121 51.161751 10459537
-148.98 -58.972584 50.444466 8486519
-149.28165 -58.9743 49.546497 9012606
-148.95784 -58.975567 48.644001 11380377
-148.68655 -58.977169 47.565319 12827565
-149.0269 -58.97921 46.489639 12827565
-148.70901 -59.097111 45.605339 8813944
-148.95558 -59.198792 44.701508 8156787
-149.13783 -57.31921 58.230278 9735812
-149.38724 -57.755867 57.500397 8157297
-149.82208 -57.8871 56.675842 8026225
-149.2995 -56.655331 58.430393 8617075
-149.7274 -56.7696 57.629539 8354417
-149.31882 -55.432903 59.266911 8946296
-149.62814 -55.777473 58.501774 7103323
-149.93152 -56.177658 57.707146 7563874
-149.48962 -54.661938 59.527843 10261641
-149.92249 -54.745956 58.740139 10261127
-149.46321 -53.546696 60.365173 10786703
-149.81131 -53.773617 59.618435 11576729
-150.02867 -54.144485 58.989231 12432037
-149.39998 -52.457462 61.246563 8616566
-149.72273 -52.689751 60.538319 11312789
-150.11282 -52.725952 59.856361 12432037
-149.63202 -51.608059 61.460392 8156272
-149.98219 -51.832409 60.711777 10523532
-149.53018 -50.744938 62.245708 6906718
-150.00475 -50.683491 61.491207 8353646
-149.81702 -49.654041 62.539349 6380369
-150.12035 -49.949162 61.819134 8353384
-149.70084 -48.777336 63.35841 5920074
-150.1848 -48.670208 62.620522 7169629
-149.56485 -47.814079 64.272423 7761766
-150.03439 -47.696796 63.56599 7761766
-150.28729 -48.070286 62.874828 7169629
-149.63528 -46.405308 65.156006 10064265
-149.89003 -46.776348 64.463661 9932423
-150.22795 -46.850922 63.84219 8945528
-149.82504 -45.250969 66.097107 9735812
-150.02487 -45.51519 65.395638 9341055
-150.20132 -45.883514 64.628181 9406591
-150.22211 -44.331608 67.426865 7761509
-150.00575 -44.69857 66.60807 8880504
-150.42136 -44.785595 65.783188 8814969
-150.90198 -43.56955 77.279091 9011832
-150.49455 -43.930389 76.386002 7235421
-150.95203 -43.93224 75.478302 7563619
-150.14163 -43.935333 73.272438 12432037
-150.49297 -43.936794 72.54818 11774624
-150.84126 -43.938255 71.822548 10459022
-149.91902 -43.963032 70.058167 8484976
-150.29683 -43.976654 69.354431 7103580
-150.16048 -44.148472 68.561424 6182222
-150.18433 -44.238174 67.990456 6840151
-150.5621 -42.351711 78.020836 6511954
-150.97597 -42.751492 77.591171 6775126
-150.69312 -41.663574 78.240852 6643284
-151.18079 -41.803699 77.879082 6511954
-150.99092 -40.715248 78.47052 6840667
-150.79918 -39.628448 79.062401 7564392
-151.18558 -39.680367 78.801437 7564392
-150.91536 -38.796021 79.35347 8748408
-151.41862 -39.074532 78.921814 5920082
-150.87514 -37.307789 80.026787 5920082
-151.06436 -37.876511 79.6623 6117461
-150.91283 -36.676971 80.278473 9603971
-151.418 -36.951382 79.847366 5920082
-151.1433 -35.716209 80.55497 10984598
-150.99625 -34.498463 81.176346 9142651
-151.28326 -34.813751 80.861923 9866374
-151.11215 -33.69257 81.456017 8287342
-150.97144 -32.236866 82.177101 10064777
-151.28732 -32.835758 81.721382 9668995
-151.20192 -31.62545 82.301453 9801091
-151.25397 -30.828646 82.659119 9537406
-151.18564 -29.360367 84.186966 7367265
-151.32973 -29.837215 83.473785 8879991
-152.11221 -28.69137 92.641685 9603193
-151.41702 -28.909683 89.161232 9208699
-151.84518 -28.911266 88.43084 9471615
-151.38899 -29.035179 85.258026 7367263
-152.3838 -27.54998 92.972824 11708313
-152.23221 -27.974222 92.881096 9208435
-148.59825 -72.422142 35.212292 8616563
-148.83527 -72.687988 34.512306 8616563
-149.09395 -72.821487 33.533566 9209471
-149.15654 -72.862885 32.510841 9341059
-148.97368 -72.79673 31.532108 9209472
-148.56075 -72.75428 30.697275 8682614
-148.37482 -72.674629 29.542091 7563619
-148.39738 -72.601593 28.618216 8287598
-148.43976 -72.541145 27.700022 8024426
-148.52808 -72.490364 26.606968 11379348
-148.58107 -72.426369 25.509462 9668734
-148.54849 -72.338737 24.58342 8089960
-148.77634 -71.753052 35.379494 8813942
-149.23091 -71.891563 34.729073 9209212
-148.50459 -72.248444 23.657986 8089960
-148.45123 -72.143456 22.55031 7760997
-148.42395 -72.055038 21.449604 9340027
-148.39958 -71.983421 20.534212 8418927
-148.14366 -71.91053 19.499611 8748660
-147.9744 -71.841507 18.552311 10064520
-147.75835 -71.77832 17.657824 9406590
-147.79707 -71.69738 16.652157 10064777
-147.73637 -71.613426 15.564617 12893616
-147.76178 -71.533012 14.559761 9670021
-147.52579 -71.471291 13.675467 9143422
-147.53961 -71.391533 12.673703 7301479
-147.04193 -71.349159 11.917038 9208958
-148.9794 -70.803871 35.678841 9011833
-149.43526 -70.939949 35.028172 9735812
-147.53503 -71.301041 11.528309 8617079
-147.45345 -71.229851 10.592445 7959152
-147.2753 -71.158875 9.6167154 7038307
-147.60736 -71.064217 8.5679483 8681843
-147.51361 -70.997177 7.6713052 7432544
-147.3979 -70.918594 6.5972633 8353134
-147.27538 -70.840424 5.5253816 7959400
-147.16815 -70.775597 4.6337333 7827814
-147.05585 -70.711037 3.7436621 7629923
-146.91496 -70.63398 2.6776159 9274235
-146.76724 -70.557281 1.6137637 10458507
-146.61263 -70.481003 0.55220968 8089962
-146.47888 -70.417786 -0.33068103 8090218
-146.36829 -70.367325 -1.0358158 8090218
-148.91487 -69.778702 36.357822 8682867
-149.40952 -69.922981 35.653759 8814457
-146.2688 -70.322586 -1.5638872 8090218
-146.4404 -70.232567 -2.3421266 8354160
-146.7317 -70.115608 -3.3365772 6973279
-146.47137 -70.006439 -4.3902626 8419697
-146.20474 -69.897827 -5.4403858 6840926
-146.22395 -69.780708 -6.5004401 9012090
-146.18382 -69.7043 -7.2045069 8156783
-146.33521 -69.582954 -8.2719345 8288110
-146.04254 -69.475784 -9.314908 6840408
-145.79407 -69.386917 -10.181382 5393738
-148.74689 -68.800781 37.138916 8814451
-149.23619 -68.848038 36.498116 8814451
-145.64281 -69.333778 -10.7 8684155
-145.98186 -69.252182 -11.361493 8354162
-145.99205 -69.125557 -12.495007 8684155
-145.72197 -69.035912 -13.356701 8684155
-145.63683 -68.929634 -14.322802 8683897
-145.79033 -68.824257 -15.224869 8419696
-145.63467 -68.70063 -16.361958 7827303
-145.28465 -68.594757 -17.386967 6841181
-145.58498 -68.489456 -18.253624 7368296
-145.61121 -68.40168 -19.029102 8354932
-148.97993 -67.736748 37.467617 8485486
-149.40872 -67.917099 36.825066 8814451
-145.42792 -68.349159 -19.540117 9736326
-145.18103 -68.27935 -20.219501 10064009
-145.2374 -68.156601 -21.298901 7827558
-145.28488 -68.034058 -22.37891 9011576
-144.89503 -67.930534 -23.392242 9538176
-145.16187 -67.824501 -24.273399 9735043
-145.10284 -67.725868 -25.222366 10591121
-144.73239 -67.641258 -26.237095 8880503
-144.96144 -67.545273 -27.362499 8484977
-144.87854 -67.455093 -28.431768 9866885
-144.61775 -67.399117 -29.105061 9142907
-148.8829 -66.494461 38.31395 7038307
-149.26741 -66.81102 37.647484 11182484
-149.65211 -67.129646 36.979404 8814451
-144.39888 -67.347389 -29.604332 8089963
-144.9874 -67.247543 -30.453056 10261132
-144.59894 -67.154976 -31.281971 9011577
-144.57483 -67.030716 -32.372581 9669505
-144.62209 -66.92482 -33.298328 10853004
-144.21779 -66.833038 -34.121185 9143417
-144.43747 -66.710533 -35.185169 7367009
-144.11952 -66.584435 -36.304829 6709077
-144.32196 -66.479012 -37.219711 7696485
-149.18053 -65.725739 38.388935 7499113
-149.46463 -66.084427 37.823734 9012605
-144.16298 -66.371742 -38.167568 8222579
-144.09041 -66.246887 -39.265175 8879995
-144.00861 -66.122162 -40.36224 8485750
-143.83203 -66.014771 -41.311295 9735816
-144.00539 -65.908195 -42.237896 8156786
-143.54999 -65.818405 -43.045139 7827819
-144.02974 -65.715775 -44.135139 9012088
-143.51006 -65.627136 -45.112961 8090987
-143.73035 -65.533829 -46.230473 10261900
-143.53209 -65.448929 -47.026131 9341313
-148.99608 -64.726524 39.202278 7959407
-149.42499 -64.872757 38.578461 9143934
-143.23189 -65.390602 -47.501545 11577500
-143.7603 -65.292915 -48.44598 11314328
-143.24979 -65.195816 -49.236557 8486003
-143.66739 -65.077477 -50.348824 10459020
-143.14534 -64.980576 -51.135765 11049873
-143.44553 -64.841629 -52.414112 8616303
-142.91148 -64.745018 -53.196903 6511954
-143.30533 -64.624268 -54.327282 7564392
-142.75989 -64.527939 -55.106205 7301221
-143.36469 -64.444466 -55.934895 6511962
-149.28078 -63.710819 39.435467 7433064
-149.61624 -63.936382 38.882805 8946043
-143.03157 -64.386703 -56.401196 9406590
-142.58575 -64.309868 -57.020668 9406590
-142.95728 -64.18663 -58.169247 9932166
-142.66307 -64.074966 -59.120556 8682867
-142.758 -63.970375 -60.101254 10656914
-142.70738 -63.886944 -61.094444 10064777
-142.5414 -63.789192 -62.244556 8354675
-142.41318 -63.623875 -64.24054 8617075
-142.4922 -63.488613 -65.934708 8092011
-149.03922 -62.636543 40.363815 9538432
-149.45647 -62.844128 39.718979 7827819
-142.14566 -63.441238 -66.398994 9538689
-142.29401 -63.388855 -67.095749 9341054
-142.20331 -63.30471 -68.101196 9143419
-142.10884 -63.220078 -69.111221 10590352
-142.00626 -63.135338 -70.120399 9406850
-141.89876 -63.049507 -71.133453 7564649
-141.74167 -62.945328 -72.124481 8748921
-142.09413 -62.840149 -73.383293 9012088
-141.53763 -62.751801 -73.961731 8024940
-141.87883 -62.6451 -75.229774 8485234
-141.69327 -62.535801 -76.228317 11247512
-149.37061 -61.746056 40.465557 7696230
-149.81653 -62.093506 39.703175 7367263
-141.49931 -62.426224 -77.224609 11181460
-141.67845 -62.294334 -78.655273 9340283
-141.24057 -62.227726 -79.08107 10326922
-141.55396 -62.116615 -80.378395 9011320
-140.96111 -62.027626 -80.942413 9011320
-141.26283 -61.914955 -82.248947 7892583
-141.56148 -61.800949 -83.567284 7563619
-140.951 -61.711605 -84.124916 10195595
-141.27307 -61.611317 -85.473717 8157043
-140.70801 -61.545734 -86.060356 8157043
-141.34311 -61.493065 -87.15049 7038307
-149.33244 -60.603634 41.374332 7367271
-149.66185 -60.890995 40.664997 6972510
-141.0563 -61.460144 -87.443314 7038307
-140.62515 -61.410866 -87.880699 8288115
-140.96458 -61.324032 -89.275917 9472130
-140.38033 -61.25808 -89.856293 7038307
-140.70894 -61.169918 -91.264038 8354163
-140.26346 -61.120365 -91.696617 7894126
-140.43231 -61.014328 -93.260406 7629926
-140.28801 -60.873928 -95.122993 9735557
-140.74919 -60.798603 -96.427078 5920082
-140.12743 -60.732002 -96.995949 6841183
-140.42406 -60.638752 -98.45549 9603459
