# .PCD v0.7 - Point Cloud Data file format
VERSION 0.7
FIELDS x y z rgb
SIZE 4 4 4 4
TYPE F F F U
COUNT 1 1 1 1
WIDTH 1220
HEIGHT 1
VIEWPOINT 0 0 0 1 0 0 0
POINTS 1220
DATA ascii
165.15227 -34.88039 -16.35676 9142903
165.47816 -34.805038 -15.666554 9932678
144.54106 -34.886837 100.07973 9011832
144.02432 -34.649654 100.81598 8550253
143.61931 -34.267666 101.50208 8419440
165.20702 -33.837776 -17.188044 10523783
165.54195 -33.872112 -16.375963 10590864
144.28798 -33.689667 101.04069 8550510
143.66879 -33.631607 101.79735 8748149
165.18025 -32.797398 -18.207201 9208179
165.48157 -32.922867 -17.389435 11576471
144.5433 -33.01516 101.11662 9208435
144.05556 -32.790222 101.81217 9208442
143.43434 -32.704895 102.58641 9274493
165.27238 -31.852484 -18.861462 10655113
165.56992 -31.85047 -18.169802 9471095
165.7473 -32.124859 -17.50404 11115664
144.1676 -31.940796 102.15292 9734788
143.75557 -31.657511 102.79237 7827561
143.25589 -31.423891 103.50666 6643546
165.40689 -30.420048 -20.086357 10261643
165.55241 -30.798321 -19.24646 9076595
165.84686 -30.970438 -18.362083 8681835
143.99277 -30.657593 103.0757 8090736
143.44174 -30.646719 103.72957 7038307
143.09575 -30.428015 104.26891 7038307
166.06436 -29.489307 -20.772003 9602943
165.84712 -29.862434 -20.139034 10985622
166.07808 -30.093819 -19.155411 8681835
143.88531 -29.93714 103.92065 9735044
143.39436 -29.709423 104.8066 12234660
143.09975 -29.331991 105.73402 9471875
166.95064 -28.608959 -27.76952 8551538
167.34039 -28.581779 -27.077072 10263180
166.45177 -29.045034 -25.912054 9736323
166.57108 -29.043531 -25.112043 10590862
166.71541 -29.041653 -24.111265 10262156
166.82634 -29.040161 -23.310047 7367264
165.94354 -29.289392 -22.175085 6971994
166.25287 -29.319221 -21.200871 10062979
143.33607 -28.929237 107.11904 9932169
142.78856 -28.923557 107.78569 9406082
142.61382 -28.854532 112.04453 9340798
142.0694 -28.854252 112.72797 8813943
141.52223 -28.853977 113.40919 9340289
141.48801 -28.598597 117.94476 6840151
140.88005 -28.533371 118.47649 6248015
167.11623 -27.807636 -28.072712 8617587
167.54723 -27.763256 -27.317757 10263180
141.103 -27.738516 118.66504 6248526
140.59058 -27.454536 119.22043 6511954
167.05606 -26.872961 -28.889769 8682868
167.39946 -26.949627 -28.20355 8880503
141.29425 -26.807198 118.94366 6511954
140.68459 -26.743629 119.47602 6182733
167.19112 -25.419607 -29.74239 7761509
167.43199 -25.808994 -29.006912 9011320
167.58446 -26.296215 -28.359413 9471615
140.92865 -25.827377 119.70404 7432800
140.45473 -25.440952 120.27577 7103579
177.21533 -25.376818 -83.095634 14604238
177.09169 -25.316488 -82.262466 14604238
176.96632 -25.256462 -81.432678 12103335
176.79692 -25.176907 -80.330521 9735812
176.62479 -25.097916 -79.233635 9340797
176.45001 -25.019386 -78.141953 9735039
176.27257 -24.941467 -77.055305 10459017
176.13788 -24.883339 -76.243576 10459017
176.00153 -24.825563 -75.435013 7563619
175.81766 -24.748926 -74.361198 8813942
175.63118 -24.672853 -73.292328 8156012
175.44221 -24.597292 -72.228592 10261898
175.25066 -24.522243 -71.169769 7827813
175.10551 -24.466263 -70.378761 11906719
175.008 -24.429148 -69.85305 10458505
167.31996 -24.802912 -29.973053 9274493
167.72017 -24.839211 -29.213249 9011320
141.15991 -24.789463 119.99973 10853012
140.52829 -24.547766 120.63361 9077114
174.90979 -24.392134 -69.328606 10458505
174.76129 -24.336872 -68.54438 8353135
174.56126 -24.263664 -67.502777 9142907
174.35887 -24.190868 -66.466087 10262416
174.15414 -24.118633 -65.434166 8683899
173.94705 -24.04686 -64.407043 9341571
173.73766 -23.975548 -63.384758 9867655
173.52599 -23.904797 -62.367191 8549999
173.31209 -23.834507 -61.354347 11509652
173.12892 -23.779284 -60.590313 13548205
172.92555 -23.721733 -59.822857 12431013
172.65276 -23.645523 -58.803982 10983567
172.37802 -23.569876 -57.790581 7694945
172.10164 -23.494696 -56.782303 8288109
171.82341 -23.420126 -55.779388 6511954
167.47777 -23.559519 -30.62569 8089963
167.63734 -23.842491 -30.11941 9274492
167.92639 -24.017694 -29.457685 10787988
140.87071 -23.734871 120.73271 10656402
140.25473 -23.643955 121.28282 11380380
171.61353 -23.364462 -55.030357 6511954
167.61174 -22.541313 -31.900099 9209985
167.75388 -22.844046 -31.092537 8223090
168.02565 -22.981945 -30.30859 10261643
140.96141 -22.988508 121.0079 9208443
140.38503 -22.794228 121.57402 10261643
140.0417 -22.516321 121.98721 8089963
168.15556 -21.48415 -33.993744 10261642
168.30333 -21.659063 -33.148132 9407106
168.11508 -22.009344 -32.078663 9604743
168.27635 -22.178907 -31.188925 7039331
140.69284 -21.744272 121.81282 7958632
140.05711 -21.552656 122.42648 7367007
168.39217 -20.995598 -34.778061 9932163
168.68495 -21.01515 -34.205067 9932163
140.4227 -20.498137 122.61984 7301213
139.80356 -20.409771 123.17146 10787468
140.49533 -19.595823 122.98318 9735038
139.97108 -19.585217 123.42012 11379348
139.50856 -19.350172 123.91142 11379348
140.21782 -18.684921 123.6391 10919310
139.59688 -18.597775 124.19154 8485485
140.22797 -18.004992 123.94965 10459273
139.88161 -17.726442 124.36564 8880242
139.30016 -17.534908 124.93454 8485485
140.01262 -16.728888 124.72557 8090727
139.4301 -16.537493 125.29525 7761508
139.82187 -15.546059 125.52762 7104097
139.21523 -15.492806 126.07741 9076601
139.65443 -14.719663 126.47781 8945531
139.31557 -14.380278 127.09127 9076601
139.47198 -13.985798 128.47649 7038307
138.77736 -13.978735 129.07793 9077884
137.91089 -13.821321 136.59909 16248807
137.46037 -13.542306 137.27385 10065288
137.74956 -12.765872 137.43166 9407615
137.22345 -12.567023 138.01125 9670529
137.95699 -11.937632 137.64003 8089963
137.4976 -11.698957 138.17746 10591630
137.65707 -10.828327 138.45042 9868164
137.73927 -10.034724 138.75716 8092011
154.95198 -57.520119 43.835831 4998716
154.78319 -57.576393 44.997025 5392706
154.67862 -57.496426 46.044937 6511702
154.56888 -57.477894 46.958584 7037533
154.37636 -57.64278 47.875389 9603458
154.15256 -57.484047 48.78289 11248539
153.93179 -57.319473 49.610336 10261899
156.35213 -56.420197 36.014133 6511954
156.21829 -56.451111 36.973694 8024936
156.05672 -56.49052 38.126476 6971994
155.86554 -56.659416 39.140614 8287851
155.71498 -56.75975 40.033157 7893093
155.57784 -56.79845 40.996719 5789003
155.48512 -56.692818 42.024128 4407609
155.37064 -56.683617 42.94709 4604729
155.23083 -56.727917 43.915062 5458754
155.09029 -56.773998 44.884384 5392706
154.97345 -56.770042 45.811943 6840664
154.8454 -56.719406 46.961449 7432288
154.72108 -56.684467 47.901093 8287598
154.3884 -56.727272 48.939507 9669507
154.07455 -56.721439 49.86116 10261899
153.799 -56.677963 50.713341 8813941
153.57646 -56.516533 51.542366 8484976
157.44435 -55.483414 30.137012 7169373
157.31517 -55.502575 31.093534 5919050
157.13728 -55.624344 32.139221 5393738
156.95845 -55.748245 33.185303 10656400
156.82695 -55.773277 34.143559 12629673
156.69464 -55.80022 35.102684 6314319
156.56161 -55.828918 36.062576 6511954
156.49753 -55.662285 37.040039 11248277
156.36287 -55.694519 38.002319 10590095
156.2274 -55.728672 38.965714 7629411
156.06377 -55.771996 40.123165 8945781
155.92653 -55.810062 41.088989 5525833
155.83617 -55.734699 42.011688 4342073
155.71927 -55.693859 43.043831 4999745
155.57961 -55.737526 44.014126 6643284
155.43913 -55.782909 44.985764 5787720
155.31955 -55.747986 46.023632 8419696
155.22533 -55.680874 46.954887 8156011
155.01617 -55.841957 47.969597 8616819
154.73024 -55.78207 48.997108 9406591
154.46368 -55.669811 49.899628 12367275
154.10197 -55.722366 50.895889 9867141
153.78625 -55.7202 51.819016 8617075
153.52693 -55.606163 52.702621 8683636
153.26476 -55.455765 53.635059 7564643
153.0983 -55.324879 54.266537 8420464
157.77522 -54.60524 28.434063 7696233
157.76628 -54.740379 29.256086 7367008
157.72441 -54.696835 30.190794 7169373
157.59508 -54.715778 31.149033 7235166
157.46504 -54.736607 32.107914 6248788
157.30801 -54.763889 33.259468 6972511
157.17636 -54.788513 34.219875 9011318
157.04395 -54.815041 35.18121 5919050
156.91078 -54.84325 36.143295 6511442
156.84663 -54.676094 37.122974 12892846
156.71188 -54.70776 38.087479 10590095
156.57632 -54.741402 39.053059 9076857
156.40962 -54.820621 40.132195 13090481
156.30582 -54.777355 41.068714 8157037
156.13724 -54.860855 42.150669 4802367
155.9845 -54.965172 43.050072 6643798
155.78899 -55.143192 44.073643 7038298
155.64848 -55.188179 45.046616 6248271
155.53545 -55.225468 45.826115 7629923
154.75697 -54.830906 49.980247 10656657
154.44388 -54.727001 51.009304 9472127
154.12744 -54.724842 51.934456 9866629
153.81042 -54.724552 52.859421 8683892
153.49277 -54.725895 53.784256 7564643
153.17451 -54.729141 54.708984 9406847
152.89949 -54.667294 55.580296 9208699
152.73167 -54.538635 56.213432 9208443
158.15004 -53.290508 26.346569 5920076
158.06958 -53.623402 27.171238 6051663
158.05684 -53.808834 28.288816 9077885
158.10858 -53.794193 29.241093 9209212
158.07449 -53.713383 30.25802 9077626
157.94507 -53.732006 31.218391 9340286
157.81482 -53.752468 32.179482 9668995
157.68394 -53.774597 33.141197 6380375
157.55229 -53.79855 34.103672 5721930
157.38995 -53.866848 35.179436 6313551
157.19022 -54.054523 36.20787 6905687
157.05612 -54.08424 37.172783 10721423
156.92137 -54.115604 38.138584 9076857
156.81294 -54.141998 38.912033 7563619
154.5224 -54.128525 51.447945 10261643
154.35657 -53.994595 52.081024 10459022
154.0939 -53.842674 53.016594 9143418
153.8327 -53.730156 53.903893 8486001
153.51369 -53.733307 54.830677 12038567
153.19408 -53.738087 55.757431 9209467
152.87384 -53.744736 56.684212 9274492
152.56839 -53.594788 57.742794 10458766
152.36601 -53.364491 58.590103 10853524
158.37112 -52.540924 25.308157 6841437
158.31523 -52.806889 26.139532 6314835
158.38481 -52.753517 27.169647 4867385
158.41492 -52.829594 28.353121 9735043
158.41388 -52.955936 29.271364 9735299
158.28461 -53.123142 30.298344 9735812
158.15509 -53.141541 31.260069 9340286
158.07697 -53.153458 31.837416 11379356
154.04082 -52.93375 54.185318 9209467
153.81383 -52.777264 55.021873 13419964
153.53279 -52.741817 55.881241 9209467
153.21178 -52.748318 56.810097 9208443
152.89017 -52.756405 57.738976 10458766
152.56792 -52.766357 58.668114 9998215
152.24501 -52.777905 59.597389 11445917
151.9884 -52.591732 60.553776 12762290
158.64006 -51.555347 23.495953 10064265
158.59099 -51.794552 24.268797 6905944
158.65034 -51.771107 25.311113 6775132
158.71632 -51.714672 26.245113 6577750
158.7233 -51.820942 27.178692 5459266
158.67093 -52.094204 28.136396 10261131
153.67181 -52.144897 56.141636 9209467
153.44302 -51.991264 56.980331 9208443
153.22769 -51.759323 57.867096 9998215
152.90468 -51.769024 58.798248 9274492
152.58109 -51.780354 59.729622 10919573
152.25674 -51.793461 60.661255 14340809
151.93172 -51.808151 61.593174 9144186
151.71216 -51.583633 62.484192 8551538
151.4782 -51.439346 63.32782 8090987
158.93665 -50.579063 22.304428 8353647
158.91939 -50.764618 23.342258 8089962
158.94745 -50.818672 24.323498 6643031
158.99156 -50.822937 25.260662 7433064
159.00218 -50.93232 26.292494 8814201
153.10951 -50.972965 59.088974 8682867
152.91743 -50.78233 59.861912 8682867
152.59238 -50.795181 60.795631 9538176
152.26672 -50.809631 61.729668 10788500
152.00716 -50.625931 62.691856 11840672
151.67982 -50.643623 63.627159 9998212
151.3847 -50.612007 64.523376 9275003
151.13342 -50.41584 65.475578 6643540
150.95795 -50.297153 66.11998 7563619
159.22092 -49.538441 20.363146 9669507
159.17073 -49.797302 21.271511 8287854
159.24159 -49.727905 22.217285 7170141
159.27609 -49.789291 23.39481 6379600
159.30431 -49.842308 24.378233 7038307
159.24959 -50.070385 24.958101 7038307
152.79388 -50.195915 60.87632 8682867
152.53485 -50.010292 61.838928 12433580
152.35461 -49.664978 62.75 14341576
152.06659 -49.601498 63.661079 10459020
151.6851 -49.662735 64.705933 8090986
151.35559 -49.683342 65.644424 5920074
151.02512 -49.705696 66.583572 7827559
150.76596 -49.504539 67.337654 10788244
159.48851 -48.586472 18.742973 7564643
159.43616 -48.807274 19.320076 10261643
159.49908 -48.771709 20.357119 9932422
159.59125 -48.652889 21.372593 7498850
159.55737 -48.864388 22.261427 6446418
159.5231 -49.10104 23.333149 7170141
152.28064 -48.94149 63.772797 11249306
151.96504 -48.900421 64.739433 7828071
151.75488 -48.628677 65.655754 8617330
151.37654 -48.758453 66.614838 10261641
151.02208 -48.651047 67.507095 10656398
150.65561 -48.409607 68.305847 10064521
159.83691 -47.322514 16.450247 7563618
159.80902 -47.512531 17.302044 8353135
159.75992 -47.79166 18.385721 7630180
159.79156 -47.834354 19.363234 9538433
159.839 -47.827805 20.295971 11511967
159.89885 -47.791641 21.264658 8420208
151.88911 -47.884346 66.094398 9209467
151.71254 -47.76495 66.742767 9669501
151.36218 -47.699905 67.605293 9340537
150.76559 -47.667576 68.64782 9867142
150.4325 -47.446396 69.371964 9932937
160.11211 -46.51033 15.312613 6840925
160.05803 -46.74213 16.47307 8419440
160.08447 -46.778904 17.448736 8879479
160.11528 -46.818771 18.426664 8419440
160.14734 -46.860676 19.406429 10525328
160.10136 -47.090294 20.182585 11512223
151.47495 -46.957329 67.947838 8682863
151.16608 -46.753902 68.655586 9932933
150.72498 -46.652924 69.507523 8946044
150.37871 -46.373066 70.37439 7959407
150.12315 -46.234715 70.990028 7038307
160.82388 -45.335495 11.489436 9077882
160.76176 -45.481926 12.520892 7629924
160.68365 -45.644688 13.477218 8353906
160.62912 -45.773659 14.389564 8485749
160.65186 -45.805004 15.365375 7104094
160.54259 -46.021225 16.52387 9012088
160.42758 -46.232285 17.486792 9340542
160.44289 -46.260967 18.269508 9538433
151.06778 -45.899109 69.887741 9209215
150.79845 -45.699001 70.646248 7038307
150.30273 -45.678959 71.519379 9011580
149.93202 -45.477345 72.452515 9208187
161.95099 -44.299648 7.8624544 9800582
161.78467 -44.408474 8.6981478 9340289
161.55069 -44.535675 9.4960966 9274750
161.24556 -44.79126 10.547259 8551538
161.28136 -44.819016 11.523273 8946296
161.28957 -44.840672 12.498324 9735812
161.14534 -45.036777 13.461359 7563874
161.16487 -45.060184 14.243355 7038307
150.78033 -45.13335 71.525887 9077116
150.40889 -44.930984 72.461426 9602945
149.97939 -44.80397 73.518967 9471359
149.96736 -44.509331 74.486954 9800836
149.62517 -44.431282 75.443237 10656657
149.23485 -44.424076 76.149414 10524815
164.6241 -43.52422 -9.0154715 9210491
164.79144 -43.556511 -8.2304945 10657679
164.72879 -43.744011 -7.2365847 9932418
164.15666 -44.016121 -6.2258482 8682867
164.18718 -44.014446 -5.2400732 8682867
164.21211 -44.012779 -4.2541628 9801349
164.23074 -44.011124 -3.2680657 8682868
162.63196 -44.006477 1.0545814 8090736
162.62465 -44.005516 1.6404121 6512978
162.60783 -44.003933 2.6168449 7301982
162.58556 -44.002357 3.5931404 7104859
162.55692 -44.000786 4.5692434 7169893
162.52235 -44.000874 5.7406492 8814203
162.00198 -44.190239 6.5000963 8288116
161.89355 -44.276958 7.2746744 8419702
149.9157 -44.180431 76.500252 10656657
149.4234 -44.172276 77.385468 9800580
148.99986 -44.10215 78.536385 9208187
149.11086 -43.91288 79.516937 9010808
148.60945 -43.907284 80.401642 10984593
148.3075 -43.904327 80.931709 11708316
148.39459 -43.891396 84.262733 7169885
147.77774 -43.890594 85.329498 8090986
147.36255 -43.890064 86.038376 9209211
147.8239 -43.88493 88.719116 9537408
147.50021 -43.884556 89.250931 10853012
146.95656 -43.883942 90.134613 9800836
146.51828 -43.883457 90.839546 10656657
147.02023 -43.51265 92.386139 9209467
146.34485 -43.478886 93.194336 9933448
164.70116 -42.622105 -10.145164 9210491
164.8298 -42.806427 -9.2822657 9473663
165.09334 -42.807816 -8.126483 9407613
147.07848 -42.878963 92.670425 9209467
146.73694 -42.650043 93.197044 9933706
146.12753 -42.578789 93.949043 9341826
164.85313 -41.661411 -10.817929 10065801
165.02229 -41.778324 -10.111985 9605249
165.19514 -41.845268 -9.2463636 10394509
165.25943 -42.159878 -8.4534216 9210491
146.85863 -41.807194 93.523506 10262414
146.31659 -41.782253 94.170998 8618105
145.83855 -41.549084 94.859436 8092019
165.06755 -40.792915 -11.116912 9934215
165.33484 -40.90398 -10.165761 11446941
146.58562 -40.903465 94.345215 10262414
146.07588 -40.658642 95.077209 9735811
145.67816 -40.271244 95.757507 9208443
165.07088 -39.792572 -12.029191 9341822
165.38057 -39.852371 -11.252294 9604994
165.56529 -40.099323 -10.46552 9736836
146.34596 -39.704941 95.291855 11380377
145.73314 -39.637661 96.045685 9735298
165.21399 -38.54924 -12.839025 9341822
165.44896 -38.804173 -12.056886 9012857
165.68402 -39.06052 -11.273358 9341822
146.60481 -39.03606 95.360786 11380377
146.15108 -38.714535 96.070084 10393484
145.50941 -38.710312 96.822929 8616821
165.40657 -37.696522 -13.174268 8748916
165.74963 -37.799957 -12.279584 9209466
146.23749 -37.746784 96.506538 8617334
145.75984 -37.729259 97.075089 8354164
145.34395 -37.431648 97.72699 7762029
165.5038 -36.700779 -13.863376 9406590
165.76097 -36.804893 -13.168321 9669247
165.89882 -37.191444 -12.491494 9537918
146.07713 -36.678226 97.287628 7696237
145.46078 -36.614689 98.043968 9735812
165.56529 -35.448395 -14.871673 9340798
165.72737 -35.895462 -14.082919 9472126
166.04021 -35.947472 -13.305804 10458505
146.13077 -36.041935 97.57827 7564651
145.84679 -35.60688 98.152206 9143677
145.30095 -35.674488 98.753227 9341054
165.71286 -34.841591 -15.085959 9406334
166.05827 -34.938389 -14.191863 9537920
145.96309 -34.759193 98.487 8682867
145.41422 -34.742203 99.138504 8880246
145.04079 -34.447567 99.739059 8682867
165.82112 -33.725124 -15.860303 9340542
166.12323 -33.854546 -15.037292 9274492
166.17422 -34.28297 -14.524148 9932678
145.80066 -33.75985 99.232086 9867141
145.18004 -33.671024 100.00747 9011832
144.69295 -33.444912 100.70293 8682867
165.83325 -32.554638 -16.90859 11576471
166.07281 -32.798042 -16.126333 9011320
166.38792 -32.843655 -15.349929 8089963
145.49918 -32.756069 100.14233 9998469
144.98012 -32.478294 100.90388 9866623
166.15747 -31.623505 -17.009129 9866371
166.3728 -31.932373 -16.22316 8682868
145.25876 -31.540287 101.09888 11314071
144.60616 -31.631098 101.8119 9471864
166.13782 -30.820971 -17.848757 9142386
166.47392 -30.801929 -17.055351 9471613
145.44772 -30.90377 101.23133 11709087
144.95784 -30.678345 101.9301 9800830
144.40608 -30.666208 102.58492 9998214
166.62219 -29.356012 -20.028484 9076855
166.68802 -29.558617 -19.021681 11248021
166.60356 -29.994081 -18.120777 11444629
166.75633 -30.17733 -17.408115 10655113
145.13168 -30.063126 102.31525 10261641
144.84686 -29.721079 103.07584 9537919
144.4444 -29.448032 103.92978 9208958
144.06984 -29.248209 104.71801 12432295
167.70073 -28.410389 -26.515474 10263180
167.82979 -28.676544 -26.039469 10196618
168.17567 -28.671976 -25.348709 10656657
166.90707 -29.039042 -22.708761 5920074
166.98552 -29.037928 -22.107176 8155499
167.20662 -29.052383 -21.115414 9602685
144.70033 -28.945278 105.44727 10261132
144.2916 -28.940182 105.94952 9143167
143.74585 -28.933727 106.61829 7564651
143.55801 -28.855049 110.84178 8946043
143.01967 -28.854752 111.52997 8814203
142.56546 -28.702538 116.91635 8155756
142.0056 -28.616661 117.50958 8748405
167.83713 -27.793804 -26.744015 10263180
168.205 -27.831936 -25.974072 10525583
142.08266 -27.72657 117.86304 8682355
167.73102 -26.731098 -27.762318 9931910
168.12238 -26.770578 -26.997082 9801092
168.3419 -27.213976 -26.202845 9736323
142.45073 -26.732492 118.02534 7169629
141.81918 -26.536343 118.63782 6511954
168.08228 -25.804354 -27.820744 9668738
168.50716 -25.755285 -27.059591 9010808
142.18797 -25.492109 118.82321 7301213
141.5724 -25.398924 119.37418 8879734
168.02106 -24.866852 -28.64192 7103835
168.36757 -24.941343 -27.951622 9339773
142.26471 -24.596849 119.17988 7958888
141.65132 -24.53433 119.71455 10458510
168.15671 -23.407204 -29.498392 11380380
168.37022 -23.786171 -28.820757 8682355
168.57166 -24.145351 -28.18038 9208184
141.99304 -23.69035 119.82887 10985367
141.37564 -23.598635 120.38054 10656402
172.54395 -22.797573 -49.004208 6511954
172.39047 -22.762003 -48.514671 6511954
172.15964 -22.708805 -47.783077 8090728
171.85052 -22.638384 -46.81192 7827820
171.5399 -22.568472 -45.845757 6511962
171.22786 -22.499071 -44.884663 7037274
170.91435 -22.430178 -43.928669 8813686
170.67827 -22.378817 -43.214668 8813686
168.42488 -22.765692 -29.878998 10919573
168.72739 -22.898895 -29.041319 8089963
142.06905 -22.792242 120.18748 11906725
141.45395 -22.731274 120.72288 9537408
170.52043 -22.34478 -42.740448 10063753
168.9059 -21.435745 -32.774063 11709345
169.00671 -21.569151 -31.88245 10854294
168.74536 -21.969292 -30.772251 10261900
168.9864 -22.093479 -29.922165 10985622
141.79816 -21.748346 120.90024 10261387
141.21951 -21.553928 121.46815 9603457
168.97807 -21.034998 -33.630638 9867398
169.3694 -21.061821 -32.862946 11709345
141.93341 -20.757994 121.25333 13024949
141.47105 -20.521297 121.74527 9801348
140.94661 -20.509541 122.18288 8419952
141.64145 -19.695425 121.9922 9933191
141.02019 -19.606705 122.54567 8946295
141.36183 -18.752731 122.66475 8222573
140.74318 -18.695028 123.20156 11379348
141.43912 -17.876156 123.01218 9471868
140.81606 -17.788685 123.56651 11445911
141.18469 -16.722672 123.76277 7893349
140.54259 -16.532766 124.38086 7959398
140.87653 -15.562073 124.64796 6709335
140.39249 -15.287493 125.30997 7564651
140.67674 -14.666487 125.68761 9143425
140.19499 -14.391575 126.35532 9143425
140.34062 -13.994992 127.72273 8945788
139.12828 -13.706944 135.4996 8945781
138.57867 -13.475621 136.27275 11445662
138.81526 -12.651434 136.50693 8484977
138.18385 -12.412399 137.20268 8089963
139.05429 -11.704003 136.7437 9406079
138.44341 -11.654408 137.32928 9142651
138.77419 -10.752156 137.45995 10392712
138.15862 -10.671015 138.065 7301470
138.84016 -9.7988462 137.85869 6971736
138.3194 -9.7974644 138.33813 6051148
137.85817 -9.5577402 138.87775 8092011
138.55952 -8.6982307 138.64706 5984842
138.09653 -8.6014061 139.11946 9868164
138.49153 -7.4826341 139.29539 9011320
138.57516 -6.6806264 139.60493 9011320
155.2505 -55.324036 47.779285 8353646
156.34668 -54.267204 42.207443 6709849
156.15207 -54.442741 43.231373 8617072
155.99835 -54.548744 44.13311 7038298
155.85791 -54.593258 45.107491 6840663
155.71646 -54.639721 46.08345 6510930
155.57423 -54.687901 47.060837 6774358
155.41551 -54.732613 48.035114 8945783
155.13803 -54.73777 48.972939 8221805
154.95448 -54.533726 49.735756 8682867
157.41005 -53.643185 35.661209 5919050
157.39981 -53.462841 36.256329 9866368
157.2657 -53.492218 37.222561 7958888
157.13086 -53.523319 38.189663 8024425
156.95752 -53.642822 39.205734 8550513
156.78902 -53.788471 40.109344 15064525
156.65192 -53.8251 41.079514 10262154
156.55621 -53.673393 42.264236 9735297
156.4174 -53.713753 43.237602 9801088
156.27763 -53.755966 44.21244 8617072
156.13713 -53.799892 45.188648 7958632
156.04106 -53.699108 46.231014 7760998
155.92337 -53.694538 47.16692 6905688
155.76292 -53.737942 48.142937 10326922
155.48167 -53.741898 49.081867 9076856
155.16573 -53.736073 50.009743 11050899
154.84929 -53.731876 50.937294 9011320
154.63959 -53.490574 51.818047 10064008
154.35094 -53.330345 52.838509 9471615
158.63989 -52.267418 28.787395 11379356
158.60844 -52.441719 29.438999 10261131
158.49478 -52.532749 30.338697 9603713
158.36514 -52.550976 31.30168 9340286
158.17572 -52.719791 32.30278 10064009
158.03374 -52.789715 33.214928 6051148
157.90198 -52.813263 34.179653 5524292
157.74286 -52.843746 35.338295 8287339
157.67938 -52.673702 36.320969 10129541
157.54521 -52.70269 37.28896 7103835
157.41029 -52.733322 38.257835 6775126
157.27466 -52.765812 39.227901 8419439
157.13834 -52.799969 40.19902 14472389
157.02332 -52.753262 41.235031 10854290
156.93318 -52.675613 42.163902 7958632
156.79445 -52.71505 43.139351 7958631
156.61644 -52.812031 44.257759 9801088
156.51837 -52.747326 45.211945 11446173
156.39297 -52.736683 46.226097 11116952
156.20273 -52.899586 47.251808 7892840
156.05171 -52.844162 48.335503 9076856
155.82541 -52.74572 49.190819 12037537
155.50871 -52.739948 50.120789 13287603
155.19156 -52.735794 51.050404 9669506
154.87378 -52.733418 51.97974 10261643
154.55551 -52.732635 52.908863 9340029
154.27571 -52.69368 53.768307 10261128
154.04892 -52.53635 54.605125 10788500
158.89609 -51.40789 27.651127 6511954
158.86127 -51.619686 28.51211 11050391
158.87 -51.717888 29.421862 9735043
158.77513 -51.745308 30.392513 7957865
158.6454 -51.763294 31.357248 6380113
158.51486 -51.783062 32.322674 7038043
158.38371 -51.804363 33.288738 7301215
158.25175 -51.82753 34.255615 5392706
158.16249 -51.660168 35.432632 7827045
158.02902 -51.686848 36.401817 9340029
157.89478 -51.715355 37.371986 6511954
157.7599 -51.745476 38.343143 6709077
157.59209 -51.888577 39.249821 7432288
157.418 -52.008831 40.270863 9209467
157.30577 -52.001854 41.170792 10064519
157.21277 -51.883434 42.239338 7103067
157.12965 -51.906498 42.825405 6510930
155.71715 -52.041889 50.291718 10656656
155.46552 -51.938564 51.140923 9538433
155.21555 -51.736832 52.094933 10261643
154.89655 -51.736076 53.026146 8682097
154.57689 -51.737068 53.957153 10655628
154.20979 -51.796928 54.960869 12037796
153.97458 -51.630047 55.833092 10985623
153.68361 -51.451508 56.880795 9471871
159.1452 -50.541058 26.316219 8814201
159.10037 -50.796017 27.292763 7367008
159.18683 -50.725479 28.541157 7893351
159.22658 -50.73555 29.488119 6314319
159.1257 -50.760578 30.459837 5392706
158.99577 -50.778229 31.426722 5590085
158.83257 -50.909111 32.330761 7235166
158.66377 -51.015781 33.347805 8617075
158.53177 -51.038612 34.316429 6314064
158.46902 -50.865635 35.301468 6840408
155.3613 -50.938683 52.560326 9208443
155.16943 -50.938457 53.119976 7497567
154.91745 -50.739948 54.076584 9471355
154.59656 -50.742474 55.009583 9931906
154.27496 -50.746723 55.942535 10525073
153.9529 -50.752499 56.875511 9471871
153.62999 -50.76009 57.808617 9800836
153.3078 -50.670395 58.848221 11248022
159.52437 -49.266838 24.608376 7038307
159.42296 -49.655556 25.427586 10129801
159.43132 -49.758034 26.363712 9669508
159.45851 -49.816334 27.354408 7695461
159.5108 -49.814953 28.417915 6182478
159.51137 -49.938042 29.342619 6511954
154.99344 -50.14212 54.522018 8484461
154.8244 -50.010986 55.16103 8222833
154.55713 -49.863163 56.105515 8683642
154.29155 -49.754482 57.001259 9472128
153.96806 -49.761852 57.936428 10655886
153.64394 -49.770782 58.871689 12168866
153.31911 -49.781418 59.807228 9932420
153.06081 -49.593784 60.769798 10722450
152.80067 -49.506226 61.626259 11973030
159.75258 -48.382362 22.680464 8420208
159.72118 -48.582993 23.538755 7696229
159.68932 -48.78495 24.398064 6314836
159.76158 -48.723492 25.432541 10261642
159.78932 -48.778759 26.423063 9932421
159.80034 -48.870525 27.33403 9471616
154.49802 -48.956818 57.289223 11709860
154.26683 -48.803604 58.13422 11182229
153.98155 -48.771721 59.001678 9735297
153.65607 -48.782154 59.939304 10261384
153.32991 -48.79409 60.877136 11117466
153.00301 -48.807724 61.815331 12696753
152.74249 -48.622704 62.781586 12104616
152.52058 -48.397827 63.679581 12169897
152.21831 -48.257153 64.718018 8090986
159.9626 -47.686695 21.795309 7564899
159.96089 -47.786911 22.513952 6183246
160.02278 -47.755512 23.561007 7367264
160.0912 -47.691868 24.49901 5920074
160.07727 -47.853424 25.426498 9275260
160.00449 -48.190884 26.458714 8419184
154.11917 -48.173847 59.267456 8090987
153.88625 -48.023045 60.114937 10261386
153.66658 -47.793755 61.011475 10261646
153.33904 -47.807114 61.951763 11183515
153.07794 -47.621658 62.920162 9407105
152.74876 -47.638092 63.861694 11314845
152.41891 -47.656002 64.803764 10130571
152.12804 -47.633823 65.676773 8222571
151.88988 -47.491619 66.530273 7761762
160.45406 -46.283085 18.857115 9538433
160.4648 -46.305752 19.445457 11512223
160.33083 -46.611214 20.463556 9538433
160.31104 -46.770092 21.581408 9866883
160.3363 -46.81546 22.56698 8551537
160.35661 -46.856583 23.441412 8025450
160.37178 -46.898754 24.344702 5920074
153.60806 -47.006027 62.060921 10261646
153.37254 -46.85849 62.912426 8815227
153.02986 -46.875141 63.893181 9933450
152.85165 -46.610027 64.825775 8618105
152.44174 -46.727608 65.845528 6183246
152.16858 -46.643284 66.777847 5656900
151.83951 -46.576412 67.673752 8682863
151.50543 -46.296593 68.54686 10656139
160.94832 -45.490726 16.566504 7301470
160.83382 -45.701958 17.53191 8946295
160.85339 -45.737675 18.513124 10459278
160.87206 -45.7747 19.495684 10985879
160.8896 -45.813225 20.479959 8222573
160.77295 -46.038784 21.644499 10064262
152.88921 -45.928688 66.094933 5920074
152.61763 -45.943432 66.851326 6182988
152.37784 -45.771576 67.842171 9932416
151.97009 -45.670868 68.695648 9735814
151.46779 -45.665417 69.558105 8354165
151.22215 -45.528637 70.181091 8485494
162.13557 -44.377468 9.8261023 9537402
162.19719 -44.407074 10.612821 9274746
162.19951 -44.425388 11.592022 9735812
162.18764 -44.445469 12.767049 8946296
161.73769 -44.599415 13.591124 6905688
161.57428 -44.752148 14.672066 6643286
161.33318 -44.925915 15.627688 7104091
161.35538 -44.958435 16.609304 7498849
161.3766 -44.992237 17.592337 7697002
161.32678 -45.112862 18.470316 9933706
161.27618 -45.234592 19.348846 10262414
152.17065 -45.193295 69.071304 9933193
151.98637 -44.957218 69.738968 9538692
151.49394 -44.901165 70.752411 8748665
151.4037 -44.593506 71.690033 9405566
151.17198 -44.465809 72.608246 9471359
151.14227 -44.308708 73.628357 9734787
150.8934 -44.199497 74.724976 9932934
165.1571 -43.416901 -6.8567705 10458505
165.25122 -43.650471 -6.0650244 10590090
165.46004 -43.695499 -5.0774641 7038298
165.51187 -43.922237 -4.4818945 10853012
164.24545 -44.009144 -2.0846322 9932678
164.25139 -44.007507 -1.0984452 8089963
164.25104 -44.005882 -0.11216277 8418928
164.24515 -44.004261 0.87405664 10853012
164.23282 -44.002655 1.8602359 9669251
164.21504 -44.001053 2.8463314 7762277
162.60118 -44.03355 6.9175901 8419702
162.67915 -44.06356 7.7046671 9932168
162.77455 -44.101757 8.6898222 9340289
162.86708 -44.140907 9.6767702 7827299
150.57771 -44.128151 75.700775 10261899
150.7002 -43.936565 76.675774 10656657
150.20613 -43.928181 77.565369 10195849
149.80919 -43.922077 78.275879 10392461
150.19881 -43.893909 81.036118 10591121
149.90298 -43.893478 81.576591 9340542
149.40543 -43.892773 82.474945 9866371
148.90288 -43.892078 83.370468 9866883
149.09843 -43.886475 86.579872 9932680
148.57117 -43.885822 87.47348 10195339
148.14534 -43.885307 88.185982 7630187
148.30766 -43.793915 90.724831 9932678
147.9257 -43.51775 91.324875 9340797
147.42577 -43.533592 91.900467 9209467
165.2816 -42.589127 -7.658103 9933705
165.33441 -42.812695 -7.0633268 9143419
165.54402 -42.855549 -6.0760241 9669503
165.63831 -43.089756 -5.2823763 6511954
148.15962 -42.764683 91.470207 10195850
147.48088 -42.644501 92.33046 9603970
165.46671 -41.349934 -8.8630342 9210491
165.51826 -41.730732 -8.018199 9407361
165.71806 -41.822357 -6.9944925 8354166
165.72182 -42.250233 -6.282197 8090995
148.21547 -41.87381 91.900146 10064520
147.87297 -41.643795 92.42852 10262155
147.29024 -41.554714 93.159401 9144190
165.58923 -40.525269 -9.6681662 15722462
165.64325 -40.746128 -9.0722628 12433580
165.85471 -40.784233 -8.084693 8551800
166.02757 -40.887383 -7.1602545 8683386
148.06067 -40.589031 92.794991 11314844
147.51659 -40.563469 93.445633 9670533
146.97276 -40.538631 94.095459 9736071
165.82018 -39.71962 -9.9674864 13354683
166.05072 -39.758713 -8.8947535 10657171
166.15115 -40.059254 -7.9660769 9012347
147.84383 -39.798424 93.487778 9538432
147.22971 -39.700039 94.260818 11906720
146.74927 -39.466908 94.952362 13551287
165.96037 -38.729607 -10.891431 9605250
166.11195 -38.853035 -10.099675 10065801
166.33508 -38.819302 -9.1776476 10460559
147.5145 -38.77021 94.444183 9867140
147.00269 -38.485355 95.201096 10656655
146.58763 -38.185272 95.853355 9209467
165.98366 -37.842354 -11.695188 10263180
166.26291 -37.892288 -10.911542 9736836
166.45683 -37.993847 -9.9873266 9736836
147.3261 -37.576244 95.327705 9669761
146.7094 -37.481209 96.101936 10064777
166.24557 -36.775928 -12.065423 9866626
166.54922 -37.023434 -11.064778 10590864
147.38177 -36.939377 95.616302 9077371
146.99316 -36.668873 96.221184 10392718
146.48753 -36.692822 96.7994 7564651
166.31943 -35.740795 -12.845283 10984591
166.6658 -35.841732 -11.945178 9537918
166.82571 -36.081528 -11.352031 8682867
147.22112 -35.796421 96.439079 10261133
146.61057 -35.63261 97.24437 7959408
146.38516 -35.198864 97.748978 7564651
166.41328 -34.531261 -13.738952 9537664
166.65248 -34.780869 -12.951856 9800834
166.89175 -35.031864 -12.163447 11379348
147.33698 -34.804855 96.854286 9735046
146.98846 -34.579449 97.387207 8353909
146.36891 -34.516407 98.147034 8419697
166.47667 -33.487644 -14.550889 9011320
166.57639 -33.839828 -13.99451 8748405
166.95361 -33.772095 -13.177661 9537664
147.10648 -33.729187 97.721344 8682867
146.5981 -33.755692 98.301476 11248278
146.20624 -33.487579 98.908798 10261641
166.6248 -32.878574 -14.765811 8880247
167.01929 -32.867172 -13.85683 8024681
146.91141 -32.761227 98.487274 13090223
146.32251 -32.636887 99.2453 10261385
145.89748 -32.197723 99.98645 10458761
166.68301 -31.626062 -15.781812 8419696
166.92438 -31.870131 -14.994859 9011321
167.16573 -32.115562 -14.206632 7695973
146.71132 -31.650133 99.338516 8879990
146.08749 -31.561651 100.1174 10327178
166.75876 -30.58849 -16.598686 7564643
166.97043 -30.783857 -15.890092 8814198
167.26576 -30.971306 -15.025889 9537667
146.83148 -30.939629 99.592651 9340286
146.34128 -30.712254 100.29238 9208955
145.71635 -30.625051 101.07188 9998209
167.29382 -29.426355 -17.869465 13878973
167.25394 -29.828323 -16.937029 9866374
167.39784 -30.156103 -15.950711 10261132
146.64662 -30.097311 100.50317 8419696
146.22179 -29.88389 101.25074 9603455
145.85707 -29.540524 102.12915 11379863
145.42064 -29.267515 103.04707 8682867
168.45183 -28.702316 -24.769384 9932934
168.82076 -28.743443 -23.994982 9932934
167.57861 -29.089159 -19.936184 9669248
167.9485 -29.127029 -18.753269 13879741
145.78766 -28.96027 104.10468 9735297
145.10846 -28.950724 104.94443 8617080
144.88927 -28.855841 109.10995 8616563
144.22609 -28.85544 109.97775 9143419
143.95819 -28.847414 115.09155 9603714
143.35051 -28.748266 116.02814 9537409
143.10539 -28.432806 116.68913 8418928
168.48152 -27.861029 -25.395172 11380380
168.82942 -27.855839 -24.700796 10196106
168.95903 -28.123755 -24.222263 9932934
143.75157 -28.008852 116.35504 9340030
143.12131 -27.76248 116.99005 9800581
168.72202 -26.777792 -25.794924 10590351
169.05797 -26.970469 -24.963245 9998470
143.49203 -26.767317 117.15074 10195337
142.97571 -26.548233 117.679 7761764
168.77966 -25.710737 -26.548641 9010808
169.08513 -25.852688 -25.819628 11642266
143.11418 -25.565845 118.02557 7169883
142.77211 -25.285835 118.43867 8287850
168.70192 -24.719671 -27.507519 9931910
169.0797 -24.806486 -26.682957 8550257
169.29382 -25.196259 -25.935305 10129798
143.3096 -24.628069 118.30432 6511954
142.78697 -24.612335 118.74239 8682608
175.01782 -23.404068 -57.269989 8617073
168.96072 -23.814594 -27.716991 9602682
169.30177 -23.844175 -27.021103 9537149
142.92174 -23.761524 119.03033 8945781
142.57843 -23.481676 119.44432 9143424
174.72386 -23.32859 -56.248714 8288109
174.42827 -23.25367 -55.232819 10064009
174.13097 -23.179268 -54.222347 6511954
173.83205 -23.105425 -53.217213 6775130
173.53151 -23.032141 -52.217438 7038307
173.22943 -22.95937 -51.22287 6972254
172.92574 -22.887108 -50.233627 7498593
172.69696 -22.833244 -49.494843 6511954
169.07045 -22.788139 -28.542654 8484459
169.38815 -22.924469 -27.703686 9010544
143.23572 -22.710854 119.26443 8353910
142.66533 -22.672792 119.75221 10327440
169.40364 -21.461794 -31.3951 9142907
169.66971 -21.475143 -30.601833 9866885
169.57721 -21.728207 -29.605928 10261643
169.52133 -22.105492 -28.813442 9076595
169.72391 -22.286947 -28.093304 8681835
142.89769 -21.595194 120.06616 10458768
142.32639 -21.558262 120.55422 10985367
169.66325 -21.082262 -32.285847 13551549
170.08072 -20.975346 -31.800537 9406848
170.20064 -21.117899 -31.118338 10262671
142.98453 -20.783108 120.37553 11379356
142.63942 -20.503036 120.79121 10919317
142.05861 -20.308521 121.36096 13024949
142.77341 -19.644842 121.08333 9077369
142.15073 -19.555452 121.63828 10525328
142.78683 -18.964039 121.39153 6510930
142.44054 -18.683969 121.80824 8748661
141.85802 -18.490353 122.37898 9341054
142.57411 -17.822348 122.10231 7893352
142.13406 -17.494865 122.61847 7827557
142.2637 -16.600609 122.93105 8813937
141.7178 -16.438889 123.45663 9471867
142.43561 -15.766031 123.18086 10458505
141.98175 -15.49014 123.80865 8879730
141.44632 -15.303115 124.42614 6511954
142.4066 -14.870824 124.06083 8485229
141.82964 -14.638108 124.76544 6314833
141.25191 -14.405993 125.47021 7564651
142.07848 -14.014689 126.20982 6840663
141.38324 -14.006635 126.81583 10195855
140.5284 -13.821668 133.92404 9076856
140.03409 -13.594576 134.74797 11511194
139.67149 -13.365004 135.37573 9341054
140.4828 -12.8958 134.85591 10591121
139.85188 -12.655865 135.55167 9143163
140.0627 -11.826742 135.75735 8354159
139.53587 -11.626658 136.33813 8090219
140.27406 -10.995597 135.96359 8090987
139.64096 -10.755045 136.66162 8616562
139.97763 -9.8818541 136.77277 9012089
139.36099 -9.8003292 137.37904 8156008
140.06335 -9.0853853 137.0778 9735812
139.66231 -8.6050014 137.67801 6971736
139.08325 -8.4837408 138.26889 6182221
139.72971 -7.6454515 138.07845 8616302
139.38382 -7.3560538 138.53595 8024425
138.80402 -7.1626015 139.16226 9011320
139.50858 -6.4409518 138.86221 9669506
138.88815 -6.35956 139.47188 9603713
139.22592 -5.4741764 139.58797 9142906
139.46797 -4.5051131 139.83238 9932678
139.11748 -4.5047259 140.15486 9603970
139.35974 -3.5326436 140.40059 9143419
156.34245 -52.501995 47.294235 7893099
156.22806 -52.540428 48.081467 8089963
157.73695 -51.388416 39.5452 7037274
157.62776 -51.415298 40.32476 9472125
157.49057 -51.450455 41.300301 9143162
157.35263 -51.487206 42.277016 7760997
157.14674 -51.687557 43.31797 8221548
157.00435 -51.764374 44.214867 10261130
156.86392 -51.806568 45.195435 8879478
156.79262 -51.651657 46.198112 9274492
156.65051 -51.697186 47.18227 9340799
156.46674 -51.802601 48.243568 8156526
156.23409 -51.700184 49.165436 10392972
155.9597 -51.504475 50.183998 11643295
155.67107 -51.340431 51.208839 9538433
158.97908 -50.407318 32.616726 6708566
158.87393 -50.42411 33.392075 9735812
158.74181 -50.446693 34.362053 7300959
158.53575 -50.607506 35.516464 7761510
158.40895 -50.656841 36.369278 6511955
158.24469 -50.727558 37.455139 6774870
158.10985 -50.757153 38.428493 6774614
157.97408 -50.788567 39.403027 7892838
157.83766 -50.82151 40.378654 10392969
157.77036 -50.658157 41.373962 8156267
157.63235 -50.694366 42.352486 6905688
157.49356 -50.73243 43.332478 7432289
157.35396 -50.772079 44.313766 9998216
157.2135 -50.813503 45.2966 9077114
157.14224 -50.657742 46.301579 9866629
157.00011 -50.702465 47.287994 8354161
156.85724 -50.748829 48.276016 7367271
156.57695 -50.753151 49.222111 8288114
156.20703 -50.786434 50.26384 11512223
155.92865 -50.702618 51.169178 9538433
155.59669 -50.699989 52.140213 9209212
155.30598 -50.539516 53.166962 7497567
159.64459 -49.520355 28.97024 5919050
159.60509 -49.690029 29.62459 7497312
159.47644 -49.775295 30.527178 5853001
159.34641 -49.792599 31.496252 6115917
159.21559 -49.811619 32.466 6577236
159.08417 -49.832203 33.436455 6841176
159.02213 -49.657063 34.42292 8551538
158.88942 -49.680855 35.395412 7300959
158.75598 -49.706379 36.368904 6840664
158.59491 -49.739151 37.538292 7761509
158.45988 -49.768211 38.513916 9406075
158.32411 -49.79903 39.490669 10327177
158.18764 -49.83139 40.468536 14077630
158.12032 -49.667297 41.466106 8288365
157.9823 -49.702869 42.446877 6905944
157.84337 -49.740227 43.429115 6511442
157.70381 -49.779114 44.412704 7103835
157.56339 -49.819817 45.397831 9011320
157.4221 -49.862091 46.384369 9801349
157.21002 -50.105309 47.351509 8946296
157.06691 -50.151039 48.340786 8485747
156.81325 -49.994297 49.379654 8879735
156.60272 -49.749302 50.267059 10130058
156.28345 -49.745049 51.202881 12170153
155.91664 -49.799252 52.212013 9274493
155.64441 -49.691395 53.126404 8550514
155.29126 -49.692177 54.155304 7234396
155.04872 -49.478233 55.101212 9406849
154.81474 -49.348473 55.928459 8092019
159.97139 -48.46666 27.838863 8419184
159.92126 -48.710377 28.623602 6905945
159.93697 -48.76778 29.620079 8813680
159.82744 -48.78933 30.594566 6839894
159.69724 -48.806313 31.565783 5853001
159.56635 -48.824959 32.537754 6380369
159.43481 -48.845139 33.510368 6380369
159.37288 -48.669552 34.499119 8090987
159.24007 -48.692879 35.473824 8287598
159.10649 -48.717976 36.449497 6314576
158.97227 -48.744522 37.426075 6577747
158.8373 -48.772812 38.403755 11182228
158.60429 -49.006958 39.560829 9735040
158.46773 -49.038837 40.540459 11972256
158.33038 -49.072479 41.521404 8814195
158.19232 -49.107677 42.503532 8419695
156.55803 -48.946407 51.293232 11116954
156.30618 -48.743946 52.253464 13353147
155.98509 -48.742939 53.190895 9011065
155.66353 -48.743401 54.128166 8550513
155.34132 -48.745567 55.065361 9341314
154.96626 -48.789738 56.109955 9538950
154.72916 -48.654644 56.952156 11249309
154.50385 -48.560005 57.714821 11709855
160.26898 -47.363361 25.711174 8090987
160.21985 -47.602715 26.494495 7695979
160.19237 -47.802853 27.431131 8090219
160.28059 -47.727745 28.688139 5919050
160.29251 -47.782795 29.686132 8089958
160.17871 -47.802666 30.66201 5919050
160.0484 -47.819302 31.635424 6906201
159.89543 -47.934559 32.504913 6643541
159.7157 -48.055099 33.569595 6972762
159.58344 -48.076717 34.544853 7038555
159.4772 -48.095028 35.325596 6511954
156.19028 -48.143501 53.261208 8616307
155.93663 -47.944096 54.223579 8418926
155.68208 -47.746258 55.186668 7761767
155.35863 -47.749798 56.12587 8947327
155.03458 -47.755028 57.065102 9078655
154.66273 -47.81953 58.077599 11314841
154.42323 -47.65572 58.95871 9012088
154.17039 -47.512394 59.856041 11905952
153.99765 -47.386192 60.500725 10261646
160.53481 -46.496204 23.974848 7367264
160.48941 -46.6553 24.625992 5920074
160.48096 -46.765503 25.547421 6249042
160.57382 -46.708691 26.593014 7301478
160.61308 -46.729942 27.503416 8879994
160.55197 -46.975761 28.657068 5919050
160.51845 -47.184677 29.528425 7366237
155.82536 -46.947449 55.660164 8287338
155.63087 -46.949764 56.224686 13551549
155.37422 -46.754719 57.190697 10460048
155.0489 -46.761246 58.132118 10789012
154.7229 -46.769409 59.073677 8946812
154.39633 -46.779007 60.015411 14997965
154.17148 -46.600262 60.998306 9669510
153.88873 -46.533745 61.916664 9669767
153.6851 -46.335957 62.847168 9801350
153.37474 -46.258392 63.908157 8618105
161.30145 -45.288071 20.730383 11314072
161.18195 -45.505894 21.700531 10064262
161.06111 -45.724957 22.670561 9011574
161.0755 -45.76791 23.661079 7827299
161.03363 -45.881718 24.604986 5920074
160.96413 -46.036369 25.625397 6906972
160.83624 -46.252247 26.398455 7038307
155.30223 -46.195869 58.441174 11709855
155.03859 -46.201797 59.19519 9275777
154.83757 -46.027859 60.188332 14997964
154.63486 -45.855282 61.183128 7564651
154.43086 -45.683525 62.17979 8748663
154.09723 -45.73167 63.038612 9538176
153.82648 -45.671764 63.967529 8881020
153.42334 -45.725468 65.015785 7828589
153.15048 -45.679874 65.917206 5920074
152.93784 -45.48526 66.992767 6380368
152.83913 -45.21994 67.828827 9801347
162.15227 -44.489311 15.1198 7039331
162.14082 -44.501106 15.708714 8618105
162.30617 -44.461159 16.611523 10262156
162.09566 -44.542538 17.673063 8092019
161.85605 -44.681488 18.709826 8684155
161.66771 -44.87151 19.840612 10261901
161.78732 -44.77396 20.794119 14011843
161.5914 -44.971394 21.756578 11774366
161.60768 -45.012318 22.748766 9406331
161.61693 -45.037567 23.344818 7367005
154.21445 -45.157482 64.043182 8617589
153.94037 -45.050812 65.091125 9670277
153.66704 -45.004745 65.995216 8090987
153.39255 -44.959743 66.900269 6841176
153.20631 -44.773087 67.993256 10327436
152.95029 -44.648865 68.851219 10459279
152.6011 -44.506332 69.934883 8355190
152.74345 -44.31192 70.893867 9472642
152.43893 -44.237255 71.870857 9866630
151.95834 -44.224564 72.764549 10063753
165.65877 -43.524311 -4.4859304 10853012
165.71062 -43.751698 -3.8894436 10853012
165.91173 -43.79821 -2.8967011 10524557
165.97926 -43.884396 -1.9673798 11906721
165.89323 -44.004635 -0.90381736 10261643
164.19092 -43.999466 3.8322723 8287859
164.15442 -43.997574 5.0152464 9142910
164.11768 -43.996002 6.0007849 10260875
164.0746 -43.994442 6.9860964 8616307
164.02592 -43.992893 7.9711313 8879995
163.97099 -43.991356 8.9558916 9274487
163.91051 -43.989826 9.9402323 6643539
163.30708 -44.103333 10.807448 6775125
162.93431 -44.195999 11.843997 9735812
162.92427 -44.212826 12.827821 7169116
162.91173 -44.230434 13.812141 6510930
162.89627 -44.24902 14.797158 7039331
162.87825 -44.268391 15.782855 8618105
152.65442 -43.978794 73.101418 9734531
152.26634 -43.96925 73.818298 9142651
151.68178 -43.955948 74.891731 9341054
151.29041 -43.947781 75.606224 9209467
151.74347 -43.896301 78.135765 7565667
151.36221 -43.895695 78.863503 12300453
150.88139 -43.894939 79.770836 8089963
150.4926 -43.894348 80.494568 8683124
150.64853 -43.888523 83.880722 11379607
150.1371 -43.887829 84.78347 9735297
149.62068 -43.887142 85.683342 9735297
149.73508 -43.862164 88.896667 7038307
149.31964 -43.638294 89.625 8221549
148.7106 -43.532646 90.39904 10853268
165.89293 -42.714939 -4.7774572 7103835
166.0786 -42.755672 -3.8983338 8682355
166.21104 -42.92976 -3.035455 10787985
149.47151 -42.865181 89.880127 7958376
148.99965 -42.724987 90.510002 9405822
148.56326 -42.5308 91.128403 11379356
165.97284 -41.445633 -6.4918127 8090995
165.99033 -41.791309 -5.8531599 8288372
166.19299 -41.796444 -4.9575834 7695978
166.40842 -41.821899 -3.9730599 7301473
149.27148 -41.777145 90.718445 8089962
148.68803 -41.685261 91.45211 9406846
148.41023 -41.24506 92.021576 10262155
166.18915 -40.776165 -6.6337843 8354422
166.31963 -40.872929 -5.9050264 7827823
166.49928 -40.952076 -4.9899626 8945788
149.35741 -40.867172 91.123444 9209467
149.01389 -40.636108 91.653625 9735811
148.46904 -40.608879 92.306137 12104360
166.37479 -39.532902 -7.8433657 9933189
166.47517 -39.834949 -6.9125566 9275264
166.65242 -40.011086 -5.8503199 9011581
149.20757 -39.863434 91.856171 10853268
148.59253 -39.762405 92.631882 11643809
148.11171 -39.526779 93.325218 10262155
166.49763 -38.705444 -8.6516676 8617587
166.66971 -38.763351 -7.8038626 8946038
166.80573 -38.936653 -6.9265585 9537918
149.00087 -38.800201 92.688583 9406846
148.37071 -38.685982 93.48925 9472383
147.9532 -38.241344 94.224541 9537662
166.68039 -37.466133 -9.8669367 9736836
166.78258 -37.764317 -8.9346361 10656398
167.01021 -37.855377 -7.79004 10984849
148.73669 -37.677998 93.620949 9800577
148.10521 -37.565559 94.422195 10392457
166.80144 -36.641056 -10.679109 10130313
166.97755 -36.737953 -9.7504854 8946039
167.19235 -36.771549 -8.755496 9998212
167.2477 -36.992596 -8.1539736 9537918
148.88954 -37.001053 93.818146 9537662
148.40561 -36.767097 94.514221 11904926
147.78714 -36.671001 95.291161 9602942
166.97845 -35.683105 -11.362544 8682867
167.05545 -35.905895 -10.762763 9998727
167.31523 -35.785728 -9.8210135 10196106
167.36974 -36.16415 -8.9667101 8682867
148.55136 -35.989639 94.77549 11904926
148.1613 -35.635925 95.428291 9734014
147.62404 -35.38443 96.196518 10457738
167.19301 -34.809273 -11.665856 9406333
167.42198 -34.904613 -10.786746 9538176
167.55176 -34.923077 -10.188857 10459278
148.3647 -34.628204 95.750084 9734014
147.8139 -34.608105 96.405579 9734014
147.46524 -34.382221 96.939018 10853012
167.19106 -33.809505 -12.589871 7695973
167.5056 -33.85973 -11.803456 10326151
167.6723 -34.096539 -11.005527 9142392
148.42065 -33.988216 96.040108 7563619
148.0714 -33.761776 96.574509 10260101
147.51993 -33.742878 97.230164 9734785
167.33116 -32.562138 -13.410403 11379356
167.54936 -32.746151 -12.732728 8419439
167.73509 -33.047443 -12.022733 10260358
148.26169 -32.983196 96.784325 9602945
147.76346 -32.742184 97.501068 10458509
147.35246 -32.453957 98.141983 11050900
167.52411 -31.703543 -13.750367 8748408
167.87563 -31.797186 -12.844979 9406078
