# .PCD v0.7 - Point Cloud Data file format
VERSION 0.7
FIELDS x y z rgb
SIZE 4 4 4 4
TYPE F F F U
COUNT 1 1 1 1
WIDTH 1182
HEIGHT 1
VIEWPOINT 0 0 0 1 0 0 0
POINTS 1182
DATA ascii
4.4720058 -64.987114 -120.97643 9603713
5.5189018 -64.838364 -120.93014 9208187
6.4706736 -64.783501 -120.85853 9931910
7.5389271 -64.634377 -120.81032 10657172
8.4029703 -64.619904 -120.73232 11249052
-56.421787 -63.641613 -122.676 12432037
-55.316441 -64.128769 -122.7887 10590865
-54.339481 -64.227287 -123.01632 9274748
-53.380783 -64.173363 -123.29776 6841183
-52.519367 -64.422905 -123.43569 8616822
-5.2325201 -64.527817 -122.08092 8092019
-4.3533535 -64.472343 -122.01651 8552312
-3.2724552 -64.279625 -121.98309 10459022
-2.4547131 -64.201721 -121.93286 9471100
-1.4335228 -64.147888 -121.85416 7366750
-0.41453111 -63.938122 -121.83295 7367006
0.64563453 -63.981529 -121.71479 8551281
1.5917971 -64.106163 -121.57778 7564643
2.6357651 -64.13028 -121.46825 8683640
3.6496475 -64.095413 -121.3833 9998985
4.5178766 -64.068634 -121.30941 9537665
5.5299206 -64.041023 -121.22197 9405566
6.541153 -64.017006 -121.13328 11247768
7.5516453 -63.996975 -121.04317 11511450
8.5615835 -63.980553 -120.95187 10327950
9.5709343 -63.968094 -120.85909 10065549
10.541447 -63.868534 -120.80207 13092281
11.593792 -63.795109 -120.72759 11052185
12.533568 -63.714218 -120.66671 9077625
13.473668 -63.636574 -120.60458 10196106
-57.231617 -62.888317 -122.74624 7630186
-56.347969 -63.114395 -122.8993 10261901
-55.380466 -63.220634 -123.12135 13618111
-54.474575 -63.203281 -123.37433 12170666
-53.76469 -63.460667 -123.46807 8092019
1.7677488 -63.365704 -121.83279 8091504
2.6397419 -63.333328 -121.76061 8092019
3.6933935 -63.178291 -121.71596 9209985
4.5281343 -63.113194 -121.65936 9208699
5.5430822 -63.085907 -121.57154 8813429
6.5572367 -63.062191 -121.48246 10129543
7.5706635 -63.042347 -121.39202 9735297
8.5834818 -63.026131 -121.30034 8879990
9.5957947 -63.01379 -121.20726 9999242
10.607702 -63.004978 -121.11292 12302766
11.619355 -63.00013 -121.01717 10591120
12.630797 -62.998802 -120.92012 9603969
13.554257 -63.032776 -120.8186 9538176
14.549677 -62.977871 -120.74276 9866627
15.486349 -62.975658 -120.65326 9866367
16.54002 -62.870071 -120.59043 7235677
17.484325 -62.806091 -120.52291 9340538
18.429369 -62.745296 -120.45409 9011574
-58.346313 -61.926449 -122.81395 11445658
-57.485706 -61.978844 -123.02774 9208958
-56.392834 -62.171307 -123.25065 8287600
-55.527302 -62.288177 -123.44088 10327437
-54.861645 -62.491482 -123.54343 12038823
5.8423176 -62.44289 -121.77888 8681843
6.5679674 -62.426567 -121.7149 9208698
7.6821823 -62.299423 -121.65417 9472126
8.6017485 -62.232109 -121.59023 9208955
9.6594095 -62.089722 -121.54056 10327436
10.635401 -62.052605 -121.46008 9472385
11.561929 -62.079739 -121.36079 9209468
12.559909 -62.017628 -121.28735 9735555
13.533735 -62.048302 -121.18217 9077369
14.548077 -62.053993 -121.08229 9077370
15.562538 -62.063202 -120.98107 10261129
16.577309 -62.076244 -120.87847 10129541
17.592388 -62.092819 -120.77448 9143160
18.608 -62.113258 -120.66905 9603713
19.656769 -62.074482 -120.58215 7893615
20.481585 -61.905888 -120.56456 9670023
21.49501 -61.843903 -120.48959 9012345
22.562643 -61.749619 -120.42126 8618099
23.36895 -61.696701 -120.3556 9275261
-60.089603 -60.782238 -122.78115 7959144
-59.253895 -60.966759 -122.93718 7959144
-58.345226 -61.034004 -123.16118 10853521
-57.310795 -61.09832 -123.41794 9406333
-56.508694 -61.446156 -123.49866 8813942
11.670318 -61.413601 -121.59498 9275520
12.630836 -61.349171 -121.52602 10459278
13.563704 -61.255917 -121.47035 10129802
14.642538 -61.166946 -121.399 8682612
15.604323 -61.112278 -121.32636 8551026
16.622007 -61.12513 -121.2235 10129545
17.648537 -60.98518 -121.18082 8814196
18.52182 -61.001572 -121.08932 11906467
19.513763 -60.991734 -120.99567 10196367
20.570389 -60.89156 -120.92881 10656660
21.591799 -60.92197 -120.81892 9603458
22.614182 -60.955963 -120.70787 9078138
23.590893 -61.008629 -120.56481 8287598
24.34827 -60.689533 -120.41152 10260871
-62.349289 -59.766407 -122.94484 10064264
-61.36525 -59.911892 -123.12332 9406334
-60.418884 -60.101246 -123.20709 9538176
-59.466061 -60.2038 -123.36922 6906712
-58.55204 -60.285988 -123.55123 8880245
-57.404915 -60.594471 -123.61687 9537918
16.80036 -60.503784 -121.45844 10261132
17.091488 -60.507664 -121.4276 9340286
19.597857 -60.271965 -121.34753 11051418
20.620041 -60.295101 -121.23256 10524817
21.568443 -60.207264 -121.20127 9340029
22.537382 -60.206921 -121.10765 9800837
23.612234 -60.135395 -121.05289 8485237
24.575155 -60.057095 -120.80112 11181972
25.47963 -59.783611 -120.67324 11643035
26.34403 -59.701748 -120.28071 9867395
-71.249138 -58.872211 -123.14188 7498857
-70.33007 -58.993622 -123.48364 7695201
-69.447548 -59.132389 -123.77043 6971478
-68.400497 -59.331104 -123.41307 6577747
-67.454491 -59.330093 -123.5677 9604734
-66.526634 -59.339024 -123.27976 7631458
-65.266418 -59.371944 -123.41778 9341054
-64.22731 -59.468555 -123.24335 14407626
-63.457535 -59.497814 -123.35332 8419952
-62.49202 -59.528469 -123.5112 8814710
-61.874554 -59.503048 -123.76148 8814710
25.950352 -59.493702 -120.90878 13551541
26.609726 -59.399155 -120.88619 8748916
27.55171 -59.338364 -120.63058 8617073
28.493484 -59.256168 -120.44112 10129289
29.651972 -59.200375 -120.5163 9734531
30.450218 -59.199512 -120.65608 9668995
31.506823 -59.198074 -120.58952 8813686
32.513943 -59.196384 -120.32475 8090219
33.480587 -59.195332 -120.47263 7761509
34.594898 -59.194038 -120.57175 8418923
35.601749 -59.192291 -120.28098 5919050
36.578304 -59.191254 -120.4079 7696229
37.558456 -59.190166 -120.52703 8090730
38.564754 -59.188381 -120.21085 9143418
39.550747 -59.187256 -120.31813 8418928
40.540321 -59.186161 -120.41656 9142651
41.545643 -59.184368 -120.0757 10261385
42.510624 -59.183357 -120.25948 9472381
43.653938 -59.144897 -120.33305 8617074
44.563507 -58.980495 -120.19605 8617331
45.554508 -58.809452 -119.96207 7433056
46.272736 -58.621563 -119.69685 6511954
-72.051682 -57.817539 -123.15596 9933705
-71.296455 -58.035469 -123.44673 7827821
-70.459213 -58.064747 -123.85238 8155492
44.838566 -58.242393 -120.53059 8617331
45.57037 -58.030857 -120.26839 8354159
46.505131 -57.900803 -119.87697 7433056
47.23735 -57.617939 -119.64331 8616307
-72.406067 -56.989937 -123.30422 8222835
-71.455833 -57.142391 -123.71785 7038307
-70.812477 -57.304798 -123.97458 8681835
45.842834 -57.09782 -120.51509 8222573
46.581478 -57.021008 -120.19535 8419952
47.519131 -56.890179 -119.80288 8090731
48.205368 -56.618713 -119.58647 7563619
-73.197449 -56.02636 -123.28812 7892584
-72.321129 -56.179714 -123.66454 8747637
-71.567352 -56.517502 -123.90751 7498600
46.689541 -56.125187 -120.50513 8814710
47.549801 -56.020069 -120.13908 8090987
48.48904 -55.892529 -119.74451 8617591
-74.105705 -55.007603 -123.23541 10787988
-73.343849 -55.222935 -123.53053 8484977
-72.502243 -55.317673 -123.91264 8221549
47.659809 -55.125332 -120.44746 9669506
48.563805 -54.992744 -120.07174 9603714
49.467449 -54.862782 -119.69505 9341570
-81.103798 -54.063957 -124.01302 7039331
-80.378662 -53.976418 -124.20363 7827818
-76.063675 -53.669201 -123.32985 9405822
-75.38562 -53.858829 -123.3898 9669250
-74.374802 -54.17178 -123.56538 11380125
-73.547668 -54.273666 -123.86802 10787732
-72.857613 -54.490658 -124.06017 10853012
48.633514 -54.129421 -120.38659 8682867
49.53912 -53.99984 -120.00887 9472640
50.444462 -53.872875 -119.63015 8420976
-76.958138 -53.372459 -123.77087 7038298
-76.305618 -53.31002 -123.84747 9340542
-75.36084 -53.490841 -123.84494 12433069
-74.621216 -53.589054 -123.96809 11577760
49.661327 -53.109226 -120.30984 8814965
50.560516 -52.980381 -119.93481 8289134
51.425171 -52.886494 -119.56214 10262412
49.902512 -52.377659 -120.49023 8092011
50.596443 -52.112675 -120.26772 10722963
51.543358 -51.994797 -119.86594 12169640
52.331352 -51.797123 -119.57187 13023917
50.885632 -51.3904 -120.42232 14077894
51.581322 -51.127647 -120.19833 12695467
52.53019 -51.012623 -119.7945 11181715
53.32003 -50.817276 -119.49863 8352876
51.872471 -50.406422 -120.35159 13023917
52.537846 -50.106678 -120.15698 9997699
53.520897 -50.03339 -119.72009 7432031
54.210262 -49.894859 -119.44894 5919050
52.784081 -49.318821 -120.3585 9010805
53.530441 -49.127415 -120.08165 8682354
54.482151 -49.021919 -119.67265 6905944
55.231045 -48.758705 -119.42365 6840151
53.778763 -48.34013 -120.28191 8419440
54.537174 -47.994347 -120.06175 6708822
55.506081 -47.881752 -119.64748 7234909
56.256741 -47.625088 -119.39495 8616563
54.825714 -47.041016 -120.31008 6248271
55.524467 -46.821594 -120.0675 7037274
56.489643 -46.788692 -119.62363 8616563
57.289143 -46.494865 -119.36646 11906725
55.855244 -46.088413 -120.28336 7037274
56.603291 -45.924862 -120.0455 9406335
57.496052 -45.887894 -119.65411 12235690
58.389675 -45.597202 -119.4629 9538438
57.716724 -45.189823 -120.11678 10722710
58.619869 -45.065651 -119.84567 8551544
59.444004 -45.002193 -119.53601 8551541
60.525425 -44.676113 -119.67119 12432294
61.582787 -44.605228 -119.42629 11576983
61.696102 -44.424984 -119.99894 11840156
62.646118 -44.366039 -119.7298 9076857
63.474461 -44.292 -119.57049 9011579
64.50782 -44.229012 -119.44379 11774368
65.516968 -44.152649 -119.59983 13089200
66.605064 -44.119995 -119.54581 9010806
67.616028 -43.81982 -119.74945 8353908
68.565933 -43.81638 -119.35205 7762030
69.360924 -43.682049 -119.08465 7104354
67.59343 -43.280022 -119.97163 8617338
68.533127 -42.886604 -119.73922 8288117
69.513466 -42.849792 -119.34959 7169634
70.324287 -42.630627 -119.10165 7366495
68.870636 -42.154312 -119.8885 7564651
69.574242 -41.887398 -119.70358 7038299
70.463387 -41.88036 -119.33981 6971993
71.303123 -41.802837 -119.02421 6774102
69.890556 -41.074066 -119.89352 7104091
70.648979 -40.879272 -119.65761 8156779
71.572853 -40.916496 -119.2621 7959144
72.282524 -40.862038 -118.99097 10853264
70.772713 -40.21133 -119.86968 9209467
71.541328 -39.979641 -119.64407 8814709
72.534393 -39.945393 -119.2482 9472126
73.356995 -39.727207 -118.99502 9011831
71.886917 -39.244282 -119.7913 8485744
72.570145 -38.934189 -119.63176 9275003
73.501854 -38.972839 -119.23243 9472639
74.353241 -38.896847 -118.91138 8880502
72.852654 -38.269966 -119.77691 8419440
73.584084 -37.999092 -119.58205 9209468
74.575279 -37.969276 -119.1852 9670019
75.404541 -37.813244 -118.90478 8024937
73.852959 -37.308559 -119.80752 10260875
74.645477 -37.123596 -119.59607 10590864
75.503906 -37.047104 -119.27367 8419184
76.422516 -36.762238 -119.08253 9011065
77.4347 -36.480095 -118.8414 8813686
75.753677 -36.429012 -119.67007 8813686
76.706009 -36.170368 -119.58864 9405823
77.598434 -36.077156 -119.27984 9274492
78.519829 -35.936111 -119.07208 9076858
79.455612 -35.703476 -119.12496 9011065
80.383049 -35.512028 -119.03101 9274749
81.184464 -35.463856 -118.62296 7959144
81.817474 -35.301338 -119.24146 9406590
82.12587 -35.249744 -118.77624 6511954
83.595383 -35.133282 -119.06797 6775127
85.290115 -34.982964 -119.0455 8090475
86.885475 -34.842415 -119.15344 7367005
87.180595 -34.789356 -118.66286 9340280
88.687119 -34.662991 -118.91644 8222321
-44.409695 -70.595894 -123.26549 5919050
-43.369694 -71.023087 -123.34052 6774360
-42.437508 -70.889801 -123.33142 7037531
-41.510204 -70.798355 -123.27567 7826790
-40.422199 -70.678902 -123.21461 8814453
-45.279381 -69.764183 -123.34905 6182223
-44.357693 -70.116409 -123.46423 6050636
-43.37822 -70.181633 -123.6413 6445651
-42.378616 -70.050186 -123.63416 6445394
-41.344139 -70.114677 -123.51073 7234910
-40.462093 -70.036018 -123.45457 8485489
-39.475586 -70.156242 -123.31531 9011576
-38.526184 -70.025879 -123.27164 9208954
-37.489685 -69.968636 -123.19274 9011831
-36.575214 -69.841103 -123.15138 9406332
-35.362926 -69.767494 -123.06154 9340027
-34.557713 -69.629845 -123.03445 9734782
-46.405674 -68.877548 -123.38384 5393738
-45.345646 -69.13102 -123.57473 6314068
-44.341072 -69.239967 -123.80618 5787722
-43.354866 -69.137573 -124.04039 6050636
-42.337849 -69.07074 -123.99 6445394
-41.304703 -69.109306 -123.87621 7498594
-40.28553 -69.094528 -123.78339 8748916
-39.272053 -69.083092 -123.68986 12695981
-38.258018 -69.13092 -123.57449 9275004
-37.262989 -69.069809 -123.50102 9209210
-36.260662 -69.123833 -123.38452 9471612
-35.276417 -69.069283 -123.30967 10458249
-34.285328 -69.129463 -123.19198 10195334
-33.311329 -69.08136 -123.11573 9734786
-32.389233 -68.973427 -123.06647 10787215
-31.383394 -68.939384 -122.98202 13221041
-30.494028 -68.833321 -122.93523 12037025
-29.472994 -68.810745 -122.84507 8090987
-28.375233 -68.645226 -122.79997 8090474
-48.170956 -67.645226 -123.37792 5393738
-47.351166 -67.852219 -123.52132 5393738
-46.284077 -68.209381 -123.67419 5459275
-45.33102 -68.206406 -123.93468 5656654
-44.504364 -68.28833 -124.12812 5459275
-42.062126 -68.556084 -124.15244 6445394
-41.392765 -68.432556 -124.13326 7498594
-40.308975 -68.37326 -124.05055 8090987
-39.376476 -68.240379 -124.00946 13090995
-38.330223 -68.184372 -123.92916 8814458
-37.381565 -68.062256 -123.88253 9275005
-36.375969 -68.117874 -123.76516 10261127
-35.388454 -68.065002 -123.68935 10261127
-34.39415 -68.126678 -123.57079 9800577
-33.416958 -68.080238 -123.49364 9668988
-32.444843 -68.036911 -123.41584 9274232
-31.466183 -68.107719 -123.29546 12628905
-30.422182 -68.007195 -123.2317 13286578
-29.377609 -68.123711 -123.0882 9932420
-28.337776 -68.002342 -123.03253 8880246
-27.363493 -68.065865 -122.91526 8813941
-26.390453 -67.855209 -122.89879 7432289
-25.53002 -67.818314 -122.82938 5787464
-24.364126 -67.742523 -122.7448 5853769
-23.44018 -67.619514 -122.70089 5920074
-49.014481 -66.76445 -123.48742 8814709
-48.298985 -67.001877 -123.59074 6578009
-47.270298 -67.15554 -123.81154 6775131
-46.38306 -67.213707 -124.0306 4669758
-45.508831 -67.435417 -124.18314 4932931
-36.276623 -67.532158 -123.97068 10590091
-35.463058 -67.3964 -123.94214 9734784
-34.411526 -67.359642 -123.85424 9603200
-33.41547 -67.208855 -123.81358 9537401
-32.292694 -67.14003 -123.73061 9669247
-31.307026 -67.105293 -123.64828 10721679
-30.282387 -67.027847 -123.57801 13023662
-29.312271 -67.10688 -123.45538 11313814
-28.367008 -66.968483 -123.41511 9340540
-27.39673 -67.163338 -123.24998 9735041
-26.459585 -67.031281 -123.20813 9208444
-25.409155 -67.053009 -123.09885 7366241
-24.31983 -67.105721 -122.97444 6380368
-23.299761 -67.004845 -122.91312 6972503
-22.38978 -67.152756 -122.77106 8616558
-21.412716 -66.997353 -122.73394 9076859
-20.472305 -66.8685 -122.69061 9076601
-19.340258 -66.781296 -122.61346 9208182
-18.431385 -66.676849 -122.5642 9537149
-17.675991 -66.592163 -122.52246 9208182
-50.224552 -65.813622 -123.52418 9801862
-49.33268 -65.973122 -123.70551 8157297
-48.331921 -66.168915 -123.90248 7301477
-47.441082 -66.224678 -124.12342 8946296
-46.694542 -66.420837 -124.25107 7038307
-30.006971 -66.539017 -123.731 12037025
-29.373545 -66.445694 -123.70415 13023917
-28.441053 -66.143585 -123.72522 9735297
-27.422636 -66.133003 -123.63093 8945784
-26.340965 -66.046883 -123.55826 8945531
-25.276793 -66.09407 -123.4383 8484980
-24.336557 -66.080315 -123.35271 8156265
-23.408417 -65.960373 -123.30723 6709332
-22.459993 -66.170662 -123.13857 7432801
-21.385784 -66.038223 -123.08363 8616823
-20.30838 -66.018654 -122.98697 9208445
-19.380737 -66.12928 -122.85686 9668736
-18.411291 -65.98642 -122.81587 9734786
-17.351526 -66.065834 -122.68449 9405304
-16.33794 -66.120743 -122.56664 10128771
-15.444694 -65.864975 -122.57442 10128771
-14.395624 -65.760086 -122.51182 8617847
-13.342397 -65.820824 -122.38795 12498344
-12.597371 -65.751099 -122.34173 13813433
-51.246384 -64.924629 -123.58846 8091760
-50.40498 -64.992561 -123.7912 8091760
-49.427773 -65.026703 -124.04399 7696747
-48.491539 -65.337166 -124.17922 8288627
-47.842079 -65.552422 -124.27307 9538947
-25.164572 -65.526634 -123.63594 9077117
-24.387161 -65.425072 -123.59827 10261132
-23.457031 -65.30603 -123.55231 7433313
-22.309607 -65.229248 -123.46986 7893356
-21.298811 -65.041061 -123.44152 9208445
-20.344011 -64.994316 -123.36664 8879736
-19.441378 -65.152756 -123.22142 9537408
-18.375948 -65.03373 -123.16242 9011065
-17.280067 -64.980331 -123.07636 10194564
-16.389322 -65.147499 -122.92906 10128771
-15.377274 -65.014732 -122.88025 8617589
-14.341871 -64.974747 -122.79509 8420726
-13.403413 -65.112465 -122.65399 9867141
-12.416655 -65.053993 -122.58034 9537922
-11.391109 -65.024864 -122.49216 8814201
-10.39324 -64.910439 -122.43797 9077373
-9.4154234 -64.968925 -122.32218 9537667
-8.3219433 -64.745384 -122.29889 7432808
-7.4372416 -64.679581 -122.23774 8485489
-6.5541611 -64.616776 -122.17571 9077882
-53.089249 -63.764778 -123.53452 8092019
-52.385876 -63.969372 -123.64684 9078142
-51.375629 -63.97768 -123.91827 9670277
-50.335861 -64.028282 -124.18147 8289139
-49.29916 -64.44986 -124.30107 8288627
-19.329084 -64.485603 -123.45564 8287341
-18.261827 -64.367905 -123.39594 8682099
-17.296377 -64.134521 -123.38861 9800580
-16.440626 -64.176109 -123.29082 9471356
-15.38294 -64.069923 -123.22782 10130056
-14.328345 -63.967651 -123.16373 8420727
-13.419997 -64.04451 -123.04789 8683897
-12.365151 -64.110863 -122.92181 8748660
-11.320117 -64.019821 -122.85448 8879993
-10.426608 -63.945091 -122.79578 9537667
-9.4219389 -64.09449 -122.64403 9603460
-8.3401012 -64.103012 -122.53663 7235428
-7.4536295 -64.037743 -122.47507 8221805
-6.4215832 -63.965343 -122.40215 9538177
-5.3915586 -63.896687 -122.32807 8617848
-4.361084 -63.992058 -122.19369 8618105
-3.4097979 -63.855362 -122.15213 8486006
-2.4597328 -63.722179 -122.10945 8616050
-1.4370348 -63.668694 -122.03053 8945268
-54.182457 -62.794106 -123.61146 13158330
-53.35957 -63.019615 -123.74825 11579300
-52.31506 -63.060444 -124.01646 10131342
-51.356499 -63.014183 -124.29487 10655889
-50.652348 -63.277695 -124.38476 7037274
-13.250024 -63.328053 -123.29466 9012602
-12.397705 -63.306072 -123.22057 10262152
-11.350049 -63.21595 -123.15264 9538430
-10.346561 -63.012684 -123.13058 9668995
-9.3623705 -63.055561 -123.01991 10195339
-8.3672905 -63.140827 -122.89265 9405824
-7.371295 -63.039669 -122.83373 8616307
-6.3536987 -63.030792 -122.73889 10524047
-5.410058 -62.936954 -122.6824 9800837
-4.4055557 -63.066624 -122.53789 9275520
-3.3460295 -63.132229 -122.41164 8748407
-2.4663327 -63.08363 -122.34466 9865859
-1.4416932 -63.030552 -122.26536 9734529
-0.41857922 -62.98111 -122.18486 8682867
0.60297394 -62.935631 -122.10307 8748660
1.5818086 -62.804432 -122.05688 9538692
2.5804274 -62.72163 -121.991 8092019
3.3693819 -62.830719 -121.87486 9736329
-55.055382 -61.92646 -123.70863 9406079
-54.28812 -62.108112 -123.84719 14934738
-53.34877 -62.049934 -124.12497 15132374
-52.497944 -62.114731 -124.3313 13487038
-51.735725 -62.301414 -124.46654 12827314
-8.980258 -62.544361 -123.17078 10853012
-8.3853979 -62.500267 -123.12966 10458254
-7.2500296 -62.312557 -123.08915 8945272
-6.3129225 -62.195736 -123.04169 10458254
-5.4254923 -62.138458 -122.97714 9537152
-4.3196926 -61.991276 -122.92459 8024684
-3.3888762 -62.113113 -122.79011 8089963
-2.3697593 -62.092663 -122.69936 11510169
-1.3603907 -62.102192 -122.59853 10787216
-0.4226222 -62.025871 -122.53611 9143161
0.60188246 -61.980934 -122.45386 9143161
1.6250666 -61.939575 -122.37037 11512224
2.6802726 -61.949829 -122.26488 9078656
3.6663876 -62.027004 -122.14145 9472898
4.5098677 -62.096935 -122.03442 9406590
5.4990187 -62.070583 -121.94874 8682611
6.5759859 -61.950462 -121.88903 9208954
7.4970484 -61.87973 -121.8262 9998469
8.6126242 -61.756287 -121.76393 9735299
9.1933393 -61.748764 -121.71078 9537664
-56.248257 -61.081421 -123.71004 8420212
-55.390022 -61.13998 -123.92083 7696747
-54.388813 -61.041676 -124.23089 12236972
-53.535961 -61.231506 -124.38956 13619137
-3.2194335 -61.529865 -122.98805 8089963
-2.2386262 -61.371693 -122.95153 10786703
-1.3074676 -61.272217 -122.89828 10984595
-0.42600703 -61.231049 -122.82839 11576731
0.60078275 -61.02792 -122.80399 9866371
1.6268959 -60.987045 -122.72009 11116178
2.6517079 -60.950027 -122.63486 9275520
3.6753833 -60.91658 -122.54862 10459279
4.5773363 -61.005981 -122.43031 9801348
5.5716715 -61.02404 -122.32944 9867141
6.5922394 -61.001518 -122.24084 8946039
7.608551 -61.138481 -122.08772 9472126
8.6271963 -61.122593 -121.99535 9472127
9.6453133 -61.110516 -121.90159 10327436
10.663037 -61.101913 -121.80659 9143164
11.496528 -61.007195 -121.76102 9406594
12.496475 -60.914879 -121.69853 10195851
13.581655 -60.780998 -121.64305 10261132
14.308981 -60.784458 -121.57169 10261132
-60.396793 -59.621143 -123.76736 7959144
-59.125187 -59.789295 -123.79401 6775126
-58.285038 -59.888435 -123.94225 8682866
-57.321156 -60.065819 -124.06651 9932676
-56.395321 -60.171543 -124.23477 8289140
-55.399887 -60.375488 -124.33535 7763054
-54.585712 -60.431557 -124.51181 8092019
3.8290837 -60.316055 -122.84479 10525072
4.5615225 -60.297329 -122.7867 9472383
5.5860481 -60.273911 -122.70358 9932934
6.6099186 -60.253548 -122.61845 9011832
7.6722536 -60.261143 -122.51027 9143418
8.6559038 -60.222363 -122.44176 9471871
9.5888872 -60.24033 -122.33899 9274236
10.638454 -60.097721 -122.33751 9603972
11.583647 -60.06139 -122.272 9012093
12.60549 -60.05965 -122.17397 9603716
13.627239 -60.060921 -122.07385 9472127
14.617427 -60.093082 -121.95506 9800580
15.628205 -60.040581 -121.89373 9274493
16.523155 -60.043709 -121.80419 9668995
17.581467 -59.956062 -121.76177 8682613
18.604235 -59.972534 -121.65063 9538693
19.574543 -59.76437 -121.77034 11446432
20.588116 -59.734829 -121.69666 10195852
21.539068 -59.703598 -121.62498 10064009
22.614697 -59.671383 -121.53644 9471616
23.579132 -59.631786 -121.47269 9142911
24.533007 -59.566601 -121.34925 10326923
-69.077316 -58.78513 -124.15256 6182221
-68.309708 -59.075008 -124.30845 7038307
-67.289955 -59.089199 -124.67208 8946044
-66.357124 -59.303711 -124.3767 8420207
-65.378433 -59.32893 -124.69587 8090987
-64.331253 -59.326866 -124.15618 12301994
-63.342983 -59.338097 -124.43471 7433057
-62.433525 -59.347706 -124.126 7630435
-61.387211 -59.400967 -124.26894 11314586
-60.269711 -59.483952 -124.25601 9538435
-59.532528 -59.544228 -124.2545 6906970
-58.548389 -59.552151 -124.49266 8682866
16.78336 -59.491272 -122.45396 9340286
17.662977 -59.497265 -122.34834 8157040
18.688601 -59.505821 -122.22073 8354677
21.694286 -59.384449 -122.27496 10392973
22.575186 -59.397533 -122.14869 8945531
23.603241 -59.414375 -121.99653 10064011
24.7124 -59.340668 -121.94626 8485494
25.595444 -59.293915 -121.69254 11643547
26.533598 -59.228889 -121.65559 8419951
27.602568 -59.204414 -121.53219 9998981
28.677673 -59.203033 -121.55708 9801860
29.480074 -59.202206 -121.70673 9209723
30.544216 -59.200729 -121.65072 9603202
31.560347 -59.199112 -121.39395 9734788
32.600067 -59.197853 -121.47643 9603202
33.652916 -59.196705 -121.66589 8880507
34.668961 -59.19508 -121.38298 9274230
35.686665 -59.193806 -121.42726 6774358
36.50671 -59.192787 -121.48058 7827558
37.652611 -59.191143 -121.34433 8090473
38.727684 -59.189613 -121.22263 9537662
39.560616 -59.188812 -121.42768 8747891
40.654915 -59.187141 -121.24049 8287342
41.739532 -59.103081 -121.2666 9077625
42.543724 -58.969841 -121.22675 9472383
43.541225 -58.868324 -120.89426 8419695
-70.107231 -57.825542 -124.12165 7760736
-69.467781 -58.073544 -124.28105 6445136
-68.378799 -58.2159 -124.61895 7169893
-67.672775 -58.307022 -124.83841 9538180
42.675087 -58.192513 -121.57793 10064777
43.557579 -58.079975 -121.20425 8748916
44.439049 -57.97049 -120.82984 8354159
-70.322937 -57.086971 -124.30029 7892321
-69.243927 -57.236835 -124.6778 7498081
-68.449715 -57.426735 -124.89174 7959407
43.074265 -57.45343 -121.68633 9538433
43.706741 -57.141937 -121.51156 8814710
44.572166 -57.097679 -121.11852 7827815
45.374138 -56.941601 -120.80063 7301470
-71.227562 -56.120155 -124.2328 8484718
-70.388496 -56.218948 -124.61075 7432541
-69.660324 -56.274345 -124.8918 7760993
44.037605 -56.439716 -121.63756 8814710
44.671352 -56.130829 -121.46114 8354159
45.584167 -56.085068 -121.04613 7893608
46.360474 -55.785759 -120.79821 9012089
-72.258827 -54.952183 -124.17739 8681843
-71.392731 -55.136101 -124.53674 8879220
-70.529831 -55.416695 -124.85655 8024422
45.003956 -55.430489 -121.58549 10261132
45.639088 -55.124065 -121.40747 9603202
46.595348 -55.050747 -120.98296 9472640
47.421314 -54.809208 -120.68816 9669762
-81.412766 -54.048176 -125.12651 7039331
-80.680618 -53.959995 -125.31573 7037274
-79.291611 -53.84549 -124.48309 7037274
-78.567314 -53.758472 -124.66513 13552573
-73.131599 -53.945137 -124.29394 10195082
-72.333427 -54.137562 -124.52929 8089963
-71.473015 -54.222828 -124.88167 9142135
45.973614 -54.425365 -121.5303 8813686
46.610104 -54.121395 -121.35059 8879735
47.567738 -54.051323 -120.92411 9208955
48.395332 -53.812733 -120.62738 8682867
-78.051369 -53.610489 -124.51234 14078918
-77.527206 -53.45628 -124.34303 9736068
-75.37397 -53.148647 -124.36331 11577757
-74.327415 -53.192181 -124.65572 10919828
-73.358055 -53.407177 -124.70533 9208958
-72.404709 -53.491249 -124.99049 8089963
46.866207 -53.319309 -121.55231 8288114
47.606564 -53.113934 -121.28352 9340799
48.585922 -53.025269 -120.85428 9340541
49.271297 -52.876064 -120.58899 9998215
47.842491 -52.321831 -121.49082 10262156
48.584358 -52.118935 -121.22037 9603714
49.531616 -51.999023 -120.81903 10196619
50.274551 -51.7248 -120.57714 10065289
48.822372 -51.327976 -121.42663 9604483
49.565849 -51.127617 -121.15479 11446686
50.51495 -51.010738 -120.75161 13617599
51.259731 -50.738827 -120.50806 12038823
49.807728 -50.187302 -121.41998 11117209
50.597973 -50.13583 -121.06574 13090998
51.55032 -50.017647 -120.66158 13023917
50.71336 -49.244728 -121.37108 10787472
51.585239 -49.006573 -121.05359 10260871
52.441372 -48.907146 -120.68748 9208184
51.830032 -48.043217 -121.32668 7694947
52.611355 -47.990383 -120.97728 7038043
53.512314 -47.805645 -120.62436 7367008
52.745743 -46.955276 -121.33177 6117453
53.576439 -46.869873 -120.97205 5920074
54.471115 -46.70792 -120.61293 5919818
53.723129 -46.129017 -121.26778 5920074
54.567696 -45.896252 -121.02367 5919050
55.402996 -45.853798 -120.65913 6313807
56.231026 -45.593544 -120.46733 8616563
55.024429 -45.308105 -121.26649 5919050
55.647587 -45.161415 -121.10046 7695203
56.625626 -45.05724 -120.78875 9603714
57.51968 -44.821838 -120.71583 10854296
58.463272 -44.651924 -120.71239 9867402
59.559204 -44.595253 -120.4003 8683643
59.517437 -44.414585 -121.0433 9143936
60.611637 -44.352394 -120.7113 11775138
61.436298 -44.274113 -120.55436 10721933
62.412136 -44.206524 -120.56533 8484978
63.50848 -44.156727 -120.67776 9933196
64.569382 -43.962612 -120.73914 9472384
65.50238 -43.878193 -120.59763 9406074
66.357315 -43.872459 -120.24755 7037274
64.98188 -43.362083 -121.01585 8682608
65.676949 -43.091217 -120.83604 8682608
66.557976 -43.077492 -120.47824 8748147
67.461258 -42.916973 -120.16912 9340546
68.199387 -42.46489 -120.04291 11906727
66.065453 -42.3937 -120.95059 8682608
66.687485 -42.120895 -120.80161 9406590
67.559723 -42.033485 -120.47649 11446432
68.536301 -41.732582 -120.19241 10656661
69.297844 -41.49947 -119.9703 7367263
66.849609 -41.415466 -121.01266 7038298
67.594635 -41.067478 -120.84258 8683124
68.498497 -40.800045 -120.57529 9077627
69.388519 -40.7896 -120.21255 7696228
70.095131 -40.521824 -120.02667 8288365
68.760773 -39.914406 -120.81598 8946296
69.601578 -39.831688 -120.50198 8880502
70.495422 -39.822277 -120.13723 9209467
71.205566 -39.554676 -119.94981 9209467
69.712227 -38.939201 -120.80786 9012088
70.556602 -38.857037 -120.49217 8551537
71.550629 -38.81913 -120.09733 8551537
70.611656 -38.050655 -120.78725 7038298
71.527634 -37.886295 -120.49787 8946295
72.421379 -37.874073 -120.11662 8419696
73.135895 -37.604942 -119.92207 9142651
71.88224 -37.259678 -120.76861 9209467
72.672112 -37.072659 -120.56213 8813685
73.540413 -36.903027 -120.32866 8813686
74.375542 -36.779842 -120.01403 10853781
74.590164 -36.423229 -120.36105 11379356
75.579102 -36.224506 -120.30088 8616306
76.539497 -36.01638 -120.27541 9734788
77.595879 -35.815697 -120.15343 10326668
78.469711 -35.711288 -119.80469 10392461
79.526161 -35.553833 -120.16119 9735044
81.29921 -35.387684 -120.01649 8880246
82.824226 -35.292572 -120.39841 11708828
83.114952 -35.232662 -119.89932 8814451
84.668365 -35.081051 -119.98396 9669505
86.369972 -34.9235 -119.94445 7367005
87.906815 -34.807098 -120.24966 5393730
88.201073 -34.75293 -119.74965 8616819
89.729134 -34.625065 -120.01157 10261132
-44.146179 -67.900085 -124.37507 5854543
-43.381691 -68.099014 -124.4266 5920591
-42.475357 -68.038025 -124.3826 6248786
-41.458763 -67.925529 -124.32588 7762022
-40.529507 -67.843605 -124.2664 8090987
-39.439034 -67.735321 -124.20103 11314586
-38.777256 -67.618866 -124.18 12433069
-45.273739 -66.969269 -124.42658 4340793
-44.301472 -67.163475 -124.61641 4867648
-43.298771 -67.047516 -124.82025 5328454
-42.204811 -67.153015 -124.68159 6644055
-41.233131 -67.021049 -124.63637 8222571
-40.234497 -67.144859 -124.4946 8090987
-39.30101 -67.023979 -124.44899 8617335
-38.327957 -67.155304 -124.30693 8090994
-37.390404 -67.037827 -124.25967 9538437
-36.406742 -67.018402 -124.17197 9209211
-35.284035 -66.881302 -124.11408 8418927
-34.203274 -66.851204 -124.02093 10392457
-33.235401 -66.696999 -123.98423 9734781
-32.592323 -66.596069 -123.95934 10063747
-46.873638 -65.853165 -124.42088 7039331
-46.18166 -66.125252 -124.50445 6117461
-45.294914 -66.132034 -124.74314 5393482
-44.376221 -66.097198 -125.00655 7170401
-43.410831 -66.197693 -125.13499 6973278
-42.375309 -66.189568 -125.05191 6249298
-41.363667 -66.009819 -125.0204 7367262
-40.314754 -66.170082 -124.86037 9340793
-39.314301 -65.997169 -124.82743 8945785
-38.27853 -66.16301 -124.66665 8814715
-37.288708 -65.996857 -124.63223 9933193
-36.265583 -66.168152 -124.47066 8682868
-35.285934 -66.008636 -124.43481 8945784
-34.27483 -66.185387 -124.27239 11116439
-33.304863 -66.032433 -124.23505 9932161
-32.316692 -66.103981 -124.11346 9011316
-31.344568 -66.068077 -124.03292 9603711
-30.423597 -65.972214 -123.97935 12300195
-29.419399 -65.950439 -123.8905 13155759
-28.48543 -65.649231 -123.91109 11379607
-48.0233 -64.98558 -124.44204 9538947
-47.273621 -65.181068 -124.57079 9604996
-46.350861 -65.1409 -124.83736 7170917
-45.461716 -65.147881 -125.07662 7236453
-44.6171 -65.41713 -125.20286 9210491
-40.399445 -65.497757 -125.1155 8945780
-39.39666 -65.326241 -125.08179 9142392
-38.378769 -65.325851 -124.98383 8880250
-37.386192 -65.161369 -124.94853 8814456
-36.379284 -65.167274 -124.84927 9011833
-35.396378 -65.009674 -124.81239 9340797
-34.382092 -65.187851 -124.64915 9801349
-33.408932 -65.036728 -124.6108 9274746
-32.417637 -65.109795 -124.4884 8814196
-31.442396 -65.075478 -124.40697 9472125
-30.409285 -65.023903 -124.32631 10261384
-29.336987 -65.103188 -124.19375 12826795
-28.279821 -65.086891 -124.09783 11313814
-27.253498 -65.144295 -123.97779 8879738
-26.311481 -65.016464 -123.93391 8682359
-25.410074 -64.99131 -123.85623 8551030
-24.425028 -64.934143 -123.78223 9340801
-23.338654 -64.796585 -123.72801 8288626
-22.553228 -64.863831 -123.62759 7893358
-49.22509 -63.980114 -124.50208 9867911
-48.339104 -64.195663 -124.66022 7828077
-47.355648 -64.116226 -124.95843 7697004
-46.393265 -64.238655 -125.17319 7039331
-34.453533 -64.523567 -124.90004 9735555
-33.316216 -64.349121 -124.85445 9275006
-32.235485 -64.321068 -124.76056 8814455
-31.292028 -64.239441 -124.69958 9669504
-30.189716 -64.181465 -124.61455 8945269
-29.268837 -64.092728 -124.55835 8287339
-28.278219 -64.021736 -124.48891 9208697
-27.338013 -64.159363 -124.34772 8287854
-26.393053 -64.033081 -124.30297 7564649
-25.438543 -64.073586 -124.19608 7959920
-24.377062 -64.072937 -124.09396 7828847
-23.30323 -64.001854 -124.01653 7697260
-22.290771 -64.174393 -123.85551 6775645
-21.364971 -64.064262 -123.80669 9274750
-20.442083 -63.957275 -123.75701 9208444
-19.359095 -63.998699 -123.63737 7958376
-18.290176 -63.881714 -123.5773 8682099
-17.457367 -63.711903 -123.55939 9866374
-16.778065 -63.560158 -123.54966 8813686
-51.062443 -62.609528 -124.53082 9932166
-50.254726 -63.141617 -124.54527 7366496
-49.353607 -63.176281 -124.77689 9999239
-48.325878 -63.161499 -125.062 8419955
-47.517036 -63.383038 -125.19677 8223091
-30.127882 -63.546894 -124.8417 9997699
-29.329142 -63.435043 -124.80579 6510930
-28.373959 -63.303818 -124.76187 7234909
-27.408392 -63.339687 -124.65559 8551281
-26.372856 -63.179699 -124.61449 8485488
-25.227921 -63.184547 -124.50231 7959917
-24.251081 -63.098633 -124.43968 8880764
-23.315256 -62.984062 -124.39155 8354418
-22.395338 -63.13644 -124.24685 7630951
-21.430992 -63.089039 -124.17127 10130312
-20.351381 -62.966175 -124.11232 11774367
-19.314953 -63.210377 -123.92271 8616306
-18.337454 -63.072277 -123.87915 8287342
-17.42189 -62.976368 -123.8261 9208444
-16.35845 -63.06818 -123.68986 9076857
-15.279624 -63.086723 -123.579 11511193
-14.373214 -63.000481 -123.52329 10261900
-13.435029 -62.833408 -123.49421 9802118
-12.267066 -62.810616 -123.38995 10854288
-11.367996 -62.734169 -123.33136 9538430
-10.620339 -62.672638 -123.28183 8813686
-52.236202 -61.75433 -124.5414 15722974
-51.377636 -61.986137 -124.68541 13616830
-50.333317 -62.226433 -124.8767 9471871
-49.337337 -62.253204 -125.13715 9406846
-48.487606 -62.365925 -125.32472 9933190
-23.363037 -62.333164 -124.63523 8354418
-22.357121 -62.345303 -124.53378 8354673
-21.3312 -62.259922 -124.46622 9143419
-20.249197 -62.138725 -124.40638 10458508
-19.315041 -62.199974 -124.29384 9734786
-18.394058 -62.102272 -124.24091 8221549
-17.366234 -61.967072 -124.19147 8945272
-16.301628 -62.067184 -124.05206 8879991
-15.327107 -62.120064 -123.93866 10261384
-14.418017 -62.034885 -123.88228 9143418
-13.323493 -61.985603 -123.79485 11314840
-12.292774 -62.168354 -123.62834 10854288
-11.391937 -62.092537 -123.56933 9208954
-10.343603 -62.007816 -123.49937 8418928
-9.2977982 -61.9268 -123.42828 9866374
-8.443471 -61.954945 -123.33557 8879479
-7.4586601 -61.9002 -123.2607 9142651
-6.323452 -61.716827 -123.21863 9537152
-5.4347763 -61.659924 -123.15382 8616307
-4.8430805 -61.623432 -123.11021 8616307
-53.159523 -60.795879 -124.66264 14671311
-52.344608 -61.033733 -124.79399 15723230
-51.261139 -61.241184 -125.00426 15722462
-50.356903 -61.237495 -125.25152 15261909
-49.651596 -61.50362 -125.34063 11512220
-19.046612 -61.520527 -124.51753 10458508
-18.431747 -61.456379 -124.4818 8748661
-17.35857 -61.347229 -124.41841 8813686
-16.20837 -61.314953 -124.31933 9669249
-15.334483 -61.191525 -124.28043 10129798
-14.353711 -61.031685 -124.24459 8551280
-13.309711 -61.000542 -124.15546 8748404
-12.36357 -61.092804 -124.03238 8814707
-11.427769 -61.131275 -123.92587 9537664
-10.376383 -61.047596 -123.85524 8747893
-9.327487 -60.967587 -123.78349 8484721
-8.4001923 -61.017303 -123.67817 8089963
-7.4141245 -61.102318 -123.55105 9340030
-6.3374519 -61.078979 -123.45425 8879222
-5.4470387 -61.022572 -123.38914 8024170
-4.4101934 -60.960323 -123.312 9800324
-3.3752048 -60.902569 -123.23559 8484720
-2.4897192 -60.856274 -123.1694 9273979
-1.3107347 -60.795612 -123.07365 11576731
-0.42799544 -60.754711 -123.00357 13747129
-56.163521 -59.64463 -124.82764 10459025
-55.331898 -59.833942 -124.84492 9209729
-54.283421 -60.045937 -124.90147 9144706
-53.376812 -60.104115 -125.10091 13420990
-52.413471 -60.270229 -125.22977 15722718
-51.473408 -60.501972 -125.30063 15722462
-12.056939 -60.549583 -124.2225 9734788
-11.304108 -60.49556 -124.18685 9340285
-10.252386 -60.42263 -124.13531 9274237
-9.3526211 -60.362743 -124.08946 7892584
-8.3050833 -60.296101 -124.03398 8155756
-7.2205839 -60.266396 -123.95197 8945272
-6.3650293 -60.182278 -123.9287 8419184
-5.3233175 -60.125359 -123.86797 9405566
-4.2829437 -60.071556 -123.80516 9668993
-3.3928273 -60.028137 -123.74986 9603198
-2.3120735 -60.058434 -123.62446 9603198
-1.3183117 -60.075497 -123.51653 9602943
-0.43246865 -60.041046 -123.45845 11116180
0.59965205 -60.006512 -123.39415 9405819
1.6309664 -59.974693 -123.32707 13155759
2.6612415 -59.945808 -123.25699 10524557
3.6626961 -59.840343 -123.25206 7631467
4.5753698 -59.766834 -123.23033 9012348
5.5508223 -59.820965 -123.05185 10327692
6.6242342 -59.836861 -122.91093 9472383
7.5653133 -59.738789 -122.89131 8682867
8.681179 -59.668461 -122.83414 9143418
9.5601015 -59.658989 -122.75526 8945527
10.292248 -59.652733 -122.68831 9866630
-66.270905 -58.991653 -125.07203 6511954
-65.368668 -58.975147 -125.39868 7038298
-64.408043 -59.124218 -125.51176 8090987
-63.433735 -59.327839 -125.71218 9275261
-62.395103 -59.32571 -125.15582 8222573
-61.305023 -59.324554 -125.34687 10919831
-60.324577 -59.323009 -125.12012 8354934
-59.354656 -59.354145 -125.25511 6709591
-58.241486 -59.400898 -125.07637 9537918
-57.344482 -59.44006 -125.18768 9275262
-56.388283 -59.478264 -125.31808 10459025
-55.351326 -59.531994 -125.41888 9275522
-54.470264 -59.591606 -125.45836 8092019
5.7639303 -59.524494 -123.45894 8682867
6.6475677 -59.514442 -123.39987 9735555
7.6783524 -59.50441 -123.32607 8682867
8.7793379 -59.433392 -123.4236 10393229
9.6073456 -59.412514 -123.40182 9406334
10.638352 -59.407448 -123.31348 9077884
11.668706 -59.404068 -123.22032 9735302
12.632257 -59.413662 -123.09595 10524558
13.647381 -59.391403 -123.05939 12168611
14.610152 -59.404079 -122.92605 10261641
15.638541 -59.40752 -122.81326 8879991
16.710777 -59.32243 -123.02446 8288110
17.615744 -59.280155 -123.07735 7762540
18.645771 -59.283581 -122.93929 7762797
19.674927 -59.287811 -122.79469 11906982
20.635208 -59.304523 -122.6218 11249307
21.624969 -59.226265 -122.74525 10985367
22.763092 -59.234016 -122.76403 8551287
23.605865 -59.233608 -122.8103 8616824
24.442038 -59.231911 -122.72888 7564651
25.580235 -59.208714 -122.77654 8881019
26.606022 -59.207054 -122.56153 8090987
27.687906 -59.205757 -122.5981 9933701
28.62059 -59.204784 -122.76966 11315100
29.712553 -59.203232 -122.6777 9868165
30.591036 -59.201836 -122.46395 10195594
31.680746 -59.200386 -122.46777 9997960
32.548618 -59.199734 -122.79995 9734788
33.574169 -59.198063 -122.52589 9800838
34.597534 -59.196281 -122.24364 9340801
35.550381 -59.195442 -122.48283 8090474
36.578304 -59.194145 -122.52322 8616560
37.601368 -59.192383 -122.21522 8616560
38.600002 -59.191284 -122.33914 9602937
39.716877 -59.013996 -122.56105 11313300
40.613632 -58.838772 -122.28625 10129543
41.482952 -58.787834 -121.90398 9077625
-67.200386 -58.069355 -125.09796 10064522
-66.324425 -58.13792 -125.38607 8090986
-65.449203 -58.207352 -125.67102 9209211
-64.821358 -58.410381 -125.81464 8090986
40.740555 -57.966427 -122.58759 11050642
41.627033 -57.847645 -122.21457 9603969
42.261204 -57.81596 -121.92622 9735555
-68.189812 -57.051922 -125.12686 7959407
-67.310493 -57.119587 -125.41757 8617334
-66.429169 -57.120659 -125.73419 8288365
41.700771 -56.943558 -122.54396 9406590
42.599751 -56.945492 -122.11634 9143418
43.233418 -56.906353 -121.8312 9275261
-69.184547 -56.035275 -125.15332 8090216
-68.355247 -56.105045 -125.42524 7629667
-67.476776 -56.156357 -125.72182 8090474
-66.788574 -56.373318 -125.88731 8090986
42.099491 -56.203819 -122.65287 8814968
42.734489 -55.890602 -122.47761 9012091
43.549591 -56.029285 -122.03468 9670019
44.258354 -55.783497 -121.79723 8814710
-70.180412 -55.015549 -125.16896 7761250
-69.298096 -55.084755 -125.47169 6840406
-68.409309 -55.08353 -125.79188 7103065
43.064529 -55.187901 -122.60414 9143681
43.690643 -54.901905 -122.42213 9472642
44.560093 -55.000385 -121.96964 8814454
45.367661 -54.770256 -121.67895 10261132
-82.279137 -54.098907 -126.11194 9735039
-81.539795 -54.009861 -126.30164 8288108
-80.131882 -53.893978 -125.4549 7037274
-79.217773 -53.784203 -125.68231 10656657
-78.304329 -53.674732 -125.90432 9736068
-71.157021 -53.846851 -125.25444 10260100
-70.358948 -54.074806 -125.48223 8418923
-69.4729 -54.124146 -125.78255 6511186
-68.773804 -54.336361 -125.94309 7366237
43.951199 -54.071987 -122.63297 10919574
44.65992 -53.892704 -122.36873 8813686
45.53006 -54.037609 -121.89716 9405823
46.339077 -53.766926 -121.62212 8089963
-77.391586 -53.565582 -126.12038 9012089
-73.241493 -52.963234 -125.38325 8617592
-72.349892 -53.062416 -125.58307 9143679
-71.375099 -53.302311 -125.63225 9471355
-70.612129 -53.323311 -125.92574 9339511
44.922462 -53.064327 -122.578 9011065
45.662685 -52.983326 -122.25916 9142651
46.476528 -52.937534 -121.89122 8287856
45.897007 -52.060555 -122.5199 8090220
46.638214 -51.982044 -122.19959 8354163
47.45319 -51.938931 -121.83 9341057
46.916008 -50.924923 -122.49418 7827821
47.653866 -50.99588 -122.11536 8288371
48.474552 -50.871349 -121.77621 9472641
47.775383 -49.959148 -122.47662 7498599
48.650883 -49.962448 -122.05981 8222061
49.473351 -49.772354 -121.74632 7564131
48.760414 -48.965874 -122.41056 7761766
49.589306 -48.870861 -122.0556 6248271
50.480988 -48.698746 -121.70199 7432799
49.748966 -47.975605 -122.34159 7367007
50.579296 -47.883018 -121.98496 6511954
51.472813 -47.713493 -121.62944 6840151
50.042515 -47.217152 -122.50878 12433069
50.69067 -46.921928 -122.32047 8683124
51.57304 -46.897884 -121.91147 6643284
52.349934 -46.659931 -121.63896 6511955
51.049381 -46.241695 -122.46587 6511954
51.763931 -46.026981 -122.25864 7695460
52.604801 -45.945084 -121.91472 8879733
53.540421 -45.732212 -121.61291 6709334
52.933342 -45.226192 -122.30524 11511193
53.690689 -45.115551 -122.0705 8419438
54.553078 -45.035374 -121.77129 6379600
55.586254 -44.730114 -121.8443 9274233
56.523811 -44.636215 -121.66722 9274493
57.38266 -44.59137 -121.42424 12169639
56.886326 -44.407661 -122.25989 7564651
57.618362 -44.408527 -121.92436 10656402
58.604511 -44.310204 -121.74763 9077631
59.59346 -44.213158 -121.56602 9604999
60.708607 -44.180222 -121.75031 12433069
61.681873 -44.106915 -121.75595 8486263
62.51292 -43.895756 -121.71053 9011836
63.603184 -43.799492 -121.41166 9472388
64.319092 -43.67635 -121.16531 9340545
62.783718 -43.037148 -122.04999 10788244
63.576984 -43.023609 -121.72829 9340544
64.539139 -42.979084 -121.34922 8682608
65.247566 -42.702896 -121.16598 7564385
63.771339 -42.106964 -122.0092 9208187
64.600815 -42.017578 -121.7025 8550766
65.513985 -42.043217 -121.31594 7235420
66.152077 -41.895203 -121.11123 8288108
64.797142 -41.222191 -121.93482 8945269
65.630302 -41.011349 -121.67444 8024679
66.571396 -41.030582 -121.27892 7301471
67.272568 -40.759533 -121.09657 7038298
65.717323 -40.267422 -121.93159 9012089
66.525703 -40.100941 -121.66387 8485745
67.555305 -40.031677 -121.26672 8354159
68.41539 -39.539474 -121.10605 8946296
66.72718 -39.180485 -121.94336 9275261
67.566429 -39.093491 -121.63165 9538433
68.580765 -38.831509 -121.31671 8814710
69.258797 -38.727638 -121.07811 8814710
67.774132 -38.29723 -121.87132 8946296
68.690506 -37.968624 -121.68353 8880503
69.590508 -37.832462 -121.38112 9209468
70.498566 -37.599266 -121.12587 7827047
69.762787 -37.215778 -121.79583 9932678
70.587517 -37.082123 -121.54751 8813942
71.571899 -36.927849 -121.3166 8880246
72.544373 -36.652103 -121.28819 9800580
73.491928 -36.452778 -121.15884 9142651
73.736122 -36.202686 -121.56247 8747893
74.73513 -36.170464 -121.24149 8090474
75.48259 -35.971607 -121.15491 7564642
76.905327 -35.857021 -121.49049 6511954
77.229103 -35.804787 -121.04029 9340030
78.891228 -35.657887 -121.07631 9471871
80.764977 -35.532978 -121.08635 9011831
81.941605 -35.411846 -121.58672 12432037
82.384216 -35.352081 -120.99265 11116950
83.795486 -35.199432 -121.18835 7827813
84.233727 -35.140011 -120.58633 5920074
85.74044 -35.019711 -120.88736 8814201
87.501793 -34.876087 -120.90394 6511956
89.044609 -34.752224 -121.19522 5393730
89.339264 -34.697601 -120.68784 6972506
90.791374 -34.586273 -121.12765 8089963
-43.477993 -65.688187 -125.32369 9735812
-45.012218 -64.743492 -125.35464 8881530
-44.239372 -65.021553 -125.45792 11973025
-43.271122 -65.009918 -125.57159 9209980
-42.28307 -65.137749 -125.42937 7498849
-41.319908 -65.012726 -125.38241 8485741
-40.391464 -65.016037 -125.29166 9472123
-39.458454 -64.823517 -125.27243 9142392
-38.438862 -64.823959 -125.17399 9471356
-37.44463 -64.66053 -125.13812 9011321
-46.003418 -63.864483 -125.42332 7039331
-45.254421 -64.065041 -125.54996 8552565
-44.330486 -64.032013 -125.81412 9210491
-43.355118 -64.060287 -125.92836 10591373
-42.302738 -64.107498 -125.80972 8221030
-41.27166 -64.045303 -125.73312 9143157
-40.232277 -64.098236 -125.61345 10063491
-39.263382 -63.979496 -125.56367 9273722
-38.29702 -64.119148 -125.41917 10720909
-37.29311 -64.031883 -125.35445 9537666
-36.273209 -64.132904 -125.21899 9406591
-35.338108 -64.028038 -125.16735 9077625
-34.271622 -64.013779 -125.06974 9867141
-33.205494 -63.827923 -125.0352 10590867
-32.217529 -63.848751 -124.93231 9143166
-31.250839 -63.707451 -124.89098 9800835
-30.608379 -63.615051 -124.86299 11181972
-47.154552 -62.994869 -125.44487 10854294
-46.314312 -63.075039 -125.64267 7039331
-45.329597 -63.003269 -125.93826 9210493
-44.380173 -63.233002 -126.10818 10065543
-43.217304 -63.346584 -126.17738 12629672
-42.413067 -63.266315 -126.12932 9010289
-41.335789 -63.157887 -126.06523 9536889
-40.357807 -63.093018 -125.99478 8550256
-39.335365 -63.039051 -125.91602 8418927
-38.305103 -63.099545 -125.79445 9471615
-37.294174 -63.05162 -125.7146 9011836
-36.275936 -63.117706 -125.59212 8617335
-35.27599 -63.075729 -125.51115 9012348
-34.269222 -63.147289 -125.3878 10196106
-33.291103 -63.001053 -125.34719 8682871
-32.283947 -63.188263 -125.18132 8288115
-31.315166 -63.048199 -125.13934 9866631
-30.38658 -62.958164 -125.08288 10129287
-29.374306 -62.942207 -124.99113 8418925
-28.417669 -62.81181 -124.94679 7958632
-27.450575 -62.84837 -124.84013 8419695
-26.343948 -62.703854 -124.7865 8024680
-25.556036 -62.603054 -124.74753 9866624
-48.980873 -61.815636 -125.4027 9209467
-48.224007 -62.010254 -125.53342 9209467
-47.322758 -62.051544 -125.76255 10129802
-46.294392 -62.044479 -126.0449 7760998
-45.486401 -62.271378 -126.17737 8485233
-39.05373 -62.539322 -126.0724 8089963
-38.384289 -62.432526 -126.04711 8090734
-37.291191 -62.345207 -125.97375 9143422
-36.369438 -62.287086 -125.90627 8091505
-35.324051 -62.200108 -125.83739 9473157
-34.375015 -62.154202 -125.76275 10656916
-33.393715 -62.009827 -125.72118 8485748
-32.422665 -62.137161 -125.58074 7630442
-31.411551 -62.06015 -125.51156 9274495
-30.433384 -62.034683 -125.42664 8748405
-29.388519 -62.080116 -125.30918 8024938
-28.28479 -61.995407 -125.23385 8287853
-27.250065 -62.193424 -125.06137 8353902
-26.239632 -62.030289 -125.02384 7630179
-25.280529 -62.074341 -124.9152 7695970
-24.325605 -62.121143 -124.80591 7301471
-23.398806 -61.845432 -124.81782 8091245
-22.522831 -61.775311 -124.75914 9406846
-21.36385 -61.773548 -124.64802 8551283
-20.280209 -61.653114 -124.58778 8089963
-19.662754 -61.586071 -124.55281 8089963
-50.060062 -60.835644 -125.48706 16248798
-49.354771 -61.102757 -125.5759 10591119
-48.34346 -61.068565 -125.86401 9275005
-47.300537 -61.131763 -126.12315 7892584
-46.539627 -61.368027 -126.23896 7563619
-32.13546 -61.383446 -125.82995 8090736
-31.258152 -61.229156 -125.80201 8879994
-30.146936 -61.177902 -125.71368 8879991
-29.218582 -61.094913 -125.65467 8617076
-28.257858 -60.969151 -125.6095 8485749
-27.272621 -61.172005 -125.43868 7301216
-26.319901 -61.051506 -125.39112 8024936
-25.334471 -60.99651 -125.31901 7695970
-24.400036 -61.144978 -125.17165 8551022
-23.34671 -60.990543 -125.12682 7498593
-22.252777 -61.07349 -124.99349 9801092
-21.252014 -61.108238 -124.88161 8550770
-20.321613 -61.006241 -124.82936 8089963
-19.422039 -61.019196 -124.73965 8353134
-18.30632 -60.956738 -124.65321 8879991
-17.231876 -60.848656 -124.5893 9208700
-16.314135 -60.760895 -124.53693 10524300
-15.695025 -60.861877 -124.43633 9735297
-52.893196 -59.74086 -125.5228 13157818
-52.16769 -59.826797 -125.65049 12827573
-51.240665 -59.967556 -125.79777 14406603
-50.317429 -60.153854 -125.90351 14274756
-49.307953 -60.221157 -126.11186 10196362
-48.360512 -60.371746 -126.24926 8353647
