# .PCD v0.7 - Point Cloud Data file format
VERSION 0.7
FIELDS x y z rgb
SIZE 4 4 4 4
TYPE F F F U
COUNT 1 1 1 1
WIDTH 1229
HEIGHT 1
VIEWPOINT 0 0 0 1 0 0 0
POINTS 1229
DATA ascii
107.71896 -24.828766 141.29507 10195082
106.91893 -24.913177 141.65511 9932166
31.128393 -24.582584 162.18495 9538950
30.370741 -24.420555 161.92001 9078399
114.19465 -23.188154 138.73354 7564386
113.27132 -23.523365 139.08401 9734788
112.33586 -23.566561 139.52841 8616563
111.35305 -23.536644 140.02441 9801093
110.56843 -23.513411 140.42007 8353390
109.66335 -23.594997 140.83307 8353390
30.370111 -23.500242 162.28221 10327949
29.610022 -23.49218 161.95558 9012347
115.80077 -22.144583 138.29343 7893358
115.16909 -22.34523 138.55229 7498597
114.25069 -22.39327 139.02844 8287853
113.31236 -22.56649 139.44778 9076858
112.38798 -22.484871 139.93716 7563618
111.55048 -22.677309 140.27229 8616563
110.71526 -22.869761 140.60634 8813941
30.275795 -22.833899 162.50369 13023917
29.487024 -22.490881 162.29663 9538434
116.97755 -21.30295 138.00249 9734788
116.1486 -21.499329 138.36966 8813945
115.26664 -21.432659 138.87299 7235680
114.31735 -21.495697 139.35963 8353903
113.47836 -21.502575 139.79468 9340030
112.78513 -21.627911 140.08569 8616563
29.225195 -21.64727 162.51526 9406848
28.454496 -21.433479 162.26503 8880508
118.75265 -20.180727 137.50342 6510930
117.94747 -20.364458 137.86288 6577237
117.18501 -20.432346 138.24669 6840925
116.40583 -20.412493 138.67543 8156529
115.3828 -20.605862 139.14856 7433061
114.55631 -20.804016 139.51366 8616819
29.115948 -20.768398 162.81406 9012347
28.477564 -20.526123 162.63243 8419959
27.826977 -20.481544 162.36769 7564651
119.92255 -19.293804 137.2354 8420720
119.01168 -19.380554 137.69118 7565417
118.22756 -19.360743 138.12241 7302246
117.33808 -19.294914 138.62943 7104609
116.38297 -19.681559 138.98685 7893615
115.53582 -19.953455 139.33292 8090995
28.457966 -19.798407 162.91054 8419954
27.522135 -19.423578 162.6521 7630443
121.84277 -18.348198 136.5871 9538694
120.92942 -18.501989 137.01678 8815222
120.0111 -18.52309 137.50337 8617843
119.22374 -18.50363 137.93596 8617847
118.43787 -18.484673 138.3676 8091760
117.79705 -18.689848 138.62926 7039331
27.444574 -18.517128 162.97548 7893609
26.668692 -18.430058 162.6731 8287853
123.76286 -17.062243 136.07845 8287853
122.84225 -17.217697 136.51125 10064781
121.93207 -17.5257 136.87596 9407107
121.07009 -17.441301 137.37538 9012601
120.27911 -17.422552 137.80965 9275517
119.48437 -17.699326 138.12489 9473154
27.295498 -17.740089 163.21684 8748407
26.520159 -17.43012 163.00247 7235428
25.873632 -17.393476 162.7364 7038298
124.78601 -16.193272 135.8826 8682611
123.83865 -16.438866 136.29291 9603714
122.93192 -16.372669 136.80904 11314078
122.13556 -16.354231 137.24606 10985369
121.38903 -16.411463 137.62527 9736068
26.510483 -16.502007 163.36383 9142910
25.758804 -16.514391 163.03275 7038303
126.67818 -15.345854 135.30463 10262155
125.83306 -15.437328 135.70535 10525071
124.89001 -15.570721 136.12708 10326668
123.9883 -15.506119 136.65521 10261387
123.22583 -15.562572 137.02496 10656403
122.49895 -15.693036 137.32089 9538694
26.410578 -15.832335 163.5843 9537667
25.576523 -15.510689 163.41719 7630186
24.728014 -15.357401 163.13885 7893358
131.1304 -14.128604 134.11636 8813941
130.53783 -14.116736 134.47807 10590609
129.55434 -14.2409 134.86465 9011320
128.75966 -14.296314 135.22687 9406078
127.83715 -14.640152 135.34067 9736067
126.82809 -14.689095 135.79198 9867653
126.02472 -14.671535 136.24066 11051927
125.10791 -14.871868 136.56247 14143686
25.207045 -14.995505 163.64198 8813945
24.562475 -14.657912 163.64981 8945531
23.703815 -14.26142 163.70438 7827049
145.03616 -13.238639 130.55617 8879479
144.34842 -13.232436 131.20061 9800581
143.32924 -13.665842 131.22195 9668733
142.69505 -13.664654 131.90994 11379348
134.11139 -13.770166 133.26114 7563619
133.59363 -13.765919 133.70901 9734531
132.90344 -13.760504 134.30522 10853012
22.50482 -13.79788 164.50661 8681843
21.663469 -13.768763 164.24287 9142907
12.685609 -13.526294 167.26242 8092019
12.064679 -13.300921 167.0818 8092019
11.439813 -13.27828 166.81964 8090730
145.87715 -12.454496 130.1515 8683642
145.22437 -12.527885 130.72479 8682100
144.5722 -12.601444 131.29736 9932167
12.015702 -12.556333 167.35353 8353906
11.129502 -12.418262 167.02345 7695717
146.74809 -11.350373 129.87375 9012350
146.16638 -11.583802 130.30331 9012350
145.47583 -11.577971 130.95013 9669252
11.017716 -11.491921 167.33954 6971481
10.239552 -11.41756 167.03122 5392706
147.02109 -10.587802 129.98837 8814971
146.21518 -10.748604 130.66209 9209472
10.816812 -10.485925 167.64835 5787464
10.094357 -10.52001 167.32152 5655878
147.98964 -9.3075237 129.70511 9998473
147.15787 -9.5983953 130.3398 9670020
146.43713 -9.9128532 130.85966 9735812
10.198335 -9.6266022 167.71826 5984843
9.3145761 -9.4958553 167.38638 5919050
149.39311 -8.011075 129.03822 11905695
148.80228 -8.2478361 129.46921 8485751
148.10345 -8.2427559 130.11926 8485751
147.51443 -8.4795437 130.54887 9143419
9.8845644 -8.7607059 167.92288 5919050
9.1109819 -8.4878721 167.6947 7826790
149.73148 -7.2076058 129.11984 9208184
149.06682 -7.2837706 129.69833 9406851
148.54156 -7.2802405 130.18671 7564651
9.0768938 -7.6171088 168.02258 8748150
8.3887148 -7.4332271 167.79643 8748923
150.62872 -6.0817509 128.84242 9208184
150.03452 -6.3208356 129.27536 11181973
149.36859 -6.3976254 129.85454 13090226
8.2155809 -6.5240116 168.07919 8354166
7.4438109 -6.2553158 167.85016 8617337
150.91426 -5.3047171 128.95999 8879989
150.09271 -5.4705844 129.63966 10919315
8.0088739 -5.5087328 168.3894 8090995
7.250608 -5.4302378 168.09128 8748666
151.84033 -4.2598925 128.61595 8420720
151.01588 -4.4269385 129.29764 8289136
7.8824401 -4.8187008 168.60678 6510930
7.1390471 -4.6451855 168.35257 7762029
6.4399886 -4.390512 168.14967 7564651
152.57823 -3.3240683 128.40112 8552305
151.90134 -3.4029109 128.98096 8420719
151.30276 -3.6456196 129.41624 9538686
7.0693679 -3.7754519 168.66542 8090734
6.2973952 -3.5104859 168.43491 8156530
152.78629 -2.6712322 128.78545 8092011
152.41661 -2.669776 129.10272 9538686
6.1756492 -2.5657723 168.75479 8814199
5.4327369 -2.5207591 168.45015 8419702
5.9928184 -1.7599206 168.99336 8682869
5.2383323 -1.4802334 168.77625 7696235
4.6222892 -1.2712734 168.59134 7630443
5.1816154 -0.50569731 169.18945 8222576
4.3036361 -0.39520314 168.89494 8156783
4.0259604 0.19093794 169.25246 8420211
3.4131711 0.50434726 169.23984 9275773
2.4015934 1.0326955 169.93939 8617075
1.5789961 1.0283837 169.57474 9011576
-8.1803579 1.6866388 172.6066 9405822
-8.997489 1.6818659 172.27689 8550513
-8.4011106 2.5456638 172.8287 9405822
-9.2187719 2.5394797 172.49821 8287341
-8.6182966 3.1909945 172.9749 10853012
-9.2363997 3.401397 172.80287 9077113
-9.8490171 3.3957925 172.55559 8682615
-9.3597212 4.3744569 173.12312 9340030
-10.232623 4.5274525 172.83945 9011321
-10.170485 5.4878573 173.2372 9537665
-10.92187 5.5506535 172.96611 11511711
-10.324515 6.212934 173.45844 13551549
-11.148395 6.41958 173.21484 11380124
-11.251929 7.2495584 173.49672 10853780
-12.06718 7.6456976 173.33015 7564642
-12.106158 8.5536261 173.66776 7367007
-12.843196 8.5840921 173.38977 6511954
-12.32133 9.4032125 173.91335 9011576
-13.073596 9.4619274 173.64043 8090730
-13.692843 9.6703796 173.478 9735043
-13.100089 10.347367 173.97418 6906456
-13.852 10.405123 173.70097 8616818
-13.33182 11.23198 174.22691 6511954
-14.040526 11.438584 174.02858 10655888
-14.784881 11.866733 173.90233 9472126
-14.054389 12.480975 174.42825 9669249
-14.931434 12.578409 174.12134 8682867
-15.042037 13.428125 174.40811 9537919
-15.867778 13.63083 174.1622 10984593
-15.067138 14.104857 174.68297 10853012
-15.894752 14.308695 174.44873 9998215
-16.740805 14.965693 174.40953 9010805
-16.011995 15.169045 174.78653 9077630
-16.855707 15.693648 174.71083 8419185
-20.930136 16.634399 176.22414 8682867
-21.723181 16.751335 176.1273 9143161
-22.624376 16.775917 175.97716 9142907
-21.761637 17.580103 176.42751 8485489
-22.735373 17.619486 176.26967 10261643
-23.368719 17.615385 176.15575 11380380
-22.133841 18.316751 176.63048 9142907
-22.787893 18.551094 176.6649 9669507
-23.631998 18.543659 176.49609 10788243
-24.281874 18.774197 176.49115 8814457
-23.700098 19.267714 176.99516 9669507
-24.691053 19.453007 176.9288 9537409
-25.651567 19.736883 176.94484 7894126
-25.706274 20.228334 177.31604 7630954
-26.686087 20.52755 177.43741 6906712
-27.682543 20.715019 177.36543 8090986
-27.591616 21.261644 178.1851 7564642
-28.43257 21.246675 177.93784 7367263
-29.497671 21.594498 178.15845 9142906
-30.452711 21.761625 178.1456 9208699
-31.641657 22.296106 178.6046 8089963
-32.066071 22.291189 178.49445 8089963
60.278324 -29.179729 154.4445 10130313
59.555626 -29.190645 154.79042 9406590
58.603077 -29.392487 155.09459 9208957
57.626602 -29.48933 155.49666 8616824
56.746246 -29.612072 155.83076 7959152
55.771484 -29.593807 156.06949 7959152
54.78788 -29.360731 156.28046 9406339
53.887253 -29.227533 156.42125 9010808
52.801937 -29.096655 156.63179 9734531
51.99865 -29.070459 156.73862 9538176
99.938805 -28.293694 143.7373 10327436
99.055946 -28.313684 144.16425 10656657
98.191597 -28.250778 144.61525 9669761
97.2649 -28.313423 145.04663 10261128
96.402641 -28.252232 145.49599 9735299
95.793671 -28.44906 145.71704 13024949
94.050545 -28.684708 145.33882 8092019
93.348755 -28.684273 145.78882 9602945
92.468773 -28.683744 146.34709 9931910
91.762306 -28.683336 146.7897 9143419
85.274246 -28.68869 147.63184 8681843
84.561562 -28.688385 148.03961 9734788
83.668114 -28.688023 148.54498 9537409
82.771637 -28.687679 149.04453 9866117
82.05246 -28.687416 149.44078 8681843
73.829475 -28.69327 150.83745 9275007
73.101654 -28.69314 151.19034 9933707
72.1894 -28.692995 151.62622 8486261
71.274605 -28.692865 152.05716 8814710
70.357201 -28.69276 152.48204 9275261
69.437386 -28.692669 152.90192 9537921
64.381126 -28.852119 153.38881 11182491
63.471764 -28.859276 153.81123 8617080
62.378822 -28.86882 154.31596 9866885
61.466751 -28.877489 154.73471 10524303
60.553295 -28.886898 155.15172 10130313
59.638504 -28.896915 155.56729 9735555
52.080059 -28.797346 157.62254 9867139
51.071766 -28.765594 157.75322 9537659
50.065208 -28.734583 157.88136 9012088
49.063705 -28.706438 158.01918 10984854
48.104153 -28.702871 158.28844 8946041
47.149773 -28.703201 158.5743 7564651
46.193562 -28.70355 158.85397 9011581
45.235794 -28.703918 159.1283 9537667
44.276295 -28.704304 159.39642 9274752
43.122799 -28.70479 159.71077 8485752
42.159958 -28.705214 159.96667 8683131
41.195503 -28.705658 160.21629 11248794
40.229622 -28.70612 160.46049 9209467
39.262192 -28.7066 160.69847 10985366
38.293465 -28.707098 160.93103 11445918
37.323219 -28.707613 161.15749 11248795
36.351768 -28.708149 161.3784 9537666
35.378891 -28.7087 161.59305 9603973
34.442108 -28.529051 161.97865 9472387
33.795197 -28.47868 161.80698 10129798
101.94238 -27.331623 143.13617 10064521
101.02842 -27.477085 143.52808 11511199
100.0958 -27.538031 143.9631 10327436
99.228821 -27.47464 144.41563 10656657
98.278328 -27.452457 144.89279 9735298
97.28669 -27.640842 145.30577 10984337
34.45269 -27.817953 162.3528 10458766
33.499062 -27.412796 162.09863 11379350
103.81936 -26.214657 142.65958 9735297
102.8671 -26.422953 143.04521 8682867
102.05145 -26.426119 143.44571 9932935
101.10514 -26.515955 143.87589 10064521
100.20866 -26.441252 144.34752 9801348
99.279106 -26.673382 144.7123 9472639
33.433491 -26.506191 162.42757 10656141
32.639603 -26.39385 162.12727 10129798
105.66406 -25.305868 142.1154 8092019
104.84578 -25.496958 142.44186 12234663
103.88235 -25.471352 142.92677 9406332
103.11283 -25.451548 143.31383 9735297
102.15246 -25.427635 143.79649 10064521
101.14938 -25.615913 144.21516 10064521
33.150116 -25.647732 162.6427 10129798
32.540241 -25.474907 162.44614 9077883
31.840746 -25.334799 162.19777 9144449
107.59423 -24.217485 141.60196 9603202
106.79919 -24.395639 141.92194 8353905
105.85011 -24.455664 142.3652 9209212
104.8828 -24.430334 142.85172 10854293
104.11029 -24.410723 143.24007 8091760
103.16907 -24.643538 143.61024 9143935
102.28648 -24.792707 143.98518 10261647
32.458809 -24.595703 162.7571 10262414
31.736471 -24.455652 162.49884 9144449
109.44251 -23.265453 141.07417 7892839
108.613 -23.457733 141.4054 8813686
107.83315 -23.436428 141.79797 8813686
106.86018 -23.41062 142.28752 9998472
105.88895 -23.385656 142.77576 9012089
105.16262 -23.438879 143.11208 9736070
104.48653 -23.565155 143.39429 8091760
31.546976 -23.528547 162.78174 10525586
30.682863 -23.261486 162.51193 13023917
111.69883 -22.031603 140.45857 7826790
110.66593 -22.219442 140.89172 9669507
109.70622 -22.471111 141.26326 9274749
108.80491 -22.601097 141.65489 7563619
107.91592 -22.53471 142.11932 8550514
107.02499 -22.662609 142.5067 10459279
106.22311 -22.750072 142.86646 8090987
31.356064 -22.600044 163.06465 10196108
30.576223 -22.381527 162.8123 12497830
113.28136 -21.20673 140.01047 8616563
112.58836 -21.332466 140.30127 8616563
111.65032 -21.379234 140.74443 10985367
110.66517 -21.352875 141.24011 10130316
109.87872 -21.332443 141.63564 9669252
108.96415 -21.597509 141.97951 9932167
107.97117 -21.932526 142.33397 9208444
30.604271 -21.470053 163.18347 10853777
29.80448 -21.346008 162.88527 10130312
114.3655 -20.508373 139.73759 9669766
113.63098 -20.562519 140.09706 7564651
112.63981 -20.535843 140.59586 8485745
111.65089 -20.509861 141.09329 11906725
110.86141 -20.489681 141.49016 8090736
110.02463 -20.685837 141.82339 9669253
30.446417 -20.66246 163.43304 9538175
29.708601 -20.412224 163.21144 10327433
116.22591 -19.239061 139.25269 8090995
115.42512 -19.425007 139.60884 8354162
114.59734 -19.431137 140.05315 9143680
113.6227 -19.524786 140.51785 7762027
112.71145 -19.534271 140.96277 8814710
111.89861 -19.717628 141.28943 8880503
29.386423 -19.514704 163.42514 10195591
28.641891 -19.280918 163.1942 8617074
117.90177 -18.251574 138.75212 7039331
117.26196 -18.457075 139.01335 7301474
116.4799 -18.439268 139.44275 7169887
115.59243 -18.375668 139.94785 8880503
114.63723 -18.442846 140.43602 9077630
113.8875 -18.601089 140.75836 7564651
28.841507 -18.563299 163.56342 9998212
27.982462 -18.311499 163.28981 9735297
118.99454 -17.540512 138.45412 9144190
118.25574 -17.597433 138.82924 8354675
117.47044 -17.57995 139.25996 7301474
116.57953 -17.5166 139.76649 6577748
115.68337 -17.65184 140.1949 8222576
28.578527 -17.649042 163.80943 9735297
27.758284 -17.368639 163.56393 9603714
120.99826 -16.106014 137.96109 8815222
120.18225 -16.458651 138.25674 8880759
119.30807 -16.513508 138.70572 10656915
118.51931 -16.496691 139.13803 11512223
117.64906 -16.552385 139.58453 8354162
116.84216 -16.904259 139.87556 7169374
27.674109 -16.498505 163.87016 10195339
26.817202 -16.252718 163.59511 9537667
122.88641 -15.262137 137.42184 8682867
122.09539 -15.391819 137.75597 14471880
121.3034 -15.492039 138.10742 11379609
120.4114 -15.429817 138.63234 8485493
119.65332 -15.487132 138.99356 10854552
118.73074 -15.61369 139.38568 12499119
27.497662 -15.888769 164.03377 10853012
26.820267 -15.395115 164.03198 9537667
26.068583 -15.035818 163.98192 8287859
127.78054 -14.063436 136.15408 9538944
126.99502 -14.048928 136.62929 8025449
126.2105 -14.034625 137.10292 8025193
125.25343 -14.267973 137.18527 10130569
124.1205 -14.675338 137.26509 9603969
123.22589 -14.613157 137.80159 8682867
122.42977 -14.597254 138.2449 10261899
121.52375 -14.798143 138.56007 9998215
26.554033 -14.67032 164.4839 9537667
25.714119 -14.437637 164.3071 9274238
24.88212 -14.209603 164.16878 7038307
143.48933 -13.22517 132.00531 9932161
142.54613 -13.366879 132.62369 10655625
141.73694 -13.662895 132.93546 9076854
132.38565 -13.75661 134.7518 8813941
131.79311 -13.745321 135.12088 9669507
130.99725 -13.729903 135.6048 10590609
130.20261 -13.714787 136.08708 12695724
129.60725 -13.703626 136.4478 9208443
23.774645 -13.84238 164.90314 6905947
22.927013 -13.812605 164.63866 5919050
13.952554 -13.370357 167.87337 15194062
13.196313 -13.30185 167.57234 10459281
144.15483 -12.439621 131.76497 10261132
143.5033 -12.513604 132.33673 9734779
142.92581 -12.746565 132.76257 9208435
13.346215 -12.534215 167.93939 9867401
12.577706 -12.440078 167.6431 8092019
144.95821 -11.573744 131.43483 8879479
144.44092 -11.569691 131.91927 9340030
143.78831 -11.644134 132.49188 9142901
13.154263 -11.916066 168.09944 8092019
12.325616 -11.481464 167.91101 8485234
11.49875 -11.048903 167.72261 9208443
145.96419 -10.388021 131.07072 9735812
145.38229 -10.622627 131.49982 9011321
144.69119 -10.617547 132.14684 9011577
12.144185 -10.454879 168.23631 9208443
11.377179 -10.365435 167.9388 6642773
147.03889 -8.9573126 130.76106 9143419
146.29089 -9.5920362 131.15135 9538177
145.63458 -9.6673079 131.72701 8748149
145.05232 -9.9028387 132.15608 9143419
11.956506 -9.6302137 168.47943 7169117
11.326913 -9.6141443 168.21268 6642773
10.704347 -9.3939791 168.02927 6839895
147.2637 -8.1165047 130.96001 8485235
146.41258 -8.5320997 131.55104 9406847
145.65086 -8.9478941 132.06018 9735812
11.245721 -8.6889591 168.54156 6182734
10.427114 -8.5093212 168.25717 6379601
148.09689 -7.1968565 130.63979 7564651
147.40921 -7.3214421 131.21577 7958635
146.72824 -7.5104733 131.75378 8616563
10.330552 -7.538414 168.5974 7498337
9.4992838 -7.3170781 168.32393 8681843
148.94499 -6.2333922 130.3279 8354165
148.28003 -6.3103919 130.90613 8419958
147.61595 -6.3874426 131.48364 8090221
10.135259 -6.916543 168.75742 8090986
9.4660921 -6.4408317 168.6544 9077372
8.6913309 -6.0682402 168.465 8090995
149.84109 -5.1041656 130.05309 9210491
149.24693 -5.3443766 130.48547 9078141
148.5443 -5.3407183 131.13837 9406338
9.3298197 -5.4570379 168.98306 10261132
8.5658617 -5.3782396 168.68259 8550513
150.21811 -4.3742619 130.06281 7959406
149.51338 -4.371026 130.71738 8090737
148.91879 -4.6122632 131.14964 9735046
9.1376352 -4.6249976 169.22792 9603202
8.3866282 -4.5755892 168.92146 7497825
151.15736 -3.3181562 129.71201 9276028
150.3103 -3.3964725 130.45837 7827821
8.423913 -3.6823709 169.29001 6774102
7.6078811 -3.5126626 169.00281 7367013
151.86276 -2.6675918 129.5782 12432037
151.28104 -2.5016148 130.23965 9802114
150.57254 -2.6624992 130.68547 7564651
7.5052619 -2.530206 169.34587 8090734
6.6762023 -2.3181248 169.06969 9143161
7.2073455 -1.5882487 169.58815 9669246
6.5231872 -1.3987472 169.36601 8814454
5.8634849 -1.0635886 169.21193 8485747
6.426641 -0.50438416 169.73019 7827820
5.7374206 -0.36524531 169.53928 8222576
5.4776587 0.30094486 169.96904 8617333
4.6522002 0.50912422 169.77911 7893613
3.6423085 1.0392797 170.48943 9407615
3.0207646 1.0359597 170.21387 8617075
-6.1232057 1.4830511 173.35886 8419702
-6.9498315 1.6938767 173.10321 8419702
-7.0452104 2.5127609 173.36108 8879995
-7.7861848 2.5503252 173.07724 10853012
-7.2511086 3.3477037 173.58038 8879734
-8.006732 3.4128952 173.3006 9405822
-8.6265364 3.6233184 173.12785 10853012
-7.9552865 4.3537164 173.66888 8419183
-8.8100729 4.5760798 173.41765 7169373
-8.2497511 5.3674827 173.94554 7958888
-8.994483 5.5325484 173.71689 7958377
-9.6989393 5.7848535 173.53804 10524560
-8.9576712 6.379066 174.06039 9274234
-9.8381414 6.4827309 173.75452 9537665
-9.9949408 7.4792876 174.08025 9735042
-10.911151 7.8117762 173.84921 12301226
-9.9653616 8.4169874 174.45631 9012086
-10.794326 8.6224546 174.21027 9932933
-11.621844 8.8274231 173.96458 10853780
-11.022624 9.5035734 174.463 11314583
-11.778556 9.5618706 174.18845 12301223
-11.245822 10.165261 174.63242 12104098
-11.74673 10.42153 174.5351 10459274
-12.485419 10.360722 174.22104 7301214
-11.999618 11.375158 174.80632 6511954
-12.81269 11.531371 174.54738 7235676
-12.75534 12.589079 174.98105 7367006
-13.511893 12.644304 174.70506 10458505
-12.98125 13.25817 175.1523 10064003
-13.811282 13.461165 174.90488 8748660
-13.83842 14.253276 175.23189 8682867
-14.669536 14.456869 174.99619 9406078
-14.760222 15.426534 175.42365 8748406
-15.685008 15.762618 175.2347 9670024
-18.6957 16.520309 176.79507 4866361
-19.533804 16.728622 176.57373 8616561
-20.37084 16.715162 176.35284 8090987
-19.780447 17.645365 176.83742 8616822
-20.622412 17.63483 176.64912 7432805
-21.267096 17.86075 176.61891 8090987
-20.560156 18.452682 177.02962 8090479
-21.520903 18.563274 176.91991 8353905
-22.1752 18.797316 176.95366 9209467
-21.588472 19.29286 177.4648 9209467
-22.457594 19.527418 177.46228 9209467
-23.42116 19.638561 177.34354 9340542
-23.380102 20.25642 177.85129 9209467
-24.460981 20.375183 177.77196 8879736
-25.374903 20.758062 178.04645 8485749
-26.544382 21.285929 178.53291 9143675
-27.170668 21.269398 178.30916 7564642
-28.373709 21.820818 178.94681 8551025
-28.981707 21.789667 178.60204 10853012
95.390114 -28.188822 146.0202 10787732
94.5131 -28.213112 146.44255 9077373
93.569954 -28.195091 146.9144 8880508
92.587547 -28.386545 147.32156 8814715
91.633568 -28.476698 147.50494 9012091
90.88929 -28.576548 147.62466 8288371
89.808578 -28.682274 147.98914 9143677
88.915382 -28.68182 148.52612 10262156
81.69191 -28.687288 149.63751 8681843
80.969719 -28.687046 150.02788 9998215
80.0644 -28.68676 150.51163 10656401
79.156075 -28.686491 150.98955 10788499
78.245018 -28.686239 151.4623 14605006
77.696999 -28.686098 151.74341 16249831
68.5149 -28.692598 153.31573 9537921
67.590065 -28.692547 153.72443 8617336
66.662567 -28.692513 154.12724 9735558
65.732956 -28.692497 154.5247 8616823
64.800705 -28.692503 154.9164 12630192
63.866379 -28.692524 155.30261 11182490
62.929474 -28.692566 155.68301 9670018
58.722198 -28.907803 155.98109 9669509
57.80452 -28.919266 156.39343 8814203
56.885323 -28.931536 156.804 10064011
55.926136 -28.924747 157.10408 8814203
54.911751 -28.890177 157.24388 9471875
53.898899 -28.856379 157.38145 10129289
53.08976 -28.829834 157.48962 10129289
36.498085 -28.550224 162.95184 9538432
35.840744 -28.285265 162.77103 9801350
35.167236 -28.21847 162.50496 9012350
97.371353 -27.221533 145.43222 11444374
96.465126 -27.370632 145.81886 9472128
95.539368 -27.435799 146.24878 10129546
94.677399 -27.376842 146.69708 9603715
93.732506 -27.359293 147.16959 9143679
92.708084 -27.760511 147.51335 9143679
91.914467 -27.956425 147.82573 9341055
35.690033 -27.473576 163.02554 9538432
34.885757 -27.356749 162.72256 9341056
99.224434 -26.101227 144.96883 9932934
98.323181 -26.482752 145.2597 10392714
97.498589 -26.591745 145.62221 10984337
96.548836 -26.57206 146.09799 9537665
95.600143 -26.553268 146.57286 9997960
94.720222 -26.578779 146.99614 9932423
34.872799 -26.513796 163.04909 9603969
33.98793 -26.318804 162.74196 8682867
101.23779 -25.193302 144.34113 11050906
100.3215 -25.342075 144.73283 9537916
99.386269 -25.406084 145.16791 10130055
98.452705 -25.470669 145.60191 9932677
97.520645 -25.536121 146.03481 9801348
96.526749 -25.727768 146.44754 9603973
95.724884 -25.923479 146.76411 10261132
34.506149 -25.569048 163.26208 9867141
33.835262 -25.509621 162.99445 9603969
33.201427 -25.056595 162.89786 10854036
102.76092 -24.377934 143.91789 10261647
102.08987 -24.504108 144.19783 10787734
101.37061 -24.558483 144.53033 11050906
100.41147 -24.537123 145.01141 9866623
99.453667 -24.516624 145.49152 10787727
98.688484 -24.50083 145.87482 9735812
97.881508 -24.696768 146.19376 9735812
33.922874 -24.520781 163.42192 10656657
33.110252 -24.385771 163.12248 10985622
104.9658 -23.148376 143.32568 9736070
104.07737 -23.298428 143.70288 8420468
103.20389 -23.595543 144.01373 7828589
102.3628 -23.515255 144.46019 10261647
101.4001 -23.494066 144.94286 11379612
100.45974 -23.55934 145.3799 10261382
99.583961 -23.88188 145.68195 10787727
33.751419 -23.907284 163.58916 8682867
32.893196 -23.437874 163.4016 9669766
106.70608 -22.331894 142.79662 8090987
106.02628 -22.458637 143.08044 8485745
105.10435 -22.508259 143.51453 9209983
104.1349 -22.485731 144.00095 8881019
103.36055 -22.46838 144.38925 6776158
102.46253 -22.491669 144.82211 8288884
101.57763 -22.644127 145.19659 10261647
32.754684 -22.428619 163.73906 11380380
31.967916 -22.46792 163.38213 10656658
108.7496 -21.087635 142.28993 9735046
107.91847 -21.283445 142.62054 9011324
107.08944 -21.479317 142.95018 10064521
106.17473 -21.404032 143.43083 7367008
105.21124 -21.497459 143.86781 7433314
104.38437 -21.503727 144.27245 9143931
103.59165 -21.687172 144.58914 7433830
32.582043 -21.81538 163.90565 9932937
31.931023 -21.567104 163.72093 8814458
31.265932 -21.518282 163.45157 8682867
109.80262 -20.354837 142.06566 9143166
108.89382 -20.441383 142.47839 9406338
108.10917 -20.422905 142.87222 8879995
107.1302 -20.400549 143.36333 9275006
106.20255 -20.451956 143.79948 8419696
105.5211 -20.581066 144.08321 8419696
31.893539 -20.663937 164.06041 8222319
31.034595 -20.446781 163.77324 8880246
112.59325 -19.007191 141.23267 10591121
111.89907 -19.135931 141.52281 10130570
111.02268 -19.405628 141.84605 8814202
109.98266 -19.642271 142.26315 8485493
109.08659 -19.578012 142.73024 9406338
108.19207 -19.514545 143.19623 8354165
107.27205 -19.754509 143.55293 8419441
30.891253 -19.533924 164.07059 9735297
30.098627 -19.44174 163.76289 12235172
113.68945 -18.303843 140.97528 7893611
112.94245 -18.359123 141.32095 9341054
111.94907 -18.335966 141.81944 9472385
110.88877 -18.442808 142.29866 9800838
110.11773 -18.512899 142.65018 9340288
109.27977 -18.712494 142.98267 9735046
108.64068 -18.916197 143.21561 9735046
30.721384 -18.580223 164.37251 10919829
29.955032 -18.432146 164.09827 12169123
115.36947 -17.315142 140.50211 8814715
114.73339 -17.522245 140.76071 7104352
113.94176 -17.504827 141.17192 7498853
112.94447 -17.482159 141.67213 8880504
111.94933 -17.460176 142.17097 8090733
111.1056 -17.660913 142.50584 9735043
29.952875 -17.495821 164.46614 10195851
29.184319 -17.504353 164.12927 8419695
117.44326 -16.031694 139.90881 8089963
116.53522 -16.367571 140.26096 6445394
115.76997 -16.440912 140.64374 6116941
114.91775 -16.361502 141.13487 6380881
113.9669 -16.530865 141.55067 7565156
112.99584 -16.677687 141.96985 8485747
112.29779 -16.809534 142.26065 7038307
29.85627 -16.819702 164.69052 7564651
28.988892 -16.570374 164.41235 8353906
119.32628 -15.190528 139.40373 9538950
118.40563 -15.317746 139.79738 8881277
117.65045 -15.375752 140.15538 7892584
116.86472 -15.361166 140.58836 6774359
116.08035 -15.346928 141.02036 5919562
114.99644 -15.543063 141.42952 5920074
28.911432 -15.697164 164.75394 8814715
28.02776 -15.441684 164.52629 10458506
27.370142 -15.097316 164.49498 10853012
124.44872 -14.003561 138.16278 7959144
123.47182 -13.986936 138.74846 8682867
122.69137 -13.973997 139.2153 8814455
121.68755 -14.262289 139.08444 9472129
120.54252 -14.604574 139.25674 8222065
119.65475 -14.54445 139.7877 8026225
118.86507 -14.530102 140.22612 7565675
117.77209 -14.72814 140.64386 7366240
27.862097 -14.730699 165.00069 10261124
27.108706 -14.461668 164.89032 9471867
141.77295 -13.211937 133.61238 9076854
140.98447 -13.510015 133.94153 12695466
140.28647 -13.660312 134.46129 9406588
129.01262 -13.692567 136.80751 9208443
128.22061 -13.67816 137.28578 15724510
127.4557 -13.666743 137.79066 9538944
126.95116 -13.665516 138.2435 6511954
26.123791 -13.926085 165.63194 8287592
25.052496 -13.887699 165.30034 7038307
15.362374 -13.491382 168.43729 7367011
14.586701 -13.394025 168.13914 8749177
142.67451 -12.388738 133.17006 9208693
141.87556 -12.549178 133.83751 9537919
141.20863 -12.734368 134.3698 11906725
15.244851 -12.805401 168.65628 9011065
14.402722 -12.570909 168.38329 9735557
143.46901 -11.32445 132.94435 8682867
142.8092 -11.605513 133.42368 9537664
142.20192 -11.553885 134.015 9340798
14.426637 -11.85542 168.6752 9933191
13.592957 -11.404262 168.49115 9604484
144.23558 -10.375607 132.68892 8616563
143.7464 -10.658729 133.008 8748660
143.00215 -10.685651 133.68895 9866373
13.535459 -10.535425 168.80815 10656657
12.775598 -10.472672 168.50323 10854036
145.17816 -9.4245653 132.27022 9143419
144.59613 -9.6603222 132.69888 8484977
143.90442 -9.6558924 133.3461 8485489
143.32373 -9.8916264 133.77356 9406078
13.362184 -9.7352982 169.04788 9669506
12.594644 -9.4408588 168.83081 10130057
11.973413 -9.0144863 168.72911 6510930
145.59459 -8.3705616 132.39209 9472640
144.83585 -8.4622078 133.05531 8353391
144.26482 -8.9392796 133.35699 8089963
12.551843 -8.4782238 169.1911 6971481
11.779656 -8.3922863 168.88994 6510930
146.58228 -7.1876817 132.04784 8945784
145.74722 -7.2634387 132.78633 9537664
12.430348 -7.7864113 169.41072 6510930
11.591092 -7.5628095 169.13458 6511442
147.29472 -6.0627146 131.94106 9734531
146.62138 -6.349803 132.42377 9931910
145.94017 -6.539896 132.96136 9142651
11.473775 -6.6635904 169.43768 7301214
10.608411 -6.4282041 169.15498 8419695
148.08351 -5.0954432 131.68594 9735046
147.58351 -5.3846321 132.00703 9274238
146.82697 -5.4133916 132.69392 10063753
10.714768 -5.5169892 169.56052 9735555
9.9582834 -5.4653015 169.25253 11380380
149.05173 -4.1249733 131.2662 8617080
148.45755 -4.3663869 131.69806 10261133
147.75441 -4.3633542 132.35101 10260875
10.537122 -4.709723 169.80188 9143674
9.7668123 -4.6317334 169.49826 9603202
149.42793 -3.3930664 131.27762 7827566
148.72278 -3.3904309 131.93233 7827566
148.12822 -3.63287 132.36401 9735046
9.5767908 -3.7065017 169.78082 7760997
8.8848963 -3.3035824 169.63951 7300446
151.22346 -2.1742263 130.61327 7564651
150.41531 -2.2940741 131.18495 9011837
149.68484 -2.4957788 131.60919 9867142
148.92384 -2.6564376 132.10992 8090991
9.5969286 -2.7500408 170.16693 7564643
8.7602129 -2.5360596 169.8882 7958633
150.32672 -1.6788929 131.74574 11181972
8.6374979 -1.6262898 170.19383 8156269
7.7745185 -1.400562 169.90836 8879990
8.3754206 -0.64324212 170.46786 8089963
7.752748 -0.43261319 170.36029 8484720
6.9870696 -0.3634209 170.08202 8090477
6.6476226 0.36835331 170.52911 8748662
5.9020858 0.61974257 170.40793 8485747
5.5191894 1.0492711 171.3219 9341054
4.6828971 1.0448251 170.95091 8814454
-4.8835435 1.5981038 173.89806 9209471
-5.7144532 1.8092115 173.64082 8879995
-5.7243867 2.5662727 173.91063 8485749
-6.5545983 2.7760718 173.65323 10261132
-5.9433427 3.4325423 174.13599 7434089
-6.7031579 3.4975655 173.85451 9472129
-6.1597352 4.0832291 174.28442 12432045
-6.698916 4.5134697 174.2274 11182743
-7.5508485 4.7940621 173.9975 8682867
-6.8735528 5.531868 174.55054 11774879
-7.7590623 5.6366496 174.24307 9603968
-7.7735772 6.4264464 174.54437 10130311
-8.4821768 6.6790414 174.36395 10129798
-7.8739762 7.3500819 174.86391 8682867
-8.7020979 7.3359418 174.53284 11050643
-8.7908735 8.2918568 174.86945 13023917
-9.5564375 8.6020927 174.68903 12169122
-9.5771589 9.5337772 175.04305 9603966
-10.404243 9.516386 174.71109 9012086
-9.8720007 10.344524 175.24226 7959399
-10.632358 10.401813 174.96561 9735809
-10.569507 11.457857 175.40077 8551535
-11.448085 11.589946 175.10667 6248782
-10.889407 12.412659 175.64615 9012086
-11.639358 12.573288 175.4137 7169883
-12.142947 12.830029 175.31549 6511954
-11.607547 13.446643 175.76564 10589579
-12.493674 13.542446 175.4545 7564384
-12.603599 14.403193 175.78391 9208697
-13.438273 14.606442 175.54668 8682867
-12.626258 15.088121 176.08066 10786703
-13.461787 15.291573 175.84311 9340541
-14.325583 15.966947 175.9565 8682867
-13.707149 15.989535 176.2395 9274235
-17.4498 16.554893 177.26619 8089960
-18.280993 16.53175 176.9518 8089960
-17.467672 17.016693 177.43889 4866361
-18.317911 17.455692 177.29694 8813682
-19.158319 17.662836 177.06863 8879478
-18.572264 18.385874 177.64781 8089960
-19.422644 18.601984 177.49722 9406080
-20.2764 18.821589 177.38057 9142909
-19.694075 19.328279 177.98114 9734788
-20.3421 19.555828 177.94421 8090479
-21.125273 19.626095 177.82307 7498597
-21.846411 19.780373 177.78952 9209467
-21.497896 20.306496 178.49969 8288365
-22.329576 20.278593 178.16504 8880502
-23.30102 20.82921 178.9095 9209467
-23.912443 20.796793 178.56013 8550257
-25.321829 21.347809 179.21227 9931910
-25.932695 21.315645 178.86359 10853012
90.706673 -28.355131 148.26074 9012091
89.955238 -28.343719 148.63557 9011576
89.016563 -28.330233 149.10332 8551025
88.042694 -28.535919 149.26254 8748921
87.132408 -28.456182 149.8555 8814715
86.260185 -28.584883 150.18021 7827823
85.310539 -28.680202 150.61902 9735553
77.148064 -28.685963 152.02208 12104616
76.414436 -28.685795 152.39093 12959413
75.494896 -28.685606 152.84682 9735812
74.572777 -28.685429 153.2975 9998215
73.647835 -28.685276 153.74226 7695204
72.906067 -28.685162 154.09457 8682867
61.990532 -28.692623 156.05811 9209467
61.049168 -28.692703 156.42711 10327180
60.105736 -28.692799 156.79086 10459022
59.16003 -28.692915 157.14853 9932934
58.212349 -28.69305 157.50082 10459278
57.262375 -28.693201 157.84711 10985110
56.310387 -28.693373 158.18806 10458511
55.356384 -28.693565 158.52292 9603203
54.400406 -28.693773 158.85236 8681843
53.442364 -28.694 159.17566 9602945
52.482567 -28.694246 159.49356 10064519
51.520752 -28.694511 159.80533 9537659
50.557137 -28.694794 160.11163 9603712
49.591644 -28.695097 160.41182 7827815
48.624462 -28.695415 160.70657 7959401
40.040909 -28.699034 163.04617 9209467
39.057945 -28.699535 163.28302 9143931
38.065426 -28.693916 163.47873 9670531
37.064972 -28.36747 163.26991 9407103
92.828766 -27.133619 147.70537 9538435
91.845528 -27.327026 148.11214 9735812
90.93338 -27.581858 148.4593 9012091
90.041588 -27.449068 148.9519 9340797
89.114098 -27.548285 149.36902 8485233
88.192894 -27.6931 149.76476 8814715
87.404137 -27.892294 150.07343 8814715
36.978584 -27.531456 163.56197 9472896
36.141117 -27.517082 163.20419 9867398
94.314857 -26.318943 147.30008 10262156
93.706108 -26.518572 147.51987 8946301
92.949623 -26.505732 147.89771 8090995
92.004913 -26.490538 148.36923 8288371
91.060951 -26.476244 148.83997 8288371
90.185524 -26.505749 149.25945 10262156
36.670227 -26.767067 163.72931 9209467
36.009357 -26.504906 163.54576 9933191
35.368969 -26.04616 163.44862 9538432
96.652832 -25.096373 146.63875 9538694
95.744057 -25.248493 147.02539 10064781
94.800674 -25.537491 147.37424 9998473
93.909721 -25.469477 147.84041 8879479
92.96209 -25.454155 148.31343 8353647
91.97538 -25.649511 148.72118 8814710
91.179398 -25.848129 149.03363 8814710
36.021446 -25.570984 163.9189 9735812
35.19883 -25.43091 163.61708 8946039
98.157814 -24.278194 146.22556 9735812
97.492844 -24.406572 146.50166 9735812
96.779099 -24.463829 146.83026 9604485
95.826302 -24.446667 147.30659 9012607
94.874504 -24.430311 147.78203 10195853
94.113869 -24.41787 148.16174 8616307
93.503151 -24.619448 148.38174 8616307
35.932713 -24.893808 164.14703 9538432
35.054478 -24.5313 163.90877 9603969
100.33431 -23.045431 145.64789 9208435
99.607971 -23.201382 145.94313 9800830
98.653648 -23.491253 146.29701 8288366
97.754997 -23.421173 146.76782 6512211
96.798981 -23.40403 147.24568 9406593
95.80233 -23.599127 147.65839 8092019
94.998306 -23.797665 147.9749 9472387
34.798645 -23.592649 164.1675 11380122
34.062737 -23.452545 163.90335 9801348
102.0527 -22.226242 145.13049 10261647
101.37991 -22.354988 145.41011 10261388
100.65861 -22.411699 145.74252 10261382
99.696556 -22.39303 146.22383 9208435
98.735802 -22.375124 146.70427 8420208
97.968254 -22.361406 147.08789 8222059
97.15918 -22.560343 147.40666 6973278
34.757854 -22.785297 164.4678 13023917
34.099106 -22.532585 164.28145 10261898
33.425114 -22.48028 164.00957 8485494
104.26122 -20.985071 144.54138 8814709
103.43929 -21.182833 144.86668 8880502
102.48751 -21.635477 145.15363 9078139
101.6072 -21.57489 145.61142 10064521
100.64212 -21.55625 146.09418 9407106
99.678398 -21.538338 146.57594 8486262
98.865219 -21.737499 146.89645 10655627
33.944302 -21.716373 164.53574 9142907
33.123627 -21.404297 164.30257 9274751
106.00443 -20.159781 144.01437 8419696
105.32314 -20.289164 144.29793 8682867
104.39887 -20.341869 144.73189 10393485
103.36069 -20.450083 145.19969 10656658
102.60525 -20.521315 145.54309 10196107
101.7472 -20.505026 145.97217 9932936
100.79648 -20.809431 146.3181 7762796
100.00216 -20.902225 146.67197 8486262
33.055614 -20.484489 164.63531 11116953
32.252647 -20.388184 164.32483 8880251
107.17069 -19.318958 143.7778 6511443
106.34027 -19.518044 144.10666 8419696
105.45049 -19.456535 144.56953 10130313
104.49549 -19.523994 145.01279 10196362
103.60867 -19.463713 145.47365 11775139
102.88048 -19.522032 145.80888 10327693
32.767525 -19.618282 164.85155 12433069
32.095818 -19.573454 164.57767 9603969
31.443045 -19.329462 164.3905 9932934
109.10495 -18.164209 143.289 9735046
108.14632 -18.470655 143.63794 8090737
107.36008 -18.454515 144.03163 6379602
106.43974 -18.381935 144.51393 6840411
105.49921 -18.562565 144.90456 7630437
104.62139 -18.690372 145.28555 7235677
103.94032 -18.822048 145.56802 11183001
32.127174 -18.648487 164.95561 9472639
31.336035 -18.437567 164.69539 9932934
111.20435 -17.225134 142.63222 9735043
110.1641 -17.422266 143.06532 10524814
109.17525 -17.402082 143.56039 13353397
108.3857 -17.386454 143.95546 9801347
107.48888 -17.325598 144.42155 11643811
106.56696 -17.569584 144.77754 7630443
31.142813 -17.498459 164.98141 9209467
30.268564 -17.245878 164.70158 10064779
112.79671 -16.380344 142.18736 7038307
112.0989 -16.512388 142.478 7038307
111.24326 -16.524298 142.89452 9735043
110.27058 -16.592678 143.34605 8814454
109.36887 -16.531382 143.81474 14537413
108.5778 -16.516481 144.21025 8682867
107.93748 -16.723162 144.44257 8682867
30.948236 -16.557547 165.26758 8551540
30.159311 -16.352448 165.00607 8025201
115.59808 -15.122924 141.47279 5920074
115.011 -15.11286 141.79613 5920074
114.02715 -15.44044 142.04466 7564902
113.17932 -15.449422 142.46805 7959405
112.23879 -15.492832 142.89153 7762027
111.26929 -15.734848 143.21194 9735043
110.3676 -15.674275 143.68652 8879991
109.5145 -15.876916 144.00586 10985364
30.116091 -15.491619 165.37579 8814715
29.397289 -15.324972 165.18846 8814715
118.3818 -14.304036 140.68285 7565675
117.79066 -14.293913 141.01071 6642517
116.89658 -14.495812 141.31764 6642517
116.11145 -14.482694 141.75256 8092011
115.32731 -14.469876 142.18636 6973274
114.2239 -14.666422 142.57092 7630438
113.42297 -14.651662 142.97684 9209467
29.116978 -14.632185 165.62154 10656399
28.192118 -14.484913 165.33977 9735037
140.74413 -13.204842 134.57532 9341054
140.08646 -13.354251 135.02637 8748660
139.42741 -13.428087 135.58354 10064009
138.81947 -13.657791 135.97128 16248807
126.45026 -13.664823 138.70029 11051671
125.78001 -13.663906 139.30658 11314840
125.27554 -13.663227 139.75937 10064774
121.52212 -13.955069 139.91273 9011579
120.74368 -13.942836 140.3759 9275263
119.96597 -13.930858 140.83766 7565675
119.18893 -13.919134 141.29803 6511954
28.067942 -13.996875 166.23044 5920074
27.201513 -13.965195 165.96419 6840918
16.717579 -13.47481 169.03168 9142651
15.935552 -13.376769 168.73102 8024170
141.06108 -12.417354 134.6609 10591121
140.29642 -12.539161 135.31508 8287854
16.534922 -12.646254 169.2785 8287342
15.826467 -12.484102 169.03505 8484721
141.85782 -11.551684 134.33702 10591121
141.16978 -11.547519 134.98062 9077882
140.42142 -11.780923 135.56561 8089963
15.502494 -11.582182 169.24944 9669250
14.729657 -11.283583 169.03171 10590864
142.85458 -10.3667 133.98108 10853012
142.10326 -10.600702 134.56844 9735556
141.414 -10.596734 135.21318 8683124
15.31803 -10.752235 169.49603 10261899
14.814107 -10.48974 169.38075 9341054
14.052381 -10.303295 169.1237 10261899
142.98361 -9.6025782 134.23065 10392717
142.17679 -9.6459074 134.9621 9867398
14.673997 -9.5768023 169.67928 9341054
13.799947 -9.3339758 169.39568 8485745
144.51552 -7.9796271 133.58765 9142651
143.8703 -8.4567146 133.95847 8813942
143.17754 -8.4530258 134.60629 9997703
142.53445 -8.9296684 134.97519 9537409
13.686604 -8.4346638 169.70045 8551025
12.842252 -8.2089872 169.42302 7958632
144.87781 -7.258812 133.59879 9274237
144.183 -7.2553282 134.2484 8484721
143.59978 -7.4935374 134.67706 9537409
13.712377 -7.6047091 170.03825 8222316
12.947045 -7.5480566 169.72856 7037530
145.79358 -6.2164698 133.25635 9340030
145.03966 -6.2451787 133.94102 9405823
144.37122 -6.5322843 134.42291 8089963
12.767999 -6.6061935 170.02187 6511699
11.907804 -6.2553349 169.78696 6511954
146.68031 -5.0889311 132.98943 7563619
145.99757 -5.2802029 133.52791 9274237
145.30972 -5.4066501 134.10313 9734788
12.495519 -5.4994006 170.34029 6183246
11.857808 -5.4907098 170.06696 7169884
11.227498 -5.2739177 169.87888 8090986
146.87637 -4.3597951 133.16638 7695205
146.03596 -4.4376373 133.90683 8945272
11.841191 -4.5287199 170.43921 8156780
10.97001 -4.2964983 170.15276 9143675
148.26054 -3.1441779 132.48178 9735046
147.66626 -3.3866174 132.91315 9273980
146.96266 -3.3842094 133.56635 8550257
10.851281 -3.387419 170.45987 7827814
10.009675 -3.1719141 170.17964 7564643
149.38049 -2.1680543 132.19397 12432037
148.68362 -2.3291116 132.64462 9472125
147.97913 -2.4085488 133.19383 9668993
147.33571 -2.6514714 133.58119 8089963
10.659318 -2.5452173 170.70879 7762022
9.8844957 -2.4714675 170.40163 7827815
149.78416 -1.6774213 132.22966 12958381
149.00632 -1.4780495 133.01793 10392969
9.9251604 -1.548619 170.78331 9472640
9.066762 -1.205898 170.54602 9472127
9.6420794 -0.64237648 171.01801 10262156
9.0161753 -0.43105572 170.90894 9866371
8.3909883 -0.22048306 170.80017 8089963
8.8308916 0.20537961 171.34392 11379095
7.9940276 0.41566497 171.14914 10787215
7.1587882 0.62498754 170.95502 9734529
6.7814078 1.0560594 171.88197 8090987
6.1492896 1.0526626 171.60147 9341054
-3.6368778 1.7137902 174.44034 9735556
-4.472136 1.9251463 174.18149 10262156
-3.7833469 2.5091476 174.66916 8287598
-4.5624871 2.6189268 174.39606 8288370
-4.4880548 3.4467185 174.72531 9275008
-5.3209634 3.4385717 174.38803 7039331
-4.8120255 4.4264932 174.94957 7434089
-5.5425401 4.5272064 174.69357 10327440
-6.1723657 4.9567165 174.60262 15722454
-5.5571961 5.6234179 175.10365 8749177
-6.3219972 5.6858735 174.82722 15722454
-5.7750878 6.2808895 175.27353 8682867
-6.6118112 6.488441 175.02525 10590862
-6.4859452 7.3003407 175.39032 8683379
-7.2507768 7.3608541 175.11311 8682867
-6.6367517 8.0365372 175.61719 8092011
-7.5293374 8.4084034 175.41075 10195591
-8.3144941 8.6705198 175.20392 12300195
-7.4942536 9.3551149 175.79254 7038307
-8.3317518 9.560359 175.54303 8288113
-8.431838 10.407393 175.83289 8090736
-9.3221388 10.506138 175.52127 7301471
-8.7844992 11.341476 176.05734 8813942
-9.4092588 11.325972 175.80569 9735300
-10.037856 11.534854 175.63974 10064265
-9.4736509 12.360322 176.1824 10064265
-10.339465 12.577824 175.92651 10195338
-10.417171 13.510756 176.25937 10392202
-11.131225 13.76214 176.07637 12628392
-10.519828 14.236796 176.52838 9866627
-11.358954 14.440372 176.28947 11707804
-11.382968 15.242166 176.64133 11707804
-12.222003 15.444979 176.39862 11247253
-12.465697 16.035625 176.80846 9931652
-13.08731 16.01243 176.52348 9142393
-16.199194 16.590492 177.7394 9735556
-16.220011 17.169247 177.95634 9209467
-17.07324 17.624901 177.81984 8419699
-17.324099 18.428308 178.16002 7827822
-17.978212 18.773512 178.18903 7038307
-18.820845 18.866911 177.94202 8616822
-18.236345 19.379362 178.5806 7827822
-19.091082 19.596214 178.42892 8617076
-19.737196 19.82021 178.36292 7564392
-20.270815 20.374697 179.22034 8090989
-20.884264 20.339472 178.85139 7301471
-22.072935 20.895466 179.61403 6511954
-22.687708 20.862133 179.26093 7827814
-24.709455 21.380474 179.56261 9931910
86.016983 -28.29372 150.59575 7564651
85.455185 -28.288054 150.87479 9735553
84.460297 -28.479591 151.23389 9340542
83.5364 -28.475479 151.71809 9142649
82.610199 -28.471607 152.19725 7629669
81.727715 -28.535774 152.61024 7959405
81.081184 -28.670666 152.87421 8485747
72.534531 -28.685108 154.26924 8682867
71.976341 -28.685041 154.52939 9209211
71.043953 -28.68494 154.95853 9801604
70.109207 -28.684855 155.38243 9209467
69.171806 -28.68479 155.80031 10855060
68.232048 -28.684744 156.21294 10656657
67.478363 -28.684725 156.53883 9932934
47.655346 -28.695753 160.99509 13684161
46.684689 -28.69611 161.27811 10525843
45.712231 -28.696487 161.55501 10064265
44.738216 -28.69688 161.82639 7563619
43.95784 -28.697212 162.03911 8353647
42.980835 -28.697639 162.29947 9801603
42.002365 -28.698086 162.55438 8683131
41.022362 -28.698551 162.80304 10394253
39.047062 -28.406096 164.11491 8090987
38.128845 -28.313665 163.75287 9143931
88.307381 -27.067638 149.9593 12433069
87.259949 -27.353786 150.36046 10064780
86.353409 -27.463215 150.7632 9143678
85.471436 -27.402348 151.22208 9538431
84.547569 -27.505762 151.63571 9340541
83.750862 -27.523174 152.02109 9471357
82.906471 -27.850344 152.30562 9142649
38.878258 -27.784262 164.28676 9143932
38.209209 -27.517059 164.10168 9143931
37.542316 -27.251448 163.91695 9143931
89.779655 -26.248653 149.56247 10262156
89.175468 -26.450436 149.77917 9801348
88.316658 -26.398048 150.22328 11446174
87.397972 -26.47135 150.64648 10985624
86.540184 -26.420475 151.08949 9670276
85.667824 -26.454021 151.5058 9143674
84.811485 -26.61377 151.8636 9735553
38.079807 -26.497005 164.44733 9143934
37.259747 -26.380396 164.13739 9472640
92.095123 -25.019922 148.91472 9538433
91.19239 -25.175497 149.2971 8814710
90.256157 -25.467688 149.64107 9603969
89.36866 -25.403858 150.10387 9604226
88.462502 -25.445715 150.53351 8748922
87.443764 -25.592012 150.97672 8617336
86.652451 -25.79361 151.28563 9275518
37.251015 -25.527758 164.46944 10129801
36.349277 -25.33239 164.15514 9867398
93.584435 -24.198387 148.51064 7563619
92.974113 -24.400242 148.7303 8945784
92.21505 -24.389177 149.10869 9867398
91.266945 -24.376139 149.58096 8814453
90.319633 -24.363918 150.05255 8946039
89.441109 -24.395498 150.47272 9209211
88.350792 -24.761826 150.86288 8090993
36.881977 -24.572853 164.68542 9866885
36.250862 -24.438213 164.46455 10590096
35.553642 -24.057192 164.31213 10853262
95.080925 -23.375351 148.10356 9472387
94.087166 -23.571609 148.51437 8616307
93.135689 -23.557468 148.98882 8222061
92.269127 -23.503054 149.43753 9670019
91.341454 -23.57531 149.86559 8814710
90.437103 -23.732925 150.24779 8682867
36.292519 -23.513676 164.84682 10524302
35.464283 -23.378855 164.54051 11576728
97.435547 -22.139217 147.43941 7038307
96.7687 -22.270033 147.71552 7828078
96.011047 -22.541174 147.97998 8683386
95.055557 -22.526207 148.45673 9406336
94.101051 -22.512039 148.93266 10063751
93.338158 -22.501261 149.31277 8551025
92.413521 -22.743259 149.6712 8683124
36.120895 -22.893425 165.0166 10853262
35.377655 -22.430487 164.87642 10853262
98.951698 -21.311785 147.02481 10655627
97.947273 -21.508173 147.44055 9669248
96.987343 -21.49242 147.91972 7630699
96.11364 -21.436234 148.3727 7762284
95.177635 -21.507509 148.80524 10064007
94.264801 -21.664795 149.19185 11182486
34.980156 -21.592005 165.03424 8682608
34.30938 -21.441282 164.80255 9735040
101.33824 -20.067944 146.34911 7039331
100.66375 -20.199127 146.62856 7499625
99.875633 -20.385614 146.94174 8749433
98.932152 -20.455429 147.3783 9932163
97.968849 -20.439859 147.85892 9406077
97.199196 -20.427927 148.24275 9538947
96.264671 -20.670477 148.60556 8288627
95.386993 -20.828617 148.97447 9208443
34.939262 -20.779526 165.33647 6511954
34.276585 -20.529898 165.14728 8353135
33.616074 -20.281567 164.95844 10787988
102.48703 -19.227468 146.12091 10985111
101.77308 -19.473335 146.37372 9801351
100.89015 -19.414988 146.83192 9209727
99.922188 -19.398933 147.31503 9932679
98.955528 -19.383564 147.79723 8814199
98.140244 -19.585758 148.11752 9208699
34.266251 -19.786745 165.43549 8089963
33.368492 -19.398552 165.19882 10261644
105.29681 -17.98056 145.23792 7038307
104.61399 -18.112644 145.52121 7959405
103.61889 -18.491781 145.85895 9604225
102.72994 -18.627466 146.24225 9998471
101.84424 -18.569117 146.70178 10590609
100.95966 -18.51148 147.16055 11775138
100.07551 -18.648302 147.54095 10590865
99.279037 -18.743725 147.89491 9932163
33.227219 -18.475193 165.50117 9471872
32.436264 -18.182779 165.27319 9209467
106.46445 -17.132433 145.00357 8814715
105.63233 -17.334944 145.332 7564649
104.74006 -17.27593 145.79512 8288371
103.76398 -17.573843 146.15611 8682869
102.84798 -17.504396 146.63509 9275004
