# .PCD v0.7 - Point Cloud Data file format
VERSION 0.7
FIELDS x y z rgb
SIZE 4 4 4 4
TYPE F F F U
COUNT 1 1 1 1
WIDTH 1231
HEIGHT 1
VIEWPOINT 0 0 0 1 0 0 0
POINTS 1231
DATA ascii
107.20127 -26.65523 140.8161 9011576
106.23537 -26.62574 141.3036 8814970
105.23772 -26.454306 141.86362 8881021
104.48115 -26.489408 142.22212 10064264
103.54036 -26.54838 142.66177 9274747
102.58101 -26.522585 143.1445 8946039
101.81475 -26.502672 143.52985 10524816
100.85838 -26.478655 144.01045 9998728
99.903374 -26.455566 144.48996 9669762
99.140404 -26.437744 144.87286 9932934
98.224899 -26.470028 145.31073 10129799
97.194374 -26.606083 145.76357 10326920
96.434669 -26.590281 146.14401 9603457
95.486137 -26.571396 146.61873 9866374
94.538589 -26.553406 147.09248 9998472
93.781395 -26.539734 147.47086 8946301
92.835739 -26.523476 147.94305 7893616
91.890991 -26.50807 148.41449 8288371
90.947144 -26.493713 148.88501 8946299
90.004044 -26.48016 149.35487 10262156
89.250084 -26.470016 149.73022 9801348
88.308273 -26.4582 150.19872 10854036
87.367073 -26.447239 150.66664 11051417
86.614525 -26.439177 151.04045 9670276
85.674255 -26.429928 151.50717 8749173
84.734406 -26.421556 151.97336 9538175
83.906914 -26.310465 152.42525 9471615
82.891487 -26.198893 152.96994 9537665
82.140007 -26.194361 153.34172 8814201
81.200775 -26.189495 153.806 8814201
80.261719 -26.185476 154.26988 9077368
134.75041 -25.380306 125.03367 11380380
134.04126 -25.47518 125.58183 9012093
133.25351 -25.613102 126.17558 10525072
132.48509 -25.552832 126.84632 9669251
131.80742 -25.539307 127.41928 9537408
131.01706 -25.634718 128.03514 9208443
99.886841 -25.608227 144.83817 9209467
99.31366 -25.595312 145.12556 9932934
98.242729 -25.677809 145.6198 9932677
97.363968 -25.765123 146.01752 9867141
96.602821 -25.749823 146.39844 9538178
95.616035 -25.64036 146.92833 9932938
94.744484 -25.503819 147.41229 10130059
93.853409 -25.435741 147.87836 8748150
92.917786 -25.533197 148.3 8353390
92.090714 -25.460136 148.7366 8880503
91.144691 -25.446268 149.20805 9012089
90.199417 -25.433226 149.67877 9538176
89.443748 -25.42345 150.05481 9735555
88.499817 -25.412039 150.52419 8880250
87.518524 -25.610928 150.9276 8617336
86.764618 -25.603088 151.302 8486003
85.822655 -25.594109 151.76949 7762277
84.881142 -25.585943 152.2364 8419952
83.93998 -25.578712 152.70262 9011321
82.9991 -25.572275 153.16835 10985367
82.246597 -25.567841 153.54062 9669508
81.306099 -25.563074 154.00546 9998215
80.365822 -25.559109 154.47002 9537662
79.425545 -25.556145 154.93401 9537662
78.485329 -25.553976 155.39778 9208955
77.73307 -25.552872 155.76842 10261132
76.79258 -25.552319 156.23131 10064009
75.884773 -25.343697 156.76173 6116429
75.131752 -25.344519 157.13181 5392706
74.190247 -25.346394 157.59415 7302239
73.248421 -25.349052 158.0563 8618354
72.683128 -25.351109 158.33357 9210491
136.64136 -24.090206 124.05964 10260873
135.82866 -24.427439 124.58037 11314330
135.10074 -24.436457 125.18469 9801350
134.24805 -24.536957 125.85031 9603715
133.45464 -24.464899 126.54752 8616307
132.71674 -24.671982 127.06702 8353135
132.14969 -24.882463 127.44204 10853012
90.924118 -24.601444 149.65569 8090987
90.356056 -24.593937 149.93845 9209211
89.598984 -24.584442 150.31503 9209211
88.653374 -24.573418 150.78508 8814457
87.670288 -24.772911 151.18912 8090993
86.824203 -24.63835 151.65973 7959659
85.95208 -24.598837 152.10507 7762534
85.065002 -24.538967 152.56598 7695716
84.121727 -24.531981 153.03316 9011321
83.178741 -24.525827 153.49985 11445918
82.424576 -24.521509 153.87282 9406080
81.482033 -24.51693 154.33864 9603458
80.539635 -24.513121 154.80412 9668991
79.597336 -24.510248 155.26917 10260614
78.655045 -24.50811 155.73384 9340541
77.901184 -24.507076 156.10539 9208955
76.958778 -24.506536 156.56953 9932679
76.01619 -24.506784 157.03336 8748661
75.261925 -24.507584 157.40421 5853257
74.318794 -24.509417 157.86742 6841432
73.375305 -24.511984 158.33047 8223597
72.431465 -24.51549 158.79337 9801860
71.487144 -24.519768 159.25612 10393485
70.731354 -24.523808 159.6263 10196107
69.786003 -24.529678 160.08888 9801348
68.889793 -24.452204 160.56088 9867141
68.11232 -24.332594 160.99136 9538176
67.164658 -24.340788 161.45424 9077625
66.216217 -24.349733 161.91716 9143675
65.375885 -24.253531 162.36914 9538433
64.344475 -24.160101 162.91406 8813683
63.58316 -24.16923 163.2849 8813683
62.630634 -24.181341 163.74854 8353135
138.08122 -23.231342 123.25983 8485485
137.50632 -23.441111 123.64178 10655629
136.82115 -23.425196 124.22209 10129285
136.04614 -23.363243 124.89922 9932165
135.20213 -23.434181 125.57143 9472129
134.46606 -23.448553 126.18001 12432037
82.378395 -23.681747 154.2325 7038307
81.623032 -23.678247 154.60576 7630186
80.67897 -23.674545 155.07195 8682867
79.735016 -23.671741 155.53778 9208954
78.750809 -23.529615 156.07933 9735043
78.069664 -23.458652 156.44312 8814197
77.125198 -23.458138 156.90826 9537920
76.180618 -23.458378 157.37318 9735812
75.424713 -23.459145 157.74492 9011833
74.479691 -23.460915 158.20946 6973018
73.534309 -23.463419 158.67378 8618354
72.657867 -23.508448 159.08694 10656657
71.761902 -23.428326 159.55984 9932934
70.884621 -23.474726 159.97267 9735812
69.937286 -23.480333 160.4364 10656402
68.989365 -23.486712 160.90012 11182489
68.230453 -23.492384 161.27113 9998727
67.281197 -23.500277 161.73489 9998727
66.331123 -23.508924 162.19873 9538433
65.570404 -23.516476 162.56984 9538433
64.61869 -23.52668 163.03391 8813940
63.666027 -23.537619 163.49809 9866367
62.712257 -23.549456 163.96249 9340026
61.757397 -23.562059 164.42711 9931910
60.992599 -23.572788 164.79895 9471359
60.035496 -23.58691 165.26408 8682100
59.077141 -23.60186 165.72943 8418928
58.360157 -23.191526 166.24713 10458510
57.398361 -23.207708 166.71368 9406078
56.493855 -23.147387 167.13287 9340541
139.08624 -22.508932 122.75947 11840413
138.43515 -22.568132 123.27587 9142649
137.74794 -22.552214 123.85791 11181971
136.97058 -22.490122 124.53705 9471357
136.17458 -22.629419 125.13698 9734529
135.46011 -22.726162 125.68878 9143422
74.576286 -22.830423 158.41489 9210491
73.62973 -22.832895 158.87988 9210491
72.872185 -22.835415 159.2518 10656657
71.924774 -22.83927 159.71652 9406846
71.007584 -22.633318 160.25047 9209467
70.058601 -22.638706 160.71512 10064521
69.109039 -22.644876 161.17973 10919574
68.348862 -22.650349 161.55145 10196106
67.372292 -22.500126 162.09222 10327692
66.475151 -22.45525 162.55156 9735812
65.712852 -22.46244 162.92365 8551538
64.759079 -22.472185 163.38884 8353646
63.804386 -22.482664 163.85425 8879476
63.039837 -22.49164 164.22668 9011063
62.083099 -22.503572 164.69244 9405566
61.125298 -22.516249 165.15851 8550257
60.268406 -22.588694 165.55089 8879479
59.35638 -22.488983 166.03957 9537409
58.461872 -22.344179 166.53777 10261131
57.691307 -22.356628 166.91182 9735043
56.71629 -22.368839 167.34875 9406334
55.727962 -22.276777 167.52373 11116692
141.07867 -21.170624 121.72487 6511954
140.19473 -21.487112 122.31439 8748401
139.4299 -21.469057 122.96198 11313558
138.67886 -21.676611 123.49174 9932164
137.9902 -21.661263 124.07458 10195335
137.18631 -21.756006 124.70194 9997699
63.915337 -21.636827 164.13976 8418927
63.149487 -21.645405 164.513 9340028
62.191143 -21.656963 164.97975 8682100
61.23167 -21.669191 165.44678 8089963
60.489517 -21.467236 165.89304 8813686
59.527306 -21.480762 166.36089 9537409
58.563801 -21.494978 166.8291 9011576
57.791943 -21.506927 167.20396 9537664
56.819782 -21.520418 167.6554 9472383
55.755474 -21.500298 167.83229 12826795
55.118229 -21.267277 167.93987 12103329
142.92406 -20.198978 120.64046 13024949
142.07344 -20.359221 121.27576 9341054
141.21498 -20.429161 121.96013 7695971
140.42999 -20.365879 122.64585 10524297
139.73749 -20.350378 123.23174 11905692
138.92336 -20.78303 123.70831 11576730
138.34468 -20.995426 124.0918 9142649
56.897617 -20.882755 167.88585 9472383
55.838356 -20.525093 168.21875 10261641
54.910954 -20.411005 168.28575 10196618
144.40051 -19.327648 119.81723 7958632
143.77525 -19.463711 120.27555 8879990
143.02208 -19.475838 120.89912 11183001
142.16054 -19.546335 121.58582 9341054
141.37299 -19.483053 122.27364 10129539
140.71535 -19.543928 122.79447 11379348
55.059132 -19.421806 168.67622 9866885
54.068054 -19.481594 168.67549 10525328
53.173756 -19.083742 168.85474 10263180
145.53445 -18.444218 119.28566 8880507
144.76811 -18.653564 119.82739 9406334
143.89253 -18.632833 120.56879 7432288
143.01843 -18.612736 121.30858 9341054
142.3575 -18.673687 121.83217 8748917
141.73466 -18.811392 122.28777 9341054
54.045689 -18.510952 169.06255 10261387
53.031376 -18.440741 169.11414 9801351
52.393845 -18.210749 169.22055 8092019
147.86607 -17.127096 117.95779 7695717
147.23273 -17.26482 118.42209 5919050
146.49829 -17.552753 118.90015 7630443
145.73663 -17.469519 119.57574 7564649
144.85428 -17.571823 120.26482 6708566
144.04622 -17.588017 120.93242 6510930
143.20865 -17.934547 121.46906 9341054
53.998062 -17.825729 169.33656 10261387
53.275005 -17.550196 169.4631 10524816
52.332718 -17.497929 169.50581 9341571
148.91478 -16.385221 117.43082 9012092
148.24155 -16.446142 117.96468 8616818
147.53265 -16.429741 118.56476 7235166
146.64821 -16.409801 119.31316 8156785
145.80267 -16.467667 119.99241 7432806
145.17212 -16.606894 120.45375 6510930
53.158913 -16.805042 169.76251 10262158
52.379822 -16.500456 169.90195 10788758
51.436775 -16.335966 169.9894 9736328
150.4985 -15.341795 116.53929 8814971
149.93149 -15.488379 117.06548 8814971
149.2623 -15.550699 117.60683 8486007
148.46899 -15.487748 118.31963 9537920
147.61011 -15.627887 118.9185 10195850
146.66739 -15.72092 119.6215 7038298
52.26141 -15.639654 170.2475 10591380
51.498371 -15.455098 170.39149 9801863
50.556206 -15.289004 170.53285 9801604
49.695896 -15.167389 170.64406 9538432
154.05287 -14.046347 114.6151 9209467
153.61136 -14.042898 115.15062 8814711
152.875 -14.037457 116.04216 8551539
151.63779 -14.600116 116.06434 9735812
150.98909 -14.625456 116.80256 7762023
150.15764 -14.88851 117.43561 8814971
149.29024 -14.871553 118.21181 7433061
50.590233 -14.663289 171.02815 9670019
49.619167 -14.54015 171.15028 9932932
48.783264 -14.315858 171.35028 9735296
163.70248 -13.42959 109.40138 8616307
163.27521 -13.425933 109.97067 7563618
162.70567 -13.421276 110.72939 7893871
158.53546 -13.735693 112.4147 8749178
157.99136 -13.734053 113.17584 9669509
157.5809 -13.732831 113.74506 7039331
48.811436 -13.937403 172.24049 10261382
47.93428 -13.92456 172.30499 9341052
46.839542 -13.908788 172.38426 8815220
39.923523 -13.666302 176.93471 7563619
39.07024 -13.666582 177.12427 8419440
38.216019 -13.666875 177.30965 8090993
37.091042 -13.497136 177.6964 8617336
164.03792 -12.634041 109.43397 6839895
163.3483 -12.708246 110.30475 7563875
162.70633 -12.94276 111.01591 8288627
37.291195 -12.813447 178.22977 9735558
36.576195 -12.564061 178.01752 8683126
164.94843 -11.360072 108.99066 8945527
164.22635 -11.574733 109.82008 9340030
163.56425 -11.990343 110.44942 8682867
36.428127 -11.456119 178.39 9603970
165.74753 -10.273224 108.58324 8024683
165.07312 -10.316149 109.45236 8090736
164.57033 -10.553816 109.97684 12235178
36.260078 -10.565789 178.6682 10392461
35.71487 -10.252599 178.55496 9603457
166.51535 -9.3597136 108.11368 7564651
165.94028 -9.3551922 108.8794 7235685
165.50909 -9.3519011 109.45341 9734788
35.51973 -9.4789333 178.77541 9143163
167.36411 -8.3140364 107.61617 7564651
166.81085 -8.3909388 108.30399 8419702
166.2581 -8.4678268 108.9911 8353652
35.363834 -8.616066 179.04807 9011576
34.719318 -8.524828 178.80415 10853012
168.23972 -7.3458734 107.03639 9012091
167.68497 -7.4231396 107.726 7696237
167.13074 -7.5004902 108.41493 8156530
34.729919 -7.4133072 179.24716 9603457
168.56369 -6.4518156 107.14616 8814713
167.98349 -6.4478354 107.9163 7893615
167.47485 -6.6891704 108.44608 7564651
34.57119 -6.3682823 179.59039 9011576
33.926849 -6.2814984 179.34485 7565417
34.469025 -5.6200681 179.84117 9011576
33.755142 -5.3843932 179.62413 8881018
33.739258 -4.5621138 179.94154 8091760
33.095886 -4.4789472 179.69502 8617847
33.635857 -3.8112645 180.19284 8681843
32.92276 -3.5789423 179.97479 9012091
32.879265 -2.5646501 180.356 9274748
32.297089 -2.2227683 180.23798 8682867
32.835655 -1.5466784 180.73857 9537920
32.122498 -1.3181108 180.51898 9537920
31.945862 -0.52455521 180.79144 10195594
31.262875 -0.1847859 180.73828 10261130
31.12035 0.49816799 181.21878 9406077
29.681057 1.1847783 182.03415 10063750
23.367741 1.6640626 185.27109 8682867
23.063889 2.3117609 185.38324 8946039
23.2047 3.2911444 185.79395 9011576
22.550411 3.610178 185.64648 9932422
22.214767 4.6333656 185.88161 10129545
22.104538 5.3813829 186.10776 8814967
21.561378 5.6849551 185.9994 9143678
21.536922 6.5931582 186.31792 9472384
21.240669 7.4830308 186.52066 8682867
20.535233 7.7027755 186.31688 10261899
20.661724 8.4623404 186.64223 9143418
20.505688 9.312129 186.88675 8683123
20.393101 10.070312 187.11572 10721677
19.782185 10.687848 187.0936 7564901
19.504253 11.714461 187.35315 7170400
18.798969 11.929677 187.14766 8682867
19.531857 12.434987 187.62473 7038045
18.988544 12.736599 187.52554 6973022
18.767826 13.564411 187.76042 6709849
18.426746 14.332905 188.02106 7761765
17.820232 14.644664 188.0596 7564904
17.108662 15.548863 188.62732 7433062
16.121876 16.413269 189.15536 7301220
15.322887 16.767124 189.21661 5919050
14.913403 17.296955 189.85822 5919050
14.430721 17.265654 189.56296 5919050
13.797787 17.81028 190.34906 6708566
129.77638 -26.163521 128.82364 7563874
129.17639 -26.299889 129.26108 7563874
128.49727 -26.354149 129.72141 9472127
127.59367 -26.269964 130.24301 10327437
126.53918 -26.488491 130.72202 10064262
125.66371 -26.45084 131.20961 9735296
124.81907 -26.634897 131.59 8354159
124.03257 -26.602085 132.02782 9209467
123.14131 -26.52191 132.54152 10590609
122.18027 -26.570875 133.04005 9801092
121.29342 -26.492434 133.55075 9208443
120.51443 -26.462557 133.98325 9668994
119.63124 -26.385981 134.49115 10392718
118.6795 -26.43808 134.9834 10261130
117.80022 -26.363186 135.48853 9866373
116.97625 -26.550869 135.85637 8814195
116.07437 -26.465878 136.37779 9406847
115.12045 -26.549702 136.85822 9472640
114.28565 -26.460785 137.34506 8880503
113.5198 -26.436436 137.76828 7827815
112.50323 -26.617945 138.22102 9077630
111.52528 -26.583342 138.71634 7564651
110.82592 -26.487661 139.09903 8156272
109.81931 -26.310921 139.66545 9932163
108.84702 -26.27932 140.15674 9142905
108.07076 -26.254803 140.54872 9011576
107.29569 -26.230886 140.93988 9932166
106.32885 -26.201893 141.4276 9078142
105.5566 -26.179363 141.817 8092019
130.84882 -25.30043 128.33308 9537408
130.11525 -25.508099 128.84863 9603713
129.43913 -25.496624 129.41927 7563874
128.62134 -25.430172 130.03314 7958888
127.6416 -25.476786 130.54221 9472383
126.73895 -25.394651 131.06247 9866883
125.94613 -25.362036 131.50327 9603711
125.09898 -25.547716 131.88393 9340540
124.17661 -25.45602 132.4191 10853782
123.19915 -25.535358 132.91403 11709090
122.36388 -25.528248 133.36766 9011837
121.50972 -25.627354 133.78801 9537924
120.72915 -25.598423 134.22105 11642528
119.75573 -25.563139 134.76074 10524304
118.78452 -25.528778 135.29889 10129546
118.00925 -25.501955 135.72812 10261132
117.23547 -25.475828 136.15637 8682867
116.27029 -25.444057 136.69022 9406847
115.30703 -25.413153 137.22263 8814453
114.53803 -25.389111 137.6474 9143675
113.66526 -25.319387 138.14693 8025194
112.6915 -25.601082 138.53671 9735558
111.77277 -25.515947 139.02324 8616824
110.99011 -25.490007 139.4189 8353909
110.01383 -25.458485 139.91211 8155755
109.05921 -25.514282 140.35956 8221548
108.21391 -25.616962 140.73447 9011576
107.33087 -25.547684 141.19691 10261131
106.3825 -25.605513 141.64056 8683642
105.50272 -25.537807 142.10091 8092019
104.73083 -25.516546 142.48952 12432041
103.7676 -25.490879 142.97417 9143161
102.80598 -25.465994 143.45772 9669504
102.03782 -25.446835 143.84364 10064522
101.07913 -25.423719 144.325 10393229
100.20015 -25.332548 144.79445 9800831
99.400505 -25.173365 145.25215 10787727
98.445328 -25.152939 145.73068 9735812
97.491417 -25.133381 146.20822 9735812
96.72921 -25.118382 146.58958 9604485
95.967735 -25.103981 146.97034 10261903
133.06079 -24.013386 127.08914 7037274
131.81174 -24.610378 127.8526 10326668
131.02013 -24.640316 128.50032 9866117
130.34232 -24.628614 129.07246 9603201
129.57465 -24.571886 129.74097 8221804
128.66992 -24.634192 130.33208 8287853
127.76374 -24.552553 130.85504 10261643
126.96729 -24.520363 131.29762 9998471
126.17269 -24.488798 131.73892 9209467
125.27247 -24.409609 132.25667 10919829
124.36379 -24.528984 132.69765 11577762
123.35094 -24.600813 133.21457 10788247
122.46319 -24.714169 133.64719 8617081
121.72652 -24.760344 134.02583 8617081
120.74908 -24.72547 134.56754 10984855
119.77393 -24.691422 135.10767 10655890
118.99561 -24.664894 135.53851 9866374
118.21877 -24.638968 135.96829 9735043
117.24984 -24.607428 136.504 8682867
116.28297 -24.576763 137.03828 9209468
115.51101 -24.552895 137.46458 8682867
114.74046 -24.529625 137.88992 9011832
113.7791 -24.501419 138.42024 8288366
112.80701 -24.471344 138.93375 8879992
112.02088 -24.445868 139.33092 10064009
111.1285 -24.374487 139.79887 10129802
110.16943 -24.431068 140.24823 7234653
109.21279 -24.488117 140.69618 7103067
108.45305 -24.551643 141.0446 9274493
107.48067 -24.523697 141.53455 10063753
106.51009 -24.496546 142.02313 8091245
105.73508 -24.475548 142.41306 9077882
104.76798 -24.450125 142.89935 9933449
103.80254 -24.425493 143.38452 8091760
102.98635 -24.618681 143.70886 9998730
102.1103 -24.555038 144.16579 10261647
101.17049 -24.618296 144.6032 11314076
100.29705 -24.556129 145.05827 10261382
99.424622 -24.494831 145.51251 10853777
98.489189 -24.560318 145.94684 9998984
97.619011 -24.500467 146.39932 9735812
96.665085 -24.482309 146.87639 9604229
95.712273 -24.464941 147.35258 8092019
94.950783 -24.451693 147.73283 10195853
93.999992 -24.435936 148.2074 8418928
93.050102 -24.420973 148.68115 8945784
92.290886 -24.409651 149.05952 9341054
91.426422 -24.355284 149.50708 8485745
90.434509 -24.173592 150.06844 8682867
89.676735 -24.164248 150.4453 9209211
88.73027 -24.153372 150.9158 8814457
87.784317 -24.143293 151.3856 8617336
87.027992 -24.135805 151.76105 8222832
134.31688 -23.148809 126.4457 9143422
133.74667 -23.360113 126.82303 8089963
132.87 -23.438648 127.51904 8024170
132.04257 -23.613884 128.12833 8353134
131.30634 -23.537706 128.77969 9208443
130.56993 -23.747183 129.2968 8682099
129.83463 -23.956951 129.81287 7563874
107.47575 -23.665134 141.88176 9405823
106.69797 -23.644218 142.27303 9933191
105.92142 -23.623905 142.66344 9341054
104.95238 -23.599289 143.15028 8881019
103.98505 -23.575455 143.636 8091760
103.16718 -23.76959 143.96068 8354676
102.24833 -23.534685 144.50732 9867146
101.2856 -23.513296 144.98991 11971750
100.51662 -23.496805 145.37521 10064003
99.556725 -23.477026 145.85582 10129795
98.598152 -23.458006 146.33549 8025194
97.832237 -23.44342 146.71852 6314832
96.87603 -23.425968 147.19641 9406593
95.942444 -23.494503 147.62862 10064782
95.116325 -23.607897 147.98994 9472387
94.163719 -23.592646 148.46513 9010808
93.21209 -23.578157 148.93959 8222061
92.451462 -23.567209 149.31853 9143675
91.501511 -23.55427 149.79146 8683124
90.552368 -23.542122 150.26379 8946039
89.793594 -23.533028 150.64111 9472383
88.845757 -23.522404 151.11205 9538178
87.898567 -23.512548 151.58247 9735558
86.951981 -23.503582 152.05219 10065545
86.005852 -23.495398 152.52139 9736836
85.249321 -23.489433 152.89635 7959145
84.303925 -23.482712 153.36444 9011321
83.358856 -23.476768 153.83208 9537665
82.677818 -23.402927 154.19695 7038307
81.693642 -23.258165 154.73952 7630186
80.748856 -23.254494 155.20616 8682867
79.99295 -23.252209 155.5791 9077368
79.237144 -23.25038 155.95192 9208955
135.92137 -22.289028 125.5088 10787729
135.31116 -22.425446 125.95477 8617079
134.66434 -22.487015 126.46654 8353908
133.81015 -22.470753 127.18828 7037274
132.95685 -22.455256 127.90897 7432033
132.31239 -22.518267 128.41815 7103324
131.70602 -22.656355 128.86012 9011064
98.003166 -22.595913 146.97443 7170141
97.045143 -22.57902 147.45297 7828331
95.996681 -22.703035 147.91954 9538694
95.28212 -22.762232 148.24759 8880507
94.327774 -22.747488 148.72343 9010808
93.415024 -22.521931 149.26344 8747892
92.652657 -22.51145 149.64304 8683124
91.700523 -22.499062 150.11691 9012089
90.749184 -22.487371 150.59007 9341056
89.98867 -22.478645 150.96806 8617336
89.038696 -22.468472 151.43993 8551540
88.089378 -22.459019 151.91125 8880246
87.14064 -22.45042 152.38187 9866631
86.192383 -22.442535 152.85201 9406082
85.43412 -22.436815 153.22768 9406082
84.486679 -22.43041 153.69675 9604230
83.539474 -22.424688 154.16528 8288373
82.781937 -22.420704 154.53979 9472383
81.835228 -22.416464 155.00755 9340797
80.888695 -22.41293 155.47499 9011832
80.1315 -22.410673 155.8486 9275004
79.185051 -22.408611 156.31532 9143418
78.238632 -22.407276 156.78178 9472383
77.292107 -22.406763 157.24797 9209212
76.345436 -22.406965 157.71391 9340542
75.587959 -22.407681 158.0865 9801349
74.673134 -22.198793 158.62067 9999241
73.725273 -22.201138 159.08632 9144190
72.966774 -22.203609 159.45871 10984594
72.018158 -22.20739 159.92422 9208699
71.099869 -22.001036 160.45903 9209467
70.149742 -22.006344 160.92455 9735812
69.198997 -22.012318 161.38985 10261899
68.437874 -22.017639 161.7621 9538176
67.866661 -22.021997 162.04123 9538176
137.01872 -21.416315 125.0018 9734528
136.27191 -21.625034 125.52804 9406079
135.58585 -21.611422 126.10803 8748665
134.80948 -21.55195 126.78503 10788244
133.96439 -21.625895 127.45677 7432032
133.3022 -21.792761 127.93185 8089962
89.003113 -21.621548 151.79729 9143675
88.242348 -21.614307 152.1748 9341054
87.291885 -21.606031 152.64621 9866631
86.341896 -21.598408 153.11708 9932169
85.582329 -21.592915 153.49335 11379356
84.669853 -21.375351 154.02991 10130574
83.720566 -21.369873 154.49939 8683131
82.961349 -21.366058 154.87468 10854036
82.01252 -21.361984 155.34337 10327692
81.063896 -21.358595 155.81177 9341054
80.305046 -21.356434 156.18616 9341054
79.356537 -21.354433 156.65387 8814709
78.408058 -21.353148 157.12135 10262155
77.459419 -21.352615 157.58855 10393742
76.510712 -21.352768 158.05548 9208443
75.751595 -21.353462 158.42894 10393229
74.802444 -21.355038 158.89557 11051418
73.852989 -21.357281 159.36203 9933196
73.093132 -21.359653 159.73518 10654859
72.142906 -21.363298 160.20146 8682357
71.192238 -21.367601 160.66772 8551027
70.431259 -21.371647 161.0407 9274747
69.479469 -21.377365 161.50694 9472126
68.526993 -21.38378 161.97308 9209467
67.573616 -21.390963 162.43915 9866885
66.619522 -21.398811 162.90529 9472640
65.855583 -21.405689 163.27829 8617331
64.899834 -21.414989 163.74472 8288112
63.970898 -21.213118 164.28279 7564651
63.204395 -21.221542 164.65643 8156527
62.245224 -21.232803 165.12367 8682100
61.285023 -21.24478 165.59119 8089963
138.93428 -20.107801 124.01714 9142649
138.02307 -20.538885 124.57552 9274234
137.25983 -20.523375 125.2206 10260873
136.57129 -20.509901 125.80237 9011066
135.80983 -20.495556 126.44559 10459278
134.90643 -20.927406 126.99782 14143424
80.979324 -20.723959 156.10805 9341054
80.409401 -20.722406 156.38916 9143675
79.459648 -20.720488 156.8575 9998984
78.509911 -20.719173 157.32553 10262155
77.481766 -20.612848 157.87433 10525071
76.643288 -20.507212 158.32954 9603201
75.882805 -20.507879 158.70361 11973030
74.93206 -20.509331 159.17105 10788247
73.980927 -20.511496 159.63841 9538438
73.219795 -20.513716 160.01224 9208187
72.267952 -20.517241 160.4794 8221808
71.315605 -20.521391 160.9465 7827819
70.553322 -20.525259 161.32027 9274747
69.599937 -20.53075 161.78738 9472126
68.645882 -20.53689 162.25456 9932678
67.882065 -20.54236 162.62837 10655889
66.926521 -20.549852 163.0956 9735555
65.970116 -20.557966 163.56281 9077625
65.083702 -20.608622 163.97842 8682870
64.174995 -20.532839 164.45593 7959407
63.2869 -20.584724 164.87192 8682869
62.32655 -20.595644 165.33987 8617075
61.342564 -20.48004 165.87041 8879734
60.621342 -20.404161 166.2556 8813429
59.698895 -20.46966 166.68304 9339773
58.781731 -20.368477 167.17484 8879478
57.918049 -20.441954 167.57016 9011320
57.0471 -20.28492 168.06122 9801349
56.391754 -20.030064 168.39328 9866886
140.56659 -19.239214 123.06226 11379348
139.89256 -19.405804 123.54697 10984593
139.03654 -19.478449 124.22805 7563619
138.25317 -19.417706 124.91124 8090221
137.56207 -19.404409 125.49493 9143167
136.81155 -19.61561 126.0226 10261133
73.314949 -19.878086 160.2204 8484979
72.361893 -19.881453 160.68825 7958893
71.408379 -19.885458 161.15607 7827819
70.645096 -19.889229 161.53029 9932419
69.638161 -19.725029 162.09181 10130055
68.764946 -19.688023 162.53656 9932678
67.999863 -19.693243 162.91109 10984854
67.04277 -19.700447 163.37938 9801605
66.113533 -19.495394 163.91908 9077625
65.346138 -19.502131 164.29405 8551540
64.385963 -19.511127 164.76294 8419956
63.424763 -19.520779 165.23186 9143675
62.654938 -19.528999 165.60718 7695461
61.746479 -19.486069 166.07133 8221805
60.753567 -19.338167 166.61925 9734531
59.980675 -19.347864 166.9955 9602945
59.013241 -19.360567 167.46622 8945527
58.044521 -19.374001 167.93733 9340798
57.268429 -19.385223 168.31456 9406591
56.250488 -19.384247 168.64619 9801093
55.392178 -19.146929 168.77794 9538176
142.20882 -18.367666 122.1005 7564643
141.58603 -18.505602 122.55592 10656140
140.83505 -18.520168 123.17656 10393223
139.97615 -18.59329 123.85979 8090473
139.19028 -18.532572 124.54504 7563619
138.53447 -18.595413 125.06342 7563619
137.91684 -18.734592 125.51398 7564651
62.571331 -18.677458 165.99072 7563619
61.799168 -18.685928 166.36716 7892584
60.833088 -18.69702 166.83792 10261132
60.059155 -18.706343 167.21483 9471359
59.033607 -18.548243 167.78282 8945271
58.146008 -18.517164 168.23192 9143163
57.368607 -18.527912 168.60999 9275004
56.357914 -18.529892 168.96953 9932423
55.251942 -18.501526 169.03818 9932679
54.611191 -18.270037 169.14534 9209467
143.98898 -17.039101 121.23871 7563619
143.39932 -17.254807 121.62985 6774614
142.64558 -17.557978 122.11687 8025193
141.78195 -17.631397 122.80397 10853518
140.92 -17.705057 123.48944 10064515
140.13168 -17.644388 124.17677 8222058
139.54836 -17.860226 124.56251 7563619
56.228256 -17.885607 169.26079 10064009
55.485218 -17.435966 169.45714 9866886
54.552326 -17.325838 169.52274 9735299
145.65392 -16.158773 120.26213 8287853
145.02345 -16.298271 120.72324 8484977
144.35681 -16.360765 121.25084 8879735
143.56148 -16.299007 121.94443 8090217
142.61375 -16.554352 122.61612 9274745
141.84869 -16.630791 123.21938 8090727
141.01489 -16.979568 123.75177 9472379
55.275784 -16.570715 169.80666 10261387
54.632492 -16.339605 169.9136 10392973
53.656864 -16.387789 169.91714 9406591
147.42834 -15.284337 119.35819 11906725
146.89951 -15.273561 119.81042 7038298
146.07774 -15.482764 120.31593 8879990
145.2914 -15.422137 121.02434 9603713
144.49396 -15.451736 121.66196 10854036
143.66986 -15.660471 122.15467 9274748
142.96722 -15.647193 122.74798 12432037
54.490284 -15.69012 170.17558 10854036
53.721252 -15.503409 170.31248 9472641
52.772446 -15.335243 170.44832 9867655
152.13806 -14.032503 116.93251 7038298
151.54797 -14.0288 117.64386 7169117
150.60539 -14.23092 118.07832 8814710
149.56261 -14.423731 118.42719 7367264
148.71663 -14.633074 118.92653 8616563
148.00793 -14.618886 119.53233 10459023
147.30029 -14.605047 120.13689 9998215
146.2843 -14.811294 120.78123 9537664
145.57964 -14.797961 121.38276 8616563
52.811031 -14.707135 170.93961 9341053
51.835155 -14.58267 171.0629 9406846
51.001381 -14.22824 171.53444 9867398
50.570564 -13.964089 172.10869 10064777
162.27866 -13.41797 111.2982 8288627
161.85168 -13.414865 111.86671 9735043
161.28256 -13.410959 112.62447 8419184
160.85574 -13.408256 113.19271 8089963
157.30618 -13.732018 114.12373 7039331
156.75348 -13.73034 114.87866 6709333
156.19781 -13.728802 115.6315 7959144
49.910233 -13.953981 172.15849 10130311
49.250607 -13.943974 172.20793 10261382
43.963875 -13.665139 175.97864 10656657
43.327362 -13.665304 176.13556 9341054
42.26519 -13.665595 176.39212 8090987
41.201744 -13.665905 176.64279 8090475
40.562962 -13.6661 176.79001 7563619
38.482906 -13.304987 178.5535 8354161
37.742981 -13.273273 178.24484 10854036
162.61185 -12.622683 111.33363 9340541
162.06543 -12.698668 112.01329 9997959
161.51932 -12.774807 112.69244 9077114
37.906021 -12.573531 178.59103 9603969
163.56561 -11.509526 110.73634 9077625
162.92215 -11.745322 111.44879 8814197
162.37476 -11.821615 112.12941 9735043
37.656773 -11.500725 178.90588 9143417
36.957233 -11.032584 178.78685 10853012
164.4762 -10.231169 110.29558 13419196
163.80704 -10.387258 111.09 9274748
163.10944 -10.832589 111.7484 9077369
37.48951 -10.606938 179.18584 8090987
37.026356 -10.258115 179.12224 8288366
165.2218 -9.3498411 109.83593 8813945
164.64735 -9.3458195 110.60056 9011577
164.00049 -9.58356 111.31604 8682867
36.848385 -9.4737482 179.35434 8748660
36.129734 -9.2302771 179.13832 8090987
166.16434 -8.1431751 109.31084 8813945
165.51485 -8.3816757 110.02914 8485237
164.81903 -8.4580355 110.90652 9866887
36.67976 -8.5767879 179.63489 9932166
36.029881 -8.4852257 179.38887 9011576
166.89273 -7.1737137 108.9272 9340289
166.31323 -7.4624104 109.52246 9340288
165.68817 -7.4908905 110.33472 9865602
35.980316 -7.5310574 179.74367 8814197
35.319012 -7.2031803 179.58585 8551281
167.6239 -6.2008543 108.54192 7564651
167.11548 -6.4422388 109.07141 11181463
166.53722 -6.4386592 109.84084 9602944
166.02985 -6.6800961 110.36894 9931137
35.886318 -6.3184938 180.18103 7564643
35.236664 -6.2315373 179.93327 8485489
166.94707 -5.7079682 109.82191 10260875
35.22348 -5.40765 180.2525 9735555
34.50555 -5.1718841 180.03378 11576473
35.051987 -4.5040379 180.53444 10854036
34.403332 -4.4206653 180.28572 11576473
34.245255 -3.5468121 180.56171 11839645
34.046349 -2.7609196 180.78529 10129030
33.516327 -2.229177 180.76483 9734529
33.444313 -1.2757602 181.1096 9406077
33.150608 -0.63821924 181.23352 9537920
32.724056 -0.18263558 181.37163 10458510
32.246246 0.42600906 181.64819 9537920
31.640713 0.72900164 181.62692 8089963
30.654686 1.19054 182.46637 9076856
24.56657 1.6720382 185.75542 10590608
24.360233 2.3694973 185.92477 11577503
23.650898 2.5961661 185.7218 10130057
24.635548 3.0729237 186.28966 14076861
23.836105 3.5990291 186.1588 10261641
23.510704 4.6998348 186.42609 9539201
22.801163 4.9234748 186.22197 9012603
22.931889 5.677906 186.54724 8683639
22.778423 6.5239329 186.79144 8091249
22.595116 7.4348249 187.04721 8419955
21.958199 7.4993539 186.81474 8682867
21.901836 8.3988209 187.11731 10919829
21.800934 9.3958492 187.43723 12169640
21.090981 9.6140089 187.23097 8682867
21.591179 10.105964 187.60971 8682867
21.054447 10.647861 187.5901 8945783
20.857174 11.680474 187.88419 8945272
20.220844 11.738867 187.64972 7893353
20.729763 12.478294 188.12143 9734788
20.264713 12.823286 188.06319 7826790
20.060612 13.662684 188.30725 6445906
19.351994 13.877249 188.11182 8682867
19.311275 14.57568 188.61484 8288109
18.474728 14.84346 188.51688 8682867
18.416225 15.481538 189.10088 8025194
17.613483 15.831674 189.12907 7564648
17.428761 16.347261 189.62709 8090989
16.763111 16.842735 189.91994 7564648
15.640896 17.344316 190.30371 6708566
14.766354 17.8748 190.94511 7563874
124.0525 -24.187233 133.00542 12433069
123.46123 -24.165421 133.33322 9143681
122.67449 -24.136887 133.76942 8880253
121.88938 -24.108906 134.20451 7827566
120.91044 -24.074871 134.74667 9143167
119.93378 -24.041656 135.28729 10524304
119.15419 -24.015781 135.71851 9734788
130.57101 -23.082254 129.60866 8353135
129.68402 -23.43796 130.18289 9143163
128.85272 -23.486807 130.70462 9801092
128.05214 -23.45533 131.14914 11117209
127.19616 -23.64402 131.53328 10525071
126.29191 -23.565208 132.05305 9209467
125.31654 -23.617014 132.55766 12630447
124.41711 -23.539785 133.0742 12433069
123.62717 -23.511328 133.51172 8748923
122.83897 -23.483469 133.9481 7301479
121.85639 -23.44957 134.49213 7301222
120.8762 -23.416519 135.03458 9274752
120.09389 -23.390692 135.46732 9997960
119.31312 -23.365488 135.8989 9997960
118.34861 -23.498714 136.36484 10195850
117.38406 -23.585527 136.84976 9275004
116.54057 -23.497715 137.34087 9208957
115.76666 -23.474844 137.76781 8288113
114.86213 -23.394548 138.28874 7103838
113.89292 -23.681911 138.69415 7959145
113.0076 -23.6122 139.18005 8747893
112.21986 -23.587576 139.57774 7826790
111.23735 -23.557558 140.07339 9472128
110.25692 -23.528397 140.56775 8353390
109.4742 -23.505703 140.9621 7892839
108.58533 -23.437601 141.42702 8813686
107.73372 -23.385593 141.86708 9208444
106.79208 -23.217274 142.39824 10591121
106.01475 -23.197308 142.78885 8683124
105.04481 -23.173075 143.27603 9999241
104.07652 -23.149658 143.76208 8091760
103.30317 -23.131548 144.15001 6776158
132.16212 -22.219118 128.68451 7169117
131.45169 -22.318775 129.23152 7169117
130.66257 -22.462042 129.82385 7892584
129.89154 -22.406155 130.49478 9669763
129.14409 -22.385193 130.99895 9340542
128.34125 -22.35515 131.44408 9209211
127.3475 -22.485153 131.92653 11183002
126.35508 -22.56789 132.42766 10196362
125.49031 -22.473677 132.9325 10854292
124.71377 -22.534906 133.32602 9801608
123.84884 -22.637587 133.7502 8748923
122.95162 -22.563051 134.26443 7235686
121.9844 -22.618946 134.76303 7893614
121.09174 -22.545954 135.27454 9209214
120.30781 -22.521051 135.70772 8814713
119.41886 -22.449678 136.21661 8551285
118.46111 -22.508179 136.70947 10261643
117.57606 -22.438265 137.21567 9735299
116.79885 -22.415819 137.64426 9734788
115.91698 -22.347414 138.14806 8616822
114.96758 -22.408518 138.63541 7432802
114.03886 -22.557404 139.07556 8419440
113.25906 -22.535461 139.4888 8879479
112.33385 -22.453703 139.97705 7432032
111.35761 -22.541409 140.42238 8879991
110.50134 -22.455244 140.87848 9406078
109.71664 -22.433512 141.2735 9077113
108.68967 -22.621693 141.7034 7563619
107.71318 -22.595892 142.19437 9405823
106.93344 -22.575901 142.58624 11906725
106.15496 -22.556391 142.97726 8354159
105.18358 -22.532822 143.46487 9472641
104.21388 -22.510012 143.95132 8881019
103.43938 -22.492399 144.33968 6512986
102.47285 -22.471111 144.82397 8617593
101.50777 -22.450583 145.30727 10261647
100.73686 -22.434828 145.69307 10261382
99.774612 -22.415833 146.17441 9208435
98.813675 -22.397614 146.65485 8420208
98.08876 -22.171312 147.10257 10655627
97.129868 -22.154737 147.58145 7038307
96.172112 -22.138933 148.05948 7038307
95.406761 -22.126839 148.44115 9340799
94.451103 -22.112484 148.91754 10524301
133.15211 -21.492645 128.19855 8418928
132.50632 -21.556293 128.70853 7103067
131.65289 -21.542778 129.42836 6576980
130.80014 -21.529972 130.14731 6708566
130.11855 -21.520292 130.72174 9340542
129.31934 -21.72262 131.17595 9143163
128.31454 -21.686188 131.73257 9735555
127.31266 -21.650593 132.28723 11314588
126.51339 -21.622749 132.72957 9209467
125.71603 -21.595413 133.17061 9275006
124.81694 -21.712755 133.60724 8288372
123.96336 -21.714001 134.06693 7104100
122.99181 -21.770693 134.56741 7498857
122.09527 -21.697968 135.08058 9472641
121.25379 -21.891758 135.45486 9275262
120.46856 -21.867531 135.88838 8814713
119.4894 -21.838051 136.42885 9011834
118.51241 -21.809345 136.96771 9406334
117.73255 -21.787022 137.39771 9406334
116.95419 -21.765152 137.82666 9734788
115.98314 -21.73863 138.36148 8485237
115.01408 -21.712929 138.89488 7695976
114.24041 -21.692911 139.32054 8616819
113.46066 -21.672031 139.73636 9734788
112.47177 -21.643717 140.23454 8616563
111.48502 -21.61615 140.73134 11906725
110.6973 -21.594679 141.12767 10590609
109.85159 -21.312307 141.65741 9800837
108.86909 -21.600725 142.02513 9800581
107.95129 -21.523546 142.50793 8813944
107.16962 -21.504398 142.90038 9866887
106.19435 -21.481234 143.38971 7564387
105.22081 -21.458843 143.87793 7433058
104.44335 -21.441486 144.26762 9078138
103.58389 -21.422871 144.69815 8157294
102.56649 -21.659113 145.10406 9078139
101.686 -21.598209 145.5619 10064521
100.91363 -21.582979 145.94823 9933193
99.949478 -21.564669 146.43016 8486262
98.986679 -21.547047 146.91115 10655627
98.217461 -21.533569 147.29523 10984591
97.257164 -21.517424 147.77451 7696235
96.298042 -21.501991 148.25299 7630699
95.531578 -21.490242 148.63513 9011835
94.574562 -21.476248 149.11203 10524301
93.618492 -21.462969 149.58815 9208443
92.854347 -21.452923 149.96848 8880503
91.900032 -21.441067 150.44319 8617331
90.946526 -21.429911 150.91719 9472387
90.184288 -21.421539 151.29588 8090995
89.346657 -21.306942 151.75436 9275007
88.318962 -21.19121 152.30685 9538433
87.367661 -21.183016 152.77867 8617078
86.416847 -21.17556 153.24983 9932169
85.656548 -21.170118 153.62643 9932169
135.48679 -20.041105 126.92942 10985620
134.91219 -20.255304 127.30908 14538181
134.16699 -20.466492 127.83275 8813685
133.49234 -20.544838 128.35991 9603201
132.56728 -20.664394 129.07707 7103324
131.71234 -20.651461 129.79796 8550513
130.97165 -20.863974 130.3172 7432545
105.21145 -20.597137 144.22862 8814709
104.62734 -20.584618 144.52122 9998727
103.53539 -20.669537 145.0246 10590865
102.63952 -20.758993 145.42964 9801605
101.86464 -20.743839 145.81712 10064521
100.92692 -20.583096 146.34332 7499625
100.04578 -20.556885 146.78757 8486262
99.203621 -20.48102 147.23256 10129541
98.362259 -20.405832 147.67688 9471870
97.41114 -20.505285 148.10512 9801861
96.508469 -20.437992 148.57651 8288627
95.6698 -20.364777 149.01875 9407105
94.757278 -20.53507 149.39977 10590350
93.7817 -20.61352 149.84863 9208443
93.016174 -20.603827 150.22948 8617331
92.060089 -20.592434 150.7049 8419952
91.104813 -20.581661 151.1796 9472387
90.150398 -20.571705 151.65358 8682874
89.19664 -20.562376 152.12698 9604226
88.434105 -20.55551 152.50528 9604226
87.481483 -20.547558 152.97754 8617078
86.529434 -20.540281 153.44936 9537668
85.768112 -20.53499 153.82634 8485238
84.816811 -20.529053 154.2971 9077888
83.865837 -20.523771 154.76736 9012095
83.105255 -20.520082 155.14323 9932934
82.154762 -20.516134 155.61276 9669762
81.279465 -20.442505 156.07312 8880246
80.479111 -20.299103 156.52475 9143675
79.528511 -20.297199 156.99342 9998984
78.577934 -20.295918 157.46196 10262155
77.81739 -20.295435 157.83644 10262155
136.64323 -19.274914 126.32365 9735044
135.83762 -19.373184 126.95052 10393483
135.14909 -19.361471 127.53152 9801347
134.46127 -19.350235 128.1118 8484976
133.62065 -19.486576 128.75046 9142651
132.77045 -19.884605 129.274 7366239
95.715324 -19.571404 149.31499 12301991
94.662796 -19.699957 149.78146 10524301
93.945343 -19.762072 150.1097 9208443
92.986786 -19.750513 150.5864 9341054
92.014748 -19.61141 151.12086 9012347
91.30323 -19.518442 151.50854 9735557
90.346626 -19.508957 151.98341 9604228
89.390678 -19.500101 152.4577 10458766
88.626419 -19.493523 152.83669 9867142
87.671669 -19.485945 153.30986 9143420
86.717461 -19.479002 153.78255 8814459
85.954445 -19.473959 154.16034 7038307
85.000992 -19.468288 154.63205 7564650
84.047897 -19.463247 155.10327 7564651
83.285637 -19.459726 155.47992 9208955
82.333038 -19.455957 155.95038 9603712
81.380608 -19.452818 156.42052 8616819
80.618744 -19.450813 156.79634 8617075
79.666473 -19.448959 157.26587 9801348
78.714241 -19.447723 157.73517 12630191
77.86116 -19.50786 158.13094 11643553
76.960709 -19.39423 158.61983 9735043
76.047371 -19.447939 159.04791 11643809
75.094482 -19.449303 159.51645 8748924
74.141357 -19.451344 159.98488 7827822
73.410332 -19.241152 160.42902 8484979
72.456024 -19.244417 160.89752 8484979
71.501228 -19.248293 161.36597 9603199
70.737038 -19.251888 161.74074 10524555
69.891853 -19.150152 162.19763 11182228
68.854485 -19.050081 162.74844 9209467
68.088417 -19.055105 163.1235 10261387
67.130066 -19.062124 163.59251 9867398
138.38478 -18.291361 125.33164 7563619
137.66197 -18.391222 125.88856 9406338
136.85895 -18.535091 126.49182 9011837
136.07674 -18.476696 127.17294 11577500
135.38681 -18.465454 127.75468 13353909
134.7352 -18.530258 128.26862 10327435
87.441704 -18.631804 153.76578 10261903
86.868248 -18.627947 154.0498 9406852
86.103851 -18.623108 154.42819 9406852
85.148727 -18.617649 154.90063 8222577
84.193886 -18.612806 155.37262 8354163
83.466515 -18.396393 155.81747 9143163
82.511795 -18.392782 156.28899 9735041
81.557259 -18.389797 156.76006 9735812
80.793755 -18.387863 157.1367 8484721
79.839394 -18.386106 157.60724 9340798
78.885033 -18.384895 158.0775 12038054
78.121506 -18.384434 158.45354 11380380
77.167023 -18.384436 158.92345 9669762
76.212334 -18.38505 159.39317 9735555
75.327324 -18.428801 159.81128 9538180
74.423332 -18.345369 160.28981 8814971
73.537758 -18.390207 160.70772 9209467
72.58181 -18.393335 161.17711 9538175
71.625359 -18.397026 161.64645 9867140
70.859825 -18.400473 162.0219 10721679
69.902328 -18.405338 162.4913 10655886
68.94416 -18.41087 162.96075 9537917
68.177101 -18.415737 163.33644 10261129
67.217545 -18.422468 163.80612 10261643
66.257164 -18.429811 164.27597 9209211
65.488144 -18.436157 164.65193 9012091
64.526009 -18.444677 165.12219 9735812
63.562862 -18.45381 165.59265 9472639
62.864925 -18.389652 165.9619 9011832
61.8531 -18.25803 166.5127 8813941
60.886127 -18.268856 166.98398 10261132
60.111607 -18.278023 167.36128 9734531
59.530197 -18.285078 167.64436 9011320
139.39886 -17.555107 124.83105 7958377
138.6497 -17.571871 125.44914 9011065
137.79297 -17.647503 126.12937 8419701
137.00847 -17.589098 126.81239 8090737
136.35413 -17.653803 127.32868 10130314
135.73822 -17.794655 127.77701 12433069
79.561142 -17.746237 158.00085 9209467
78.987747 -17.745636 158.28342 11051415
78.223251 -17.74515 158.65994 11051415
77.267494 -17.745165 159.13046 9209211
76.311546 -17.745764 159.60081 9538176
75.57946 -17.533152 160.04652 9932681
74.622604 -17.534914 160.51685 9932681
73.665466 -17.537189 160.98711 10261641
72.778214 -17.58256 161.40567 10853777
71.871048 -17.500467 161.88525 10722192
70.982941 -17.5469 162.30383 9932678
70.023781 -17.551571 162.77411 10261386
69.063988 -17.55677 163.24449 9931904
68.29567 -17.561462 163.62085 9734525
67.334404 -17.567858 164.09146 10326924
66.372383 -17.574837 164.56226 10129545
65.602119 -17.580883 164.93903 10787732
64.638321 -17.589018 165.41022 10458766
63.67355 -17.597731 165.88165 8353647
62.900928 -17.605175 166.25903 8419184
62.007545 -17.542799 166.72385 9471872
61.144527 -17.355484 167.22374 10261129
60.216679 -17.419489 167.65472 10063493
59.349346 -17.491032 168.05261 9603457
58.425556 -17.38743 168.54866 9866885
57.494167 -17.453169 168.98035 9801092
56.76012 -17.376139 169.36185 10064009
56.116024 -17.022577 169.60706 10261132
141.78949 -16.08251 123.5271 6511954
141.2023 -16.299751 123.91537 7498591
140.44177 -16.513718 124.45008 7827556
139.62936 -16.44264 125.16232 9602945
138.75732 -16.549639 125.84061 11181977
137.94424 -16.698503 126.44986 7630443
137.1897 -16.913126 126.97926 8485238
71.843285 -16.902243 162.13895 10458765
71.075439 -16.905361 162.51567 9538176
70.307205 -16.90893 162.89241 10261643
69.346291 -16.913845 163.36349 10129284
68.34034 -16.776815 163.91364 9405815
67.644264 -16.709784 164.2832 9406078
66.680733 -16.716351 164.75493 9471871
65.716324 -16.723455 165.22682 10787732
64.944115 -16.729597 165.60457 11313820
64.005722 -16.522781 166.14944 9669250
63.038021 -16.531427 166.62234 9734531
62.31255 -16.452362 167.01122 10063496
61.319759 -16.333313 167.54773 10063747
60.348194 -16.343491 168.02193 9866367
59.569908 -16.352058 168.40161 10261387
58.595722 -16.363323 168.87657 9866885
57.620083 -16.375156 169.35185 10524560
56.838432 -16.385025 169.73241 10261388
55.846722 -16.326248 169.89064 10722194
143.73752 -15.213128 122.51028 8550768
142.89697 -15.347333 123.08621 8485229
142.21419 -15.409834 123.59557 6511954
141.43495 -15.351856 124.29945 6906716
140.57874 -15.493503 124.87248 7301476
139.64447 -15.589513 125.55425 9997703
139.1235 -15.581355 125.99719 11379356
61.011105 -15.690261 167.95763 9734779
60.427197 -15.696211 168.24271 9866367
59.648014 -15.704479 168.62305 10261387
58.672588 -15.715264 169.09882 10064008
57.695778 -15.72665 169.57515 10787988
56.913204 -15.736117 169.95647 10261388
55.877293 -15.509861 170.26128 10590865
54.846161 -15.415762 170.34537 10064776
146.90356 -14.371632 120.69893 9537664
146.37355 -14.361755 121.15123 10195338
145.52103 -14.496464 121.7299 8879735
144.83148 -14.559184 122.24359 8879735
144.04887 -14.500584 122.95504 8813941
143.3241 -14.608046 123.45389 7630177
142.42036 -14.74258 124.07545 6446421
55.045486 -14.753249 170.84882 10525327
54.064556 -14.627461 170.97336 9998983
53.332676 -14.205055 171.5309 9867398
52.336082 -13.991981 171.97272 10064777
51.452423 -13.977935 172.04123 10854036
160.42896 -13.405653 113.7606 9143163
159.86005 -13.402497 114.51773 8617335
159.43336 -13.400346 115.08546 9143422
155.91843 -13.728004 116.00677 6511954
155.49771 -13.726813 116.5684 9800572
154.93356 -13.725135 117.31482 10458246
150.42638 -14.015093 118.81763 5920074
149.90564 -14.005806 119.28772 8814710
149.21181 -13.993749 119.91305 8287342
148.51828 -13.981993 120.53696 9735044
147.82515 -13.97049 121.15941 8616819
47.770329 -13.664301 174.98776 9537921
47.137367 -13.664423 175.15848 8813942
46.292564 -13.664597 175.38274 9537921
45.234936 -13.664832 175.65717 12564654
44.387863 -13.665034 175.87257 10656657
39.723827 -13.358427 179.07091 7038307
39.226128 -13.336993 178.86345 8090987
161.28143 -12.454172 113.20071 8089963
160.71202 -12.738048 113.78603 8813942
160.095 -12.766556 114.58786 9011835
39.161942 -12.510065 179.16133 9669504
38.357803 -11.970965 179.02483 9735297
162.04172 -11.659403 112.66896 9735043
161.49455 -11.736072 113.34917 8682356
160.94763 -11.812991 114.02892 9735044
38.916237 -11.324466 179.52228 10524556
38.419109 -11.306485 179.31346 8880246
163.04361 -10.221462 112.20285 9011576
162.42305 -10.538993 112.83583 9274236
161.85085 -10.632072 113.53943 9274236
161.27936 -11.014159 114.06847 10261132
38.252834 -10.409569 179.59505 9275003
163.9059 -9.2602415 111.63584 8814197
163.35561 -9.337553 112.31973 9208187
162.80571 -9.414916 113.00308 11904927
38.244747 -9.5901766 179.9147 9471871
37.589397 -9.4958754 179.66734 9932166
164.72452 -8.1337147 111.22694 9734531
164.22012 -8.3734331 111.75211 9471359
163.54431 -8.4180088 112.62196 9273980
38.146648 -8.8406162 180.16776 9011574
37.421753 -8.596633 179.94922 10392460
165.59393 -7.1655025 110.65556 10851980
165.08803 -7.4060426 111.18217 9602686
164.41058 -7.4508467 112.05403 9471616
37.387375 -7.5862002 180.33282 9011574
36.663651 -7.345016 180.11369 8156780
165.85165 -6.3124433 110.82637 8550256
165.16464 -6.4796863 111.63734 8681842
164.58652 -6.6719308 112.28882 10261132
36.627903 -6.3326845 180.49748 9275003
166.63985 -5.7057028 110.19545 8089963
166.03854 -5.7018361 110.9503 8353134
165.45763 -5.6987133 111.71811 8089963
36.286476 -5.4998488 180.6777 8288109
35.981953 -5.1942725 180.66602 7564643
36.516373 -4.7498026 181.07341 9735555
35.792305 -4.5136008 180.85213 10261899
35.518589 -3.6499162 181.0739 10195848
35.430542 -2.9225831 181.32251 9932164
34.821514 -2.3119168 181.29898 9997445
34.572414 -1.323771 181.58051 9537664
34.380527 -0.63837278 181.76755 8682867
33.936348 -0.29523444 181.81647 9603972
33.720684 0.43107849 182.28963 9012607
32.92345 0.5815078 182.06441 9998988
32.126804 1.1993088 183.12009 9867146
31.388794 1.1948699 182.7923 10261391
25.773006 1.6801802 186.24294 7038307
25.724586 2.3032861 186.44878 7564648
25.083244 2.3757973 186.21738 10459019
25.142723 3.5476913 186.66499 9143418
24.874767 4.6419396 186.95294 8682867
24.233482 4.710814 186.72031 10459019
24.180603 5.6057734 187.02267 9275773
24.083218 6.597939 187.34227 7893871
23.369137 6.8199182 187.13579 8288627
23.874939 7.3054795 187.51437 8288627
23.408237 7.6514058 187.45206 8419954
23.204941 8.4797316 187.66986 8879735
22.491371 8.6994066 187.46268 10261899
23.164566 9.3543949 187.96985 8221548
22.523338 9.4161119 187.73468 9734788
22.467617 10.324249 188.04059 8813686
22.251301 11.44733 188.35979 8616307
