# .PCD v0.7 - Point Cloud Data file format
VERSION 0.7
FIELDS x y z rgb
SIZE 4 4 4 4
TYPE F F F U
COUNT 1 1 1 1
WIDTH 1196
HEIGHT 1
VIEWPOINT 0 0 0 1 0 0 0
POINTS 1196
DATA ascii
100.62666 -39.827423 -99.92662 7433057
101.39128 -39.846447 -99.251999 9471869
102.15624 -39.867367 -98.576149 9471868
102.92165 -39.890163 -97.899101 9143163
103.67535 -39.815586 -97.275787 8288372
104.41168 -39.593376 -96.733757 8090993
50.475761 -38.735283 -130.44322 9341054
51.092056 -38.728107 -129.83784 8617075
52.06971 -38.670753 -129.33403 7432289
52.972942 -38.653309 -128.90428 9274748
53.875114 -38.637386 -128.47316 7300702
54.6437 -38.804775 -127.7309 9472384
55.326309 -38.839813 -127.21976 8946557
56.21199 -38.88517 -126.70708 8945787
57.01527 -38.966988 -126.26357 7695980
57.96645 -38.964123 -125.82417 10063753
58.94883 -38.994297 -125.34756 9340797
59.87529 -39.006992 -124.92723 9603969
60.786968 -39.130756 -124.43739 10261899
61.633633 -39.176174 -124.06 10459019
62.28508 -39.321873 -123.73489 12761258
101.04607 -39.147945 -99.865211 6511954
101.641 -39.024803 -99.402039 12957870
102.40661 -38.838047 -98.818634 10655885
103.17408 -38.860283 -98.140045 9077112
103.94212 -38.884418 -97.460159 7564648
104.7107 -38.910374 -96.7789 7235678
105.46807 -38.838528 -96.151237 8813939
106.20849 -38.618473 -95.604568 7563619
54.837601 -38.482841 -128.1857 7300702
55.738102 -38.469997 -127.75156 7696236
102.82984 -38.158371 -98.753998 9208696
103.42751 -38.037235 -98.287598 7892582
104.19683 -37.852959 -97.699799 6643540
104.96755 -37.878254 -97.017029 7038298
105.69595 -37.947285 -96.351547 9077368
106.42518 -37.931118 -95.723434 9602428
107.09845 -37.841465 -95.176971 9274490
107.68668 -37.749348 -94.705734 9143418
104.96851 -37.097576 -97.36808 6906712
105.7634 -36.907265 -96.761566 10393228
106.51469 -36.890251 -96.11219 10326664
107.28903 -36.919487 -95.423508 9472639
108.06483 -36.950684 -94.733704 9143418
108.83002 -36.883263 -94.097176 9537408
109.57931 -36.666405 -93.541451 9011576
106.78416 -36.066765 -96.26329 9669761
107.56034 -35.885799 -95.665497 9472639
108.33395 -35.914722 -94.970322 9340796
109.1101 -35.945911 -94.274887 9011318
109.84512 -36.021305 -93.598564 8615790
110.54704 -35.909073 -93.037292 8550252
111.15208 -35.686394 -92.609741 8813680
108.00618 -35.207329 -95.600914 13549237
108.546 -35.140102 -95.156677 11182228
109.20802 -34.904011 -94.686447 10458507
109.91044 -34.931763 -94.052521 8352360
110.68793 -34.9641 -93.350418 8549739
111.46809 -34.998642 -92.647751 8682094
112.24023 -34.934292 -91.999733 8813940
113.16139 -34.610031 -91.341141 12828593
113.74947 -34.404285 -90.920731 14078918
110.19184 -34.157669 -94.17955 8418153
110.99918 -33.971851 -93.556572 9669505
111.75957 -33.960335 -92.890533 8616305
112.49657 -34.0369 -92.202393 8089963
113.15237 -33.973072 -91.654137 11445914
113.89774 -33.883087 -91.039398 13026486
114.6804 -33.62788 -90.471939 12828594
115.36061 -33.426964 -89.968529 11379609
111.82491 -33.26194 -93.171638 8352877
112.58555 -33.043697 -92.605713 9932420
113.3615 -32.977711 -91.952263 9011320
114.14812 -33.01413 -91.239845 12828338
114.98663 -32.878124 -90.565178 13023917
115.79839 -32.842907 -89.865242 10064266
116.4696 -32.563641 -89.407867 8683128
117.11916 -32.45575 -88.886406 7565161
113.65151 -32.19836 -92.075089 8682356
114.42135 -32.06942 -91.458618 11774622
115.10879 -32.000572 -90.885239 10524559
115.79722 -31.932405 -90.309425 9209216
116.6723 -31.823824 -89.588898 9011581
117.45937 -31.762831 -88.923416 6644060
118.2025 -31.68342 -88.304916 8683638
118.8934 -31.483101 -87.791222 7563619
115.31632 -31.303728 -91.049294 9735302
116.07613 -31.198681 -90.437859 9406338
116.89329 -31.027933 -89.822319 10064778
117.67199 -30.923103 -89.173218 5657166
118.41153 -30.711445 -88.700684 8618102
119.1213 -30.784311 -87.959404 8419184
119.90502 -30.722359 -87.27739 10392973
120.6916 -30.51022 -86.687271 11905692
119.63871 -30.156557 -88.339943 9340286
120.07517 -30.159845 -87.777641 10524299
120.94691 -30.029093 -87.089272 10919055
121.73016 -29.94894 -86.405487 9407365
122.55478 -29.73764 -85.950546 12564401
123.34083 -29.635181 -85.274033 12761779
124.76675 -29.371851 -84.287079 12236461
123.34493 -29.351099 -86.150261 10984593
123.7831 -29.356941 -85.577866 12366759
124.55346 -29.22488 -85.012924 12236461
125.32502 -29.093584 -84.44416 9078145
126.09918 -28.962099 -83.872711 9011580
126.98995 -28.760319 -83.371956 6905944
127.64526 -28.673018 -82.84314 7892839
128.50633 -28.585785 -82.181961 8879478
128.99107 -28.605629 -81.624527 11709348
130.43709 -28.36112 -80.798462 9012606
130.68053 -28.371653 -80.516907 10853012
128.85487 -28.295792 -82.620438 8747892
129.46352 -28.320314 -81.92128 9208443
130.28596 -28.170185 -81.482788 9406593
131.16144 -28.084158 -80.811043 10195852
132.0172 -27.966419 -80.251236 9142394
132.87361 -27.848572 -79.684891 8484719
133.73769 -27.731302 -79.117538 8682867
134.60216 -27.613853 -78.543289 9406078
135.42888 -27.547184 -77.869614 10195082
136.22307 -27.373571 -77.530914 9931910
136.71696 -27.39761 -76.947159 9931910
135.51166 -27.344349 -78.42057 10129545
137.32799 -27.120115 -77.288391 9471359
137.85861 -27.133123 -76.50386 9800580
138.8123 -27.028591 -75.947945 9603457
139.63414 -26.898834 -75.313324 10064008
140.68721 -26.749756 -74.866798 10524047
141.30125 -26.657888 -74.254662 9010808
142.25688 -26.566145 -73.886086 9274488
142.98485 -26.41654 -73.180084 10064260
144.67436 -26.188251 -72.300049 10392972
145.06694 -26.196232 -71.629799 8814198
146.50481 -25.949852 -71.031052 6971737
148.25133 -25.707886 -69.910004 9734788
150.25053 -25.518324 -69.095184 9734788
152.26747 -25.311218 -68.03743 9537664
154.0121 -25.041531 -66.611588 9537920
-9.8875523 -45.765903 -168.35623 11182231
-8.8616581 -45.674431 -168.08127 10524559
-8.0434284 -45.601601 -167.85843 9340545
-7.6352935 -45.565262 -167.74567 9143422
-7.2277999 -45.529015 -167.63226 9143422
-5.3478789 -45.391094 -165.58896 9670019
-4.5475783 -45.320065 -165.35791 9144449
-3.5501878 -45.224972 -165.04025 9998987
-2.5555971 -45.117657 -164.67259 10064265
-1.9611299 -45.053246 -164.44864 8682867
0.59406114 -44.771938 -161.88168 7498597
1.3668807 -44.688061 -161.578 7235421
2.136801 -44.604527 -161.27173 7235421
2.7123854 -44.54213 -161.04041 7959144
3.2861617 -44.479828 -160.80745 8486003
4.0488496 -44.397045 -160.49477 7039331
4.9976258 -44.291958 -160.09291 8683381
5.7523561 -44.197445 -159.72987 9933702
8.8440876 -43.816536 -156.71921 11380121
9.7593708 -43.715687 -156.30779 9933191
10.670523 -43.615341 -155.89304 7039331
71.062691 -43.618996 -118.43583 11906725
71.949646 -43.828186 -117.98881 9538432
72.86956 -43.872814 -117.59309 9209980
73.7911 -43.919556 -117.19591 8222577
74.777771 -43.844948 -116.81972 8288370
75.658302 -43.843365 -116.42656 9274748
76.49633 -44.032379 -115.88952 7892584
77.218933 -44.158363 -115.18067 8682100
78.041687 -44.156895 -114.62347 8813686
78.860344 -44.155422 -114.0603 8813686
79.675003 -44.15395 -113.49131 9602945
80.485428 -44.15247 -112.91636 9537152
81.291756 -44.15099 -112.33562 9866374
82.093788 -44.149513 -111.74905 9734787
82.89164 -44.148026 -111.15674 10194823
83.421265 -44.147038 -110.75894 10786703
85.990929 -44.143871 -110.28072 9078401
86.778008 -44.142368 -109.66027 7565675
87.560638 -44.140862 -109.03421 9537665
88.500771 -43.932037 -108.52548 8221548
89.262054 -43.834583 -107.9464 8089959
90.024513 -43.829342 -107.29324 10458249
90.785011 -43.825459 -106.63798 6510930
91.547134 -43.734314 -106.05779 7366496
92.370583 -43.666771 -105.40133 8024684
93.039726 -43.496952 -104.89433 8419702
11.576765 -43.515457 -155.47453 10129546
12.478861 -43.416042 -155.05273 11116697
13.37607 -43.31723 -154.62724 10459024
14.446947 -43.199253 -154.1123 9143422
15.334566 -43.101479 -153.6796 11709084
16.21731 -43.004265 -153.24326 8682867
19.871798 -42.601463 -149.92902 10920598
68.800529 -42.517681 -119.79906 7564651
69.449097 -42.677189 -119.4697 6906460
70.315102 -42.872162 -119.03701 8287597
71.188278 -42.951889 -118.64671 10854037
72.108917 -42.993637 -118.25187 8748405
73.031097 -43.037483 -117.85558 9406848
73.95488 -43.083397 -117.45781 9472641
74.756859 -43.124912 -117.11182 8419956
75.498283 -43.164539 -116.79146 10985620
89.573448 -43.169857 -108.06062 8287336
90.295845 -42.920185 -107.54301 10984593
91.040863 -42.817955 -106.93965 8681840
91.800514 -42.814949 -106.27917 7827047
92.559723 -42.813969 -105.6182 8748409
93.318535 -42.814972 -104.95665 9537923
94.062965 -42.720284 -104.35047 10328461
94.786377 -42.480709 -103.82742 12039591
20.892752 -42.488979 -149.39275 10853780
21.738798 -42.395744 -148.94257 10327437
22.582296 -42.307018 -148.50304 8089963
23.594454 -42.210987 -148.006 10261643
24.433912 -42.13171 -147.58957 9932678
25.269091 -42.052734 -147.16913 9932678
26.26618 -41.95837 -146.65985 7497825
27.092794 -41.880062 -146.2316 10985881
27.91519 -41.802082 -145.79953 10065035
28.887232 -41.694981 -145.22794 10459792
29.686506 -41.597706 -144.71872 12959409
30.163832 -41.539524 -144.41193 14604230
67.809326 -41.755474 -120.50647 12630449
68.615417 -41.840199 -120.14178 9209217
69.534584 -41.874981 -119.75025 6840919
70.455017 -41.9118 -119.35747 6971993
71.376823 -41.950623 -118.96325 7695460
72.300117 -41.991436 -118.56766 9275003
73.124474 -42.232121 -118.13412 9866884
73.931503 -42.40641 -117.73385 9735812
91.316574 -42.134789 -107.0052 10656654
92.040527 -41.888626 -106.48462 10065546
92.786781 -41.790195 -105.87856 8353908
93.547508 -41.791122 -105.21536 9537923
94.307907 -41.794041 -104.55155 8157296
95.068039 -41.798893 -103.88714 9801604
95.814201 -41.707794 -103.27784 8946039
96.540085 -41.471302 -102.75134 7563619
30.639193 -41.481586 -144.10394 9209467
31.427774 -41.38533 -143.58852 9209467
32.211918 -41.289566 -143.07066 10590608
32.99099 -41.194267 -142.55002 9340539
33.919827 -41.080505 -141.92195 8880245
34.688862 -40.986298 -141.39586 11248024
35.452843 -40.892555 -140.86714 11181977
36.363609 -40.780609 -140.22943 9012350
37.117607 -40.687893 -139.69554 9340287
37.866554 -40.595661 -139.15897 10524047
38.462749 -40.522129 -138.72823 10591374
65.426277 -40.732483 -121.88856 8814710
66.076012 -40.885113 -121.56145 7564642
66.897736 -41.111198 -121.13471 7301470
67.855995 -40.919468 -120.81625 8748918
68.796265 -40.840519 -120.46086 8617331
69.71801 -40.874531 -120.06859 7564642
70.579308 -41.004162 -119.66354 8024937
71.441269 -41.195866 -119.2338 7037530
93.065262 -41.107353 -105.94151 9340545
93.738464 -40.937557 -105.43119 9340545
94.454697 -40.769394 -104.88351 7893356
95.216179 -40.77364 -104.21691 6840920
95.978104 -40.780067 -103.5502 7630179
96.739944 -40.788422 -102.88274 7695717
97.463989 -40.700127 -102.29144 9602942
98.174324 -40.466003 -101.77736 14802129
38.907665 -40.467316 -138.40407 10591374
39.645451 -40.376183 -137.862 9341053
40.378838 -40.28553 -137.31773 6840925
43.508537 -39.924397 -136.44263 8092011
44.225304 -39.835327 -135.88013 8092011
44.937065 -39.746662 -135.31544 10723219
45.785259 -39.640934 -134.63524 14801360
46.487152 -39.553272 -134.06627 12432812
63.454071 -39.680481 -123.11324 9734273
64.375916 -39.940987 -122.63183 9208186
65.234413 -40.058784 -122.23258 9340285
66.153481 -40.084599 -121.84464 8880503
67.073517 -40.112324 -121.45551 7959401
68.03437 -39.919659 -121.13641 9077882
68.879433 -40.037941 -120.7425 8551537
69.686363 -40.201294 -120.34657 9209467
95.288872 -40.005661 -104.50587 7695974
96.006233 -39.924843 -103.91294 6972505
96.830292 -39.804321 -103.24719 7959144
97.571068 -39.77042 -102.61499 8024170
98.334473 -39.781723 -101.94409 11577760
99.076653 -39.751682 -101.31091 11116953
99.859772 -39.552094 -100.71793 10459279
46.906006 -39.500957 -133.72382 7037274
47.323059 -39.448841 -133.38074 8090995
60.315849 -38.662304 -124.98475 9735812
60.91671 -38.664337 -124.70444 10788500
61.871872 -38.747528 -124.20573 10984846
62.6978 -38.959347 -123.72697 11642776
63.56543 -39.015816 -123.33116 8287340
64.484497 -39.036793 -122.94298 8155756
65.405205 -39.06015 -122.55534 8550770
66.326836 -39.085365 -122.1666 8617075
67.188683 -39.206402 -121.76472 9670019
67.805832 -39.465012 -121.40932 8814710
96.257751 -39.415779 -103.93626 9406590
96.975609 -39.080849 -103.46473 8748916
97.778656 -38.918385 -102.83414 8090219
98.603477 -38.800583 -102.16278 8089963
99.344604 -38.769131 -101.52528 9537665
100.10809 -38.782997 -100.8486 10130313
100.85149 -38.755585 -100.21064 6840919
101.63783 -38.558735 -99.613388 10590093
53.636528 -38.356274 -129.63957 7761253
54.155102 -38.284485 -129.14217 6905688
54.965 -38.20388 -128.48387 6905688
55.863937 -38.188862 -128.04115 6840669
56.811077 -38.227997 -127.60449 7761773
57.65451 -38.159908 -127.14208 8945787
58.533802 -38.13884 -126.66041 10327438
59.359001 -38.155781 -126.16394 12894652
60.203098 -38.231667 -125.51714 9735812
61.076889 -38.215343 -125.03335 10459276
61.972401 -38.214851 -124.59528 10063744
62.874886 -38.220364 -124.17037 9471607
63.777435 -38.227627 -123.74466 8945265
64.609222 -38.266422 -123.32626 8353135
65.529045 -38.399563 -122.78925 8089963
66.288551 -38.414284 -122.44643 8813942
98.03334 -38.409393 -102.85613 8089963
98.75428 -38.076721 -102.38076 8089963
99.560127 -37.917351 -101.74627 8419444
100.36691 -37.759563 -101.11024 10854035
101.13047 -37.774006 -100.42877 8090730
101.89448 -37.790295 -99.746346 9537662
102.63881 -37.765152 -99.102798 8222058
103.42741 -37.570374 -98.499802 8353132
99.817444 -37.407997 -101.76617 8617080
100.62732 -36.993134 -101.25206 10195848
101.35073 -36.920757 -100.64821 9143418
102.03304 -36.763 -100.12207 10064263
102.75668 -36.779293 -99.474968 8352876
103.52324 -36.798176 -98.788719 8221547
104.24839 -36.774532 -98.159698 7103322
104.97633 -36.631645 -97.586052 7104091
105.57656 -36.511818 -97.113968 9735555
101.48306 -36.408234 -100.77998 7959144
102.21075 -36.079243 -100.29682 11904668
102.95097 -35.84959 -99.754433 9602686
103.70863 -35.769115 -99.124268 10392712
104.47778 -35.788994 -98.435196 7892582
105.24746 -35.810619 -97.744881 7629923
106.01772 -35.833923 -97.053177 10655374
106.79427 -35.599308 -96.481148 11773341
104.01759 -35.086845 -99.182373 8616304
104.76162 -34.859005 -98.635696 7827302
105.52277 -34.78096 -98.001312 8484976
106.29528 -34.803616 -97.307945 9273979
107.02452 -34.869915 -96.631645 12496806
107.72501 -34.806553 -96.043625 12825771
108.42974 -34.613968 -95.514595 11971487
108.9707 -34.546646 -95.069504 12432037
105.83546 -34.097164 -98.056816 8945527
106.39778 -33.939869 -97.636444 8945015
107.09015 -33.787094 -97.099014 9537152
107.86609 -33.811836 -96.401672 11971745
108.64282 -33.838192 -95.702744 10458508
109.42048 -33.866253 -95.002266 8813943
110.20495 -33.68652 -94.396545 9208440
110.81561 -33.570751 -93.91333 10262156
107.53579 -33.105621 -97.035995 9012606
108.14424 -32.985687 -96.557732 9275263
108.92863 -32.802574 -95.955055 9537664
109.70808 -32.829605 -95.252472 7367013
110.44392 -32.900322 -94.567368 8616305
111.1399 -32.883503 -93.960434 9405563
111.84122 -32.736458 -93.412239 10786445
112.54403 -32.590157 -92.862389 14604230
109.39057 -32.122849 -95.89856 6511962
109.77416 -32.134102 -95.540535 6511962
110.49416 -31.989656 -95.012123 7695205
111.33766 -31.848207 -94.3563 7563361
112.10577 -31.873909 -93.633377 9142135
112.87811 -31.902103 -92.911575 11708829
113.67166 -31.724253 -92.29451 9011834
114.29072 -31.610327 -91.803352 10854036
112.63348 -31.238672 -93.845055 8616048
113.18793 -31.236721 -93.16642 9998214
113.92898 -31.078711 -92.774399 9275519
114.65406 -31.054737 -92.029831 9735813
115.45993 -30.894775 -91.450272 8748667
116.40884 -30.649696 -90.934464 9406337
117.14655 -30.488819 -90.461899 10854037
117.90663 -30.422729 -89.705437 5920081
118.10577 -30.149265 -90.302063 7630698
118.97689 -30.042017 -89.532631 7630952
119.63165 -29.990154 -88.865143 10459789
120.60819 -29.746248 -88.386543 11181970
121.37238 -29.61261 -87.83448 10458505
121.92048 -29.617855 -87.124756 8091503
121.91723 -29.335497 -88.004898 9011574
122.46714 -29.340916 -87.29245 8289139
123.21736 -29.178837 -86.852097 10590352
124.00823 -29.073975 -86.170837 10984593
124.82027 -28.893223 -85.704453 9867660
125.5571 -28.808147 -85.036133 9078145
126.67329 -28.535402 -84.47023 8814715
127.00399 -28.541273 -84.033676 8287597
128.36795 -28.276714 -83.178223 7366495
130.02353 -28.051102 -82.273315 10854036
141.41713 -26.798092 -75.830673 10261124
143.26781 -26.566139 -74.623848 8813936
145.10234 -26.327862 -73.380142 7038307
146.92 -26.08316 -72.099335 6510930
148.72105 -25.832033 -70.781464 7169629
151.01201 -25.688421 -70.097618 9734788
152.79494 -25.424931 -68.708794 8092011
154.55843 -25.155226 -67.284027 12828338
-9.9848423 -45.744678 -169.93195 8092011
-8.9491978 -45.652382 -169.65118 11643549
-8.1231403 -45.578846 -169.4236 9143422
-6.6177001 -45.474747 -167.46066 8091248
-5.8063521 -45.402714 -167.22945 9669764
-4.7956786 -45.313049 -166.93617 8091762
-3.7884614 -45.223782 -166.63884 9933708
-1.5657518 -45.010273 -164.2984 8682867
-0.77748275 -44.924831 -163.99576 11050899
0.20415333 -44.81834 -163.61412 9472640
1.1808913 -44.712318 -163.22818 8682867
2.1532652 -44.60677 -162.83835 8288109
3.120703 -44.501812 -162.44437 5393729
6.1280885 -44.148247 -159.53973 9933702
6.8766847 -44.050117 -159.15776 10064778
7.8086114 -43.931267 -158.68961 10261901
8.7378178 -43.82835 -158.27322 12433581
9.6628284 -43.726482 -157.85553 10788757
10.582914 -43.625114 -157.43396 10656143
76.668579 -43.569454 -116.15108 7760998
77.564255 -43.792194 -115.69525 9208444
78.49604 -43.849365 -115.28973 8155756
79.42997 -43.908684 -114.88249 8879479
80.430916 -43.845604 -114.49312 9800581
81.31041 -43.848515 -114.07116 9931910
82.122475 -43.973934 -113.56225 8814197
82.962547 -44.106594 -112.78673 9406334
83.879265 -43.945202 -112.40751 8550256
84.644623 -43.894749 -111.82285 9208185
85.41935 -43.881248 -111.18158 9472387
86.292664 -43.73185 -110.66747 7894640
87.05497 -43.71656 -110.01014 7565675
87.816437 -43.703297 -109.35262 9867144
88.486572 -43.523212 -108.84941 9537665
11.498652 -43.524193 -157.00906 9603458
12.409533 -43.423847 -156.58051 10656402
13.316103 -43.324017 -156.14865 12301481
14.037958 -43.244484 -155.80063 10787729
17.095861 -42.907436 -152.80389 8682867
17.969614 -42.811184 -152.36104 9998469
18.839109 -42.715355 -151.91505 9538688
19.703913 -42.620094 -151.46582 8552568
75.134605 -42.637043 -117.14855 8485491
75.922073 -42.806446 -116.75817 8287597
76.805077 -42.89814 -116.35914 8024170
77.737167 -42.952152 -115.95478 9011064
78.671288 -43.008266 -115.5487 8879221
79.60762 -43.066563 -115.14092 8616307
80.420868 -43.118862 -114.78605 8484721
81.173004 -43.168499 -114.45731 10261132
84.874199 -43.258553 -112.12678 11905695
85.725861 -42.994343 -111.50269 9735302
86.473 -42.87986 -110.90004 9341316
87.234756 -42.863781 -110.23856 9078401
87.996552 -42.85017 -109.57817 9209726
88.758446 -42.838997 -108.91876 9076850
89.504578 -42.732868 -108.3162 7629407
90.227577 -42.482742 -107.79819 9340024
20.564413 -42.525322 -151.01352 8815739
21.423006 -42.43671 -150.57812 10985879
22.452417 -42.339699 -150.0825 8089963
23.305899 -42.259148 -149.66541 9866630
24.155115 -42.179005 -149.24434 11116440
25.169008 -42.083126 -148.73419 7037274
26.009546 -42.003601 -148.30508 11380380
26.845755 -41.924404 -147.87219 10130314
27.512114 -41.861233 -147.52344 9341057
73.350609 -41.787144 -118.21629 10195593
74.214302 -41.985813 -117.78307 8946298
75.113037 -41.958603 -117.4244 8090473
76.077072 -41.839703 -117.0749 6906456
77.009941 -41.890453 -116.67149 8747893
77.944824 -41.943298 -116.26646 9668735
78.7771 -42.19659 -115.82464 9471612
79.593147 -42.382748 -115.41592 9537409
86.750809 -42.198235 -110.98366 14603214
87.476189 -41.941532 -110.46744 9143677
88.222946 -41.83078 -109.8616 9406589
88.983284 -41.818169 -109.19611 7958371
89.743416 -41.807808 -108.53113 6313806
90.503746 -41.799858 -107.86697 9208439
91.249588 -41.697018 -107.26039 10722960
91.973808 -41.450165 -106.73902 8881019
31.40053 -41.415867 -145.13409 9209467
32.034729 -41.338345 -144.71432 9209467
32.823601 -41.241894 -144.1875 9537664
33.60733 -41.145912 -143.6579 9406076
34.541653 -41.031372 -143.01912 9340539
35.315155 -40.936523 -142.48409 9406335
36.083595 -40.842091 -141.94652 9143679
36.999592 -40.729412 -141.29823 8683642
37.757839 -40.636082 -140.75537 9472387
38.360947 -40.561722 -140.31943 8092015
70.857246 -40.58268 -119.7152 9209467
71.664978 -40.750526 -119.31709 8682867
72.491508 -40.988411 -118.88377 12497830
73.419037 -41.030312 -118.48602 10919056
74.348206 -41.074253 -118.08678 7761767
75.301437 -41.008297 -117.72092 7827300
76.215553 -40.925945 -117.3776 6511954
77.146614 -41.21822 -116.87988 8221803
88.631187 -41.147762 -109.83237 8682867
89.158264 -41.054958 -109.41186 8024166
89.841408 -40.834015 -108.91566 7892579
90.569756 -40.78318 -108.29694 7826791
91.372162 -40.775806 -107.59174 8880762
92.173897 -40.770538 -106.88615 9209983
92.89595 -40.670784 -106.29697 8354164
93.60453 -40.427193 -105.78909 9011581
38.811325 -40.506199 -139.99146 8092011
39.408791 -40.432396 -139.5528 9736322
40.299744 -40.322269 -138.8922 9736322
41.037209 -40.231007 -138.33923 7433576
41.769581 -40.14032 -137.78392 8092019
42.642426 -40.032005 -137.11482 9276291
45.626114 -39.688171 -136.30415 14077894
46.478603 -39.581783 -135.61349 13880515
47.043438 -39.511223 -135.1516 13551549
69.099503 -39.592281 -120.82744 8880502
69.963127 -39.779308 -120.39883 9077881
70.827324 -39.908237 -119.99288 9209467
71.754425 -39.945312 -119.59719 8880246
72.68306 -39.984329 -119.20014 10129798
73.613281 -40.025299 -118.80169 9143417
74.498077 -40.108326 -118.40533 7235420
75.226868 -40.326771 -118.01977 9142902
90.726479 -40.01968 -108.52895 8418927
91.444603 -39.928257 -107.939 8419442
92.205879 -39.922977 -107.26915 9538947
92.966629 -39.919563 -106.5988 10460303
93.726913 -39.918011 -105.92802 9471874
94.486809 -39.918312 -105.2567 8682873
95.161163 -39.750156 -104.7426 8156527
47.324623 -39.476074 -134.92023 9867403
47.884396 -39.405975 -134.45627 8090995
48.718845 -39.301437 -133.75812 8485750
49.546623 -39.197544 -133.05734 7433056
50.367683 -39.09441 -132.35387 8551026
52.585842 -38.84288 -131.98183 7761509
53.257698 -38.758018 -131.38113 7761509
53.792194 -38.690434 -130.89943 5919050
67.462135 -38.783524 -121.81873 9538433
68.263824 -38.850502 -121.46284 8880503
69.158432 -38.838139 -121.09999 8814710
70.085434 -38.870537 -120.70623 8683123
71.013779 -38.904858 -120.31113 8683123
71.943558 -38.941051 -119.91471 8748916
72.842865 -39.146782 -119.46408 9537918
73.587387 -39.347816 -119.07897 9143675
91.691162 -39.417732 -107.96885 8879992
92.409355 -39.277325 -107.40266 8025455
93.169151 -39.070297 -106.83199 9867909
93.931091 -39.068726 -106.15971 9932423
94.692642 -39.069 -105.48694 9406082
95.453857 -39.07111 -104.81354 9471873
96.202507 -38.977707 -104.1976 10064518
96.933022 -38.739632 -103.66778 9867395
56.511414 -38.050865 -128.68791 6510930
56.765453 -38.015121 -128.43306 7038307
59.370197 -37.743389 -127.66794 13024949
59.87365 -37.721504 -126.96557 13420739
60.569397 -37.727139 -126.28273 10130828
61.462593 -37.719475 -125.82445 10065803
62.339096 -37.703773 -125.33327 9340279
63.208 -37.686058 -124.82928 9208435
64.071503 -37.667442 -124.31611 8156007
64.954468 -37.716923 -123.74007 8287597
65.753242 -37.795288 -123.21088 9406591
66.661545 -37.86607 -122.71651 9340286
67.509193 -37.974422 -122.24994 9012089
68.415375 -37.896694 -121.88805 8946296
69.325142 -37.892784 -121.47852 9077882
70.241325 -38.035595 -120.97677 7367007
71.076118 -38.148708 -120.58306 8288365
71.759026 -38.25877 -120.25906 8485744
93.585762 -38.389576 -106.79427 8091242
94.178185 -38.25264 -106.33742 8551539
94.939926 -38.048729 -105.76353 9011581
95.703163 -38.050728 -105.08838 9603203
96.466125 -38.054565 -104.41262 10656654
97.228935 -38.060143 -103.73615 9275259
97.979637 -37.969852 -103.11682 8485489
98.712929 -37.734394 -102.58341 9537665
63.325451 -37.292824 -125.43528 9208435
95.359863 -37.368259 -105.72273 8616307
95.953857 -37.233715 -105.26336 9734788
96.717834 -37.032734 -104.68606 9932421
97.482666 -37.038143 -104.00786 9077880
98.247414 -37.045315 -103.32892 12104098
99.012108 -37.054195 -102.64914 9932423
99.765251 -36.966862 -102.02631 8485494
100.50147 -36.733734 -101.48904 11905953
97.141258 -36.352318 -104.64224 9867395
97.737038 -36.219929 -104.18017 7959659
98.418312 -36.069656 -103.65131 9538949
99.099869 -36.028244 -103.06935 8880765
99.824348 -35.994732 -102.44577 7564651
100.54847 -36.048454 -101.78004 9011581
101.29461 -36.018333 -101.13563 8353646
102.08546 -35.818741 -100.53391 10589323
99.314758 -35.345238 -103.21097 8552312
100.0535 -35.109493 -102.67281 8748666
100.81063 -35.022362 -102.0463 9340287
101.57984 -35.035179 -101.36064 8945271
102.34928 -35.04966 -100.67401 9339515
103.09821 -35.022266 -100.0258 8681843
103.89274 -34.824886 -99.419701 9011061
104.71326 -34.41325 -98.894661 8090987
101.11407 -34.339352 -102.10968 9208699
101.8562 -34.10569 -101.56773 8551028
102.61622 -34.021049 -100.93739 9010807
103.38808 -34.03672 -100.24788 8287342
104.16042 -34.054024 -99.557312 9011320
104.91808 -33.934193 -98.946182 8748660
105.59208 -33.743938 -98.443123 10261128
106.31981 -33.503937 -97.916801 9865859
102.92603 -33.337696 -101.00079 8089963
103.5642 -33.214958 -100.51543 8682616
104.27203 -33.026016 -100.00594 8748665
104.9649 -33.039631 -99.37085 9866627
105.70829 -33.011692 -98.705635 11247509
106.61144 -32.832333 -98.000931 8814199
107.35723 -32.710854 -97.400276 9538693
108.15791 -32.516655 -96.779602 9012606
105.38412 -32.386482 -99.529175 9866627
106.00134 -32.393051 -98.919952 9866627
106.8194 -32.215561 -98.353546 9406593
107.7449 -32.023827 -97.692863 10788502
108.4207 -31.957094 -97.13118 8025969
109.22582 -31.779282 -96.623032 10261386
109.98521 -31.666149 -95.954926 7563877
110.81126 -31.517832 -95.284065 9866114
110.97955 -31.254045 -95.889702 11379095
111.88401 -31.156721 -95.047455 9339514
112.74415 -30.972635 -94.530411 8089961
113.5611 -30.833878 -93.927414 9603715
114.54456 -30.588202 -93.455231 8486262
115.15166 -30.531029 -92.854813 8486262
115.93192 -30.421036 -92.208939 7368040
116.37209 -30.420527 -91.653824 9735302
116.25822 -30.154915 -92.693748 7828077
116.7852 -30.147734 -91.977348 8682867
117.66665 -30.040413 -91.220276 12564655
118.52624 -29.874727 -90.621834 7038560
119.30331 -29.741814 -90.088982 6446421
120.05552 -29.60364 -89.534576 8025194
121.3865 -29.335806 -88.731064 9011574
121.58677 -29.332666 -88.431923 9011574
149.21062 -25.945684 -71.449982 7563619
153.74367 -25.608334 -69.572594 13486007
155.53247 -25.364697 -68.589096 8090987
155.10869 -25.26992 -67.961906 8090987
-10.158426 -45.038433 -171.06979 9933957
-9.3824711 -45.16959 -170.97606 8092011
-8.6021976 -45.49947 -170.78178 8090987
-7.7111526 -45.542194 -169.30872 10261132
-6.8891692 -45.469196 -169.0762 9472130
-5.8648314 -45.378265 -168.78198 7302503
-5.0482345 -45.305862 -168.54327 7960176
-4.4373717 -45.251682 -168.36244 8420470
-2.7853792 -45.13501 -166.33673 9736072
-1.7854631 -45.038311 -165.9996 9801092
-0.98831344 -44.951847 -165.69177 8682867
0.0036909878 -44.844189 -165.30305 9472641
0.99128556 -44.737038 -164.91049 7762796
1.5816405 -44.672966 -164.67302 7039331
-10.08378 -44.364902 -171.51295 8092011
4.0837693 -44.397255 -162.04654 5920073
4.8508134 -44.314007 -161.72537 8091503
5.8033433 -44.195248 -161.26517 8486000
6.7501283 -44.071148 -160.77997 7762021
7.5033708 -43.972443 -160.38966 9933702
8.4419956 -43.861057 -159.9407 9208443
9.3774929 -43.758041 -159.51691 9998215
10.30797 -43.655521 -159.08929 9800837
11.049387 -43.573811 -158.74495 10985881
82.513756 -43.603821 -113.73492 8682867
83.18026 -43.776466 -113.33765 8880246
83.783257 -43.62899 -112.91074 8682867
11.418814 -43.533134 -158.57182 11906725
14.577417 -43.18499 -155.53818 10787729
15.115179 -43.125793 -155.27448 8353908
16.007593 -43.027466 -154.83221 9932419
16.895792 -42.929626 -154.3869 11905951
17.779078 -42.83231 -153.93805 9735297
18.658106 -42.735455 -153.48622 11051928
19.532598 -42.639938 -153.0338 9670789
20.232222 -42.570198 -152.69269 10263180
80.81105 -42.631008 -114.81766 8682357
81.608429 -42.812191 -114.41859 9143676
82.504364 -42.916145 -114.00938 8682867
83.410347 -42.961796 -113.5388 10459278
84.18512 -42.942066 -112.88901 8551028
84.985886 -42.749523 -112.27512 11050902
85.659042 -42.562389 -111.77132 10524560
20.581831 -42.537357 -152.52779 8815739
21.278822 -42.471703 -152.19615 10261641
22.319693 -42.373634 -151.69427 8550513
23.182741 -42.292183 -151.272 8089963
23.698507 -42.243469 -151.01672 8089963
28.009912 -41.813976 -147.26025 9078142
28.66921 -41.74789 -146.89568 8815227
29.478556 -41.650242 -146.38274 10327950
30.122427 -41.571815 -145.96838 11906725
79.012573 -41.75024 -115.90353 9471355
79.885971 -41.961708 -115.46133 9208444
80.798492 -41.945499 -115.0926 8946042
81.779152 -41.837467 -114.73203 8683127
82.726364 -41.900436 -114.31788 8748660
83.631645 -41.943375 -113.84171 9932936
84.406624 -41.923149 -113.18766 8552055
85.172096 -41.900738 -112.52242 9143423
85.936371 -41.880302 -111.85725 10064266
86.684921 -41.765697 -111.25169 13221813
87.41114 -41.508579 -110.735 8682867
30.603117 -41.513168 -145.65628 10788244
31.082197 -41.454731 -145.34328 9209467
37.032402 -40.752899 -142.82224 10853012
37.645542 -40.677406 -142.38226 8947070
38.408077 -40.583378 -141.83054 8092019
38.863289 -40.527233 -141.4984 9868171
76.502769 -40.504223 -117.42551 6511954
77.249199 -40.713654 -117.03625 8550511
78.152657 -40.933479 -116.57839 9208184
79.092422 -40.987179 -116.171 8879220
80.034378 -41.042938 -115.76183 8419442
80.948357 -41.056026 -115.38106 8814713
81.932335 -40.916016 -115.03164 8354164
82.874466 -41.22274 -114.52368 8814714
84.042587 -41.259163 -113.83139 9933193
84.572906 -41.158375 -113.41187 8486262
85.258568 -40.927391 -112.9183 7959663
85.991692 -40.86562 -112.30071 10590352
86.757034 -40.847076 -111.63368 12433585
87.52137 -40.830471 -110.96661 13289147
88.241425 -40.774277 -110.35784 9143418
88.958344 -40.601444 -109.80845 8879988
89.548592 -40.457191 -109.35709 9734779
39.31665 -40.471252 -141.16527 10196876
40.068275 -40.378342 -140.60822 8881270
40.964161 -40.267467 -139.93695 8157039
41.705627 -40.17564 -139.37517 9340801
42.441948 -40.084316 -138.81107 9276291
43.319458 -39.975319 -138.13138 12302508
44.045662 -39.885059 -137.5627 11314591
44.766777 -39.795258 -136.99182 14077894
74.922127 -39.747204 -118.37313 8485229
75.581116 -39.9146 -118.03637 10063747
76.481888 -39.823666 -117.70192 9142904
77.420296 -39.872128 -117.29712 8287084
78.360718 -39.922585 -116.8907 9668734
79.303329 -39.975025 -116.48262 9077369
80.19973 -40.069473 -116.07698 8617592
81.06208 -40.335075 -115.61802 8617335
86.139488 -40.101215 -112.54105 9933194
86.914139 -39.925636 -111.94196 12631480
87.665611 -39.812798 -111.33297 14144974
88.431015 -39.798183 -110.66394 9735811
89.195518 -39.785465 -109.99485 9538434
89.917625 -39.817451 -109.3415 10195078
90.595047 -39.766911 -108.76763 10260871
47.749935 -39.45071 -136.13644 12498863
48.595375 -39.344784 -135.43068 8683131
49.433968 -39.239597 -134.72211 9143419
50.127708 -39.152519 -134.12967 9603458
50.816544 -39.065842 -133.53531 8156267
51.637024 -38.962532 -132.81975 7301214
52.18045 -38.894001 -132.34138 6510930
53.867371 -38.709377 -132.43167 7761509
54.538559 -38.624439 -131.82091 6511186
55.205391 -38.539932 -131.20871 6774618
72.938812 -38.643845 -119.62258 8090986
73.870712 -38.925213 -119.12879 9275261
74.742355 -39.061024 -118.71706 7696228
75.678757 -39.104858 -118.3149 10327176
76.684654 -38.813919 -118.01594 9076342
77.625816 -38.861233 -117.61047 9470842
78.534294 -39.079288 -117.15122 10063490
79.28643 -39.290874 -116.75882 8420470
87.946327 -39.130001 -111.41632 13881805
88.623688 -38.948048 -110.90625 9998985
89.389809 -38.935532 -110.2356 10262159
90.174706 -38.997242 -109.51236 9998215
90.880196 -39.085949 -108.84618 9800322
91.630226 -38.982098 -108.23407 8747892
92.403465 -38.81913 -107.63019 7169888
55.603218 -38.48941 -130.84059 6510930
56.130703 -38.422447 -130.34879 9011576
56.65564 -38.355728 -129.85605 9011576
59.114857 -38.071293 -129.13174 8419184
59.500923 -38.021976 -128.75397 9340286
69.784737 -37.550617 -121.52486 9932678
70.38942 -37.563103 -121.23269 7695717
71.320518 -37.712299 -120.7019 9209467
72.183372 -37.897114 -120.23549 8419695
73.066887 -37.972721 -119.83404 8946040
74.002472 -38.011745 -119.43412 10064777
74.939804 -38.052631 -119.03275 8551538
75.878937 -38.095375 -118.62992 8155755
76.758286 -38.052032 -118.2855 8616048
88.995209 -38.43322 -110.82787 8814715
89.588753 -38.288254 -110.37394 11709347
90.373451 -38.116356 -109.7642 10327438
91.1175 -38.065479 -109.13168 11247765
91.883041 -38.05854 -108.45884 9800578
92.648033 -38.053436 -107.78571 7762022
93.390739 -38.007645 -107.15182 8288621
94.17408 -37.793316 -106.56387 8551795
62.085087 -37.45219 -126.71577 8157811
62.693172 -37.363625 -126.04694 8946552
63.775864 -37.292511 -125.20905 7367005
64.58773 -37.232555 -125.17156 7038297
65.387711 -37.174454 -124.66913 7564641
66.243469 -37.153225 -124.13044 9143165
67.113159 -37.141808 -123.61922 8551287
67.976906 -37.129269 -123.09816 9669252
68.829086 -37.112923 -122.55795 9801605
69.697937 -37.107727 -122.0484 9932678
70.571663 -37.107086 -121.54751 8813942
71.477371 -37.124653 -121.10032 9209467
72.387459 -37.145943 -120.65841 8616307
73.298172 -37.168842 -120.21492 8945272
74.20993 -37.193626 -119.77059 10393486
75.071541 -37.379635 -119.24344 8024937
75.698563 -37.407391 -118.97485 7563619
91.359634 -37.298668 -109.28983 10853008
92.14463 -37.079235 -108.70292 9734785
92.889572 -37.031837 -108.06794 10459276
93.655983 -37.028511 -107.39258 8814965
94.421944 -37.026958 -106.71675 10394253
95.166 -36.984509 -106.08015 8616564
95.951469 -36.773212 -105.48886 9142651
93.135048 -36.264374 -108.22346 10392457
93.921768 -36.048096 -107.63348 10919827
94.667908 -36.003952 -106.99586 9735811
95.435509 -36.004093 -106.31778 8287597
96.160378 -36.048466 -105.656 7695204
96.852455 -35.966103 -105.08463 8089962
97.54454 -35.756672 -104.57493 8551539
98.077415 -35.675301 -104.14377 7565675
94.832069 -35.321045 -107.18212 9209467
95.429054 -35.184376 -106.72117 9209467
96.19677 -34.980427 -106.14204 7497825
96.965965 -34.983303 -105.46125 8616818
97.734947 -34.987782 -104.77978 9932934
98.503876 -34.993935 -104.09763 9276035
99.260727 -34.903622 -103.47296 9210242
100.00013 -34.667274 -102.9345 11905953
96.622055 -34.297791 -106.1015 8681835
97.228134 -34.21701 -105.62037 11117207
98.018311 -34.064941 -105.01243 10327177
98.78051 -33.973984 -104.39096 8223348
99.540718 -33.977867 -103.6948 8289140
100.3035 -33.984268 -103.00082 10721678
101.0625 -33.89637 -102.37198 9471870
101.80541 -33.662132 -101.83013 8485235
99.316643 -33.326385 -104.45633 7565675
99.810768 -33.324501 -103.97625 9932166
100.63971 -33.165478 -103.3461 9076600
101.37557 -33.163692 -102.61927 9932163
102.10702 -33.015125 -102.13194 8287857
102.8838 -32.81052 -101.63153 9340030
103.5993 -32.653923 -101.09553 10064010
104.09911 -32.696091 -100.45586 9735046
104.13284 -32.408535 -100.9695 9735046
104.76302 -32.266537 -100.61297 9143167
105.57314 -32.120655 -100.04062 8748660
106.36085 -31.976191 -99.492409 8879735
107.30486 -31.727703 -99.082848 9011321
107.95557 -31.662663 -98.447624 9012606
108.81931 -31.544678 -97.720879 8025969
109.1246 -31.289793 -98.22937 7565675
109.65081 -31.272341 -97.523254 7761509
110.53303 -31.13485 -96.896255 9734529
111.37516 -30.987389 -96.230125 10260872
112.14907 -30.852438 -95.732491 8352877
112.89252 -30.710148 -95.20639 7893094
114.21782 -30.442198 -94.468048 9208699
114.421 -30.43606 -94.176506 9208699
138.10756 -27.919905 -80.569771 10590606
139.82973 -27.664165 -79.343109 10853012
141.5537 -27.406393 -78.09288 9932934
143.27431 -27.180492 -77.25708 7038298
145.00792 -26.918461 -75.9617 6511954
146.74637 -26.670946 -74.864258 9143166
148.49763 -26.437599 -73.968811 8617075
148.48271 -26.388008 -73.298187 8617075
150.2549 -26.185165 -72.829216 9735043
150.24001 -26.152374 -72.379074 9340030
152.03069 -25.946497 -71.894348 9537920
152.00043 -25.897661 -71.214645 9866630
153.78261 -25.656561 -70.255608 10789009
155.57909 -25.412668 -69.277008 14012612
157.39046 -25.165791 -68.278564 9736071
-8.1510715 -45.036243 -170.96739 9143675
-7.1730971 -45.056568 -170.88156 10261899
-6.1307464 -45.370358 -170.41679 9275008
-3.8279512 -45.197754 -168.17972 8354934
-3.0175569 -45.126049 -167.93379 9143678
-2.008188 -45.036888 -167.62225 11577247
-1.0024049 -44.948128 -167.30661 10064008
2.1700423 -44.609097 -164.4339 7104608
-10.345926 -43.918877 -172.39813 9736329
-9.5975437 -43.848545 -172.34647 8091761
-9.0634556 -44.278931 -171.68103 8091243
-8.0239964 -44.328423 -171.49352 10788243
2.9520018 -44.524235 -164.11295 8091498
3.7310927 -44.439621 -163.7894 7038554
4.700438 -44.334347 -163.38138 8091501
5.6639009 -44.218075 -162.92702 9276035
6.4297624 -44.117695 -162.53221 11381404
7.381865 -43.992905 -162.03589 8749174
8.3295498 -43.873653 -161.55484 8683131
8.8972683 -43.811081 -161.2968 8090995
-10.365923 -43.093079 -172.70334 11380639
-9.808321 -43.14064 -172.62817 8486518
12.155195 -43.452019 -158.22372 10392973
13.071917 -43.351013 -157.78577 8617335
13.983644 -43.250595 -157.34418 9604485
14.890989 -43.15065 -156.89938 9143422
15.79336 -43.051235 -156.45102 8288112
16.691359 -42.952293 -155.9996 9538432
17.584337 -42.85392 -155.54456 11578015
18.473921 -42.758053 -155.09418 9077882
19.363569 -42.673756 -154.68025 10722963
20.249632 -42.59045 -154.26498 10065033
-10.245066 -42.330112 -172.97098 12433069
20.779158 -42.540627 -154.01392 10065033
24.212717 -42.194897 -150.75996 9537408
24.896082 -42.130314 -150.41559 10853012
25.746466 -42.049805 -149.98169 7037274
26.761614 -41.953674 -149.4563 7959148
27.603159 -41.873867 -149.01451 9341057
28.440226 -41.794395 -148.56891 8748921
29.428667 -41.684048 -147.97488 8288112
30.241842 -41.584957 -147.44936 8682867
31.049803 -41.486336 -146.92105 9340797
31.853189 -41.388218 -146.39026 8946039
32.651375 -41.290573 -145.85661 10130057
33.602962 -41.174038 -145.213 10130057
34.390728 -41.077484 -144.67392 10064005
35.173298 -40.981441 -144.13216 9011579
35.951324 -40.885868 -143.58804 7038307
36.570175 -40.809746 -143.15097 7038307
82.229904 -40.493416 -115.07571 9735812
82.985657 -40.714096 -114.67815 8617333
83.777962 -40.925377 -114.20581 9933193
84.427589 -40.655914 -113.78397 9538692
84.958458 -40.555595 -113.36375 8486262
40.738098 -40.323452 -141.67876 10130316
41.489426 -40.230366 -141.11057 7038307
42.235527 -40.137836 -140.54005 7038307
43.124741 -40.027454 -139.85272 8419958
44.00695 -39.917774 -139.16229 11643813
44.736935 -39.826897 -138.58472 12433586
45.461914 -39.736549 -138.00494 13486015
46.3256 -39.628754 -137.30661 14077894
47.040298 -39.539444 -136.72263 14077894
80.635063 -39.709934 -116.03957 9340801
81.301804 -39.886795 -115.69587 8156786
82.248573 -39.850414 -115.32103 9472640
83.012016 -39.855518 -115.0052 8156523
83.79232 -39.899574 -114.63668 9012090
84.593636 -39.889999 -114.00893 10393743
85.363312 -39.867847 -113.33982 8486261
86.125679 -39.644779 -112.77466 8288622
86.847031 -39.49202 -112.21162 10986396
49.45826 -39.264942 -136.29907 9735296
50.020111 -39.194427 -135.81967 9735296
50.717934 -39.10667 -135.21866 8683123
51.549171 -39.002041 -134.49516 10261132
52.373589 -38.898113 -133.7691 8749947
53.055489 -38.812031 -133.16223 8420210
53.462391 -38.760605 -132.79723 7761509
55.430874 -38.540348 -132.63121 8879995
78.638512 -38.572872 -117.30764 9274235
79.57962 -38.867638 -116.80487 8420470
80.462082 -39.014881 -116.38415 8288884
81.412132 -39.070061 -115.97193 9406593
82.305153 -38.976223 -115.64178 9472383
83.124001 -38.786732 -115.37982 6511954
84.003716 -38.920296 -114.92747 10656914
84.815201 -38.867752 -114.30919 9736324
85.586792 -38.846096 -113.63812 9210491
86.357224 -38.826332 -112.96721 8683635
87.126587 -38.808334 -112.29642 9341312
87.880165 -38.695709 -111.68541 13026239
88.611458 -38.439789 -111.16366 8814715
55.966293 -38.472347 -132.13425 7038307
56.631084 -38.387917 -131.51157 9011576
57.422676 -38.287155 -130.76239 13223353
58.207584 -38.187141 -130.01099 10919830
58.727268 -38.120815 -129.50894 9340286
60.417511 -37.934395 -129.51721 10524560
61.058598 -37.852211 -128.87749 11708834
61.821896 -37.754269 -128.10809 9605253
77.07872 -37.641716 -118.31524 8616048
77.831619 -37.849041 -117.92422 9668221
78.777618 -37.897091 -117.51643 8221549
79.725883 -37.947056 -117.10701 7894126
80.676399 -37.998928 -116.69591 7565675
81.580414 -38.09288 -116.28732 9341055
82.280403 -38.021797 -116.02757 10327949
82.903564 -38.127563 -115.72984 8485488
85.220879 -38.178265 -114.28543 9210491
85.817345 -38.026485 -113.83218 11183765
86.582916 -37.803726 -113.26402 10657166
87.354202 -37.786148 -112.59129 8090987
88.086166 -37.9408 -111.86969 8814198
88.855156 -37.926743 -111.19732 8946045
89.578743 -37.830296 -110.60493 7433065
90.174004 -37.737015 -110.12445 8814715
64.514381 -37.437855 -127.03225 10260870
64.546211 -37.194588 -125.97638 7367005
67.118546 -36.917507 -125.04977 10261132
67.586861 -36.847065 -124.49209 8419702
68.305664 -36.753906 -123.69456 8156530
69.182732 -36.74847 -123.18784 10327437
70.224602 -36.645775 -122.97072 8682355
71.042633 -36.613071 -122.3586 8550513
71.908089 -36.606911 -121.83043 8879735
72.754295 -36.592976 -121.27005 9471616
73.531639 -36.613106 -120.72865 8484721
74.397972 -36.733036 -120.07472 11709090
75.319633 -36.84787 -119.54764 8550514
76.217255 -36.903069 -119.10419 9668995
77.096634 -36.880322 -118.71558 9010807
78.074326 -36.85247 -118.29379 9734531
79.005829 -36.891117 -117.85865 9537409
79.87719 -37.027802 -117.41716 8288113
80.784363 -37.181713 -116.97309 7433574
81.455521 -37.355854 -116.6287 8814454
86.991165 -37.115273 -113.23738 9210491
87.588036 -36.966351 -112.78249 8419695
88.277679 -37.08836 -112.11417 7300446
89.048286 -37.07457 -111.44019 8617078
89.818001 -37.062527 -110.76611 7235685
90.586937 -37.052238 -110.09196 8617336
91.351471 -36.839695 -109.51974 10458251
91.946617 -36.698009 -109.06277 9142649
74.015038 -36.458599 -120.74167 11379356
74.563995 -36.444458 -120.34225 11379356
75.287399 -36.44651 -119.90519 10063753
76.679848 -36.192852 -119.57034 8813686
77.252708 -36.193165 -119.20634 8879735
88.559784 -36.4034 -112.1973 9143163
89.294991 -36.147655 -111.67193 10064265
90.05201 -36.038868 -111.05608 8879993
90.822914 -36.028801 -110.38008 10261130
91.593033 -36.020416 -109.7038 9339772
92.362556 -36.013756 -109.0274 8616305
93.128685 -35.804314 -108.45232 8155755
93.725044 -35.665081 -107.99313 11381404
90.337303 -35.353939 -111.137 9208443
91.072975 -35.212009 -110.5771 11181974
91.82151 -35.098099 -109.97861 11510938
92.536781 -34.997047 -109.41095 8221549
93.257202 -34.989304 -108.76085 8090987
93.975197 -34.982376 -108.10828 12235943
94.681488 -34.882275 -107.52918 13813949
95.425339 -34.722946 -106.94881 9209467
93.384483 -34.34053 -109.17309 7959656
94.208023 -34.168922 -108.55083 8881270
95.028519 -34.090744 -107.84903 10261898
95.779465 -33.989437 -107.21704 9867397
96.50843 -33.940056 -106.55042 8748401
97.307617 -33.782169 -105.93508 11183000
98.040161 -33.650005 -105.35994 9537659
97.081497 -33.384876 -106.86129 8945523
97.653191 -33.361992 -106.20896 9866624
98.396255 -33.21167 -105.74236 9537659
99.059662 -33.167839 -105.08717 8485232
100.03423 -32.924328 -104.56493 10787732
101.00323 -32.691067 -104.08997 9932166
101.71186 -32.605274 -103.45145 10853262
102.5588 -32.451664 -102.82716 9077115
103.00987 -32.438675 -102.2969 10261132
102.99191 -32.212376 -103.25958 10261132
103.521 -32.185146 -102.55769 9866115
104.3856 -32.093121 -101.69791 9997961
105.14513 -31.894583 -101.46199 8946044
105.66935 -31.86972 -100.7558 7564651
106.87559 -31.601406 -100.21066 9471616
107.29264 -31.582905 -99.642242 9011321
108.60703 -31.310875 -98.944244 9012606
108.81397 -31.302441 -98.6586 7565675
125.56268 -29.68227 -89.481888 9208182
127.46503 -29.432474 -88.103485 8092019
129.3349 -29.198206 -86.900177 6906712
131.19371 -28.959513 -85.661392 7564651
132.89581 -28.728985 -84.742203 10261643
134.60451 -28.496326 -83.802643 10854036
134.65262 -28.44326 -83.164917 10261643
136.33357 -28.243837 -82.628563 11906716
136.37396 -28.191225 -81.986603 10458502
138.06438 -27.989519 -81.431 8090987
138.08627 -27.954613 -81.000015 13156018
139.77946 -27.767876 -80.64415 10590606
139.80522 -27.715872 -79.99295 9208435
141.53122 -27.474863 -78.965141 9406073
143.25392 -27.282795 -78.576485 8485488
143.26479 -27.231541 -77.916069 7038298
145.00557 -26.985891 -76.846054 7958888
146.75587 -26.754723 -75.977509 10458254
148.51535 -26.504135 -74.865555 8089963
150.28291 -26.251152 -73.732132 9735043
152.0594 -25.99563 -72.576202 8287597
153.84453 -25.737616 -71.398148 10788754
155.65378 -25.493105 -70.427872 14142661
157.52693 -25.253328 -69.45871 8092019
157.46635 -25.217257 -68.983063 8092019
-6.5627074 -44.850246 -170.97893 9143675
-5.7420135 -44.833057 -170.94763 8354418
-5.0109038 -45.048492 -170.51709 8420470
-4.2781157 -45.207565 -169.87173 9340801
-3.2545259 -45.11705 -169.55951 10064263
-2.2345827 -45.02697 -169.24316 12498860
-0.00079509616 -44.848873 -166.94542 7696744
0.99663377 -44.740669 -166.54495 7762796
1.7910521 -44.654396 -166.22162 8486262
2.3849699 -44.589912 -165.97745 8684155
-8.4743748 -43.847485 -172.23056 9670019
-7.5005813 -43.931385 -172.02191 9472640
-6.5894561 -44.228165 -171.612 9340797
-5.7631698 -44.306683 -171.51501 9011832
2.9768126 -44.525681 -165.7317 11052188
3.7635252 -44.44025 -165.40189 10789270
4.5471025 -44.355183 -165.06953 9802375
5.1328187 -44.291595 -164.81871 10460308
9.4630795 -43.74876 -161.03748 9208443
10.214911 -43.665947 -160.68956 8617335
10.776911 -43.603977 -160.42717 8092019
-9.2557697 -42.982151 -172.62917 8880503
-8.3670902 -42.977226 -172.53893 8090987
-7.3653274 -43.189129 -172.35739 8683124
11.336924 -43.542355 -160.16351 8815484
12.081137 -43.46035 -159.80994 8815484
12.822332 -43.378693 -159.45425 10459280
13.744341 -43.277077 -159.0063 9275777
14.66184 -43.176044 -158.55531 9933193
15.574308 -43.075485 -158.10059 8485488
16.482359 -42.975456 -157.64276 9538432
17.387632 -42.881721 -157.20255 10459534
-10.118845 -41.773399 -173.16229 10393743
-9.386301 -42.105064 -172.96466 10591121
-8.3819904 -42.234386 -172.81322 9077882
21.307154 -42.490852 -153.76125 9537150
22.183725 -42.40826 -153.33716 8089963
23.056395 -42.325901 -152.90936 8089963
23.924631 -42.243874 -152.47755 7958634
24.788958 -42.162151 -152.04213 8879478
25.648817 -42.080791 -151.60271 9076857
26.675215 -41.983578 -151.07065 8222573
27.526064 -41.902851 -150.62337 7564647
28.372442 -41.822468 -150.17212 9341057
29.212088 -41.738499 -149.70334 9341059
30.035238 -41.638336 -149.17171 9341059
30.690363 -41.558456 -148.744 8682867
-10.081835 -40.971046 -173.45306 10788242
-9.0843983 -41.252769 -173.24631 11248795
-8.3116322 -41.570522 -173.04967 9341054
31.016657 -41.518581 -148.52945 8682867
31.666559 -41.439163 -148.09897 8880245
32.63578 -41.320641 -147.45023 11050641
33.438175 -41.222374 -146.90691 9537664
34.235291 -41.124638 -146.36084 10459022
35.02779 -41.027416 -145.81241 10261899
35.815033 -40.930691 -145.26135 9735301
36.753445 -40.815281 -144.59695 7038307
37.530155 -40.719608 -144.04074 7827819
38.301682 -40.624504 -143.48203 8881019
38.91571 -40.548706 -143.03351 9868171
-10.016497 -40.180542 -173.73643 10920086
-9.1732349 -40.358208 -173.58385 11906725
39.22147 -40.510944 -142.80869 9868171
39.830296 -40.435711 -142.3577 10460051
43.223228 -40.043633 -141.3752 8090219
43.818176 -39.969639 -140.90924 8813686
44.557964 -39.877586 -140.32501 11314591
45.292511 -39.786106 -139.73866 12762808
46.167732 -39.67688 -139.03246 13683909
46.891914 -39.586426 -138.44174 14077894
47.324051 -39.532433 -138.08644 14077894
