# .PCD v0.7 - Point Cloud Data file format
VERSION 0.7
FIELDS x y z rgb
SIZE 4 4 4 4
TYPE F F F U
COUNT 1 1 1 1
WIDTH 1198
HEIGHT 1
VIEWPOINT 0 0 0 1 0 0 0
POINTS 1198
DATA ascii
-83.286873 -59.62553 88.25193 7761254
-83.997505 -59.86776 87.727844 7893352
-75.212662 -58.44735 100.71583 9735558
-75.970573 -58.592918 100.15115 9275264
-76.348534 -58.78059 99.216934 11511708
-77.105949 -58.782764 98.425034 10393483
-77.274971 -58.784328 97.475952 12038050
-78.092827 -58.786407 96.820618 12432037
-78.454865 -58.78828 95.845345 9931907
-79.089989 -58.790394 94.977615 9076600
-79.717781 -58.792496 94.107925 7301989
-79.941879 -58.794037 93.229645 10657173
-80.7239 -58.796097 92.552017 12433326
-81.25016 -58.803505 91.586365 9801606
-81.645584 -58.919842 90.617256 8945784
-82.337448 -59.000751 90.031258 9669766
-74.736916 -57.416763 101.34163 9210491
-75.394463 -57.644032 100.95592 10130570
-75.993523 -57.922234 100.57607 10854036
-74.683067 -56.563747 101.70729 11446168
-75.522095 -56.719067 101.26904 9867908
-74.200615 -55.529118 102.33777 11906462
-74.992531 -55.640942 101.93803 10657166
-75.47818 -56.012775 101.5715 9210491
-73.706871 -54.387436 103.01613 8617331
-74.306343 -54.633873 102.64882 9143930
-74.979622 -54.741772 102.30383 9210491
-73.64666 -53.540592 103.38216 8156780
-74.490921 -53.686878 102.94521 8551538
-73.15451 -52.517094 104.01254 8024939
-73.951118 -52.620842 103.61397 8485745
-74.441734 -52.985664 103.24796 8288366
-72.614876 -51.330227 104.72957 7038307
-73.209175 -51.619862 104.34727 8090735
-73.931854 -51.727242 103.98038 9208954
-72.5839 -50.545109 105.05785 8287858
-73.433449 -50.682915 104.62186 9603456
-72.082237 -49.531281 105.68855 11576218
-72.883629 -49.627361 105.29089 9406078
-73.379204 -49.986012 104.92516 11905692
-71.531929 -48.354675 106.4063 12562856
-72.131203 -48.637836 106.02432 11773853
-72.858292 -48.738377 105.65817 9801090
-71.542412 -47.573238 106.71457 9998469
-72.35054 -47.703171 106.30049 10984850
-71.031822 -46.565067 107.34833 10590351
-71.848389 -46.660683 106.94449 11248278
-72.291962 -47.010021 106.60545 11576729
-70.525139 -45.334175 108.20338 8485493
-71.115639 -45.591713 107.77266 9472639
-71.815765 -45.855671 107.28306 9144187
-69.425003 -44.182602 109.89143 7694947
-70.074547 -44.40102 109.26287 8945013
-70.623955 -44.762695 108.63788 8156783
-63.684334 -43.428596 119.14777 10458254
-64.368355 -43.521809 118.98026 8550513
-64.561745 -43.738209 117.59515 8814709
-65.408981 -43.740074 117.12541 7367263
-65.83651 -43.741905 116.24411 6709590
-66.395332 -43.744045 115.28081 7893096
-67.087898 -43.745594 114.87923 11378324
-67.216537 -43.74765 113.52628 7301215
-68.170387 -43.749809 112.95567 8222573
-68.204536 -43.78754 111.79327 9012088
-69.083275 -43.871151 111.11729 5721927
-69.719894 -44.010185 110.35673 7694947
-63.65263 -42.614342 119.45321 9471359
-64.377815 -42.714497 119.28842 8616307
-63.089912 -41.430759 119.98827 8748149
-63.767799 -41.731575 119.75797 8945272
-63.248978 -40.545029 120.28641 7893612
-63.844486 -40.996868 120.01505 8616307
-62.510872 -39.467323 120.81339 8617333
-63.197697 -39.649071 120.6254 7169893
-62.693127 -38.533173 121.1253 7893612
-63.393673 -38.789787 120.90727 7038307
-62.074574 -37.297089 121.68953 10722451
-62.692478 -37.640835 121.45404 9867141
-62.107327 -36.46204 121.99127 12038311
-62.738426 -36.736633 121.77892 11775139
-61.527847 -35.398022 122.48526 11446174
-62.219532 -35.57259 122.29903 11380380
-61.611156 -34.420994 122.83041 7169884
-62.215199 -34.8634 122.56099 8222828
-61.026501 -33.364838 123.3225 6511954
-61.63636 -33.530396 123.15395 6643284
-61.034565 -32.415031 123.67119 7695971
-61.742706 -32.660934 123.4557 6840151
-60.448296 -31.243959 124.20625 11444375
-61.081585 -31.533081 123.98797 8813683
-59.886196 -30.08189 124.95148 10260617
-60.578529 -30.397974 124.59686 10326411
-61.207458 -30.788523 124.24022 8616307
-59.438599 -29.155262 125.95203 9933191
-59.985386 -29.50239 125.41353 10852753
-60.716213 -29.657082 125.1319 10853012
-55.711735 -28.704016 133.09953 7564643
-56.263359 -28.707901 130.86646 9735556
-56.892342 -28.709183 130.59366 8551287
-57.520397 -28.710463 130.31833 8617080
-57.722477 -28.7136 128.26227 7564651
-58.339165 -28.714874 127.98248 7565163
-58.931763 -28.811115 127.2486 10787985
-59.57465 -28.935047 126.63354 9341056
-124.92059 -73.564713 24.227179 7037274
-124.95003 -73.499237 23.453115 6445650
-125.50543 -73.412292 22.806604 6248789
-126.06666 -73.298965 21.843157 7038304
-126.62186 -73.185394 20.872355 7301220
-127.03448 -73.09359 20.061228 8287856
-127.57926 -73.005455 19.391607 11839904
-128.16692 -72.896606 18.502588 8879990
-128.7964 -72.78054 17.548891 9209468
-129.23422 -72.680809 16.594862 8090988
-129.74348 -72.596771 15.866464 7564651
-130.29341 -72.50647 15.010259 7959405
-130.92357 -72.404251 14.252336 9208695
-131.03894 -72.317673 13.466805 6511954
-131.47873 -72.256989 13.138677 6511954
-131.82787 -72.163063 12.425252 9537665
-132.42636 -72.046745 11.644959 10392974
-133.0464 -71.915565 10.730844 9669253
-133.52251 -71.794807 9.8308191 8879995
-134.15425 -71.677826 9.0649881 7169375
-134.59389 -71.562805 8.1988382 7629411
-135.158 -71.445656 7.3890543 9209212
-135.47163 -71.339645 6.5337458 7301220
-135.97798 -71.277138 6.2295885 6510930
-136.08257 -71.210793 5.5775003 9143419
-136.56776 -71.127991 4.7736673 9472638
-137.27081 -71.053192 4.1359262 10261384
-137.78337 -70.961411 3.1877224 8353902
-138.34607 -70.868141 2.2224438 8353391
-138.77269 -70.794258 1.4489796 9603713
-139.19591 -70.720146 0.67109412 10459279
-139.85863 -70.623184 -0.1681736 10591124
-140.46513 -70.498459 -1.1842144 8814715
-141.10211 -70.388138 -2.0397861 9143166
-140.94655 -70.317245 -2.71683 10261132
-88.229691 -69.345291 81.63797 8222065
-89.088577 -69.360825 81.245834 7301217
-89.582695 -69.641251 80.910561 9011320
-141.73795 -70.276993 -2.9031665 10261132
-141.84213 -70.192383 -3.6463153 7367528
-142.51494 -70.097862 -4.3510199 7565162
-143.06786 -69.983818 -5.2595015 8223091
-143.46156 -69.867371 -6.225646 6840928
-144.08737 -69.752808 -7.1225271 9143421
-144.75992 -69.655136 -7.8554907 8156783
-87.703896 -68.211777 82.332146 10590351
-88.376114 -68.608955 81.869713 9077372
-89.101036 -68.593483 81.550224 7433064
-87.666664 -67.483963 82.643013 9011835
-88.487617 -67.696587 82.188217 9143165
-87.268166 -66.567421 83.192337 9143675
-88.036926 -66.587494 82.838852 7564645
-88.622032 -67.045509 82.3909 8814201
-86.552818 -65.28598 84.031479 7564643
-87.228958 -65.58477 83.606979 9012090
-88.058693 -65.692612 83.19062 8879995
-86.700829 -64.521194 84.273987 9143675
-87.486183 -64.629318 83.877426 8682872
-86.101593 -63.469639 84.968063 7564642
-86.870865 -63.678341 84.538109 8880248
-87.551399 -63.805996 84.180794 12432045
-85.690254 -62.303722 85.623917 7893608
-86.188873 -62.557949 85.297195 7695974
-86.960159 -62.739201 84.877457 7367271
-85.659622 -61.51128 85.957863 10130054
-86.46653 -61.689457 85.523361 8485494
-85.193306 -60.361195 86.776711 8616817
-85.763222 -60.654568 86.312263 10326920
-86.485916 -60.852402 85.861069 8682356
-83.954414 -59.241524 88.5299 7892840
-84.699608 -59.479622 87.834007 7037531
-85.290138 -59.751812 87.245651 7761252
-85.98394 -59.982197 86.74102 8813683
-76.585152 -58.339275 100.14392 8880507
-77.290726 -58.459423 99.759415 9472384
-77.940712 -58.741524 99.095276 9801347
-78.257759 -58.784828 98.130302 9801347
-78.830048 -58.786869 97.253662 9208955
-79.488548 -58.789127 96.300583 10655629
-79.827049 -58.790871 95.393883 9076600
-80.62735 -58.792953 94.717133 9209214
-80.930519 -58.794617 93.830978 11972774
-81.463478 -58.796608 92.946426 10525328
-82.24334 -58.798679 92.256248 13684165
-82.446205 -58.800198 91.371391 12104876
-83.111 -58.838062 90.300568 10525330
-83.732903 -58.941479 89.618347 9735556
-84.385414 -59.066483 88.897346 8090475
-76.643082 -57.406528 100.49138 9735558
-77.395401 -57.610924 100.07235 10261900
-76.112938 -56.565128 101.06586 9998984
-76.896172 -56.50811 100.73763 10722450
-75.586487 -55.532028 101.71545 9210491
-76.229851 -55.504486 101.4381 9077625
-76.879791 -55.709953 101.0645 9538435
-75.573189 -54.604694 102.09266 9012088
-76.355949 -54.499512 101.78394 9340541
-75.043434 -53.622597 102.72333 8682867
-75.811577 -53.554665 102.40623 10195851
-74.547142 -52.506966 103.3924 8682867
-75.179695 -52.559864 103.08772 9603457
-75.812843 -52.613995 102.78226 9669250
-74.527336 -51.585415 103.77023 9406078
-75.270943 -51.537678 103.45605 9932166
-73.988205 -50.613892 104.40086 9274745
-74.759605 -50.539181 104.08504 9142905
-73.481926 -49.508709 105.07022 11905692
-74.117889 -49.555565 104.76643 10326919
-74.754433 -49.603622 104.4619 10458505
-73.455811 -48.591881 105.44907 8617073
-74.202766 -48.537674 105.13608 9143160
-72.947075 -47.535709 106.10074 11313558
-73.682884 -47.548733 105.76626 10590348
-72.426125 -46.375443 106.80074 10129798
-73.001747 -46.492828 106.49593 9998212
-73.672401 -46.617764 106.14561 11905694
-71.80835 -45.208565 107.73641 9144187
-72.481079 -45.499271 107.23151 8024937
-73.180855 -45.62849 106.79997 8682867
-71.242729 -44.05566 109.52854 10459278
-71.383575 -44.226227 108.97946 12433836
-72.022987 -44.520416 108.22614 10920597
-72.66259 -44.796307 107.70029 6709590
-65.025909 -43.243793 118.97929 7761253
-65.615303 -43.593506 118.54391 7038299
-66.388344 -43.740437 117.87611 7563619
-66.533348 -43.742561 116.48969 7958890
-67.372505 -43.744442 116.00574 9405566
-67.502052 -43.746521 114.63591 9208187
-68.327652 -43.748383 114.14476 8156527
-69.013298 -43.749939 113.73152 8617331
-69.119164 -43.751972 112.37665 7038298
-70.063286 -43.754139 111.79002 8288112
-70.295166 -43.844536 110.67506 8419439
-70.865448 -43.970901 109.98743 9340797
-64.498619 -42.057362 119.50917 8616307
-65.105919 -42.448246 119.25816 9273979
-65.713066 -42.840603 119.0067 9142393
-64.497734 -41.322083 119.78009 7958377
-65.184471 -41.499023 119.59387 8747119
-64.621223 -40.463867 120.07437 7563102
-64.01107 -39.453064 120.5542 9077371
-64.550095 -39.61031 120.40129 9406078
-64.050819 -38.54314 120.88226 6775128
-64.766457 -38.736408 120.68501 9011320
-63.461212 -37.460018 121.38512 6972506
-64.023811 -37.719498 121.19032 6577748
-63.513268 -36.595432 121.69431 7828069
-64.084274 -36.840343 121.50345 6511954
-62.871696 -35.4949 122.2127 7368030
-63.566444 -35.671658 122.02513 7565409
-62.998405 -34.554672 122.53662 7762531
-63.733486 -34.972755 122.25308 10064259
-62.374439 -33.454845 123.05167 5919050
-62.986927 -33.622272 122.88199 6578259
-62.385681 -32.502415 123.40067 7300702
-63.09663 -32.750549 123.18379 7761509
-61.817093 -31.428326 123.89687 6840151
-62.514641 -31.587278 123.71526 7498081
-61.229031 -30.154423 124.65939 9734531
-61.92511 -30.474051 124.30843 7892583
-62.564804 -30.871792 123.97009 8222060
-60.744137 -29.203712 125.57167 9142651
-61.447582 -29.540642 125.1011 9602945
-62.065704 -29.730124 124.83824 8616307
-56.149155 -28.368299 134.142 9208443
-56.511295 -28.705633 132.76115 8419700
-57.309196 -28.707249 132.41891 7564651
-58.146942 -28.711748 130.03941 8617080
-58.928391 -28.713356 129.6871 10853012
-59.722382 -28.717989 127.34386 10261898
-60.324158 -28.810547 126.90201 9735812
-60.887306 -28.983255 126.25342 8222061
-56.225063 -27.84646 134.3208 9208443
-124.8064 -73.762863 26.552969 7563619
-124.8483 -73.696579 25.777193 8155755
-125.33711 -73.597588 24.934851 7629410
-125.7708 -73.487793 23.920336 6905946
-126.29896 -73.399208 23.233366 7958890
-126.82657 -73.310219 22.5413 7564390
-127.00924 -73.249908 21.942896 7958890
-127.42635 -73.183701 21.446062 7761770
-127.98254 -73.079491 20.589849 7301220
-128.53429 -72.980133 19.789583 8880248
-129.08282 -72.877899 18.951792 10064777
-129.59978 -72.78952 18.230726 11512223
-130.04779 -72.690361 17.272139 11708833
-130.59503 -72.581947 16.25738 9143424
-131.16054 -72.506439 15.558049 7893612
-131.69881 -72.415924 14.850034 11248020
-132.00864 -72.304726 13.941087 7235420
-132.45265 -72.243568 13.611264 8682608
-132.75742 -72.162315 12.996385 8089963
-133.32574 -72.043938 12.176648 8945272
-133.67152 -71.933708 11.299706 10392717
-134.31271 -71.816727 10.539433 8353909
-134.79347 -71.694733 9.6297884 7893614
-135.39125 -71.575493 8.8203096 10131083
-135.90526 -71.453667 7.9331522 11184028
-136.45717 -71.332428 7.0750437 9012088
-137.03622 -71.22628 6.211236 8485488
-137.40508 -71.141167 5.2996302 7037530
-138.09718 -71.053307 4.493413 9537918
-138.79153 -70.965797 3.6790287 9011831
-139.08864 -70.891792 2.8486874 9472127
-139.58121 -70.811272 2.0178044 8550513
-140.07059 -70.730377 1.181123 9208699
-140.76195 -70.642349 0.33890647 10591124
-141.21626 -70.544563 -0.59599191 8024943
-141.7861 -70.432732 -1.480933 9932937
-141.8961 -70.348122 -2.2226474 8090736
-90.165955 -69.513374 80.700134 8353902
-91.05233 -69.703926 80.224899 10261384
-142.69681 -70.307831 -2.4074466 8486262
-142.74748 -70.23056 -3.0962284 8814970
-143.21655 -70.141533 -3.7969425 7169891
-143.85561 -70.028015 -4.6811132 7827307
-144.44934 -69.895714 -5.7459097 8090735
-145.08537 -69.780457 -6.6468573 7564648
-145.55061 -69.688873 -7.3712606 7827819
-146.01439 -69.59687 -8.10044 8814454
-89.647125 -68.583527 81.308937 7498851
-90.421738 -68.681793 80.921196 8814452
-90.967049 -68.917488 80.58094 13023917
-89.119072 -67.318985 82.057106 7959144
-89.753601 -67.623955 81.648773 7696228
-90.437584 -67.770935 81.282074 9143417
-89.082413 -66.575844 82.373787 7301214
-89.913506 -66.711555 81.94561 7104091
-88.57502 -65.571175 83.00769 7498856
-89.412209 -65.599709 82.620026 7630180
-88.005424 -64.227165 83.806679 7038307
-88.642288 -64.635239 83.355621 8090737
-89.404068 -64.725784 82.976799 8485492
-87.460693 -63.122322 84.497719 7038307
-88.098465 -63.545883 84.04007 7827565
-88.934013 -63.73674 83.587585 7038307
-87.551117 -62.407509 84.745956 7038307
-88.282379 -62.640102 84.323425 7038307
-88.923203 -63.064697 83.863907 7038307
-86.970695 -61.485104 85.379402 8485494
-87.7015 -61.533543 85.031502 8222322
-88.39669 -61.881752 84.578476 7038307
-86.356056 -60.32756 86.282562 8813683
-87.088936 -60.544434 85.801605 9866886
-87.819824 -60.660023 85.38353 8682873
-85.348808 -59.146137 88.195427 7958376
-86.060547 -59.332314 87.41507 8287339
-86.635872 -59.682144 86.720016 7695203
-87.339806 -59.797966 86.288269 7498083
-78.497986 -58.406147 99.259781 9538175
-79.304771 -58.564758 98.744568 9735554
-79.575119 -58.787327 97.690262 10721678
-80.395058 -58.78944 97.015869 8747891
-80.630089 -58.791027 96.116882 9340029
-81.261383 -58.793156 95.228569 10919830
-81.977783 -58.79533 94.399376 10985879
-82.294197 -58.797054 93.48394 11972518
-82.993996 -58.799217 92.647484 14671317
-83.491211 -58.80114 91.770813 14868953
-83.864502 -58.802673 91.052391 10985882
-84.54705 -58.804909 90.146263 8879991
-85.039513 -58.880882 89.27681 8156012
-85.683998 -59.003296 88.540924 7563619
-86.287445 -59.054241 88.09742 8813683
-77.924469 -57.489773 99.883682 9209471
-78.675667 -57.653198 99.481598 9077882
-79.338402 -57.891754 99.08902 9209467
-77.435013 -56.203205 100.61826 10854036
-78.029968 -56.563644 100.2072 9077885
-78.784767 -56.783104 99.781021 8748919
-77.4618 -55.466312 100.90118 7630443
-78.271584 -55.695919 100.44633 8222578
-76.909973 -54.428661 101.56398 10261388
-77.665665 -54.583351 101.16334 8024942
-78.332954 -54.813423 100.77214 7696236
-76.409096 -53.155903 102.29807 11905701
-77.009262 -53.508022 101.88806 10590353
-77.768906 -53.718426 101.46335 8617843
-76.362473 -52.45253 102.60056 9340541
-77.215126 -52.605312 102.1572 8354671
-75.869194 -51.397713 103.24397 9932166
-76.629341 -51.544182 102.8446 9603714
-77.301186 -51.766312 102.45456 9144187
-75.357155 -50.137066 103.97818 9406078
-75.916794 -50.474785 103.59213 9208955
-76.683182 -50.664188 103.17279 10590096
-75.305573 -49.437866 104.28123 9077368
-76.163155 -49.581863 103.83923 10064008
-74.803116 -48.393124 104.92528 7564643
-75.567894 -48.531887 104.52718 8748148
-76.244316 -48.746658 104.13808 9735043
-74.281319 -47.143486 105.66157 9011574
-74.84568 -47.474545 105.2758 8550768
-75.616997 -47.656212 104.85759 8287341
-74.225502 -46.448009 105.96642 10918801
-75.088272 -46.583843 105.52572 10853008
-73.683113 -45.393738 106.75896 9143161
-74.467094 -45.587242 106.26547 11576218
-75.169861 -45.754658 105.83359 11181460
-72.072044 -44.082081 109.07176 15723486
-72.762001 -44.105076 108.68832 11446942
-73.328972 -44.40802 107.81328 7762022
-74.007751 -44.711899 107.17085 10655373
-74.616203 -44.980659 106.67451 12431013
-66.363014 -43.37339 118.69588 8484464
-67.000008 -43.584538 118.29445 9142393
-67.519676 -43.742954 117.23052 11904668
-68.223915 -43.744526 116.82219 8484979
-68.347023 -43.746628 115.43335 7038307
-69.316895 -43.748817 114.85313 8222579
-69.423386 -43.750877 113.48131 8683127
-70.24054 -43.752747 112.9763 8814715
-70.919228 -43.754311 112.55158 14077894
-71.002144 -43.75631 111.19513 9998727
-71.838753 -43.789375 110.44308 10854037
-72.285828 -43.875229 109.73878 12630959
-73.072273 -43.931465 109.15118 11446173
-65.836586 -42.181774 119.22747 11904668
-66.562569 -42.617374 118.9391 11181461
-65.924919 -41.407455 119.49707 12628391
-66.55648 -41.690273 119.28159 13483701
-65.197166 -40.112835 120.10219 9733499
-65.925987 -40.543598 119.81503 10523015
-65.368713 -39.415855 120.32856 9536378
-66.116417 -39.590134 120.13258 9733499
-64.886909 -38.076675 120.90669 6511954
-65.434349 -38.457489 120.66991 9076856
-66.11692 -38.851341 120.40463 9733499
-64.774864 -37.349586 121.19419 6840919
-65.469307 -37.520947 121.00865 9011320
-64.967857 -36.437618 121.496 7629923
-64.388451 -35.468082 121.95516 9143670
-65.00634 -35.537453 121.82074 9866627
-64.338219 -34.559986 122.29847 9406586
-63.777115 -33.568325 122.76254 7894117
-64.366013 -33.677002 122.61874 9077622
-63.183804 -32.253437 123.35163 7761509
-63.805717 -32.630764 123.10291 7499105
-64.457466 -32.843472 122.90956 8682867
-63.175522 -31.514648 123.62544 8485488
-63.876179 -31.675547 123.44254 8879990
-62.577389 -30.229765 124.36415 8682867
-63.325619 -30.592356 123.98852 9143418
-64.099937 -30.969118 123.66344 9143419
-62.339001 -29.085087 125.6879 8156014
-62.797947 -29.613165 124.79926 8748151
-63.420906 -29.805878 124.54146 8616563
-56.852337 -28.398544 134.00674 9405823
-57.556625 -28.42934 133.87112 9800582
-57.786869 -28.708221 132.21088 9800582
-58.581318 -28.709846 131.86035 9537666
-59.396194 -28.714323 129.47342 9537664
-60.173962 -28.715937 129.11293 9669763
-61.030827 -28.760574 126.93993 7564642
-61.778442 -28.845552 126.53965 7563619
-56.301105 -27.323921 134.49979 9208443
-56.980637 -27.527519 134.30484 9405823
-56.579575 -26.387245 134.7955 10787731
-56.982792 -26.708181 134.60617 11182745
-56.712204 -25.477625 135.10703 11182745
-56.682735 -24.701017 135.39819 11182745
-124.66795 -73.952255 28.72867 7038307
-124.71885 -73.883202 27.950808 7563619
-125.11195 -73.788582 27.090631 8287340
-125.63365 -73.685493 26.222677 8879476
-126.21503 -73.584572 25.425097 7892582
-126.70542 -73.484627 24.572149 8024425
-127.23899 -73.374504 23.627634 7958890
-127.66656 -73.297508 23.00738 9866368
-128.02049 -73.242058 22.594053 9011317
-128.2375 -73.18222 22.027098 8156266
-128.90353 -73.082848 21.31093 5920076
-129.36115 -72.977089 20.363024 7498850
-129.91815 -72.861748 19.361532 10854293
-130.48097 -72.77684 18.674776 12696497
-130.90196 -72.688774 17.834463 15064015
-131.45769 -72.579468 16.814486 10261646
-131.88838 -72.502373 15.966218 7564651
-132.57167 -72.400391 15.239259 9735039
-133.00024 -72.307487 14.585393 9340540
-133.20644 -72.253059 14.174844 8682608
-133.59276 -72.173843 13.630071 7827301
-134.15512 -72.038918 12.642831 9208699
-134.60945 -71.915726 11.705068 8551029
-135.21855 -71.796753 10.904817 8419702
-135.72256 -71.689491 10.155904 8156530
-136.22531 -71.581818 9.401536 8815739
-136.82962 -71.461174 8.5822763 11776164
-137.27173 -71.339401 7.6138468 10064776
-92.041801 -70.201584 79.579269 8288618
-92.868507 -70.396233 79.129219 10656139
-137.82248 -71.242683 6.7566385 7958888
-138.24883 -71.154594 5.8321924 8353645
-138.96971 -71.078987 5.1916933 8814452
-139.39301 -70.990372 4.254529 9537918
-139.95573 -70.90329 3.3715451 10722193
-140.51646 -70.815933 2.4820988 10327692
-140.9296 -70.7285 1.5275204 8288365
-141.65359 -70.65229 0.85255545 9273977
-142.14845 -70.569962 -0.00075416267 8484207
-142.62518 -70.479866 -0.8599003 8155499
-143.06703 -70.373993 -1.7243259 8486262
-143.62488 -70.321106 -2.0774295 8486262
-91.567009 -69.513687 80.070534 8090987
-92.333794 -69.606453 79.68853 8222826
-92.969994 -70.07135 79.214951 8288618
-143.50427 -70.26709 -2.5941761 9209727
-144.19423 -70.171822 -3.3017566 8288370
-144.80022 -70.039581 -4.3630514 8616822
-145.44707 -69.924522 -5.2597876 7893356
-145.81792 -69.823143 -6.0944433 7893612
-146.50812 -69.724663 -6.8307638 8288369
-146.87341 -69.622345 -7.6754827 8288110
-147.33273 -69.55587 -8.1740026 7366752
-90.88887 -68.212341 80.901054 11379607
-91.571388 -68.622505 80.42865 9406333
-92.417542 -68.669991 80.029289 8419698
-91.039223 -67.525215 81.111069 8682867
-91.833176 -67.733772 80.670044 9735042
-90.42588 -66.516724 81.794083 7959144
-91.239372 -66.576233 81.404556 8288112
-91.881805 -66.885933 80.990738 10984852
-90.011269 -65.29879 82.472511 10854036
-90.577057 -65.631264 82.083931 9077627
-91.278809 -65.765793 81.714279 7169893
-89.91613 -64.528755 82.826347 9801351
-90.810814 -64.683655 82.361778 7959407
-89.451103 -63.250114 83.551857 7038307
-90.100517 -63.659805 83.094566 8551287
-90.715996 -63.920265 82.712791 8813945
-88.832741 -62.379326 84.18158 7038307
-89.522972 -62.510334 83.818466 7104100
-90.368797 -62.785179 83.327423 9209215
-88.911751 -61.537254 84.486221 7235685
-89.709511 -61.576355 84.11203 7761772
-88.421501 -60.484562 85.240898 7695979
-89.148331 -60.626701 84.814888 7433064
-89.848747 -60.901684 84.322098 7038307
-86.889931 -59.106232 87.651154 8813683
-87.446892 -59.189747 87.115685 7695203
-88.004311 -59.482922 86.323616 7432548
-88.535439 -59.823082 85.730934 7893358
-89.223312 -59.894249 85.362762 8814201
-79.92923 -58.235394 98.68663 9275005
-80.488632 -58.53487 98.259232 8485233
-81.182968 -58.651314 97.678017 7761254
-81.68808 -58.791904 96.571815 9274749
-82.017311 -58.793663 95.646225 9735812
-82.81958 -58.795776 94.951042 12959413
-83.234634 -58.797626 94.047531 9801349
-83.640533 -58.799458 93.142426 7432032
-84.421944 -58.801559 92.433975 8484976
-84.81459 -58.803383 91.528 8090218
-85.198563 -58.805183 90.621201 8682868
-85.958397 -58.807278 89.899391 8879991
-86.386589 -58.843891 88.95887 9077626
-86.905151 -58.977718 88.088646 8353132
-87.595215 -58.994335 87.72551 8813680
-79.921127 -57.429668 99.012833 8616819
-80.770401 -57.60424 98.562317 9208956
-79.431633 -56.459156 99.620819 8024426
-80.137489 -56.562836 99.262924 7760998
-80.736191 -56.887962 98.86438 9340798
-78.784363 -55.3531 100.35373 9340289
-79.450218 -55.549702 99.976578 9142910
-80.240471 -55.727703 99.551117 8090475
-78.909081 -54.575497 100.60917 8748410
-79.65522 -54.642776 100.24778 9734789
-78.259651 -53.57431 101.30107 8091247
-79.015175 -53.648476 100.93276 9011581
-79.729256 -53.802582 100.55103 10261132
-77.758331 -52.298096 102.03676 8092011
-78.437744 -52.638958 101.59575 8815478
-79.174477 -52.760265 101.21698 9274751
-77.781776 -51.564507 102.31992 8354927
-78.560692 -51.754143 101.8949 8881015
-77.218956 -50.5354 102.98422 10853012
-77.983566 -50.68396 102.58202 8486257
-78.622154 -51.068386 102.14183 8618099
-76.706703 -49.271156 103.72012 9735043
-77.347336 -49.650116 103.28129 9011576
-78.113823 -49.797283 102.87892 7827815
-76.726051 -48.541637 104.00502 9142906
-77.501633 -48.758488 103.57072 9208956
-76.154671 -47.523262 104.67049 8418927
-76.923813 -47.664066 104.26969 8748149
-77.567604 -48.040531 103.83008 10853012
-75.632759 -46.269867 105.40845 9537150
-76.278633 -46.641216 104.96999 9603199
-77.096252 -46.768074 104.55309 8484720
-75.056122 -45.298626 106.21219 11181460
-75.780899 -45.465984 105.7726 9011319
-76.458267 -45.793453 105.24373 9208441
-74.00251 -44.148243 107.99261 10458510
-74.669861 -44.217865 107.51735 11378839
-75.249329 -44.5886 106.7549 9471869
-75.856483 -44.82283 106.25329 8682867
-67.842438 -43.34396 118.44588 9536894
-68.476128 -43.66666 118.06691 10063495
-68.645134 -43.745476 116.57475 8484979
-69.48468 -43.747368 116.07526 10919830
-70.181892 -43.748951 115.655 9735558
-70.281639 -43.751019 114.2644 8156787
-71.241577 -43.75322 113.66787 9669766
-71.324921 -43.755249 112.29455 10459278
-71.999084 -43.756809 111.86279 8682867
-72.804726 -43.75869 111.33955 9142651
-72.997391 -43.760967 109.89442 10788243
-73.732346 -43.842793 109.16747 9340541
-74.32859 -43.928535 108.60747 9998215
-74.871788 -43.99469 108.13965 9932163
-67.181938 -42.310394 118.94298 12431013
-67.899681 -42.515354 118.74094 8353134
-67.326591 -41.555038 119.19564 9931650
-67.872536 -41.70348 119.04475 8156012
-66.545494 -40.233162 119.82013 11904668
-67.277138 -40.667248 119.53128 9010547
-66.775917 -39.533375 120.0372 9536635
-67.471855 -39.71133 119.84901 7959145
-66.209427 -38.355232 120.57092 9997187
-66.85743 -38.579151 120.37427 9602944
-67.474701 -38.970177 120.12141 8616819
-66.209457 -37.430836 120.91135 8419440
-66.843193 -37.736259 120.68716 8748405
-65.589142 -36.120155 121.50343 5919050
-66.270653 -36.544472 121.22699 6182478
-65.728424 -35.362499 121.75786 8880246
-66.368706 -35.643177 121.54165 6511443
-65.100922 -34.066181 122.34587 8682867
-65.710999 -34.515141 122.07295 9932932
-65.1567 -33.349293 122.60002 8682867
-65.859184 -33.515434 122.41502 8682867
-64.546684 -32.345169 123.07745 8682867
-65.293518 -32.430309 122.91438 9735297
-64.700142 -31.48951 123.36578 9735555
-65.257179 -31.607222 123.22412 10459019
-63.93161 -30.307817 124.06574 8089963
-64.647926 -30.576508 123.76911 9209212
-63.664333 -29.141665 125.31424 8814203
-64.157463 -29.689983 124.50093 8156012
-64.839272 -29.729628 124.3505 8089963
-58.262627 -28.460939 133.73491 9603458
-58.969795 -28.493145 133.59825 7761509
-59.215408 -28.711151 131.57689 9537664
-59.847923 -28.712454 131.28983 9274492
-60.637054 -28.714087 130.92725 9208443
-61.259438 -28.718203 128.60127 8617331
-62.18644 -28.720148 128.15524 8879992
-62.51759 -28.816509 126.50495 7564651
-63.179291 -28.842127 126.30916 8814203
-57.686687 -27.557499 134.16924 9274495
-58.343468 -27.629999 134.0266 9208700
-57.777542 -26.47105 134.55322 9603201
-58.526337 -26.71369 134.33176 9011064
-57.205784 -25.191179 135.1254 10326924
-57.809315 -25.538136 134.89114 9734531
-57.277454 -24.299261 135.44119 9931910
-57.926731 -24.748075 135.16135 9010808
-57.218082 -23.483326 135.75214 8156271
-56.990086 -22.58905 136.1217 7301221
-57.423439 -22.69276 136.00706 7432806
-57.144478 -21.528337 136.48512 9011323
-124.68893 -74.151154 30.160505 9011579
-124.93272 -74.01342 29.360472 9011579
-125.50107 -73.873566 28.411222 9669247
-125.91999 -73.793037 27.741644 8616561
-126.41763 -73.687889 26.830767 8418926
-127.01414 -73.572777 25.87195 11313558
-127.59875 -73.470802 25.063871 9668991
-128.14281 -73.380653 24.369822 6840920
-128.5159 -73.28476 23.479597 7564385
-129.04218 -73.234306 23.254347 6511954
-129.19856 -73.15844 22.447916 8748404
-129.76665 -73.068535 21.774336 5920074
-130.19501 -72.974197 20.943903 7630180
-130.76472 -72.860382 19.938002 11249051
-131.19351 -72.77198 19.098894 10722707
-131.7637 -72.687355 18.404264 10919831
-132.2574 -72.587822 17.467188 8156272
-132.76822 -72.500923 16.526587 7432291
-133.3116 -72.395355 15.649304 9735043
-134.00146 -72.310608 15.239175 9735043
-133.95354 -72.247169 14.580308 9735043
-134.45448 -72.163277 14.061097 8156524
-134.92749 -72.04747 13.207589 8551025
-135.50795 -71.926949 12.374734 8813942
-136.04579 -71.804779 11.499036 8879995
-136.51572 -71.695778 10.711072 9340289
-137.15182 -71.560249 9.7639627 8815739
-137.80507 -71.43972 8.9762964 11973543
-138.09465 -71.347435 8.1601229 11381149
-138.43871 -71.294853 7.6783609 10855060
-93.397423 -70.289291 78.934784 10854036
-94.231033 -70.490059 78.479149 8419697
-94.864021 -70.703003 78.108681 7893352
-138.78831 -71.244453 7.194768 9077627
-139.09991 -71.168312 6.3711863 9933193
-139.81073 -71.079475 5.5599871 10590606
-140.32042 -70.99659 4.7338419 8617072
-140.83051 -70.915108 3.9018681 10064518
-141.1324 -70.84005 3.0597622 11249051
-141.84251 -70.751625 2.2204792 8288365
-142.55321 -70.662529 1.3726437 8418925
-142.99455 -70.586067 0.57265586 7563619
-143.43251 -70.509377 -0.23192482 8813171
-143.8553 -70.426773 -1.0410068 9406592
-144.60208 -70.352852 -1.5692813 7039331
-92.895866 -69.357704 79.536522 7564648
-93.472733 -69.536407 79.205139 8354163
-94.238075 -69.71804 78.78788 8354163
-144.44118 -70.280228 -2.2635028 7039331
-145.13986 -70.184418 -2.9739978 7038562
-145.79761 -70.069534 -3.8663547 7169891
-146.17766 -69.968155 -4.6991796 8616821
-146.55351 -69.866425 -5.5361319 6972768
-147.25203 -69.767647 -6.2733679 6314583
-147.62239 -69.664917 -7.1203985 7564131
-148.32118 -69.564697 -7.8707876 6510930
-92.946312 -68.559975 79.836182 7762027
-93.707756 -68.573463 79.488594 7696234
-94.212158 -68.969482 79.101959 7564648
-92.337585 -67.329407 80.606804 9011579
-92.982674 -67.646011 80.189095 7564649
-93.806335 -67.717178 79.790291 9209214
-92.491615 -66.566978 80.84568 9669508
-93.295868 -66.796333 80.391678 7038307
-91.794762 -65.556755 81.566933 8222322
-92.668755 -65.639603 81.140785 9340543
-93.342468 -66.003731 80.690987 10984852
-91.376617 -64.336258 82.247902 7301478
-91.961746 -64.683578 81.844696 7761772
-92.589828 -64.81517 81.509338 8222322
-91.322983 -63.505066 82.607834 8222066
-92.206116 -63.757423 82.109108 9340287
-90.921486 -62.444717 83.216652 7301478
-91.588821 -62.650955 82.833511 8945787
-92.166893 -63.029148 82.421005 9734788
-90.265495 -61.480419 83.900955 7038307
-90.962799 -61.652012 83.518372 8025200
-91.739677 -61.819561 83.101631 7827049
-89.729256 -60.269176 84.819366 7038307
-90.436287 -60.538185 84.300056 7367271
-90.994789 -60.789703 83.878891 9077372
-88.922379 -59.113125 86.727119 8814201
-89.323883 -59.279598 86.053436 9603458
-89.891457 -59.65844 85.287598 9471873
-90.533836 -59.867531 84.797493 7235428
-81.794304 -58.511772 97.740051 9866629
-82.598938 -58.521576 97.2659 10064265
-82.950768 -58.794014 96.357697 9077626
-83.472488 -58.795994 95.466415 9011320
-84.187141 -58.798195 94.616768 7037274
-84.43119 -58.79969 93.794449 7037274
-85.079628 -58.801823 92.928307 10261899
-85.776337 -58.804092 92.0084 11380892
-86.144791 -58.805637 91.273911 9670019
-86.620926 -58.807568 90.373405 8156012
-87.378639 -58.809673 89.639626 7563873
-87.754601 -58.81641 88.642609 8813680
-88.214149 -58.944141 87.625076 7366238
-88.843506 -59.000465 87.151711 7695460
-81.325493 -57.454922 98.373291 9538177
-81.97525 -57.668457 97.996544 8484977
-82.600853 -57.607395 97.740562 8353647
-80.609093 -56.20993 99.192871 8419440
-81.284958 -56.588364 98.738388 9735556
-82.046089 -56.773449 98.323135 8748661
-80.750183 -55.489292 99.418114 8682868
-81.57135 -55.695908 98.967331 8683124
-82.106941 -56.047916 98.586365 8090987
-80.202087 -54.263786 100.15443 9077374
-80.887009 -54.614571 99.706985 9143420
-81.60997 -54.884354 99.274948 9341054
-79.596687 -53.130733 100.87942 10261132
-80.277946 -53.499428 100.42645 9142653
-81.109116 -53.726341 99.963051 9472127
-79.705215 -52.360508 101.13913 8617078
-80.492188 -52.635544 100.67628 9011065
-79.174271 -51.201546 101.84113 9538434
-79.864403 -51.543179 101.39503 8748919
-80.509361 -51.740639 101.0269 8681843
-78.558571 -50.081306 102.56552 8618099
-79.199432 -50.466709 102.12412 9078396
-80.014854 -50.608208 101.70206 8420726
-78.680382 -49.39793 102.78597 8617589
-79.455078 -49.58062 102.36577 9275778
-78.158134 -48.333588 103.44796 9998214
-78.767311 -48.548481 103.08889 9867140
-79.467155 -48.691093 102.71835 11906725
-78.121803 -47.484959 103.80571 9998470
-78.963951 -47.569817 103.39473 9603968
-77.642899 -46.420605 104.44832 9209210
-78.395187 -46.552433 104.05865 9669761
-76.989639 -45.227478 105.40862 8748660
-77.682777 -45.583385 104.83368 8090987
-78.365028 -45.826527 104.36428 8090987
-76.065392 -44.225941 106.81497 7827819
-76.657478 -44.397873 106.3555 8617334
-77.285576 -44.673405 105.74467 10524812
-77.879799 -44.895851 105.28961 8090987
-69.198997 -43.396706 118.12535 8222320
-69.792328 -43.608734 117.54832 8090992
-70.498741 -43.74781 116.80901 6511962
-70.598854 -43.749901 115.4006 8814715
-71.429901 -43.751804 114.88708 8814715
-72.120018 -43.753391 114.4551 9142651
-72.196236 -43.755432 113.063 8945529
-73.146034 -43.757645 112.45044 8747893
-73.513145 -43.759422 111.54231 8089963
-73.872963 -43.7612 110.63283 9801092
-74.669716 -43.763088 110.09608 10458510
-74.91465 -43.809864 108.75879 9209211
-75.58593 -43.92791 108.0554 10524044
-76.252655 -44.047092 107.35017 8353909
-68.567032 -42.277653 118.71083 8419696
-69.271904 -42.549263 118.47864 8879992
-68.667473 -41.409355 119.01292 8945784
-69.377647 -41.681705 118.78741 9340286
-68.149506 -40.268139 119.52451 6840919
-68.736664 -40.520393 119.32806 7959401
-68.247574 -39.461285 119.80434 6906456
-68.743416 -39.591373 119.66904 6511954
-67.56945 -38.472782 120.28792 8616819
-68.203865 -38.584949 120.13475 6840919
-67.572495 -37.545418 120.62889 7235421
-68.162506 -37.793056 120.43366 6511954
-66.921707 -36.395077 121.16725 6971994
-67.63694 -36.656425 120.9449 7367007
-67.128212 -35.526299 121.45079 8090730
-67.833717 -35.709541 121.2589 7498594
-66.46862 -34.167633 122.06738 8353902
-67.080727 -34.619385 121.79312 7366751
-66.60743 -33.418381 122.31885 8353902
-67.180992 -33.770882 122.08791 6774871
-65.947311 -32.27338 122.85686 12235172
-66.667656 -32.527172 122.63642 11643037
-65.998802 -31.357229 123.18545 11774623
-66.633736 -31.701445 122.94658 12959154
-65.429298 -30.207386 123.87933 8814199
-66.082924 -30.57712 123.50926 9472129
-64.992607 -29.200132 124.93512 9274749
-65.67054 -29.642469 124.27111 9669252
-59.738708 -28.452431 133.47159 7564130
-60.31052 -28.710537 133.15179 6511954
-61.266365 -28.715397 130.63362 9537664
-62.051334 -28.717035 130.26213 10458507
-62.80254 -28.721449 127.85446 9011579
-63.417221 -28.722752 127.5502 10524305
-63.935963 -28.796103 126.67775 8814203
-64.504219 -28.894712 125.91306 9603717
-65.167542 -28.921606 125.71287 9735046
-59.027893 -27.528173 133.94333 9932167
-59.71228 -27.646994 133.77878 9142907
-59.198135 -26.530773 134.28053 9011320
-59.922131 -26.950703 133.99817 9011320
-58.560081 -25.303223 134.84517 8550257
-59.233135 -25.595819 134.61867 8287342
-58.703209 -24.353277 135.16968 8155756
-59.174908 -24.797049 134.92308 8089963
-58.0592 -23.454624 135.61426 8353392
-58.714783 -23.478733 135.48969 8550257
-58.113602 -22.583696 135.92545 9274495
-58.778759 -22.651785 135.78294 9010808
-57.502552 -21.540039 136.41762 9406080
-58.168381 -21.60684 136.27554 9800581
-57.658615 -20.475433 136.7822 9340287
-58.325035 -20.854004 136.52524 9932166
-57.704571 -19.455173 137.14984 9143164
-57.610672 -18.325308 137.58252 8092019
-57.558651 -18.682905 137.46005 8092019
-57.662819 -17.967417 137.70517 9538694
-124.6965 -74.442032 32.236881 8090731
-124.85683 -74.329903 31.557146 8090731
-124.69515 -74.262512 30.957926 9011579
-125.17246 -74.184532 30.756304 9011579
-125.70789 -74.021141 29.989706 9800837
-126.2795 -73.877525 29.034719 10392712
-126.89346 -73.762009 28.083548 7629412
-127.314 -73.680656 27.405355 9142906
-127.81297 -73.574493 26.483187 11576733
-128.41193 -73.458282 25.512121 8419439
-128.99452 -73.36866 24.853292 7958886
-129.36877 -73.285477 24.118143 8090728
-129.73024 -73.229172 23.700609 6511954
-130.02686 -73.157059 23.043116 6643540
-130.46289 -73.062386 22.213881 5920074
-131.037 -72.972031 21.532469 5920074
-131.6209 -72.860413 20.522421 7893608
-132.09274 -72.759628 19.554205 11314588
-132.63231 -72.673424 18.81843 6840663
-133.17148 -72.586792 18.077173 9274237
-133.65732 -72.500099 17.094542 7366239
-134.2513 -72.397072 16.250933 9800580
-134.76591 -72.321159 15.819028 10853012
-96.212975 -71.216064 77.295341 7037787
-96.767235 -71.352295 76.977173 10787988
-134.71889 -72.25721 15.155961 8090731
-135.25874 -72.166183 14.589772 9932422
-135.89023 -72.046524 13.797212 9866373
-136.35884 -71.921394 12.849229 7761767
-136.89583 -71.803299 12.013112 7564392
-137.29779 -71.686394 11.104829 9800582
-137.97847 -71.581673 10.490685 8617331
-138.47409 -71.456322 9.5555239 7170142
-139.05602 -71.34774 8.6084642 12235690
-139.27023 -71.296822 8.060708 13024949
-95.290924 -70.581833 77.96582 9012088
-96.116356 -70.680267 77.555183 8617333
-139.64081 -71.258987 7.7445345 10261903
-139.95763 -71.182335 6.9169741 9801353
-140.69696 -71.105927 6.2738733 11708832
-141.13367 -71.015778 5.3279657 9472380
-141.71222 -70.927132 4.4379587 9274745
-142.2061 -70.83252 3.4253209 10064777
-142.74005 -70.76265 2.7499554 6511954
-143.23943 -70.673416 1.8099377 7629666
-143.88371 -70.583481 0.92244834 8352877
-144.32756 -70.506271 0.11391564 9997443
-144.76799 -70.428841 -0.69924814 7959661
-145.53816 -70.361671 -1.2292392 6510930
-94.878487 -69.47747 78.597366 8880248
-95.622078 -69.62532 78.203552 8222576
-95.967812 -70.093834 77.858963 7038307
-145.38748 -70.293617 -1.9283893 8288112
-146.13693 -70.215553 -2.4666889 9143162
-146.52615 -70.114151 -3.2976215 6973279
-146.91122 -70.01239 -4.1326971 7959402
-147.29219 -69.910271 -4.9719229 7564646
-147.9991 -69.811241 -5.7099829 7827819
-148.65985 -69.692924 -6.6323843 6643290
-149.32013 -69.5737 -7.563468 8813683
-149.5761 -69.48616 -8.2992468 12366244
-94.416939 -68.320847 79.272049 5920082
-94.850204 -68.666534 78.937714 9208956
-95.694588 -68.739029 78.529045 8945784
-94.332367 -67.529541 79.629738 8156783
-95.1399 -67.706062 79.195618 10919056
-93.732788 -66.43383 80.34182 12497574
-94.50563 -66.606873 79.924675 10458506
-95.159386 -66.928284 79.501091 7564385
-93.261185 -65.299973 81.011879 7038307
-93.883507 -65.549431 80.631432 10655887
-94.551338 -65.788239 80.23494 10327178
-93.16935 -64.520737 81.36795 7367267
-94.081032 -64.688553 80.890503 8814196
-92.81868 -63.433289 81.964851 7037274
-93.474648 -63.637245 81.58773 8024681
-93.989487 -63.91584 81.243835 7564643
-92.079323 -62.335678 82.740463 7037274
-92.781456 -62.560921 82.334038 9734528
-93.642975 -62.764496 81.864723 10524043
-92.116104 -61.556602 83.03875 7563618
-92.949921 -61.630608 82.634232 8879476
-91.625252 -60.486103 83.800751 10787470
-92.457054 -60.689552 83.291321 8418926
-93.125458 -60.854996 82.868683 7037274
-90.785004 -59.198967 85.605789 8484978
-91.249664 -59.487862 84.883324 8945270
-91.919777 -59.775032 84.254059 10392713
-92.3479 -60.107224 83.78196 10590091
-83.21035 -58.296803 97.191422 9867141
-83.886017 -58.505489 96.717285 8024425
-84.361382 -58.754284 96.107773 7432032
-85.052048 -58.798668 95.171425 7037274
-85.459129 -58.800533 94.248566 7037274
-85.85688 -58.802383 93.324326 9208955
-86.639778 -58.804512 92.597198 12433325
-87.124474 -58.806465 91.689781 9209212
-87.399666 -58.80817 90.746704 8024682
-88.1605 -58.810284 90.00634 7563873
-88.915352 -58.812401 89.259911 7629409
-89.067345 -58.813889 88.343239 7760995
-89.604721 -58.869328 87.286377 8550769
-90.272644 -58.959736 86.659798 8945529
-90.602791 -59.092613 86.054222 8089962
-82.721367 -57.120876 97.881424 7959144
-83.210007 -57.515079 97.504532 8551281
-84.019424 -57.658329 97.084396 8880246
-82.678299 -56.448196 98.169983 7959144
-83.452782 -56.541298 97.785583 7433056
-83.943077 -56.936085 97.407822 7959144
-82.12278 -55.384628 98.844795 8090987
-82.737053 -55.546177 98.504822 8354159
-83.460152 -55.623608 98.149689 6511954
-82.16964 -54.592873 99.140778 8814710
-82.982735 -54.532803 98.80043 10722707
-81.61982 -53.47208 99.835953 11643553
-82.30455 -53.67873 99.44632 9209468
-82.948387 -53.816402 99.102661 11906725
-80.967148 -52.280781 100.60545 8681843
-81.606247 -52.677086 100.1603 10261643
-82.395454 -52.760658 99.773132 8814454
-81.071266 -51.599232 100.83163 9208443
-81.93734 -51.761555 100.37845 9668994
-80.562531 -50.485325 101.50623 8749434
-81.286865 -50.69836 101.09637 9142906
-81.889557 -50.890194 100.74947 8681843
-79.930016 -49.223446 102.29698 9012606
-80.574165 -49.611004 101.85281 8157554
-81.394951 -49.754684 101.4277 8880249
-80.030693 -48.545067 102.52496 9012605
-80.901352 -48.697975 102.07385 8814713
-79.513145 -47.442272 103.20035 9538175
-80.241722 -47.647156 102.79187 9406849
-80.847954 -47.83205 102.44617 9537408
-78.869736 -46.192371 103.99121 11314071
-79.519028 -46.571953 103.54794 9603968
-80.343979 -46.707027 103.12447 10524303
-78.317337 -45.21983 104.82333 8090987
-78.957733 -45.537567 104.29418 10590349
-79.837959 -45.718643 103.77565 9538179
-77.355621 -44.091194 106.71156 9998473
-78.021095 -44.215847 106.01052 10064262
-78.54747 -44.6003 105.27269 9340540
-79.307838 -44.876801 104.66843 10064007
-70.452492 -43.420551 117.68883 8090992
-71.288124 -43.478466 117.29289 8354161
-71.479897 -43.750042 116.21025 8090736
-72.456154 -43.752285 115.60365 10787220
-72.532616 -43.754349 114.19373 9142651
-73.218163 -43.755939 113.75468 10260875
-73.901268 -43.757534 113.31181 10260875
-74.224998 -43.760174 111.7404 8089963
-75.029655 -43.762074 111.20106 9209211
-75.3815 -43.763844 110.28688 8682867
-75.72596 -43.765602 109.37144 9867141
-76.644249 -43.767815 108.72891 9998731
-76.718163 -43.877777 107.72948 8485751
-77.687706 -43.916508 107.1684 9011838
-69.888344 -42.390247 118.35262 8419696
-70.611961 -42.585785 117.95161 8748663
-71.335464 -42.782681 117.55013 8814707
-69.98912 -41.518047 118.65001 9537921
-70.832512 -41.696514 118.209 13419960
-69.468681 -40.33622 119.26686 9800581
-70.166206 -40.582214 118.94611 9274493
-70.779289 -40.908592 118.54794 11906725
-69.533089 -39.460155 119.57188 8682356
-70.180199 -39.764629 119.27278 9011321
-68.899811 -38.337067 120.10335 7696228
-69.605591 -38.527687 119.90874 8814709
-69.044502 -37.387985 120.42735 7433056
-69.787498 -37.823265 120.13612 8288365
-68.439003 -36.351151 120.91594 6511954
-68.99456 -36.494728 120.7651 6840919
-68.527 -35.511959 121.20943 7038298
-69.174171 -35.565037 121.07582 6511954
-67.880257 -34.38821 121.7373 7564642
-68.462883 -34.702072 121.51901 8090986
-67.926659 -33.526226 122.04655 8156779
-68.561722 -33.876228 121.80574 8617331
-67.325768 -32.37125 122.57787 8813686
-67.986504 -32.588795 122.38125 9077626
-67.418961 -31.496502 122.88362 8616563
-68.144165 -31.751406 122.66186 8089963
-66.797737 -30.290831 123.57431 9274493
-67.461403 -30.666954 123.21859 8089963
-66.323921 -29.260616 124.55026 8814458
-67.057365 -29.663692 124.01596 8485237
-60.470932 -28.034681 133.50214 7761509
-60.992786 -28.363348 133.23047 8156012
-61.748936 -28.713516 132.48981 8813686
-63.146206 -28.719337 129.73422 9735043
-63.925812 -28.720984 129.35216 9011579
-64.489456 -28.725037 127.01122 8814203
-65.404671 -28.726999 126.54158 9866634
-65.831459 -28.949007 125.51089 9735046
-66.495911 -28.976772 125.30763 9735046
-60.443474 -27.445133 133.72408 7761509
-61.140919 -27.430138 133.60654 8550513
-60.56572 -26.593697 134.01604 9406077
-60.00732 -25.468689 134.52884 9011320
-60.629704 -25.636822 134.35706 9076855
-60.016335 -24.475954 134.89279 8354165
-60.607075 -24.855181 134.64886 9340027
-59.46706 -23.269955 135.43387 8946044
-60.085777 -23.55444 135.21989 9998470
-59.425014 -22.471678 135.73529 10327178
-60.216339 -22.704426 135.50987 11379348
-58.861736 -21.496559 136.19382 10129545
-59.547897 -21.660498 136.01236 9603457
-58.972378 -20.484983 136.54684 9800836
-59.766571 -20.90185 136.25322 8090987
-58.402466 -19.353249 137.06421 9077626
-59.078354 -19.445614 136.91095 9011576
-58.456173 -18.439116 137.39145 9341315
-59.004227 -18.724955 137.18948 9011576
-57.870564 -17.373024 137.88741 9998988
-58.370056 -17.686792 137.68373 11445664
-58.053326 -16.535751 138.16351 9538694
-58.571575 -16.729958 138.00053 8092019
-58.121651 -15.694797 138.47775 8617592
-124.41924 -74.632088 34.574512 7038307
-124.54237 -74.584312 33.802258 6249042
-124.99876 -74.501717 32.958057 6972506
-125.59603 -74.326645 32.081593 8090731
-126.10713 -74.137543 31.114023 9011579
-126.61684 -73.99321 30.464041 9011579
-127.06434 -73.881767 29.666052 8353904
-127.6868 -73.765366 28.710394 8090986
-128.16293 -73.657349 27.749132 9472384
-128.72572 -73.566498 27.060087 9735043
-129.22595 -73.459305 26.126394 9077113
-129.85872 -73.349823 25.262255 9603453
-130.05363 -73.294357 24.731867 10853262
-130.41911 -73.237717 24.313234 8682608
-130.86229 -73.155891 23.646048 6709079
-131.34277 -73.048012 22.688814 6315090
-131.89224 -72.958763 21.966429 7565675
-132.48454 -72.860649 21.114527 8683382
-133.00069 -72.760117 20.179373 7498593
-133.51067 -72.659386 19.237745 8288110
-134.09238 -72.573189 18.530699 9405823
-134.55222 -72.49823 17.669802 8221549
-135.07356 -72.39991 16.790052 8748148
-135.52489 -72.315865 16.238703 9735043
-97.255554 -71.349922 76.730049 11314332
-98.046303 -71.480453 76.274139 10787988
-98.676491 -71.812141 75.816399 7563619
-135.72958 -72.244194 15.655583 11116696
-136.18239 -72.1651 15.153733 9274749
-136.66901 -72.047539 14.291417 8551287
-137.15175 -71.929703 13.424073 7893356
-137.74492 -71.807007 12.577756 7300960
-138.10405 -71.693047 11.671922 7432544
-138.77434 -71.571739 10.887086 8485488
-139.45184 -71.453499 10.095201 7696228
-139.85419 -71.365532 9.1761599 9209469
-140.10931 -71.298882 8.4475527 7564651
-96.683159 -70.388504 77.415665 11183774
-97.407906 -70.601562 76.962914 11248796
-98.096832 -70.869621 76.501678 11972518
-140.48402 -71.260811 8.1303453 8419959
-140.823 -71.196671 7.4694605 7564651
-141.55302 -71.106735 6.6533594 10327436
-142.0775 -71.022598 5.8204279 9274745
-142.4563 -70.939545 4.9191675 7696227
-142.91499 -70.86338 4.1310396 6314575
-143.64485 -70.773903 3.2863171 8090219
-144.16441 -70.69046 2.429414 7695460
-144.53078 -70.607033 1.506593 8089963
-144.97977 -70.529541 0.69651145 8089963
-145.70433 -70.43795 -0.1776493 8550512
-146.42958 -70.345612 -1.0607059 8090218
-96.742203 -69.578247 77.715599 8683386
-97.48951 -69.752747 77.2733 10065037
-146.86302 -70.260986 -1.8897693 8616562
-147.25766 -70.159348 -2.7228839 7696487
-147.64787 -70.057228 -3.5602024 7696487
-148.31931 -69.940018 -4.470397 7301988
-148.99031 -69.821922 -5.3891439 8814712
-149.70815 -69.721451 -6.1376791 5920082
-150.09119 -69.616829 -6.9990835 7234653
-150.18057 -69.527473 -7.7887564 11181972
-150.99785 -69.46209 -8.1961279 9997699
-96.287415 -68.563919 78.333466 7893357
-97.058136 -68.597221 77.966492 7038307
-97.556862 -68.886963 77.598 8288372
-95.621773 -67.382652 79.109756 13023917
-96.304825 -67.629997 78.702957 11313816
-97.11792 -67.792999 78.269173 8683386
-95.751305 -66.499657 79.40834 8090728
-96.419258 -66.796585 78.988258 9866625
-95.079384 -65.583588 80.08036 7827558
-95.9505 -65.63456 79.668365 6840919
-94.660751 -64.34462 80.76902 9208954
-95.25576 -64.703033 80.356873 8090730
-95.953957 -64.741699 80.027557 8288107
-94.64904 -63.542713 81.098267 8551281
-95.511421 -63.769814 80.619072 7564642
-94.209183 -62.42717 81.746628 10261128
-94.823662 -62.6908 81.364021 10524299
-95.47628 -63.033054 80.932472 10853518
-93.546555 -61.444744 82.441254 9340027
-94.256729 -61.62648 82.048752 13418932
-95.048347 -61.805183 81.620911 13682103
-93.025261 -60.221989 83.381287 9340027
-93.601448 -60.590111 82.837929 8089961
-94.29863 -60.756985 82.412521 10261641
-91.927368 -59.220493 85.025558 9340027
-92.695656 -59.294708 84.547676 9011063
-93.158867 -59.675526 83.782455 9537662
-93.89064 -59.95018 83.222755 8419695
-85.125053 -58.43235 96.278961 9800836
-85.821022 -58.548477 95.855736 7234653
-86.437027 -58.801136 94.820312 5262404
-86.671593 -58.802643 93.981491 7433830
-87.316711 -58.804794 93.094879 9735813
-88.097603 -58.806942 92.355469 7959145
-88.268486 -58.808472 91.427094 7959145
-88.842033 -58.8106 90.483231 8222060
-89.600639 -58.812733 89.730751 7366238
-90.207413 -58.814846 88.828934 7103067
