# .PCD v0.7 - Point Cloud Data file format
VERSION 0.7
FIELDS x y z rgb
SIZE 4 4 4 4
TYPE F F F U
COUNT 1 1 1 1
WIDTH 1225
HEIGHT 1
VIEWPOINT 0 0 0 1 0 0 0
POINTS 1225
DATA ascii
51.710022 -58.774395 134.59834 9340541
50.736061 -58.774311 134.96692 8814453
49.796997 -58.502853 135.55742 8748660
48.764053 -58.547413 135.63737 9801348
48.069633 -58.291714 135.7554 10262156
123.69795 -57.255253 98.452393 8682867
123.06122 -57.400391 98.916382 10459278
122.32701 -57.595131 99.438583 9340797
121.56732 -57.590099 100.07593 9801348
120.78017 -57.613182 100.72299 7039331
120.14861 -57.763119 101.18052 7039331
49.611679 -57.739666 135.93823 8682867
48.889107 -57.660961 135.98657 9472383
47.859375 -57.50573 136.07275 9274236
47.138008 -57.116043 136.24474 9208443
124.80718 -56.313004 97.967911 8156780
124.07527 -56.569118 98.459419 8353904
123.28501 -56.621918 99.095131 8288107
122.41356 -56.550476 99.857079 7235420
121.57816 -56.881561 100.39978 9209727
121.08901 -57.04195 100.73322 8486262
48.764496 -56.807693 136.32857 9735299
47.954834 -56.482967 136.47687 9340285
46.927185 -56.520782 136.48622 8879222
126.7188 -55.121288 96.930115 9735299
125.69514 -55.530785 97.59333 7761768
125.01128 -55.611019 98.12722 7827819
124.12573 -55.645344 98.851257 7367266
123.41898 -55.636715 99.446022 6511954
122.81087 -55.852951 99.852737 6511954
47.827591 -55.631859 136.81804 9735299
46.969707 -55.664795 136.8253 9406078
46.025917 -55.452 136.93227 9011320
127.30359 -54.505196 96.730911 10261646
126.68044 -54.636341 97.190102 10261646
125.952 -54.652279 97.791443 8486006
125.12249 -54.531181 98.541641 7959405
124.40134 -54.820343 99.008575 7959405
46.976204 -54.709702 137.20464 10261899
46.030231 -54.498512 137.31122 10327436
45.095291 -54.409897 137.36909 9143163
129.02524 -53.307491 95.772079 7565675
128.45027 -53.537666 96.227127 8091762
127.71889 -53.655518 96.783028 9538950
126.88429 -53.531353 97.53891 9472644
126.09019 -53.663208 98.140678 8880764
125.59198 -53.821083 98.482872 7959405
46.259022 -53.685505 137.62906 10590864
45.273197 -53.667667 137.66008 8616307
44.336609 -53.524559 137.7397 6840409
43.650677 -53.20863 137.88203 8419184
129.86484 -52.142735 95.427917 8682867
129.3336 -52.391052 95.919167 8946812
128.65297 -52.683788 96.458145 9670536
127.83444 -52.570911 97.196083 8881534
127.26193 -52.761929 97.584892 8617849
126.40875 -53.089733 98.143898 11379356
45.268295 -52.878567 137.97418 8813685
44.457588 -52.567703 138.11749 8223348
43.429581 -52.432961 138.19601 8814713
130.24765 -51.51939 95.322647 9077625
129.54031 -51.53738 96.151672 9209727
128.80252 -51.771431 96.762611 10788759
128.17349 -51.904034 97.226021 11841189
44.321007 -51.723637 138.45662 9209984
43.548763 -51.521404 138.55579 9275778
42.522762 -51.570538 138.56114 9604743
131.09171 -50.35429 94.973351 11840163
130.4493 -50.572048 95.613594 10656145
129.80774 -50.790962 96.252151 9735300
43.371429 -50.76384 138.86153 10328208
42.516121 -50.62215 138.93861 10130830
41.662422 -50.482273 139.01498 8223604
131.96352 -49.561558 94.382759 9867657
131.36157 -49.60714 95.071381 10459023
130.65097 -49.624153 95.904808 9932678
42.508652 -49.67345 139.31625 10262415
41.553535 -49.469597 139.38495 9407363
132.81403 -48.396053 94.026535 9275777
132.15186 -48.638165 94.676231 9012606
131.52798 -48.696785 95.383423 8748661
131.03522 -48.999611 95.798447 8682867
41.583443 -48.623302 139.73338 10591633
40.769981 -48.538315 139.51395 8092016
133.58966 -47.493263 93.612473 8551281
133.00696 -47.631371 94.226074 8551537
132.38126 -47.689095 94.935638 9011320
131.88321 -47.831974 95.446213 9537664
40.724953 -47.554359 139.8819 8486516
134.51395 -46.336849 93.216873 10590606
133.93857 -46.643345 93.69574 9143675
133.2634 -46.734592 94.442368 8222572
132.618 -47.058792 95.007858 8287853
40.557861 -46.693607 140.14836 9406846
40.112892 -46.370667 140.0826 10195337
136.3239 -45.29921 92.301781 11511449
135.70807 -45.460274 92.840363 10392969
134.98917 -45.670666 93.442741 9866884
134.23499 -45.867683 94.102585 10788243
39.806599 -45.615471 140.2892 9866627
39.079468 -45.163177 140.29709 10195337
140.16597 -44.145535 90.540543 8288365
139.28223 -44.182465 91.400955 9603969
138.44473 -44.351448 91.567398 9603971
137.56116 -44.566498 91.985031 8551283
136.66934 -44.756287 92.53508 11182485
136.04465 -44.794178 93.230133 9932419
39.753517 -44.957119 140.75177 8682867
38.98381 -44.556202 140.77527 9537662
38.069344 -44.185303 140.93188 8353647
152.56369 -43.592808 84.339607 9143163
152.06912 -43.629688 85.168228 8156779
149.6434 -43.816082 85.805458 10854036
149.2276 -43.814453 86.523849 9932424
146.86394 -43.815296 87.050079 7037274
146.54805 -43.814102 87.579132 8287341
146.12402 -43.812527 88.2827 8287341
143.78876 -43.813457 88.769341 9801606
143.35904 -43.811913 89.459648 9143681
141.89722 -43.940506 89.497391 7564651
141.29321 -43.919617 90.308876 10985625
140.80881 -43.903488 90.956596 8288365
37.817669 -43.893345 141.69707 9340286
37.118328 -43.8731 141.46576 9208956
36.004929 -43.769642 141.73206 9341053
34.25946 -43.766266 143.52866 9209467
33.567375 -43.766487 143.69095 10854293
32.70129 -43.766781 143.88953 9537665
31.833988 -43.76709 144.08267 8221549
30.791756 -43.767483 144.30765 7366240
29.816792 -43.507584 145.45624 9603458
29.173096 -43.254807 145.27679 9668995
153.36935 -42.268074 83.901489 9011321
152.86105 -42.542923 84.582283 8418928
152.34396 -42.958797 85.176628 8288621
29.13562 -42.534534 145.54602 9077114
154.03104 -41.291798 83.461105 9012606
153.64908 -41.49762 83.97316 9274236
153.22893 -41.492355 84.70359 8681843
28.901852 -41.765289 145.74934 9932424
28.332767 -41.42799 145.63585 10656145
154.23209 -40.660141 83.56881 10655889
153.84 -40.697033 84.220245 12497321
28.967503 -40.988827 146.08572 7564651
28.209667 -40.51733 145.94333 9537924
154.5099 -39.52066 83.909866 10787475
154.11722 -40.023636 84.226364 13286581
28.085236 -39.605911 146.24947 9932681
27.496067 -39.520351 146.02757 9735555
154.90332 -38.550697 83.928772 9932678
27.945545 -38.870426 146.47823 10525071
27.290142 -38.547848 146.32089 8551281
27.141083 -37.557678 146.64586 8551281
26.486519 -37.238888 146.4874 6511954
26.540665 -36.532475 146.78882 7169628
26.207844 -35.697891 146.97284 7695716
25.654423 -35.167965 146.9413 9208699
26.281498 -34.710964 147.39308 6511954
25.622501 -34.449818 147.21002 8288109
25.435917 -33.652477 147.44278 9603969
24.792652 -33.455967 147.24113 10263180
25.338333 -32.716324 147.76877 9340797
24.579666 -32.487198 147.52991 9012344
24.486504 -31.499495 147.87808 7827302
23.757896 -31.373333 147.61176 7037274
24.391644 -30.727753 148.14058 7037274
23.816669 -30.523603 147.98131 7629923
23.501148 -29.863123 148.30161 7959406
22.863949 -29.351585 148.44469 8025201
22.544178 -28.952393 149.2433 10064779
21.785923 -28.902069 149.08223 10525073
19.252007 -28.76058 150.74574 7826791
18.343449 -28.761162 150.85785 8550771
17.252304 -28.761881 150.98541 7563619
13.765815 -28.502699 153.1143 8092020
13.598651 -27.754189 153.33675 8618621
13.031898 -27.375866 153.23982 7039331
12.895293 -26.51473 153.5199 7959659
12.798736 -25.665726 153.81261 7695201
12.165343 -25.54298 153.58604 8221544
12.726127 -24.922676 154.07402 7366237
11.966388 -24.496887 153.91196 8813681
11.801375 -23.562309 154.20866 9801346
11.223815 -23.521597 153.97398 10854036
11.121974 -22.591393 154.29639 8814710
11.047946 -21.549366 154.67491 8946040
10.414615 -21.434902 154.44514 9538177
10.916038 -20.724089 154.94273 9538177
10.148246 -20.571142 154.66982 10590865
10.106383 -19.683941 155.00099 10393227
9.5381041 -19.279568 154.9136 8682867
9.4830618 -18.51387 155.19122 9274747
9.2549772 -17.648621 155.43292 12300709
8.5839567 -17.521338 155.19183 13024175
9.083209 -16.704458 155.73012 14604234
8.4282408 -16.43251 155.55296 13946044
8.33599 -15.640948 155.85295 12103586
7.7690501 -15.343401 155.8203 8945527
7.4731517 -14.728698 156.21164 9406078
6.7207866 -14.341785 156.27199 9537664
5.7449069 -13.891418 157.11601 9603201
4.9784465 -13.868494 156.86378 9209467
-0.32598183 -13.753022 160.21469 8617589
-1.484452 -13.754191 160.20731 8618101
-2.266259 -13.406592 160.83061 9867398
-2.3815467 -12.680908 161.06606 9603715
-3.0440834 -12.411459 160.88464 9734788
-2.5357368 -11.711092 161.38077 9011838
-3.128701 -11.512748 161.20158 9208959
-3.3350303 -10.647693 161.45239 8485749
-3.8348701 -10.244538 161.39421 9537918
-3.4567802 -9.4678268 161.86377 9011831
-4.1191564 -9.3978081 161.60393 10524556
-4.2398229 -8.468215 161.91734 10721678
-4.2491612 -7.6784844 162.22401 11708315
-4.9145284 -7.4135246 162.0396 12300710
-5.0370946 -6.478476 162.35432 11183002
-5.8119817 -6.270082 162.10007 10591121
-5.2413716 -5.6813536 162.57932 11248795
-5.8262868 -5.3166261 162.46902 10196363
-5.9157414 -4.5186706 162.74416 9604484
-6.6149755 -4.2734308 162.53731 9341313
-6.0856404 -3.5570717 163.04878 11774365
-6.7843862 -3.3926005 162.81035 10787986
-6.8389745 -2.469425 163.14995 10129543
-6.9520497 -1.5622659 163.45857 9537407
-7.5940099 -1.3798641 163.25182 10656403
-7.0653386 -0.65207046 163.7684 10655630
-7.7722173 -0.40940842 163.6564 12696500
-7.8726583 0.15961868 164.08049 11709348
-8.5811396 0.40241843 163.97525 14210509
-9.6893778 0.97593623 164.59589 14076870
-10.270761 0.97328037 164.33907 14076870
-17.727127 1.6400938 168.81429 9144701
-18.530411 1.6378536 168.63145 10065031
-18.364021 2.4835513 168.98241 10064774
-19.168076 2.4808507 168.79922 9340539
-18.600052 3.3311009 169.24284 9603711
-19.405289 3.3279567 169.05923 9603711
-19.379562 4.2978659 169.4243 10721933
-20.202675 4.67344 169.37698 10063747
-19.487549 5.2473474 169.75154 9076855
-20.307907 5.5290365 169.67 7760997
-20.219818 6.2741933 169.96596 9537405
-21.125359 6.6137314 169.88658 9537404
-20.371887 6.9630117 170.18661 11379348
-21.123367 7.5761151 170.24341 8945524
-21.829742 7.8190312 170.17334 5919050
-21.251915 8.4737921 170.54677 8156011
-22.063522 8.4684601 170.36095 6840151
-22.01664 9.3084965 170.68268 7432804
-22.725006 9.5525875 170.60912 6840151
-22.191605 10.343142 171.00481 9143166
-22.96212 10.421782 170.80705 8025198
-23.004074 11.441936 171.10881 9275264
-23.62204 11.726456 171.01486 7038307
-23.043449 12.393298 171.39021 9143678
-23.851814 12.382589 171.14937 7564649
-23.273178 13.051255 171.52525 10262156
-23.898735 13.484479 171.47484 8748663
-24.524849 13.91773 171.4243 6840664
-24.710846 14.584317 172.12453 7958889
-25.698189 14.862337 172.20404 6117197
-25.614281 15.495324 172.48981 7367008
-26.503403 15.611293 172.36865 5394241
118.97881 -58.270069 101.92004 9537918
118.1486 -58.603714 102.448 8748659
117.43678 -58.556526 103.07431 6511954
116.5777 -58.499596 103.81916 9011573
115.63197 -58.632504 104.17977 7959144
114.61298 -58.79747 104.56771 6972505
113.98123 -58.796143 105.2545 7038302
112.50638 -58.797894 105.15143 13551549
111.99818 -58.79686 105.69072 11643553
111.23134 -58.795338 106.49538 11577759
110.18151 -58.795609 106.76599 8682867
109.13124 -58.795902 107.02849 8617330
108.48475 -58.794685 107.6823 5920074
107.96461 -58.79372 108.20248 6511954
106.39517 -58.795338 108.17814 9144190
105.74159 -58.794182 108.81514 7038307
104.95237 -58.792797 109.57458 10459537
104.42331 -58.791893 110.07796 11906725
102.87051 -58.793602 110.01866 10393485
102.0726 -58.79229 110.75732 11972517
101.40379 -58.791214 111.36859 10985622
101.00079 -58.790581 111.7333 9538435
99.464905 -58.792358 111.64189 9538435
98.655472 -58.79113 112.35587 8223089
97.840805 -58.789925 113.064 7039331
97.158264 -58.78894 113.64978 7038307
95.777077 -58.790997 113.40625 9078397
94.954926 -58.789856 114.09361 10327952
94.127876 -58.788742 114.77502 10196367
93.295914 -58.787643 115.45042 9867658
92.267838 -58.788258 115.59171 9473411
91.240234 -58.788898 115.72538 9605253
90.401459 -58.787868 116.37994 11577760
89.55806 -58.786861 117.02836 9472383
88.851791 -58.786037 117.5642 8551281
88.142006 -58.785229 118.0956 7564643
86.664154 -58.787304 117.87927 7367008
85.809998 -58.786388 118.50067 8682355
85.09494 -58.785633 119.01397 9537920
84.376495 -58.784901 119.52264 9406846
83.510513 -58.784035 120.12752 9932934
82.640198 -58.783199 120.7262 10195851
82.057732 -58.78265 121.12195 9932937
80.604645 -58.784874 120.84462 9932681
79.729195 -58.784103 121.4222 9603973
78.84964 -58.783356 121.9935 10525072
77.965996 -58.782619 122.55835 10525327
77.078308 -58.781914 123.11687 9603969
76.186615 -58.781223 123.66892 11577760
75.290886 -58.78056 124.21461 10064009
74.391304 -58.779919 124.75377 10064009
73.638618 -58.7794 125.19829 10129801
72.883286 -58.778896 125.63795 10129801
71.720764 -58.779839 125.71278 11183001
70.558907 -58.780796 125.77886 10525328
69.648155 -58.780266 126.28381 8092011
68.733635 -58.779758 126.78221 8092011
67.969025 -58.779346 127.1926 8617843
67.201797 -58.778954 127.59805 8946296
66.277878 -58.7785 128.07881 7498856
65.350647 -58.778072 128.55276 9866885
64.419907 -58.777668 129.02005 10327692
63.485905 -58.777279 129.48064 8288113
62.548569 -58.77692 129.9344 7038307
61.607925 -58.776581 130.38148 6972765
60.664108 -58.776264 130.82172 5920074
59.87532 -58.776016 131.1835 5920074
59.084202 -58.775784 131.54022 9274237
58.132084 -58.775528 131.9622 9997960
57.176987 -58.775295 132.37723 9538176
56.41713 -58.77354 133.25874 9735555
55.650005 -58.771809 134.13536 9538433
54.841248 -58.771671 134.46689 9143419
54.030499 -58.771542 134.79332 9735812
52.999504 -58.695694 135.27705 9208955
52.073952 -58.559528 135.5489 9471871
50.984177 -58.435379 135.62915 9011576
50.28463 -58.175331 135.74904 8682867
120.4018 -57.38596 101.14603 8486262
119.88481 -57.479366 101.5343 7828073
119.11801 -57.637749 102.10078 9801089
118.32682 -57.582138 102.78823 9274745
117.60548 -57.638897 103.36451 8024935
116.83411 -57.827538 103.92062 8682608
51.930538 -57.879757 135.82742 9866630
51.11541 -57.545746 135.97948 9735299
50.128788 -57.435875 136.04657 9011832
121.74341 -56.298813 100.53546 9933193
120.88692 -56.580452 101.11901 8815226
120.04189 -56.567455 101.83147 8157038
119.2733 -56.456356 102.52606 10064261
118.59203 -56.702675 102.97981 9143160
50.994457 -56.688267 136.32307 10064777
50.090466 -56.606655 136.37695 9603969
49.176521 -56.491505 136.44441 9735299
123.09328 -55.21228 99.917671 6511954
122.53851 -55.486721 100.25243 6511954
121.81854 -55.510666 100.84294 9472641
121.03787 -55.650394 101.42982 9933193
120.31318 -55.597893 102.06025 8814968
119.67995 -55.750877 102.51759 9537918
50.142769 -55.753078 136.71481 10262156
49.189396 -55.532425 136.82521 9735043
48.328289 -55.371552 136.90956 9472127
124.36552 -54.252224 99.305405 10328207
123.55237 -54.65184 99.797287 9011573
122.74608 -54.548992 100.51952 8222058
122.02438 -54.573792 101.1111 8749433
121.22634 -54.805763 101.66919 9736071
120.47586 -55.015991 102.19761 8092019
49.201336 -54.573364 137.20593 9603457
48.161255 -54.605057 137.21803 9406334
47.385517 -54.391262 137.32141 9340541
125.30737 -53.557663 98.844582 7959405
124.47382 -53.529964 99.554283 11578273
123.73183 -53.727509 100.08167 10064262
122.97623 -53.662399 100.74374 9012858
122.11293 -53.945538 101.33233 10065547
48.481392 -53.733196 137.55685 9406078
47.618565 -53.57682 137.63953 9866630
46.667484 -53.366234 137.74622 10064264
126.99345 -52.471592 97.945694 10590354
126.20526 -52.622395 98.533569 9998474
125.44368 -52.553108 99.202713 8419956
124.70379 -52.601269 99.798439 8551543
123.99426 -52.762051 100.31593 7960175
123.46815 -52.854752 100.71217 8092016
47.661224 -52.719543 137.97945 8550769
46.71067 -52.517315 138.08292 9142907
45.675125 -52.55838 138.09169 9669507
128.76349 -51.285183 97.023651 10788759
127.99225 -51.486698 97.573631 10591122
127.21371 -51.504829 98.215828 10064264
126.48248 -51.62825 98.769028 9998728
125.67377 -51.669998 99.425346 10196364
124.97934 -51.775398 99.9562 7038307
46.538483 -51.75436 138.39069 9998471
45.676865 -51.605118 138.47095 10985622
44.726631 -51.402275 138.57465 9867656
129.73686 -50.286041 96.61879 9341055
129.01904 -50.552971 97.15419 9406848
128.19284 -50.633671 97.806793 8090986
127.44908 -50.572258 98.457314 7367263
126.64961 -50.708035 99.061691 9143675
126.0914 -51.06369 99.361115 8617331
45.67778 -50.65155 138.85031 8880763
44.725311 -50.450161 138.95351 8354933
43.866165 -50.496456 138.9559 10065035
130.4203 -49.378746 96.315857 8682867
129.8544 -49.558296 96.867157 8617331
129.07288 -49.622169 97.54657 8814710
128.35548 -49.693466 98.112648 7696228
127.62119 -49.984863 98.589493 6511954
44.759811 -49.59602 139.2925 8617593
43.727047 -49.653214 139.29477 9604742
42.911934 -49.349777 139.43526 9933451
131.31113 -48.344868 95.837601 8551025
130.73804 -48.536121 96.410431 9143418
130.09624 -48.622124 97.107101 9538176
129.40082 -48.791157 97.662895 8222573
44.54023 -49.006252 139.53246 9341060
43.845184 -48.694885 139.67322 8815224
42.890999 -48.517307 139.76698 9933704
42.078384 -48.187645 139.91785 10460303
131.65176 -47.58559 95.858627 10392717
130.93762 -47.60429 96.695145 9866885
130.37862 -47.787819 97.255661 12235178
43.125198 -47.585434 140.13208 8881527
42.212021 -47.498905 140.18863 9275516
41.426628 -47.515297 140.19676 9537918
133.14136 -46.289986 94.897751 7038298
132.48212 -46.610371 95.453384 8616562
131.86993 -46.640965 96.161896 10853012
131.31628 -46.885315 96.648544 9406078
42.151741 -46.680702 140.51562 11051155
41.250946 -46.536652 140.49181 10064261
134.81938 -45.243443 94.149597 11380380
134.32986 -45.411072 94.530853 10525071
133.59045 -45.570969 95.217178 8814454
132.85635 -45.793331 95.823326 8287853
132.36449 -45.901325 96.277969 9537664
41.975159 -45.955563 140.80841 13550517
41.202827 -45.622036 140.86772 9537918
40.514862 -45.246933 140.85092 9537918
138.95589 -44.107746 92.146629 10459278
137.59796 -44.326763 92.682251 8682867
137.1123 -44.313568 93.317261 9932419
136.20387 -44.419804 93.902397 8946039
135.3398 -44.744354 94.125519 9275004
134.6915 -44.724194 94.929993 9998727
40.179016 -44.653767 141.17615 10458505
39.605034 -44.181549 141.53096 9537918
151.89728 -43.375694 85.648613 8288621
151.41214 -43.582634 86.338303 8683123
150.92717 -43.790337 87.027214 8287859
148.70352 -43.812428 87.419342 7630187
148.28023 -43.810814 88.133316 9537408
145.80389 -43.811344 88.809158 7564651
145.37375 -43.80978 89.509003 8156786
143.03467 -43.810772 89.976166 7564651
142.59886 -43.80925 90.662659 9143678
142.16034 -43.807739 91.347389 11906725
140.44467 -43.891769 91.441254 10063750
139.83627 -43.872948 92.247459 10195592
138.71303 -44.100571 92.466721 10459278
138.2262 -44.086769 93.105934 10459278
39.133522 -44.029442 141.8197 10458505
38.477234 -43.862526 142.10809 10261642
37.707245 -43.765297 142.66595 11051160
36.675072 -43.765564 142.93341 8484721
35.641003 -43.765846 143.19341 9209467
34.777908 -43.766102 143.40451 9209467
32.999271 -43.762741 145.20804 10854036
32.299183 -43.762985 145.36449 9011838
31.357475 -43.694275 145.67844 8354161
30.595428 -43.464523 145.80293 8617331
152.241 -42.396332 85.760284 10524303
151.73297 -42.673389 86.438995 9735043
30.315437 -42.631977 146.02002 9209468
29.666683 -42.170811 145.92094 8617331
152.91365 -41.488964 85.251282 9273979
152.49307 -41.485268 85.981201 10655376
30.217381 -41.628899 146.37503 8748917
29.629478 -41.448151 146.19119 7827821
153.66748 -40.44112 84.702988 10457996
153.17969 -40.647217 85.398056 9668481
152.75841 -40.643425 86.129288 10457996
29.50066 -40.621643 146.46288 7696236
154.01447 -39.457722 84.811981 11510684
153.47462 -39.713959 85.560837 10457996
29.408432 -39.739891 146.77058 9866632
28.703316 -39.373524 146.60893 10064011
154.69205 -38.547764 84.296356 10261387
154.26924 -38.542561 85.031265 9866885
153.77954 -38.74929 85.729088 9209467
28.673737 -38.526245 146.92944 10392975
154.96075 -37.702164 84.441292 9538432
154.53722 -37.696865 85.177498 9473663
28.540966 -37.699364 147.19719 9866627
27.893333 -37.538223 146.97975 9472383
155.57687 -36.434147 84.289963 9210491
155.21701 -36.784138 84.660049 9802372
28.499912 -36.974762 147.46448 9735296
27.735909 -36.512497 147.31499 8682867
155.84697 -35.585468 84.434784 9736323
155.56685 -35.795055 84.768158 9736835
27.608181 -35.597878 147.61943 9998211
26.909653 -35.597012 147.31686 8090986
156.04984 -34.948105 84.543579 9735812
27.465927 -34.8606 147.84782 9735296
26.805538 -34.546356 147.68506 8617073
26.695229 -33.62619 147.99928 7959144
26.129635 -33.198601 147.92224 8419695
26.046673 -32.53043 148.14912 9406590
25.869728 -31.682922 148.40582 9340797
25.230949 -31.448767 148.22089 8880758
25.768845 -30.879507 148.67822 7564651
25.064449 -30.404243 148.5992 9209726
24.85051 -29.632236 149.06975 9340545
24.068249 -29.484039 148.90221 9735812
23.30508 -29.003418 149.40324 8551287
22.516743 -28.758625 150.29628 7564651
21.610828 -28.759148 150.42805 7892843
20.522778 -28.759796 150.57916 8813685
19.796856 -28.760241 150.67592 10261643
16.749619 -28.756239 153.14435 13882064
16.011257 -28.75675 153.22221 13882064
15.035644 -28.469984 153.60054 15461354
14.545569 -28.387518 153.49815 13487563
14.969356 -27.502882 154.03081 16777215
14.298125 -27.577358 153.71004 13026755
14.175704 -26.559589 154.05801 10130575
13.456481 -26.270666 153.85976 7039331
14.058284 -25.764858 154.32028 9208443
13.4854 -25.442547 154.19864 9208699
13.318362 -24.64386 154.44089 9735298
12.750152 -24.185297 154.37492 9209467
13.162848 -23.473747 154.83452 11116692
12.616847 -23.508993 154.5836 10656398
12.363215 -22.628922 154.82039 10064518
11.646701 -22.256084 154.65623 8090987
12.244891 -21.738276 155.12004 11906209
11.673053 -21.366388 155.01836 9209468
11.617347 -20.618311 155.28885 9538177
10.926188 -20.352753 155.09349 9538177
11.487834 -19.714548 155.58849 8156780
10.793769 -19.524857 155.362 10064521
11.355746 -18.883751 155.85829 6511954
10.589484 -18.466932 155.68987 9604225
10.482894 -17.586803 155.9902 9407871
9.9690504 -17.435507 155.82672 8092011
9.8118277 -16.598795 156.08795 8815734
9.095767 -16.142302 155.95692 14078918
9.6254644 -15.667637 156.40399 9407871
8.98458 -15.516854 156.22304 11182486
8.6948195 -14.776466 156.68803 10195336
8.0029936 -14.354992 156.7438 10656143
6.8989787 -13.926371 157.49377 9998215
2.3771622 -13.750388 160.19969 11380380
1.6048501 -13.751129 160.20839 9537664
0.63947988 -13.752068 160.21468 8681843
-1.0298316 -13.289992 161.4129 8682612
-1.1875312 -12.660799 161.59201 8287342
-1.7576454 -12.383716 161.45369 9669508
-1.1132057 -11.880819 161.93114 8089963
-1.8438499 -11.41994 161.79549 9538181
-2.0922019 -10.481753 162.05687 9011838
-2.6741569 -10.467757 161.80986 7564651
-1.9013984 -9.8959494 162.37013 10459281
-2.6815193 -9.4844112 162.19359 10525073
-2.8838432 -8.4936371 162.49564 9537918
-3.4662559 -8.4825945 162.2473 9537918
-3.0851142 -7.698019 162.72134 10195849
-3.670655 -7.3908267 162.58815 10590349
-3.796006 -6.5351372 162.87047 10853779
-4.2651372 -6.2902651 162.76323 10854036
-3.8828361 -5.6971517 163.16246 10130057
-4.552422 -5.432858 162.97598 10459537
-4.6749806 -4.4893422 163.29405 10196366
-5.4547887 -4.2826614 163.03699 10459537
-4.6851888 -3.6866329 163.60542 9012606
-5.3558736 -3.4239082 163.4178 9012349
-5.5577397 -2.514349 163.68831 9142907
-6.2613072 -2.2699993 163.47925 12103073
-5.6211019 -1.7329388 163.96899 10129543
-6.2760396 -1.3464379 163.8371 11642523
-6.3704839 -0.48885453 164.20029 10655630
-7.0797276 -0.2459774 164.08736 10655630
-7.1784902 0.32517046 164.51813 11446175
-7.8891683 0.56814629 164.41228 11709348
-8.3270426 0.98224586 165.19766 9208443
-8.9119349 0.97953206 164.93924 10458767
-16.337708 1.6465969 169.32518 9736836
-16.932098 1.6435852 169.08841 9144701
-17.163124 2.4888999 169.32576 9210494
-17.395111 3.3369825 169.56409 8092017
-17.995529 3.3335164 169.38066 10590347
-17.221725 3.9778566 169.88126 7565675
-18.038773 4.3992438 169.77403 8682867
-18.863472 4.8222184 169.73546 10590347
-18.212715 5.3971205 170.09579 7695717
-18.894592 5.5722332 170.00613 8353903
-18.92585 6.3247843 170.27779 9142650
-19.745384 6.5352836 170.17004 11379348
-19.09407 7.1150937 170.53246 10590091
-19.788071 7.5228696 170.52621 10590091
-19.909149 8.4396238 170.83833 8550513
-20.642677 8.4779673 170.68636 11905692
-19.858017 9.137044 171.10823 9340027
-20.681892 9.349288 171.00021 9208701
-20.792587 10.29699 171.32611 8419700
-21.553802 10.612326 171.26176 9143166
-21.591621 11.533293 171.55191 9669253
-22.409851 11.741982 171.37576 9143678
-21.828522 12.409954 171.75227 7301478
-22.436378 12.401562 171.57104 8090992
-21.651482 13.074534 172.00887 9932681
-22.482552 13.506263 171.91295 9012093
-23.309898 13.935265 171.78671 10262156
-23.411804 14.648643 172.52965 9603716
-24.254158 14.87072 172.48692 9734788
-23.454002 15.327295 172.83218 9210491
-24.294144 15.548322 172.76453 9209467
-25.134888 15.769547 172.69687 8287598
-27.6259 16.452951 174.97295 5394754
115.62878 -58.243492 104.73267 7959144
115.08017 -58.446148 105.09596 7630179
114.29083 -58.361397 105.79558 8814455
113.40088 -58.472744 106.33099 10853779
112.57349 -58.643208 106.85175 13550518
111.68911 -58.514317 107.45103 12234917
110.68082 -58.542557 107.76976 8419957
109.91072 -58.583538 108.24045 7762024
109.08315 -58.603264 108.80049 8288365
108.17725 -58.657108 109.09679 7564645
107.14099 -58.697178 109.46497 7630443
106.25694 -58.790657 109.87532 8222579
105.45234 -58.785038 110.63036 9933451
104.02478 -58.791222 110.45347 11183003
103.35754 -58.790115 111.07625 11972517
102.68678 -58.789017 111.69521 11183001
102.01212 -58.787937 112.30994 9801351
100.59628 -58.789951 112.09656 7630443
99.919128 -58.788902 112.69868 8288371
99.102005 -58.787674 113.41599 7039331
98.279755 -58.786469 114.12734 7039331
96.74691 -58.788349 113.99928 8288627
96.196426 -58.787582 114.46262 8288627
95.366608 -58.786438 115.15301 8814972
94.531914 -58.78532 115.83731 9143681
93.832626 -58.784405 116.40315 8616563
92.319366 -58.786388 116.23088 9407875
91.75827 -58.78569 116.67317 8815739
91.05381 -58.784824 117.22192 8683381
90.204163 -58.78381 117.87514 7564643
89.349953 -58.782822 118.52214 10327690
88.778 -58.782166 118.95023 9209467
87.286201 -58.784279 118.72768 8485489
86.425827 -58.783352 119.35358 9406846
85.561043 -58.782448 119.97325 10393485
84.691757 -58.781563 120.58673 9274496
83.81813 -58.780704 121.19384 9735046
83.086807 -58.780003 121.69508 9011838
81.961792 -58.781361 121.60912 9275265
80.886688 -58.781586 121.90446 9143680
80.003616 -58.780807 122.48409 8947070
79.264633 -58.780186 122.9624 11379356
78.522614 -58.779572 123.43589 10130313
77.628464 -58.778858 123.99843 9603969
76.730347 -58.778172 124.5545 10656658
75.828247 -58.7775 125.10406 10327437
74.922165 -58.776855 125.64706 12300715
74.01226 -58.776226 126.18353 10590096
73.403564 -58.775826 126.53779 10129801
71.821556 -58.778221 126.24609 9143675
71.059906 -58.777756 126.67484 9472640
70.142654 -58.777218 127.18337 9998215
69.221733 -58.776707 127.68534 9603457
68.297203 -58.776215 128.18053 9274236
67.524147 -58.775822 128.5883 8681843
66.748436 -58.775444 128.99107 9011064
65.81456 -58.775009 129.46849 9406334
64.877274 -58.774597 129.93909 9406334
63.936546 -58.774212 130.40295 8551284
62.992569 -58.773849 130.85997 7959405
62.045315 -58.77351 131.31013 8419951
61.253464 -58.773239 131.68027 9209467
60.45937 -58.772991 132.04526 9209467
59.503563 -58.772705 132.47717 9011065
58.544609 -58.772449 132.90216 9734788
57.582741 -58.772213 133.32019 9406334
56.778904 -58.772034 133.66342 9472383
56.046944 -58.768688 135.09604 9735812
55.311691 -58.661476 135.39082 9011833
54.328075 -58.464966 135.53796 9538177
53.305164 -58.306316 135.62529 9603457
52.521431 -58.068848 135.73828 9735043
116.84747 -57.297356 104.15858 8682608
116.00392 -57.530045 104.75435 7563873
115.13722 -57.586655 105.45213 7432288
114.42966 -57.625042 106.0255 8946039
113.81281 -57.617611 106.54462 10195591
112.68228 -58.038952 107.1089 11511449
112.18013 -57.979511 107.40469 9735302
54.334354 -57.827759 135.791 9209467
53.40308 -57.490261 135.94716 9734787
52.315315 -57.464539 135.98323 10261132
118.31025 -56.447105 103.33545 7564643
117.68092 -56.602947 103.78819 8550767
116.88571 -56.513378 104.49495 7761253
116.11211 -56.636803 105.08356 6576723
115.34045 -56.76944 105.66622 7103067
114.65208 -57.010689 106.1283 8617075
53.1978 -56.693924 136.26846 9734788
52.371254 -56.600201 136.32535 8551030
51.41217 -56.37257 136.43857 9603458
119.39749 -55.494579 102.87419 9209722
118.62143 -55.623032 103.4625 7960425
117.89685 -55.681778 104.04053 8879990
117.10376 -55.632534 104.72656 7761253
116.33865 -55.799675 105.28751 6839895
52.391884 -55.63522 136.70825 7893358
51.467979 -55.516785 136.77725 9208443
50.559078 -55.436287 136.83081 9208443
121.04461 -54.396725 102.01326 11052187
120.37859 -54.481964 102.52989 9078397
119.66391 -54.614452 103.06503 9867394
118.84393 -54.511345 103.79884 9012599
118.06693 -54.659225 104.37884 7958632
117.58022 -54.826023 104.70718 7037274
51.430634 -54.685513 137.10841 8747636
50.435463 -54.580555 137.17375 8813685
49.616196 -54.255417 137.32239 9340285
122.77156 -53.200241 101.13197 9144702
122.13185 -53.351997 101.59537 9999755
121.3943 -53.554218 102.11681 12235947
120.56477 -53.63826 102.77072 10131083
119.76089 -53.545315 103.48627 8946806
119.20257 -53.745979 103.85864 10985361
51.272591 -53.945038 137.40636 9208443
50.725998 -53.599194 137.55676 8945271
49.895512 -53.48748 137.6209 9340029
48.985939 -53.471416 137.64891 9735043
123.92863 -52.292782 100.5913 7302246
123.0838 -52.627487 101.14014 8092016
122.35154 -52.574631 101.77702 9144703
121.54333 -52.478657 102.49763 9868171
120.78136 -52.862255 102.95425 10460051
120.14435 -53.017658 103.41376 8092011
49.84314 -52.655632 137.95262 9142907
48.857933 -52.618961 137.99065 9603457
47.890232 -52.256599 138.1581 9011577
125.38696 -51.40797 99.788086 11380380
124.8577 -51.500259 100.18715 8485494
124.08559 -51.593987 100.78845 8025712
123.26407 -51.598022 101.47321 8355187
122.54068 -51.728706 102.01643 9078910
121.86904 -51.814503 102.53745 9276035
48.867271 -51.660107 138.37175 9274752
47.907612 -51.449936 138.47862 8814200
47.040092 -51.489563 138.48387 10261643
126.37935 -50.420158 99.422874 7893607
125.76054 -50.638577 99.83744 9998728
125.02106 -50.582687 100.48178 10064523
124.23523 -50.468204 101.19237 9801864
123.53784 -50.713799 101.65989 7631466
47.949997 -50.59153 138.81912 8485751
46.907211 -50.640827 138.82477 8946301
46.087444 -50.32943 138.96855 8617079
128.14926 -49.225178 98.505081 6511954
127.52582 -49.442959 98.923798 6840919
126.79121 -49.56913 99.478485 7827814
125.96526 -49.616177 100.14674 8288369
125.23103 -49.641655 100.74848 9867656
124.65328 -49.759148 101.17616 10854036
47.733597 -49.996929 139.06096 8617337
46.99667 -49.617496 139.2298 8617337
45.951923 -49.482212 139.30888 7564650
45.245522 -49.243469 139.42102 7038307
129.21732 -48.373871 98.012383 8946039
128.47165 -48.648884 98.506355 8090986
127.7244 -48.590275 99.158524 6775127
126.90016 -48.487457 99.895706 8616821
126.16873 -48.912556 100.30734 8090991
125.46988 -49.021095 100.84042 8618104
46.775726 -48.8358 139.54613 10261903
46.076534 -48.520443 139.68854 8025201
45.017021 -48.628468 139.67125 7762030
44.446819 -48.284267 139.82202 9341060
130.19087 -47.477341 97.603333 12235178
129.49734 -47.565147 98.158348 9867141
128.66216 -47.609989 98.83532 8617074
127.92276 -47.737091 99.393608 6643543
127.14893 -47.94593 99.942245 8090736
45.397369 -47.690495 140.03523 7301479
44.352863 -47.562157 140.11159 8815224
43.531658 -47.259972 140.25169 8684148
131.64197 -46.246574 96.724808 10853012
131.0806 -46.489197 97.205856 10656144
130.4158 -46.642792 97.832115 11905443
129.65131 -46.601311 98.502892 9734787
128.841 -46.870823 99.033157 8090730
45.17252 -46.911499 140.35063 9341060
44.433643 -46.540588 140.51607 9341822
43.429493 -46.463924 140.57091 8289390
42.66066 -46.361889 140.63016 8420976
132.92229 -45.331116 96.292442 8419695
132.18903 -45.478497 96.986313 9669762
131.5009 -45.73267 97.500359 12761006
130.86073 -45.86343 98.103607 16774119
44.206551 -45.763081 140.83092 8420976
43.373413 -45.653839 140.94267 7697253
42.44709 -45.604187 140.99643 11379863
41.546768 -45.247719 141.23434 7564643
136.13768 -44.288605 94.583794 8682867
135.77094 -44.279873 95.057213 9011575
135.00523 -44.325603 95.736176 8880760
133.9234 -44.66782 95.940407 8223088
133.29587 -44.710445 96.627747 9209467
132.78265 -44.81356 97.070633 9209467
42.464371 -44.911026 141.51941 9340541
41.544571 -44.636292 141.70122 9735042
40.805344 -44.27459 141.86536 9077367
40.077545 -44.128021 141.90456 9537918
150.81599 -43.475159 87.446663 7038560
150.30841 -43.621365 88.219093 7301221
147.96068 -43.809608 88.667648 10853012
147.5311 -43.808022 89.377823 9866373
147.09875 -43.806431 90.086395 10655889
144.72253 -43.807453 90.555206 8814709
144.17429 -43.805531 91.423477 8683124
141.82899 -43.80661 91.85936 11050643
141.27263 -43.804741 92.710083 10063750
139.22626 -43.855053 93.051651 9538176
138.61421 -43.83802 93.853569 11380380
137.65121 -44.006527 94.17028 8946039
136.75887 -44.048626 95.0158 10327176
40.650192 -43.979309 142.62215 8092019
39.88974 -43.899921 142.55353 9209210
39.131332 -43.821312 142.4837 10458505
37.356831 -43.761417 144.15399 10985623
36.313915 -43.7617 144.4189 9209212
35.269119 -43.762001 144.67622 11248278
34.2225 -43.762329 144.92598 9209469
33.523785 -43.762558 145.08862 8090995
32.363384 -43.684422 146.49261 10854036
31.7836 -43.348595 146.37389 9406848
151.54974 -42.251728 87.059906 10392717
151.06891 -42.583015 87.652512 7564645
150.62552 -42.739899 88.306152 7366239
31.650909 -42.588047 146.61769 8485745
31.075439 -42.212975 146.51637 8354159
151.86172 -41.481323 87.075806 10392974
151.34837 -41.54969 87.914215 8683128
31.726654 -41.774273 146.97316 9735812
30.933376 -41.547298 146.71846 9077882
152.49942 -40.571274 86.629196 10787730
152.07053 -40.681492 87.291428 10854036
30.901623 -40.614922 147.07367 11446173
30.235577 -40.282566 146.91574 11379356
153.3291 -39.168736 86.205566 9209467
152.83618 -39.640804 86.71759 9932933
152.39041 -39.796738 87.376007 9538435
30.699081 -39.629856 147.37358 8682867
30.098232 -39.541344 147.14786 9669253
153.60571 -38.493607 86.213966 9735810
153.11868 -38.602932 86.977386 9669761
29.921902 -38.659256 147.4184 8879994
29.207153 -38.152214 147.30789 10261132
154.27704 -37.623402 85.680466 9867908
153.84576 -37.732628 86.347473 12103329
153.41098 -37.899002 86.979568 10656398
29.759693 -37.598541 147.7654 7827564
29.167484 -37.426167 147.57637 9143166
155.11333 -36.215534 85.24929 10263179
154.61708 -36.688694 85.766258 9736835
154.14915 -36.737465 86.540283 11511705
28.936428 -36.570671 147.81274 9406333
155.39255 -35.537155 85.255524 10000007
154.90274 -35.645508 86.024376 9736835
28.863701 -35.822132 148.07573 11116690
28.29425 -35.387028 147.99995 11116690
155.99803 -34.662758 84.83889 9735812
155.58475 -34.728958 85.505737 9868421
155.19771 -34.938244 86.024261 9210491
28.228588 -34.536884 148.30592 9866882
27.50787 -34.326103 148.07628 9735296
156.3235 -33.608353 85.037369 9274749
155.86792 -33.949146 85.578568 9275264
27.962509 -33.661022 148.53513 8814709
27.410324 -33.521378 148.35059 9011831
156.68958 -32.603458 85.130013 9209472
28.019485 -32.944923 148.84158 9209467
27.249557 -32.491661 148.68602 9274751
157.1373 -31.536167 85.126663 9932681
157.00092 -31.963911 85.053535 9012350
27.118954 -31.573009 148.9908 10064011
26.415977 -31.583061 148.68199 9274751
26.960434 -31.012411 149.14261 10064011
26.330296 -30.543758 149.07158 8617080
26.278168 -29.886013 149.48375 8617080
25.543354 -29.480892 149.52556 8288116
24.641613 -29.092541 149.67412 9735046
24.582024 -28.84494 150.45168 7564651
23.625034 -28.784498 150.27147 8353909
20.066971 -28.754082 152.74844 8089963
19.330463 -28.754543 152.84236 7037786
18.224968 -28.755257 152.97697 8025193
17.303055 -28.755867 153.08325 15131610
16.307934 -28.359116 154.2744 16777215
15.720504 -28.306862 154.03998 16777215
15.750972 -27.569952 154.34358 16777215
15.45692 -26.742363 154.54219 16777215
14.884513 -26.324783 154.45827 15066081
15.425849 -25.874037 154.8709 11709351
14.768802 -25.450296 154.75264 9208443
14.556853 -24.629076 154.9843 9998217
13.909858 -24.456469 154.7715 10458769
14.516799 -23.943945 155.23692 10458769
13.896079 -23.479744 155.15047 10985106
13.661876 -22.615705 155.38933 11511449
13.200294 -22.360548 155.28947 12103329
13.610412 -21.828184 155.67737 12235175
12.948096 -21.544474 155.50162 12761259
12.820903 -20.514921 155.85187 12564399
12.096015 -20.236719 155.64684 10525072
12.895442 -19.722664 156.19623 8682867
12.198283 -19.456596 155.99837 7762021
12.034114 -18.599766 156.26454 6775126
11.371757 -18.321983 156.08646 8682867
11.784076 -17.591499 156.55302 8682867
11.198024 -17.561117 156.31065 9341566
11.800742 -17.026478 156.78275 8682867
11.029105 -16.610603 156.61165 8092011
10.258998 -16.196676 156.44041 10065801
10.92398 -15.725777 156.9343 8092011
10.28963 -15.346834 156.92075 12302763
9.5236769 -15.05372 156.82025 10065801
10.068194 -14.588366 157.43573 13486267
9.3560514 -14.498582 157.19981 10656143
8.4471388 -13.973685 157.99236 9208443
7.6715045 -13.949829 157.74345 11182486
4.6936755 -13.748236 160.15034 12432037
3.9215996 -13.748941 160.1702 11445657
2.9563019 -13.749843 160.1904 11182744
0.25470665 -13.357299 161.94374 9275005
-0.3310096 -13.078022 161.7995 9735812
0.18869713 -12.572133 162.22398 8616563
-0.46241066 -12.421912 162.00064 8616563
0.057570718 -11.914055 162.42607 8616563
-0.67612529 -11.451367 162.28975 8616820
-0.59729075 -10.584188 162.66513 9209213
-1.3137596 -10.500721 162.38716 7893615
-0.72976756 -9.9228745 162.86789 9933193
-1.4648445 -9.461503 162.73047 10393487
-1.6484764 -8.5833817 162.99632 9407106
-2.1701591 -8.441184 162.82588 9143935
-1.5214469 -7.9238954 163.31091 8486262
-2.3063819 -7.5124011 163.13222 8814712
-2.5091255 -6.5133109 163.43738 9011576
-3.0954673 -6.5051055 163.1862 9406334
-2.7094581 -5.9112821 163.58727 7958632
-3.2349784 -5.4157505 163.55431 8550769
-3.3087394 -4.5013609 163.88203 8945527
-3.8955619 -4.4961338 163.62952 11906725
-3.5123222 -3.6945837 164.11108 10459537
-4.1861348 -3.4310293 163.9225 9999244
-4.3075871 -2.5797768 164.20512 8090990
-4.8981404 -2.2743723 164.06924 7565675
-4.3182607 -1.6677516 164.56021 9668995
-4.9932179 -1.4056368 164.37064 10721937
-5.1176991 -0.54858077 164.69569 10919829
-5.7137837 -0.24363849 164.68059 9998727
-6.0055394 0.32878286 165.02858 10261899
-6.7187581 0.57245308 164.92159 10459278
-7.1522985 0.98778504 165.71684 10590609
-7.7404103 0.98496372 165.45689 10590609
-15.145226 1.6527348 169.80246 10525329
-15.741998 1.6496379 169.563 12367788
-15.971284 2.496671 169.79747 9604227
-15.867066 3.2780046 170.14201 9735046
-16.600227 3.3432899 169.87915 8946300
-16.026138 3.98879 170.35571 9735046
-16.792282 4.4633994 170.23885 8353651
-16.881355 5.4821887 170.59972 8879993
-17.480019 5.4752445 170.3616 7958377
-16.906113 6.1285019 170.84113 9142907
-17.71447 6.3343439 170.6097 10787988
-17.75058 7.2424221 170.94431 11774883
-18.502563 7.5521712 170.82829 11050902
-18.60878 8.4928122 171.15446 9274235
-19.43219 8.7041826 171.04443 9340027
-18.505661 9.2937002 171.47694 10129541
-19.380249 9.4030066 171.315 9800577
-18.670959 10.021916 171.70482 9011576
-19.452896 10.399662 171.66763 9076856
-20.199875 10.741079 171.62486 9866631
-19.553085 11.555093 172.07286 9998471
-20.37146 11.547442 171.88269 9603459
-20.324211 12.387229 172.18442 9405566
-21.08744 12.493989 171.99586 9537409
-20.439972 13.314308 172.43864 9405566
-21.173958 13.347266 172.23315 9800324
-21.306923 14.093813 172.61874 10655890
-22.17617 14.659087 172.79512 10392975
-22.083092 15.487857 173.16182 7499625
-22.972878 15.602284 173.03986 6907743
-26.458374 16.640795 175.24899 5789256
-27.363182 16.759733 175.13306 5394754
-26.848915 17.604559 175.53197 5920842
-27.481201 17.602135 175.41821 5656902
-27.533325 18.525232 175.74205 6709338
-27.808006 19.236477 176.09975 6973024
109.91151 -58.112675 108.57651 8748916
108.15653 -58.310802 109.44401 8090989
107.3334 -58.222481 109.9252 9406851
106.46268 -58.325798 110.35352 9209473
105.70129 -58.344448 110.75751 9012606
104.64172 -58.489826 111.27068 9275777
103.84085 -58.488113 111.70433 8880503
102.94067 -58.362511 112.24238 7235677
102.13008 -58.286228 112.71183 7301215
101.22221 -58.585514 113.06927 6906720
100.25258 -58.497486 113.62547 7893355
99.427124 -58.415257 114.06544 9669764
98.603294 -58.334965 114.50307 9077372
97.577309 -58.530365 114.89947 9209472
96.707375 -58.539188 115.35378 9933707
95.889854 -58.465031 115.78577 8815227
94.910889 -58.378658 116.30217 9932679
93.934174 -58.2952 116.8163 8353390
93.106102 -58.633545 117.05019 12433069
92.22612 -58.53429 117.56053 9143418
91.255814 -58.458054 118.06856 8879989
90.448593 -58.396622 118.49042 8551280
89.642746 -58.337326 118.91077 10130311
88.623199 -58.444878 119.34056 10064775
87.633209 -58.572857 119.80479 9209467
86.831909 -58.519733 120.22037 9209467
86.031723 -58.4687 120.63454 9932934
85.072739 -58.409939 121.13002 9537667
84.115059 -58.353977 121.62373 9274496
83.1586 -58.300682 122.11572 8880252
82.32386 -58.505177 122.40347 8617081
81.491135 -58.585018 122.81781 10722195
80.54023 -58.540073 123.30769 10261903
79.588501 -58.496605 123.79347 9867400
78.637604 -58.455879 124.27772 9011832
77.845741 -58.423985 124.68017 9406590
77.054466 -58.394115 125.08172 9274492
76.105583 -58.360722 125.56243 9471615
75.157196 -58.33004 126.04185 10590096
74.209267 -58.30201 126.51989 9603713
73.355377 -58.379669 126.87667 9537920
72.582458 -58.432594 127.2303 9077882
71.608841 -58.599155 127.65652 9011832
70.6716 -58.588081 128.14557 9274492
69.72628 -58.572971 128.61896 9866373
68.780212 -58.559994 129.09003 9734787
67.991837 -58.551167 129.48187 9735299
67.20327 -58.544331 129.87299 9867142
66.256859 -58.53849 130.34143 8222573
65.31012 -58.535286 130.80893 8814709
64.362953 -58.534775 131.27559 9077625
63.415394 -58.536922 131.74141 9735555
62.467281 -58.54174 132.20642 8946039
61.676708 -58.547695 132.59334 9932934
60.885666 -58.55566 132.97974 9932934
59.935707 -58.5676 133.44276 8879222
58.98465 -58.581951 133.90459 10589840
58.02639 -58.592655 134.35118 9471615
57.095154 -58.424828 134.86292 9208443
56.34367 -58.370808 135.25966 9077369
55.675156 -58.262074 135.58153 9209467
113.45971 -57.466114 106.89883 11511449
112.75055 -57.414261 107.32793 9932677
111.85504 -57.546906 107.75761 9077630
111.04277 -57.51952 108.20787 9735302
110.15472 -57.589989 108.65908 8090988
109.18491 -57.639786 109.16295 8485744
108.35774 -57.550194 109.64679 9275263
107.56158 -57.51458 110.09177 10788503
106.57158 -57.519089 110.62508 10722709
105.69708 -57.663601 111.03866 8223348
104.80892 -57.575302 111.55492 9801608
103.99268 -57.496021 112.02866 7696229
103.1308 -57.607597 112.44887 7762022
102.08977 -57.593933 113.01719 9011831
101.29922 -57.632629 113.42871 10064261
100.4846 -57.557934 113.88758 8287595
99.522255 -57.512157 114.38161 11248023
98.620964 -57.569733 114.802 10590351
97.722557 -57.62928 115.22011 8683642
96.766853 -57.589874 115.70618 8881278
95.947403 -57.517029 116.13866 10919831
95.151382 -57.556808 116.51428 9998472
94.107086 -57.550213 117.03075 7366751
93.250214 -57.669552 117.40437 6511954
92.438026 -57.604813 117.82999 10459278
91.46524 -57.529583 118.33885 10721935
90.524422 -57.506504 118.81104 10261640
89.645569 -57.584259 119.21219 8880245
88.776154 -57.604115 119.63196 10525069
87.833603 -57.647797 120.07816 9472639
86.869804 -57.585217 120.5775 10459278
86.067749 -57.535122 120.99224 9538432
85.266701 -57.487057 121.40566 9208703
84.330482 -57.53973 121.84512 9077374
83.310013 -57.563553 122.33767 9208960
82.457924 -57.63052 122.72993 9538180
81.678223 -57.665863 123.09937 10064523
80.723236 -57.620296 123.58753 9735816
79.769188 -57.5774 124.07415 10459025
78.815971 -57.53722 124.55931 8748660
78.02224 -57.50573 124.96255 9406590
77.228996 -57.476223 125.36479 9603714
76.308777 -57.490349 125.812 10261644
75.293053 -57.596233 126.26951 9142906
74.343323 -57.568542 126.74834 8682867
73.393974 -57.543461 127.22596 9275005
72.603073 -57.524559 127.62305 9209468
71.780006 -57.690773 127.96164 9275261
70.831757 -57.672703 128.43593 9011832
69.883537 -57.657288 128.90912 9143162
68.935303 -57.644478 129.38123 10459022
68.086021 -57.582855 129.82416 10064777
67.30761 -57.674473 130.17079 9866885
66.406143 -57.623238 130.63531 8354159
65.45726 -57.620106 131.1039 8683124
64.507965 -57.619564 131.57161 8682867
63.558247 -57.62167 132.03847 9209211
62.640579 -57.671932 132.47025 8617074
61.891548 -57.579479 132.87622 9011832
61.0228 -57.640175 133.27972 8156780
60.070683 -57.651936 133.74388 9537152
59.117779 -57.666344 134.20743 10326668
58.163929 -57.683369 134.67032 9537664
57.394146 -57.516266 135.11647 9208443
56.597389 -57.534336 135.50162 11906980
55.536613 -57.589073 135.84206 11051927
54.576374 -57.364235 135.96935 9209467
115.2892 -56.262676 105.94717 7037274
114.49788 -56.499165 106.4975 9275004
113.7982 -56.630001 107.02007 8682866
112.96539 -56.539845 107.57008 7564643
112.04442 -56.582481 108.05032 7564651
111.12701 -56.627048 108.52795 9735302
110.26472 -56.525021 109.03584 10129800
109.46057 -56.606037 109.43739 8683124
108.44376 -56.582027 109.99687 9867143
107.55392 -56.606663 110.46783 9933195
106.74258 -56.602135 110.90826 9275266
105.86347 -56.459156 111.44205 10129545
105.05095 -56.629482 111.81152 11314076
104.00195 -56.612511 112.38554 10525070
103.21893 -56.727337 112.7618 9143160
102.34418 -56.763504 113.21986 13879738
101.42542 -56.720436 113.7341 11314327
100.50572 -56.790989 114.18747 6510930
99.570641 -56.79694 114.64522 8353907
98.713203 -56.773758 115.07646 10195594
97.902977 -56.775749 115.47443 8223348
96.94532 -56.842457 115.91891 8881277
95.960144 -56.756298 116.43831 11906725
95.097183 -56.873047 116.81587 9406335
94.280014 -56.805248 117.24522 7366751
93.301308 -56.726433 117.75842 9143418
92.444977 -56.848663 118.13062 10459278
91.632736 -56.78693 118.55505 9801347
90.55825 -56.802216 119.07758 8025193
89.809471 -56.843002 119.42956 8354159
89.001732 -56.787304 119.84937 11051156
88.033951 -56.722851 120.35148 12038051
87.128441 -56.758595 120.78264 10788499
86.22448 -56.796417 121.21217 9538432
85.421852 -56.748882 121.62615 9866887
84.365204 -56.838154 122.11015 8617081
83.461357 -56.826519 122.55953 8748667
82.502266 -56.777107 123.05126 10393231
81.703865 -56.737926 123.45983 9604230
80.906204 -56.700684 123.86727 10196365
80.006393 -56.697914 124.31113 9932678
78.958649 -56.802406 124.78461 10524047
78.004448 -56.765373 125.26903 9603457
77.209755 -56.73642 125.67176 8814203
76.319 -56.798523 126.08512 9406338
75.428963 -56.862694 126.49731 9208700
74.477386 -56.835205 126.97678 8879734
73.526215 -56.810425 127.45511 9866629
72.733856 -56.791679 127.85286 9341054
71.941635 -56.774937 128.24973 9011832
70.99115 -56.75708 128.72498 9735299
70.040779 -56.741852 129.19917 9603457
69.090347 -56.729237 129.67227 9603713
68.139877 -56.7192 130.14439 9867142
67.347733 -56.712772 130.53708 9735299
66.555412 -56.708248 130.92914 8617330
65.60437 -56.70517 131.39876 8814709
64.652901 -56.704643 131.86752 8814453
63.701019 -56.706699 132.33546 9077625
62.907433 -56.710358 132.72485 9472383
62.113365 -56.715942 133.11365 9275004
61.159897 -56.724934 133.57959 8682867
60.205658 -56.736504 134.04492 9142394
59.250626 -56.750713 134.50957 10129289
58.294621 -56.76754 134.9736 9735043
57.497307 -56.783451 135.35991 9998215
56.699135 -56.801296 135.74579 10985622
55.671783 -56.713661 136.17403 10328204
54.637764 -56.496155 136.31282 9209467
53.756409 -56.515556 136.32603 9734788
116.89752 -55.178158 105.11244 7037274
116.22136 -55.295963 105.62228 7629667
115.54333 -55.549141 106.07001 8617075
114.72581 -55.644897 106.70836 8814710
113.92397 -55.561508 107.40285 7433059
113.05254 -55.644325 107.88992 7564645
112.2336 -55.61816 108.34328 8419699
111.33711 -55.755413 108.77152 9143677
110.46745 -55.661049 109.28017 10590352
