# .PCD v0.7 - Point Cloud Data file format
VERSION 0.7
FIELDS x y z rgb
SIZE 4 4 4 4
TYPE F F F U
COUNT 1 1 1 1
WIDTH 1196
HEIGHT 1
VIEWPOINT 0 0 0 1 0 0 0
POINTS 1196
DATA ascii
59.841614 -63.892235 -102.28283 7761766
60.732529 -63.932163 -101.84482 7169371
61.623936 -63.975777 -101.40511 7563361
62.51601 -64.023384 -100.96353 7169116
63.446564 -64.013504 -100.52699 6117453
64.310181 -63.903572 -100.16242 8090987
65.259743 -63.875031 -99.72438 9472639
66.156189 -63.937878 -99.274628 10985364
67.053711 -64.004471 -98.822891 7828071
67.952492 -64.075134 -98.368912 7301470
68.804787 -64.065331 -97.969383 8025193
69.753967 -64.228096 -97.454391 7695459
70.656891 -64.310448 -96.993729 8089960
71.544266 -64.381538 -96.5075 9866112
72.419182 -64.14489 -95.933907 9274488
73.143478 -64.061256 -95.360886 8551280
73.914246 -63.980881 -94.747047 8814451
74.721115 -63.995098 -94.057144 8157040
75.471581 -63.943237 -93.446732 8354161
76.148087 -63.738094 -92.972565 8551281
46.01017 -62.514515 -109.39021 11182228
46.523842 -62.503262 -109.15141 10721934
47.492447 -62.58876 -108.65816 11905696
48.220913 -62.707375 -108.2652 9143167
49.203812 -62.907948 -107.7187 9143167
50.040169 -62.924717 -107.3158 8814970
50.948872 -63.050064 -106.83478 7433064
51.802528 -63.079899 -106.41843 8025200
52.694885 -63.085232 -105.99363 9275008
53.612415 -62.938393 -105.61832 8419695
54.504581 -62.95116 -105.19061 7301214
55.396626 -62.967461 -104.76153 7038042
56.268497 -62.955853 -104.35327 6774358
57.335365 -62.859245 -103.88694 7103067
58.227932 -62.887234 -103.4529 8682355
59.120762 -62.919155 -103.01716 9340286
60.013905 -62.954613 -102.57979 7893352
60.907509 -62.994034 -102.14065 8090474
61.801605 -63.037033 -101.69983 11049617
62.655979 -63.110523 -101.2655 7235166
63.516228 -63.256733 -100.79905 6643541
64.488113 -63.18914 -100.36602 10854037
65.385384 -63.247463 -99.917747 10459278
73.320816 -63.399471 -95.528679 7630434
74.084068 -63.128696 -95.012611 7432799
74.863251 -63.080563 -94.376144 8814194
75.634056 -63.007778 -93.758621 8617075
76.440971 -63.055634 -93.052979 8485489
77.192413 -62.904163 -92.490868 9406334
77.870865 -62.705814 -92.013367 9932934
41.486107 -61.736088 -111.84714 7564651
42.134796 -61.709003 -111.55092 8682615
43.077171 -61.796368 -111.0693 9537150
43.926392 -61.798027 -110.6664 9340542
44.808968 -61.925709 -110.19682 8289140
45.710987 -61.90163 -109.7793 10195591
46.611961 -61.881065 -109.36089 9537918
47.511871 -61.864326 -108.9414 11313814
48.417545 -61.963894 -108.47225 9143167
49.285732 -61.997173 -108.04762 9274497
50.182774 -61.991261 -107.62515 9537668
51.079128 -61.989185 -107.20142 8354165
51.974972 -61.990608 -106.77655 10459282
52.870377 -61.995827 -106.35036 9011837
53.79092 -61.849106 -105.9736 6643545
54.686142 -61.861641 -105.54451 8222060
55.581257 -61.877716 -105.11405 8090474
56.415779 -62.000275 -104.66933 7234653
57.47197 -62.080322 -104.13675 7761253
58.28894 -62.183792 -103.70805 7958632
59.233658 -62.295341 -103.21555 8682611
60.12859 -62.330509 -102.77748 8616819
75.0429 -62.339607 -94.580368 8945263
75.876564 -62.065319 -94.008186 8880247
76.62458 -61.926167 -93.443222 8222573
77.396637 -61.921074 -92.793144 10195594
78.167809 -61.919495 -92.142128 10459019
78.905983 -61.764172 -91.593269 11511193
79.712166 -61.454895 -91.061348 8551540
35.124763 -60.571629 -115.38029 10853525
35.977364 -60.592701 -114.97299 12038054
36.728363 -60.699051 -114.53703 8747893
37.70047 -60.849766 -114.00098 7169631
38.658913 -60.850208 -113.55659 8221803
39.520462 -60.908558 -113.1291 8682351
40.446182 -60.986992 -112.66106 8353650
41.329556 -60.978603 -112.24965 7630444
42.241386 -60.941975 -111.83699 7893359
43.108749 -60.996101 -111.39102 9800580
44.031929 -61.023598 -110.93591 9406851
44.939133 -60.997726 -110.52113 8881021
45.845016 -60.975491 -110.10514 9932935
46.749702 -60.956566 -109.68787 9143418
47.653248 -60.941204 -109.26926 9603968
48.55574 -60.92918 -108.84933 9143675
49.416363 -60.947216 -108.4315 9011581
50.325123 -61.059441 -107.93391 9340289
51.224068 -61.057396 -107.509 9669510
52.122498 -61.058758 -107.08289 10854296
52.99548 -61.219074 -106.60468 8353651
53.892735 -61.227734 -106.17627 6446169
76.918472 -61.139671 -93.574707 8551281
77.617851 -61.039982 -93.059494 8157555
78.427361 -60.852837 -92.53875 10524813
79.203613 -60.880066 -91.859314 9867139
79.985596 -60.832352 -91.242439 9078138
80.733299 -60.795765 -90.633995 9341823
81.575409 -60.601936 -90.107468 9012601
23.877371 -59.590916 -121.52028 8156531
24.59256 -59.566414 -121.32944 11905694
25.34215 -59.642685 -120.86694 12564391
26.41559 -59.682373 -120.25359 9472638
27.292427 -59.701538 -119.86742 9273718
28.203716 -59.713585 -119.46859 9734527
29.020994 -59.77454 -118.97002 9471359
29.956503 -59.871983 -118.427 8748660
30.840734 -59.795116 -118.12057 9603969
31.704166 -59.889568 -117.62695 9143417
32.570076 -59.896034 -117.21341 9801091
33.482265 -59.98204 -116.66851 7498849
34.39032 -60.005684 -116.23609 9077882
35.248695 -59.95578 -115.88298 9011834
36.181137 -59.989288 -115.38656 9669251
37.082794 -60.072495 -114.89104 9143163
37.956444 -60.029556 -114.51862 9274746
38.848473 -60.144447 -113.99848 7893097
39.803818 -60.053261 -113.62849 7695718
40.641945 -60.192566 -113.1134 7892839
41.591991 -60.120129 -112.72965 7827822
42.382935 -60.190327 -112.29675 8354165
43.334419 -60.318367 -111.74006 10129546
44.189476 -60.321304 -111.33603 9144193
45.064102 -60.431572 -110.83155 10459282
45.975044 -60.412575 -110.41985 10985112
46.884338 -60.396542 -110.00647 9538175
79.508095 -60.312458 -92.151711 10459019
80.277458 -60.201637 -91.613083 10590092
81.092751 -60.088821 -91.03756 9407871
81.812164 -60.08918 -90.428162 9276029
82.672066 -59.917267 -89.922348 9341822
83.536659 -59.82473 -89.327469 9932422
84.373833 -59.648438 -88.898567 9076601
85.261292 -59.527397 -88.406067 9274493
86.109421 -59.476418 -87.894165 12104098
86.754662 -59.488541 -87.293404 10656655
8.1499319 -58.726517 -130.18271 9735815
8.8613577 -58.92738 -130.0735 9802121
9.8902159 -58.974163 -130.00459 9998985
10.561301 -59.243423 -129.04379 10262156
11.640109 -59.242176 -128.95456 9340545
12.317294 -59.240604 -128.22244 9472642
13.402949 -59.239166 -127.94906 9998985
14.065475 -59.237591 -127.21483 10130315
15.140113 -59.236099 -126.92837 10590608
15.928638 -59.234531 -126.33987 9011321
16.851692 -59.233105 -125.89281 8287853
17.768803 -59.231586 -125.44257 9472383
18.537727 -59.230064 -124.8429 8880762
19.585922 -59.228584 -124.52345 9868423
20.198132 -59.227028 -123.77887 10789524
21.232143 -59.225765 -123.60814 9736836
22.030598 -59.237949 -122.96371 9800838
22.977245 -59.339058 -122.34443 9406339
23.859615 -59.353523 -122.21095 8156531
24.822636 -59.399975 -121.72346 10261644
25.838163 -59.410271 -121.22144 10591117
26.574583 -59.466835 -120.70956 8683123
27.561377 -59.419888 -120.39314 9142904
28.264854 -59.387394 -120.16467 10261132
29.423014 -59.489986 -119.31871 9208187
30.120455 -59.460236 -119.08467 9010808
86.328331 -59.327381 -88.326866 12498343
87.221565 -59.305462 -87.656097 10261383
87.934425 -59.292652 -87.101074 8748659
88.704659 -59.273228 -86.524864 7959400
89.716484 -59.166599 -86.176834 8090986
90.37162 -59.170338 -85.534561 8880246
91.477631 -59.12442 -85.060181 8748917
92.321411 -59.113876 -84.659004 8485745
93.14724 -59.103188 -83.9534 9405561
94.104637 -59.10202 -83.841118 8353645
94.940193 -59.100319 -83.132095 11775138
95.860435 -59.098957 -82.809692 12827826
96.735146 -59.097416 -82.281693 14407114
97.610344 -59.09586 -81.747002 11840420
98.531746 -59.094482 -81.402008 7367269
99.353905 -59.092739 -80.652939 7630443
100.32973 -59.091503 -80.492676 8748149
101.14681 -59.089756 -79.727341 7039331
102.12885 -59.088501 -79.553528 7960175
102.78735 -59.086815 -78.694466 9472641
103.83508 -59.085701 -78.708786 7894381
104.48675 -59.084007 -77.835541 9538437
105.4806 -59.082703 -77.636093 9406850
106.27996 -59.080921 -76.823181 7630179
107.17184 -59.079807 -76.687836 8485488
107.98287 -59.078049 -75.909691 7958632
109.15089 -59.076614 -75.756493 9536891
109.77715 -59.074898 -74.83831 7695714
110.86486 -59.073681 -74.802063 8353901
111.76988 -58.976509 -74.122292 8946037
112.62911 -58.801514 -73.797646 8353643
113.25333 -58.75285 -73.105453 8353646
113.94217 -58.620724 -72.473312 7695461
7.2869487 -57.680286 -130.60834 9012606
8.0108709 -57.900963 -130.49124 9473156
9.0082998 -57.937435 -130.42766 9802121
112.86256 -58.097855 -73.928551 10392712
113.59441 -57.749393 -73.325516 6840663
114.24301 -57.812912 -72.587982 8221805
114.85622 -57.758743 -71.953064 9143163
6.4718471 -56.582268 -131.05035 7366237
7.0923228 -56.910992 -130.89905 7762025
8.1437864 -56.941799 -130.83481 8420983
8.9616461 -57.244164 -130.68317 7565675
113.80761 -57.073391 -73.463303 6511954
114.39652 -56.859253 -72.94194 9208187
115.10786 -56.852455 -72.174789 7432032
115.79113 -56.773056 -71.477692 8090733
6.2083125 -55.883129 -131.31895 7695201
7.2663417 -55.92244 -131.25128 7630182
8.0471869 -56.087582 -131.15167 9012606
114.77957 -56.121937 -72.929108 8089962
115.3364 -55.871506 -72.462288 7695204
115.97684 -55.892529 -71.75676 9668995
116.61829 -55.915894 -71.048874 8288884
117.17884 -55.669178 -70.576004 10261132
5.3455806 -54.830769 -131.74677 8024164
6.3404078 -54.93626 -131.65811 8484971
7.2038646 -55.016857 -131.58516 7565675
115.75654 -55.17157 -72.388855 11379356
116.27129 -54.973751 -71.93895 10063752
116.92663 -54.906246 -71.265556 8814454
117.65458 -54.901783 -70.479126 9669763
118.31477 -54.505474 -69.979919 8156011
4.542419 -53.87656 -132.13573 11051158
5.4091678 -53.953121 -132.06409 9603195
6.4062419 -54.05854 -131.9753 9669245
117.10426 -54.026237 -71.553207 7432288
117.72746 -53.974163 -70.906288 7563875
118.54813 -53.789097 -70.117874 8222060
119.18458 -53.569889 -69.547737 8681843
3.6828151 -52.815346 -132.56656 11906725
4.4725604 -52.972858 -132.46925 11511966
5.5396419 -53.006924 -132.40305 11182744
118.09364 -53.077904 -70.998367 6510930
118.7753 -52.857327 -70.380035 8748663
119.49574 -52.759525 -69.652634 7366754
120.02345 -52.72998 -69.096901 5919050
2.8976436 -51.673367 -133.02318 12433069
3.6257281 -51.994225 -132.86932 12104104
4.6009364 -52.026711 -132.8083 11709346
5.271461 -52.3097 -132.6712 10787985
118.90369 -52.227463 -70.584518 10064780
119.65623 -51.79995 -70.002144 7695977
120.34925 -51.797054 -69.252472 7432545
120.96703 -51.654144 -68.660263 8287854
2.1066165 -50.697365 -133.41949 10261900
2.7821193 -50.976406 -133.28354 11577760
3.696876 -51.007557 -133.22607 11775138
4.4370685 -51.220066 -133.11118 11117208
120.05116 -51.060497 -69.976334 7893096
120.60915 -50.768238 -69.530022 8879991
121.28082 -50.841671 -68.761551 8748405
121.91663 -50.795334 -68.097076 9735300
1.8808208 -49.996304 -133.68687 6051660
2.863502 -50.000877 -133.63571 8486257
3.5966144 -50.241829 -133.51077 9143930
120.83183 -50.0877 -69.658432 8813942
121.44254 -49.879078 -69.109451 8353391
122.14242 -49.877491 -68.351196 8221549
122.77613 -49.84774 -67.679977 8484721
123.30935 -49.65564 -67.206108 8089963
1.0234485 -49.004265 -134.09239 7696228
1.9085689 -49.027142 -134.03943 7301728
2.7516818 -49.177647 -133.942 6973531
121.8417 -49.137959 -69.079498 7563619
122.41979 -48.89143 -68.58638 9208700
123.08428 -48.920628 -67.849762 8550514
123.75037 -48.951908 -67.110245 9735298
124.44849 -48.365902 -66.6716 10853521
0.080928266 -47.880302 -134.55035 8814709
0.99170631 -48.084419 -134.4299 8814709
2.0081363 -48.179245 -134.34407 7828588
123.23585 -47.992809 -68.189804 8946550
123.87995 -47.945827 -67.516693 8223340
124.62115 -47.852005 -66.763718 9867139
125.28902 -47.513557 -66.223297 8682867
-0.62037331 -46.796791 -134.98141 8089963
0.12225288 -47.112339 -134.82874 9669763
1.1127772 -47.137321 -134.76967 9209468
1.7962337 -47.415081 -134.63379 8486262
124.19968 -47.129547 -67.613693 8289390
124.85884 -46.874603 -67.062149 8617842
125.62247 -46.726528 -66.335068 9603711
126.30532 -46.542587 -65.731361 10523527
-15.662805 -46.476791 -143.32861 8813939
-14.774297 -46.380753 -143.12877 8748406
-13.889085 -46.28495 -142.92404 7498856
-13.182855 -46.208561 -142.75746 7762027
-12.191747 -46.098251 -141.30797 8353647
-11.323182 -46.004307 -141.09525 8682867
-10.284787 -45.891956 -140.83435 7169892
-9.250947 -45.780075 -140.56723 7366499
-8.4863901 -45.694248 -139.18686 8682867
-7.8078656 -45.620808 -139.00598 9603455
-2.4141011 -45.61248 -135.82397 11905692
-1.6970372 -45.698277 -135.65388 11379349
-0.81781441 -46.090664 -135.29596 8550513
0.18488258 -46.126568 -135.19261 9142907
0.83100456 -46.27845 -135.0976 9142907
125.0153 -46.323177 -67.360184 9341307
125.95048 -46.006969 -66.700012 9208435
126.64355 -45.872375 -66.098785 11444630
127.28502 -45.857624 -65.418541 10524043
128.15807 -45.605217 -64.754448 7695972
128.79146 -45.396236 -64.301567 7959144
-6.9604459 -45.518749 -138.74432 10852751
-6.1095204 -45.366936 -138.32532 10459795
-5.0947003 -45.180618 -137.80298 11314846
-4.0851026 -45.064499 -137.20377 11709090
-3.3554883 -45.099594 -136.93811 7563619
-2.5891805 -45.24094 -136.37427 7958633
-1.6400418 -45.256966 -136.10777 10985365
-0.54687554 -45.476536 -135.72711 8353135
127.72148 -45.19677 -65.68969 9405816
128.4283 -44.969841 -65.211807 7958889
129.12643 -44.930214 -64.467667 8616305
129.98698 -44.589176 -64.505966 8089963
68.341278 -63.46653 -98.430054 6511954
69.010643 -63.649998 -98.039284 6511954
69.795166 -63.772831 -97.618301 7367006
70.690765 -63.807831 -97.180229 8353132
71.588425 -63.78968 -96.74884 8879219
72.167519 -63.749958 -96.3367 11181201
62.993565 -62.547348 -101.33297 7761766
63.683254 -62.665329 -100.95869 6972250
64.580948 -62.719563 -100.5116 10524560
65.47953 -62.777451 -100.06268 10525071
66.347427 -62.996178 -99.563591 9998729
67.286476 -63.001118 -99.117004 7565417
68.080147 -62.940037 -98.765892 6840662
69.03083 -62.85466 -98.350204 6511954
69.894684 -62.95686 -97.900017 6511954
70.84185 -62.991829 -97.437531 8287339
71.733421 -62.862499 -97.055405 7432031
72.569374 -62.921364 -96.394493 8615791
73.314552 -62.835377 -95.804985 7827557
74.012672 -62.565739 -95.343475 8353900
56.657814 -61.589622 -104.72047 7695204
57.55381 -61.613621 -104.28642 7958632
58.478931 -61.767284 -103.7862 8419439
59.318153 -61.82814 -103.36416 9538688
60.214462 -61.863068 -102.92554 9142907
61.082138 -62.057808 -102.43594 8813941
62.008469 -61.944378 -102.04301 7892584
62.897625 -61.881035 -101.64744 7301215
63.835522 -61.884342 -101.20187 6709334
64.694786 -61.964241 -100.76263 7103839
65.591125 -61.960693 -100.33953 8486263
66.409454 -62.04744 -99.916916 8223605
67.325294 -61.922218 -99.533707 8354677
68.281944 -61.86673 -99.103012 9077113
69.188507 -61.938606 -98.644753 8485229
70.096451 -62.014194 -98.184402 6906712
71.040184 -61.936707 -97.768814 7695457
71.995102 -61.948429 -97.293015 7037274
72.783043 -61.850319 -96.728104 7234653
73.560966 -61.826416 -96.081223 8747888
74.352272 -61.854332 -95.398506 8945264
75.094635 -61.751431 -94.820625 8945263
75.776283 -61.544399 -94.344513 10195590
49.908119 -60.629372 -108.38851 9340289
50.424137 -60.627708 -108.14759 9340289
51.326145 -60.627163 -107.72447 9800582
52.227238 -60.629498 -107.29929 9406338
53.086487 -60.771931 -106.78902 8551029
53.985222 -60.780479 -106.35983 7564392
54.852283 -60.941738 -105.86794 9734788
55.749779 -60.957184 -105.43562 8156011
56.647076 -60.976257 -105.00144 7695204
57.672436 -61.002205 -104.5031 8090218
58.612862 -60.889267 -104.1423 8814709
59.475887 -60.945759 -103.69868 10065288
60.378201 -60.917343 -103.29479 9472127
61.27087 -61.014526 -102.81081 8418928
62.196323 -60.846764 -102.46487 7234653
63.050945 -60.944168 -101.99809 6774358
63.947868 -60.932339 -101.57716 6775129
64.805885 -61.007088 -101.13059 7564393
65.707077 -61.060928 -100.6759 9077627
66.60907 -61.118134 -100.21912 9144191
67.445312 -61.109428 -99.815552 8814458
68.412636 -61.240585 -99.2939 10261132
69.321045 -61.311832 -98.834908 9471867
70.230759 -61.386715 -98.373741 6314575
70.751381 -61.431114 -98.109238 5920074
72.92173 -61.220863 -96.913376 7037274
73.677864 -61.073032 -96.371094 8288106
74.489227 -60.930069 -95.806358 10656137
75.256042 -60.881165 -95.200623 10721930
76.067749 -60.896873 -94.500397 11314070
76.837761 -60.767227 -93.95826 9866631
77.623421 -60.648415 -93.405777 7828847
78.155403 -60.579563 -93.025345 7565675
35.808655 -59.554291 -116.14306 7762027
36.489887 -59.534695 -115.89202 9537665
37.44146 -59.50869 -115.53667 9932934
38.51696 -59.621666 -114.64127 8682867
39.056309 -59.60878 -114.43338 7761512
39.997421 -59.587494 -114.06634 7300962
40.88213 -59.671394 -113.54201 8418671
41.812065 -59.645634 -113.15149 8616823
42.73769 -59.709141 -112.64963 9734789
43.616592 -59.71632 -112.23227 9537152
44.538315 -59.695549 -111.82901 9012093
45.394951 -59.77578 -111.34324 11445663
46.236115 -59.84119 -110.86321 10984854
47.151951 -59.849419 -110.37064 9537919
47.963207 -60.029652 -109.83018 9472639
48.916962 -59.947445 -109.46212 9340796
49.781361 -60.015041 -108.99361 8814199
50.73362 -59.938793 -108.62039 8748409
51.555573 -60.042747 -108.13146 8748666
52.465763 -60.074711 -107.66049 8946555
53.335258 -60.130554 -107.20401 9208702
54.31308 -60.09174 -106.77794 7761770
55.180698 -60.153797 -106.31738 7169629
56.065239 -60.141689 -105.91208 7497825
56.914154 -60.310818 -105.36907 7168860
57.765232 -60.311485 -104.9688 8090218
58.617134 -60.253719 -104.6178 8880502
59.613449 -60.229713 -104.17031 8617586
60.384201 -60.255211 -103.78667 9209723
75.616402 -60.335815 -95.4226 11972510
76.383354 -60.218529 -94.892677 12761774
77.166939 -60.139267 -94.309875 10787476
77.946968 -60.018135 -93.772675 9932681
78.77491 -59.990517 -93.136093 10919317
79.593361 -59.818153 -92.659607 12563623
80.509285 -59.659832 -92.193283 11379350
81.294998 -59.570507 -91.709587 10261641
82.210335 -59.493225 -91.150528 9144443
83.065849 -59.436043 -90.658218 9341822
83.722481 -59.442467 -90.071426 10459022
10.382049 -58.684448 -130.08563 10262156
11.102336 -58.911919 -129.96542 10195596
12.09632 -58.952324 -129.88652 8617080
12.892344 -59.240944 -129.0513 9538180
13.795138 -59.239647 -128.74834 9209211
14.600638 -59.238102 -128.15767 11248538
15.54082 -59.236557 -127.71327 9603969
16.474991 -59.235031 -127.26564 10261899
17.260551 -59.23354 -126.66344 9998727
18.326038 -59.232002 -126.35132 12236201
18.954456 -59.230473 -125.59926 10656914
20.003849 -59.229145 -125.43899 9736836
20.734459 -59.227692 -124.83067 9736836
21.662823 -59.226135 -124.34678 9473151
22.703739 -59.224426 -123.83846 9472129
23.442997 -59.222954 -123.21377 7959152
24.474133 -59.229736 -122.8718 7564651
25.17371 -59.228119 -122.40816 9801607
26.068621 -59.218563 -121.88154 8946295
26.928888 -59.264996 -121.34055 8814709
27.8055 -59.238892 -121.06857 9275260
28.664135 -59.278816 -120.31776 9931910
29.539543 -59.26627 -120.06046 9339773
30.453543 -59.291962 -119.54995 9273980
31.288881 -59.335228 -118.91885 10524556
32.211113 -59.288982 -118.63445 9472125
33.160667 -59.332172 -118.10423 10261384
33.941811 -59.38982 -117.52397 6840923
34.90424 -59.357086 -117.17603 7169893
35.864525 -59.326069 -116.82388 8222576
36.584522 -59.342564 -116.44029 9143418
37.574474 -59.352516 -115.9512 9735555
38.458397 -59.405327 -115.38195 9011832
39.29248 -59.409912 -114.98153 8419697
40.280273 -59.437996 -114.43884 7695460
41.22179 -59.417709 -114.06316 8484464
42.1614 -59.399105 -113.68327 9340287
82.719734 -59.283604 -91.587524 8617587
83.271004 -59.287979 -91.099152 9736836
84.175385 -59.258911 -90.448456 10327693
84.897644 -59.240364 -89.909454 10458254
85.692711 -59.229588 -89.276001 9010808
86.773979 -59.15279 -88.907722 11642523
87.42057 -59.151859 -88.38044 10524555
88.37677 -59.11277 -87.865387 8419695
89.291481 -59.111237 -87.385887 7959400
90.194069 -59.109982 -87.135918 9932419
90.917137 -59.108341 -86.377274 8682867
91.842369 -59.107018 -86.093239 9274748
92.832924 -59.105267 -85.492577 9143419
93.741982 -59.103699 -84.973335 8222316
94.648781 -59.102394 -84.687744 8946039
95.351067 -59.100739 -83.891663 9143418
96.323524 -59.099545 -83.769798 11182488
97.162254 -59.09782 -83.042328 15195094
98.09359 -59.096432 -82.707191 9011833
98.975304 -59.094864 -82.163498 7696232
99.857567 -59.093288 -81.612923 7235170
100.78999 -59.091877 -81.254814 8089962
101.53304 -59.090397 -80.659286 7300960
102.51022 -59.089092 -80.438873 8091761
103.17646 -59.087399 -79.576782 8946556
104.32842 -59.086033 -79.472176 7565163
104.98649 -59.084332 -78.594742 8092019
106.05425 -59.083183 -78.602249 9538693
106.70455 -59.08147 -77.710052 8814198
107.87504 -59.080059 -77.576553 8024170
108.51661 -59.078335 -76.669052 8747892
109.67325 -59.025551 -76.659737 9668479
110.40887 -58.822174 -76.039696 7366749
111.23246 -58.726269 -75.352226 6643283
111.80503 -58.742813 -74.722702 10853262
9.5746565 -57.742504 -130.47032 9144449
10.194652 -57.912292 -130.37706 9341570
11.243503 -57.95282 -130.30939 9603459
12.057025 -58.263222 -130.15509 8617080
110.7611 -58.078068 -76.21666 5393730
111.33237 -57.894314 -75.69783 6446161
112.01096 -57.986656 -74.912094 9800575
112.6452 -57.800026 -74.326538 12103072
113.26846 -57.370655 -73.88533 8682608
8.6635275 -56.583576 -130.93948 7565675
9.3219748 -56.875164 -130.79979 9933708
10.377017 -56.924038 -130.72876 9341054
11.14992 -57.261364 -130.56665 8682867
111.71947 -57.119648 -75.700958 6709076
112.29317 -56.937267 -75.178757 9208438
112.94186 -56.99387 -74.444885 12760745
113.69749 -56.715363 -73.777985 7893094
114.2378 -56.418205 -73.354485 7037274
8.4547224 -55.876846 -131.20807 8815484
9.4620733 -55.928516 -131.13846 11183259
10.345145 -56.154312 -131.01147 9867141
112.61126 -56.272102 -75.196945 11181714
113.17451 -56.012962 -74.727913 12498605
113.89665 -55.846001 -74.03643 8813941
114.62032 -55.681313 -73.342072 8024425
115.21207 -55.466942 -72.817642 6510930
7.631187 -54.86874 -131.61772 8092018
8.5420866 -54.936424 -131.54707 8881020
9.4526777 -55.006115 -131.47575 9867401
113.46967 -55.307163 -74.793098 8813941
114.01098 -55.00806 -74.369713 8287597
114.77164 -54.729614 -73.697289 7760997
115.4271 -54.791069 -72.95343 7892583
116.00945 -54.615135 -72.418289 10524815
6.7269015 -53.728825 -132.07959 10919572
7.6170077 -53.947578 -131.95485 9341570
8.6133146 -54.058994 -131.86395 9472900
114.44128 -54.352612 -74.261017 8813941
115.07154 -53.923367 -73.812141 6774102
115.71624 -53.739513 -73.21376 7367007
116.40791 -53.84037 -72.409218 10327692
116.99313 -53.665386 -71.870438 9406590
5.9005885 -52.635353 -132.52055 11906725
6.6867251 -52.961815 -132.36174 11642778
7.7532535 -53.00211 -132.29327 11708831
8.4192381 -53.290817 -132.15427 11906725
115.92677 -52.982193 -73.398804 6511442
116.54528 -52.842888 -72.804504 9406590
117.28358 -52.879456 -71.984512 7367007
117.91756 -52.680626 -71.405914 7432288
5.1207156 -51.653446 -132.91843 11314587
5.8463321 -51.978344 -132.76321 11906208
6.8611674 -51.975323 -132.7132 10063491
7.4924121 -52.139046 -132.62158 10260870
116.91109 -52.029716 -72.851761 10854036
117.49929 -51.853268 -72.310562 9143164
118.16378 -51.918358 -71.554993 8090479
118.79205 -51.865246 -70.90313 7959408
4.336349 -50.673244 -133.31601 10459534
5.0096049 -50.955929 -133.17877 9801603
5.923511 -50.992275 -133.11946 8090218
6.6619525 -51.208912 -133.00314 8089960
117.82752 -51.186958 -72.318375 9143167
118.40564 -50.932419 -71.830582 9406595
119.12591 -50.929928 -71.050919 9012094
119.82756 -50.836231 -70.340805 9933194
120.27276 -50.380711 -70.105576 15196110
4.1151385 -49.971134 -133.58353 7894375
5.0447307 -49.978428 -133.534 8617589
5.870708 -50.204037 -133.40997 7432807
118.71011 -50.223919 -71.885834 10064780
119.27981 -49.97324 -71.404152 10064780
119.92193 -49.949562 -70.720512 10722452
120.70472 -49.67852 -70.018799 11116952
121.27944 -49.430668 -69.53019 10064265
3.2647853 -48.974827 -133.9902 9143931
4.1487727 -49.002491 -133.93553 10064776
5.0437236 -49.135311 -133.84195 11314073
119.70855 -49.271095 -71.320869 8089963
120.2356 -49.07272 -70.85701 9274493
120.96824 -48.782742 -70.219986 10393230
121.62946 -48.718956 -69.53743 8813942
122.17916 -48.468231 -69.077515 8813942
2.3303943 -47.846436 -134.44937 7039331
3.195209 -48.025845 -134.34027 9012348
4.1768565 -48.187374 -134.23181 8749175
121.08673 -48.003853 -70.514915 9471872
121.83797 -47.727821 -69.850128 8879992
122.51723 -47.798092 -69.075134 9603459
123.12193 -47.626633 -68.512428 9341307
1.6367831 -46.759888 -134.88113 11380380
2.3763957 -47.079086 -134.72728 8025968
3.365478 -47.109249 -134.66644 8617848
4.0464244 -47.390434 -134.52939 8486262
121.49696 -47.341759 -70.429764 8813942
122.08942 -46.961048 -69.994209 8353908
122.7439 -46.811642 -69.396545 8879995
123.43917 -46.839283 -68.624268 9472384
124.10198 -46.646046 -68.023369 9933187
-15.986695 -46.51503 -144.64291 8156523
-15.089513 -46.417973 -144.43922 10326408
-14.195275 -46.321281 -144.23126 10853012
-13.482285 -46.244167 -144.06155 7038307
-12.654771 -46.151455 -142.63036 8814711
-11.77704 -46.056492 -142.41496 9208443
-10.727773 -45.942993 -142.15083 8616820
-9.6831179 -45.829926 -141.88052 8419697
-8.22157 -45.668625 -140.29398 8485233
-7.5377316 -45.594566 -140.10864 8682867
0.83098549 -45.785061 -135.27783 8089963
1.4767413 -46.104568 -135.12856 9670021
2.4449916 -46.092121 -135.08429 9341313
3.0892558 -46.249298 -134.9944 8486262
123.24026 -46.151005 -69.481651 7564651
123.73621 -46.11602 -68.98233 9143165
124.4633 -45.976826 -68.349342 8354670
125.24344 -45.754086 -67.752922 8353646
125.97295 -45.563438 -67.175125 8879473
126.5512 -45.490093 -66.629585 9208435
-7.0262723 -45.539257 -139.96765 8354675
-6.3461461 -45.465557 -139.77737 9538950
-5.4988294 -45.373852 -139.53566 9999244
-4.8231473 -45.300667 -139.33958 9538950
-2.7713017 -44.94408 -137.16164 7563619
-2.1141591 -44.912479 -137.08086 8419184
-1.192059 -44.94157 -136.73373 9011320
-0.30733544 -45.024502 -136.32065 8353135
0.61561531 -45.232414 -135.83495 9011321
1.4796252 -45.343067 -135.61095 7763054
2.2876506 -45.459324 -135.40039 7565675
124.98631 -45.334709 -68.505516 8089963
125.64765 -45.069424 -68.086823 8089963
126.20372 -44.958694 -67.607826 8550511
126.98811 -45.002674 -66.761024 9997439
127.79899 -44.75803 -66.309555 9537144
128.79532 -44.547863 -66.004105 8484973
129.77739 -44.478069 -65.255257 10063237
130.46196 -44.3866 -64.93367 9734529
131.14067 -44.197376 -65.072754 9734529
71.924873 -61.536118 -97.511421 7037274
65.135323 -60.462883 -101.37897 8617078
65.905876 -60.504883 -100.9814 10261385
66.805199 -60.556637 -100.51504 9867144
67.710167 -60.729225 -99.943405 8090736
68.546089 -60.802944 -99.488182 9143166
69.482513 -60.785198 -99.065758 10392713
70.37088 -60.768475 -98.670326 6380368
71.187111 -60.86013 -98.219116 7169882
72.088745 -60.930161 -97.734245 7103322
72.907379 -60.854862 -97.20475 6840151
73.716721 -60.692822 -96.667877 7169883
74.36953 -60.62463 -96.184532 11182481
46.787689 -59.481991 -111.25228 8089963
47.051353 -59.479679 -111.13693 8089963
52.095085 -59.604362 -108.34254 8092016
52.742683 -59.605843 -108.0341 8354675
53.762402 -59.573524 -107.66851 9603203
54.652107 -59.542366 -107.35996 10326924
55.554241 -59.548992 -106.91456 7169628
56.473198 -59.593788 -106.39793 7826790
57.281471 -59.676914 -105.87842 8089963
58.051891 -59.690022 -105.49077 8748664
58.951481 -59.709927 -105.03952 8880503
59.850578 -59.732479 -104.58544 6445650
60.760166 -59.797447 -104.08203 7366751
61.587376 -59.912331 -103.56866 7432032
62.484589 -59.944263 -103.10735 9931651
63.381084 -59.978828 -102.6431 8616305
64.277267 -60.016304 -102.17564 8287856
65.182007 -59.976337 -101.77229 9077371
66.131836 -59.972511 -101.32825 10064007
67.034348 -60.023823 -100.86034 9800837
67.891411 -60.100609 -100.3925 7564650
68.800613 -60.106258 -99.960739 8090736
69.612617 -60.109543 -99.576584 9801091
70.580292 -60.118587 -99.114464 7893347
71.486168 -60.18536 -98.632294 7301467
72.387352 -60.251045 -98.139725 7367005
73.286133 -60.154026 -97.580299 8288362
74.019928 -60.126038 -96.987572 7104090
74.88414 -59.925701 -96.510155 8550764
75.654861 -59.890007 -95.89769 11445911
76.55468 -59.697891 -95.430969 12367018
77.438812 -59.556461 -95.052414 11511455
78.208176 -59.542225 -94.361023 9538180
78.775856 -59.569527 -93.763252 7565675
80.192101 -59.422218 -93.167198 13023917
80.526024 -59.422691 -92.880539 11181972
12.664611 -58.768169 -129.94 8090737
13.386809 -58.86446 -129.84769 7696748
14.365081 -59.009098 -129.70865 9012347
15.22692 -59.238403 -129.01614 10459022
15.946437 -59.237049 -128.50578 9406591
17.029446 -59.235497 -128.20125 14604750
17.674442 -59.233978 -127.44153 11314843
18.739391 -59.232632 -127.29192 13223097
19.407017 -59.231064 -126.56721 11314588
20.432087 -59.229591 -126.19903 10262412
21.452721 -59.228039 -125.82517 9473151
22.098526 -59.226517 -125.09239 9209467
23.1436 -59.225128 -124.90605 10326665
23.78891 -59.223713 -124.23744 8353908
24.774323 -59.222118 -123.77229 8157042
25.805117 -59.220581 -123.40027 9341313
26.529507 -59.219105 -122.7571 9012088
27.549303 -59.217564 -122.37068 9407613
28.41213 -59.216022 -121.84999 9999751
29.089544 -59.21476 -121.40651 9209211
30.128307 -59.21315 -120.95087 9800581
31.089787 -59.211605 -120.5072 8616307
31.670492 -59.210327 -119.91116 9603457
32.659271 -59.208744 -119.48524 9143417
33.656685 -59.207386 -119.20971 10129539
34.366524 -59.205765 -118.47018 8221802
35.281624 -59.204155 -117.93276 7959405
36.265831 -59.202763 -117.63525 8354161
37.135971 -59.207638 -116.97669 8288109
37.889217 -59.199871 -116.64117 9406590
38.821144 -59.198135 -116.01168 9406590
39.772148 -59.236511 -115.45612 7893352
40.61232 -59.231869 -115.13381 7103579
41.517273 -59.231834 -114.69939 7235165
42.299187 -59.229507 -114.26764 8024425
43.174568 -59.303661 -113.5005 9537409
44.111263 -59.288662 -113.11118 8089963
45.000046 -59.264999 -112.77008 8682356
45.891113 -59.27692 -112.32449 10129802
46.867714 -59.249058 -111.97942 8747893
47.646004 -59.344383 -111.30915 8287342
48.456047 -59.395046 -110.75709 8288365
49.376575 -59.390408 -110.34309 8287850
50.295254 -59.387455 -109.92461 7103834
51.211613 -59.386219 -109.50152 7433320
52.12635 -59.386662 -109.07389 7565673
53.038406 -59.38887 -108.64167 7697259
53.742252 -59.416046 -108.22121 9143678
78.512848 -59.424751 -94.589592 7565675
79.266899 -59.359943 -94.215813 7893355
80.059402 -59.324112 -93.688759 10129286
81.111 -59.216709 -93.238411 8616305
81.877708 -59.204273 -92.636078 9340027
82.642433 -59.193188 -92.029671 10788756
83.658348 -59.134762 -91.630333 9736836
84.389214 -59.133018 -91.220825 10065545
85.398361 -59.119293 -90.777115 8945784
86.343475 -59.117558 -90.149628 8485232
87.082756 -59.116383 -89.819687 10721676
87.987404 -59.114906 -89.375404 8156523
88.863976 -59.113216 -88.726547 8814452
89.796623 -59.111916 -88.465096 9012086
90.666954 -59.110226 -87.799232 10327177
91.591179 -59.10857 -87.221863 9077368
92.502548 -59.107384 -87.040588 10392715
93.224449 -59.105721 -86.262276 11380636
94.190117 -59.104515 -86.115326 8682867
95.056511 -59.102833 -85.458961 8551281
95.920555 -59.101147 -84.795853 8222060
96.891151 -59.099911 -84.62616 7958377
97.592896 -59.098225 -83.811234 10064007
98.580742 -59.097008 -83.679535 9011833
99.422607 -59.095257 -82.933289 8090987
100.24098 -59.093998 -82.604042 7958890
101.15639 -59.092491 -82.146469 8353134
101.99561 -59.090912 -81.553802 8813685
102.99063 -59.089451 -81.210495 10327694
103.83442 -59.087704 -80.475922 10787732
104.73087 -59.08662 -80.369736 9537924
105.55487 -59.084816 -79.567841 8881021
106.5686 -59.083504 -79.374855 10985111
107.42071 -59.058384 -78.620232 8682868
108.34289 -58.85075 -78.415695 8024170
109.0496 -58.714546 -77.707825 8813686
109.75179 -58.597591 -77.027 8155755
11.765239 -57.598732 -130.41237 9735046
12.486201 -57.865883 -130.27855 8682872
13.514583 -57.986477 -130.18268 8092017
14.241878 -58.300823 -130.03119 7039331
108.51148 -58.257351 -78.556717 9011065
109.23078 -57.810738 -78.020912 8945271
109.934 -57.784874 -77.272919 8221545
110.6082 -57.688271 -76.595032 7498335
11.512713 -56.894417 -130.68234 9603969
12.568244 -56.949974 -130.60889 9407104
13.447982 -57.184258 -130.47899 9144702
109.60099 -57.073303 -78.022079 9405046
110.14851 -56.811634 -77.571465 9536632
110.81432 -56.852478 -76.827652 10128770
111.45877 -56.769669 -76.174416 8747888
111.96539 -56.563961 -75.737625 7366749
10.667727 -55.827656 -131.1145 8814453
11.658687 -55.948162 -131.02055 9669762
12.51934 -56.041893 -130.94298 9406335
110.55553 -56.110596 -77.512772 9405046
111.10535 -55.850208 -77.059052 9076594
111.74084 -55.855785 -76.367317 9339768
112.37697 -55.863663 -75.673676 9273977
112.92977 -55.607128 -75.214607 9208443
9.8810034 -54.860607 -131.50732 9275009
10.744258 -54.949986 -131.4312 8814453
11.73751 -55.070213 -131.33719 8946040
111.95924 -54.968163 -76.614891 10261643
112.67161 -54.860443 -75.901665 9405822
113.34348 -54.907089 -75.148117 9142650
113.89874 -54.65168 -74.685791 7037274
8.9359961 -53.731113 -131.96744 10327182
9.824893 -53.955242 -131.84079 9077373
10.88853 -54.004692 -131.76913 10787219
112.83811 -53.988171 -76.197075 9406078
113.488 -53.959942 -75.508209 10130057
114.19481 -53.946228 -74.749786 7629411
114.90823 -53.584816 -74.173813 6839895
8.274703 -52.632961 -132.40182 11906725
8.9953756 -52.964066 -132.24457 10787476
9.9669333 -53.010307 -132.17873 9274752
10.631431 -53.303101 -132.03836 8617080
113.80795 -53.030327 -75.668709 10985109
114.42735 -52.966091 -75.032471 9471872
115.1211 -52.909985 -74.311256 7432032
115.81405 -52.624481 -73.716141 6510930
7.5014262 -51.646149 -132.80115 8616304
8.1295881 -51.975349 -132.64929 7761252
9.0809698 -51.978085 -132.60033 9208443
9.8155737 -52.200912 -132.48193 8288116
114.66517 -52.207726 -75.188507 9603202
115.26979 -51.960438 -74.668205 8418927
116.08759 -51.761677 -73.890396 6642772
116.7557 -51.634209 -73.235909 8946039
6.5646434 -50.661617 -133.20796 7037274
7.2358737 -50.948059 -133.06947 7826789
8.2136831 -50.956837 -133.017 6906201
8.8864508 -51.210423 -132.89047 7169373
115.57953 -51.216965 -74.738144 8550513
116.21976 -50.867168 -74.235115 6774616
116.93774 -50.756599 -73.517395 8222578
117.58907 -50.772377 -72.802933 9735046
118.15613 -50.520309 -72.325607 8617080
6.3639483 -49.895718 -133.49771 8485493
7.2769809 -49.970768 -133.4243 8550769
8.1013937 -50.200966 -133.29871 9011576
116.54446 -50.201385 -74.246544 7565675
117.22958 -49.839085 -73.700897 7564907
117.89396 -49.76408 -73.021088 8945788
118.58187 -49.818787 -72.245132 9340545
119.15154 -49.567104 -71.764023 10064780
5.5522456 -48.940857 -133.88734 8353908
6.3874125 -48.989983 -133.8273 9998472
7.2811389 -49.127647 -133.73204 10130831
118.06707 -48.885841 -73.310776 7696237
118.73273 -48.864479 -72.600372 8814457
119.41186 -48.849007 -71.872063 10524816
119.9665 -48.712444 -71.344788 9011321
4.5774226 -47.824417 -134.34418 9012350
5.4404216 -48.008385 -134.23352 8551287
6.4442821 -48.116371 -134.14349 10787729
119.06329 -47.929268 -72.750244 9998727
119.69834 -47.87077 -72.093201 11972518
120.37309 -47.934322 -71.326744 9998216
120.87888 -47.807854 -70.846924 9537665
3.7302737 -46.736069 -134.78436 9933193
4.532249 -46.99258 -134.65025 9604485
5.5488391 -47.125195 -134.55057 10064522
6.2949138 -47.377689 -134.42078 10787729
119.87846 -47.071831 -72.33213 11183258
120.52122 -46.93541 -71.726608 9669251
121.20267 -46.919518 -70.987778 7958889
121.95275 -46.578819 -70.433624 8946042
122.58916 -46.415871 -69.890976 10853012
-16.316368 -46.553905 -145.97974 8813939
-15.591271 -46.475536 -145.81412 8813939
-14.507192 -46.358276 -145.56052 9142910
-13.786855 -46.280304 -145.38812 9537667
-12.94872 -46.186447 -143.93246 9209467
-12.239507 -46.109718 -143.75748 9208699
-11.179154 -45.994965 -143.49005 9208443
-10.123464 -45.880718 -143.21631 9340798
-9.4221048 -45.804821 -143.03059 9736836
-8.6430483 -45.717358 -141.6039 8748405
-7.7797055 -45.623859 -141.36888 9735812
3.0922618 -45.756199 -135.17433 8486262
3.7353129 -46.078815 -135.02414 9670021
4.702682 -46.071301 -134.9781 9472900
5.4520907 -46.285938 -134.86194 10196364
121.04308 -46.279816 -71.723221 8420464
121.52271 -46.191746 -71.301361 7630436
122.34566 -45.867115 -70.773201 9077627
123.05968 -45.768307 -70.109009 9603460
123.75367 -45.677017 -69.457916 7762029
124.32757 -45.599995 -68.921265 8092011
-6.9198117 -45.530766 -141.12933 9735812
-5.8920674 -45.419521 -140.83647 9999244
-5.0390935 -45.327118 -140.58801 12433069
-4.3177991 -45.245953 -139.19064 10788500
-3.4782605 -45.154991 -138.93907 10261899
-2.4734273 -45.022007 -138.55721 9340286
-1.6380277 -44.864162 -138.08847 8418927
-0.80860573 -44.702526 -137.60278 8747891
0.17937034 -44.629108 -137.09943 8748149
0.99673027 -44.74297 -136.59592 11183002
1.9940677 -44.853035 -136.12177 8749691
2.8753543 -45.056339 -135.73633 8814970
3.8260608 -45.209869 -135.45798 10327692
4.54808 -45.414989 -135.22557 9472899
123.4249 -45.190712 -70.3647 8617080
124.08785 -45.08707 -69.761696 7696237
124.84419 -44.961426 -69.157303 8221806
125.69433 -44.774727 -68.612183 8484719
126.62066 -44.583385 -68.219086 8813683
127.39799 -44.496773 -67.773041 8945265
128.18567 -44.457916 -67.092285 8221803
1.1621547 -44.533024 -137.0907 10920087
128.64897 -44.255604 -67.528358 9208435
129.15477 -44.290989 -66.81073 8682351
129.9417 -44.204502 -66.351143 8484978
130.93677 -44.135666 -65.753845 11773852
131.76988 -44.040565 -65.577896 10853262
63.813076 -59.463673 -103.34264 10195335
64.699905 -59.486649 -102.84764 10129285
65.584923 -59.511208 -102.34804 10787471
66.341919 -59.53363 -101.91583 8222574
67.223259 -59.561344 -101.40691 8485489
68.255951 -59.534451 -101.01658 8682872
69.110435 -59.549351 -100.5648 8682614
69.989182 -59.583298 -100.04271 9932931
70.80909 -59.640842 -99.543976 7695969
71.799423 -59.637035 -99.12661 7367005
72.655571 -59.640972 -98.749832 7892583
73.48349 -59.608639 -98.244659 9998723
74.393997 -59.533207 -97.652321 8288362
75.222801 -59.451092 -97.286926 6511954
76.022194 -59.442192 -96.641991 9406334
76.704842 -59.435749 -96.086266 12301226
14.853637 -58.644787 -129.87476 9144702
15.583709 -58.857822 -129.73117 9998728
16.548279 -58.986423 -129.58173 10985367
17.437828 -59.236191 -129.16766 13156792
18.122276 -59.234623 -128.43625 10525072
19.164921 -59.233063 -128.07402 9735555
20.018719 -59.23151 -127.52341 10788244
20.865452 -59.229996 -126.96638 9209211
21.926384 -59.22858 -126.79037 9077368
22.537983 -59.227093 -126.01326 10129542
23.5909 -59.225494 -125.65504 10326664
24.488438 -59.223984 -125.15231 8552312
25.228872 -59.222462 -124.50659 8157554
26.268831 -59.22113 -124.29354 8881019
27.073172 -59.219578 -123.70917 10787728
27.870373 -59.218071 -123.11893 11315100
28.898615 -59.216694 -122.88403 10986134
29.684795 -59.215164 -122.28654 9670274
30.463867 -59.213642 -121.68404 9602945
31.479816 -59.212254 -121.42699 9537409
32.391781 -59.210537 -120.77905 8419184
33.151527 -59.209015 -120.16354 7827558
34.154602 -59.207592 -119.8839 7366237
35.100525 -59.206055 -119.4081 6971480
35.719307 -59.204796 -118.88449 8288111
36.634655 -59.203182 -118.33383 8222573
37.622269 -59.20174 -118.02486 8222573
38.566902 -59.200012 -117.39479 9143418
39.32637 -59.198772 -117.0618 9735299
40.176926 -59.197124 -116.36342 8551281
41.147896 -59.19569 -116.02515 7235165
42.115795 -59.194229 -115.67825 6906970
42.94693 -59.192547 -114.96385 8092019
43.769161 -59.191307 -114.65423 8090477
44.449791 -59.189808 -113.98089 8616307
45.400478 -59.188354 -113.60628 8945784
46.348072 -59.186901 -113.22402 8090219
47.292252 -59.18544 -112.8335 8089963
48.224995 -59.18375 -112.23212 6709078
48.982925 -59.182392 -111.75562 5854024
49.851376 -59.180882 -111.25249 8024678
50.659935 -59.179569 -110.86339 9340281
51.508244 -59.177826 -110.1364 6907486
52.42635 -59.176346 -109.70284 8092016
53.340618 -59.174858 -109.26123 8355187
54.222519 -59.232307 -108.62515 9406849
55.058887 -59.249008 -108.1605 10195338
55.967068 -59.254665 -107.71012 8156267
56.874615 -59.263752 -107.25786 8156268
57.780106 -59.274502 -106.80129 7564651
58.55476 -59.285091 -106.40608 7696236
59.456654 -59.299091 -105.9406 8946299
60.356697 -59.314754 -105.47069 7629666
61.254601 -59.332108 -104.99573 11181972
62.149834 -59.350258 -104.51482 9208440
63.042442 -59.369938 -104.02856 10523787
64.053726 -59.318665 -103.7327 9537406
64.943954 -59.341679 -103.23602 12498087
65.832619 -59.366238 -102.73459 8617078
66.592636 -59.388733 -102.30089 8419696
67.477394 -59.416481 -101.79028 9011577
68.108238 -59.437233 -101.42293 9143166
70.512085 -59.368881 -100.534 10393995
71.140938 -59.393547 -100.15399 9011828
71.894394 -59.424248 -99.694756 8090214
75.048134 -59.30978 -98.023689 6511954
75.508118 -59.304001 -97.655373 7169890
76.310692 -59.295086 -97.007812 9077628
77.256363 -59.213783 -96.539185 12301226
77.983574 -59.218987 -95.896988 10590865
78.804688 -59.194431 -95.302643 8222833
79.678604 -59.130066 -94.834633 8682099
80.636871 -59.128494 -94.362419 8747892
81.411919 -59.127422 -94.125237 7958377
82.323547 -59.125793 -93.586823 8682099
83.101234 -59.124172 -92.894325 13682362
84.029869 -59.122822 -92.588058 10591889
85.068069 -59.121231 -92.171318 9736836
85.833733 -59.119591 -91.455688 9209466
86.761734 -59.118214 -91.126282 9011574
87.689461 -59.116833 -90.78817 9471868
88.443123 -59.115177 -90.050194 9603454
89.370674 -59.113777 -89.698807 11380375
90.297287 -59.11237 -89.338211 10262151
91.038895 -59.11071 -88.578613 8682867
91.98243 -59.109379 -88.30497 11445144
92.890686 -59.107853 -87.821884 11379608
93.761398 -59.106121 -87.129906 10262155
94.745865 -59.104958 -87.035728 8682867
95.467575 -59.103275 -86.238457 8617074
96.394035 -59.101807 -85.827492 8682098
97.318954 -59.100334 -85.407028 11181972
98.187508 -59.098621 -84.725906 10984850
99.172844 -59.097355 -84.545654 11643039
99.873787 -59.09565 -83.711517 6511954
100.76502 -59.094608 -83.639488 7827814
101.62368 -59.092869 -82.926033 10261132
102.55048 -59.091351 -82.463165 8089960
103.4753 -59.089813 -81.990707 10129797
104.46655 -58.953072 -81.648026 8090737
105.35102 -58.763298 -81.242554 10327439
106.02746 -58.81662 -80.558105 12367018
106.86195 -58.76421 -79.98896 11051159
107.50814 -58.78688 -79.355148 9801092
14.674014 -57.905914 -130.15366 9342081
15.703155 -58.03326 -130.05533 9077881
16.538864 -58.2453 -129.93578 8089963
105.68332 -58.114445 -81.297684 9537924
106.35941 -57.941284 -80.810234 13815746
107.07684 -57.887867 -80.230049 12432812
107.79239 -57.983044 -79.485657 10590608
108.39829 -57.907108 -78.870453 8814453
109.06859 -57.380043 -78.431633 9734788
13.848826 -56.829979 -130.5882 8486774
14.803409 -57.02071 -130.4704 10065288
15.64136 -57.229877 -130.35184 9800575
107.19625 -57.243496 -80.439896 13024949
107.92783 -57.041447 -79.851677 11248538
108.67059 -56.980347 -79.081009 8945527
109.48754 -56.722466 -78.336388 9405046
110.02095 -56.416042 -77.925446 9405046
13.023139 -55.857185 -130.98508 8617078
13.899016 -56.012199 -130.88429 8815225
14.848235 -56.110889 -130.80042 10393482
108.29505 -56.304298 -79.856895 9537150
108.84167 -56.03854 -79.409454 8418927
109.50906 -55.92424 -78.74852 9339511
110.26878 -55.747028 -78.021889 9470839
110.86932 -55.44603 -77.535339 9734011
12.062495 -54.744743 -131.43974 8617078
12.947909 -54.976986 -131.31026 8617078
13.958735 -55.040871 -131.23602 9077371
109.24545 -55.336994 -79.354622 9537150
109.77985 -55.028847 -78.94352 9865856
110.53223 -54.736149 -78.287918 10128514
111.18347 -54.781593 -77.557358 9668477
111.75923 -54.594425 -77.035522 9669250
11.254241 -53.637951 -131.88467 10853012
12.033805 -53.976128 -131.72185 10195593
13.098063 -54.031982 -131.64784 7235429
13.75899 -54.330914 -131.50533 8617078
110.20004 -54.371494 -78.846886 10851980
110.76219 -53.980518 -78.450935 9997959
111.42226 -53.7374 -77.86824 9800836
112.1459 -53.820629 -77.038681 10656401
112.72411 -53.634689 -76.513489 9406078
10.490855 -52.644081 -132.28607 9735046
11.209838 -52.979527 -132.12733 9406337
12.222655 -52.99091 -132.07216 7301215
12.844985 -53.328373 -131.9176 7038307
111.65939 -52.984386 -78.022125 9735043
112.27128 -52.833 -77.44162 10261387
113.00343 -52.852592 -76.637444 9603457
113.62938 -52.6423 -76.073914 10062980
9.7232924 -51.652416 -132.68692 7564651
10.390414 -51.944607 -132.54659 8156529
11.301536 -51.993637 -132.48276 8419439
12.035243 -52.220818 -132.36281 8090474
112.62513 -52.022251 -77.50045 9866630
113.20613 -51.83519 -76.972839 10063237
113.86501 -51.884888 -76.231758 9997188
114.48634 -51.81876 -75.594482 9142393
9.4620161 -50.95274 -132.95558 7827303
10.44004 -50.967022 -132.90109 8617076
11.166141 -51.170231 -132.79028 7564386
113.52417 -51.170506 -76.99086 9536894
114.13514 -50.871716 -76.491791 9273722
114.84083 -50.92625 -75.697273 8747892
115.46494 -50.861374 -75.056297 8353134
8.5964613 -49.89534 -133.38538 9274748
9.5091543 -49.975456 -133.31012 9932678
10.332351 -50.210304 -133.18288 11972261
114.38862 -50.201611 -76.582626 9536894
114.98621 -49.978878 -76.056534 9405565
115.67389 -49.956203 -75.323677 8157040
116.29554 -49.908077 -74.676147 9276295
116.9611 -49.485111 -74.184647 9605259
7.7907367 -48.935966 -133.77631 11972518
8.5732489 -48.986496 -133.71844 9932935
9.5446959 -49.14603 -133.61122 9274748
115.3681 -49.241241 -76.045113 10262156
115.93196 -48.982624 -75.574043 7894382
116.58431 -48.991486 -74.861633 15000803
117.37365 -48.753494 -74.134834 11381672
117.95146 -48.527779 -73.630829 8222579
6.9290996 -47.868866 -134.20947 9473414
7.6846385 -48.002876 -134.12242 10657687
8.7413054 -48.107227 -134.03108 9604742
116.35123 -48.280563 -75.500938 10592412
116.87292 -48.074562 -75.047066 15856112
117.47616 -47.925415 -74.473831 15066337
118.23998 -47.741295 -73.745422 9275003
118.88159 -47.535583 -73.161316 7630435
5.982944 -46.721714 -134.6761 10854036
6.7830157 -46.98233 -134.5406 10196878
7.7984157 -47.120228 -134.43906 12433326
8.5429144 -47.376629 -134.30789 13551549
117.70963 -47.118309 -74.659424 12103072
118.48492 -46.768093 -74.045738 8880245
119.14693 -46.781158 -73.324448 8288365
119.78641 -46.721443 -72.667923 9143674
-16.102768 -46.534145 -147.21335 10327177
-15.006906 -46.41563 -146.95641 12037284
-14.278787 -46.336815 -146.78165 9537667
-13.248219 -46.222073 -145.25659 8879995
-12.531724 -46.1446 -145.07886 8880508
-11.639089 -46.04797 -144.85252 9208443
-10.572129 -45.93251 -144.5753 10985623
-9.8633394 -45.855736 -144.38719 9736836
-8.8976412 -45.748043 -142.88916 9735812
-8.2000589 -45.672523 -142.69843 9340798
-7.5046582 -45.597202 -142.50481 9340798
5.9131351 -45.941677 -134.96446 10261901
6.8940387 -46.095005 -134.85904 9340802
7.7068477 -46.280476 -134.75032 11907239
119.38441 -46.06617 -73.765289 9998727
120.17168 -45.958561 -73.031738 9275003
120.85923 -45.902435 -72.34816 9735810
121.70274 -45.598133 -71.775314 8749685
122.43711 -45.429432 -71.16806 8420464
-6.9843297 -45.540924 -142.35794 9735812
-6.2927365 -45.465988 -142.15939 9735812
-5.4308667 -45.372639 -141.9079 16777215
-4.5289083 -45.271896 -140.43689 9209467
-3.8506017 -45.198368 -140.23285 9867397
-2.8369565 -45.088551 -139.92223 11709345
-1.8280797 -44.979237 -139.60574 10195336
-0.82389122 -44.870388 -139.28351 12366244
0.00936836 -44.780079 -139.01073 11181972
3.2744098 -44.626442 -136.21918 8616049
4.146461 -44.691723 -135.94945 9143163
5.0423503 -45.022305 -135.51007 8683898
5.9676394 -45.142548 -135.33095 10261389
6.7571712 -45.301579 -135.17628 7432808
121.26739 -45.251263 -72.640442 9867909
121.99987 -44.940792 -72.208206 7893864
122.63824 -44.959805 -71.480507 8815478
123.45119 -44.802853 -70.995209 9143423
124.54662 -44.582592 -70.493896 8946044
125.4083 -44.506111 -69.908089 9143420
126.1908 -44.440823 -69.355911 9142647
126.97395 -44.376537 -68.799362 8089963
2.3064036 -44.47419 -136.90215 10459537
3.4478869 -44.417122 -136.70988 8089963
4.2610812 -44.377472 -136.57018 8089963
5.3816333 -44.548954 -135.92886 8552056
125.95693 -44.312099 -70.211273 9735558
126.26276 -44.331089 -69.788582 10261124
