# .PCD v0.7 - Point Cloud Data file format
VERSION 0.7
FIELDS x y z rgb
SIZE 4 4 4 4
TYPE F F F U
COUNT 1 1 1 1
WIDTH 1210
HEIGHT 1
VIEWPOINT 0 0 0 1 0 0 0
POINTS 1210
DATA ascii
-161.1281 -17.888418 91.684509 9011833
-169.3932 -17.782629 83.831772 7564648
-169.87553 -17.515686 83.206421 8090477
-170.39162 -17.570379 82.292801 8681843
-170.84041 -17.502039 81.581543 10457996
-171.27628 -17.357309 80.947327 9143422
-154.9621 -16.228582 96.254486 9932419
-155.7032 -16.486584 95.679642 9932419
-156.43715 -16.655912 95.148041 8288367
-157.35118 -16.566439 94.617523 8420470
-158.18077 -16.60725 94.082535 8157555
-158.91779 -16.718908 93.574257 10788246
-159.56099 -16.901613 93.09343 7038307
-170.15556 -16.878206 83.190125 8616820
-170.63939 -16.610493 82.562759 8089963
-171.15672 -16.665466 81.646858 13550265
-171.61998 -16.673874 80.855972 10261901
-172.04387 -16.451605 80.297569 8485232
-152.60905 -15.245016 98.392456 7301474
-153.40732 -15.278775 97.864891 7564642
-154.17415 -15.456958 97.22699 8946296
-154.86148 -15.559827 96.708023 8682867
-155.76802 -15.644373 96.079651 9472125
-156.6974 -15.642515 95.5112 9077626
-157.47397 -15.751901 94.948029 9012093
-158.21182 -15.934224 94.357758 7565675
-171.03674 -15.972966 82.347717 8089963
-171.50667 -15.829638 81.727715 11709089
-171.97319 -15.762004 81.020775 10459278
-172.43669 -15.770342 80.227066 7761253
-173.02359 -15.553574 79.488747 7366495
-148.22589 -14.226382 102.53139 7959144
-149.14583 -14.257301 101.84654 7564643
-149.88408 -14.282502 101.29616 8288108
-150.62524 -14.308055 100.74412 11181970
-151.28784 -14.47283 100.0499 9800062
-151.99736 -14.613628 99.401123 8353392
-152.99458 -14.565428 98.796082 8090732
-153.87024 -14.643677 98.158875 7301470
-154.5181 -14.88928 97.529327 8617331
-155.32426 -14.923057 96.995697 8090986
-172.52179 -15.092813 81.024445 9209467
-173.01111 -14.950239 80.408356 7958888
-173.48859 -14.88314 79.701172 8090474
-173.95401 -14.891735 78.903061 10261384
-174.85577 -14.538331 78.214249 10525071
-175.48131 -14.406498 77.650543 9274748
-176.21501 -14.276342 76.878723 9011579
-176.6696 -14.284713 76.066925 9011579
-127.79734 -13.437786 121.56083 9208187
-128.59891 -13.461978 121.14947 7761515
-129.60477 -13.492773 120.63313 7827047
-130.41217 -13.517776 120.21851 9931904
-179.61345 -13.9554 74.277588 9341054
-179.96886 -13.956836 73.412033 7499359
-180.23285 -13.957908 72.761765 8485997
-127.30412 -12.47875 122.20317 9932163
-128.04091 -12.58524 121.79038 9668480
-128.84441 -12.608019 121.37866 8616564
-129.58865 -12.845358 120.90816 7958889
-130.13229 -13.077432 120.54027 8484461
-125.80467 -11.237087 123.46597 9341051
-126.34677 -11.594094 123.04729 7038298
-127.16888 -11.62945 122.62109 8946293
-128.23792 -11.470368 122.15141 9866885
-128.88887 -11.746492 121.7116 7894122
-124.98814 -10.573635 124.14835 9802121
-125.67695 -10.54633 123.81474 10130568
-126.5833 -10.610321 123.33449 7564642
-127.38467 -10.62916 122.92547 10525067
-127.92626 -10.858102 122.55988 14077885
-124.09174 -9.4801369 125.04804 8092019
-124.82748 -9.7102623 124.58479 9999242
-125.82417 -9.7312622 124.07701 11051928
-126.73752 -9.8228693 123.58196 10130310
-127.36583 -9.9808102 123.20222 9341051
-122.63748 -8.1619225 126.28604 7893352
-123.50472 -8.4649487 125.75889 7498081
-124.32736 -8.6235237 125.28328 8419183
-125.12421 -8.6383982 124.87816 8156011
-125.97165 -8.9140921 124.34016 9472384
-122.05078 -7.2904291 126.89627 9208443
-122.60839 -7.5153651 126.55878 9341310
-123.62605 -7.5328283 126.08203 8814198
-124.62286 -7.5491815 125.57828 7892840
-125.16236 -7.7746944 125.21523 6510930
-121.46367 -6.4191322 127.5065 13550517
-122.02105 -6.6431689 127.16955 9931908
-122.84411 -6.656095 126.79984 9143163
-123.77051 -6.7136636 126.34899 7958633
-120.40758 -5.2540479 128.44263 10327692
-121.35231 -5.4998994 127.92537 11445401
-122.31438 -5.5665574 127.47244 10195593
-122.99195 -5.8648462 127.05241 8748405
-119.81993 -4.3832841 129.05298 8682867
-120.5511 -4.4630985 128.69704 8682867
-121.578 -4.4742141 128.23772 9472383
-122.3434 -4.6998739 127.80803 10262156
-119.23187 -3.5123534 129.66351 9011835
-119.9625 -3.5909486 129.30833 9932934
-120.78275 -3.5982685 128.94208 9275004
-121.51752 -3.6774223 128.58482 9143162
-118.20554 -2.4937716 130.52759 7301479
-119.16911 -2.7171247 130.01102 9209215
-120.193 -2.7243912 129.55461 10919829
-120.75121 -2.9460776 129.21819 9932934
-117.11893 -1.1862839 131.53445 7563619
-117.68013 -1.5360261 131.14532 7564389
-118.43242 -1.6264317 130.77573 8485494
-119.38984 -1.6856604 130.32787 9209215
-120.16089 -2.071274 129.83141 11380380
-116.22372 -0.31403011 132.44009 9735299
-117.03349 -0.49007997 131.9472 8814196
-117.94994 -0.53608191 131.50688 7104090
-118.65996 -0.75639212 131.02472 9209215
-119.27462 -0.75831687 130.75165 7038307
-114.85712 0.56020969 133.77542 7563618
-115.55412 0.34133378 133.28429 9602945
-116.36726 0.34043077 132.92403 9669249
-117.22653 0.22986671 132.45169 9011573
-96.371155 1.9408863 150.79437 10064518
-97.123955 1.7189373 150.37273 10327434
-98.122215 1.7187485 149.93118 13353396
-98.84024 1.6445124 149.58391 11379864
-112.35346 1.0026608 136.07381 8092019
-113.36707 1.0026145 135.63066 10854550
-114.38409 1.0026451 135.1862 12761773
-95.751877 2.8298488 151.42387 9209467
-96.305717 2.6077216 151.09015 9406845
-97.304192 2.6083241 150.6488 10721933
-98.222435 2.5345728 150.21326 12695209
-95.131218 3.7211151 152.05495 9340286
-95.685631 3.4986622 151.72081 9472126
-96.684631 3.4999883 151.27954 9669761
-97.603416 3.4267366 150.84392 9932419
-94.953217 4.4364009 152.41991 8748405
-95.86367 4.3934541 152.00008 9340286
-96.741829 4.2831564 151.56755 10261385
-93.330345 5.7339649 153.65669 8880507
-94.241638 5.2869501 153.0748 8683125
-95.241325 5.2895513 152.63377 9537665
-95.960594 5.2165389 152.28648 10261132
-92.785896 6.7083721 154.28731 10261643
-93.518379 6.5003438 153.88014 9143678
-94.46154 6.4133353 153.42821 9735557
-95.33744 6.1153131 152.92166 9011577
-92.158974 7.6103878 154.92543 9208955
-92.878212 7.5376496 154.57823 9801349
-93.879982 7.5416565 154.13684 9341057
-94.638092 7.3180962 153.7121 7564651
-91.270859 8.5520525 155.69489 9997956
-92.121666 8.3965826 155.25639 9143418
-93.052223 8.4461079 154.86473 8879735
-93.610298 8.2212448 154.52794 9341057
-90.500076 9.421298 156.38354 8551025
-91.420723 9.3494596 155.94763 8551282
-92.423553 9.3542471 155.50612 9604226
-92.982246 9.1288328 155.16879 9340798
-89.312508 10.940315 157.51645 8089963
-89.886612 10.576564 157.11702 9011320
-90.730057 10.554644 156.73524 7235677
-91.611076 10.362736 156.26883 8748916
-92.352859 10.039324 155.81143 9340798
-88.477318 11.855551 158.25195 10788243
-89.109337 11.582677 157.86327 9142907
-90.041298 11.63357 157.4715 7564130
-90.764053 11.560809 157.12276 6907224
-87.640099 12.774193 158.98979 10656401
-88.401787 12.547175 158.56204 10985622
-89.406601 12.552601 158.11986 10261643
-90.130104 12.479747 157.77083 11181973
-87.001923 13.697506 159.6416 9932422
-87.692642 13.51561 159.26353 9603457
-88.641586 13.428061 158.80911 10195594
-89.495003 13.402189 158.42169 11380380
-86.207527 14.631486 160.47125 10459022
-86.948914 14.398716 159.99988 10064264
-87.956985 14.404496 159.55867 9274492
-88.695961 14.171878 159.08397 9208443
-84.740837 15.591889 161.92006 9472640
-85.525414 15.304818 161.33479 9341054
-86.472565 15.358328 160.96199 10130313
-87.192352 15.119892 160.4454 10656401
-77.61216 16.769466 168.51015 8814709
-78.314552 16.788673 168.43166 7630435
-82.63282 16.098007 163.59846 10655625
-83.590828 16.129629 163.53362 12827827
-77.494041 17.482229 168.78473 7038298
-78.340202 17.426414 168.66138 7235677
-76.802635 18.499674 169.24023 8025193
-77.648537 18.444813 169.11729 6511954
-78.313675 18.224434 168.95587 11183001
-76.201149 19.603083 169.71619 7565675
-76.865181 19.382908 169.55504 8223347
-77.568825 19.404814 169.47746 8814709
-76.081459 20.323229 169.99364 8354934
-76.927971 20.269838 169.87114 10196879
-75.372734 21.753822 170.60214 9144190
-76.085915 21.243683 170.32909 8157811
-76.899818 21.076565 170.16907 12433069
-75.340736 22.622766 170.92302 10064775
-76.296219 22.191513 170.64949 8091760
-73.789978 23.948221 172.02742 12433069
-74.633492 23.717232 171.70811 11774622
-75.476997 23.486113 171.38858 12432551
-71.628792 25.008898 173.87453 8090474
-73.027412 24.441957 172.53532 10788247
-73.954063 24.472527 172.40741 12037795
-71.749474 25.59992 174.76176 7563874
-72.520988 25.026653 173.66136 8090994
-73.41494 25.045076 173.44911 10788247
-165.19916 -20.407009 88.044502 8814451
-165.8622 -20.602661 87.54554 8683124
-166.43755 -20.471098 86.912125 8025968
-163.81865 -19.406736 89.342857 8682867
-164.47742 -19.599115 88.848068 7235421
-165.23865 -19.722294 88.319626 8814451
-166.09895 -19.775585 87.754059 9604483
-166.65752 -19.793415 87.025711 8486775
-167.10234 -19.723848 86.321442 8355189
-162.81627 -18.588411 90.325882 8551281
-163.64232 -18.711988 89.756874 8551281
-164.38518 -18.679022 89.308334 8288109
-165.14685 -18.799971 88.780594 9143673
-166.01262 -18.851215 88.218567 10788501
-166.8365 -18.886511 87.373169 10328718
-167.41074 -18.894121 86.394218 9078911
-167.94426 -18.673733 85.647751 9736839
-168.55263 -18.226591 84.937279 7563619
-160.65881 -17.41046 92.186279 8287854
-161.29207 -17.444004 91.776962 8287854
-162.05705 -17.712015 91.182808 8419440
-162.90813 -17.758427 90.631935 8485232
-163.7635 -17.805496 90.078209 7696229
-164.62315 -17.85318 89.521523 8223088
-165.38649 -17.972528 88.9935 9867913
-166.0522 -18.163551 88.494926 10262414
-167.05713 -18.205971 87.487488 10262414
-167.67535 -17.814365 86.720428 10065547
-168.24745 -17.673626 85.851624 7235424
-168.77611 -17.544117 85.048676 7564648
-169.22397 -17.474607 84.339859 8617334
-159.3036 -16.437454 93.45697 8617337
-159.9485 -16.620062 92.975082 8024944
-160.69298 -16.732941 92.461624 7564651
-161.53839 -16.775963 91.915855 7893352
-162.38785 -16.819643 91.367233 8813942
-163.24158 -16.863861 90.815704 8419696
-163.9998 -16.979813 90.292389 8617589
-164.66112 -17.167662 89.797958 7039331
-168.62651 -16.702311 85.906883 7037274
-169.07497 -16.632135 85.197624 7695718
-169.53722 -16.638889 84.409599 9209214
-169.98624 -16.56922 83.698975 9209214
-157.65283 -15.464375 95.055359 9340801
-158.51141 -15.614427 94.406319 8223091
-159.37845 -15.765941 93.757446 8814458
-160.21178 -15.80512 93.212448 10392719
-161.04897 -15.844807 92.664719 8485239
-161.89 -15.885079 92.114182 8419440
-162.63664 -16.148577 91.50592 8616819
-163.27788 -16.18049 91.092285 7564648
-169.29962 -15.946612 85.309532 9735045
-169.88972 -15.728859 84.583427 10393486
-170.35255 -15.735642 83.792969 9340544
-170.81538 -15.742752 83.001732 9406079
-171.40413 -15.525478 82.269882 8089963
-154.83043 -14.464018 97.725525 8353647
-155.63887 -14.497001 97.191269 8353647
-156.29225 -14.743916 96.557053 11642780
-157.10625 -14.778262 96.01812 10130055
-157.92401 -14.813089 95.476768 9340801
-158.7455 -14.848425 94.932907 8222832
-159.40875 -15.099613 94.291168 9209467
-160.23674 -15.136489 93.742607 9406339
-160.86006 -15.164426 93.329529 8814203
-170.78105 -15.065434 84.002434 9931910
-171.38484 -14.923733 83.191948 11709089
-171.86122 -14.855727 82.488022 8089963
-172.32596 -14.863145 81.692772 8484977
-173.23647 -14.510145 81.019691 8419695
-174.16469 -14.241813 80.518845 7564643
-174.62099 -14.248981 79.711731 9472383
-175.07689 -14.256448 78.903641 10393229
-130.817 -13.530481 120.01064 9931904
-131.42563 -13.549689 119.69791 9208182
-132.30316 -13.360709 119.33649 8418927
-133.23053 -13.433696 118.84202 9603970
-147.95343 -13.87684 105.26511 7893358
-148.58389 -13.878733 104.3727 8682867
-149.2093 -13.880553 103.47679 7959144
-149.79483 -13.890297 102.81841 8814452
-150.53865 -13.914805 102.26634 9011574
-151.28433 -13.939669 101.71198 10853012
-152.21899 -13.971305 101.01556 10195336
-153.15627 -14.003348 100.31563 9208699
-153.90842 -14.029431 99.752777 9208699
-178.70665 -13.951797 76.433868 7564643
-179.07253 -13.953242 75.572632 10261899
-179.34425 -13.954324 74.925629 11183001
-129.77452 -12.202841 121.08002 6907486
-130.72853 -12.608536 120.43503 9931904
-131.67812 -12.69064 119.92578 8945011
-132.46828 -12.569578 119.58001 8353392
-133.10776 -12.733846 119.19209 9011576
-129.24004 -11.467596 121.65081 7236450
-129.96091 -11.558649 121.2523 7368036
-130.97566 -11.58582 120.73296 10458248
-131.90536 -11.683612 120.22716 8353650
-128.48289 -10.612111 122.3826 12959407
-129.39943 -10.677578 121.89671 6381400
-130.21002 -10.69746 121.48263 7894122
-130.93452 -10.788001 121.08252 11708313
-127.08553 -9.5421658 123.5234 11709340
-127.78935 -9.5570354 123.16491 9603455
-128.6972 -9.5766354 122.70229 12695980
-129.64409 -9.6844501 122.18369 7499365
-130.39738 -10.049818 121.65586 7894122
-126.31412 -8.3364363 124.40685 8353646
-127.12718 -8.676631 123.8595 10590349
-127.91697 -8.6051512 123.49347 9602944
-128.87318 -8.6023741 123.01586 10984852
-125.50861 -7.4916191 125.15851 7695204
-126.42464 -7.5792136 124.66371 8813941
-127.43098 -7.5963635 124.15279 11576473
-128.15111 -7.6815128 123.75713 10984852
-124.32001 -6.4616547 126.17834 8287598
-124.86018 -6.6862688 125.81527 8287598
-125.66125 -6.6981792 125.40925 8682613
-126.66628 -6.7133245 124.8998 8681843
-127.41181 -6.942863 124.43178 8681843
-123.2878 -5.2903643 127.15229 9340798
-124.15731 -5.5908384 126.61885 8814198
-125.15803 -5.603395 126.11259 8616564
-125.89713 -5.7001076 125.70266 9340801
-126.44464 -6.0564647 125.28159 8681843
-122.69743 -4.414093 127.76609 7827047
-123.4369 -4.494698 127.40614 9801349
-124.45344 -4.505589 126.91806 9275005
-125.19611 -4.7318192 126.45291 10261132
-122.1067 -3.5377212 128.38 10130314
-122.8455 -3.6170406 128.02094 8616819
-123.67552 -3.6247296 127.65016 9077626
-124.43095 -3.8503211 127.19952 8551025
-121.10326 -2.6583595 129.17793 9538176
-122.04707 -2.7377965 128.728 9603713
-123.08296 -2.7454197 128.26611 9801349
-123.64672 -2.9686172 127.9267 9340798
-119.98095 -1.1977547 130.26216 11380380
-120.54674 -1.5495664 129.87015 10129541
-121.30717 -1.6406612 129.49677 9866885
-122.27534 -1.70039 129.04391 9208955
-123.05358 -2.0884058 128.54318 6510930
-118.87622 -0.32024887 131.2623 9472127
-119.89857 -0.4977352 130.6748 9932164
-120.82493 -0.54400122 130.22997 10326148
-121.54157 -0.7656492 129.74467 10327177
-117.70888 0.55816436 132.51305 9011573
-118.41105 0.33820245 132.01865 7104090
-119.23296 0.33733267 131.6545 12958638
-120.14378 0.11603799 131.06676 9273717
-99.40493 1.7927312 149.39346 8090987
-100.12484 1.718575 149.04543 8419952
-100.92831 1.7185414 148.69009 10130313
-101.65023 1.6442481 148.34111 9406590
-115.40517 1.0027016 134.74004 8616306
-116.42976 1.0027518 134.29259 8550512
-117.04642 1.0028781 134.02319 9537662
-98.550476 2.8322074 150.18718 14076861
-99.306847 2.6097686 149.76376 10064262
-100.3112 2.6106513 149.3199 9800836
-101.0334 2.5367742 148.97098 10853268
-97.931244 3.7254722 150.81847 11182228
-98.487427 3.5026398 150.48337 9932419
-99.491829 3.504365 150.03983 9077624
-100.4154 3.4312706 149.60211 9077369
-97.110161 4.6203723 151.53958 11182228
-97.867378 4.3978562 151.11571 10195591
-98.872231 4.4003305 150.6723 9932419
-99.832382 4.1779366 150.15872 9537664
-96.287621 5.5173764 152.26222 12234149
-97.045334 5.2947183 151.83803 12497319
-98.05011 5.2978678 151.39491 10195591
-98.772812 5.2250404 151.0462 9472126
-95.590027 6.7184887 153.05122 10129289
-96.467781 6.4206743 152.54393 8813429
-97.473587 6.4247179 152.10075 10260617
-98.151077 6.1257138 151.6815 11576985
-94.964989 7.6219029 153.68906 8288370
-95.687157 7.5495934 153.34076 10129289
-96.604042 7.5085249 152.91884 8484464
-97.454437 7.3309255 152.47169 12234149
-94.145081 8.4967623 154.40164 9077629
-95.061287 8.4558764 153.98018 8354161
-95.978722 8.4151487 153.55811 10063752
-93.449921 9.4737139 155.09995 9077113
-94.304405 9.318511 154.65999 9275005
-95.240051 9.3695765 154.26666 9471871
-95.800148 9.1441603 153.92873 9932166
-92.124222 10.955355 156.27901 9406846
-92.698692 10.591579 155.87941 9142906
-93.603905 10.275689 155.35274 8748148
-94.611862 10.281916 154.90944 8682867
-95.172676 10.056048 154.57108 9011576
-91.32914 11.717698 156.93559 7433824
-92.053192 11.645358 156.58644 9406846
-92.989601 11.697619 156.19339 10525071
-93.690895 11.149244 155.66371 9603713
-90.657257 12.79129 157.66283 10524556
-91.290962 12.517874 157.27307 6776150
-92.227852 12.570449 156.88034 8683379
-92.953918 12.498432 156.53065 10590865
-89.820763 13.713733 158.403 11379607
-90.58493 13.486645 157.97418 10787727
-91.594696 13.493679 157.53102 6907480
-92.321449 13.42157 157.18095 7433824
-89.056259 14.490441 159.1284 9142907
-89.910103 14.464722 158.73575 10064005
-90.750366 14.304446 158.25989 9735297
-91.523323 14.191289 157.84276 8090987
-87.630394 15.486484 160.55875 10919829
-88.497391 15.370803 160.07983 10195594
-89.308861 15.376485 159.72688 8419184
-90.028748 15.139 159.21107 9274491
-79.018364 16.808079 168.35309 11906725
-79.724182 16.82773 168.27444 12892588
-80.431519 16.847679 168.19566 9340027
-84.776794 16.166685 163.42038 8682867
-85.824196 16.177149 163.0318 9603969
-78.992836 17.604797 168.64713 8880245
-79.843491 17.549751 168.5235 8682097
-78.39193 18.7075 169.12271 13551549
-79.059029 18.487394 168.96121 10590349
-79.726944 18.266935 168.79945 7564643
-78.274269 19.42704 169.3997 10393484
-79.12545 19.373575 169.27663 10458505
-77.527962 20.612349 169.92323 9999244
-78.28215 20.34667 169.73445 8880245
-79.10022 20.179665 169.5739 9011574
-77.511314 21.389227 170.20883 8617589
-78.352821 21.369751 170.09933 8090729
-76.896706 22.53829 170.70303 10788759
-77.545868 22.195112 170.49879 9143674
-75.941521 23.501476 171.32413 12432551
-76.805672 23.277456 171.04695 10656399
-77.682671 23.05681 170.79655 9208952
-75.115776 24.511652 172.24768 9998726
-76.086319 24.232813 171.87128 10130312
-72.434891 25.618151 174.63403 7563874
-73.121971 25.636925 174.50671 7564134
-73.836021 25.35536 173.86153 9472126
-74.759636 25.074408 173.13258 9735297
-165.75836 -17.380133 89.021042 8749947
-166.51942 -17.636948 88.434204 9802120
-167.09598 -17.658756 87.814438 8947069
-167.58255 -17.29928 87.247574 11381404
-164.36781 -16.38801 90.322083 9933191
-165.12386 -16.641006 89.740036 7894381
-165.9996 -16.548485 89.234749 7565675
-166.87209 -16.593988 88.671005 9867399
-167.4585 -16.61145 87.95163 9077625
-167.92006 -16.616877 87.165276 7826790
-168.36824 -16.546152 86.456711 9142651
-162.11316 -15.221113 92.498428 8287854
-162.78825 -15.476577 91.848091 7893355
-163.64618 -15.65321 91.193459 7893612
-164.47839 -15.55608 90.725197 10919571
-165.33546 -15.597237 90.162643 8091760
-166.14615 -15.7125 89.569931 8091761
-167.12296 -15.912557 88.803024 8682867
-167.80365 -15.777708 88.04538 8682867
-168.26991 -15.707886 87.345139 8945526
-168.73259 -15.713467 86.556747 8879479
-169.19911 -15.644153 85.854874 9866374
-169.66962 -15.499818 85.239319 10854036
-158.84888 -14.207698 96.034683 5920074
-159.61792 -14.236524 95.453369 8090986
-160.06075 -14.46729 94.67556 8617330
-160.86217 -14.499972 94.107239 9406339
-161.58861 -14.663135 93.439545 8354164
-162.05284 -14.919129 92.808212 8090993
-163.0737 -14.814991 92.266678 8354163
-163.91939 -14.852853 91.706238 5920082
-164.55605 -14.881518 91.284073 9209214
-169.15773 -15.044044 86.773674 8616307
-169.77142 -14.826264 86.058197 9143678
-170.23566 -14.832228 85.265923 10655633
-170.71161 -14.763468 84.563858 9405566
-171.31567 -14.621469 83.753174 11379356
-133.79973 -13.190813 118.65718 7761253
-134.35199 -13.426329 118.28352 7432288
-135.17677 -13.453292 117.85947 10591124
-136.00459 -13.480637 117.43369 11775393
-136.74403 -13.578487 117.02309 12959663
-144.4561 -13.866746 110.0168 8814451
-144.98367 -13.868247 109.31976 10853778
-145.63896 -13.870121 108.44545 11051418
-146.15921 -13.871669 107.74304 10261903
-146.80469 -13.873487 106.86143 8287858
-147.44511 -13.875451 105.97617 7893358
-154.66248 -14.055818 99.187515 8879991
-155.41837 -14.08256 98.619675 9537921
-156.17628 -14.109657 98.049316 8089963
-156.93631 -14.137161 97.476379 9669504
-157.69955 -14.165071 96.901535 8682867
-158.27357 -14.186257 96.468994 10261132
-172.0992 -14.212186 84.135361 9931910
-172.55907 -14.218304 83.333366 8089963
-173.13336 -14.226332 82.329529 8287341
-173.59235 -14.233115 81.525589 8288366
-177.48926 -13.947077 79.220482 10261132
-177.77408 -13.948168 78.57901 9866629
-178.24339 -13.949986 77.507683 11511449
-132.82605 -12.290094 119.51611 7564651
-133.58234 -12.530416 119.03833 6774358
-134.50096 -12.514436 118.58496 7761253
-135.43855 -12.586825 118.08565 9538433
-136.20241 -12.829887 117.60296 9736320
-132.26245 -11.403092 120.16399 7564651
-132.81308 -11.636029 119.79228 7564651
-133.63449 -11.65886 119.37153 6510930
-134.66562 -11.687973 118.84328 8222060
-135.42793 -11.929164 118.36211 12433069
-131.52014 -10.657566 120.84309 11314331
-132.24879 -10.748575 120.44073 9538437
-133.06929 -10.769553 120.02126 8880508
-133.89273 -10.790885 119.60014 7037790
-134.44713 -11.024732 119.22615 6510930
-130.03709 -9.1707191 122.19876 7894122
-130.58527 -9.4004278 121.82954 8551024
-131.47606 -9.6930361 121.26288 13089966
-132.49794 -9.5992031 120.78993 15393233
-133.23615 -9.9712124 120.26685 12959410
-133.88031 -10.13302 119.87759 7564651
-129.26999 -8.2832651 122.94875 9800579
-130.02089 -8.5159245 122.47681 8221804
-130.83647 -8.5321646 122.06175 7760994
-131.65488 -8.5486355 121.64523 9208182
-132.20662 -8.7792234 121.27382 13550517
-128.50288 -7.3969135 123.69833 10984852
-129.25301 -7.628161 123.22736 8484464
-130.27098 -7.6462345 122.71021 7563619
-130.99922 -7.73245 122.31001 7760994
-131.64 -7.8906159 121.924 4866361
-127.76273 -6.6573949 124.37389 10129030
-128.48499 -6.7412891 123.97756 9405308
-129.50145 -6.7572999 123.46203 8879735
-130.43266 -6.8453412 122.95947 8747893
-126.28321 -5.1811604 125.72325 9340801
-127.03508 -5.5728893 125.18533 8813686
-127.98121 -5.6398597 124.68398 9010550
-128.79373 -5.6506505 124.27272 9338742
-129.45766 -5.9525919 123.81576 9340286
-125.54408 -4.4441447 126.39729 9012093
-126.26293 -4.5246058 126.00416 9077886
-127.27392 -4.5354781 125.49349 9471359
-128.20035 -4.6188583 124.99524 9996929
-124.82146 -3.5255477 127.13786 8682867
-125.69733 -3.6426015 126.65108 9077886
-126.50512 -3.6497719 126.24362 8683128
-127.38632 -3.7677863 125.75374 10721168
-124.00438 -2.6792426 127.88459 9340540
-124.93001 -2.758857 127.39965 9011575
-125.93846 -2.7659645 126.89178 10458509
-126.66022 -2.8446057 126.49796 9603716
-122.87573 -1.2096881 128.9753 7958632
-123.44657 -1.5637106 128.58014 7761509
-124.21479 -1.6554383 128.20177 9011575
-125.16414 -1.7153121 127.71268 9669504
-125.91742 -2.1052816 127.17474 14603206
-121.76334 -0.32701606 129.98026 8748144
-122.69081 -0.5492503 129.40128 10261899
-123.73333 -0.55215931 128.9382 8682867
-124.45467 -0.77522033 128.44702 8682867
-120.3848 0.55643827 131.3286 8681836
-121.29948 0.33516109 130.73912 9865854
-122.13087 0.33432332 130.37086 8945522
-123.04999 0.11175332 129.77838 11314843
-102.2901 1.495496 147.99858 7959144
-102.89532 1.4954408 147.73099 7959144
-103.90578 1.4953784 147.28401 8419955
-104.7158 1.4953654 146.92578 9012603
-117.45837 1.0028943 133.84341 7563619
-118.28447 1.0030555 133.48277 6511954
-119.3204 1.0032011 133.0307 7300958
-119.94399 1.0033647 132.75864 9537150
-101.56667 2.8356009 148.85469 9406590
-102.19252 2.3889363 148.39926 7696228
-103.08727 2.3897572 148.00385 7169628
-103.93232 2.2411132 147.57069 7893611
-100.74667 3.7308996 149.57549 8287853
-101.507 3.5081024 149.15015 8419439
-102.51781 3.5101988 148.70395 7367007
-103.24446 3.4368052 148.3532 7169373
-99.925606 4.6279507 150.2975 9537664
-100.68603 4.4052043 149.87212 7958888
-101.69681 4.4081254 149.42622 7827558
-102.45893 4.1849251 148.99991 5919050
-99.341209 5.3773541 150.85573 8485229
-100.06586 5.3047724 150.50624 8748145
-101.00549 5.3534598 150.11018 8748404
-101.63694 5.0845795 149.72334 8879990
-98.550583 6.7689672 151.76219 11774108
-99.328033 6.3761277 151.26115 9471867
-100.30049 6.4373431 150.85559 7498591
-100.98036 6.1379504 150.43517 8748403
-97.142334 7.7838154 152.79095 7563619
-97.784645 7.6356921 152.44762 11839647
-98.712532 7.5648904 152.00896 10590348
-99.641632 7.4941206 151.56972 10458505
-96.516937 8.691699 153.43071 9011576
-97.077324 8.4668837 153.09299 9866116
-97.885834 8.4716902 152.73737 11445144
-98.807884 8.431674 152.31358 9340539
-96.339043 9.4220715 153.80161 9143162
-97.260155 9.3822765 153.37837 9998470
-98.070351 9.3877563 153.02222 9340539
-98.632164 9.1623611 152.68356 9340539
-95.644234 10.403548 154.50153 9932166
-96.502724 10.248733 154.05992 9866373
-97.36084 10.224277 153.67067 10196105
-98.006119 10.075647 153.32584 9340539
-94.153618 11.736482 155.69464 9801348
-94.835609 11.433984 155.27193 9077625
-95.848221 11.441643 154.82758 11116952
-96.733437 11.1406 154.31558 12564394
-93.522812 12.657045 156.34312 10130058
-94.250389 12.585496 155.99295 8880246
-95.192146 12.639579 155.59868 9472127
-95.827553 12.366491 155.20827 10590864
-92.852554 13.735756 157.07259 10590609
-93.488312 13.461765 156.68163 10590609
-94.430199 13.516152 156.28746 9801092
-94.994049 13.288177 155.94678 10459278
-91.263832 14.664919 158.27031 9735297
-91.891487 14.511448 157.89235 8748404
-92.814339 14.439835 157.43742 8484721
-93.736786 14.368423 156.9809 10130058
-94.362274 14.214981 156.59825 9340286
-90.010353 15.624467 159.62497 8813942
-90.626488 15.467453 159.22209 9735297
-91.341629 15.392371 158.84409 9603455
-92.210854 15.278311 158.3656 9340030
-93.080772 15.1647 157.88712 8089963
-81.140984 16.867926 168.11678 9340027
-81.852066 16.888367 168.0377 9340027
-86.855423 16.184834 162.60922 9998727
-87.682228 16.191587 162.27251 10262156
-88.510727 16.198889 161.93689 10064776
-80.592384 17.812004 168.52803 7037274
-81.112587 17.53928 168.36528 8879476
-81.933998 17.371227 168.20396 9736836
-80.342682 18.575148 168.83707 7432801
-81.332848 18.477468 168.68094 8551282
-79.493507 19.707966 169.35393 9011574
-80.401207 19.495676 169.166 8025194
-79.716461 20.491962 169.61299 7827814
-80.522308 20.227556 169.41843 7564643
-78.825783 21.386269 170.04781 7038298
-79.671219 21.367376 169.93808 7433057
-78.077011 22.581106 170.57509 11379606
-78.985252 22.369717 170.38739 9932418
-79.895088 22.158094 170.19946 9208952
-78.244949 23.454479 170.93797 10787726
-78.86747 23.101372 170.66872 11379606
-76.749535 24.568264 172.02426 10064003
-77.523705 24.387304 171.75557 9866623
-78.215508 24.098707 171.41618 10721676
-74.49929 25.675726 174.25304 8682867
-75.420685 25.702574 174.08475 9472126
-75.883766 25.100163 172.87032 8946039
-76.785469 25.121643 172.66151 10985364
-166.3535 -15.418614 89.68119 10457993
-166.99846 -15.449447 89.252106 8682867
-167.70267 -15.476313 88.593399 8682867
-162.71638 -14.355737 93.100494 9210491
-163.49684 -14.386494 92.505234 8354163
-164.27968 -14.417556 91.906998 5920082
-165.06584 -14.602185 91.220306 10064521
-165.79269 -14.710326 90.66925 9340798
-166.65132 -14.749169 90.099358 10195078
-167.51451 -14.788547 89.526627 8682867
-168.14691 -14.8079 88.826828 13683130
-168.65088 -14.858172 87.902451 10525069
-169.34062 -14.595866 87.124115 7695974
-137.25218 -13.522514 116.79175 10261898
-137.976 -13.50306 116.43732 9801094
-138.92714 -13.579591 115.92953 7630443
-139.76949 -13.608814 115.4957 11380639
-140.50142 -13.85308 114.96739 10459537
-141.21886 -13.857758 114.14277 8025969
-141.90318 -13.859683 113.291 8157040
-142.44684 -13.861194 112.60651 9143163
-143.12157 -13.863049 111.7471 8552312
-143.79155 -13.864916 110.88394 11182484
-144.19092 -13.865993 110.36411 8814451
-170.48601 -14.19283 86.935562 8092016
-171.06276 -14.199373 85.936569 7827560
-171.63882 -14.206321 84.936432 7760741
-176.5233 -13.943414 81.350777 8288366
-176.91245 -13.944881 80.499893 9866887
-177.29817 -13.946344 79.64743 10261132
-136.33456 -12.395159 117.71603 9736320
-137.10161 -12.638652 117.23154 11315095
-138.14769 -12.671838 116.69408 9209468
-139.10561 -12.776321 116.17134 7039331
-135.7923 -11.647024 118.29603 11840932
-136.53326 -11.741711 117.88597 7302237
-137.36848 -11.766143 117.4577 7302237
-138.27835 -11.903646 116.9454 7828329
-134.29356 -10.143141 119.66653 12301738
-135.05992 -10.54678 119.11639 10130570
-136.03067 -10.626978 118.59724 10196363
-136.79691 -10.735535 118.16883 6907224
-137.54391 -10.961977 117.70144 6512978
-133.5453 -9.3934679 120.35027 13617339
-134.28171 -9.4835262 119.94445 13025461
-135.11125 -9.5027447 119.52111 13091255
-136.05595 -9.5691414 119.02074 11775139
-132.77711 -8.5276785 121.09193 13551031
-133.71342 -8.5909119 120.59697 10854036
-134.54207 -8.6083031 120.17496 14473163
-135.28239 -8.6976843 119.76743 12301739
-131.35646 -7.4464612 122.24901 7760994
-131.99854 -7.604363 121.86243 5787462
-132.93863 -7.694973 121.35442 9077626
-133.97263 -7.7143865 120.82864 9406334
-134.7379 -7.9499989 120.34826 10854036
-130.78932 -6.5582509 122.89925 9340286
-131.42058 -6.6559181 122.54291 9406077
-132.22775 -6.5806971 122.16977 7235680
-133.1646 -6.7221484 121.64238 9012861
-133.95987 -7.0514188 121.10843 9406334
-129.84416 -5.554996 123.78615 9274235
-130.69872 -5.6214094 123.33089 10721938
-131.64316 -5.6011314 122.86636 13091254
-132.45753 -5.5535631 122.47818 10788754
-128.55388 -4.3294606 124.93756 9207155
-129.10365 -4.5554943 124.56905 12430756
-129.92128 -4.5646105 124.15592 9207669
-130.94739 -4.5762043 123.63737 13157048
-131.70728 -4.8063884 123.16189 14605262
-127.78293 -3.4410987 125.68983 9142649
-128.53575 -3.6681583 125.21925 10983310
-129.35268 -3.6756966 124.80717 9536120
-130.17244 -3.683316 124.39377 8878705
-130.72571 -3.910157 124.02324 10262412
-127.01192 -2.5532372 126.44202 7563619
-127.76401 -2.7791193 125.97231 9932164
-128.84628 -2.5655415 125.51906 9141621
-129.51379 -2.8659067 125.06107 10128257
-130.15611 -3.0187402 124.67668 9207155
-125.75443 -1.2216704 127.62087 10656142
-126.30605 -1.5775148 127.19794 14405827
-127.0536 -1.6695454 126.78602 10787215
-127.86861 -1.6736534 126.37674 9932164
-128.57655 -1.8252991 125.96004 8616305
-124.6806 -0.33389691 128.67914 9669762
-125.5839 -0.55742168 128.06085 9340796
-126.59917 -0.56028217 127.55192 8814452
-127.30789 -0.6363827 127.1393 7564131
-127.91179 -0.78642929 126.72206 7563619
-123.29828 0.5547418 130.03912 11972773
-124.22162 0.33220541 129.44478 9669762
-125.05671 0.33135071 129.06561 8946039
-125.94838 0.10745002 128.4308 7564643
-105.12143 1.4953911 146.74641 9736836
-105.7308 1.4953278 146.47697 9012603
-106.74838 1.4954517 146.02695 9012091
-107.56416 1.4955279 145.66623 9735812
-120.36053 1.0034721 132.57689 10984593
-121.19613 1.0036823 132.21251 11115411
-122.24411 1.0040387 131.75555 8946296
-122.87508 1.0041884 131.48047 9867398
-104.43523 2.6900458 147.52789 6972256
-105.11483 2.3918207 147.10799 8881018
-105.9287 2.3927507 146.74844 8946043
-106.77891 2.2437806 146.31288 9011580
-103.57943 3.7374947 148.32542 7169373
-104.34348 3.5142903 147.89821 6577237
-105.36108 3.5167732 147.44911 8880507
-106.12727 3.2929902 147.02081 9537667
-102.79334 4.486649 148.97273 7037531
-103.6536 4.4594221 148.58141 8682868
-104.61095 4.3723164 148.12317 5919050
-105.30531 4.1936946 147.74466 7038307
-102.17377 5.3881841 149.60744 11379356
-102.90247 5.3158126 149.25623 6905688
-103.92001 5.3201547 148.80792 6511443
-104.68638 5.096663 148.37962 5919050
-101.48119 6.5944738 150.39632 8813684
-102.33005 6.4475231 149.96213 9405822
-103.08427 6.3605423 149.59378 9076601
-103.8271 6.1520557 149.1819 7234909
-99.974533 7.7998157 151.54482 10458505
-100.53629 7.5752964 151.20656 8813938
-101.55264 7.5814919 150.75958 9603200
-102.48699 7.5112953 150.31828 8616306
-99.350479 8.7093973 152.18468 9340539
-99.912697 8.4845781 151.84612 8748401
-100.85753 8.5367861 151.44917 9866371
-101.72028 8.3825579 151.00598 10260873
-98.725243 9.6215801 152.8262 11182228
-99.287987 9.3963614 152.48717 9800833
-100.10139 9.4024115 152.12991 8025449
-101.02904 9.3636122 151.70427 10589580
-97.692863 10.533442 153.64781 8682867
-98.549599 10.35603 153.19815 10261384
-99.476158 10.317471 152.77328 11379863
-100.20758 10.24672 152.4218 9801860
-96.991669 11.758842 154.44992 12564394
-97.776009 11.523509 154.00893 9340796
-98.732597 11.40791 153.5399 9472126
-99.581749 11.164676 153.06706 9801604
-96.362663 12.680606 155.09808 12564398
-97.093391 12.609804 154.7469 13617339
-98.02137 12.572054 154.32179 10985620
-98.881569 12.394374 153.8705 8089963
-95.536476 13.572586 155.82146 9406078
-96.463654 13.534728 155.39668 11051159
-97.279045 13.542751 155.03969 10853780
-97.844597 13.315049 154.69844 8682867
-94.112328 14.690009 157.03561 9340286
-94.888863 14.57822 156.61685 8879991
-95.730247 14.41928 156.13437 9208443
-96.589874 14.396095 155.73676 9208443
-97.214531 14.242851 155.34956 9208443
-92.659492 15.646983 158.476 9800581
-93.480827 15.492698 157.98492 8879735
-94.340858 15.468807 157.58586 10327181
-95.124168 15.184752 157.00323 10459278
-82.327202 16.902229 167.98491 9736836
-83.280289 16.930281 167.8792 10657171
-89.132957 16.204725 161.68597 10262156
-89.756737 16.210814 161.43552 9143163
-90.589485 16.21941 161.10258 8089963
-91.215309 16.226244 160.85356 8092019
-82.554741 17.679075 168.24083 10526096
-83.405449 17.657084 168.12926 11710370
-81.704491 18.81155 168.75764 9736836
-82.513145 18.547279 168.56282 11315612
-81.82811 19.54299 169.00966 8947324
-82.7416 19.330629 168.82095 9736836
-80.893593 20.564974 169.49641 8223348
-81.889381 20.469849 169.34052 8354933
-80.289925 21.682789 169.97794 7565675
-81.202873 21.471508 169.78972 9209985
-80.266609 22.499176 170.27881 9011579
-81.034843 22.36442 170.13615 10919831
-79.491966 23.457872 170.75818 10064262
-80.476631 23.361904 170.57869 10590096
-78.881538 24.470842 171.59721 11051412
-79.607491 24.323147 171.36232 13353398
-80.334267 24.175556 171.12723 16248798
-76.570374 25.735483 173.86284 9537918
-77.472015 25.448454 173.08186 11906725
-78.142525 25.15546 172.35002 10985364
-79.050163 25.179035 172.14345 10262925
-140.68411 -13.419434 115.11581 10459537
-141.53394 -13.449022 114.67812 8289140
-142.60127 -13.486725 114.12811 10657173
-143.45876 -13.517196 113.6862 8092019
-160.20628 -13.902397 97.910713 8616818
-160.7923 -13.90417 96.944763 8419951
-161.37282 -13.906138 95.975533 8946039
-161.90858 -13.91404 95.241928 8946551
-162.68462 -13.94274 94.647232 9210491
-163.46759 -13.97225 94.052505 12960952
-164.25304 -14.002116 93.454773 12499888
-165.04205 -14.03244 92.854996 6709082
-165.83411 -14.063222 92.252419 7563618
-166.62866 -14.09441 91.64695 9077368
-167.42584 -14.125955 91.038345 10457993
-168.2256 -14.157857 90.426727 9077368
-168.86676 -14.176724 89.726334 9998727
-169.44579 -14.182102 88.730583 7696485
-170.024 -14.187864 87.733856 9144702
-175.53136 -13.93973 83.46907 8813683
-176.03055 -13.941574 82.41153 8617331
-176.32692 -13.942679 81.775558 8288366
-139.47739 -12.493497 116.10188 7039331
-140.04309 -12.733118 115.71974 8618105
-140.89111 -12.760952 115.28369 9801865
-141.74257 -12.789268 114.84566 9867657
-142.50273 -12.889102 114.4239 11512481
-138.48448 -11.578135 116.97636 8090992
-139.39769 -11.549524 116.53095 8683642
-140.3864 -11.634343 116.00089 9933451
-141.16676 -11.747018 115.56373 9407363
-141.73792 -12.121289 115.12339 9538950
-137.20789 -10.216317 118.17715 6512978
-137.86275 -10.380715 117.78143 9143678
-138.54449 -10.694015 117.31088 7564648
-139.6691 -10.502597 116.82672 9143935
-140.44911 -10.74654 116.33556 11380639
-136.63686 -9.3174953 118.8336 10788244
-137.19882 -9.5521088 118.45553 9011832
-138.03944 -9.5723486 118.02625 8880507
-138.88336 -9.592845 117.59526 8880507
-139.66208 -9.834837 117.10555 8880507
-135.64795 -8.4106464 119.70273 6510930
-136.41791 -8.6483355 119.21921 10393486
-137.46664 -8.6710939 118.68466 9932934
-138.30943 -8.6896658 118.25504 8222320
-138.87558 -8.9251347 117.87452 8090992
-134.86877 -7.5101633 120.46417 7958632
-135.63715 -7.7461081 119.98215 6642516
-136.68393 -7.766438 119.44963 10722451
-137.64272 -7.8595691 118.93127 10327692
-133.59697 -6.1603608 121.65744 12169891
-134.36557 -6.5267868 121.12161 7103839
-135.13139 -6.6279578 120.69659 7629667
-135.96802 -6.6419129 120.27222 9208699
-136.6485 -6.9504752 119.80432 10854036
-137.30521 -7.1107392 119.40968 9932934
-132.81895 -5.2631807 122.41699 11380633
-133.37646 -5.4923058 122.04357 12564648
-134.41675 -5.5066533 121.51733 10525326
-135.36961 -5.5942874 121.00463 7958632
-136.02415 -5.7524142 120.61202 9932678
-132.06798 -4.5151701 123.10189 11709858
-132.80566 -4.5975599 122.69891 11643548
-133.63652 -4.6073027 122.2794 13024941
-134.58261 -4.6631513 121.7832 10459278
-131.29663 -3.6496267 123.84549 9801605
-132.23468 -3.7029388 123.35435 9143931
-133.06468 -3.7109783 122.936 10262412
-133.80624 -3.7926092 122.53146 12235687
-129.81824 -2.2765789 125.15248 10720396
-130.55502 -2.4887116 124.6964 9010808
-131.52077 -2.584393 124.17389 9932678
-132.48972 -2.6806893 123.64952 9341310
-133.05127 -3.0422556 123.21927 8090987
-129.08748 -1.346769 125.90243 8682356
-129.98099 -1.4620309 125.40796 10853012
-130.80606 -1.4659336 124.9938 9010808
-131.54338 -1.5439545 124.59283 9602945
-127.73357 -0.34121081 127.1549 7563619
-128.33885 -0.49109349 126.73695 7563619
-129.25824 -0.56785107 126.21877 8814714
-130.18025 -0.64504725 125.69919 9472131
-130.9973 -0.79671443 125.17489 8089963
-126.2007 0.55302781 128.687 8354158
-127.09451 0.32908714 128.04872 8156779
-127.91352 0.3281731 127.63914 7564645
-128.62335 0.25271395 127.22 7038307
-129.22287 0.10246203 126.79185 8814715
-107.97288 1.4956478 145.48547 8287598
-108.58669 1.4957259 145.21413 8616819
-109.61205 1.4960186 144.76073 8288883
-110.43421 1.4962492 144.39723 9340801
-123.29671 1.0043863 131.29671 11709345
-124.14239 1.0047112 130.92822 14210248
-125.2033 1.0051601 130.46602 8682867
-107.28768 2.694402 146.26813 8682357
-107.97076 2.3953369 145.84639 8024426
-108.87868 2.3965609 145.44539 9076857
-109.74081 2.0592134 144.92915 9208700
-106.50853 3.6325328 146.98805 8879995
-107.40428 3.5221007 146.54768 8879995
-108.22458 3.5243855 146.18588 8682100
-108.78967 3.2995605 145.84598 8089963
-105.64354 4.4965453 147.71625 8287859
-106.58152 4.4245911 147.27263 7038307
-107.6065 4.4285026 146.82094 9143165
-108.17187 4.2037272 146.48099 11905692
-105.02438 5.4006815 148.35179 7038307
-105.75767 5.3284664 147.99858 7827822
-106.7823 5.3334141 147.54741 7432808
-107.55303 5.1095963 147.11708 9537667
-103.44555 6.9088078 149.65338 9734531
-104.33351 6.6103182 149.14122 8485492
-105.18728 6.4635091 148.70496 8880508
-105.94607 6.3766861 148.33461 7301479
-106.52254 6.0149512 147.935 7038307
-102.82351 7.8180842 150.29218 8089962
-103.59209 7.5947886 149.86298 10524301
-104.61533 7.6018953 149.41331 9209467
-105.35068 7.5307369 149.05963 10459279
-102.20043 8.7297649 150.93251 8617334
-102.76488 8.5048161 150.59288 10392717
-103.78808 8.5126905 150.14366 11116950
-104.72852 8.4435177 149.70024 9209467
-101.57653 9.6439486 151.57486 8617334
-102.14137 9.4186249 151.23483 8617334
-102.96001 9.4255142 150.87598 8946038
-103.69527 9.3550806 150.52289 10261897
-100.5433 10.557013 152.39819 10459534
-101.31268 10.333216 151.96835 9867400
-102.336 10.342499 151.52008 7039072
-103.0715 10.272333 151.16698 8551280
-99.844612 11.784774 153.20007 8486256
-100.64931 11.351138 152.67039 10985879
-101.71085 11.262114 152.16573 10064777
-102.44668 11.19222 151.81259 8551280
-98.56739 12.856371 154.19485 8089963
-99.217087 12.707934 153.84821 8681843
-99.951439 12.637961 153.49573 8748404
-100.92779 12.41562 152.97508 9275772
-101.65142 11.957801 152.47156 9208443
-98.391243 13.600888 154.57179 9142651
-99.323067 13.564235 154.14548 9668738
-100.14298 13.573398 153.78691 9471359
-100.71046 13.345993 153.44484 6512978
-96.975235 14.719673 155.79832 9208443
-97.808807 14.537201 155.29909 8945528
-98.735184 14.499846 154.86226 8089963
-99.466049 14.267915 154.36504 9931910
-100.08174 14.275193 154.09592 9931910
-95.525505 15.675944 157.23674 10459278
-96.247856 15.440406 156.7215 9801092
-97.213448 15.500277 156.34587 9603713
-97.997986 15.216999 155.76329 9537921
-84.47599 16.965984 167.74675 8288624
-91.842255 16.233379 160.60516 9735814
-92.67997 16.24337 160.27473 8879479
-93.519707 16.253862 159.94527 8879479
-83.883965 17.671938 168.07652 11315615
-84.815292 17.539911 167.91501 9604226
-83.136467 18.858225 168.60048 9736836
-83.965828 18.691679 168.43878 13683649
-84.731468 18.425407 168.24846 12235690
-83.116585 19.667671 168.89844 11052440
-83.982552 19.616444 168.77432 12235436
-82.513123 20.784956 169.37967 9538950
-83.190804 20.564983 169.21693 8815228
-83.869324 20.344656 169.05391 12827573
-82.398834 21.515543 169.66025 12499119
-83.265213 21.46604 169.53679 10655887
-81.70034 22.553886 170.12428 10196623
-82.566261 22.505417 170.00122 9998985
-81.098106 23.682409 170.61629 9734788
-81.77282 23.461535 170.44672 11117208
-82.493706 23.490591 170.36967 13551031
-80.279022 24.696978 171.54372 11905954
-81.135674 24.467506 171.2234 11313818
-81.755402 24.228807 170.93495 11905954
-77.935371 25.769993 173.55414 10064003
-78.847374 25.793795 173.34673 8354675
-79.748665 25.202353 172.02391 10855060
-80.459846 25.22963 171.92863 11905954
-143.8889 -13.532751 113.46442 8092019
-144.53613 -13.556137 113.13071 10261900
-145.40224 -13.587659 112.68404 10853521
-146.24776 -13.468807 112.30968 9538177
-158.04823 -13.895567 101.3582 10261132
-158.53429 -13.897079 100.59617 9735043
-159.13643 -13.898947 99.640198 9011576
-159.73323 -13.900794 98.680878 8616818
-174.20438 -13.934903 86.205246 7827302
-174.61734 -13.936393 85.365631 7366751
-175.02615 -13.937877 84.523994 8813683
-143.02516 -12.609107 114.27774 7565675
-143.81406 -12.579471 113.89496 7894640
-144.82254 -12.669394 113.35291 11905951
-145.52209 -12.993167 112.86919 11839901
-141.58939 -11.224901 115.5674 7565675
-142.16219 -11.598974 115.12634 8354933
-142.93457 -11.622428 114.72994 10722966
-143.88188 -11.517224 114.29907 10986138
-144.67593 -11.766575 113.79873 10787215
-140.82501 -10.459655 116.26566 11182487
-141.58466 -10.55477 115.8461 7960432
-142.44189 -10.578521 115.40723 8947070
-143.3029 -10.602629 114.96661 8552312
-143.87953 -10.843746 114.57858 11512481
-139.79909 -9.3925629 117.21931 9340287
-140.79475 -9.6402178 116.6189 8683384
-141.86424 -9.6671791 116.07285 8420726
-142.62868 -9.7615356 115.65159 8157554
-139.24902 -8.6362772 117.80685 7564648
-140.00545 -8.7275743 117.39085 8682357
-141.07277 -8.7518721 116.84709 9538178
-142.07486 -8.9996233 116.24358 8420726
-138.01414 -7.5698395 118.86527 9932934
-138.58095 -7.8039851 118.4851 8419697
-139.49831 -7.598577 118.11129 8879479
-140.28049 -7.7038851 117.67667 9339773
-141.04248 -7.9289331 117.20255 9010808
-136.96744 -6.3616753 119.88832 10854036
-137.9323 -6.6195202 119.29922 9406590
-138.92206 -6.6924067 118.77417 9604226
-139.77347 -6.7075758 118.34219 9011064
-135.73738 -5.3022499 120.94144 9932678
-136.39333 -5.4601455 120.54819 10393229
-137.14368 -5.5452533 120.13778 10985622
-138.10323 -5.6040454 119.63367 9472640
-138.83867 -5.5699792 119.28004 9011577
-135.16386 -4.4023204 121.60049 5919050
-135.72697 -4.6322322 121.22376 8156268
-136.56856 -4.6424708 120.79871 7366239
-137.41338 -4.6528401 120.37195 8353903
-137.98109 -4.8845859 119.99233 7893352
-134.17168 -3.4985662 122.47021 11906725
-134.94321 -3.7294383 121.98901 7234910
-135.9933 -3.7399623 121.45953 7169117
-136.74419 -3.8224783 121.04994 8222061
-137.40427 -3.9792485 120.65514 7893352
-132.89453 -2.1476512 123.66753 11378324
-133.45747 -2.5090404 123.23659 7432543
-134.22531 -2.604059 122.81335 7169629
-135.13507 -2.675 122.32912 7893096
-136.04964 -2.8427515 121.80238 7695976
-132.04881 -1.4719855 124.3698 11182745
-132.76912 -1.4306265 124.02674 10786444
-133.71631 -1.4799752 123.53271 8484717
-134.55449 -1.4841036 123.11186 10128771
-135.11865 -1.7120414 122.73547 9867142
-130.6127 -0.34818852 125.71162 9010808
-131.23416 -0.34971395 125.40015 9010808
-131.94589 -0.57565135 124.87124 9735043
-132.98788 -0.57870632 124.34882 8879733
-133.91298 -0.80666471 123.71283 8879475
-129.07057 0.55107313 127.25265 7038307
-129.87489 0.37092373 126.69668 7367271
-130.80122 0.32508203 126.19493 10854038
-131.51866 0.2491743 125.77168 9011835
-132.3325 0.097732402 125.23552 8617334
-110.84608 1.4963629 144.21518 9340801
-111.4649 1.4965318 143.94157 8880507
-112.49869 1.4969418 143.48456 9735045
-113.32774 1.4973259 143.11809 9010808
-126.03694 1.0053453 130.07552 10525071
-126.85909 1.0054802 129.66922 11248537
-127.89064 1.0057038 129.15948 9472128
-128.71863 1.0058774 128.75046 7564651
-109.50967 2.8489931 145.34729 8089963
-110.16166 2.6996179 144.99924 8156270
-110.84861 2.3995779 144.57541 9012093
-111.81714 2.3445091 144.12502 8880505
-112.81197 1.9494541 143.52701 10261131
-109.3452 3.5729573 145.7097 8484721
-110.28333 3.530483 145.27782 8089963
-111.11016 3.5331306 144.91321 7959661
-111.67875 3.3076484 144.57158 8682867
-108.51413 4.5078034 146.45122 10458506
-109.45877 4.4360194 146.00478 11313560
-110.49178 4.4404235 145.54971 9142650
-111.06041 4.2150173 145.20802 8813686
-107.89503 5.4148412 147.08794 8090987
-108.63335 5.342783 146.7326 9011831
-109.57265 5.3021221 146.3009 11642780
-106.51831 6.9284 148.30232 8617337
-107.08617 6.3988395 147.83928 8025198
-108.01337 6.2522559 147.37059 8682867
-108.839 6.2575073 147.00763 9011575
-109.40747 6.0322509 146.66608 8090987
-105.69108 7.838819 149.03235 10261903
-106.46384 7.6154146 148.60129 8091249
-107.50513 7.4857645 148.08916 7960176
-108.20768 7.307487 147.70712 9603712
-108.78678 6.9443264 147.30544 9340539
-105.06895 8.7528 149.67412 9209467
-105.63606 8.5276461 149.33311 9012090
-106.66657 8.5365086 148.8815 9144192
-107.4414 8.3127832 148.4493 7039331
-104.2759 9.513875 150.33025 10788241
-105.01345 9.4438038 149.97626 11182742
-105.97164 9.4990177 149.5752 9866373
-106.61261 9.227808 149.18306 10262415
-103.61654 10.58601 151.05223 9340795
-104.25649 10.314722 150.66054 10853777
-105.21413 10.370692 150.26004 10721679
-105.95426 10.301109 149.90514 9602945
-102.78585 11.505041 151.78844 9340795
-103.55943 11.281185 151.35683 7038298
-104.58964 11.292381 150.90619 9011831
-105.36525 11.06843 150.47366 9931910
-101.43513 12.887114 152.94048 9208443
-102.01485 12.520749 152.53716 10459023
-102.87949 12.504163 152.14854 10656399
-103.77922 12.314592 151.67491 11248278
-104.53343 11.990014 151.21135 8090987
-100.8072 13.815011 153.59064 10458507
-101.37554 13.587827 153.24831 9208443
-102.19896 13.59786 152.8886 9998215
-103.13787 13.562793 152.45973 10129544
-99.648201 14.751353 154.64636 9010808
-100.68766 14.571836 154.05206 10590093
-101.61835 14.535692 153.61244 11051158
-102.34641 14.303581 153.10701 9208443
-98.406815 15.709826 155.995 8813942
-99.13073 15.475038 155.47963 8616563
-100.06271 15.43863 155.04163 8682358
-101.09595 15.256892 154.431 10458507
-85.367775 17.96088 168.00151 9341054
-85.93837 17.397741 167.72466 8222573
-86.945168 17.309683 167.30151 7827815
-87.590813 17.019075 166.87274 10262414
-85.35067 18.770153 168.29893 8880506
-86.172249 18.472277 168.07748 11183001
-86.896492 18.153387 167.6649 11117208
-84.704536 19.641571 168.69566 10459284
-85.428703 19.667097 168.61688 9275011
-86.110954 19.446594 168.4534 13024949
-83.9543 20.837317 169.2234 8090995
-84.635017 20.617439 169.06036 8090995
-85.360054 20.644136 168.9819 9275011
-83.935768 21.655264 169.52431 8813944
-84.807182 21.60673 169.40054 8090995
-83.330513 22.782055 170.00926 11379609
-83.858826 22.506901 169.84457 10919059
-84.694534 22.342243 169.6828 9208443
-83.216805 23.520144 170.2925 12432552
-84.088638 23.473335 170.16936 13551031
-82.437851 24.569971 171.08897 9604992
-83.422585 24.293171 170.71062 9208443
-79.990334 25.824543 173.08865 9736582
-81.137405 25.856688 172.83202 10920852
-81.649467 25.276117 171.77003 10722961
