# .PCD v0.7 - Point Cloud Data file format
VERSION 0.7
FIELDS x y z rgb
SIZE 4 4 4 4
TYPE F F F U
COUNT 1 1 1 1
WIDTH 1184
HEIGHT 1
VIEWPOINT 0 0 0 1 0 0 0
POINTS 1184
DATA ascii
-153.43706 -65.47467 -48.20332 7301479
-160.181 -64.325623 21.78532 7563619
-160.24963 -64.789978 21.290047 7563619
-160.59004 -64.888268 20.562859 7169629
-153.1144 -65.412483 -48.710674 9011838
-152.79024 -65.350433 -49.216232 10064777
-153.28316 -65.2258 -50.394859 8288365
-152.73157 -65.122536 -51.234921 8288365
-153.10075 -64.975838 -52.591812 7565675
-152.53589 -64.872902 -53.426891 7301726
-153.0047 -64.745483 -54.626862 6971737
-152.42751 -64.642799 -55.458012 8089960
-152.81104 -64.511818 -56.850498 8089960
-152.59337 -64.478424 -57.188263 7039331
-160.20546 -63.762112 22.180756 7827563
-160.61795 -63.85651 21.318874 7564392
-152.37508 -64.445023 -57.525471 7039331
-152.04636 -64.395073 -58.029884 7300446
-152.4783 -64.291252 -59.459431 8089962
-151.91699 -64.207832 -60.296902 8879990
-152.33374 -64.10257 -61.739159 9735812
-151.87357 -64.035744 -62.406036 9077882
-151.41132 -63.969105 -63.070488 8090987
-151.92381 -63.87896 -64.359032 10327438
-151.33266 -63.795498 -65.186066 10590353
-151.71391 -63.687256 -66.65303 7564648
-151.22983 -63.620464 -67.31118 8617334
-151.59679 -63.510654 -68.790131 9011576
-151.34967 -63.477222 -69.11808 9011576
-160.16531 -62.698586 23.091707 6511962
-160.54579 -62.875408 22.226429 7038049
-160.8172 -63.17173 21.475723 8616822
-151.10194 -63.443684 -69.445244 9734788
-150.72922 -63.393623 -69.934525 8089963
-151.20197 -63.299046 -71.262115 8813685
-150.56837 -63.21545 -72.074821 9603458
-150.90065 -63.102722 -73.577431 9603458
-150.38268 -63.035812 -74.223656 8090986
-150.83249 -62.93848 -75.577263 10853012
-150.30432 -62.871586 -76.220375 9339773
-150.61009 -62.756153 -77.747391 7563619
-150.2063 -62.705952 -78.22744 10524299
-149.80138 -62.655849 -78.705864 9537406
-150.08794 -62.538948 -80.244034 9932167
-160.45593 -61.748035 23.282337 6972511
-160.79436 -61.926113 22.496391 7564392
-149.53778 -62.472099 -80.878632 10853012
-149.94963 -62.370548 -82.270706 8879995
-149.52962 -62.320423 -82.74453 7038307
-149.75534 -62.186218 -84.286926 11051156
-149.11961 -62.092201 -84.877861 7959912
-149.4756 -61.973572 -86.274681 8814710
-148.99135 -61.902988 -86.714424 8814710
-149.17363 -61.759171 -88.267853 8485488
-149.08249 -61.59388 -90.162689 7037274
-148.47763 -61.524723 -90.776588 15196110
-160.34079 -60.424217 24.956306 7038298
-160.46587 -60.82481 24.135691 7432541
-160.86113 -60.832291 23.321054 8353649
-149.0349 -61.451675 -92.104637 11708828
-148.41991 -61.382233 -92.71563 15722454
-148.81499 -61.290497 -94.211021 8682867
-148.18922 -61.220985 -94.817688 9735555
-148.73219 -61.145184 -96.17627 8617075
-148.09613 -61.075459 -96.779724 6510930
-148.30986 -60.963287 -98.454025 7038307
-147.82474 -60.910873 -98.903229 8485494
-148.18861 -60.814781 -100.44169 8288110
-147.6958 -60.762211 -100.88821 9011833
-148.05055 -60.664639 -102.44138 7301729
-147.38292 -60.594528 -103.03259 8091760
-148.06468 -60.530525 -104.30575 9144190
-160.77475 -59.330299 27.009592 8287336
-160.81081 -59.475246 26.140284 8024935
-160.71474 -59.821369 25.344006 7695971
-160.97505 -60.052704 24.359959 8024935
-147.72626 -60.495373 -104.60049 9144190
-147.46858 -60.362038 -105.13008 7368295
-147.47275 -60.027653 -106.13573 7235165
-146.961 -59.909946 -106.91752 7432032
-162.18727 -58.595619 39.05534 8813685
-161.58064 -59.003799 38.087204 10853012
-161.76234 -59.005241 37.308262 8222573
-162.02832 -59.007412 36.13842 8946296
-162.20126 -59.008854 35.357418 9735555
-161.18346 -59.010502 33.916592 8088931
-161.34512 -59.011932 33.139645 8088931
-161.54253 -59.01371 32.167545 8287083
-161.73363 -59.015495 31.194168 9800579
-160.80437 -59.018124 29.209896 7300187
-161.08459 -59.058861 28.259768 7366237
-160.838 -59.232502 27.551361 7958372
-147.37405 -59.379265 -107.03729 6708565
-147.29057 -59.081635 -108.1998 7563874
-146.93597 -58.845726 -109.00475 10063747
-161.89319 -57.757023 39.912815 7300446
-162.37717 -57.755077 39.306789 7563618
-147.24347 -58.000881 -109.12366 8813937
-146.66202 -57.979977 -109.79071 9471867
-162.12415 -56.773968 40.195808 7432290
-162.56668 -56.915028 39.558674 7037274
-147.44052 -57.331898 -109.27019 6511954
-146.92372 -57.088318 -109.98711 7169627
-162.16422 -55.582481 40.840069 8880250
-162.44173 -55.934357 40.286991 9274493
-147.11401 -56.238834 -110.24077 7366750
-146.52632 -56.099602 -110.98011 7563619
-162.30099 -54.756138 41.150288 9340030
-162.76732 -54.978954 40.435688 8090730
-147.38197 -55.52673 -110.33118 9734529
-146.92792 -55.061531 -111.09944 9471357
-146.40793 -54.820686 -111.81841 7366496
-162.13704 -53.754803 41.939518 8155756
-162.58197 -53.889057 41.303524 8550514
-147.25417 -53.945038 -111.34699 7563619
-146.6678 -53.927937 -112.01747 7563874
-162.48367 -52.858551 42.027443 8616307
-162.88464 -53.250694 41.295986 8813686
-146.97369 -53.080711 -112.13956 6380369
-146.46007 -52.946556 -112.7926 6249038
-162.30249 -51.719444 42.91861 10524817
-162.64868 -51.89492 42.382271 10130316
-147.18819 -52.140129 -112.41613 6840661
-146.59967 -52.12463 -113.08817 7235418
-162.4604 -50.772446 43.272671 11117209
-162.89705 -51.072094 42.550495 10591124
-146.96516 -51.1199 -113.2299 8221541
-146.48151 -50.995377 -113.84377 6775128
-162.4577 -49.774845 43.85754 11183001
-162.87515 -49.873104 43.276867 10591121
-146.67763 -50.00843 -114.16661 7893101
-146.28456 -49.789379 -114.73055 8418928
-162.28343 -48.360775 44.900406 10656657
-162.63176 -48.800064 44.207577 10656657
-146.91226 -48.975163 -114.46371 8485494
-146.36909 -49.009563 -115.06297 8945529
-146.09186 -48.733673 -115.52957 8418928
-162.55402 -47.652733 44.973888 10657938
-162.92049 -47.895985 44.37254 10460046
-146.71556 -48.065182 -115.16467 8880251
-146.12895 -48.055759 -115.84545 9208702
-162.38416 -46.654594 45.76865 10263180
-162.8503 -46.786556 45.107273 10657682
-146.81091 -47.159813 -115.52597 9537408
-146.27 -47.196877 -116.12991 9011837
-145.98965 -46.920986 -116.5966 8617080
-162.73994 -45.678982 46.048496 11052184
-163.0818 -45.908863 45.328629 10789268
-146.62683 -46.254272 -116.24133 8156271
-146.24129 -45.97578 -116.96268 8945788
-145.92276 -45.608192 -117.69869 7564651
-163.15378 -44.31485 47.896984 9933705
-162.88693 -44.714462 47.109528 11117977
-163.2207 -44.964954 46.284878 10854550
-146.61197 -45.199429 -117.38344 8090737
-146.26004 -44.945362 -118.08686 7696229
-145.82791 -44.77454 -118.78539 10262156
-163.84242 -43.739006 58.801559 8813686
-164.23483 -43.769863 58.050812 9274237
-164.41348 -43.973793 57.224789 9537409
-163.37938 -43.977299 54.666676 9734529
-163.5761 -43.978443 54.076038 8287600
-163.89912 -43.980343 53.090042 7959407
-163.01888 -43.984871 49.997395 11051156
-163.43341 -44.017712 49.049679 10590863
-162.85306 -44.279552 48.448383 9735812
-146.51933 -44.493107 -119.34779 9341054
-145.93161 -44.490265 -120.04215 9012090
-146.22002 -44.26004 -121.46304 6511954
-145.7811 -44.26059 -121.99053 6511954
-145.34035 -44.261139 -122.51644 6511954
-145.80528 -44.266212 -125.32619 9144702
-145.20065 -44.266926 -126.02691 7039331
-163.78465 -42.655102 59.671146 6511954
-164.20894 -42.692299 58.931057 9076858
-164.38028 -43.140018 58.323948 8418928
-164.02142 -41.726276 59.934872 7958888
-164.40408 -41.758911 59.267971 9603202
-164.0172 -40.733784 60.649128 9143166
-164.44327 -40.768684 59.907654 7893357
-164.26801 -39.761505 60.920067 9603459
-164.65231 -39.792042 60.251953 8485494
-164.19116 -38.720322 61.791191 7827821
-164.57631 -38.749336 61.122799 8485493
-164.39842 -37.743301 62.138767 8287859
-164.82727 -37.774643 61.395191 7300963
-164.36847 -36.878147 62.805698 9208702
-164.82042 -36.780216 62.115326 9011064
-164.44864 -35.373055 63.743256 8287341
-164.63449 -35.87096 63.07592 7760997
-164.55959 -34.732521 64.013145 9471870
-164.99106 -34.760067 63.267776 9537408
-164.5155 -33.794006 64.756012 8551536
-164.88007 -33.931496 64.044937 8024425
-164.49586 -32.35281 65.815918 7563619
-164.78346 -32.801422 65.012535 8287597
-165.14362 -33.039059 64.237473 8616307
-164.7722 -31.676308 65.833237 9011065
-165.19644 -31.815308 65.020638 9010808
-164.81065 -30.651749 66.707558 9405821
-165.09505 -30.785791 66.05291 8287342
-164.81998 -29.419773 68.720551 7958890
-165.13307 -29.531603 67.919319 9735299
-165.03772 -30.038366 67.184639 9011318
-166.39502 -28.582436 80.96447 13024687
-166.29802 -28.851467 79.929008 10459278
-166.59325 -28.93902 78.839378 9274747
-165.30196 -28.945158 74.601738 8814457
-165.57071 -28.946413 74.003975 9734788
-165.92574 -28.948027 73.20562 8814457
-165.29187 -29.105694 69.853943 8682867
-165.70293 -29.120424 69.088753 9011320
-166.31882 -27.621077 81.776878 9208185
-166.74857 -27.785816 80.936531 9537662
-166.32964 -26.340481 82.67012 8681843
-166.62883 -26.616768 81.970062 8681843
-166.49481 -25.625578 82.901009 10392457
-166.89037 -25.679552 82.197021 8550512
-166.44684 -24.695066 83.644073 10459278
-166.84103 -24.778473 82.921417 8879475
-166.40665 -23.643133 84.460419 8682867
-166.67668 -23.873802 83.84182 9538176
-167.01976 -23.880812 83.259613 8419438
-166.63655 -22.654234 84.777313 11511967
-166.99057 -22.841625 84.048332 10459278
-166.60587 -21.613365 85.569771 14077894
-167.00467 -21.665567 84.861565 13288378
-166.86755 -20.6658 85.803925 8618104
-167.17065 -20.943089 85.096588 12236202
-166.67899 -19.724218 86.791321 8355189
-167.13176 -19.852272 85.938408 9012861
-166.63629 -18.661793 87.619347 11381404
-167.02498 -18.894817 86.799477 9210496
-167.41331 -19.128336 85.979881 11381404
-166.97198 -17.623024 87.793816 10262926
-167.33403 -17.940912 86.958336 9867912
-166.93585 -16.533421 88.63015 9209212
-167.32974 -16.660143 87.877274 8024425
-167.23889 -15.654027 88.858429 8682867
-167.51965 -15.928791 88.078804 8682867
-167.29741 -14.794209 89.768341 9275003
-167.60226 -15.030148 89.154022 11182998
-167.59953 -14.145839 90.97242 10457993
-160.53467 -70.517578 15.962322 7367005
-160.81438 -70.608398 15.2082 8353391
-160.57277 -70.939621 14.210651 11708829
-160.53001 -70.936096 13.311296 9142906
-160.13144 -70.915489 12.229445 7761772
-160.03604 -70.843742 11.252981 7959151
-159.93565 -70.772324 10.278103 8485238
-159.8298 -70.701157 9.304987 9010807
-159.7191 -70.630325 8.3334541 8681843
-159.60286 -70.559814 7.3637285 8748148
-159.45676 -70.475586 6.2022429 9012088
-159.32956 -70.405724 5.2362595 6511954
-159.25073 -70.363991 4.6574459 6511954
-160.60081 -69.559387 16.879478 8813936
-160.74713 -69.912834 16.308224 6840918
-161.14766 -69.819794 15.630398 8089963
-159.16989 -70.32235 4.0794916 9011321
-159.05946 -70.267014 3.309721 11906725
-159.41458 -70.181633 2.3562908 10459023
-159.73273 -70.08252 1.20716 9406078
-159.57715 -70.013901 0.24461657 6511954
-159.41623 -69.94561 -0.71577543 8353905
-159.2506 -69.877678 -1.6744146 8288371
-159.07965 -69.810043 -2.6309376 7827565
-158.86812 -69.729271 -3.7762461 8616565
-158.66429 -69.652565 -4.7278814 10590091
-158.40668 -69.555046 -5.6753879 10590091
-158.14476 -69.457947 -6.6201963 8814197
-157.98547 -69.399834 -7.1856751 11380380
-160.50923 -68.466187 17.911228 5920074
-160.77495 -68.780075 17.157398 9997952
-161.1507 -68.980141 16.282631 7827299
-158.82146 -69.310783 -7.7983847 9538432
-158.54546 -69.213821 -8.7424126 7893865
-158.26195 -69.115883 -9.6834173 7630699
-157.97319 -69.018227 -10.621243 8288627
-157.6803 -68.920944 -11.556149 8748919
-158.0421 -68.800835 -12.540577 9209467
-158.00565 -68.673096 -13.686708 8617075
-157.69945 -68.578552 -14.617844 7695717
-157.42186 -68.498947 -15.548985 8814710
-157.14389 -68.421356 -16.477989 8814710
-160.71301 -67.775177 18.063427 6511955
-161.12355 -67.885002 17.19326 9011317
-156.97475 -68.375008 -17.034006 9011320
-157.8438 -68.315086 -17.70491 9932678
-157.55171 -68.237633 -18.633671 9011320
-157.25513 -68.160362 -19.559776 9407364
-156.95341 -68.083412 -20.482914 7038816
-156.58521 -67.991379 -21.587078 8683123
-157.30823 -67.898697 -22.652388 9077625
-156.98799 -67.822037 -23.572151 9538176
-156.59767 -67.730453 -24.672256 9077112
-156.26736 -67.654373 -25.585785 10654859
-156.61995 -67.566231 -26.613335 9405565
-156.62149 -67.4841 -27.584137 8156012
-156.34363 -67.423523 -28.312565 8353130
-160.86855 -66.54258 18.733234 9734788
-160.99065 -66.870811 18.242626 6643541
-161.31001 -66.906342 17.604855 6906456
-156.11914 -67.372108 -28.855019 8813680
-155.87267 -67.31208 -29.392437 8353130
-156.38737 -67.164734 -30.660854 8747885
-155.96414 -67.064987 -31.554482 8550763
-155.53719 -66.965637 -32.444668 7695715
-156.11618 -66.836914 -33.546951 8222832
-155.58853 -66.718109 -34.611965 7499112
-155.14458 -66.619659 -35.495358 7038307
-155.713 -66.493561 -36.612812 8485237
-155.37874 -66.427773 -37.325298 7038307
-160.73839 -65.379227 19.894405 7169629
-160.97414 -65.770584 19.137234 8551026
-161.38681 -65.874794 18.267481 6511954
-155.21234 -66.395844 -37.681038 7038307
-154.96126 -66.347939 -38.213547 7958892
-155.51785 -66.242744 -39.544353 8090995
-155.08629 -66.162903 -40.430504 9209473
-154.65071 -66.083267 -41.313259 11512223
-155.18394 -65.976532 -42.65868 6906969
-154.73404 -65.896957 -43.538914 6446680
-154.28003 -65.817604 -44.415657 7038307
-154.88271 -65.725327 -45.59993 8353651
-154.41566 -65.645958 -46.474922 7038307
-154.03889 -65.582687 -47.172085 7038307
-154.59308 -65.47541 -48.361073 10591124
-160.93947 -64.692215 20.049435 8419440
-161.3196 -64.879173 19.176857 8419440
-154.37616 -65.433632 -48.701839 7038307
-153.94054 -65.350296 -49.381027 7169886
-154.44209 -65.224754 -50.568928 6511954
-153.88554 -65.120743 -51.414768 10459537
-153.8502 -65.005394 -52.435379 7565675
-153.80681 -64.890045 -53.455372 7565675
-153.34943 -64.80735 -54.126011 7762277
-153.70438 -64.658241 -55.50259 8813426
-153.1362 -64.562065 -56.342358 9142647
-153.69896 -64.475655 -57.601437 10262415
-160.92404 -63.646427 20.89917 7301221
-161.19206 -63.871555 20.210796 7169892
-161.48906 -64.106895 19.459038 9406848
-153.47842 -64.442055 -57.940823 11906725
-153.1465 -64.391716 -58.448528 10262415
-152.81323 -64.341461 -58.954891 8618105
-153.24597 -64.236717 -60.396301 9143676
-152.67705 -64.152733 -61.236931 7893608
-153.09445 -64.046547 -62.691135 7301474
-152.62808 -63.97937 -63.360447 7564651
-152.27676 -63.929096 -63.860657 7564651
-152.67416 -63.821358 -65.327156 8354164
-152.07513 -63.73745 -66.15715 7564648
-152.57896 -63.645092 -67.470573 8090991
-151.96631 -63.561012 -68.296707 7827817
-161.18724 -62.775345 21.080004 9275006
-161.53952 -62.929779 20.286039 7893614
-152.45868 -63.467014 -69.623268 8090987
-151.95761 -63.399742 -70.280861 8222317
-152.31314 -63.287533 -71.784729 9011320
-151.8013 -63.220207 -72.439087 8156267
-151.28766 -63.15295 -73.090904 9011320
-151.8815 -63.072929 -74.280815 7169373
-151.22696 -62.988819 -75.092545 10786961
-151.68051 -62.890568 -76.458214 9010808
-151.01256 -62.806503 -77.26545 7563619
-151.45442 -62.706806 -78.644485 7563619
-150.90935 -62.639565 -79.286514 8221548
-151.4798 -62.55547 -80.518509 8092019
-151.20282 -62.521698 -80.83889 8092019
-161.09956 -61.809357 22.005135 7564392
-161.53244 -61.816284 21.173018 9209214
-150.78619 -62.471233 -81.317879 9537667
-150.78831 -62.39492 -82.259247 8879995
-150.64261 -62.301537 -83.358879 12235171
-150.59799 -62.137192 -85.238029 10788753
-150.38322 -62.020081 -86.316551 8814197
-150.15483 -61.900906 -87.389786 9077882
-150.01355 -61.70919 -89.251823 7432800
-149.95383 -61.556061 -91.181999 8748147
-161.22632 -60.640675 22.911274 8287594
-161.49637 -60.771679 22.241447 6906715
-161.71414 -61.054802 21.460064 7959147
-149.90533 -61.412605 -93.140648 9340802
-149.28316 -61.342735 -93.753853 12959410
-149.68257 -61.250027 -95.264359 7037790
-149.20795 -61.197578 -95.721474 8617075
-149.43776 -61.085899 -97.398094 7893095
-148.79407 -61.0158 -98.003105 7563874
-149.17125 -60.920067 -99.542572 7301470
-148.68048 -60.867355 -99.993271 7564643
-149.04858 -60.770195 -101.54753 7564643
-148.55011 -60.717419 -101.9956 7564643
-148.82314 -60.583958 -103.50523 6511954
-148.37082 -60.552826 -103.98775 7039331
-161.44157 -59.452152 24.927345 10984849
-161.49471 -59.657764 24.139782 10261126
-161.66046 -59.956196 23.22036 9800319
-148.82732 -60.115913 -104.30756 8354417
-148.40724 -59.901546 -105.08243 7236452
-147.92795 -59.789162 -105.81545 7959144
-162.93091 -58.764751 37.991386 9734784
-163.26384 -58.887329 37.103283 9800320
-163.31271 -59.007904 36.42556 9537147
-162.28616 -59.009579 34.966625 8088931
-162.45285 -59.011017 34.184452 8747119
-162.6963 -59.013176 33.009628 9602685
-162.85417 -59.01461 32.225502 10458508
-161.95549 -59.017628 30.024626 9142907
-162.13405 -59.019402 29.048857 6906712
-162.3064 -59.021172 28.071941 7367263
-161.8253 -59.096924 27.052837 7958629
-161.76286 -59.177998 26.175064 7038298
-162.06674 -59.233913 25.223709 7038298
-148.71774 -59.404198 -105.30238 7959144
-148.0466 -59.3909 -106.17065 6511954
-148.43207 -58.950787 -107.26017 7564386
-147.85149 -58.926456 -107.92812 6840407
-162.75899 -57.84124 38.777588 9668995
-163.24649 -57.87759 38.132702 8945011
-148.63121 -58.281467 -107.40454 7959144
-148.11588 -58.034477 -108.12164 6840407
-162.8044 -56.306259 39.615547 7037274
-163.1069 -56.750893 38.97699 7234909
-163.33345 -57.085793 38.49773 7037274
-148.34727 -57.253563 -108.29112 7037274
-147.83054 -57.008102 -109.00902 6643284
-162.98329 -55.611057 39.796474 8090730
-163.42706 -55.780453 39.141262 8090730
-148.57886 -56.472298 -108.46076 7037274
-148.12701 -56.003799 -109.22826 7301214
-147.60855 -55.759758 -109.94732 7037786
-163.16992 -54.800468 40.034946 6775126
-163.61674 -54.939243 39.393745 9735043
-148.45663 -54.8871 -109.47211 7038307
-147.87114 -54.866798 -110.14336 10261387
-163.17499 -53.45546 40.812595 9537408
-163.40295 -53.941105 40.243713 7038042
-148.17947 -54.01984 -110.26261 10261645
-147.66701 -53.882763 -110.91586 12629417
-162.94194 -52.388313 41.727016 10063753
-163.37846 -52.693806 41.001514 10787731
-148.33104 -53.302513 -110.48704 7038307
-147.8092 -53.06031 -111.20886 8616562
-163.11769 -51.695507 41.910412 10591124
-163.56476 -51.855701 41.256451 11051418
-148.14742 -52.243233 -111.27794 6972764
-147.62967 -52.152596 -111.91154 6577746
-163.0535 -50.666645 42.59063 10591124
-163.49658 -50.750797 41.986061 10591124
-163.67183 -51.220963 41.492222 10591124
-148.26776 -51.494255 -111.55501 7039331
-147.87456 -51.09584 -112.21793 6577489
-147.43149 -50.793705 -112.88397 8221541
-163.29439 -49.754959 42.820126 10591124
-163.76447 -49.784256 42.213589 10591124
-148.1313 -49.908066 -112.5743 8681835
-147.58904 -49.939915 -113.17421 9142905
-147.31348 -49.662628 -113.6404 7038307
-163.49883 -48.793053 43.124512 10854294
-163.9398 -49.090641 42.398067 10591124
-147.93738 -48.995987 -113.27245 9932937
-147.35175 -48.983788 -113.95348 8090737
-163.49458 -47.79435 43.712017 10591888
-163.91585 -47.890392 43.127743 10459279
-148.03534 -48.09016 -113.63097 7761772
-147.49527 -48.124744 -114.23529 8485494
-147.21623 -47.847237 -114.70129 8485494
-163.31664 -46.379395 44.759903 10855060
-163.6687 -46.817402 44.063141 10526095
-147.83926 -47.178066 -114.33168 8814458
-147.25163 -47.167286 -115.01437 8419443
-163.66719 -45.690655 44.854652 10855060
-163.86319 -46.038826 44.273121 10262667
-147.87509 -46.49744 -114.6446 7037274
-147.67371 -46.055515 -115.22205 7695204
-147.15611 -45.942448 -115.94183 8287341
-163.75378 -44.386463 46.790672 9933705
-163.84976 -44.70953 45.923412 9735813
-163.96141 -45.079216 45.217724 10064521
-147.49478 -45.210564 -116.35249 8287341
-147.24045 -44.893787 -117.01675 9932168
-164.92667 -43.730381 56.957901 10062978
-164.82304 -43.976097 56.035187 9536888
-165.15826 -43.978024 55.041801 8681835
-164.27922 -43.98262 51.904404 10393487
-164.5896 -43.984524 50.914349 11971743
-164.77295 -43.985661 50.319393 12432037
-164.03925 -44.088131 47.942387 10855061
-164.44202 -44.13575 47.20171 7038307
-147.54442 -44.499699 -118.12902 9077882
-146.95917 -44.49577 -118.8259 8880503
-147.23666 -44.258728 -120.22598 8419952
-146.657 -44.259476 -120.93388 8485747
-146.85432 -44.264935 -124.09242 7894124
-146.25604 -44.265663 -124.79853 7565675
-146.57294 -44.271008 -127.83481 8683635
-164.89825 -42.632816 57.836849 8089963
-165.29669 -42.979458 57.084476 9405304
-164.7886 -41.662712 58.689869 9866374
-165.23013 -41.704483 57.951611 8616822
-165.0551 -40.777042 58.872688 9143166
-165.41638 -40.924202 58.164845 9143166
-165.00691 -39.626152 59.773762 8616823
-165.36935 -39.826164 59.021755 7761772
-164.96284 -38.649479 60.543846 9143166
-165.3916 -38.68327 59.79871 8814201
-165.14923 -37.798725 60.836552 7827049
-165.57886 -37.831585 60.09058 8089705
-165.17673 -36.610977 61.63665 7958119
-165.56291 -36.747272 60.89006 8944756
-165.69246 -37.190292 60.356647 8616048
-165.3454 -35.6492 62.03828 8155754
-165.77695 -35.679337 61.291 8616048
-165.31497 -34.781353 62.707767 9208443
-165.7473 -34.810337 61.960068 10194566
-165.39537 -33.270931 63.648754 8813939
-165.58249 -33.77005 62.978516 10720909
-165.93347 -33.955433 62.256115 8813939
-165.565 -32.588005 63.850224 9208441
-165.98904 -32.729645 63.036167 8813939
-165.54759 -31.546413 64.621658 10853012
-165.82935 -31.823015 63.950741 8682611
-165.75377 -30.281786 65.622017 8616307
-165.81079 -30.756351 64.895561 8287341
-166.1187 -30.930935 64.152885 8813939
-165.7491 -29.556767 66.776405 10063237
-166.00922 -29.774549 65.953796 9799806
-167.18805 -28.604872 79.61422 9537662
-167.52803 -28.615105 79.034851 9537662
-167.06538 -28.941097 77.834908 9011833
-167.43918 -28.942703 77.029373 9011833
-166.18967 -28.949184 72.605782 9734788
-166.53772 -28.950796 71.804352 10129545
-166.88252 -28.952406 71.001465 10129545
-165.90802 -29.128023 68.70575 8089963
-166.31699 -29.143423 67.938194 10525071
-167.16312 -27.408415 80.507736 9537662
-167.41209 -27.778545 79.825333 9537662
-167.67513 -28.171 79.103416 9537662
-167.28047 -26.588306 80.893883 9208698
-167.73569 -26.600384 80.119347 9077368
-167.23232 -25.687763 81.615868 8747891
-167.68829 -25.699163 80.840492 8682867
-167.25693 -24.562481 82.375458 7564643
-167.44293 -24.837177 81.86692 9339769
-167.86876 -24.802311 81.175209 8682867
-167.36287 -23.88818 82.677025 7959144
-167.82054 -23.898382 81.899719 8879475
-167.36618 -22.645454 83.555984 11051672
-167.77994 -22.76708 82.773247 9076597
-167.92717 -23.22278 82.201134 9339769
-167.36861 -21.400198 84.43821 12236202
-167.72359 -21.588076 83.707108 11973030
-168.02577 -21.866211 83.000793 8880503
-167.53728 -20.6467 84.690742 12236202
-167.93483 -20.729473 83.962715 9274749
-167.49681 -19.584986 85.514374 9867142
-167.88452 -19.818956 84.695496 10656658
-167.85518 -18.60293 85.610428 8551541
-168.07863 -18.986721 84.96125 9077370
-167.80029 -17.459795 86.516335 7169631
-168.04152 -17.768164 85.891045 7301475
-167.99451 -16.622787 86.785805 8616307
-168.38464 -16.857403 85.962608 7037274
-167.95055 -15.663218 87.68615 8418927
-168.37929 -15.788872 86.812004 8813685
-167.89816 -14.583307 89.310783 11182998
-168.1002 -14.810413 88.640846 13025201
-168.47838 -14.889698 87.891716 8089962
-169.21069 -13.913428 95.308907 10260358
-168.20197 -14.169816 90.51445 8682867
-168.58321 -14.175629 89.935631 11248793
-161.3817 -70.573982 14.086029 9932678
-161.43533 -70.719193 13.046933 8813687
-161.4023 -70.754585 12.13135 8945273
-161.40868 -70.728096 11.154593 8813943
-160.92561 -70.728447 10.147635 8616308
-160.81729 -70.65696 9.1685371 8681843
-160.70346 -70.585762 8.1912766 9734528
-160.58478 -70.514862 7.2156086 9142651
-160.46054 -70.444359 6.2418509 9866374
-160.33153 -70.374092 5.2697201 9537920
-161.39954 -69.905449 15.066531 8748149
-161.83612 -69.880875 14.173961 9932678
-161.92213 -70.298409 13.151085 7038307
-160.19696 -70.304146 4.2995253 8484977
-160.02899 -70.220665 3.1376524 8484977
-160.88988 -70.118095 2.1855946 8287341
-160.73703 -70.048813 1.2152824 9800837
-160.5472 -69.966049 0.053326666 8156267
-160.38358 -69.897408 -0.91283888 7039331
-160.21457 -69.829132 -1.8769503 7039331
-160.04088 -69.761177 -2.8391752 8946555
-159.86188 -69.693565 -3.7992849 10656142
-159.6676 -69.62162 -4.7571793 8682099
-159.41072 -69.525162 -5.7107577 10195078
-159.14577 -69.427467 -6.6614704 7696485
-161.50673 -68.702057 15.820587 8353133
-161.80389 -68.893646 15.102707 8221549
-162.06396 -68.982048 14.53685 10854036
-158.98457 -69.369064 -7.2305284 7696485
-159.82909 -69.279343 -7.8472214 8617330
-159.54886 -69.181313 -8.7970848 6906458
-159.2617 -69.082642 -9.7439699 5392706
-158.9697 -68.984406 -10.687613 7038307
-158.61346 -68.867126 -11.815988 10854036
-159.31149 -68.734428 -12.832914 10656657
-159.0172 -68.643677 -13.773632 9669250
-158.74513 -68.564705 -14.714046 10064265
-158.4687 -68.486458 -15.651634 10525071
-158.18764 -68.408432 -16.586609 9340798
-161.49945 -67.420944 16.839485 9011320
-161.70874 -67.814667 16.130819 9011320
-162.11493 -67.850456 15.327147 10853012
-158.01674 -68.361687 -17.146317 9011320
-158.83702 -68.285751 -18.009348 8089963
-158.60028 -68.223366 -18.756937 9406336
-158.30046 -68.145668 -19.689064 10262415
-157.99551 -68.068199 -20.618156 9144192
-157.62347 -67.975578 -21.729437 8881019
-158.29057 -67.866707 -22.987787 7039331
-158.03123 -67.805046 -23.728016 9669762
-157.70322 -67.728249 -24.651028 9011577
-157.37015 -67.651649 -25.570843 9405565
-157.4857 -67.550674 -26.760128 10654859
-157.66199 -67.464905 -27.766563 9537409
-157.4518 -67.419113 -28.316597 9537409
-161.64922 -66.786835 17.050863 7761509
-162.03352 -66.955521 16.184597 10458511
-157.22134 -67.365662 -28.862068 9142648
-156.88969 -67.285065 -29.583347 7037274
-157.15341 -67.166084 -30.614708 8879471
-156.983 -67.036301 -31.759785 8879471
-156.55173 -66.936371 -32.65543 8748401
-157.04912 -66.786766 -33.944653 9209467
-156.6938 -66.707085 -34.65905 7762283
-156.246 -66.607971 -35.548355 7893358
-156.86833 -66.500023 -36.684231 9734788
-156.61868 -66.451538 -37.22337 8813945
-161.67108 -65.811829 17.773922 8156267
-162.04324 -65.776535 17.090912 10261132
-162.25807 -66.146896 16.39011 7103838
-156.36725 -66.403259 -37.761066 9011578
-155.94467 -66.322868 -38.654369 7103323
-156.50699 -66.216919 -39.99567 7366751
-156.15785 -66.152596 -40.708847 10130313
-155.71783 -66.072403 -41.597393 11512223
-155.80992 -65.986656 -42.629688 6906969
-155.89549 -65.900757 -43.662231 9340801
-155.43762 -65.820885 -44.545212 9340801
-155.9567 -65.711952 -45.915291 9340801
-155.57944 -65.648003 -46.61977 11511967
-155.00606 -65.551338 -47.671425 8814715
-155.65398 -65.455177 -48.691929 10591124
-161.92113 -64.834801 18.062864 7695459
-162.34964 -64.739388 17.319416 8353135
-155.43498 -65.413193 -49.034904 11381404
-155.10519 -65.350204 -49.547771 9933705
-155.08292 -65.234596 -50.572659 7762028
-155.05402 -65.118996 -51.596729 7301991
-154.60248 -65.035446 -52.275215 8552312
-154.97906 -64.88665 -53.652718 8552312
-154.40161 -64.782509 -54.496235 9866373
-154.89978 -64.661263 -55.722477 11182745
-154.3562 -64.576775 -56.578953 11708829
-153.91876 -64.509354 -57.261379 10262415
-161.81975 -63.75563 19.102997 8814713
-162.26248 -63.856239 18.178631 7760995
-154.48416 -64.422127 -58.531979 8618105
-153.92365 -64.337723 -59.381924 9144192
-154.36421 -64.232201 -60.835922 7038307
-153.90448 -64.16452 -61.512867 10524814
-153.44273 -64.097069 -62.187462 9735812
-153.86096 -63.989914 -63.653831 9604229
-153.26964 -63.90546 -64.492928 10064779
-153.91353 -63.830673 -65.637108 7037274
-153.30913 -63.746166 -66.473183 10459534
-153.7003 -63.636169 -67.965302 10262412
-153.32933 -63.585327 -68.464569 10853012
-152.83269 -63.517712 -69.127739 8551281
-161.89134 -62.732216 19.769131 7630442
-162.1873 -62.891525 19.079 7893614
-162.45097 -62.967941 18.515533 7300445
-153.2027 -63.405918 -70.631721 8551281
-152.69521 -63.338196 -71.291672 8682867
-153.18045 -63.242035 -72.643547 11576217
-152.66249 -63.174244 -73.300629 8551026
-153.00645 -63.059673 -74.829857 9142393
-152.47762 -62.99194 -75.483353 9142393
-152.53751 -62.842083 -77.350166 9801091
-151.86165 -62.75745 -78.160622 9537406
-152.30737 -62.656902 -79.552177 10853264
-151.75629 -62.589241 -80.197289 8092019
-152.33208 -62.504265 -81.441254 8092019
-162.13971 -61.817352 20.01252 7235685
-162.49445 -61.97295 19.213005 8222319
-152.05194 -62.470291 -81.763008 8092019
-151.63051 -62.419579 -82.243843 8814715
-152.05627 -62.316288 -83.662247 9736836
-151.4843 -62.248558 -84.300438 10065544
-151.75446 -62.127003 -85.891357 8287341
-151.2957 -62.067135 -86.354782 9208443
-151.66473 -61.946507 -87.778954 7366239
-151.00453 -61.851097 -88.370354 8156780
-151.52905 -61.752659 -89.658691 10853012
-150.87558 -61.663834 -90.255882 9077369
-150.98972 -61.535183 -92.059753 7958632
-162.07497 -60.430706 21.639458 6511954
-162.12737 -60.787903 21.01136 7762029
-162.45692 -60.889153 20.232422 7564651
-150.52586 -61.482609 -92.524437 7564651
-151.09988 -61.408226 -93.881477 7564651
-150.62857 -61.355396 -94.344368 7564651
-150.15617 -61.302662 -94.805435 7564651
-150.39999 -61.191433 -96.484322 7827302
-150.31226 -61.043457 -98.483017 9340798
-149.6611 -60.972885 -99.090065 8617331
-150.04259 -60.876232 -100.64545 8617331
-149.54625 -60.823166 -101.0977 11906725
-149.86632 -60.654106 -102.36782 9406074
-149.27484 -60.615395 -103.02155 10853262
-162.54776 -59.325508 23.697124 10063235
-162.62915 -59.429943 22.909462 8287594
-162.34172 -59.859947 22.072235 7958886
-162.67215 -60.014519 21.18726 8288373
-150.09969 -60.249992 -102.52744 8682608
-149.68568 -60.034302 -103.30521 12300194
-149.26808 -59.818668 -104.08168 10853262
-163.78545 -58.567528 36.668415 10721424
-163.91069 -58.710861 35.937344 10129799
-163.6147 -59.010448 35.047489 10196104
-163.82307 -59.012264 34.061535 11182742
-163.98605 -59.013714 33.271969 11182742
-162.93146 -59.015327 31.833168 12432037
-163.0831 -59.016766 31.047834 11774108
-163.26785 -59.018555 30.065224 8879989
-163.44629 -59.020344 29.081543 8288365
-162.50597 -59.023296 26.898405 7037274
-162.63387 -59.024704 26.115242 7037274
-162.87881 -59.048424 24.948473 7038298
-162.61893 -59.225216 24.240887 8419181
-150.05971 -59.436298 -103.5635 13023917
-149.52322 -59.422657 -104.25963 10853262
-149.87921 -59.014751 -105.58318 8617590
-149.30319 -58.989464 -106.25669 7433057
-163.62749 -57.588596 37.736786 9537147
-163.91252 -57.804508 37.023857 9997699
-164.28085 -57.92738 36.22477 10458251
-149.53706 -58.208179 -106.4237 7499108
-149.02177 -57.959171 -107.14181 7498593
-163.83757 -56.750999 37.991676 8287851
-164.24287 -56.866852 37.128239 9406075
-149.77097 -57.426464 -106.59073 8617590
-149.25473 -57.177814 -107.30983 8551281
-148.73805 -56.930294 -108.02872 7037274
-163.81268 -55.86467 38.608627 6511954
-164.26337 -55.85741 37.880444 8946295
-149.62737 -56.175632 -107.44209 9604738
-149.05637 -55.982803 -108.1921 9144187
-164.05074 -54.748558 38.960804 7630179
-164.4249 -54.88665 38.333569 13485494
-149.3804 -54.966938 -108.3867 7629924
-148.86911 -54.826889 -109.04034 8814457
-163.96509 -53.691429 39.684437 6511954
-164.41295 -53.858505 39.025528 6511954
-149.53426 -54.249172 -108.6088 13551549
-149.01389 -54.003746 -109.33077 9209217
-164.15384 -52.850651 39.937893 6511186
-164.59273 -53.160904 39.206722 6510930
-149.35437 -53.187088 -109.39704 7038307
-148.76262 -53.045937 -110.14189 7433065
-164.03204 -51.728859 40.744549 11116178
-164.45439 -51.875542 40.129444 6510930
-149.47708 -52.437508 -109.67177 7038307
-149.00011 -52.240398 -110.31819 8288373
-148.57848 -51.955574 -110.95049 7039331
-163.98724 -50.407867 41.570816 10591124
-164.35719 -50.791233 40.883446 8485233
-149.32256 -51.187412 -110.52999 7039331
-148.77721 -51.057518 -111.21906 7039331
-148.53009 -50.598488 -111.75297 9538950
-164.16344 -49.713463 41.754635 10591124
-164.61481 -49.871342 41.096664 6774618
-149.1545 -49.933811 -111.38201 10788760
-148.56979 -49.918709 -112.06355 10788760
-164.43231 -48.745159 41.981922 7696490
-164.80109 -49.031452 41.352722 5920082
-149.2551 -49.027256 -111.73785 9538950
-148.71574 -49.059322 -112.3427 11248794
-148.43788 -48.780186 -112.80807 8813936
-164.33862 -47.769867 42.66795 8025455
-164.81302 -47.796547 42.057583 5920082
-149.06207 -48.113167 -112.43607 8813936
-148.47537 -48.099655 -113.11909 8682609
-164.54349 -46.805599 42.973232 7104354
-164.98891 -47.101097 42.242462 5920082
-149.09999 -47.431988 -112.74699 8813936
-148.82123 -47.152878 -113.21341 8222056
-148.27994 -47.186817 -113.81933 7169888
-164.56932 -45.612206 43.82597 7498083
-164.82654 -46.094349 43.046055 6051410
-148.90305 -46.368069 -113.5406 6380368
-148.49628 -46.071156 -114.27026 8025195
-148.27217 -45.639755 -114.95271 8287341
-164.45111 -44.471821 45.49416 7168349
-164.63472 -44.768742 44.763493 7365728
-164.94424 -44.955879 44.137783 7760742
-148.56578 -45.059155 -115.29491 8024940
-148.00493 -44.938889 -116.08235 7037274
-165.92796 -43.544159 55.964787 10260355
-165.35658 -43.979076 54.444809 7958120
-165.55243 -43.980328 53.846989 6510930
-165.87398 -43.98222 52.849155 8879222
-164.95387 -43.986801 49.723785 11511450
-165.19196 -43.988319 48.928631 8814457
-165.42628 -43.98983 48.13229 7038307
-164.74347 -44.171963 46.644619 7038307
-165.14458 -44.220875 45.900143 5918026
-148.85648 -44.510696 -116.55645 7037274
-148.27402 -44.505463 -117.2562 8814454
-148.52867 -44.257019 -118.62312 9735812
-147.95633 -44.257782 -119.33701 8814710
-148.18817 -44.26326 -122.49352 7038307
-147.59723 -44.264008 -123.20575 7827817
-147.79536 -44.26955 -126.41671 15722454
-147.18556 -44.270283 -127.12702 9144447
-165.83475 -42.653515 56.600029 9142389
-166.23589 -42.705013 56.067463 9142389
-166.0088 -41.797794 56.881138 8813683
-165.99147 -40.698898 57.544277 10129801
-166.2016 -41.016895 57.095139 9602942
-165.73953 -39.578575 58.575497 7564393
-166.08774 -39.833714 57.928471 9603460
-166.01375 -38.691242 58.760654 7302247
-166.33727 -38.985962 58.110455 9275008
-165.90135 -37.856796 59.530239 9012606
-166.2813 -37.931702 58.854137 8420726
-165.98737 -36.345139 60.46262 8616048
-166.23068 -36.735348 59.775452 8814456
-166.52063 -37.037151 59.072773 9736071
-166.10097 -35.702579 60.729519 8352876
-166.53337 -35.734261 59.979782 9405306
-166.07178 -34.832577 61.398567 9537149
-166.47639 -34.817524 60.728802 8879735
-166.64737 -35.090599 60.246639 9011579
-166.30707 -33.701134 61.809002 10195592
-166.7153 -33.877728 60.996597 9274750
-166.32793 -32.606148 62.554165 7959144
-166.70209 -32.702484 61.856159 9011579
-166.45352 -31.817068 62.905273 8353645
-166.88937 -31.84403 62.152973 10063235
-166.56192 -30.685179 63.731689 9471871
-166.87564 -30.974424 62.833839 9274491
-166.43571 -29.482239 65.659096 8419438
-166.72401 -29.706211 64.846664 8156523
-167.01088 -29.930811 64.03418 9011576
-167.86816 -28.625685 78.454987 10459279
-168.32179 -28.640327 77.681252 11906725
-167.62454 -28.943521 76.625938 7564643
-167.9919 -28.94516 75.817596 7038307
-167.05333 -28.953213 70.599419 10853012
-167.39174 -28.954823 69.793793 10196106
-167.72685 -28.956432 68.986816 8089963
-166.92638 -29.166992 66.783905 7564643
-167.33153 -29.183229 66.012604 8419438
-167.96977 -27.28159 79.240791 9537662
-168.1145 -27.735228 78.674263 9867142
-168.52394 -27.860394 77.896309 10459279
-168.07726 -26.609999 79.537872 9472382
-168.47012 -26.696386 78.815331 9144704
-168.10419 -25.48472 80.293327 8682867
-168.28944 -25.760155 79.785583 8946295
-168.64085 -25.950403 79.058945 8682867
-168.21156 -24.810879 80.592331 8682867
-168.60594 -24.896418 79.867897 8682867
-168.23779 -23.682011 81.351608 8090730
-168.58145 -23.690258 80.767548 8682867
-168.77667 -24.147633 80.113457 8682867
-168.2226 -22.323666 82.344055 8419952
-168.5067 -22.631903 81.646576 9011319
-168.76329 -22.789062 81.103111 9208443
-168.39256 -21.571108 82.593666 8419952
-168.78961 -21.65517 81.86573 9077882
-168.28036 -20.735971 83.376823 7564643
-168.74123 -20.744987 82.594994 8551538
-168.54552 -19.785069 83.607483 7695461
-168.93678 -19.913908 82.857452 8419952
-168.54509 -18.507353 84.517677 7563877
-168.90591 -18.826817 83.683266 8221805
-168.46805 -17.316853 85.495102 7564648
-168.85762 -17.551844 84.672646 8354163
-169.24692 -17.787306 83.850418 7564648
-168.75278 -16.587421 85.536064 8090734
-169.20877 -16.716621 84.677376 9209214
-168.81964 -15.493432 86.438881 9668995
-169.06316 -15.767913 85.691818 9932680
-168.88881 -14.744343 87.416672 7366239
-169.26697 -14.824116 86.66684 9143678
-169.46729 -15.052265 85.998398 10261132
-169.5542 -13.914618 94.696976 8484720
-170.00896 -13.916336 93.879318 8879479
-168.93265 -14.178946 89.339424 11380380
-169.39796 -14.183669 88.543739 7368035
-162.17946 -70.372147 11.99313 9931651
-162.24483 -70.488281 10.91826 10589580
-162.17856 -70.555244 10.030865 12102816
-162.10486 -70.549301 9.1252403 11774108
-161.69788 -70.540695 8.0471144 8879479
-161.57599 -70.469482 7.065711 9537152
-161.44919 -70.398613 6.0859823 11379356
-161.37064 -70.356186 5.4989967 8089963
-162.20654 -69.489342 13.763064 9011320
-162.28969 -69.836426 12.927403 8222064
-162.56958 -69.825218 12.021057 8090479
-162.71246 -69.980049 11.145734 9274237
-161.28999 -70.313904 4.9127274 7826791
-161.17982 -70.257698 4.1320753 7563619
-161.03723 -70.187775 3.1579723 7563619
-161.84541 -70.056496 1.8091507 8353651
-161.72057 -70.000862 1.0283823 8879736
-161.55954 -69.931511 0.054265082 7498852
-161.39386 -69.862534 -0.91802591 8288883
-161.22281 -69.793823 -1.8881931 9538691
-161.04703 -69.725479 -2.8564539 10854036
-160.86586 -69.657463 -3.8225613 9406080
-160.62874 -69.570496 -4.9788475 8748919
-160.37224 -69.475235 -5.9381075 10985107
-160.15715 -69.396652 -6.7032008 9538432
-162.22365 -68.575844 14.550519 10854036
-162.37639 -68.856377 13.973404 9011320
-162.64799 -68.938339 13.010717 9931651
-162.87054 -69.08297 12.108051 7038307
-159.99409 -69.337906 -7.2758379 7696485
-160.84747 -69.24749 -7.8965487 6775383
-160.56256 -69.148384 -8.8523712 5392706
-160.27205 -69.049072 -9.8051462 6445912
-159.97665 -68.950249 -10.754679 7827565
-159.61644 -68.83223 -11.890053 9406846
-160.29724 -68.695129 -13.106052 11380380
-160.08107 -68.63166 -13.865078 10064265
-159.80682 -68.552628 -14.811669 10064265
-159.52728 -68.473831 -15.755411 10459279
-159.3006 -68.410988 -16.508644 9932419
-162.44128 -67.821548 14.726504 9537410
-162.76277 -67.834496 14.005167 9734789
-162.85687 -68.165131 13.289568 10852238
-159.12808 -68.363945 -17.07221 9274747
-158.95406 -68.317017 -17.634918 8089963
-159.66068 -68.208984 -18.881571 8946041
-159.35764 -68.130745 -19.819805 7039331
-159.04941 -68.052765 -20.75493 9144192
-158.67336 -67.959549 -21.873343 10064519
-158.41904 -67.897682 -22.616829 7039331
-159.08621 -67.787903 -23.885611 8420209
-158.75479 -67.710518 -24.814625 8551029
-158.41832 -67.63353 -25.740341 7498600
-158.07738 -67.556709 -26.663227 9208187
-158.71413 -67.445465 -27.951031 8813686
-162.41718 -66.577454 15.748502 8353651
-162.68532 -66.836189 15.033433 8156272
-163.01366 -67.000084 14.223309 7564392
-158.336 -67.359016 -28.868641 9734788
-157.91803 -67.257767 -29.776409 8616563
-158.18497 -67.13797 -30.8148 8353130
-158.09982 -67.027534 -31.786835 8287592
-157.66467 -66.926842 -32.688488 8419695
-157.74211 -66.811432 -33.697098 8485747
-157.81172 -66.696014 -34.706017 7498856
-157.28281 -66.581825 -35.783424 8222065
-157.87395 -66.475723 -37.119183 8813945
-157.70563 -66.443199 -37.480762 8813945
-162.46327 -65.454163 16.541517 6511954
-162.64693 -65.739449 15.967175 5920082
-163.03438 -65.909203 15.094099 7564392
-157.45168 -66.394569 -38.02198 9209467
-157.11064 -66.329765 -38.741673 7827302
-156.76671 -66.265198 -39.459068 6905944
-157.41866 -66.174507 -40.631832 7366495
-156.88684 -66.077576 -41.706203 7367264
-156.43893 -65.99704 -42.597645 6906969
-157.07092 -65.904716 -43.786411 12496809
-156.60974 -65.824173 -44.676117 10524304
-156.23753 -65.760017 -45.385052 9340801
-156.75783 -65.650078 -46.766254 8288366
-156.27872 -65.569862 -47.650028 7762027
-155.87241 -65.497368 -48.348297 8814715
-162.61264 -64.820297 16.753582 7432288
-163.0291 -64.813545 15.963585 7301730
-163.14833 -65.215263 15.420784 7564392
-156.28415 -65.350182 -49.715832 7038307
-155.7272 -65.244789 -50.573627 7038307
-156.23695 -65.117302 -51.780293 7564651
-155.66736 -65.012154 -52.634224 9538438
-155.74489 -64.916267 -53.498196 10525587
-155.7001 -64.799286 -54.531979 9866373
-155.23248 -64.715591 -55.209511 11182745
-155.70242 -64.608742 -56.64613 11182745
-155.04027 -64.506836 -57.677303 9472899
-162.56741 -63.676842 17.737089 8089960
-162.92175 -63.839935 16.932461 7497823
-163.19278 -64.092514 16.216734 8748916
-155.50166 -64.401901 -59.130672 8618105
-155.16205 -64.350899 -59.643982 8814714
-154.70708 -64.282959 -60.326111 8024943
-155.14854 -64.176498 -61.79237 10984852
-154.5656 -64.091515 -62.641148 8879992
-154.99164 -63.983498 -64.120552 11380380
-154.63356 -63.932472 -64.627609 8156787
-154.27429 -63.88155 -65.133339 7564651
-154.68201 -63.771999 -66.625023 7563874
-154.06961 -63.687061 -67.464104 10262412
-154.5863 -63.593048 -68.801491 8092019
-154.08507 -63.524822 -69.469421 8683126
-162.68579 -62.363277 18.541348 6510930
-162.79356 -62.843624 17.95878 8616303
-163.16043 -62.861797 17.243912 8747888
-154.02327 -63.434525 -70.560913 9800834
-153.9525 -63.34399 -71.651566 9603455
-153.43839 -63.275978 -72.313797 8682867
-153.92587 -63.178791 -73.67807 8747891
-153.40126 -63.110645 -74.337341 10786703
-153.74557 -62.995098 -75.879463 9142393
-153.21014 -62.926941 -76.535179 9142393
-153.67613 -62.826984 -77.926468 8682867
-153.13016 -62.758831 -78.578957 12959155
-153.1694 -62.606304 -80.471222 14012877
-152.61189 -62.538239 -81.118851 13157824
-162.83232 -61.733379 18.755617 9734526
-163.18616 -61.834698 18.000534 9734526
-163.37317 -62.113678 17.42458 9734526
-153.05173 -62.435356 -82.536949 10788245
-152.48367 -62.367252 -83.181137 10984593
-152.769 -62.245995 -84.77327 9341052
-152.19008 -62.177879 -85.413399 9736836
-152.60747 -62.072182 -86.858604 6510930
-152.15364 -62.016273 -87.329498 6510930
-152.53136 -61.896633 -88.770088 7565675
-152.03055 -61.824547 -89.215439 10327694
-152.23064 -61.679741 -90.816322 9537664
-151.60658 -61.605556 -91.437035 10853524
-152.03922 -61.514076 -92.949371 10854036
-162.88228 -60.64069 19.754143 7564651
-163.14938 -60.837994 18.989819 13090223
-163.45726 -61.091042 18.095749 9932163
-151.5701 -61.461098 -93.416344 7761513
-151.99417 -61.368191 -94.943581 10459278
-151.35791 -61.297382 -95.562431 9143418
-151.28575 -61.149693 -97.56601 10130057
-151.18927 -60.997326 -99.577194 9670019
-151.07304 -60.779934 -100.37178 9143675
-150.67786 -60.683796 -101.33392 9011832
-163.08049 -59.431858 21.972553 9932422
-163.17844 -59.722198 20.853436 7893616
-163.36006 -59.978096 19.944336 8683130
-163.33229 -60.329411 19.409353 14604230
-151.43097 -60.29137 -100.7848 8617331
-150.95894 -60.173458 -101.52343 8222572
-150.54594 -59.955894 -102.30173 7564385
-164.49356 -58.408054 35.442402 9209467
-164.62094 -58.697441 34.972504 11182742
-164.99947 -58.801208 34.168144 14471620
-164.10541 -59.014801 32.679302 8617847
-164.26132 -59.016247 31.888321 7565417
-164.45073 -59.018051 30.898586 7104865
-164.63454 -59.019859 29.90781 7827814
-163.65282 -59.022488 27.899723 7235421
-163.81862 -59.024269 26.913792 7037274
-163.97804 -59.026043 25.926767 7037274
-164.13199 -59.027828 24.938911 8616563
-163.24063 -59.117161 23.798218 6511954
-163.48006 -59.164104 23.029358 8287594
-163.77708 -59.223629 22.066435 13221553
-150.8636 -59.459049 -102.51763 7761764
-150.69633 -59.338821 -103.46771 7564385
-150.62895 -59.135292 -104.49177 7301987
-150.27841 -58.955017 -105.14425 8091503
-164.59108 -57.721596 35.794163 9275003
-165.03563 -57.89439 34.810219 9209467
-150.95872 -58.389629 -104.72096 7039331
-150.4438 -58.137428 -105.44038 8354418
-149.92845 -57.886459 -106.15972 7039331
-164.55318 -56.659489 36.698532 10064774
-164.92348 -56.782124 35.896019 9076856
-165.13362 -57.20681 35.162296 9011064
-150.8195 -57.13512 -105.5693 7828332
-150.24973 -56.938637 -106.31995 9143677
-164.6407 -55.360527 37.549374 10064774
-164.85254 -55.780956 36.815746 10064774
-165.05605 -56.091782 36.184113 8879989
-150.67801 -55.881634 -106.4197 11446174
-150.09296 -55.855904 -107.09342 6511954
-164.77571 -54.727802 37.787849 12630442
-165.18372 -54.841999 36.919617 9538431
-150.73296 -55.204029 -106.73122 11906725
-150.21388 -54.955334 -107.45341 6775126
-164.76543 -53.780273 38.550602 8880500
-165.14194 -53.784519 37.828407 11248791
-165.35461 -53.951649 37.291119 9275003
-150.55676 -54.138943 -107.51678 7104091
-149.96613 -53.994438 -108.26232 9209212
-165.02321 -52.748913 38.836254 7103323
-165.36383 -52.860531 38.129375 9209467
-150.68182 -53.388664 -107.78926 5919050
-150.20602 -53.188671 -108.43598 7827305
-149.78586 -52.901184 -109.06812 7564135
-165.0051 -51.629543 39.582363 7168603
-165.38564 -51.816673 38.888412 7827045
-150.53133 -52.135536 -108.64418 9143163
-149.98717 -52.002644 -109.33379 9340543
-149.74205 -51.541637 -109.86681 11380383
-165.28262 -50.783596 39.727486 7300445
-165.59761 -51.154472 39.021519 8484461
-150.36722 -50.878963 -109.49281 11577502
-149.78323 -50.860909 -110.17502 10525329
-165.08614 -49.741768 40.581207 5393217
-165.42101 -49.893673 40.072811 6511446
-150.47049 -49.971554 -109.84609 9209726
-149.93161 -50.000984 -110.45164 8289139
-149.65501 -49.720135 -110.9165 7039331
-165.03874 -48.419632 41.411354 5920082
-165.27893 -48.813969 40.880322 4867385
-165.66724 -48.974384 40.299953 6314581
-150.21085 -49.129166 -110.58368 8486261
-149.69449 -49.038902 -111.22561 8881277
-165.21552 -47.723457 41.595539 5920082
-165.60074 -47.939106 40.986832 4867385
-150.3204 -48.373329 -110.85091 7039331
-149.94232 -48.135403 -111.41033 8420468
-149.5022 -48.123959 -111.92339 9537402
-165.48538 -46.752354 41.823254 6380632
-165.77821 -47.241604 41.170841 4867385
-150.14778 -47.116203 -111.70409 9932934
-149.6024 -47.216431 -112.28027 10261124
-165.44525 -45.621719 42.696678 6510930
-165.51605 -46.103027 42.16333 6182738
-149.8907 -46.185375 -112.55384 9274744
-149.44122 -46.00182 -113.2323 7367005
-149.15213 -45.655293 -113.9199 5920074
-165.84428 -44.307793 44.592236 8418672
-165.64253 -44.656044 43.769176 7958376
-165.69101 -45.07481 43.057384 8090218
-149.84595 -45.249821 -113.59568 7170400
-149.4986 -44.991306 -114.29861 7039331
-149.07005 -44.815941 -114.99808 7039331
-166.73082 -43.651112 54.897259 9273721
-167.1898 -43.934151 54.157818 7958120
-166.19005 -43.984169 51.84943 7169629
-166.49968 -43.986084 50.847828 5984843
-166.74341 -43.987518 50.045261 5392706
-165.59966 -43.990967 47.534382 7038307
-165.82686 -43.992481 46.736065 6643034
-166.14871 -44.005585 45.748543 7168349
-165.54485 -44.270283 45.153446 7168349
-149.58252 -44.518124 -115.6797 7039331
-149.14711 -44.513531 -116.20595 7039331
-149.52116 -44.255661 -117.36666 8814710
-148.95528 -44.256439 -118.08555 9275261
-149.06741 -44.262123 -121.41928 8287855
-148.48212 -44.26289 -122.13622 7762027
-148.70293 -44.268444 -125.34521 13354680
-148.09877 -44.269188 -126.06037 15722454
-166.63811 -42.757317 55.533382 9208183
-167.10469 -42.89222 54.87059 7235162
-166.88492 -41.813885 55.773376 7168859
-167.27393 -42.178875 55.073807 6511954
-166.75879 -40.64566 56.613125 11181972
-167.09473 -40.943573 56.017986 8813683
-166.5871 -39.453533 57.524212 10261132
-167.04907 -39.727833 56.784851 12103330
-166.85713 -38.716305 57.615978 10459537
-167.24287 -38.943977 56.999329 12564654
-166.74062 -37.495899 58.474297 9736071
-167.15143 -37.81591 57.772404 10854294
-167.08731 -36.54591 58.594059 9341571
-167.3782 -36.906853 58.018616 9012606
-166.85789 -35.758503 59.416542 10459537
-167.28752 -35.842377 58.753635 8354421
-167.19855 -34.696037 59.611485 8945787
-167.45901 -35.010563 59.024055 7893615
-167.07541 -33.70673 60.512798 7564651
-167.42696 -33.753132 59.8885 8879995
-167.02867 -32.723778 61.291817 7564651
-167.43584 -32.707439 60.618633 8682871
