# .PCD v0.7 - Point Cloud Data file format
VERSION 0.7
FIELDS x y z rgb
SIZE 4 4 4 4
TYPE F F F U
COUNT 1 1 1 1
WIDTH 1183
HEIGHT 1
VIEWPOINT 0 0 0 1 0 0 0
POINTS 1183
DATA ascii
-0.86522019 -43.119144 -171.7061 9274750
0.22159466 -43.178253 -171.56979 9406335
1.2479447 -43.152534 -171.47105 9668479
2.2050827 -43.061481 -171.40363 8221548
3.0935104 -42.904991 -171.36748 11511193
-91.475044 -42.065262 -166.16263 8287341
-90.563232 -42.266933 -166.50668 8484721
-89.668892 -42.270847 -166.87468 8682100
-88.896088 -42.599506 -166.9743 7037274
-0.72720444 -42.341198 -171.97737 9931908
0.21963677 -42.152328 -171.94691 10786959
1.248228 -42.127144 -171.84772 10655629
2.2757661 -42.103264 -171.74821 7563619
3.3021314 -42.080914 -171.64822 9340798
4.2871771 -41.978699 -171.58191 9472899
5.2524624 -41.735584 -171.57259 9933193
6.382987 -41.631447 -171.57474 10721426
7.2059669 -41.639717 -171.58302 8155756
-92.477211 -41.053745 -166.1171 9668989
-91.519836 -41.083874 -166.55481 8550254
-90.749954 -41.148033 -166.88995 8747893
1.2484797 -41.305946 -172.14944 12169122
2.2783325 -41.077057 -172.12491 7563619
3.3069437 -41.055149 -172.02452 8091760
4.3346491 -41.034504 -171.9238 10262155
5.2788887 -41.058384 -171.81789 11445403
6.2667646 -40.974003 -171.81325 10392461
7.2139044 -41.024273 -171.808 8484721
8.2444792 -41.035625 -171.81799 8682100
9.2757807 -41.048912 -171.83022 10063753
10.308565 -41.066376 -171.85335 10524301
11.274864 -41.015331 -171.89986 10129798
12.17482 -40.895599 -171.96965 9471870
13.210964 -40.916904 -171.99173 9406078
14.248154 -40.939384 -172.01352 10261131
15.078861 -40.958454 -172.03055 8617075
16.548071 -40.581436 -172.21071 12432037
17.173311 -40.597366 -172.22298 9931902
18.216572 -40.624939 -172.24298 9406590
19.052103 -40.64793 -172.2587 8288627
-93.474503 -40.161781 -166.02356 8616048
-92.514778 -40.191334 -166.46266 9734527
-91.743034 -40.255039 -166.79884 9602941
3.4133508 -40.334126 -172.27823 9209726
4.3402424 -40.213158 -172.22491 11380121
5.1631708 -40.197952 -172.14377 10524301
6.1928377 -40.193077 -172.09744 8287853
7.2245493 -40.202816 -172.10825 8419183
8.260066 -40.008377 -172.19348 8550514
9.2936707 -40.021358 -172.20618 9142651
10.275877 -40.089005 -172.20978 8945783
11.27707 -39.996395 -172.27255 10524299
12.194241 -40.072441 -172.27119 10129798
13.232205 -40.093258 -172.29355 9932419
14.271252 -40.115353 -172.31548 9932166
15.311609 -40.138855 -172.33691 10787214
16.31423 -40.080078 -172.38733 10392453
17.194542 -39.97802 -172.45007 9931902
18.239191 -40.005203 -172.47028 9933191
19.285212 -40.033661 -172.4901 8946555
20.247301 -40.10252 -172.49265 8485491
21.257915 -40.049549 -172.54118 9011065
22.222784 -40.120682 -172.54303 8813686
23.174898 -40.047249 -172.5974 8090479
24.417017 -39.845715 -172.70688 8946044
25.195524 -39.802891 -172.74509 8880249
26.254305 -39.840126 -172.76199 9143161
27.326601 -39.670464 -172.85504 9406847
28.177135 -39.702152 -172.86798 9537659
29.242273 -39.743076 -172.88371 9208693
30.0959 -39.776703 -172.89604 10459019
-94.475548 -39.268661 -165.9287 8287341
-93.513443 -39.297653 -166.36913 8353131
-92.739815 -39.361008 -166.70644 9602941
5.1684771 -39.581532 -172.36971 8879990
6.201705 -39.370865 -172.39781 8287853
7.2352753 -39.380436 -172.40884 8813942
8.3777027 -39.083767 -172.53294 8287859
9.3115635 -38.992424 -172.58292 9405823
10.141344 -39.0056 -172.60208 9406332
11.179485 -39.023296 -172.62558 9406332
12.218541 -39.042202 -172.64865 9471613
13.258802 -39.062477 -172.67126 8155755
14.300133 -39.084003 -172.69345 9734783
15.134148 -39.102169 -172.71085 9340538
16.177839 -39.12616 -172.73224 9471351
17.22282 -39.151379 -172.75319 9734782
18.269321 -39.177998 -172.77365 11380121
19.325232 -38.998688 -172.86966 9933191
20.165133 -39.021854 -172.88542 7761253
21.216476 -39.052067 -172.90477 8550256
22.269426 -39.083538 -172.92361 10853011
23.200745 -39.171963 -172.91821 8814202
24.175245 -39.024887 -173.00011 8288116
25.238186 -38.970882 -173.05057 10195336
26.211657 -39.046062 -173.05113 9669504
27.236164 -38.998856 -173.09795 9472124
28.213144 -39.076347 -173.09782 9406073
29.279783 -39.116692 -173.1138 9076851
30.348509 -39.158237 -173.12927 10326920
31.256178 -39.068604 -173.1881 8682867
32.234989 -39.077286 -173.21303 9537662
33.231617 -38.923416 -173.28357 9603458
34.005161 -38.635483 -173.20894 11379356
-96.102905 -37.745831 -165.80441 8682867
-95.390724 -38.189819 -165.95247 9603199
-94.559364 -38.175137 -166.34978 9668479
-93.740265 -38.465778 -166.6127 11378324
13.274796 -38.443192 -172.89818 8353133
14.317532 -38.46439 -172.92055 8813683
15.152617 -38.482258 -172.93803 8814195
16.197739 -38.505875 -172.95959 9932159
17.251181 -38.323635 -173.05667 9341054
18.214045 -38.389015 -173.06052 10459534
19.147181 -38.164165 -173.16972 9933191
20.198687 -38.192307 -173.18977 7037274
21.260801 -38.014126 -173.28557 8484205
22.316149 -38.044754 -173.30484 9998470
23.161697 -38.070255 -173.31995 7959405
24.220385 -38.103367 -173.33835 8879994
25.280874 -38.137695 -173.35645 9932419
26.130739 -38.166115 -173.37057 10195847
27.256968 -38.048084 -173.44604 10787468
28.27326 -38.031826 -173.48116 10260355
29.128242 -38.063068 -173.49429 10194563
30.199099 -38.103413 -173.51028 10261383
31.234592 -38.059429 -173.55608 9537918
32.146175 -37.969448 -173.61511 8617075
33.221664 -38.010338 -173.6163 9735043
34.249199 -37.996685 -173.36134 9471871
34.864483 -37.76149 -173.20456 7037274
-97.114319 -36.849079 -165.70619 7564643
-96.443985 -37.06554 -165.93042 8485488
-95.610146 -37.050495 -166.32901 9208440
-94.831749 -37.113403 -166.66878 8879475
25.312954 -37.512066 -173.58604 9932419
26.163956 -37.540005 -173.60033 11182228
26.802984 -37.561562 -173.61076 11182228
28.535357 -37.202515 -173.79161 11378324
29.177908 -37.225609 -173.80164 10654857
30.250757 -37.265076 -173.81798 10721680
31.325769 -37.305782 -173.83394 11576729
32.268753 -37.201958 -173.89897 8617075
33.190468 -37.208839 -173.91386 9077369
34.190475 -37.118324 -173.73068 10853267
35.109512 -37.122734 -173.35655 7828332
-98.129761 -35.950733 -165.60672 8682867
-97.457375 -36.167362 -165.83189 7959144
-96.621429 -36.151871 -166.23167 8353646
-95.840965 -36.21455 -166.57243 9011318
34.474751 -36.203388 -173.9754 12235686
35.184811 -36.070133 -173.74007 9078655
36.063732 -35.896282 -173.45238 7564646
-99.149445 -35.050678 -165.50613 10129798
-98.474892 -35.267612 -165.73212 9406332
-97.636734 -35.251701 -166.13309 8748147
-96.854156 -35.314137 -166.47498 9668992
35.322285 -35.083466 -174.07249 12696492
36.264416 -34.97802 -173.73227 9341826
37.205166 -34.873741 -173.39211 7300960
-99.441788 -34.288139 -165.68968 8682867
-98.656181 -34.349861 -166.03323 9011831
-97.871407 -34.412121 -166.37627 9142905
36.187534 -34.208927 -174.06596 9341570
37.129784 -34.10508 -173.72499 8288627
37.94804 -33.866264 -173.48738 8617075
-101.29471 -32.784023 -165.4514 9735296
-100.54519 -33.139294 -165.65436 9340796
-99.648506 -33.148331 -166.07242 8946039
-98.83786 -33.430321 -166.33498 9735298
37.255699 -33.099518 -174.0695 9472899
38.213753 -33.014576 -173.71472 9867400
38.971146 -32.708992 -173.52806 10196107
-102.32832 -31.877195 -165.34702 9735296
-101.64633 -32.09552 -165.57588 10261383
-100.58923 -32.074829 -166.08189 8880245
-99.698364 -32.289818 -166.41045 7564643
38.171673 -32.003025 -174.12971 9538436
39.21627 -31.969938 -173.71948 9538436
39.718193 -31.701208 -173.62183 10854036
-103.42243 -30.984858 -165.3306 10261132
-102.59953 -31.148607 -165.6039 10327178
-101.55254 -31.218145 -166.04454 10130053
-100.7281 -31.381382 -166.30858 7564643
38.546211 -31.31455 -174.24878 9012350
39.174988 -31.090763 -174.12721 8552056
40.105984 -31.02319 -173.79245 9801865
41.012875 -30.835665 -173.5482 13024949
-106.51988 -29.766487 -165.36902 8618105
-105.47607 -29.879381 -165.63728 7893869
-104.59174 -30.136265 -165.63918 7959149
-103.59668 -30.369076 -165.78137 9603459
-102.54803 -30.526608 -166.13937 10787726
40.293831 -30.359091 -174.23398 8092013
41.205372 -30.1957 -173.9989 10130826
42.113621 -29.797075 -174.11905 9867141
43.100079 -29.634743 -174.00235 9932678
43.710003 -29.623779 -173.78885 9011320
-109.43277 -29.469593 -165.05089 8617331
-108.58833 -29.455133 -165.49792 8946296
-107.74401 -29.441072 -165.94344 7893608
44.346081 -29.317326 -174.55917 9011320
45.162022 -29.303463 -174.271 10722451
46.180496 -29.286715 -173.90941 10854036
52.107555 -29.241753 -174.96852 9538435
53.153793 -29.239994 -174.65515 9998727
53.989395 -29.238586 -174.39977 9603195
55.384308 -28.961107 -175.19466 11905701
56.1894 -28.942816 -174.82559 10458510
56.993633 -28.925056 -174.45671 10261132
56.202812 -28.215525 -175.11176 9800581
57.105614 -27.925934 -174.80603 10129546
57.945938 -27.596872 -174.54543 9406078
57.214317 -26.955917 -175.14519 9340286
58.163307 -26.864195 -174.73834 9932166
57.288235 -26.297543 -175.37541 9340286
58.120388 -26.062185 -175.08086 10195338
59.069927 -25.971558 -174.67331 10721426
58.346809 -25.253534 -175.30019 9603457
59.114258 -25.122625 -174.99394 9932166
59.86132 -24.934086 -174.72034 9735812
59.264198 -24.127571 -175.32495 9405823
60.166744 -24.049688 -174.93416 9011579
60.825104 -23.599182 -174.80794 9735812
60.169964 -22.992046 -175.35936 8419445
61.106133 -22.933588 -174.94495 9274494
61.739326 -22.70373 -174.7415 9209467
60.577507 -22.279083 -175.45634 9734788
61.095345 -22.00605 -175.32422 9340030
61.963196 -21.964279 -174.93504 9143418
61.376396 -21.234602 -175.50398 10260358
62.128944 -21.150473 -175.18588 10260358
62.736984 -21.142441 -174.90465 9209467
61.600311 -20.492119 -175.69882 10260358
62.293282 -20.127501 -175.52167 10589066
63.075668 -20.028828 -175.19547 11774110
63.856449 -19.723373 -174.9534 11117720
63.212215 -18.914589 -175.58113 10591124
64.02549 -18.905344 -175.20435 11380637
64.663025 -18.675581 -174.99878 10855060
63.49799 -18.242041 -175.71877 8814715
64.136475 -18.011677 -175.51305 9209473
64.950432 -18.003178 -175.13565 9341056
64.306412 -17.189714 -175.76512 9998987
65.179565 -17.151136 -175.37221 10590867
65.906311 -16.875599 -175.1434 10985368
65.239731 -16.28499 -175.71022 13024949
66.125999 -16.046612 -175.45943 11840676
67.044319 -15.646255 -175.30499 11379612
67.088356 -15.099818 -175.73848 12039591
67.995468 -14.880065 -175.5892 9406328
68.907074 -14.661313 -175.4465 9208435
70.375145 -14.277526 -176.08447 9143416
71.202225 -14.273064 -175.70854 8090987
72.028687 -14.268802 -175.3322 8090987
83.260162 -14.204827 -176.83641 10261124
84.065132 -14.017482 -176.56908 8748148
84.853271 -13.737823 -176.3728 9077625
84.32663 -13.031017 -176.90421 8089963
85.084244 -13.077317 -176.53127 8748150
85.851677 -12.79329 -176.28697 10129289
85.171112 -12.16327 -176.8593 8945786
85.964081 -12.083569 -176.52066 9997961
86.640701 -11.846308 -176.29997 9405566
85.437134 -11.373065 -177.05367 10459281
86.114334 -11.134906 -176.83304 8288116
86.967567 -11.134227 -176.43433 9405566
86.478745 -10.183234 -177.04652 7564651
87.119804 -10.182637 -176.74695 8222319
87.91629 -10.102706 -176.40675 9208443
87.3311 -9.3077259 -177.0009 8485489
88.08654 -8.9199085 -176.80377 8748148
88.936722 -8.8680725 -176.42699 9340285
88.32193 -8.030057 -177.05199 8814454
89.098465 -7.7413244 -176.80508 9801348
89.863853 -7.7888489 -176.42795 9735555
89.141586 -6.9476151 -177.10452 9472383
90.115677 -6.7782159 -176.71715 9209211
90.922539 -6.5848432 -176.41765 8089963
90.085999 -5.9093504 -177.08092 9669762
91.062607 -5.7392917 -176.69257 9208699
90.299294 -5.1347308 -177.29308 9735296
90.987068 -4.8915033 -177.06935 9735298
91.851257 -4.8907299 -176.66545 10590864
91.206451 -4.0004587 -177.32556 9538174
92.013466 -3.9184065 -176.98116 10590864
92.821106 -3.8363695 -176.63643 9603457
92.234978 -3.0241013 -177.23769 10853009
93.043983 -2.9416289 -176.89246 9932166
93.736458 -2.6964183 -176.66734 10129545
92.515862 -2.2086153 -177.43471 10786958
93.208923 -1.9624289 -177.20966 9406078
94.078629 -1.9611207 -176.80345 9668994
93.550613 -1.2254831 -177.34656 9406078
94.179703 -1.0605072 -177.16722 9339773
94.967247 -0.85413462 -176.94235 9866117
-58.427094 -50.031738 -168.90898 9143422
-57.611031 -50.025257 -169.17039 8617079
-56.585052 -50.013588 -169.48062 8682867
-55.730476 -49.975101 -169.62466 10195592
-54.646965 -49.91383 -169.75427 8419438
-53.564999 -49.853401 -169.87967 8813680
-52.700336 -49.805542 -169.97679 9274229
-51.811722 -49.735085 -169.99254 8616304
-51.138554 -49.674961 -169.97604 11313814
-60.583542 -48.977585 -168.81668 9275264
-59.615696 -49.23085 -169.04832 8880507
-58.660255 -49.17643 -169.40837 8748665
-57.666412 -49.477436 -169.59293 8485494
-56.690525 -49.630737 -169.79042 8682867
-50.462791 -49.611561 -169.94579 12695209
-49.563545 -49.527313 -169.90228 14077373
-48.666119 -49.443317 -169.85483 8617336
-47.770519 -49.359558 -169.8035 8617848
-46.653866 -49.25528 -169.73378 10460302
-45.539951 -49.151283 -169.65854 8617587
-44.872944 -49.089123 -169.6106 8617587
-42.548012 -48.75227 -170.70444 10459023
-41.887028 -48.697178 -170.66728 9735044
-61.593254 -48.053848 -168.81725 8683128
-60.682007 -48.202362 -169.0858 10590864
-59.755096 -48.158138 -169.43575 9867143
-59.00285 -48.230022 -169.67737 8617079
-40.787846 -48.606136 -170.60231 11380381
-39.691536 -48.515869 -170.53381 8288371
-38.816803 -48.444435 -170.47623 9537667
-37.726234 -48.35598 -170.40077 9471616
-36.638535 -48.268353 -170.32179 8155754
-35.742661 -48.04649 -170.7238 9471870
-34.776772 -48.002647 -170.59637 9078655
-33.790894 -47.820599 -170.9798 11051927
-32.720993 -47.753849 -170.94736 8815225
-31.653654 -47.688656 -170.91397 11511967
-31.013472 -47.648705 -170.888 12433069
-63.343445 -47.091 -168.5681 8617075
-62.705769 -47.303543 -168.71332 8617075
-61.690704 -47.299534 -169.0791 11051159
-60.675514 -47.297043 -169.44438 11709345
-59.836185 -47.511799 -169.66101 10854036
-32.564167 -47.361641 -171.23167 7565675
-31.709032 -47.309917 -171.20447 9999244
-30.743189 -47.243881 -171.14108 11511967
-29.780725 -47.180576 -171.08142 8749685
-28.715399 -47.114132 -171.02335 8354671
-27.734076 -46.956512 -171.091 7038554
-26.69544 -46.892498 -171.1055 7958884
-25.769014 -46.975807 -170.99672 8156521
-24.716223 -46.921185 -170.95638 9143419
-23.665548 -46.868031 -170.91512 8616563
-22.826654 -46.826668 -170.88142 8682867
-65.413925 -45.853859 -168.52122 12103847
-64.544243 -46.046219 -168.67693 11183001
-63.686996 -46.247166 -168.86063 10655633
-62.708824 -46.293159 -169.1792 9997959
-61.66404 -46.513103 -169.42059 11051672
-60.961109 -46.650387 -169.59647 11709345
-28.792391 -46.320278 -171.46622 7170397
-27.632624 -46.155273 -171.472 7367005
-26.636923 -46.125313 -171.43622 7695969
-25.829538 -46.168446 -171.38255 8485229
-24.775755 -46.117378 -171.35176 9274747
-23.724112 -46.067844 -171.32053 9077369
-22.664083 -46.226849 -171.21268 10722447
-21.617048 -46.180267 -171.1805 11314583
-20.780813 -46.144253 -171.1544 10854034
-19.822245 -46.062065 -171.1364 9801092
-18.704491 -45.852432 -171.16356 8287597
-18.080086 -45.827965 -171.14319 7565675
-68.633415 -44.698727 -168.36569 9405822
-67.609886 -44.68848 -168.74245 10853012
-66.634644 -44.932812 -168.65279 8946040
-65.637054 -45.261372 -168.7317 10064521
-64.701561 -45.209496 -169.08092 8419952
-63.762093 -45.307636 -169.35867 9471871
-24.823412 -45.290627 -171.66634 11445399
-23.769789 -45.24205 -171.63551 9537918
-22.719507 -45.196949 -171.61142 12630441
-21.670017 -45.151421 -171.57919 9867139
-20.831879 -45.116127 -171.55299 9669505
-19.785948 -45.073471 -171.51973 9406334
-18.779417 -45.115032 -171.45177 7958632
-17.689711 -45.195457 -171.36284 7893608
-16.64958 -45.157082 -171.32806 10590353
-15.826749 -44.923286 -171.38167 10263180
-14.789058 -44.887871 -171.34567 8420468
-85.560616 -43.924519 -167.44212 7695714
-84.573395 -44.041302 -167.69145 8550508
-83.580322 -43.956448 -168.02371 9208443
-82.770607 -43.999653 -168.24937 9208443
-81.631248 -44.307587 -167.97154 11906210
-80.632263 -44.400616 -168.1371 13353658
-80.028046 -44.400253 -168.42909 11512479
-76.341995 -44.394871 -167.91003 9537406
-75.738541 -44.394485 -168.18628 9537406
-74.730598 -44.393829 -168.64189 9537406
-71.4375 -44.467644 -168.26376 11246996
-70.617744 -44.458729 -168.57666 10063235
-69.79747 -44.450466 -168.88762 8156523
-69.182022 -44.444557 -169.1196 6511954
-66.380859 -44.677303 -169.19124 7959144
-65.970978 -44.673882 -169.33981 7959144
-18.553423 -44.618168 -171.65674 9406590
-17.718882 -44.586838 -171.62904 8880502
-16.677109 -44.54895 -171.59402 10854036
-15.844804 -44.519711 -171.56549 10263180
-14.805984 -44.484543 -171.52931 8091248
-13.768998 -44.45219 -171.49814 6183254
-12.7359 -44.42934 -171.49718 6840925
-11.737057 -44.303505 -171.96744 6840925
-10.650501 -43.991909 -172.41676 9407364
-9.6932535 -43.912304 -172.34514 8881278
-8.8612509 -43.88007 -172.2693 8091245
-7.8228998 -43.841156 -172.17413 10064520
-6.7827272 -44.009472 -172.00266 9143675
-5.7482595 -43.973385 -171.90686 8682867
-87.494453 -42.99118 -167.2374 8287341
-86.672661 -43.13694 -167.42543 9274492
-85.606476 -43.182884 -167.72693 7433056
-84.610092 -43.097504 -168.06038 9406079
-83.797493 -43.140598 -168.28694 9209467
-9.4992189 -43.285217 -172.55507 8092019
-8.808032 -43.12133 -172.54248 8880503
-7.8387632 -43.016876 -172.4787 8419952
-6.7967081 -43.18594 -172.30675 8090987
-5.7603741 -43.150467 -172.21051 9603969
-4.7255673 -43.116367 -172.11398 9011832
-3.6944716 -42.878281 -172.09277 9669508
-2.6638815 -42.641747 -172.07108 12432037
-89.505615 -41.719105 -167.14572 9142651
-88.658684 -42.286999 -167.17136 7037274
-87.618614 -42.318062 -167.47105 7826790
-86.521194 -42.272346 -167.81883 7629923
-85.644821 -42.236916 -168.09616 7564386
-84.948288 -42.43491 -168.22552 9143163
-7.6424932 -42.390652 -172.68808 8683124
-6.7437119 -42.221767 -172.65544 8485488
-5.775578 -42.120686 -172.59052 9406590
-4.7384481 -42.087276 -172.49348 9143418
-3.702965 -42.055412 -172.39604 9406080
-2.6688941 -42.024883 -172.29825 11511194
-1.8426381 -42.001511 -172.21971 9931650
-0.81197655 -41.76812 -172.19684 10786445
-90.530571 -40.84267 -167.12184 8089963
-89.632797 -41.043343 -167.37961 9208699
-88.569244 -41.290058 -167.5995 8813685
-87.605415 -41.185276 -167.931 8024169
-86.744232 -41.452324 -168.08203 7432288
-5.5768375 -41.495338 -172.79933 13024949
-4.6786904 -41.329571 -172.76561 10327436
-3.7123959 -41.143246 -172.73215 8288114
-2.6755679 -41.201584 -172.60136 9208958
-1.84787 -41.178635 -172.52258 7826533
-0.81450188 -41.151218 -172.42371 9734014
0.21765026 -41.125069 -172.32454 11576730
1.2485713 -40.89492 -172.3004 11248278
-91.523552 -39.948906 -167.03094 10853012
-90.65538 -40.163773 -167.34897 8682356
-89.580894 -40.131649 -167.76216 9471871
-88.755676 -40.173386 -167.99303 9866630
-2.7850764 -40.483376 -172.87677 8287343
-1.8123666 -40.22995 -172.86734 7629410
-0.81874287 -40.121761 -172.80235 9339513
0.21567997 -40.096214 -172.70271 8354676
1.2488135 -40.072094 -172.60263 9735813
2.2808731 -40.049225 -172.50227 8025197
3.2304723 -39.78273 -172.50005 7434088
4.1384602 -39.600418 -172.4713 13550517
-92.520294 -39.054146 -166.93884 8681835
-91.649773 -39.26878 -167.25804 10063496
-90.615082 -39.254517 -167.75079 9471871
-89.92968 -39.463116 -167.92653 9932678
-0.61480343 -39.291996 -173.08572 10524043
0.28292927 -39.133007 -173.04944 9670020
1.2491254 -39.042271 -172.98097 8091761
2.2833955 -39.019928 -172.88014 8486261
3.1100729 -39.003029 -172.79919 8354675
4.2006702 -39.070179 -172.65955 9406849
5.1738119 -38.964382 -172.59586 9208699
6.2083883 -38.753544 -172.62334 9537664
7.2432728 -38.762959 -172.63448 8616820
8.0716066 -38.771423 -172.64279 7564651
-93.52076 -38.158085 -166.84547 11378324
-92.647842 -38.372654 -167.16583 9866113
-91.610809 -38.357651 -167.66003 9998214
-90.947151 -38.576439 -167.88013 9011320
1.4565495 -38.419052 -173.18803 7565675
2.2854555 -38.195217 -173.18288 8354675
3.1135252 -38.178638 -173.10172 8091760
4.1476822 -38.159084 -172.99988 8025967
5.1808825 -38.140713 -172.89767 9998215
6.2150373 -38.135574 -172.84914 9537664
7.2512999 -38.144863 -172.86035 8419701
8.2882099 -38.155399 -172.87079 8748152
9.3259201 -38.168018 -172.88483 8682869
10.157166 -38.18092 -172.90407 8222573
11.258569 -38.110748 -172.96153 9932420
12.242908 -38.010128 -173.02676 8353133
13.206186 -37.862968 -173.10835 10589834
14.210667 -37.800167 -173.16031 8813683
15.171094 -37.861691 -173.16554 9735039
16.217602 -37.884911 -173.18724 10261382
17.272417 -37.702145 -173.28453 8090987
18.112103 -37.722504 -173.30132 8091760
19.163057 -37.74918 -173.3219 7762025
20.215473 -37.777088 -173.34207 7037274
-94.403618 -36.801369 -167.00153 8090470
-93.629913 -37.303566 -167.15405 9208440
-92.677444 -37.323498 -167.59373 9866112
-91.944725 -37.678383 -167.78891 9405560
3.3233945 -37.555698 -173.30849 7894382
4.2355862 -37.373768 -173.27911 8025451
5.1897936 -37.109509 -173.27556 8354158
6.2261782 -37.104252 -173.22594 7959145
7.2647009 -37.113297 -173.23737 9142909
8.0959806 -37.12133 -173.24591 9471617
9.1358318 -37.13324 -173.25919 9274492
10.176971 -37.148445 -173.28221 9471612
11.168212 -37.11272 -173.3239 10063492
12.267279 -36.976479 -173.40544 9406077
13.103048 -36.991646 -173.42398 10918799
14.148851 -37.011887 -173.44676 10261126
15.195788 -37.033283 -173.46919 10064003
16.244139 -37.055988 -173.49113 8879988
17.293756 -37.079876 -173.51268 8090987
18.134535 -37.099911 -173.52966 7828073
19.186913 -37.126175 -173.55038 9471870
20.240736 -37.153591 -173.57079 7958118
21.08503 -37.176552 -173.58679 7629154
22.201927 -37.051609 -173.6647 8222060
23.210382 -37.028873 -173.7021 7564643
24.147116 -37.116928 -173.69688 8617331
25.132256 -36.878925 -173.81216 8749428
26.197165 -36.913155 -173.83018 9603711
27.176527 -36.98769 -173.83107 9603193
28.125427 -36.873405 -173.90007 9931646
29.202765 -36.806347 -173.95544 10260871
30.061598 -36.837471 -173.96875 10261643
31.137274 -36.877544 -173.98503 11510938
31.999403 -36.910408 -173.99765 8617075
-95.313515 -36.052788 -166.8887 6380368
-94.533768 -36.116543 -167.22867 7695969
-93.699509 -36.103752 -167.62653 9669245
6.651125 -36.281391 -173.5325 7039331
7.2754602 -36.286861 -173.53937 9669509
8.1081305 -36.294708 -173.54805 9011323
9.1498623 -36.306404 -173.5618 9800322
10.196782 -36.114273 -173.66095 10523529
11.241311 -36.130634 -173.68509 9537406
12.286821 -36.148117 -173.70889 9735043
13.124063 -36.163033 -173.72763 10459022
14.1717 -36.182777 -173.75061 10525068
15.266265 -36.079945 -173.81982 9537660
16.067074 -36.013531 -173.86719 8025193
17.118837 -36.036613 -173.88914 10196104
18.171946 -36.06081 -173.91069 9669761
19.171831 -36.137089 -173.91165 10196362
20.19462 -36.051231 -173.97263 9668992
21.12903 -36.135273 -173.96878 9208184
22.133154 -36.04335 -174.03123 8814710
23.259134 -35.985626 -174.08466 7433057
24.109705 -36.010521 -174.09998 6643540
25.174677 -36.042854 -174.11874 7828326
26.241518 -36.07629 -174.13713 9473151
27.096546 -36.103977 -174.15155 9931646
28.167364 -36.139805 -174.16922 9931646
29.240187 -36.176861 -174.18649 10064006
30.112993 -35.997177 -174.2771 9669762
31.190645 -36.036354 -174.29375 9735555
32.270554 -36.076756 -174.31001 8682867
33.136364 -36.110008 -174.32265 8288109
33.945004 -36.035534 -174.25607 12103588
-96.325615 -35.15173 -166.79201 10195079
-95.543854 -35.215263 -167.13301 7695970
-94.707558 -35.202057 -167.53197 8813936
-94.037483 -35.421379 -167.75488 10261124
14.398775 -35.56419 -173.9834 10657169
15.028937 -35.576511 -173.99709 10064003
18.413107 -35.233124 -174.22029 10459276
19.047029 -35.248142 -174.23315 11381404
20.104887 -35.273998 -174.25407 9208699
21.164282 -35.301014 -174.27466 9800835
22.2255 -35.329266 -174.29471 8814710
23.172411 -35.104187 -174.4041 7696229
24.150255 -35.173889 -174.40674 6906968
25.129595 -35.24477 -174.40895 8091754
26.222088 -35.096088 -174.4946 9538689
27.154013 -35.055233 -174.53624 9735555
28.100977 -35.146046 -174.53026 9537659
29.144171 -35.068008 -174.5887 9472383
30.177334 -34.945229 -174.66322 10655889
31.041143 -34.975517 -174.67696 9866884
32.123234 -35.014572 -174.69371 8551281
33.207611 -35.054798 -174.71014 9472126
34.170197 -35.099968 -174.53281 10854549
34.872921 -34.819805 -174.35825 14077885
-97.341743 -34.249084 -166.69402 9668992
-96.557907 -34.31242 -167.03615 11181460
-95.719551 -34.298779 -167.43626 9537402
-95.047379 -34.51823 -167.66006 10261124
30.432005 -34.320328 -174.89874 10655889
31.081001 -34.342815 -174.90919 9537918
32.16457 -34.381165 -174.92625 8090987
33.250458 -34.420715 -174.9429 8419953
34.159901 -34.08765 -174.93518 8289140
35.068005 -34.089439 -174.56654 10789012
35.939964 -33.93689 -174.27333 12038820
-98.379837 -33.07547 -166.69991 8880245
-97.645035 -33.270546 -166.96346 8814195
-96.735542 -33.39386 -167.33939 10063749
-96.06134 -33.613594 -167.56401 10261124
35.309937 -33.115078 -174.85175 10262413
36.203129 -33.083164 -174.50243 10393486
36.838722 -32.638752 -174.41977 9012606
-99.478012 -31.976961 -166.64583 7564643
-98.689018 -32.040283 -166.99036 8946039
-97.776436 -32.163654 -167.36768 12957613
-97.079315 -32.707142 -167.46683 8616816
36.078697 -32.030277 -174.96701 9867142
37.087669 -31.996168 -174.57161 10130571
37.708183 -31.764236 -174.41144 9933193
-100.55069 -31.080576 -166.61475 7564643
-99.638947 -31.094711 -167.03262 8617331
-98.614052 -31.344051 -167.31882 9735297
36.408707 -31.245279 -175.16164 10984854
37.157318 -31.152189 -174.90854 10656657
38.091316 -31.082249 -174.57159 10064267
-104.42077 -29.73423 -166.46729 9735297
-103.79105 -29.725029 -166.79485 8090987
-102.73021 -30.08684 -166.43102 8682867
-101.68188 -30.245348 -166.78819 9077624
-100.68705 -30.383141 -167.13766 8288109
37.445618 -30.539305 -175.24127 10261132
38.142868 -30.386042 -175.08488 9603973
39.116432 -30.209229 -174.85507 8749178
40.016418 -29.787498 -174.94931 8683638
41.062767 -29.672993 -174.70944 8092011
-107.32184 -29.434242 -166.16562 7893608
-106.71507 -29.431484 -166.53922 9735812
-106.11665 -29.431257 -166.92537 8814710
-103.37102 -29.719093 -167.0128 10129030
-102.95125 -29.713259 -167.23013 10129030
42.09705 -29.357857 -175.34569 9538174
43.12056 -29.339031 -174.98903 10524559
43.938026 -29.32444 -174.70268 8089963
49.168335 -29.246634 -175.8131 7892843
50.219727 -29.244896 -175.51729 8089963
51.059525 -29.243498 -175.27606 9012606
53.36681 -29.009829 -176.11848 9538433
54.112358 -28.816814 -175.84746 9472123
54.878319 -28.682091 -175.54346 11248025
54.148582 -27.971144 -176.1705 9012089
55.147057 -27.968719 -175.70464 10590352
55.931061 -27.638992 -175.47063 8419696
55.182529 -27.108437 -176.03391 9275005
56.088741 -26.93548 -175.67973 8945784
55.265732 -26.339376 -176.30424 10129801
56.099495 -26.102268 -176.00967 9669507
57.051613 -26.009853 -175.60162 8024938
56.323273 -25.292303 -176.23096 9077113
57.087994 -24.929079 -176.01974 8353903
57.816132 -25.190094 -175.5739 8090987
57.332699 -24.099022 -176.2401 8814453
58.063835 -24.022587 -175.92889 8945783
58.77647 -23.8528 -175.66397 9011576
58.142403 -23.0254 -176.29448 9208955
59.08091 -22.965385 -175.87962 9142908
59.714874 -22.734379 -175.67628 9011323
58.548134 -22.311035 -176.39294 9932166
59.18306 -22.079351 -176.18924 8945529
59.995155 -22.06671 -175.81447 9011323
59.344772 -21.264296 -176.44247 8353904
60.09898 -21.178976 -176.12404 8090737
60.852703 -21.094147 -175.80565 9866116
60.259426 -20.154825 -176.46219 8551026
61.04343 -20.054993 -176.13571 8352876
61.824814 -19.748169 -175.89392 7563361
61.234787 -19.013134 -176.46649 7037786
62.107628 -18.972389 -176.07462 7037274
62.628914 -18.698446 -175.94122 7037274
61.459389 -18.266016 -176.66296 6511954
62.098312 -18.03455 -176.45729 6906202
63.041939 -17.978977 -176.03828 7038307
62.410515 -17.135326 -176.67406 8089963
63.023315 -17.128534 -176.39011 7038307
63.780968 -17.045763 -176.06902 9998987
63.196114 -16.304974 -176.65599 9274493
64.082138 -16.065382 -176.40433 12038311
65.002106 -15.728883 -176.19238 13024949
65.038147 -15.116813 -176.68466 12104104
66.047043 -14.937059 -176.42511 10788759
67.053246 -14.673341 -176.28233 11381661
68.304672 -14.289932 -177.02138 8092011
69.133369 -14.284804 -176.64697 12762544
69.961349 -14.279908 -176.27216 9143416
81.137657 -14.208861 -177.8196 9011576
82.0411 -13.974808 -177.54509 10392461
83.049149 -13.895385 -177.12221 9932163
82.165703 -13.270858 -177.81795 10853012
83.05159 -13.03308 -177.49957 8813683
83.901657 -13.031629 -177.10268 8418927
83.042534 -12.166526 -177.85333 8813683
84.048088 -12.085905 -177.4157 9011061
84.936661 -11.847858 -177.09618 7564651
84.040512 -11.216715 -177.76973 9537403
84.970116 -11.088733 -177.3867 9538437
84.305283 -10.424149 -177.96568 11906725
84.983109 -10.184987 -177.74518 9735559
85.837738 -10.183883 -177.34601 9011838
85.34597 -9.2303209 -177.96046 9011838
86.025726 -8.9902735 -177.73929 9209215
86.854706 -8.8936892 -177.39047 8419696
86.42881 -7.7919998 -178.03328 9735812
87.072693 -7.7912211 -177.73247 9275005
87.872604 -7.7103076 -177.3909 7300702
87.284531 -6.9093699 -177.98857 7893096
88.085693 -6.8281946 -177.64642 7498081
88.769867 -6.5865483 -177.42377 7959144
88.103699 -5.9114513 -178.00725 7367007
89.102524 -5.8619633 -177.56003 9011832
89.043648 -4.8936763 -177.97746 9143418
90.064438 -4.8116236 -177.53308 9998211
89.161407 -4.1652355 -178.21568 10854036
89.971397 -3.9695182 -177.91571 10261639
90.754951 -3.6765151 -177.66722 9735296
90.067429 -3.027101 -178.25021 9538174
90.997345 -2.9932394 -177.82896 9932674
91.783157 -2.6990423 -177.57996 11050129
91.036369 -1.9658462 -178.22447 10392712
91.905121 -1.9644648 -177.8187 10786958
92.597923 -1.7182289 -177.59384 10786958
91.37484 -1.2292314 -178.36275 10786958
92.098427 -0.98221159 -178.19635 9997699
92.969406 -0.98065108 -177.7896 10523786
93.695122 -0.73347735 -177.62227 9011320
-57.649113 -48.806454 -169.93655 10787729
-56.813026 -49.024391 -170.15097 9998727
-55.753178 -49.225395 -170.3714 9011832
-54.732937 -49.224815 -170.70819 7959143
-53.87447 -49.424973 -170.84641 8682608
-52.796211 -49.610798 -170.99646 8353644
-51.696518 -49.538864 -171.06856 8616304
-50.79546 -49.460247 -171.04794 9997955
-49.895351 -49.381119 -171.02112 11906209
-48.723564 -49.126728 -171.11894 8419701
-47.705822 -49.003239 -171.12477 12433067
-46.814812 -48.929466 -171.09923 12433326
-45.925999 -48.856525 -171.07205 8091761
-44.759968 -48.938499 -170.81805 8617587
-43.652412 -48.844902 -170.76318 9735297
-42.989357 -48.789162 -170.72841 11379607
-58.47987 -48.087029 -169.92131 8617079
-57.727352 -48.160343 -170.16245 10327436
-56.713032 -48.163876 -170.52502 10459278
-55.757607 -48.240265 -170.8378 9209211
-45.355873 -48.434387 -171.40314 7565675
-44.693222 -48.383877 -171.39024 8091499
-43.811409 -48.317493 -171.3727 9735553
-42.807446 -48.203945 -171.38026 10853266
-41.740913 -48.20459 -171.30104 10130058
-40.742683 -48.093983 -171.30742 9011321
-39.87075 -48.032654 -171.28769 7039331
-38.783772 -47.957561 -171.26228 8815227
-37.699474 -47.883751 -171.23499 10853780
-36.895535 -47.89397 -171.16495 9340027
-59.57214 -47.188374 -169.88309 11578017
-58.644592 -47.296741 -170.17323 8880763
-57.831932 -47.298309 -170.4642 9932936
-56.904621 -47.409157 -170.75339 9538176
-42.78875 -47.620098 -171.64825 12235431
-41.631065 -47.395641 -171.67584 10919574
-40.834885 -47.269115 -171.68474 8287342
-39.743217 -47.194279 -171.66087 7368296
-38.654446 -47.120983 -171.63654 7565675
-37.786064 -47.063686 -171.61668 10853780
-36.769157 -47.067928 -171.56616 10853266
-35.763382 -47.196377 -171.46883 9143420
-34.744194 -47.079723 -171.46217 8420727
-33.868011 -47.234917 -171.35883 10525841
-32.912235 -47.073757 -171.37756 7828847
-31.744944 -46.902172 -171.39218 9012606
-31.104788 -46.865486 -171.37549 10459537
-62.345253 -45.828041 -169.5966 8617075
-61.635509 -45.961166 -169.75903 11051672
-60.724499 -46.096062 -169.99957 10788243
-59.755287 -46.285011 -170.2352 9275778
-58.82333 -46.316566 -170.55109 8486776
-57.910412 -46.651272 -170.69077 8092019
-39.362244 -46.532852 -171.88466 11710373
-38.708622 -46.489746 -171.86969 9342084
-37.778069 -46.288296 -171.89964 8682867
-36.771572 -46.153908 -171.90149 9866885
-35.68969 -46.086632 -171.87529 8354162
-34.826252 -46.034061 -171.85399 9538948
-33.734074 -46.17918 -171.74969 11578271
-32.660721 -46.116329 -171.72227 9933451
-31.804163 -46.067387 -171.70032 10196365
-30.721504 -46.216137 -171.59474 9801606
-29.656124 -46.157684 -171.56607 7301727
-28.819235 -45.904076 -171.61951 7170397
-27.969946 -45.859768 -171.59583 6906711
-63.506798 -44.986923 -169.60284 9143163
-62.652534 -45.193333 -169.79846 9143163
-61.716759 -45.145458 -170.1458 9472640
-60.719879 -45.225849 -170.45203 9143675
-59.956089 -45.393036 -170.63538 9144448
-34.880981 -45.412834 -172.11536 7301221
-33.803154 -45.349979 -172.08978 12367528
-32.746346 -45.08366 -172.15753 9341570
-31.887705 -45.035919 -172.13612 9736071
-30.799543 -45.182228 -172.01523 9341056
-29.731726 -45.125317 -171.98747 8222061
-28.879358 -45.08099 -171.9648 6248015
-27.867975 -45.146572 -171.88435 6511698
-26.740099 -45.178207 -171.81345 8024677
-25.893526 -45.137203 -171.78955 9077366
-24.851374 -44.884182 -171.85197 11445400
-23.796656 -44.836037 -171.82097 8354159
-81.587852 -44.104309 -168.56226 13353658
-80.721748 -44.072552 -168.83499 12696241
-79.53157 -44.216953 -168.94687 9867910
-78.695297 -44.20187 -169.27393 10261132
-77.91214 -44.260155 -169.5368 9537149
-73.720161 -44.393166 -169.09195 9274747
-72.706772 -44.39249 -169.53535 9932163
-71.690971 -44.3918 -169.97316 10720651
-68.566254 -44.439045 -169.35045 6511954
-67.744751 -44.432014 -169.65662 7958888
-66.717178 -44.424118 -170.03653 6972505
-65.727783 -44.544464 -169.91327 9406590
-64.74054 -44.664501 -169.78287 8024426
-63.714844 -44.657837 -170.15024 8879735
-62.894615 -44.653851 -170.4445 9735043
-27.634817 -44.608658 -172.11647 6248015
-26.785324 -44.567142 -172.09273 7367005
-25.733938 -44.53083 -172.11707 9011831
-24.685743 -44.498867 -172.15254 12432037
-23.84794 -44.473988 -172.17865 8354159
-22.801611 -44.443638 -172.20853 9867139
-21.756201 -44.414066 -172.2356 10459275
-20.711706 -44.38549 -172.2594 8090218
-19.668167 -44.357681 -172.28043 7037274
-18.833914 -44.336052 -172.29498 6774614
-17.713961 -44.257362 -172.56084 6511954
-16.79611 -44.171886 -172.77095 6182990
-15.75262 -44.146149 -172.77504 7761766
-14.709903 -44.121124 -172.77602 6971994
-13.871933 -44.088039 -172.72101 6314838
-12.824305 -44.041882 -172.62753 7564646
-11.850088 -43.931217 -172.56554 7235940
-11.157583 -43.764526 -172.55379 8092019
-83.559441 -42.831501 -168.48277 9209467
-82.709053 -43.098976 -168.6304 9538688
-81.677681 -43.266628 -168.87247 13025205
-80.656891 -43.173859 -169.21616 10788756
-79.818634 -43.234299 -169.44344 9407615
-79.06665 -43.566952 -169.53528 8681835
-16.629972 -43.592636 -173.19376 5392706
-15.684222 -43.444271 -173.14857 7366752
-14.701969 -43.170727 -173.14554 8617075
-13.905332 -43.052341 -173.10509 7893351
-12.849092 -43.214237 -172.93425 10064262
-11.801514 -43.170227 -172.84006 8157297
-10.756093 -43.127823 -172.74541 8881278
-9.7835264 -43.020691 -172.68225 10262416
-9.0917044 -42.85656 -172.66965 9341054
-84.710182 -42.124878 -168.42178 9866630
-83.677643 -42.160622 -168.71739 9868166
-82.587326 -42.120239 -169.0609 9736323
-81.7164 -42.089008 -169.33487 14077894
-81.025833 -42.289433 -169.46143 10064777
-12.816516 -42.294338 -173.26884 9209210
-11.830201 -42.135254 -173.22333 8682864
-10.782433 -42.093765 -173.12816 9078397
-9.7364559 -42.053589 -173.03265 11446174
-8.9410763 -42.106762 -172.92931 10327949
-7.9606743 -42.092155 -172.83134 9341054
-7.0256548 -41.9562 -172.7827 8682867
-86.766495 -40.925049 -168.28755 8682356
-85.806427 -41.339725 -168.4088 8353646
-84.710609 -41.297615 -168.75467 9077625
-83.616592 -41.256844 -169.09947 9736323
-82.802635 -41.302532 -169.32538 9736323
-10.701204 -41.15794 -173.46342 9932415
-9.7604876 -41.019005 -173.41536 10853778
-8.878828 -41.111279 -173.2885 11380381
-7.8744421 -41.15873 -173.16521 10525072
-6.8317208 -41.123276 -173.06833 9406334
-5.8519216 -40.973278 -173.02013 9669762
-4.8240323 -40.783745 -172.9814 9341313
-4.1331263 -40.625286 -172.9668 9012606
-88.516579 -39.860683 -168.19069 10261132
-87.812332 -40.059669 -168.32198 9208955
-86.692398 -40.112999 -168.63666 8747887
-85.651772 -40.267422 -168.88684 8682351
-84.650826 -40.391758 -169.13724 8946038
-83.953552 -40.592175 -169.26587 9209467
-8.9365978 -40.367546 -173.56784 11643552
-7.8943434 -40.124363 -173.54729 9932935
-6.8492842 -40.089687 -173.44989 9011832
-5.8060532 -40.05645 -173.35213 9406334
-4.7642951 -40.024525 -173.254 11972519
-3.9320738 -39.999992 -173.17534 9999243
-2.9765904 -39.931618 -173.09973 8814457
-2.0644772 -39.741711 -173.07327 7037274
-89.690536 -39.149548 -168.12454 10196106
-88.739029 -39.141846 -168.41322 10129546
-87.6604 -39.190681 -168.71735 9603457
-86.652779 -39.106911 -169.05351 9341307
-85.950638 -39.30769 -169.18344 9011571
-6.8597784 -39.468712 -173.67912 9406334
-5.8182387 -39.228985 -173.65741 9669763
-4.7746792 -39.197605 -173.5589 11446432
-3.9410088 -39.173519 -173.47984 13024949
-2.9002602 -39.144672 -173.38078 8683125
-1.8609172 -39.117039 -173.28136 8024425
-0.92713177 -38.990231 -173.22948 9931906
0.0060184896 -38.864426 -173.17734 10787985
-90.72644 -38.269978 -168.11296 10854036
-89.697861 -38.313866 -168.45872 9471871
-88.587723 -38.270573 -168.80937 9603457
-87.761314 -38.315029 -169.03954 9866630
-5.4091935 -38.595108 -173.84718 9012606
-4.7824502 -38.576782 -173.7878 9999243
-3.9498951 -38.345997 -173.78482 9999243
-2.9091094 -38.11068 -173.76157 10326925
-1.8674556 -38.083717 -173.66165 7432800
-0.82725251 -38.058098 -173.5614 7959655
0.21174702 -38.033707 -173.46085 9012604
1.0834407 -38.014317 -173.37608 9209726
-92.5298 -36.773266 -167.89487 9340027
-91.63755 -37.08744 -168.18234 9669249
-90.646904 -37.268562 -168.55991 9275006
-89.714745 -37.264095 -168.87622 9143418
-88.935341 -37.599888 -168.97501 8682867
-1.8727123 -37.255932 -173.96631 8945527
-0.83152115 -37.02372 -173.94183 8683891
0.20974907 -36.999924 -173.84085 9539200
1.1802415 -37.185596 -173.67035 7434085
2.1323726 -37.114243 -173.59616 8091760
3.0768287 -37.06472 -173.5148 7499881
4.0527134 -36.819515 -173.50198 6841177
-92.657318 -36.088936 -168.12303 10129541
-91.615631 -36.075249 -168.61885 8616820
-90.949142 -36.295753 -168.83957 8814713
-0.41680637 -36.392666 -174.12999 11381404
0.2085751 -36.378742 -174.06914 11381404
1.0417107 -36.153728 -174.06398 10196877
2.0824926 -36.132652 -173.96202 8552312
3.1222999 -36.112732 -173.85973 7894382
4.1609573 -36.094074 -173.7571 8090986
5.1986904 -36.076595 -173.65413 6906712
6.154541 -36.029221 -173.61751 7235937
7.2808447 -35.873112 -173.69051 9669509
8.1142635 -35.880966 -173.6993 9669509
9.1568689 -35.892498 -173.71324 8748403
-93.587975 -35.139668 -168.08495 9997955
-92.618774 -35.17226 -168.52718 9932163
-91.992661 -35.164204 -168.82513 9340027
2.1882484 -35.405483 -174.21803 11183003
3.1258123 -35.284248 -174.16373 8289140
4.1676102 -35.058697 -174.13675 9998728
5.2076244 -35.041641 -174.03337 8090986
6.0399055 -35.034576 -173.97919 7697004
7.0829058 -35.042915 -173.99092 9143422
8.1264696 -35.052299 -174.00221 9471873
9.1709261 -35.063656 -174.0166 8353391
10.216664 -35.078068 -174.04042 10457480
11.054026 -35.090637 -174.06006 9207929
12.10171 -35.10746 -174.08409 9801092
13.150412 -35.125378 -174.10777 10854036
14.14363 -35.024689 -174.17332 12104871
15.25764 -34.956963 -174.23022 9209467
16.099901 -34.974026 -174.24831 9011831
17.154001 -34.996372 -174.27055 10853777
18.141575 -34.948799 -174.31642 10459276
19.062784 -34.831081 -174.38594 10920341
20.121561 -34.856617 -174.40698 9208699
21.181921 -34.883301 -174.42766 9800835
22.031458 -34.905544 -174.44395 9406334
25.248985 -34.576466 -174.6564 8289133
25.890955 -34.595661 -174.66782 9473151
-94.59729 -34.235699 -167.9908 10261124
-93.625778 -34.267841 -168.43427 8682099
-92.844559 -34.33403 -168.77397 10590091
4.5897999 -34.22229 -174.39958 8814968
5.2854776 -34.072983 -174.38112 9143677
6.0506449 -33.997784 -174.35796 9800838
7.0959339 -34.005817 -174.36984 8617335
8.1417713 -34.014969 -174.38135 9406080
9.1885443 -34.026016 -174.39635 8879479
10.236582 -34.039989 -174.42058 8616307
11.075761 -34.052227 -174.44034 8616818
12.125738 -34.068489 -174.46469 8879734
13.176745 -34.085903 -174.48866 10788499
14.018459 -34.100689 -174.50757 13157815
15.071682 -34.120201 -174.53085 9670018
16.126188 -34.140835 -174.55371 8946039
17.182161 -34.162655 -174.5761 9867652
18.239462 -34.185585 -174.59807 10459277
19.133623 -34.080376 -174.6622 10262155
20.155008 -34.02079 -174.71324 9932422
21.21723 -34.046825 -174.73421 12629418
22.068289 -34.068535 -174.75072 10458508
23.133799 -34.096794 -174.77098 8682610
24.201063 -34.12611 -174.79086 8881526
25.01775 -34.065323 -174.83655 8618354
26.138266 -33.972034 -174.90276 9801861
27.211611 -34.004536 -174.92168 9735812
28.071903 -34.031441 -174.93654 9275519
29.149298 -34.066177 -174.95479 8880762
30.161123 -34.029266 -174.99728 9932678
31.107594 -33.920502 -175.06418 8814452
31.974945 -33.95071 -175.07803 8090987
33.159958 -33.823307 -175.15857 8485746
33.952389 -33.588398 -175.21567 10063750
-95.610573 -33.330109 -167.89542 8485488
-94.636574 -33.361866 -168.34024 8616818
-93.853401 -33.427822 -168.68095 7893608
7.522522 -33.385948 -174.60228 7039331
8.1509628 -33.391518 -174.60915 8813686
8.9893341 -33.399818 -174.6198 9866374
10.038609 -33.413353 -174.64403 10195337
11.088836 -33.428177 -174.66893 9143417
12.145028 -33.235809 -174.76973 7696229
13.197882 -33.252747 -174.79396 10657425
14.041043 -33.267181 -174.81297 10986134
15.096166 -33.286198 -174.83636 9736067
16.159081 -33.097347 -174.93584 9209467
17.005579 -33.114166 -174.95398 10263180
18.065035 -33.136227 -174.97636 11314588
19.086649 -33.074699 -175.02815 8814456
19.984083 -32.969307 -175.09238 10327692
21.048433 -32.994389 -175.11374 9208442
22.114405 -33.020538 -175.13478 10721423
23.094864 -33.087711 -175.13843 10919313
24.12554 -33.030895 -175.18872 11511449
25.109133 -33.100048 -175.19171 9867909
26.094299 -33.170261 -175.19434 12104616
27.130905 -33.11636 -175.24377 10920086
28.1196 -33.188606 -175.24574 9275521
28.995222 -33.004379 -175.33815 8749435
30.076923 -33.039024 -175.3566 8617591
31.160864 -33.074722 -175.37462 8551538
32.029819 -33.104206 -175.38879 9735297
33.064316 -33.018772 -175.44968 10129543
34.198483 -32.94434 -175.36926 9077627
34.820415 -32.709785 -175.20949 8814712
-97.213287 -32.015877 -167.69489 11313558
-96.537033 -32.236412 -167.92015 7630179
-95.695374 -32.223866 -168.3214 9274749
-94.866158 -32.51997 -168.58681 8419696
20.221922 -32.345249 -175.32716 10063750
21.07472 -32.365059 -175.34438 8353134
22.14216 -32.39072 -175.36566 10063750
22.997435 -32.412106 -175.38239 13550517
24.180555 -32.337368 -175.44362 11511449
25.151495 -32.257992 -175.50052 11380636
26.011494 -32.28175 -175.51649 13881283
27.088449 -32.312469 -175.53618 12630704
28.217825 -32.218735 -175.6028 9143936
29.056959 -31.947575 -175.72594 9143936
30.05171 -32.020721 -175.72777 8946041
31.099707 -31.969099 -175.77673 9800320
32.098526 -32.044216 -175.77792 10918286
32.971111 -32.073452 -175.79228 10720909
34.046947 -32.094971 -175.72083 9209212
35.067623 -32.065487 -175.36279 8683125
-98.562798 -30.899578 -167.68867 8616816
-97.638916 -31.106928 -167.95934 10590092
-96.795509 -31.094412 -168.36392 9800835
-96.082062 -31.304831 -168.52643 9143163
32.358032 -31.414112 -176.01553 9931646
33.013603 -31.435745 -176.02643 9997698
34.202934 -31.349512 -175.97017 10063750
35.15749 -31.01462 -175.82449 8748917
35.938782 -30.907272 -175.5755 10261387
36.63385 -30.563656 -175.55067 11379356
-100.39729 -30.04678 -167.56314 9341054
-99.673233 -30.256104 -167.72366 13024949
-98.827011 -30.243046 -168.13292 10787471
-97.894142 -30.449894 -168.39336 8616816
36.085648 -30.18154 -176.08907 10261387
37.047077 -30.086737 -175.78444 9997959
37.973965 -29.833668 -175.66591 9669252
38.814079 -29.718397 -175.47939 9012350
-105.51662 -29.431017 -167.30902 8880246
-104.71451 -29.4307 -167.8175 12168866
-104.11136 -29.430452 -168.19637 11379607
-102.53127 -29.707624 -167.44719 10129030
-101.69099 -29.696554 -167.88016 9076856
-100.8508 -29.685879 -168.31169 8090987
39.222019 -29.414454 -176.33505 9143679
40.04496 -29.397726 -176.0537 8814964
41.071766 -29.37747 -175.70052 8092011
46.003967 -29.251804 -176.66306 9933191
47.060387 -29.250088 -176.38597 10196363
48.115303 -29.24836 -176.10287 8814715
51.34211 -29.062662 -177.04401 11906725
52.089661 -28.867826 -176.77271 9275777
52.996529 -28.691536 -176.4196 8880762
52.265221 -27.944216 -177.06198 9012606
53.076366 -27.92403 -176.69083 8880503
53.909698 -27.685024 -176.39723 8090987
53.156364 -27.155151 -176.96254 9341054
54.064976 -26.980272 -176.608 9077882
54.81324 -26.787992 -176.33542 10129801
54.072182 -26.145973 -176.94 9472640
55.027126 -26.051754 -176.53143 10327436
54.142338 -25.48469 -177.17366 9405822
55.00243 -25.025902 -176.95636 9076601
55.928394 -24.896809 -176.57526 9405822
55.301113 -24.138121 -177.17476 8681843
56.021523 -23.859102 -176.95038 10195594
56.892059 -23.813135 -176.56165 9538176
56.235886 -23.015285 -177.19046 10196106
57.049984 -23.000391 -176.81561 10656657
57.684849 -22.768131 -176.61235 9538176
56.512802 -22.3461 -177.33101 10459278
57.148739 -22.113192 -177.12738 11117208
57.96315 -22.099297 -176.75192 10459278
58.598736 -21.867285 -176.54823 9932166
57.451736 -21.22048 -177.34587 11380380
58.088627 -20.987814 -177.14169 9866629
58.80204 -20.976589 -176.81248 9011576
58.418842 -19.870081 -177.43823 9471871
59.056877 -19.994106 -177.08965 9537664
59.732674 -19.961998 -176.78644 9208955
59.193451 -19.040678 -177.41043 8354159
60.068443 -18.998766 -177.01793 8880246
60.794006 -18.721289 -176.79045 8090986
60.055187 -18.060036 -177.40289 8617331
61.001022 -18.00326 -176.98335 7762021
60.338234 -17.384243 -177.54312 8617331
60.978737 -17.151974 -177.33717 9406847
61.797226 -17.142319 -176.95819 7959144
61.147629 -16.327198 -177.60284 9735812
62.064919 -16.169823 -177.27631 9011063
62.952576 -15.748354 -177.13632 10984593
62.983444 -15.135813 -177.63138 10984593
63.988754 -14.954149 -177.36241 12169639
64.988853 -14.688225 -177.20773 11183260
66.229385 -14.304041 -177.95485 7565675
67.059921 -14.298211 -177.58183 8092011
67.889824 -14.292614 -177.20837 8092011
79.431297 -14.212077 -178.58772 11381404
80.127846 -13.979099 -178.42705 10392975
80.925896 -13.899826 -178.10866 10064011
80.466049 -13.275195 -178.61098 8814203
81.018265 -12.990461 -178.46759 8814203
81.930092 -12.956746 -178.05479 8814201
81.244888 -12.328383 -178.62865 8814203
82.011398 -12.042468 -178.38556 8617077
82.806793 -11.851418 -178.09076 8814198
82.044235 -11.260248 -178.68571 8617075
83.007797 -11.092014 -178.30301 8353903
83.804939 -10.900539 -178.00749 9537403
82.967545 -10.236084 -178.6671 9077370
83.933235 -10.067579 -178.28349 10130316
83.16935 -9.4729395 -178.88057 9537665
83.965721 -9.061718 -178.67393 9407364
84.908524 -8.8324423 -178.32539 10196366
84.245979 -8.0353775 -178.95633 9144449
84.926582 -7.7942138 -178.73505 12433069
85.785019 -7.7929273 -178.33411 10590607
85.290634 -6.8319998 -178.95227 11248537
85.935593 -6.8309703 -178.65103 9406332
86.736603 -6.7495356 -178.30914 8748661
86.145828 -5.946372 -178.90892 9143161
86.948135 -5.8646455 -178.56654 8485232
87.632812 -5.6220484 -178.34402 7959144
86.415855 -5.1398358 -179.10747 8682867
87.101234 -4.8963375 -178.88495 8748916
87.964417 -4.8950915 -178.48166 9077881
87.432465 -4.1677322 -179.02338 8419696
87.997581 -3.8750157 -178.87697 8946807
88.925522 -3.8411975 -178.45656 9867141
88.236313 -3.1926861 -179.0401 9012600
89.01963 -2.8985238 -178.79214 9406588
89.831406 -2.7019639 -178.49162 10261382
88.924759 -2.0510187 -179.17783 10064009
89.950745 -1.967641 -178.73154 9274491
89.971748 -1.0679626 -179.13235 9734787
90.792542 -0.9846012 -178.8062 9472126
