# .PCD v0.7 - Point Cloud Data file format
VERSION 0.7
FIELDS x y z rgb
SIZE 4 4 4 4
TYPE F F F U
COUNT 1 1 1 1
WIDTH 1172
HEIGHT 1
VIEWPOINT 0 0 0 1 0 0 0
POINTS 1172
DATA ascii
-80.447357 -61.948891 -114.64767 7169629
-79.830627 -61.897839 -114.94082 8288362
-80.72245 -61.097885 -114.8696 6775127
-79.874817 -61.110935 -115.23888 8617328
-80.616684 -60.535191 -115.1796 7761766
-80.077843 -60.215611 -115.68631 7629923
-79.452499 -59.801434 -116.36777 7038041
-78.994263 -59.447773 -117.30003 8353387
-78.261841 -59.32814 -118.03846 7761772
-78.129341 -59.195778 -119.22611 8880249
-77.419449 -58.945847 -119.86166 10129543
-76.776138 -58.693329 -120.34051 10786703
-77.555901 -58.105404 -120.19714 9800578
-76.698608 -58.027588 -120.64299 8616566
-77.010834 -57.210411 -120.81094 7958894
-76.222748 -56.981621 -121.28224 9668738
-77.132935 -56.300098 -121.10739 8616566
-76.386627 -56.062099 -121.56204 9011064
-75.777222 -55.759548 -121.97559 8287597
-76.538742 -55.074203 -121.88838 7367006
-75.736084 -54.922855 -122.34372 6840919
-75.980789 -54.184452 -122.73544 6511954
-75.286469 -53.988789 -123.22456 6775126
-74.656593 -53.584118 -123.89507 10853525
-75.498535 -53.353794 -123.93754 9405822
-74.9123 -53.25835 -124.31544 10195594
-74.239098 -53.065983 -124.81932 10393741
-73.072311 -53.058922 -127.04765 10591121
-72.133591 -52.968075 -128.60509 8946300
-71.246597 -52.814899 -129.92796 7960175
-70.723938 -52.709164 -131.20122 8946556
-69.985382 -52.628071 -131.34003 8486262
-70.193115 -52.604202 -132.48631 10984593
-69.448578 -52.522732 -132.61856 9537150
-69.088203 -52.436447 -133.87239 8090474
-68.525467 -52.375149 -133.96571 8682867
-68.152443 -52.287376 -135.22386 9011321
-67.580284 -52.177662 -136.52013 9274237
-67.008835 -52.115993 -136.60289 9142393
-66.420898 -52.004631 -137.89996 8944757
-66.208138 -51.933403 -139.15523 11511449
-65.434662 -51.850433 -139.25121 10590606
-64.820457 -51.736031 -140.55794 8880502
-64.587021 -51.662006 -141.83011 8090987
-64.194397 -51.62019 -141.87129 9340539
-63.801975 -51.578468 -141.91153 9340539
-63.358765 -51.481918 -143.20921 10590347
-62.765991 -51.419125 -143.26363 9340539
-62.508217 -51.342007 -144.54991 8813940
-128.47548 -77.627228 -37.311325 9340542
-128.29982 -77.712639 -38.436523 9735043
-128.17326 -77.776199 -39.241291 9735812
-128.87891 -76.773132 -36.621365 9209212
-128.72723 -76.876778 -37.506714 9209212
-128.47203 -77.227928 -38.487976 9735555
-97.260345 -76.76741 -89.947044 9406590
-96.659668 -76.72007 -90.476707 8814454
-95.743988 -76.598175 -91.145493 7761512
-129.40298 -75.888237 -35.751392 9866886
-129.28783 -75.897758 -36.602654 9077626
-129.03966 -76.094734 -37.474766 9340799
-96.7575 -76.221985 -90.65493 8879990
-96.016502 -75.960716 -91.343132 8090218
-95.279671 -75.782349 -91.948708 8550766
-131.30055 -74.504463 -32.359013 9734529
-131.13864 -74.524078 -33.158741 9340028
-130.64742 -74.696243 -34.067036 9537923
-130.22733 -74.970688 -34.874489 9208700
-129.9006 -75.209801 -35.779259 8813686
-96.200272 -75.308006 -91.79686 7761512
-95.482529 -75.221252 -92.327141 8221801
-94.845581 -74.988617 -92.994476 7958119
-94.301514 -74.660278 -93.839241 7563361
-93.64859 -74.546211 -94.673767 10457993
-134.10313 -73.898987 -28.007784 8024940
-134.11992 -73.887932 -28.914583 9997955
-133.36823 -74.159439 -29.875334 8287342
-132.69336 -74.160156 -30.668913 8814199
-132.2323 -74.245483 -31.572813 9669250
-131.93304 -74.304924 -32.427723 9866115
-131.63107 -74.366058 -33.281239 9471355
-94.124405 -74.400696 -94.922707 10194307
-93.236542 -74.39286 -95.510918 9011577
-92.844696 -74.268501 -96.472702 8221803
-92.274361 -74.237701 -97.407539 8945523
-91.572357 -74.238174 -98.074165 9472382
-91.377167 -74.239449 -98.905403 9077108
-90.805656 -74.24057 -99.863396 9603709
-89.96566 -74.241081 -100.6283 9537918
-89.880219 -74.242546 -101.50682 8814453
-89.157303 -74.243431 -102.4128 8748144
-88.55545 -74.244469 -103.36372 7892579
-88.322449 -74.24575 -104.19923 8484714
-87.571495 -74.246132 -104.83709 9076857
-87.177025 -74.247437 -105.80127 7629411
-86.630203 -73.987976 -106.94746 9668992
-85.953796 -73.943138 -107.36365 10655884
-134.4595 -72.667519 -27.226946 7038307
-134.44011 -73.003532 -28.133661 7432800
-86.089302 -73.114227 -107.64874 9339766
-85.382797 -72.972481 -108.01826 8681835
-134.77254 -71.827919 -27.318769 7695975
-134.76785 -72.077576 -28.078756 7564385
-86.240646 -72.336349 -107.89555 7037274
-85.508926 -71.932068 -108.38205 8616300
-84.781143 -71.87661 -108.72607 7563615
-157.5224 -70.835983 10.298202 9537409
-157.4438 -70.779953 9.5297537 9011065
-156.69817 -70.734451 8.5970068 9537409
-156.28165 -70.68438 7.7529817 9866374
-155.71249 -70.644226 6.9695344 7761254
-155.11836 -70.590958 6.0034471 6577236
-155.00113 -70.523064 5.061934 6971994
-153.97897 -70.512985 4.4673371 8419951
-153.85538 -70.445976 3.5343082 11905180
-152.8418 -70.436684 2.9541385 8616560
-135.00581 -70.879944 -26.351568 8156270
-135.0397 -71.036514 -27.15658 8813940
-85.656471 -71.093407 -108.65524 8155751
-84.856232 -70.986595 -109.05199 7760993
-153.77893 -70.405876 2.9752033 10851980
-152.79047 -70.410194 2.5840976 9734270
-152.68503 -70.357376 1.8448856 9734270
-152.08734 -70.307228 0.91792935 8353388
-151.48618 -70.257759 -0.0015805364 8814454
-151.34253 -70.192924 -0.91525394 10262156
-150.33609 -70.182777 -1.4566891 7366239
-150.09064 -70.075783 -2.5419858 8090474
-149.58304 -69.997581 -3.3780301 7827560
-148.8295 -69.953598 -3.9622662 9275263
-148.56081 -69.843346 -5.0324836 5920082
-147.88507 -69.765633 -5.9053397 7498339
-147.20711 -69.688759 -6.7702575 7366752
-146.97223 -69.598701 -7.6490417 5919050
-146.51331 -69.516144 -8.5131502 6116687
-145.66225 -69.466507 -9.1721773 5525066
-135.38022 -69.852417 -26.386343 8287597
-135.34018 -70.245308 -27.292101 7563619
-85.731857 -70.509796 -108.8575 7037274
-85.085876 -70.097008 -109.30954 7563615
-84.350388 -69.701668 -109.79414 7300444
-145.36821 -69.360344 -10.211549 8879991
-144.85205 -69.261887 -11.231236 8353390
-144.00299 -69.213814 -11.867738 8946298
-143.74408 -69.125389 -12.720624 9933707
-143.48074 -69.037331 -13.570745 9670278
-142.74022 -68.979317 -14.268407 7367780
-142.10269 -68.894958 -15.176812 7169885
-141.77472 -68.791328 -16.181406 8946296
-141.13324 -68.708496 -17.077108 8090219
-140.59821 -68.645287 -17.771597 10985363
-140.05234 -68.552223 -18.73506 9406587
-139.76472 -68.468079 -19.556116 9406587
-135.7202 -68.860535 -25.558741 8813941
-135.75395 -68.94371 -26.469091 8879735
-85.20694 -69.063004 -109.67334 7169372
-84.479202 -68.980202 -110.02835 7696228
-139.59015 -68.417786 -20.047472 7037274
-139.05621 -68.371628 -20.589453 7563617
-138.31351 -68.307007 -21.062052 10458249
-137.80528 -68.107819 -21.667334 8484461
-136.85342 -67.751999 -23.838327 7498593
-136.48616 -67.930344 -24.680342 7959144
-136.22527 -68.16407 -25.539248 8814198
-84.617371 -68.168594 -110.29491 8419951
-83.833542 -68.036873 -110.69437 7367263
-84.694298 -67.320702 -110.60309 6775126
-84.031914 -67.005219 -111.0231 6972505
-83.311142 -66.8564 -111.40166 7564898
-84.167526 -66.141899 -111.31155 5656136
-83.313843 -66.017372 -111.73908 5721671
-82.739349 -65.777412 -112.08972 5919050
-83.570137 -65.168709 -111.96832 5919308
-82.721703 -64.927147 -112.44072 6050636
-83.67868 -64.414879 -112.22463 7038307
-82.987022 -63.984241 -112.70404 6511187
-82.255173 -63.733555 -113.12859 7498594
-83.122246 -63.15036 -112.98085 6313551
-82.288025 -63.057758 -113.38683 7563618
-83.152222 -62.549 -113.21024 6510930
-82.542068 -62.167381 -113.6339 6708309
-81.760651 -61.941204 -114.07052 7366751
-82.596443 -61.142349 -114.02357 8024169
-81.917664 -60.993015 -114.38403 8484976
-81.250748 -60.699615 -114.80814 7169629
-81.980286 -60.31741 -114.76019 7169629
-81.416809 -59.958298 -115.31273 8418927
-80.639191 -59.680073 -115.94707 8484976
-81.077385 -59.436398 -116.42293 8945271
-80.358337 -59.370354 -117.03175 8090216
-79.828247 -59.292023 -117.767 8484717
-79.358879 -59.057308 -118.75166 11181458
-78.631767 -58.821331 -119.38524 9472125
-79.478905 -58.170067 -119.23819 10062979
-78.895905 -57.957085 -119.60513 10130054
-78.200195 -57.920567 -119.95712 9143417
-78.917473 -57.051487 -119.949 9537918
-78.077759 -57.144455 -120.31964 9143417
-77.557648 -56.802143 -120.70551 7038307
-78.404678 -56.200275 -120.53004 7893608
-77.592339 -55.925655 -121.03102 7630180
-78.493057 -55.220928 -120.87538 6511954
-77.796494 -55.094231 -121.28596 6709076
-77.099983 -54.775528 -121.78204 6511954
-77.84613 -54.360939 -121.78865 6511954
-77.285065 -54.174305 -122.20062 7959142
-76.671402 -53.866302 -122.80927 8024679
-75.946411 -53.657982 -123.33692 6511954
-76.963127 -53.444916 -123.31902 8287850
-76.14592 -53.391548 -123.6583 6511954
-75.755035 -53.230427 -124.68877 7564643
-74.829514 -53.335365 -126.90306 8682867
-74.099075 -53.249004 -127.05707 9998725
-73.604858 -53.141045 -128.31886 10721936
-72.868889 -53.054363 -128.46402 8617592
-72.54332 -52.966328 -129.69057 9143419
-72.022766 -52.855129 -130.95966 10459278
-71.462967 -52.790348 -131.05946 9933193
-70.938408 -52.685802 -132.34981 7039331
-70.590515 -52.600384 -133.61388 9077625
-69.83905 -52.518318 -133.74492 8485232
-69.476784 -52.431244 -135.01251 8222060
-68.915298 -52.322285 -136.31947 8813942
-68.34288 -52.260223 -136.40672 9274237
-67.957825 -52.170288 -137.68758 8813942
-67.188873 -52.087376 -137.79588 9142393
-66.982758 -52.016598 -139.05519 8222316
-66.380554 -51.902924 -140.3752 11511449
-65.79509 -51.840214 -140.44539 10590606
-65.373184 -51.745804 -141.74489 8880502
-64.744232 -51.629059 -143.07466 10590606
-64.348022 -51.586933 -143.11424 11905692
-63.952099 -51.544914 -143.15294 10590347
-63.704159 -51.468479 -144.44669 9405306
-62.847054 -51.327286 -145.80232 7630179
-128.09674 -77.81572 -39.724831 11512223
-128.03297 -77.701378 -40.55188 12104360
-127.87512 -77.81636 -41.452999 8814712
-128.61691 -76.732178 -38.784569 9275006
-128.38039 -77.075172 -39.643173 11314844
-128.29099 -76.973625 -40.6334 13748417
-128.12321 -77.210808 -41.260498 11905701
-99.732529 -76.882866 -87.768394 9209471
-99.025116 -76.753807 -88.438179 8419957
-98.095711 -76.83313 -89.198021 9867399
-97.61834 -76.794991 -89.626312 10854036
-129.46725 -75.526588 -37.259918 9538177
-129.19238 -75.780426 -37.968887 8814201
-128.97736 -75.943909 -38.808067 8419444
-128.76244 -76.100731 -39.712093 8946298
-128.53575 -76.401436 -40.37022 15196118
-99.10524 -76.274284 -88.600876 7564648
-98.414803 -76.10923 -89.32933 8814710
-97.606621 -76.082932 -90.048119 8946039
-97.064842 -75.799202 -90.744255 9209211
-130.67033 -74.584145 -35.396599 7760997
-130.3448 -74.704865 -36.221123 8747892
-130.00449 -74.912277 -37.074093 9537919
-129.75162 -75.037788 -38.061119 9208958
-129.41162 -75.321976 -38.937569 8814201
-98.637756 -75.510208 -89.687424 8682867
-98.025833 -75.365395 -90.359459 8748660
-97.390778 -75.117447 -91.155785 8814453
-96.718987 -74.962448 -91.846069 8747887
-96.244362 -74.67173 -92.660385 7497824
-95.600021 -74.665619 -92.995773 7037274
-134.23967 -73.676247 -29.547235 9340027
-134.14374 -73.788216 -30.318129 8418669
-133.77625 -74.009743 -31.141104 9207925
-133.18481 -74.163246 -32.13533 10063752
-132.67422 -74.175476 -32.963242 9471612
-131.95413 -74.248016 -33.733749 8945267
-131.61188 -74.320007 -34.629333 8682355
-131.19481 -74.421394 -35.366974 8550513
-130.98651 -74.44928 -36.328957 9405823
-95.812408 -74.433144 -93.738022 7695202
-95.162491 -74.375267 -94.36499 10194307
-94.602951 -74.254333 -95.172806 9931392
-94.17067 -74.237297 -96.112686 7629411
-93.753036 -74.238518 -97.07515 7892581
-93.053375 -74.239082 -97.752434 8484716
-92.622253 -74.240349 -98.713272 9209209
-92.182137 -74.2416 -99.673035 9011059
-91.463745 -74.242073 -100.33887 9799806
-91.004898 -74.24308 -101.19321 9275004
-90.669647 -74.244431 -102.14355 9077625
-89.810455 -74.244919 -102.90726 9275002
-89.715881 -74.246429 -103.79799 8682350
-89.09977 -74.2472 -104.59944 8813939
-88.298836 -74.247185 -105.49468 9734786
-88.049057 -73.978508 -106.43378 7695204
-87.28566 -73.874222 -106.81336 8287085
-134.52124 -72.916672 -29.431334 10918287
-134.45586 -72.916992 -30.345976 9602939
-134.27473 -73.284569 -31.028631 9536889
-88.070213 -73.118538 -106.77138 7958120
-87.353477 -72.94751 -107.15717 8221292
-86.742294 -72.866829 -107.45972 10655884
-134.88231 -71.936363 -28.645323 9931648
-134.84135 -72.031113 -29.410109 10589322
-134.823 -71.939217 -30.130175 9275005
-87.573547 -72.042618 -107.42511 7892581
-86.742027 -71.997063 -107.81091 7432031
-159.50975 -70.777512 10.434127 8681843
-158.47125 -70.778717 9.9790258 8484721
-158.34819 -70.694405 8.8201742 9274237
-157.29912 -70.682381 8.187232 10261132
-157.18935 -70.613052 7.2303987 8551282
-156.6123 -70.572929 6.44451 8485744
-156.03278 -70.533409 5.6645265 8419951
-155.58395 -70.47097 4.6444993 7301215
-154.85355 -70.442001 3.9344089 8353905
-135.19968 -70.802147 -27.828985 9931648
-135.25583 -70.866104 -28.588697 9011060
-135.13742 -71.200493 -29.449007 8682609
-87.551819 -71.48024 -107.66164 8353130
-86.991348 -71.002777 -108.10202 7760995
-86.203461 -70.845352 -108.51369 7563616
-154.72502 -70.374809 2.9967334 8617080
-153.67366 -70.352692 2.230994 9339769
-153.51041 -70.273132 1.1165073 9537149
-152.93172 -70.236282 0.37209958 8616307
-152.35089 -70.199966 -0.3664487 8748149
-151.9435 -70.129913 -1.4668667 9406591
-151.14345 -70.106194 -2.0090649 7037274
-150.92459 -70.012405 -2.9175427 7761253
-150.42676 -69.90699 -3.9992535 8024425
-149.55786 -69.853119 -4.7015014 5920082
-149.32843 -69.761032 -5.597074 6182738
-148.86885 -69.676331 -6.4808669 8813683
-148.00429 -69.624611 -7.1619506 6510930
-147.71652 -69.516098 -8.2211542 6051151
-147.52142 -69.444046 -8.9253206 5393738
-146.53833 -69.4375 -9.2243052 5393738
-135.49536 -69.930428 -27.663187 7958377
-135.55823 -70.019295 -28.515959 9998471
-87.066872 -70.210266 -108.38849 7629409
-86.260597 -69.99221 -108.83278 7497823
-147.42276 -69.408165 -9.2767649 5393738
-146.70143 -69.380112 -9.7075396 6051924
-146.14038 -69.295197 -10.617284 7170661
-145.83167 -69.187622 -11.657544 8684155
-145.08168 -69.127594 -12.37581 9670536
-144.44016 -69.04081 -13.306451 11578017
-144.172 -68.952492 -14.160039 10590865
-143.68729 -68.872803 -14.989552 8880503
-143.04378 -68.819412 -15.62272 7827814
-142.49915 -68.723709 -16.609449 7169884
-142.16019 -68.620369 -17.614611 7828331
-141.50713 -68.538147 -18.507524 8222314
-140.75626 -68.484154 -19.17201 6511954
-135.96309 -68.630295 -26.963312 8813942
-135.83414 -69.053391 -27.78924 9274749
-135.77644 -69.451729 -28.630003 11380380
-86.517456 -69.198753 -109.03951 7826790
-85.742569 -68.910042 -109.49843 7695205
-140.40532 -68.382927 -20.161135 6644055
-140.04869 -68.282265 -21.146391 6643287
-139.34225 -68.216797 -21.902849 8813425
-138.67809 -68.159775 -22.486502 10458249
-138.06522 -67.927406 -23.244459 10195079
-137.16206 -67.533531 -25.370096 9340286
-136.71075 -67.73716 -26.083941 10261128
-136.4053 -68.040688 -26.921926 8484976
-136.2457 -68.304642 -27.701571 10064265
-86.594185 -68.210503 -109.40445 7037274
-85.900146 -67.979225 -109.80447 6839895
-85.095825 -67.854439 -110.21022 6511954
-137.24571 -67.346626 -26.012915 10655630
-86.076866 -67.04599 -110.10303 6510930
-85.247437 -67.055557 -110.46564 6577491
-86.048706 -66.491707 -110.33922 6510930
-85.51387 -66.066101 -110.74727 6248271
-84.7173 -65.858658 -111.18297 6051151
-85.501884 -65.210503 -111.09792 5195583
-84.855042 -65.00312 -111.46739 5985102
-84.174614 -65.011063 -111.76488 6445912
-84.910385 -64.174789 -111.77726 6050896
-84.118011 -64.049301 -112.17804 6775134
-84.418625 -63.066437 -112.44188 6117456
-83.584251 -62.87989 -112.88586 6379344
-84.516037 -62.134331 -112.77504 7169626
-83.803574 -62.006248 -113.14154 6774614
-83.860832 -61.217934 -113.4344 9274490
-83.183151 -61.001141 -113.82131 9340030
-83.974304 -60.472061 -113.74942 10261132
-83.419273 -60.199718 -114.22372 9603972
-82.638687 -60.008499 -114.72945 8946043
-82.109985 -59.690121 -115.23096 8089963
-82.995216 -59.517609 -115.2926 7038307
-82.294907 -59.449516 -115.83919 8945272
-81.766396 -59.32346 -116.51087 9405821
-81.10994 -59.22953 -117.4837 11181715
-80.660233 -58.935913 -118.35136 8024168
-79.985992 -58.74123 -118.75916 7563619
-80.854874 -58.222946 -118.54779 7695205
-80.047081 -57.940018 -119.05338 8616049
-80.899742 -57.34304 -118.87444 7563619
-80.350128 -56.948002 -119.29512 9471099
-79.537903 -57.084579 -119.6354 10457993
-80.3097 -56.098351 -119.64668 7563619
-79.559845 -56.178909 -119.97858 8748147
-78.973091 -55.967163 -120.34567 8090987
-79.842285 -55.253902 -120.24508 7037786
-79.050232 -55.000755 -120.77628 7235677
-78.346771 -54.710552 -121.28468 6511954
-79.278244 -54.342175 -121.22717 8090987
-78.594803 -54.143696 -121.74534 7104091
-77.912682 -53.846889 -122.37443 7827556
-77.02948 -53.595032 -125.07956 13552573
-78.112625 -53.524971 -122.84703 9471866
-77.455544 -53.478893 -123.11749 10064003
-76.506927 -53.44101 -124.90546 14078918
-75.560623 -53.422043 -126.74484 9341310
-75.078651 -53.314911 -128.01831 11314583
-74.341461 -53.22781 -128.17067 8682867
-74.028412 -53.140659 -129.40721 9867141
-73.520042 -53.030338 -130.68837 12433069
-72.771042 -52.942585 -130.82573 10985623
-72.434471 -52.852501 -132.07368 9801350
-71.795662 -52.756035 -132.79317 8090989
-71.342712 -52.682644 -133.47917 9011576
-70.993156 -52.5965 -134.75749 8485232
-70.6138 -52.555042 -134.82266 8485232
-70.339317 -52.501034 -135.48174 8090474
-69.679352 -52.405174 -136.19946 8090218
-69.305283 -52.315994 -137.49005 7433057
-68.727425 -52.253418 -137.57628 7893352
-68.146217 -52.141804 -138.8987 8024935
-67.944443 -52.070732 -140.17769 9537918
-67.162117 -51.986759 -140.27795 9537918
-66.554207 -51.872002 -141.61067 12563880
-66.331703 -51.798042 -142.90727 11378324
-65.537491 -51.713432 -142.99249 9997956
-65.102592 -51.61676 -144.31619 9339513
-64.502747 -51.553112 -144.37367 10852750
-64.054344 -51.454803 -145.70219 9734527
-63.596394 -51.355118 -147.04201 10853012
-63.190464 -51.312366 -147.0731 10853012
-127.81224 -77.773125 -42.068565 7301728
-127.65648 -77.896385 -42.814133 8879734
-127.38005 -77.917435 -43.748516 9735044
-127.0861 -77.963196 -44.608654 9274236
-126.81377 -78.118774 -45.269928 10854036
-128.31651 -76.66526 -41.322609 11182235
-128.14789 -76.904091 -41.950905 9472644
-127.97713 -76.98423 -42.921379 8485490
-127.64102 -77.221809 -43.7691 8616562
-127.36922 -77.374641 -44.432205 8287341
-102.6373 -77.270279 -85.086914 7959144
-102.03153 -77.044998 -85.715866 7893355
-101.25235 -76.937279 -86.436974 6906712
-100.53469 -76.866096 -87.087646 8748917
-99.987137 -76.629356 -87.672165 9538435
-128.95328 -75.713295 -40.15963 9669508
-128.68645 -75.956467 -41.037537 9143679
-128.55704 -75.944099 -42.035179 9209472
-128.30066 -76.234695 -42.686069 10459025
-102.00459 -76.458305 -86.022232 8551027
-101.46358 -76.22242 -86.616226 7498849
-100.8329 -76.000565 -87.344261 8419951
-100.12283 -75.940582 -88.002991 7696232
-99.493942 -75.728081 -88.731491 7433063
-98.991776 -75.534744 -89.358414 7827819
-130.84538 -74.468643 -36.970001 16775143
-130.70204 -74.488808 -37.610794 13353909
-130.23965 -74.599373 -38.500694 11182230
-129.78494 -74.86293 -39.389542 8222065
-129.40787 -75.102196 -40.299927 10589841
-129.19534 -75.256477 -41.032097 8617592
-100.93726 -75.365273 -87.858719 7037274
-100.45026 -75.248116 -88.395432 7564133
-99.844421 -75.123802 -89.041595 7104099
-99.249557 -74.942932 -89.805344 8485489
-98.604683 -74.870842 -90.47049 8682867
-98.093689 -74.687431 -91.258568 8945527
-97.417213 -74.607689 -92.06002 8682098
-134.07941 -73.696701 -31.665003 9536889
-133.93178 -73.940186 -32.483448 8944752
-133.75945 -74.032646 -33.570129 8419693
-132.91238 -74.166451 -34.110928 7564642
-132.46848 -74.167618 -35.021191 7301727
-131.9174 -74.220459 -35.899757 8550513
-131.56723 -74.267654 -36.743401 11051156
-131.19337 -74.329964 -37.750206 13353909
-131.04761 -74.350555 -38.393276 9932931
-98.480431 -74.479279 -91.725006 9471357
-97.784492 -74.453575 -92.404007 8681843
-97.240524 -74.330322 -93.226532 8221546
-96.614983 -74.288773 -93.884094 8024167
-96.049622 -74.236816 -94.781372 9668731
-95.440033 -74.237953 -95.777306 8616050
-95.238861 -74.239449 -96.728271 8024170
-94.541695 -74.23996 -97.416321 8353131
-93.919807 -74.240913 -98.300583 8550509
-93.606522 -74.242111 -99.156776 8616302
-92.969574 -74.243027 -100.03516 8155751
-92.325333 -74.243935 -100.91142 9602427
-91.992455 -74.245064 -101.76656 9273976
-91.333191 -74.245956 -102.63654 9011832
-90.728928 -74.246826 -103.44926 8353904
-90.636429 -74.248283 -104.34755 7235426
-89.932732 -74.015907 -105.22791 7235421
-89.176804 -73.872368 -105.88033 9603198
-134.54971 -72.542053 -30.921465 10261124
-134.34601 -72.960739 -31.659697 9339510
-134.22894 -73.080063 -32.683758 8418408
-134.04431 -73.452965 -33.366829 7892063
-90.039398 -73.048241 -105.69295 8813939
-89.488991 -73.013786 -106.07645 9602942
-88.679153 -73.073334 -106.52057 11773599
-134.78262 -71.908165 -30.852926 9472126
-134.72783 -71.869095 -31.818151 8154981
-134.53374 -72.281754 -32.457615 8088931
-89.586128 -72.21666 -106.36311 9866370
-88.846786 -72.02523 -106.86893 10195076
-88.231659 -71.942711 -107.17458 8155752
-160.51889 -70.747902 10.503165 8681843
-159.97392 -70.734253 10.078116 9208185
-159.38684 -70.692627 9.2671576 9010807
-159.27914 -70.622162 8.296401 8814197
-158.21771 -70.61055 7.6636262 10261644
-158.07985 -70.527122 6.5095277 8551538
-157.0275 -70.516464 5.893477 7762021
-156.90546 -70.447891 4.9406343 6643287
-155.83684 -70.424461 4.1506944 7564651
-135.20967 -70.892624 -29.988501 8814454
-135.10233 -71.023193 -30.834318 9604226
-135.05054 -71.002304 -31.665255 8156524
-88.998497 -71.147438 -107.15454 8879475
-88.12619 -71.075783 -107.57112 8945265
-156.80453 -70.393173 4.179503 7564651
-155.73366 -70.370354 3.3955219 8222579
-155.57321 -70.289528 2.2647159 8288116
-154.56435 -70.294548 1.8737171 9340028
-154.39659 -70.214706 0.75323361 8748149
-153.63445 -70.17453 -0.1179288 9866885
-153.19275 -70.128471 -0.92029697 11380380
-153.03903 -70.062584 -1.8431408 9537664
-151.94383 -70.023697 -2.5670102 8946039
-151.71991 -69.929565 -3.4797451 8485232
-151.49115 -69.835831 -4.3897223 8222060
-150.61224 -69.781914 -5.094831 7103579
-150.09982 -69.677956 -6.1672873 9603198
-149.86061 -69.585945 -7.0641036 13550517
-149.0343 -69.552635 -7.5686507 11774108
-148.5638 -69.468987 -8.4451532 8090986
-135.66449 -69.794151 -29.15307 10787215
-135.56371 -69.915581 -29.952871 8156011
-135.43652 -70.093323 -30.838861 9538433
-88.939301 -70.356346 -107.50221 8813680
-88.365387 -70.095825 -107.8609 7892581
-87.571518 -69.871292 -108.30231 7563617
-148.41554 -69.414726 -8.9762774 6446682
-148.21506 -69.342575 -9.682683 5722703
-147.45251 -69.302612 -10.2315 6446682
-146.91666 -69.228691 -11.027184 6840928
-146.60162 -69.120216 -12.072209 10195595
-146.06277 -69.020424 -13.094644 8947327
-145.19409 -68.973305 -13.7263 8223090
-144.92143 -68.884697 -14.583814 8814454
-144.64439 -68.796494 -15.438462 10064777
-143.98842 -68.711678 -16.355356 7235935
-143.22853 -68.655418 -17.041868 10788498
-142.88438 -68.551758 -18.051493 7894638
-142.59332 -68.465775 -18.889978 8091244
-141.5827 -68.449409 -19.281462 6511954
-136.0244 -68.687561 -28.340445 10064265
-135.99304 -68.873169 -29.116266 11115923
-135.9164 -68.93148 -30.03076 8485230
-88.386612 -69.354828 -108.1506 6774614
-87.863022 -68.959549 -108.54147 6906712
-87.08287 -68.822876 -108.94138 8089963
-142.41667 -68.414429 -19.391703 6511954
-141.8224 -68.380844 -19.835852 6775642
-141.1089 -68.313873 -20.60673 7039331
-140.74713 -68.212883 -21.596266 7762025
-140.44147 -68.129219 -22.417837 10458249
-139.83116 -68.067314 -23.118906 8550513
-139.27312 -68.007545 -23.788164 8089963
-138.43391 -67.792107 -24.679853 9142651
-137.8842 -67.582787 -25.271231 8616819
-136.79477 -67.676239 -27.297441 8682867
-136.62878 -67.881737 -28.24645 9406334
-136.37889 -68.202148 -29.099867 9537147
-87.808304 -68.232635 -108.85902 6906712
-87.122032 -67.996185 -109.25772 7103579
-137.56084 -67.348656 -26.759233 10853263
-137.28775 -67.316765 -27.468008 9866883
-88.047806 -67.460251 -109.06495 7762277
-87.341042 -67.081223 -109.53021 6774614
-86.681992 -66.838974 -109.91924 6642516
-87.506348 -66.166931 -109.82617 7235421
-86.6091 -66.064949 -110.26379 6313807
-86.958099 -65.170715 -110.4705 5919305
-86.058769 -64.945114 -110.95892 5722183
-86.865204 -64.381187 -110.8302 4867385
-86.325874 -63.957306 -111.23956 5064764
-85.571762 -63.999741 -111.55567 6314581
-86.312714 -63.103378 -111.59005 6116941
-85.557388 -63.147217 -111.9061 6511699
-85.016617 -62.728466 -112.31403 5920074
-86.347389 -62.498615 -111.81876 6249301
-85.755653 -62.119976 -112.23303 6380626
-84.969131 -61.944897 -112.65126 6446160
-85.970093 -61.367844 -112.44183 6249301
-85.254517 -61.008369 -112.90603 6380368
-84.447205 -61.039547 -113.24724 8419434
-85.124138 -60.405853 -113.29716 5920074
-84.696136 -60.067997 -113.78432 7367005
-84.064629 -59.700787 -114.44197 9011834
-83.661491 -59.42128 -115.33565 8485751
-83.005447 -59.303524 -116.27989 10919830
-82.724495 -59.085976 -117.26653 11708316
-81.87323 -59.000126 -117.73489 9142649
-82.732849 -58.365345 -117.57664 9208699
-82.064682 -58.104908 -118.00769 8024942
-81.320465 -57.853241 -118.47038 8550771
-82.245178 -57.18169 -118.28545 9208699
-81.453506 -56.939316 -118.76379 8550515
-81.765121 -55.984394 -118.98581 7695465
-80.910553 -56.035042 -119.3802 9536893
-81.692047 -55.235477 -119.41463 10590092
-81.095024 -55.137657 -119.77312 10392713
-80.411079 -54.938808 -120.20955 7037274
-81.017876 -54.545029 -120.27786 8813683
-80.52697 -54.401157 -120.67189 7366239
-80.005058 -54.117828 -121.27182 8288109
-79.355286 -53.774502 -122.19167 7564642
-78.769974 -53.571743 -122.57529 7564642
-77.846176 -53.744164 -125.05237 9208955
-77.20739 -53.617695 -126.37657 9472383
-76.475174 -53.530613 -126.54262 8617587
-76.370155 -53.467724 -127.74368 9867398
-75.816376 -53.402142 -127.86293 9867398
-75.329926 -53.293957 -129.1478 9209210
-74.832458 -53.184303 -130.4393 10261897
-74.26973 -53.118229 -130.54726 10590864
-73.756653 -53.006855 -131.83992 10261900
-73.306313 -52.92836 -132.52365 8419952
-72.662155 -52.82832 -133.23749 7564130
-72.322174 -52.741806 -134.52205 9603970
-71.562485 -52.658695 -134.65782 9603970
-71.592468 -52.613384 -135.88469 7761253
-71.018066 -52.550789 -135.98146 8814453
-70.655334 -52.462418 -137.28133 7959144
-70.076447 -52.399601 -137.37209 7235421
-69.70047 -52.309631 -138.67732 8287850
-68.92289 -52.225555 -138.79013 8287850
-68.727859 -52.155056 -140.07315 7827556
-67.93486 -52.019855 -141.44397 7564643
-67.342712 -51.956394 -141.51695 9537918
-67.126999 -51.883003 -142.81779 8617077
-66.504395 -51.765842 -144.17447 10062979
-65.903214 -51.701805 -144.23653 8813171
-65.667778 -51.62566 -145.55711 8089961
-65.062119 -51.561455 -145.61351 8681840
-64.409088 -51.440876 -146.97679 13023917
-63.949306 -51.3409 -148.33455 11907236
-127.04113 -77.748238 -45.006004 8287341
-126.76836 -77.904999 -45.667358 9406334
-126.45196 -77.932915 -46.618801 9932678
-126.08492 -78.008705 -47.670509 8879222
-125.75781 -78.009064 -48.688267 9077373
-125.43843 -78.215157 -49.4356 11511452
-105.03578 -77.556107 -82.889282 9472640
-127.76671 -76.729851 -43.966995 7629411
-127.39793 -76.967804 -44.829937 8287341
-127.06591 -76.994858 -45.830982 9734787
-126.69268 -77.084229 -46.8857 9471615
-126.37093 -77.189102 -47.761631 9602945
-126.04842 -77.451126 -48.451599 9931910
-104.9017 -77.163582 -83.19397 9012089
-104.42095 -77.10463 -83.635231 8880503
-103.70052 -77.018654 -84.295395 7695972
-103.02367 -76.894402 -84.936668 8024942
-102.55279 -76.702545 -85.433617 7959408
-128.79614 -75.558212 -42.333618 8288884
-128.43861 -75.860107 -43.190193 7234911
-128.08246 -75.943161 -44.161648 7169117
-127.71976 -76.026566 -45.130188 7826790
-127.32108 -76.128349 -46.143364 7169372
-126.98717 -76.315155 -46.889992 7300958
-104.39105 -76.352844 -84.023972 9012089
-103.91944 -76.158409 -84.555305 10064266
-103.3036 -75.936012 -85.270241 7959408
-102.6193 -75.940559 -85.860092 8814202
-101.85336 -75.822548 -86.609161 7169886
-130.18509 -74.564072 -39.852081 9537664
-129.99413 -74.592888 -40.651985 10195338
-129.53085 -74.812729 -41.563122 9406594
-129.21425 -75.012695 -42.469757 7104096
-128.87619 -75.188797 -43.497154 5392706
-128.51239 -75.317612 -44.308479 6839896
-102.90007 -75.29351 -86.244766 8222323
-102.2961 -75.160469 -86.898079 7696233
-101.57191 -75.052467 -87.66983 7827302
-101.07014 -74.755302 -88.542679 7432288
-100.45949 -74.634186 -89.369041 8024940
-100.19363 -74.538864 -89.999023 8090989
-133.9449 -73.617928 -33.913845 7301727
-133.72906 -73.847633 -34.70372 6183246
-133.52527 -73.972397 -35.597172 6643797
-132.91911 -74.1707 -36.511757 6511954
-132.26192 -74.171547 -37.363998 9340795
-131.61546 -74.181366 -38.213249 9932931
-131.14641 -74.292297 -39.108501 7761767
-130.81657 -74.362534 -39.956421 9537664
-130.4447 -74.439926 -40.963367 10392717
-100.16876 -74.43576 -90.454498 8288367
-99.468582 -74.427788 -91.090958 9603456
-98.965027 -74.326477 -91.950966 9931907
-98.512688 -74.267448 -92.862091 8879221
-98.089676 -74.237137 -93.807808 9800575
-97.300446 -74.237755 -94.634247 8813680
-96.761803 -74.238762 -95.477478 9011323
-96.589149 -74.239883 -96.225937 8813686
-96.037231 -74.240837 -97.065598 8747893
-95.220345 -74.241425 -97.874336 8155755
-94.924194 -74.242874 -98.842552 8550254
-94.483101 -74.243973 -99.716949 9142392
-93.764282 -74.244431 -100.3994 7958376
-93.31884 -74.24572 -101.37605 7958373
-92.86412 -74.247009 -102.35146 7761250
-92.24398 -74.205238 -103.25222 8813941
-91.786011 -73.967957 -103.97256 9405823
-90.957993 -73.850845 -104.71451 7169891
-90.454605 -73.631355 -105.15249 6511954
-134.3381 -72.696175 -33.096375 7892063
-134.20615 -72.929558 -33.750736 7892063
-134.08569 -73.041801 -34.851398 7038298
-91.939621 -73.268196 -104.31295 9142909
-91.291229 -72.910774 -104.91058 7695978
-90.451538 -73.074585 -105.40393 8484976
-134.64807 -71.867676 -32.943398 7694428
-134.48845 -72.101341 -33.994034 8484456
-134.30016 -72.458755 -34.808277 8813421
-91.484512 -72.091599 -105.1468 6511962
-90.673233 -72.161552 -105.66017 8551026
-90.048767 -71.843704 -106.21812 9471356
-161.51807 -70.70356 10.375793 11905692
-160.94591 -70.675751 9.7522573 10787214
-160.35078 -70.634094 8.9377813 9734528
-160.23929 -70.563354 7.9615388 9142651
-159.16597 -70.552063 7.3273911 9012088
-159.02351 -70.468269 6.1668458 6511954
-157.95947 -70.457901 5.549582 7104091
-157.88475 -70.416542 4.9745011 7563619
-135.05043 -70.889015 -32.238083 8551024
-134.97841 -70.901421 -33.185116 7563099
-134.82179 -71.171181 -34.020458 8813421
-90.9543 -71.191223 -105.90022 9275004
-90.181442 -71.056381 -106.47672 9208183
-89.518379 -70.755424 -107.04388 9010805
-157.80809 -70.375313 4.4000154 9011321
-157.21486 -70.336433 3.6222522 10985111
-156.61981 -70.298027 2.8503864 8617080
-156.48167 -70.230423 1.9031589 8813943
-155.4057 -70.209076 1.1364429 9734272
-155.26077 -70.142357 0.19816464 8616048
-154.66661 -70.105675 -0.55103427 8353135
-154.03979 -70.056404 -1.4801342 10261643
-153.83113 -69.968987 -2.592561 8089963
-152.79431 -69.959381 -2.9473813 8814453
-152.5195 -69.845985 -4.0476851 7958888
-152.23805 -69.7332 -5.1442313 7761509
-151.1636 -69.705299 -5.6594329 7761509
-150.92407 -69.612602 -6.5631194 8484976
-150.63086 -69.501816 -7.6440787 8288109
-149.56746 -69.476082 -8.1367159 9209467
-135.53354 -69.728401 -31.319418 7695460
-135.34044 -70.094063 -32.18203 8222316
-135.30745 -70.002884 -33.104458 7366751
-90.385666 -70.046623 -106.78551 9010805
-89.626007 -70.059891 -107.27592 7694947
-89.072418 -69.814697 -107.66197 7037274
-150.43211 -69.428337 -8.3626795 5920074
-149.31819 -69.385056 -9.0275164 7301727
-149.01295 -69.276054 -10.093038 7499364
-148.50046 -69.183052 -11.050664 8090479
-147.69754 -69.161102 -11.441323 9668995
-147.37717 -69.052269 -12.491204 10984340
-147.05066 -68.944016 -13.537156 8879991
-146.28168 -68.884781 -14.252683 8222061
-145.62016 -68.798538 -15.183827 9275005
-145.3382 -68.710022 -16.041964 5919050
-145.05173 -68.622086 -16.897158 7170917
-144.17732 -68.57795 -17.503859 9736326
-143.61363 -68.482506 -18.492758 10591634
-135.98636 -68.620369 -30.619513 9405561
-135.8165 -68.942726 -31.315966 7695717
-135.71738 -69.023277 -32.298355 6708565
-90.40345 -69.187119 -107.1528 9010805
-89.844337 -69.15329 -107.53537 7760996
-88.989258 -69.013474 -108.02209 6774614
-143.25839 -68.379059 -19.502916 6841693
-142.68781 -68.285179 -20.479788 7039331
-142.02643 -68.23513 -21.086943 7697003
-141.51193 -68.159721 -21.885233 11051928
-141.20242 -68.075752 -22.71073 13551805
-140.826 -67.975449 -23.697771 10722451
-140.14307 -67.897499 -24.559717 9274493
-139.3726 -67.847878 -25.190153 8221548
-138.78099 -67.650894 -26.123266 9143161
-137.0123 -67.50621 -28.888273 8484973
-136.7103 -67.722298 -29.629152 8221802
-136.50182 -67.856491 -30.504377 8156008
-136.24869 -68.090195 -31.414896 8353129
-89.861694 -68.297508 -107.90578 7564131
-89.204216 -67.972908 -108.34705 8683380
-88.449341 -68.002594 -108.66864 6511954
-138.21738 -67.439072 -26.710634 10129798
-138.23901 -67.182549 -28.446993 11380380
-137.55144 -67.113091 -28.827356 9734785
-137.19041 -67.253403 -29.789667 10260357
-89.268433 -67.054031 -108.68951 8815221
-88.495399 -67.098572 -109.01312 9012600
-87.910103 -66.70536 -109.43047 10263180
-88.760376 -66.105194 -109.29695 8090730
-87.903519 -65.844719 -109.7807 9077625
-88.880432 -65.344337 -109.551 7563874
-88.173737 -65.016983 -109.99535 7892839
-87.404137 -64.807304 -110.42004 4867385
-88.278511 -64.170891 -110.29056 7103324
-87.46846 -64.047592 -110.69826 5854024
-87.779572 -63.061195 -110.95886 6182479
-86.978951 -62.929745 -111.36571 6380371
-87.727333 -62.094799 -111.37198 6249301
-87.036697 -62.100803 -111.67476 7038046
-86.381714 -61.894615 -112.04736 7432547
-87.207123 -61.18013 -111.97101 6906460
-86.415909 -61.002819 -112.3922 6446423
-85.821228 -60.626133 -112.80701 5920074
-86.687859 -60.271091 -112.71983 6643288
-85.945114 -59.921059 -113.3426 6117197
-85.346985 -59.626339 -113.87465 5920074
-85.692307 -59.452526 -114.33121 7301467
-84.998894 -59.336452 -115.12478 8024678
-84.485458 -59.102215 -116.16901 8419958
-83.89325 -58.931881 -116.72389 11775139
-83.315239 -58.585442 -117.20313 10590348
-84.171837 -58.036991 -117.01067 13616310
-83.346725 -58.005878 -117.42521 10458763
-84.053177 -57.360069 -117.33955 8617072
-83.465843 -57.138233 -117.71086 6577749
-82.78186 -57.002762 -118.09527 7761771
-83.582466 -56.269588 -117.99364 7169886
-82.821182 -55.966393 -118.48159 8156527
-82.198776 -55.600616 -118.92559 7038307
-83.113541 -55.221733 -118.81585 7564642
-82.409241 -54.961601 -119.34908 6972248
-81.821114 -54.600677 -119.90871 7893094
-82.5243 -54.371147 -120.00435 7038298
-81.938934 -54.262814 -120.38821 8353388
-81.292664 -54.069782 -120.93147 7695204
-80.454742 -53.912498 -122.58224 7564642
-79.299591 -53.918182 -124.6963 7433317
-78.714706 -53.822685 -125.43315 7037274
-78.123398 -53.726864 -126.16379 9208955
-77.848274 -53.643219 -127.41602 8616819
-77.29377 -53.577236 -127.54068 8090987
-76.924248 -53.533413 -127.6226 11709345
-76.819824 -53.469986 -128.83736 11709345
-76.204674 -53.371578 -129.56773 11117208
-75.583412 -53.272686 -130.29149 9209210
-75.081207 -53.162025 -131.59474 8945525
-74.324036 -53.07328 -131.7364 9538177
-74.186188 -53.005299 -132.97221 6840920
-73.658447 -52.891418 -134.28505 5920074
-73.083084 -52.825474 -134.38341 6510930
-72.359154 -52.697117 -135.75191 7761253
-72.20108 -52.630611 -137.02898 6971994
-71.814407 -52.58844 -137.09344 9406590
-71.234634 -52.525383 -137.18835 10130313
-71.063217 -52.457222 -138.4718 6511954
-70.478806 -52.393902 -138.56143 6511954
-69.904633 -52.281944 -139.90996 7432799
-69.516434 -52.189816 -141.23949 7038298
-68.725204 -52.104664 -141.34358 8551023
-68.321854 -52.010849 -142.67719 8485749
-67.307037 -51.851357 -144.08815 7958634
-66.880959 -51.754498 -145.43834 11378324
-66.274033 -51.68996 -145.49886 8813171
-66.037903 -51.613079 -146.83635 8287342
-65.426567 -51.548424 -146.89069 9735040
-65.384827 -51.491676 -148.22118 8682867
-64.768784 -51.426697 -148.2702 8682867
-64.338776 -51.351475 -149.71964 8682867
-125.49854 -77.795853 -49.750458 12826796
-125.20226 -77.884766 -50.566296 9406594
-124.89107 -77.91922 -51.493637 7368039
-124.57848 -77.957077 -52.421356 7695461
-124.211 -78.215492 -53.255764 7564642
-123.93034 -78.394463 -53.91478 5920074
-108.49517 -77.880074 -79.231895 9142651
-107.99323 -77.862022 -79.866501 9471616
-107.39037 -77.843376 -80.627007 9208187
-106.7197 -77.779518 -81.335785 8485232
-105.87716 -77.665451 -82.114067 9406079
-126.39397 -76.831093 -48.118645 9010808
-126.07381 -77.049347 -48.853825 10458253
-125.81243 -77.01564 -49.707695 11905697
-125.51402 -76.969429 -50.691833 10392975
-125.21062 -77.037796 -51.554386 8486006
-124.93156 -77.21106 -52.215714 7039331
-108.00039 -77.493866 -80.072655 9142651
-107.47374 -77.386154 -80.790344 9274235
-106.89256 -77.095062 -81.517609 8748405
-106.11496 -76.977936 -82.241737 9208956
-105.35122 -76.907722 -82.931496 8551538
-127.82906 -75.639816 -45.630714 7037274
-127.62308 -75.648415 -46.251957 6511954
-127.14894 -75.889557 -47.17305 8156012
-126.80235 -76.002777 -48.040478 8484464
-126.4898 -76.024384 -48.970612 10589836
-126.13559 -76.140472 -49.834793 11116178
-125.77307 -76.273972 -50.725632 11379356
-106.9106 -76.296577 -81.887512 9734788
-106.40814 -76.144997 -82.421417 9537665
-105.62677 -76.059311 -83.181244 9011577
-104.8244 -76.011108 -83.904762 9012348
-104.24818 -75.741547 -84.633942 7762796
-103.76488 -75.613945 -85.178093 7564651
-130.17099 -74.482155 -42.086792 8287853
-129.82948 -74.556519 -42.929115 6313808
-129.37534 -74.671616 -43.782837 5984843
-128.93002 -74.808182 -44.659378 7366496
-128.3777 -75.020363 -45.476662 8748404
-128.06824 -75.032486 -46.41188 6972249
-127.70811 -75.134689 -47.278797 9405822
-127.30303 -75.294579 -48.140892 8747892
-127.01151 -75.386337 -48.819736 11905692
-105.8333 -75.501274 -83.51461 11905692
-105.27329 -75.304306 -84.194664 10525329
-104.60497 -75.05381 -85.025322 8486262
-103.90931 -74.995178 -85.713791 8288372
-103.32018 -74.799454 -86.488731 7959408
-102.78563 -74.647484 -87.31031 7038297
-102.22571 -74.622078 -87.899323 8090474
-133.70532 -73.809166 -36.263306 6511954
-133.60199 -73.938278 -37.042885 7301470
-133.44798 -74.036018 -37.971409 9669759
-132.58368 -74.173859 -38.489765 8222314
-132.06091 -74.175179 -39.550201 9275261
-131.48804 -74.206642 -40.522667 8485488
-131.15511 -74.239403 -41.252884 8748404
-130.59807 -74.353348 -41.963043 7761765
-130.5018 -74.347778 -42.887405 5788488
-103.73227 -74.517517 -87.042191 8287592
-103.17201 -74.491135 -87.63549 7695712
-102.53702 -74.419037 -88.485733 8090474
-102.01091 -74.353226 -89.215538 7695716
-101.32905 -74.325676 -89.918625 8485232
-100.85164 -74.234573 -90.803223 9734785
-100.29072 -74.235649 -91.727379 9406335
-99.832848 -74.236603 -92.527184 10392715
-99.45945 -74.237984 -93.521973 10326665
-98.785294 -74.238556 -94.240524 9931907
-98.19487 -74.239586 -95.153893 9142909
-97.815536 -74.240646 -95.954697 9011323
-97.308311 -74.241875 -96.935623 9471616
-96.609543 -74.242393 -97.638588 9471616
-96.182449 -74.243546 -98.522804 9011320
-96.004272 -74.244865 -99.384087 8485232
-95.167831 -74.245491 -100.19247 9668479
-94.466454 -74.246475 -101.14421 8616049
-94.376968 -74.165329 -102.14658 8418925
-93.699173 -74.053383 -102.7682 6775130
-92.942162 -73.957901 -103.32764 8288115
-134.19983 -72.625534 -35.357983 7499106
-134.03261 -72.934387 -36.121006 8024937
-133.9162 -73.062637 -37.086372 8288109
-133.72726 -73.446625 -37.772224 7959144
-93.811539 -73.254494 -103.05591 7038307
-93.108284 -73.075218 -103.6108 11116438
-92.404816 -72.89872 -104.16455 10590095
-134.59413 -71.701271 -34.538513 7892063
-134.46112 -71.936905 -35.195988 7695713
-134.38596 -71.9403 -36.216114 7235677
-134.22357 -72.258118 -36.866982 8682867
-93.292015 -72.025154 -103.95704 10721937
-92.579094 -71.966415 -104.46446 8616822
-91.882133 -71.994926 -104.92197 6511962
-162.17604 -70.517654 10.616332 14075837
-162.23242 -70.521225 9.8338003 9866371
-161.39015 -70.617668 9.1941519 8681843
-161.27759 -70.546501 8.2114172 9866374
-160.67712 -70.505386 7.4014878 10260875
-160.07408 -70.464844 6.597754 10260875
-134.91751 -70.831635 -34.390549 9076849
-134.78505 -71.023102 -35.280685 7564641
-134.71719 -71.076927 -35.957283 5920074
-93.291016 -71.228592 -104.31449 9208958
-92.724228 -71.082062 -104.76244 8024941
-91.907173 -71.131172 -105.28911 9538178
-91.319641 -70.844528 -105.80875 9472639
-162.918 -69.878975 10.567054 9932163
-162.71794 -70.263023 10.258498 11708060
-159.95027 -70.394852 5.6257081 8353903
-158.87372 -70.384964 5.0087953 8156268
-158.71654 -70.302071 3.8532627 11906725
-158.11517 -70.263313 3.0731571 9932166
-157.51154 -70.225014 2.299155 6972256
-157.36893 -70.157219 1.3469303 6708309
-156.30954 -70.149696 0.76874417 8089447
-156.13031 -70.069397 -0.36304599 8615790
-155.52826 -70.032837 -1.1142743 8682615
-154.92413 -69.99678 -1.8595669 8748149
-154.70215 -69.905205 -2.977792 8418928
-153.60535 -69.875359 -3.5166333 8089963
-153.37109 -69.780548 -4.4378066 9866374
-153.08426 -69.667313 -5.5397277 9406079
-152.2957 -69.623825 -6.1275611 7301214
-151.75465 -69.546593 -6.9632392 6972250
-151.50638 -69.453896 -7.8687835 6248784
-135.30663 -69.913734 -33.565331 6971222
-135.26125 -69.85878 -34.478317 7695714
-135.10141 -70.141312 -35.293758 6972762
-92.779922 -70.450005 -105.00591 9537666
-92.257103 -70.084259 -105.51695 10393230
-91.404968 -69.949799 -106.1463 9209467
-90.750717 -69.699471 -106.69448 9010805
-151.35532 -69.398453 -8.4108553 5920074
-150.91208 -69.359367 -8.8749971 5920074
-150.12801 -69.318573 -9.4371653 7301727
-149.81506 -69.208122 -10.507581 8880505
-149.49406 -69.097382 -11.573987 9669251
-148.71255 -69.057663 -12.11826 13022893
-148.15839 -68.98362 -12.914582 8814201
-147.82651 -68.874939 -13.965371 7038307
-147.26793 -68.775337 -14.990518 8090475
-146.37964 -68.729347 -15.617112 7827303
-146.09312 -68.640602 -16.479151 9341571
-145.80219 -68.552307 -17.338148 7565675
-145.07585 -68.482002 -18.142252 9012861
-144.46716 -68.447372 -18.599501 9736326
-135.7585 -68.819031 -32.752861 6905944
-135.6351 -69.016678 -33.485104 7300958
-135.5365 -69.116615 -34.36293 6379856
-92.352142 -69.309166 -105.79535 11905701
-91.753357 -69.111732 -106.28302 9209467
-90.879005 -68.969696 -106.93058 9143417
-145.32863 -68.411926 -18.707033 9736326
-144.28847 -68.395287 -19.107946 9867399
-143.98741 -68.308807 -19.95307 8879734
-143.62106 -68.205627 -20.963583 8354418
-142.89035 -68.138489 -21.740267 12104357
-142.5219 -68.082466 -22.3304 12827827
-141.90689 -68.004898 -23.172285 11972518
-141.52515 -67.904266 -24.163538 10920086
-141.13777 -67.804253 -25.150686 9472383
-140.40068 -67.740776 -25.896685 8485232
-139.66344 -67.678207 -26.634451 8748403
-139.25049 -67.557358 -27.427969 10129798
-136.52063 -67.657448 -31.754305 7563613
-136.21814 -67.96006 -32.689751 6576722
-135.99664 -68.148972 -33.653366 6643029
-91.814804 -68.412598 -106.55031 8814709
-91.157501 -68.163712 -107.09985 9472895
-90.409515 -67.978493 -107.68196 9209980
-89.912811 -67.688797 -108.14198 9736836
-138.67307 -67.343079 -28.011953 11445658
-138.54944 -67.039536 -29.904379 8090218
-137.73564 -66.945152 -30.149588 8945268
-137.3087 -67.008568 -31.029783 7958115
-136.96979 -67.167442 -31.996622 7168856
-136.66254 -67.325562 -32.795166 6445391
-91.238991 -67.273193 -107.43822 9868165
-90.643921 -66.994659 -107.95915 9473664
-89.932686 -66.948219 -108.42952 9275773
-90.719315 -66.081825 -108.31144 8947064
-89.93354 -66.101311 -108.77071 8881015
-89.37545 -65.957054 -109.08499 7563874
-90.707901 -65.531715 -108.56171 8618355
-90.166664 -65.171234 -109.04131 8749941
-89.330887 -64.982536 -109.49795 8683123
-88.740585 -64.591232 -109.91675 5919050
-90.084328 -64.379585 -109.40839 9144699
-89.542343 -63.947498 -109.82227 9143675
-88.780075 -63.982574 -110.14491 6445394
-89.716499 -63.231018 -110.03445 9144699
-88.894127 -63.104691 -110.44884 8484976
-88.228561 -62.697681 -110.9072 6510930
-89.128113 -62.220112 -110.70246 10195082
-88.313171 -61.893116 -111.19453 6445394
-89.201569 -61.337456 -111.02618 10853012
-88.632332 -61.016155 -111.41088 7695204
-87.823463 -61.00877 -111.76784 5920078
-88.519409 -60.380871 -111.81845 6510930
-87.976021 -60.169498 -112.2364 6445909
-87.398743 -59.808548 -112.84935 7103324
-87.310844 -59.532898 -113.33585 7760739
-86.775253 -59.428757 -113.93662 9273975
-86.25087 -59.263611 -114.84099 8090469
-85.922272 -58.953239 -115.78409 7893090
-85.142708 -58.89542 -116.18704 6972509
-85.966026 -58.286503 -116.03589 6511954
-85.307281 -57.962093 -116.48927 7827556
-84.601311 -57.762962 -116.9137 12695465
-85.538132 -57.097454 -116.7225 7235162
-84.670547 -57.010479 -117.17692 8946037
-85.534348 -56.364361 -117.01072 7235162
-84.951157 -56.145077 -117.39325 8288107
-84.137596 -55.967834 -117.85287 8156521
-84.867569 -55.454109 -117.87099 8617072
-84.341301 -55.187153 -118.33482 8222318
-83.684189 -54.916519 -118.87442 7367265
-84.001236 -54.49168 -119.36397 7104094
-83.22316 -54.325283 -119.90388 6709333
-82.623863 -54.120888 -120.45552 7564642
-81.661911 -54.224674 -122.80093 7301470
-80.754715 -54.093014 -124.32561 7039331
-80.175873 -53.997849 -125.07182 7039331
-79.590538 -53.90221 -125.81175 7038560
-79.328468 -53.819534 -127.0737 10261129
-78.588165 -53.731255 -127.24667 10261129
-78.125427 -53.624752 -128.55389 8616819
-77.565636 -53.558311 -128.67693 11709345
-77.087189 -53.450043 -129.98578 9275261
-76.40799 -53.317955 -131.33882 10457479
-75.83902 -53.25098 -131.45015 9536891
-75.523407 -53.161755 -132.72981 9273719
-75.199532 -53.071083 -134.01991 7367264
-74.42865 -52.981182 -134.15398 5920074
-73.896927 -52.866905 -135.48061 6577492
-73.126328 -52.780945 -135.6161 6510930
-72.97522 -52.714981 -136.89696 8090730
-72.428436 -52.605499 -138.25497 9209467
-71.843109 -52.541836 -138.3492 7235421
-71.279953 -52.430573 -139.7093 10854036
-70.7967 -52.353001 -140.42268 7761769
-70.308624 -52.275112 -141.13176 7564651
-69.718613 -52.160698 -142.50284 8157043
-69.119537 -52.096336 -142.57915 7894126
-68.512878 -51.980148 -143.95218 8485749
-68.299515 -51.905602 -145.28935 7894126
-67.691147 -51.840763 -145.35445 7695976
-67.058418 -51.721329 -146.74078 9011065
-66.445892 -51.656319 -146.79878 8287342
-66.619095 -51.622124 -148.11653 8287342
-66.001663 -51.556847 -148.16972 8682867
-65.15432 -51.428432 -149.62965 9077625
-123.2971 -78.492409 -55.771912 7564651
-123.07703 -78.523438 -56.388138 8749433
-122.65186 -78.512833 -57.269688 9341825
-122.34811 -78.494919 -57.847782 6511954
-124.25962 -77.765816 -53.642929 7630434
-123.84353 -78.058479 -54.58786 9143417
-123.55502 -78.059753 -55.485664 10459281
-123.26151 -77.97187 -56.472351 9144447
-122.83525 -77.961075 -57.355 8157042
-122.314 -78.07196 -58.23764 7828073
-121.79997 -78.280037 -59.031696 8551537
-121.34219 -78.260643 -59.896915 7959144
-120.89175 -78.337738 -60.674126 9208437
-120.36401 -78.415749 -61.593987 9603195
-119.9805 -78.407692 -62.312489 10129539
-113.99438 -78.23391 -72.189552 9735299
-113.59546 -78.198723 -72.706062 9077371
-113.05334 -77.965591 -73.516098 9537665
-112.45404 -77.91893 -74.288216 6511954
-111.75456 -77.868896 -75.186989 8089963
-111.05453 -77.823189 -76.083801 11313816
-110.45406 -77.78775 -76.850914 9274231
-109.85312 -77.755737 -77.616608 8089960
-109.25167 -77.727036 -78.381012 7037274
-108.80153 -77.64608 -78.987778 8089962
-125.16018 -76.832626 -51.957253 7039331
-124.86718 -76.86879 -52.825802 8222318
-124.53097 -76.913269 -53.819008 9340795
-124.21426 -76.958473 -54.750713 10853776
-123.87612 -77.109406 -55.622868 13484985
