# .PCD v0.7 - Point Cloud Data file format
VERSION 0.7
FIELDS x y z rgb
SIZE 4 4 4 4
TYPE F F F U
COUNT 1 1 1 1
WIDTH 1197
HEIGHT 1
VIEWPOINT 0 0 0 1 0 0 0
POINTS 1197
DATA ascii
28.173512 -67.964119 -115.62031 9735302
29.037354 -67.973015 -115.20832 9209216
29.978386 -67.850037 -114.81303 11775395
30.683777 -68.097168 -114.37981 10261643
26.78582 -66.711716 -116.78173 9208956
27.377396 -67.014984 -116.37966 11445659
28.294098 -67.07505 -115.92207 8880250
29.274021 -66.974678 -115.49926 7301215
29.852528 -67.231995 -115.12189 10788244
25.960587 -65.963379 -117.47382 9603458
26.723953 -65.951881 -117.11758 7828070
27.665562 -66.002792 -116.65188 8288113
28.472912 -66.151291 -116.21024 8682869
29.145462 -66.358124 -115.80883 7630435
24.633965 -64.645599 -118.63274 7038307
25.209385 -64.929085 -118.24636 7695978
25.968933 -65.036987 -117.84371 9406335
26.913616 -65.047539 -117.39283 7301982
27.719688 -65.037872 -117.01566 7696484
28.29826 -65.501251 -116.55518 8814709
23.620922 -63.71579 -119.48693 10787214
24.445927 -63.998909 -118.98263 8024943
25.360069 -63.933578 -118.57683 8683128
26.260628 -64.08474 -118.09007 9800838
27.004776 -64.30249 -117.65041 8354158
23.041466 -62.696487 -120.07742 10065032
23.697838 -62.982311 -119.74652 10130054
24.615433 -63.075806 -119.27499 7433064
25.53175 -63.011765 -118.86762 8683127
26.210148 -63.368446 -118.40296 8814713
23.045757 -61.885292 -120.36674 9604224
23.99226 -61.977337 -120.01286 11445400
24.785404 -62.154362 -119.56647 8353650
25.345036 -62.366112 -119.21642 8814713
22.262691 -60.904613 -120.80877 9472384
23.105362 -60.995949 -120.6874 8288110
23.893059 -61.171276 -120.38503 9537150
20.791279 -59.546822 -121.97177 10064009
21.565655 -59.704544 -121.68204 9932423
22.35994 -60.026798 -121.32224 9603202
23.121979 -60.295753 -121.04391 8287600
14.704043 -59.240486 -128.65311 13024949
14.916739 -59.239502 -127.78835 10590608
15.630511 -59.238251 -127.28901 9077626
16.338692 -59.237106 -126.78535 8551026
16.988346 -59.235527 -125.87682 8353903
17.880493 -59.233925 -125.14318 8748917
18.792809 -59.232498 -124.60516 9012606
19.444935 -59.231174 -123.89902 11117978
20.090263 -59.229839 -123.1963 12170921
20.814861 -59.323185 -122.62343 10788244
21.600994 -59.401535 -122.31713 9603458
124.54836 -74.036728 -32.494804 7038298
124.73564 -74.035782 -31.747572 8485231
125.45457 -74.034454 -31.128889 11050388
126.36641 -73.857025 -30.495554 11642523
31.033882 -67.827881 -114.32298 10788244
31.876366 -67.829903 -113.92388 10393485
32.919567 -67.739304 -113.46723 8485745
33.651169 -67.731056 -113.12469 9275261
29.77853 -66.609955 -115.40791 6511954
30.332256 -66.90612 -115.02663 11644065
31.141907 -67.061523 -114.58117 11380637
32.140564 -66.988853 -114.13835 9603716
32.89146 -67.165276 -113.71217 8156780
28.971203 -65.851776 -116.09555 8025193
29.608047 -65.959023 -115.75121 9406846
30.49725 -65.913292 -115.34928 13486268
31.377205 -66.032036 -114.88535 10196109
32.080597 -66.188332 -114.48972 9143167
28.183517 -64.780647 -116.90017 10129541
28.837673 -65.070061 -116.47411 10459278
29.789803 -65.039619 -116.03625 8617330
30.681236 -64.994926 -115.63286 11775139
31.217159 -65.220032 -115.28867 10853012
27.29858 -63.857075 -117.69122 9011319
28.110023 -63.983715 -117.2565 10392200
29.089432 -64.011337 -116.78231 8682609
29.962624 -64.173271 -116.30418 8814709
30.511776 -64.345421 -115.97512 7564651
26.001095 -62.607662 -118.8088 8354163
26.59325 -62.999817 -118.37061 9077370
27.495655 -63.044754 -117.92586 9076598
28.415703 -63.011425 -117.50433 9668477
29.225925 -63.216213 -117.03866 8747890
25.256447 -61.749443 -119.50716 8814713
25.85976 -61.996891 -119.12208 8354163
26.841084 -61.918919 -118.68961 9405304
27.647346 -62.185032 -118.20107 9076340
28.399647 -62.255463 -117.81695 8681840
24.306973 -60.798843 -120.34118 10589836
25.0681 -61.074024 -119.87355 9208442
26.089401 -61.005806 -119.41344 9274231
26.911789 -61.082241 -118.99384 10589064
27.569626 -61.505638 -118.51189 9405046
23.018623 -59.662449 -121.56329 9208960
23.773758 -59.909992 -121.23675 8879736
24.613934 -60.045483 -120.75417 12234659
25.456177 -60.270714 -120.16302 8945526
26.187672 -60.431911 -119.67959 8353643
14.893207 -59.02766 -129.64905 9867142
15.47214 -59.23975 -128.56467 10130057
16.273079 -59.238312 -127.90713 11183001
17.024788 -59.236958 -127.32206 12104616
17.700653 -59.235611 -126.60583 11117464
18.369511 -59.234238 -125.89314 11643808
19.390663 -59.23288 -125.53556 9933959
19.864838 -59.231495 -124.64378 9736836
20.768322 -59.230007 -124.01221 9736836
21.62878 -59.232201 -123.34921 10328205
22.241856 -59.306179 -122.53297 8485237
23.056881 -59.393188 -122.19946 10326926
124.19906 -74.038422 -33.836536 6445906
124.69466 -74.037201 -33.10537 7038298
125.47872 -74.014091 -32.411438 9406331
126.12774 -73.828766 -31.790075 11905949
126.49915 -73.779945 -30.953966 12432037
126.46026 -73.042702 -31.908503 12037279
126.77592 -72.961746 -31.063787 11576731
127.07209 -72.635605 -30.555918 11510938
126.81264 -72.235497 -31.781382 11709345
127.12817 -71.911415 -31.213614 11446173
127.32 -71.937325 -30.614763 11577759
127.37533 -71.214149 -31.273645 11380380
127.64314 -70.885155 -30.85317 11577759
127.93833 -70.195786 -30.761736 11709345
33.95961 -67.65387 -113.00999 8814710
34.720673 -67.752029 -112.61063 8617334
35.754948 -67.67601 -112.15232 7564393
36.657707 -67.613708 -111.75066 8419701
33.201885 -66.741684 -113.73634 8814710
34.047256 -66.910385 -113.26861 9538433
34.862907 -67.144615 -112.78847 9668992
35.786186 -67.074532 -112.38024 7893101
36.435535 -67.314621 -111.97636 9143166
32.538769 -65.94001 -114.3733 9537667
33.324905 -65.95089 -113.99728 8946041
34.271976 -65.904549 -113.56824 8879476
35.041161 -66.229195 -113.07356 8747377
35.764721 -66.420464 -112.65434 8090736
31.144962 -64.600647 -115.57274 10261902
31.743195 -64.964989 -115.14291 8288116
32.633423 -65.068993 -114.68008 9537667
33.529743 -65.055534 -114.26173 8814201
34.299038 -65.151688 -113.85925 9602428
30.303978 -63.739433 -116.31783 7959406
31.018913 -63.98698 -115.87997 7827822
31.965939 -63.875767 -115.4771 7827822
32.798264 -64.074524 -115.00343 8945788
33.485466 -64.298897 -114.588 9340030
29.48592 -62.745346 -117.10576 7432031
30.22839 -63.122002 -116.60273 11183001
31.260502 -63.00098 -116.16363 9472644
32.05888 -63.094181 -115.74854 7564651
28.084545 -61.766293 -118.16335 8681840
28.762878 -61.878418 -117.79742 10194821
29.572849 -61.96357 -117.38009 8879732
30.505253 -61.993694 -116.92716 11314585
31.305481 -62.207523 -116.46255 12959410
27.277172 -60.704762 -118.97726 10325892
27.953556 -60.951187 -118.56263 9931134
28.847916 -61.097198 -118.07244 9998212
29.811115 -60.97897 -117.66478 8880246
30.400959 -61.236656 -117.28199 10261900
25.002861 -59.544678 -121.19389 12958893
25.75425 -59.76783 -120.46098 10459531
26.560966 -59.926258 -119.95829 9340538
27.380836 -60.014004 -119.5034 9405302
28.272148 -60.126923 -118.96731 8945009
29.079834 -60.369415 -118.37733 8945527
15.452281 -58.887844 -129.73462 10130057
16.213963 -59.044502 -129.53484 11051160
16.880398 -59.2384 -128.60425 14604494
17.745171 -59.237038 -128.06631 9933191
18.421577 -59.235573 -127.33953 12894388
19.090965 -59.234219 -126.61643 12301739
19.966099 -59.233047 -126.27442 10393486
20.589218 -59.231529 -125.3475 9736836
21.419552 -59.230099 -124.80051 9736836
22.24453 -59.228611 -124.0845 9143675
22.987659 -59.227112 -123.29955 9077375
23.627338 -59.263737 -122.65688 8485495
24.422813 -59.340405 -122.06718 8354165
25.376499 -59.371094 -121.54287 12169890
25.994022 -59.49501 -120.88471 11051667
26.559021 -59.467442 -120.70629 8090987
14.879703 -57.657223 -130.24333 10263180
15.439097 -58.028843 -130.07986 9012088
16.104095 -58.348827 -129.93005 8089963
14.98743 -56.916092 -130.50853 11314840
15.476279 -57.120193 -130.40973 10129540
15.067866 -56.075638 -130.81137 10458505
14.970698 -55.347286 -131.08206 8485229
123.66909 -74.040894 -35.767853 7038298
123.83517 -74.040123 -35.174488 5919306
124.51153 -74.038849 -34.559811 5919306
125.36338 -73.801338 -33.945652 6840920
125.81316 -73.730354 -33.046452 9274745
125.77824 -73.087807 -33.881443 7038298
126.08498 -72.878311 -33.209431 7432543
126.42837 -72.698807 -32.394485 10524557
126.42918 -71.94928 -33.245132 7103067
126.7365 -71.826607 -32.472672 10788244
126.99776 -71.712326 -31.827276 12038311
127.03357 -70.900375 -32.645126 10590609
127.37872 -70.778214 -31.759695 12038310
127.35839 -70.123466 -32.565289 8287597
127.68194 -69.836166 -31.931902 11972517
128.00032 -69.736267 -31.100645 12301483
128.03046 -68.937401 -31.920393 10525071
128.3273 -68.757339 -31.244238 9735555
37.558369 -67.555611 -111.34827 8616821
38.328938 -67.50885 -111.00286 8090987
128.64569 -67.8685 -31.309961 6775126
128.86131 -67.594467 -30.980997 6511954
36.247841 -66.700249 -112.31301 9143166
36.896568 -66.942093 -111.90877 9603460
37.815517 -66.881226 -111.49884 9537410
38.715233 -66.980209 -111.03357 8354159
39.503948 -67.264168 -110.54609 10721682
129.10657 -66.902733 -31.039183 6511954
35.372757 -65.759926 -113.10616 7892325
36.195423 -66.015266 -112.61422 7037792
37.039623 -66.05323 -112.19978 9208702
37.960789 -65.993149 -111.78855 9734532
38.606953 -66.239418 -111.38364 9734532
34.646824 -64.804314 -113.83496 9733758
35.521999 -64.900673 -113.38235 7958118
36.317879 -65.105972 -112.92325 6905946
37.223141 -65.142372 -112.48057 7826792
37.94352 -65.340637 -112.06001 9734532
33.922993 -63.98761 -114.5068 8221549
34.788231 -63.960678 -114.10856 8023912
35.681515 -63.956455 -113.68794 8549998
36.522392 -64.234627 -113.17817 6051667
37.01392 -64.462349 -112.85388 5920082
32.420876 -62.722721 -115.7273 7564651
33.155678 -62.918835 -115.3008 8090220
33.973438 -63.090191 -114.84502 8813429
34.963398 -63.045174 -114.3952 9208187
35.684761 -63.201496 -113.99108 11378324
31.714397 -61.848232 -116.41421 7564651
32.448349 -61.994713 -116.00814 6840922
33.433697 -61.885139 -115.58651 8156267
34.265392 -62.107185 -115.10369 10392461
34.898335 -62.427853 -114.67503 8616307
30.325706 -60.625324 -117.57372 8682867
30.890499 -60.921211 -117.18757 11248793
31.699982 -60.974068 -116.78622 11314587
32.617409 -61.080055 -116.29726 9077625
33.458508 -61.115944 -115.88515 8156523
28.009434 -59.553505 -119.7767 10194822
28.640701 -59.687244 -119.25863 9734531
29.495201 -59.844631 -118.64631 8879734
30.324409 -59.977337 -118.15688 9406590
31.142681 -60.10033 -117.64394 8748660
32.002373 -60.24437 -117.11555 10130312
32.620819 -60.464596 -116.63453 10854036
16.863888 -58.866707 -129.70322 10985367
17.623177 -59.006264 -129.48764 13222585
18.474346 -59.237068 -128.81551 8946556
19.15131 -59.235661 -128.07799 10525072
19.82111 -59.234299 -127.34431 11051416
20.667408 -59.232922 -126.79107 9209467
21.322289 -59.231514 -126.05563 9209723
22.155037 -59.230114 -125.4994 9274747
22.980701 -59.228745 -124.93697 10195335
23.428902 -59.227421 -124.0319 8485495
24.240883 -59.226089 -123.47033 7959664
25.045868 -59.224686 -122.90273 8420726
25.766876 -59.223228 -122.10793 10130567
26.576141 -59.271896 -121.48034 8354159
27.259548 -59.345779 -120.74802 8354415
28.100864 -59.364365 -120.30297 10195081
29.040234 -59.430439 -119.66978 9734531
29.686954 -59.479557 -119.22283 8681843
16.132427 -57.687637 -130.17001 8485229
16.859867 -58.008465 -130.01669 8616563
17.569794 -58.280182 -129.88223 10985367
16.113232 -56.915482 -130.45279 8813938
16.89027 -57.120045 -130.33954 7498336
15.272536 -55.683952 -130.94418 8485229
16.045982 -56.032661 -130.77844 7827300
16.825726 -56.21793 -130.67203 6511954
15.340186 -54.984264 -131.19623 8682611
16.153561 -55.091709 -131.11659 7893349
15.452743 -54.068474 -131.52495 9537667
15.068069 -52.876457 -131.9792 9143166
15.373435 -53.179504 -131.85341 9800838
15.094008 -52.218075 -132.21829 8090736
123.19661 -74.042953 -37.395329 8353646
123.76488 -74.041527 -36.501274 6577747
124.6406 -73.852356 -35.935459 5524548
125.12134 -73.715317 -35.11694 6050892
125.35715 -73.529495 -34.628525 7038298
125.36229 -72.843468 -35.394066 5853770
125.70242 -72.794914 -34.439823 6972251
125.71433 -71.942558 -35.374542 5656649
126.01824 -71.789154 -34.647095 5853772
126.32388 -71.745789 -33.789291 6510930
126.37025 -70.815498 -34.710445 4340785
126.65221 -70.802765 -33.888077 6510930
126.96856 -70.562019 -33.223171 6510930
126.99166 -69.770302 -34.055607 6313808
127.3062 -69.757248 -33.13694 7037787
127.60369 -69.429184 -32.627369 8287597
127.60712 -68.74295 -33.398247 6577494
127.93567 -68.694366 -32.47834 8420211
127.95895 -67.849701 -33.370537 6248272
128.23981 -67.733124 -32.669342 6709078
128.55705 -67.592758 -31.886843 6775126
39.74197 -66.80394 -110.61927 10392973
40.599342 -67.043373 -110.11732 9866628
41.469357 -67.063629 -109.69784 9340028
42.349754 -67.068405 -109.27969 9471613
43.05267 -67.285851 -108.85966 9866371
128.52779 -66.870293 -32.795483 6116685
128.89932 -66.729774 -31.851702 7038298
129.24144 -66.378342 -31.23493 6511954
38.423473 -65.624733 -111.71844 9734532
39.038239 -65.840347 -111.34084 10590353
39.939095 -65.951569 -110.87003 9866628
40.801804 -66.036697 -110.42786 10392457
41.588146 -66.194962 -109.99221 9734785
42.157642 -66.37973 -109.64839 9866371
128.80121 -66.326424 -32.601944 6511954
129.1434 -65.852654 -32.124325 7893611
129.48611 -65.688126 -31.293356 7038307
37.658638 -64.837898 -112.39756 8287086
38.333282 -64.936592 -112.0388 10655634
39.17551 -64.987167 -111.62021 13221561
40.136906 -64.937363 -111.18578 11444631
41.024071 -65.282623 -110.62698 10392457
129.43642 -65.20285 -31.992895 7038307
129.74242 -64.820358 -31.518938 7038307
36.804573 -63.736309 -113.24586 6511961
37.550819 -64.055252 -112.76435 7169377
38.478695 -64.062813 -112.32263 9339774
39.348801 -64.053787 -111.91491 10064268
39.994564 -64.292809 -111.51324 10656658
130.08203 -64.035583 -31.402689 7104100
36.091599 -62.850166 -113.94051 12234659
36.873745 -62.946777 -113.53175 9208700
37.855335 -62.97971 -113.05439 7103841
38.671379 -63.207775 -112.57655 8748151
39.201778 -63.40062 -112.24804 7038307
130.38976 -63.2836 -31.344084 7564648
34.634235 -61.619064 -115.1263 10063496
35.290142 -62.020802 -114.65411 8484721
36.148663 -62.059597 -114.23257 11906210
37.126842 -61.996845 -113.79542 9142907
37.884022 -62.129448 -113.38394 7498598
33.811562 -60.772728 -115.86333 9406590
34.593723 -60.874107 -115.46207 10853524
35.469761 -61.028557 -114.98313 10853781
36.382004 -61.032902 -114.54407 8813686
36.973492 -61.358185 -114.12563 7892841
31.583839 -59.618908 -117.98827 9143417
32.400513 -59.725861 -117.4748 9801347
33.142368 -59.989662 -116.80659 8024937
33.993465 -60.052441 -116.35366 8683124
34.838169 -60.163578 -115.8554 9735556
35.569046 -60.284992 -115.40682 11511711
18.271175 -58.910301 -129.61739 8092019
19.061348 -58.970539 -129.49837 8157555
19.759125 -59.209805 -128.99846 8946039
20.439808 -59.234653 -128.30963 11314588
21.293697 -59.233082 -127.57537 9801865
21.912743 -59.231678 -126.79428 9471869
22.748001 -59.230309 -126.22952 10852751
23.577229 -59.228951 -125.65894 10326664
24.174141 -59.227562 -124.88084 9077885
24.987476 -59.226025 -124.14368 7960432
25.79446 -59.224632 -123.56695 9341313
26.40694 -59.223335 -122.82534 9275003
27.389427 -59.221939 -122.40681 9801859
27.798504 -59.220623 -121.50332 10131081
28.724121 -59.220764 -120.89087 9603457
29.597244 -59.256042 -120.09098 9208187
30.219784 -59.317757 -119.53974 9076601
30.995243 -59.348461 -119.01186 10327177
31.911892 -59.389587 -118.46429 9735297
33.040741 -59.501022 -117.60695 9735297
33.316139 -59.491158 -117.50945 6511954
18.210888 -58.005901 -129.9505 9670279
19.092163 -58.192047 -129.83879 9144449
17.532326 -56.844254 -130.40829 11510935
18.244766 -57.11694 -130.27338 9144192
18.97303 -57.44183 -130.11856 10985881
17.401749 -56.035793 -130.70993 9275262
18.216667 -56.159157 -130.62439 10393485
16.753902 -54.993683 -131.12254 7828072
17.570908 -55.115173 -131.0376 9867399
15.985545 -53.720661 -131.62544 10261132
16.763248 -54.069744 -131.45938 9012092
17.547512 -54.255516 -131.35257 10525071
16.01725 -52.967751 -131.89871 9275008
16.803291 -53.163342 -131.78825 8946300
15.272632 -51.727623 -132.38847 7038307
15.937926 -52.101349 -132.21898 8683128
16.684246 -52.253437 -132.12639 9340801
15.36914 -51.023869 -132.64062 6906714
16.038563 -51.194889 -132.54497 8880507
15.456428 -50.125992 -132.96414 7169628
15.294044 -49.176178 -133.31903 9142907
122.56509 -74.045692 -39.4576 7564651
122.83981 -74.044533 -38.575005 7630184
123.90263 -73.890099 -38.136951 7564130
124.31171 -73.709534 -37.349041 7038042
124.67054 -73.596359 -36.590336 6116940
124.63343 -72.915192 -37.475639 6446418
124.99564 -72.751823 -36.586571 5195838
125.33669 -72.450325 -35.917397 5196097
124.97054 -72.070518 -37.43655 6446418
125.29314 -71.813385 -36.771503 5261887
125.64011 -71.678703 -35.895073 4998717
125.63631 -70.926392 -36.762512 4669750
125.95307 -70.746475 -36.027168 4932924
126.2631 -70.615585 -35.255939 4998718
126.25692 -69.878532 -36.113201 4340785
126.61143 -69.727707 -35.23262 5064510
126.9134 -69.479446 -34.618778 5590854
126.82853 -68.907944 -35.521255 4669751
127.2598 -68.721451 -34.453415 6248528
127.58039 -68.349045 -33.925854 7367525
127.15073 -68.133095 -35.446846 4340785
127.43232 -67.939133 -34.831699 6248784
127.85268 -67.719948 -33.833565 6511445
42.782902 -66.773163 -109.19405 9866371
43.51458 -66.928047 -108.78562 10261130
44.420624 -66.896912 -108.36983 9077370
45.244877 -66.968773 -107.95116 8485489
45.942104 -67.098907 -107.56906 10064008
127.80689 -67.014343 -34.772484 6643287
128.08684 -66.968651 -33.993404 6643287
128.43422 -66.6455 -33.329079 5919050
42.01823 -65.885124 -109.91391 9800577
42.764729 -66.012459 -109.50961 9866372
43.633701 -66.041687 -109.08701 10589840
44.562428 -66.047234 -108.64568 9406079
45.214638 -66.279839 -108.24349 8617075
128.42841 -65.976059 -34.107815 6511955
128.72653 -65.960678 -33.239719 6314319
129.0448 -65.636536 -32.663017 8090989
40.60107 -64.574608 -111.11275 11904668
41.2328 -64.753586 -110.74183 9143161
42.005436 -65.02507 -110.267 9340283
42.961277 -65.099571 -109.78506 9602944
43.808331 -65.159508 -109.36041 10853012
44.325539 -65.366295 -109.03246 10853012
129.01735 -64.991043 -33.478748 6511954
129.36772 -64.866905 -32.579094 7696233
39.84267 -63.781799 -111.79121 8946044
40.457615 -63.920067 -111.44469 10524302
41.32394 -63.919277 -111.03541 9866370
42.315784 -63.906193 -110.57178 9274235
43.057636 -64.368637 -110.03445 8747636
129.34106 -64.120872 -33.506813 6511954
129.66019 -63.951885 -32.750992 7959404
129.97292 -63.831573 -31.958937 7827819
38.895195 -62.718567 -112.66814 7367013
39.706436 -63.063759 -112.14535 8288372
40.665806 -63.016811 -111.71075 9275009
41.534351 -63.016548 -111.30022 11971231
42.147934 -63.159184 -110.95261 9537150
129.96371 -63.092602 -32.82674 8616562
130.30614 -62.880329 -32.051029 9865856
130.57251 -62.768066 -31.387465 10851980
37.594494 -61.629971 -113.72237 5920082
38.247223 -61.769016 -113.35767 8090217
39.034245 -62.013268 -112.88705 7761768
39.946251 -62.001781 -112.4605 8682872
40.799702 -62.196213 -111.97858 7827565
41.391582 -62.363274 -111.63138 8617080
130.60805 -62.012863 -32.140926 7958119
130.88245 -61.820953 -31.544065 9142135
36.911602 -60.742725 -114.40329 7563619
37.44014 -60.981728 -114.05788 6445911
38.32336 -60.971828 -113.65132 8156010
39.293983 -60.921333 -113.2187 8682350
40.108932 -61.235428 -112.69285 8353648
130.92119 -61.200886 -32.134117 8616048
131.20306 -60.956287 -31.67008 9273720
34.564377 -59.595257 -116.58796 8485747
35.337193 -59.674278 -116.13534 8090733
36.110088 -59.839046 -115.6182 9537665
36.885494 -60.047001 -114.99718 9472128
37.726551 -60.151245 -114.5121 9077368
38.534435 -60.291714 -114.01121 8879728
39.089317 -60.371384 -113.68198 7038307
20.376259 -58.962967 -129.49353 8617847
21.164272 -59.138805 -129.09871 9802121
22.041431 -59.233265 -128.47588 9933708
22.510185 -59.231865 -127.5387 9932935
23.349144 -59.230469 -126.96569 11444632
24.180759 -59.229046 -126.38644 10327949
24.816364 -59.227699 -125.63348 7960433
25.634384 -59.226318 -125.0516 7565675
26.255138 -59.224949 -124.29742 9341313
27.130714 -59.223377 -123.61474 8946295
28.003757 -59.222027 -123.08998 11315100
28.564274 -59.220703 -122.30482 9999752
29.531174 -59.219151 -121.70877 9471871
30.114677 -59.217823 -120.95469 9668995
30.883816 -59.216476 -120.35796 8945272
31.645748 -59.215149 -119.75565 9274747
32.315899 -59.220745 -118.95037 10064005
33.136486 -59.289894 -118.26068 10261384
33.916576 -59.366882 -117.64059 7301219
34.684299 -59.382435 -117.2033 7169892
35.511963 -59.417255 -116.71579 7498856
19.733322 -57.966087 -129.88939 10985881
20.445713 -58.19223 -129.77145 9407618
21.12059 -58.518047 -129.61902 9144449
19.006676 -56.780441 -130.35834 8092019
19.621395 -57.103077 -130.21002 14143428
20.398533 -57.327446 -130.08945 12631472
18.817188 -56.064846 -130.629 9670022
19.733303 -56.176338 -130.54276 11052441
18.149448 -54.933651 -131.07515 12169123
18.932484 -55.123432 -130.96693 10985363
19.715336 -55.314713 -130.8582 9538686
18.127388 -54.074089 -131.39001 12497831
18.94722 -54.198025 -131.30402 11182484
17.449821 -52.932602 -131.84039 8420470
18.171791 -53.150734 -131.72491 10524814
18.856594 -53.468224 -131.57501 9538686
16.705891 -51.759445 -132.30566 10261132
17.393711 -52.073555 -132.15685 8223090
18.117279 -52.290939 -132.04156 7828331
16.686302 -50.989986 -132.58762 9340801
17.476574 -51.192619 -132.47443 9077628
15.83145 -49.763081 -133.07803 8616819
16.617977 -50.109779 -132.91241 9143421
17.410908 -50.293373 -132.80603 10261132
15.900355 -49.06477 -133.32959 9537665
16.727455 -49.170826 -133.24985 9668992
15.262599 -47.940987 -133.77159 9734788
15.898074 -48.147926 -133.66447 9800324
16.528458 -48.460358 -133.51909 9734788
15.426608 -47.055061 -134.08694 9143422
15.934459 -47.262325 -133.98605 9800321
15.460593 -46.199463 -134.39766 8814971
15.370349 -45.504742 -134.76201 8814971
121.94746 -74.048225 -41.362705 8814203
122.14046 -74.04744 -40.777447 8682617
122.91888 -74.001434 -40.10984 9537667
123.61164 -73.728477 -39.418415 8024944
123.98363 -73.619804 -38.602379 7103835
123.97744 -72.807053 -39.545765 8090221
124.28669 -72.747185 -38.695984 6643541
124.64546 -72.526749 -37.882111 5722695
124.61137 -71.750854 -38.866291 6643541
124.9152 -71.713531 -38.006947 6643797
125.2622 -71.377197 -37.359947 6972762
124.94059 -71.008263 -38.734123 7564642
125.19811 -70.843285 -38.15778 6446418
125.55367 -70.68499 -37.282547 5656902
125.87125 -70.349525 -36.721802 4340785
125.44738 -70.184639 -38.167473 5985867
125.80422 -69.858833 -37.479252 5393730
126.10601 -69.773552 -36.680496 4340785
126.0643 -69.09758 -37.573639 5919050
126.42931 -68.935875 -36.674347 4603701
126.7722 -68.636917 -35.996914 4340785
126.39973 -68.259628 -37.531708 5919050
126.72426 -68.004669 -36.858742 5459267
127.07407 -67.871185 -35.972351 4340785
45.678432 -66.58194 -107.90236 7564643
46.375858 -66.811302 -107.48005 10722451
47.249569 -66.83754 -107.05639 9999237
48.109615 -66.886375 -106.63007 11840157
48.90218 -66.982735 -106.21651 9078392
127.06572 -67.124222 -36.847294 6709849
127.38477 -66.945755 -36.103462 5788489
127.69739 -66.81591 -35.32346 5919819
44.92004 -65.661865 -108.63213 9011320
45.648632 -65.893967 -108.19403 8288366
46.473972 -65.970291 -107.77303 12236202
47.417583 -65.923027 -107.34599 10920341
48.105133 -66.12278 -106.94032 11445655
127.68671 -66.083824 -36.188164 6314839
128.02861 -65.861954 -35.425266 5722444
128.28894 -65.830124 -34.688122 6511954
44.208324 -64.823814 -109.30676 10853012
44.879032 -65.038498 -108.90308 10195082
45.772015 -65.016136 -108.4899 9538177
46.752499 -65.024269 -108.02309 14012612
47.382236 -65.297508 -107.61511 13354682
128.30424 -65.009323 -35.576279 9472640
128.67068 -64.855423 -34.662731 6511954
129.01468 -64.563492 -33.9729 6511954
42.781551 -63.548878 -110.4958 9537150
43.366741 -63.722385 -110.14909 8418671
44.15411 -64.000061 -109.6648 9668738
45.136341 -64.096474 -109.16156 9603457
45.994316 -64.114494 -108.74865 9341054
46.498558 -64.37645 -108.40461 11512479
128.63959 -64.177429 -35.526459 10262156
128.96519 -63.929035 -34.841591 8814709
129.32687 -63.7495 -33.971474 8814709
41.999329 -62.647881 -111.22919 12432037
42.642262 -62.894188 -110.8258 10392457
43.507553 -62.90197 -110.4136 9405564
44.40884 -62.873112 -109.99914 9406078
45.156319 -63.231758 -109.50105 9077368
129.30673 -63.054108 -34.822281 8288106
129.6115 -62.809692 -34.194839 8748401
129.92477 -62.756592 -33.32473 7958630
41.080341 -61.757324 -112.023 7301479
41.858658 -62.005562 -111.55489 8879994
42.824184 -61.967682 -111.11369 9931907
43.665417 -62.035027 -110.68879 10129286
44.335312 -62.151295 -110.32517 8092019
129.93333 -61.95393 -34.212318 6643539
130.2554 -61.810368 -33.4188 9076853
130.59367 -61.640121 -32.607571 8616048
39.813522 -60.603142 -113.14568 9208435
40.392265 -60.771713 -112.78081 8748405
41.183094 -60.988201 -112.30695 7696236
42.095379 -60.951336 -111.89498 7696237
42.938431 -61.091419 -111.4141 9274493
43.584614 -61.349415 -111.00368 9537150
130.56725 -60.938835 -33.598671 9273975
130.90726 -60.85944 -32.729259 8813426
131.32773 -60.57338 -32.065666 7563619
37.426407 -59.512924 -115.53683 9735555
38.232574 -59.632927 -114.74462 9143418
38.941929 -59.834393 -114.24081 7630183
39.81316 -59.923824 -113.7673 7564132
40.639301 -60.070656 -113.21548 7958633
41.436222 -60.174229 -112.75152 7762029
41.985683 -60.259796 -112.41942 8617080
131.36368 -60.179596 -32.908066 8089963
131.83026 -59.931412 -32.170975 7564136
132.32135 -59.577995 -31.800741 7037274
21.771984 -58.836517 -129.47034 9341571
22.578377 -58.954411 -129.36859 9604743
23.268177 -59.231861 -128.26225 10657429
24.109516 -59.230453 -127.6796 12828079
24.94347 -59.22905 -127.09078 10460049
25.579098 -59.227661 -126.32719 8355190
26.399242 -59.226292 -125.73591 10854036
27.019749 -59.224892 -124.97131 10787985
27.826248 -59.223503 -124.37757 9998727
28.625343 -59.222153 -123.77796 11051928
29.224812 -59.220798 -123.01603 9999495
30.203968 -59.219349 -122.57272 9932934
30.595291 -59.218086 -121.65151 9537409
31.589371 -59.216518 -121.072 9668995
32.276134 -59.215195 -120.40012 8090219
33.034256 -59.213806 -119.78928 8748659
33.927433 -59.212307 -119.13332 9537402
34.476154 -59.210953 -118.37118 7827561
35.347683 -59.230473 -117.6909 7762027
36.061722 -59.265751 -117.01987 8814711
36.856274 -59.310387 -116.41524 9077626
37.661263 -59.316124 -116.03076 9406590
38.341354 -59.450901 -115.30567 9011832
39.051529 -59.471424 -114.91562 8222061
21.148991 -58.020851 -129.79907 9407874
21.901634 -57.916523 -129.79974 9736583
21.112926 -56.990356 -130.17703 9736836
21.839413 -57.019905 -130.13014 10263180
20.312889 -55.998203 -130.57898 11184026
21.058376 -56.071709 -130.51514 11578784
20.36282 -55.081955 -130.91101 11578527
21.071423 -55.198368 -130.83333 11907749
19.551678 -54.104282 -131.30827 10722446
20.411736 -54.180988 -131.23756 9801858
18.88134 -52.973534 -131.75443 10985361
19.627197 -53.132275 -131.65941 10327688
20.347473 -53.406792 -131.52344 9012599
18.767109 -52.062145 -132.09286 9077369
19.556091 -52.263172 -131.98029 9078392
18.020287 -50.968601 -132.52922 8419696
18.812057 -51.155834 -132.42154 8880247
19.595032 -51.509396 -132.25363 10261132
17.996754 -50.110638 -132.84366 8682868
18.825565 -50.232109 -132.75818 8090987
17.337948 -49.072006 -133.25563 9405816
18.168781 -49.191761 -133.17064 8814196
16.556774 -47.802067 -133.75813 10654857
17.304958 -48.118496 -133.60541 9800060
18.035133 -48.385815 -133.47153 9208435
16.589077 -47.049786 -134.0312 10391941
17.388329 -47.243916 -133.92064 9734267
15.832259 -45.810997 -134.52109 11181969
16.508595 -46.183693 -134.35139 10523783
17.267338 -46.334541 -134.25864 11378324
15.444179 -44.618649 -135.43257 11181969
15.894446 -45.070183 -135.06778 11510934
16.570362 -45.435406 -134.78931 9208435
15.500625 -44.414707 -135.94022 13155759
121.40105 -74.050385 -42.966812 10721685
122.00958 -74.048912 -42.099678 10590356
122.83955 -73.817467 -41.551025 7761773
123.23936 -73.63488 -40.729427 8748409
123.23583 -72.95845 -41.574383 6840925
123.55503 -72.763199 -40.849411 8879479
123.86761 -72.616653 -40.088398 8155757
123.85581 -71.892128 -40.948055 8945014
124.21164 -71.766495 -40.034904 8089963
124.51288 -71.521004 -39.420166 8089963
124.42388 -70.948891 -40.335461 9142649
124.80333 -70.82756 -39.347286 7892840
125.06132 -70.66098 -38.771278 7564642
124.68638 -70.298584 -40.296463 8089963
125.05463 -69.958717 -39.590359 8353391
125.40852 -69.854355 -38.658825 7761509
125.40986 -69.006874 -39.619396 8287853
125.71293 -68.93029 -38.806885 7761254
126.07403 -68.712112 -37.983459 5919050
126.03499 -67.941681 -38.976246 7827047
126.34173 -67.90509 -38.107388 6905945
126.69032 -67.571571 -37.452442 7169117
49.254402 -66.65731 -106.18134 7697257
50.058567 -66.843605 -105.72605 7038306
51.037601 -66.816414 -105.27426 7696237
51.854473 -66.919907 -104.84653 8946045
52.402615 -67.17025 -104.48662 8617081
126.36324 -67.204788 -38.840557 9734788
126.68243 -66.868904 -38.275486 8550770
126.98338 -66.840637 -37.414417 7498596
127.29975 -66.551529 -36.804569 8684155
48.540768 -65.839989 -106.8485 8683892
49.373962 -65.872284 -106.44154 7762795
50.234581 -65.929619 -106.01156 7433831
51.10281 -66.019913 -105.56466 8617081
126.92257 -66.17955 -38.347435 8287859
127.29174 -65.848213 -37.628685 7959150
127.64703 -65.752151 -36.683437 7235939
47.218605 -64.675385 -107.9435 13354682
47.719723 -64.941269 -107.59932 11051928
48.572227 -64.970512 -107.18448 9670276
49.588432 -64.963249 -106.70698 7828588
50.397053 -65.148666 -106.24987 8749432
127.6468 -64.903381 -37.6497 9537667
127.951 -64.833725 -36.825325 6183253
128.31325 -64.623383 -35.988487 9143677
46.331779 -63.756748 -108.73351 8682867
46.965103 -64.027916 -108.32462 12696496
47.947208 -64.041161 -107.85497 8814714
48.839748 -64.031258 -107.43703 9143167
49.504795 -64.260437 -107.03013 8091760
128.27263 -63.850609 -36.988239 5393738
128.58063 -63.820858 -36.107059 8288369
128.93024 -63.494312 -35.439926 7893610
44.966053 -62.546623 -109.86752 8682867
45.537369 -62.738731 -109.51984 10721934
46.31403 -62.979939 -109.05531 10524555
47.291004 -62.917034 -108.61881 12432553
48.073116 -63.105309 -108.17309 8419702
48.805508 -63.408161 -107.70467 8814203
128.601 -63.119606 -36.84425 5392706
128.92107 -62.789928 -36.268368 7432033
129.22342 -62.768124 -35.395 7169371
44.060741 -61.643402 -110.65989 8092019
44.774029 -61.863083 -110.23404 8289140
45.664429 -61.880299 -109.80619 10129798
46.540928 -61.919796 -109.37586 9801090
47.267712 -61.978401 -109.00861 11708571
129.16113 -62.104248 -36.335293 5392706
129.53159 -61.779831 -35.603638 6511698
129.84592 -61.734329 -34.721752 6972504
42.699734 -60.499557 -111.88102 10853012
43.186012 -60.616459 -111.55376 10195081
44.055622 -60.999805 -110.92989 9143936
44.923748 -61.003529 -110.52181 8881021
45.789585 -61.00948 -110.11076 9932936
46.527596 -61.166065 -109.68629 9274747
129.84366 -60.988907 -35.632851 8287850
130.22095 -60.830708 -34.833073 9208694
130.642 -60.591187 -34.06242 8945266
41.055664 -59.570587 -113.64238 8681843
41.863522 -59.738235 -113.00851 8814459
42.678051 -59.856255 -112.50825 9340545
43.503651 -60.052773 -111.88797 9866374
44.238888 -60.252617 -111.37067 8881021
45.118008 -60.348434 -110.87601 11182748
130.67345 -60.201889 -34.906376 12236202
131.08002 -59.952946 -34.286327 9669506
131.59091 -59.729683 -33.484764 8946045
132.24078 -59.445713 -32.787479 7564651
23.178341 -58.865974 -129.36549 10064008
23.988068 -58.958141 -129.25519 8879734
24.802742 -59.230633 -128.49954 10460049
25.562637 -59.229225 -127.8301 9670535
26.162384 -59.227936 -127.13571 7367010
27.060795 -59.226353 -126.49067 9209211
27.643452 -59.224964 -125.68218 10985622
28.530174 -59.223614 -125.14687 12301482
29.254246 -59.222214 -124.47192 8486259
29.971268 -59.220863 -123.79823 8354163
30.838062 -59.219471 -123.24983 12432037
31.384129 -59.218105 -122.44512 10063753
32.34359 -59.216541 -121.82285 10261132
32.913738 -59.215183 -121.04903 7958890
33.871151 -59.213806 -120.58091 8418923
34.427032 -59.212505 -119.80631 7366237
35.174141 -59.211151 -119.18217 7629666
35.913864 -59.20977 -118.55279 8354161
36.708775 -59.208229 -117.8232 8156780
37.513866 -59.206886 -117.24479 8485488
38.15379 -59.205544 -116.55447 9669762
38.955006 -59.255524 -115.73419 9077625
39.697777 -59.332027 -115.07892 7695973
40.519211 -59.371338 -114.53773 8024169
41.341076 -59.420269 -114.01039 8681843
42.012432 -59.407211 -113.73915 8813943
132.75819 -59.277828 -32.912724 7564651
133.239 -59.20575 -32.184597 7892583
22.439651 -57.577145 -129.89694 9144449
23.208981 -57.944679 -129.72452 8748149
24.090153 -58.20866 -129.58438 9011320
22.485535 -56.819752 -130.17114 9407619
23.266209 -57.032604 -130.05469 9011577
21.76638 -55.55703 -130.66791 13815233
22.422874 -55.946148 -130.49323 8355190
23.164627 -56.114101 -130.39508 8092019
21.756336 -54.820099 -130.9375 12038824
22.540417 -55.036137 -130.81967 9868171
20.991234 -53.788147 -131.35223 11116948
21.817642 -53.932373 -131.25858 11841444
21.058105 -52.880726 -131.68027 8814969
21.835938 -52.992214 -131.60098 10723219
20.264931 -51.971508 -132.05162 8289136
21.010246 -52.01907 -131.99725 7828078
20.154846 -51.031807 -132.40019 9209469
20.902958 -51.056435 -132.3541 8814971
19.436325 -50.136753 -132.76268 8617075
20.196163 -50.000809 -132.7746 9077882
18.757153 -49.00943 -133.20801 10261132
19.530994 -49.113937 -133.13144 12103591
18.69371 -48.109787 -133.53964 10392201
19.44566 -48.148674 -133.48814 10459279
17.99448 -46.955883 -133.99571 10129025
18.739807 -47.167061 -133.88159 9011834
17.201782 -45.647106 -134.60854 9931646
17.984825 -46.019386 -134.37482 9866371
18.673187 -46.312862 -134.19682 9012093
16.583496 -44.636368 -135.35904 11181969
17.304241 -44.944214 -135.08234 9800316
18.110477 -45.161381 -134.8909 9603713
15.798522 -43.999134 -136.15283 11181969
16.578255 -44.243076 -136.0065 12431780
15.841018 -43.385941 -136.63171 9537921
119.48678 -73.688965 -46.358479 7564643
119.97632 -73.73391 -45.805126 10788244
120.62586 -73.745651 -45.097038 8945532
121.18356 -73.80983 -44.296818 8485495
121.98235 -73.765068 -43.614426 7564651
122.48829 -73.719444 -42.815647 7630187
122.86053 -73.423744 -42.158878 7038307
120.76145 -73.29805 -45.194702 9340289
121.58894 -73.064842 -44.426773 9077374
122.19676 -73.022026 -43.792725 8090736
122.82507 -72.724503 -43.03511 7498852
123.15285 -72.682266 -42.135109 6643542
123.46923 -72.377525 -41.543037 6511954
123.14053 -72.030388 -42.913616 9406590
123.42997 -71.830231 -42.282368 8156523
123.70238 -71.79744 -41.511147 8484975
123.65495 -71.134857 -42.406059 8353902
124.02305 -70.955124 -41.518135 11050643
124.30748 -70.815491 -40.832691 10984593
123.98797 -70.291473 -42.377518 6511954
124.31426 -70.022552 -41.715111 11445658
124.68087 -69.879883 -40.789318 11576732
124.70615 -69.08007 -41.624542 10064009
124.97399 -68.944542 -40.983894 9537664
125.29977 -68.816719 -40.16254 9011577
125.31467 -68.046188 -40.995182 7367007
125.62448 -67.878876 -40.265968 9077113
125.93417 -67.713211 -39.535519 9208700
52.252392 -66.538239 -104.81221 9734787
52.87051 -66.832047 -104.40176 8288369
53.839008 -66.875839 -103.92645 6907487
54.776081 -66.863312 -103.48867 9538435
55.481541 -67.123161 -103.05063 8419698
125.94889 -66.942368 -40.369057 9537665
126.27528 -66.817596 -39.542309 8353390
126.54306 -66.687622 -38.89542 9734788
51.443195 -65.668091 -105.54568 10261391
52.19762 -65.880318 -105.10339 9471616
53.056236 -65.949669 -104.66952 8616050
53.956795 -65.96064 -104.23946 7960174
54.676258 -66.155884 -103.82076 9144190
126.56797 -65.88678 -39.732937 7761257
126.93567 -65.753174 -38.793652 7432808
50.720867 -64.752319 -106.25674 9736070
51.436016 -64.994072 -105.82107 11906468
52.379025 -64.968918 -105.3854 10524559
53.282696 -65.048538 -104.92603 8681843
53.974014 -65.302956 -104.49656 8091760
126.94054 -64.95974 -39.682293 7038307
127.22668 -64.828094 -38.982758 7893358
127.55834 -64.694756 -38.149746 9932424
49.39661 -63.715031 -107.30132 8814203
49.908783 -63.935322 -106.97035 7170659
50.74979 -64.023041 -106.53735 7828332
51.737263 -63.997089 -106.08096 11840932
52.490467 -64.164513 -105.65728 11906725
53.114796 -64.349579 -105.28749 11906725
127.59554 -63.836174 -39.015865 7498601
127.86855 -63.813538 -38.230679 7827565
128.17096 -63.619438 -37.553169 5393738
48.514622 -62.788788 -108.09214 7564651
49.168056 -63.031624 -107.6852 9011582
50.099098 -63.060249 -107.23348 8617335
50.967205 -63.118347 -106.79959 7301478
51.686993 -63.192604 -106.42936 7893615
128.18452 -62.847237 -38.39114 8155755
128.51204 -62.72953 -37.552116 6642773
128.78075 -62.605236 -36.895298 5392706
47.726055 -61.764252 -108.87835 11116437
48.511349 -61.945919 -108.43375 9143167
49.354572 -62.04018 -107.99707 9406082
50.214615 -62.083092 -107.57316 9406338
50.965912 -62.360512 -107.10603 7630443
128.80453 -61.802921 -37.737164 8813942
129.17365 -61.677002 -36.783924 5984843
46.271626 -60.676254 -110.05672 9932419
46.975872 -60.892536 -109.61102 9538175
47.825092 -60.916523 -109.20136 9406589
48.699642 -60.961491 -108.76297 9011835
49.574642 -61.123585 -108.26291 9077118
129.11765 -61.052536 -37.660507 9734788
129.49863 -60.824841 -36.987129 6313808
129.86064 -60.683617 -36.194756 6576978
130.20778 -60.481415 -35.619484 9537659
43.326283 -59.530907 -112.71965 9734531
43.991421 -59.521198 -112.44273 8879479
44.765759 -59.667595 -111.74892 9932682
45.606949 -59.758949 -111.25574 12629679
46.341022 -60.020855 -110.59318 9998472
47.147572 -60.113991 -110.13107 9866883
48.016552 -60.275105 -109.5798 9341053
48.685154 -60.381317 -109.17612 9209467
130.33913 -59.98386 -36.409931 7827303
130.82484 -59.782501 -35.550243 11249051
131.49722 -59.463062 -34.953876 12828339
131.838 -59.424843 -34.199978 13420477
24.587711 -58.678047 -129.38828 9932678
25.372383 -58.923161 -129.21089 9932935
26.20628 -59.097511 -128.7747 8222060
26.826504 -59.227955 -127.79154 8617074
27.848743 -59.226524 -127.35615 7827814
28.274323 -59.225117 -126.39851 11183002
29.283195 -59.223721 -125.95662 14340554
29.890461 -59.222332 -125.17107 9208958
30.68858 -59.220936 -124.55442 8814201
31.479191 -59.219463 -123.93194 10590351
32.065231 -59.218128 -123.14967 9340030
33.040634 -59.216736 -122.68143 9998217
33.413269 -59.21542 -121.74283 8880507
34.574726 -59.21397 -121.42005 8418923
34.932594 -59.212673 -120.48528 6642515
36.006268 -59.211063 -119.89501 7367008
36.567013 -59.209789 -119.17411 8222573
37.382561 -59.208389 -118.5934 8354159
38.171661 -59.206867 -117.84847 8024937
39.001621 -59.205475 -117.25085 9866885
39.607021 -59.204144 -116.55688 8879990
40.423599 -59.202782 -115.95232 7564386
41.015751 -59.201485 -115.25584 6643540
41.774551 -59.234432 -114.59688 7300958
42.648891 -59.292458 -113.78977 9405823
43.474361 -59.315498 -113.33868 9208444
44.285442 -59.369724 -112.80037 8221549
44.818409 -59.362411 -112.57586 8616307
132.12407 -59.246246 -35.116875 14605262
132.46515 -59.223255 -34.325199 14078151
132.96652 -59.140484 -33.639015 11051420
133.80234 -59.055492 -32.995605 8288116
134.6944 -59.02676 -32.357029 9734528
24.601791 -57.938198 -129.65771 10393485
25.488525 -58.10537 -129.5515 9866631
23.916004 -56.813404 -130.10245 10854036
24.69672 -57.048077 -129.97801 9472129
25.311142 -57.381889 -129.82565 10853012
23.195629 -55.617306 -130.57495 8092019
23.876362 -55.947208 -130.42068 9999243
24.594891 -56.180717 -130.29982 8880251
23.113556 -54.883564 -130.84692 8092019
23.935936 -55.019764 -130.75639 8618105
22.360889 -53.592205 -131.3558 11709860
23.139194 -53.955971 -131.18436 8552569
23.927353 -54.155945 -131.07217 7565675
22.442787 -52.891666 -131.60754 11052440
23.266186 -53.013939 -131.522 8092018
21.724094 -51.69186 -132.08133 8814971
22.457844 -51.97036 -131.94319 11249563
23.08099 -52.296047 -131.79332 10459537
20.930351 -50.561588 -132.53345 8814971
21.620552 -50.88324 -132.38171 8881020
22.458477 -51.05743 -132.27652 11183514
20.84166 -49.831612 -132.80434 8419695
21.673317 -49.959152 -132.71652 9012089
20.071175 -48.552109 -133.30977 13024949
20.860161 -48.90712 -133.14099 8485745
21.657814 -49.098736 -133.03143 8551281
20.148411 -47.852703 -133.56134 10327692
20.981071 -47.966785 -133.47833 8551282
19.413017 -46.662376 -134.0325 8420470
20.156445 -46.933491 -133.89656 9340543
20.788498 -47.25256 -133.74869 9735555
18.6227 -45.591858 -134.63248 9340801
19.356426 -45.838337 -134.40779 8617592
20.134575 -46.109993 -134.19835 7499368
18.599659 -44.856197 -135.07323 9209213
19.449623 -45.118618 -134.8506 8683385
17.17902 -43.910061 -136.19937 10458246
17.922981 -44.230782 -135.98282 10655113
18.769192 -44.469913 -135.71873 10786699
15.79013 -42.829391 -137.55618 12432037
16.472214 -42.996243 -137.21805 9011835
17.123302 -43.385975 -136.51805 9537400
17.863621 -43.531269 -136.38405 10260611
118.27128 -73.352966 -47.854675 9735814
118.67578 -73.463364 -47.357513 11708572
119.18232 -73.603592 -46.733906 8354159
119.91891 -73.434616 -46.030361 12433069
115.55932 -72.652542 -51.166111 6511442
116.148 -72.65168 -50.53059 6511954
116.72182 -72.759911 -49.851788 9012088
117.41456 -72.790886 -49.086563 9801349
118.07293 -72.885918 -48.32357 8946556
118.80936 -72.799126 -47.575394 10459022
119.43461 -72.923607 -46.832119 8485745
120.19279 -72.801125 -46.079666 11840932
120.80849 -72.825951 -45.40049 9669509
121.52042 -72.608986 -44.748516 9340289
122.07191 -72.541763 -44.188622 7301214
122.71888 -72.351624 -43.592255 9406590
116.9053 -72.253441 -49.929729 8879478
117.71432 -71.998894 -49.19458 9472387
118.35744 -71.994308 -48.502254 8552312
119.05632 -71.825302 -47.838924 8815227
119.70964 -71.876625 -47.104649 9867398
120.40749 -71.817986 -46.381859 10985623
121.0658 -71.876007 -45.638332 8946040
121.76949 -71.823769 -44.905704 7827559
122.43322 -71.888596 -44.152668 7695972
123.02732 -71.815323 -43.436062 9406590
119.95991 -71.198196 -47.202518 12433069
120.55288 -71.059914 -46.636383 12234916
121.32171 -70.928307 -45.876381 9735040
121.9862 -70.838791 -45.206383 7367007
122.6806 -70.825432 -44.462692 8287853
123.29868 -70.944695 -43.585606 9011832
123.66186 -70.754974 -42.817978 8880246
122.11507 -70.290306 -45.364979 6511954
122.97221 -70.15377 -44.512165 7301214
123.57866 -69.979797 -43.853931 9867140
123.95377 -69.914261 -42.908333 8485744
124.3268 -69.598328 -42.160835 10787726
123.94281 -69.255447 -43.690578 9735296
124.26099 -68.950409 -43.093395 9603710
124.59711 -68.871765 -42.185337 9669503
124.55125 -68.215469 -43.068348 9735296
124.90191 -67.869637 -42.421146 11248019
125.21217 -67.821915 -41.554665 6972505
55.810425 -66.731201 -103.05311 9142907
56.608696 -66.945122 -102.58968 9340030
57.586773 -66.949951 -102.12556 9537409
58.400883 -67.081123 -101.68801 9405822
59.069614 -67.357079 -101.26083 10591118
125.1894 -67.093353 -42.451355 9735296
125.55514 -66.805222 -41.693764 6972249
125.83717 -66.753967 -40.915089 7235165
54.427486 -65.625656 -104.15189 8091760
55.11623 -65.885597 -103.72173 9669762
55.946125 -65.945137 -103.30557 9406334
56.803532 -66.030769 -102.86589 9997960
57.668583 -66.149986 -102.4091 9800581
125.84342 -65.950951 -41.81044 7169117
126.21427 -65.776772 -40.907967 7760741
126.56062 -65.469307 -40.230072 7760741
53.722805 -64.775688 -104.82808 9340030
54.317623 -64.955696 -104.47422 8353905
55.165989 -65.012253 -104.05034 8419183
56.179119 -65.037354 -103.56123 8550769
56.961018 -65.296532 -103.0872 9011064
126.175 -65.11615 -41.776367 8681843
126.50323 -64.852509 -41.102264 7234653
126.85883 -64.706734 -40.212818 6445394
52.860554 -63.825272 -105.61928 11906725
53.586224 -64.014191 -105.19993 10590352
54.563305 -64.058273 -104.72021 8616818
55.452488 -64.076378 -104.29253 6774358
56.009335 -64.298943 -103.93948 6971481
126.89399 -63.919117 -41.0047 5919050
127.15562 -63.752357 -40.417809 6313551
127.44654 -63.711502 -39.600262 8419701
52.1451 -62.986973 -106.29578 8814715
52.965397 -62.977482 -105.9118 9143421
53.808819 -62.987335 -105.50908 8156523
54.638988 -63.120529 -105.06284 7038298
55.304379 -63.446087 -104.61697 6511954
127.46636 -62.95314 -40.403992 6511954
127.78922 -62.700634 -39.732117 7958376
128.07211 -62.655819 -38.942768 8879479
50.651291 -61.635593 -107.54731 8419702
51.383961 -61.868599 -107.1069 8880509
52.171978 -62.036724 -106.6665 10459282
53.086857 -61.940769 -106.27269 8090992
53.828785 -62.067417 -105.87084 6511954
128.11517 -61.819168 -39.766472 7037274
128.44928 -61.684757 -38.926922 8418928
128.79645 -61.384228 -38.237328 8616307
49.82618 -60.730297 -108.35802 9340289
50.659382 -60.894417 -107.87791 9406082
51.530003 -60.949112 -107.43386 9998474
52.463387 -60.983814 -106.97223 9603716
53.110207 -61.229572 -106.54867 7564392
128.77972 -60.855495 -39.047844 6774102
129.16252 -60.701694 -38.232769 7695204
129.56477 -60.444763 -37.62093 8287342
46.244732 -59.494122 -111.48452 13024949
46.772869 -59.489151 -111.25497 8089963
47.689419 -59.684589 -110.2903 9998469
48.401161 -59.793495 -109.84794 9275260
49.22403 -59.934059 -109.33317 9472124
50.003593 -60.088287 -108.81806 8617079
50.897518 -60.19508 -108.29799 9603460
51.657459 -60.371933 -107.79108 8419702
129.58368 -60.060947 -38.467873 8353647
130.03046 -59.822792 -37.708256 7563874
130.69119 -59.527637 -37.040718 7103323
131.24062 -59.400063 -36.234535 10656658
26.630501 -58.771294 -128.9115 7037274
27.451344 -58.84024 -128.4882 8287853
28.375111 -59.006657 -127.99186 8682870
29.139671 -59.041439 -127.41821 11774885
29.823048 -59.224163 -126.9125 11380384
30.3839 -59.222607 -125.91215 7565163
31.385223 -59.221169 -125.45332 8814201
31.979153 -59.219765 -124.65768 11511192
32.76672 -59.218361 -124.02764 9209470
33.546741 -59.216984 -123.39199 9340801
34.119564 -59.215603 -122.59994 9340801
35.086926 -59.214203 -122.11539 8156010
35.645161 -59.212788 -121.3228 6709078
36.59951 -59.211411 -120.82825 7827558
37.246311 -59.209927 -119.9614 8090987
38.16766 -59.208313 -119.29714 8090987
38.715752 -59.207188 -118.66292 8551282
39.684193 -59.205757 -118.1769 9274748
40.158253 -59.204464 -117.35472 9734787
41.253132 -59.202827 -116.8093 8485233
41.549271 -59.20158 -115.88104 6840663
42.628197 -59.199974 -115.32607 8092019
43.140034 -59.198875 -114.68526 8223091
44.027561 -59.19746 -114.14234 7826791
44.665379 -59.205677 -113.37186 8221549
45.431179 -59.276943 -112.54939 9471873
46.295422 -59.280342 -112.14912 10392973
47.231308 -59.373848 -111.41639 8089963
47.804928 -59.44384 -110.92218 8616819
48.616337 -59.476063 -110.43961 8551279
131.75171 -59.231308 -36.372662 8287598
132.26511 -59.136986 -35.763981 11709858
132.92892 -59.067661 -34.985962 14605006
133.72786 -59.029701 -34.337959 13419965
134.84424 -59.028034 -33.759747 8484461
135.03946 -59.027023 -32.95063 9011063
136.04633 -59.02594 -32.845646 8089963
26.058853 -57.897095 -129.53365 7038307
26.72456 -58.027702 -129.16635 7432288
27.670563 -57.902065 -128.76964 7958889
28.486134 -58.193436 -128.26672 8091761
29.085297 -58.424274 -127.89054 10065038
25.35667 -56.717892 -130.06586 8287859
25.962944 -57.067837 -129.86671 9406081
26.969662 -56.955227 -129.48218 7038048
27.727703 -57.15818 -129.04207 7433574
28.284702 -57.515404 -128.6349 9012606
25.248577 -55.963486 -130.34665 7630187
26.180557 -56.131195 -130.15567 7893102
26.909058 -56.333981 -129.76085 7038307
24.523144 -54.847435 -130.79019 8618104
25.310722 -55.051723 -130.6765 7762285
26.086754 -55.423424 -130.50227 8287859
24.515915 -53.98362 -131.10593 7960432
25.341797 -54.122108 -131.01436 7960432
23.851833 -52.825542 -131.56175 9144191
24.576942 -53.056728 -131.44135 10985878
25.263 -53.387222 -131.28662 7565675
23.121616 -51.635052 -132.03268 11906725
23.810272 -51.961784 -131.8792 10985880
24.536884 -52.192032 -131.75906 11906465
23.115421 -50.862064 -132.31526 9472900
23.909309 -51.078285 -132.1969 9144192
22.265022 -49.781666 -132.75195 10459537
23.061893 -49.977058 -132.64108 8618105
23.858776 -50.173946 -132.52963 9012606
