# .PCD v0.7 - Point Cloud Data file format
VERSION 0.7
FIELDS x y z rgb
SIZE 4 4 4 4
TYPE F F F U
COUNT 1 1 1 1
WIDTH 1232
HEIGHT 1
VIEWPOINT 0 0 0 1 0 0 0
POINTS 1232
DATA ascii
-65.532188 23.785456 174.62775 11314590
-66.691467 23.821947 174.5119 12433069
-63.855122 24.262869 175.27693 9209467
-64.525703 24.275358 175.1454 8354166
-65.445251 24.30172 175.03416 9933196
-66.374275 24.331575 174.94263 11577762
-67.539421 24.369864 174.82851 10985107
-68.708473 24.409218 174.71468 9209467
-69.646996 24.441561 174.62383 9603967
-68.75399 24.976999 175.44827 8682867
-69.43544 24.992624 175.31824 9603967
-70.574265 25.019831 175.10271 11577759
-71.716225 25.048172 174.8886 9867396
-72.641998 25.075068 174.74022 10855060
-73.770355 25.726156 175.65669 10855060
-74.465408 25.745569 175.53035 11249049
-75.39399 25.772104 175.36266 11183510
-76.558846 25.806578 175.15445 12235687
-77.727516 25.842312 174.94771 11446173
-78.916908 26.513321 175.90457 6511954
-79.626892 26.536625 175.782 6511954
-80.562286 26.56398 175.58919 8617331
-81.396225 26.557652 175.17365 8617331
-82.686188 27.191288 175.72427 7234909
-83.504326 27.179506 175.26442 9932163
58.417683 -14.020658 170.84657 8682867
57.38039 -14.131599 171.17305 9734787
56.444462 -14.441235 171.11076 10261642
55.369709 -14.668345 170.88846 10459534
54.349682 -14.605453 170.96428 10393741
53.455826 -14.587704 171.00081 9538432
52.564129 -14.570327 171.03694 9341053
51.452679 -14.549137 171.08163 9538432
50.344326 -14.528474 171.12584 9735812
49.460064 -14.512314 171.16081 9998468
48.454918 -14.452691 171.23366 9603711
47.38073 -14.517361 171.20842 9604223
46.380653 -14.458625 171.2803 10985361
45.505035 -14.444055 171.31361 9538686
44.508842 -14.386429 171.38461 10327435
43.446182 -14.45257 171.35762 10787985
42.45433 -14.39574 171.42685 10130312
41.567566 -14.157143 171.37991 9801347
77.303917 -13.077188 169.90817 10261132
76.463173 -13.305614 170.2308 8353646
75.453827 -13.308847 170.72699 7169117
74.815384 -13.537345 170.94995 5919050
61.379883 -13.633209 170.733 9472127
60.365299 -13.637004 171.14162 10261387
59.767155 -13.641936 171.41791 10853012
40.443737 -13.757953 172.17392 9800835
39.504982 -13.722261 171.8912 8616307
38.57095 -13.687012 171.60899 9603203
37.478596 -13.667703 171.57213 9011063
36.44426 -13.668666 171.79382 11181970
35.408566 -13.669648 172.00893 8879988
34.371662 -13.670649 172.21819 10525071
33.541241 -13.671465 172.38098 11380380
32.710018 -13.672294 172.53973 9144187
25.407284 -13.46306 172.78592 8748918
24.583271 -13.35979 172.4696 10788246
23.763165 -13.257375 172.15454 11380382
77.404961 -12.397407 170.13138 9668995
76.394264 -12.400127 170.62839 9077115
75.754639 -12.628776 170.85179 8419184
24.552818 -12.585615 172.76114 11841188
23.50746 -12.476671 172.35109 9933193
22.623817 -12.234526 172.06354 9143675
78.36673 -11.373459 170.06853 10260875
77.452217 -11.53459 170.45456 9537410
76.696671 -11.718402 170.75316 9142910
23.433804 -11.480044 172.71143 10196620
22.434219 -11.597108 172.23224 8880503
79.444016 -10.498533 169.88893 9866886
78.486511 -10.576116 170.32971 9866374
77.675522 -10.577707 170.72881 10260617
23.162121 -10.565139 172.95381 10065291
22.489658 -10.544438 172.67058 8683381
21.645903 -10.434773 172.34821 8419952
20.951437 -10.077444 172.1879 9406078
80.311409 -9.2479563 169.96417 9603967
79.411331 -9.4894609 170.31052 9866884
78.47699 -9.738883 170.67068 9142910
22.309978 -9.6931257 172.92781 8814971
21.427734 -9.4574518 172.63834 9406335
20.394333 -9.3598194 172.229 10589840
81.420998 -8.2071609 169.83591 9406590
80.45932 -8.2845602 170.27855 9932675
79.610199 -8.5152206 170.60419 9932675
21.168772 -8.6747208 172.83434 9341057
20.357159 -8.5846128 172.51814 10655633
19.549217 -8.4951944 172.2032 9932166
82.379524 -7.2859702 169.73396 9735300
81.416153 -7.3633194 170.17751 9209467
80.453011 -7.4409361 170.62085 9406589
20.358767 -7.6100621 172.90331 9209728
19.520306 -7.5079064 172.58011 8814197
18.723557 -7.2101722 172.35226 9801092
83.22953 -6.2079802 169.74852 9537409
82.376175 -6.4394431 170.07591 9406590
81.411362 -6.5170422 170.52005 8486003
19.491138 -6.5172825 172.9583 8748149
18.463562 -6.4288778 172.54776 10590096
17.593006 -6.2028131 172.25958 10853012
84.194695 -5.2807813 169.64578 9735812
83.428635 -5.4663968 169.94858 9472640
82.503159 -5.6290569 170.33919 8814709
18.4095 -5.6212196 172.84303 10787476
17.399479 -5.5642548 172.42764 10392461
16.750992 -5.3434858 172.23361 9010808
85.163361 -4.3505802 169.54253 10787732
84.395569 -4.536756 169.84592 10787732
83.39724 -4.6300163 170.30028 9604225
82.630531 -4.816452 170.60309 8682867
18.093781 -4.7224407 173.06075 9208187
17.441948 -4.5017734 172.86525 9339773
16.611744 -4.4078736 172.5424 8813429
15.925263 -4.0611334 172.38168 8090987
86.211716 -2.9495239 169.58928 9735296
85.407608 -3.2612243 169.86006 9998471
84.47123 -3.5506482 170.20502 10327437
83.597244 -3.8844485 170.5015 10261644
17.255651 -3.6467571 173.12192 9208187
16.60515 -3.4278717 172.92621 9537152
15.601134 -3.3778219 172.51077 9341054
87.188316 -2.0114126 169.48517 10261132
86.416252 -2.1992116 169.79008 10261132
85.413071 -2.293092 170.24661 10261900
16.198505 -2.5704331 173.08823 10129289
15.453731 -2.6094022 172.75002 9801349
14.528953 -2.491178 172.3958 8880503
87.394646 -1.258496 169.6862 9800837
86.389374 -1.3526977 170.14366 9603457
85.616776 -1.5411774 170.44852 10262156
15.314628 -1.5818255 173.09515 10655889
14.4892 -1.4945762 172.77177 10393228
13.702373 -1.2087278 172.54344 11445399
89.195885 -0.12487236 169.35826 10851980
88.339203 -0.2432386 169.70956 9405819
87.387924 -0.40886551 170.07669 9406078
86.594841 -0.59815937 170.34576 9208955
14.517167 -0.63737708 173.12209 9209467
13.4439 -0.42390087 172.81937 11050899
12.374936 -0.21176308 172.51837 10064262
90.27713 0.8254987 169.4279 10654857
89.479492 0.6349659 169.69977 10786443
88.524925 0.4683255 170.06747 9602939
13.049533 0.2197817 173.16476 10984849
12.412436 0.43317127 173.05925 10721936
11.624876 0.50159633 172.77393 9209467
10.915523 0.64170992 172.57907 9209467
97.08094 1.8114961 169.21552 8485235
96.468445 1.8115505 169.56444 7038307
95.855949 1.8116049 169.91335 7038307
92.374222 1.3093262 169.41229 9999752
91.335342 1.3090335 169.93391 9210491
90.712112 1.3088182 170.24687 11378324
10.124593 1.0749102 173.35387 11905701
9.4805832 1.071149 173.06879 11248796
8.6253309 1.0661412 172.68929 8683131
-4.8088098 1.6297923 173.93599 8880506
-5.5690999 1.6970979 173.65546 9077374
-6.5190234 1.7341486 173.28802 8090737
98.072922 2.7820649 169.05305 13551549
97.415665 2.5391331 169.32666 9341313
96.46666 2.4906597 169.84715 6446425
-5.6487164 2.4895239 173.91017 7762541
-6.5307422 2.5113444 173.56444 9472131
-7.2356696 2.7648697 173.37349 9405822
98.409561 3.5125299 169.16415 11709860
97.45871 3.4637303 169.68561 9209727
-6.4207454 3.4224725 173.93808 9143421
-7.4523654 3.4122753 173.52077 9142650
-8.2788572 3.6205497 173.26468 7958888
99.285172 4.6152344 169.26013 9868171
98.375183 4.3680325 169.57535 8486777
97.516563 4.2447557 169.97649 8814712
-6.637567 4.0723386 174.08617 8682867
-7.5219808 4.4434638 173.87311 8748404
-8.5013819 4.4864249 173.5031 6972249
-9.2605762 4.7670789 173.31412 8879479
101.37298 5.7355738 169.06699 10195338
100.30844 5.4333463 169.31949 10064009
99.404457 5.3991337 169.77669 9735813
-7.9007125 5.3658772 174.08087 10985620
-8.5238123 5.5761237 173.91789 8484976
-9.551919 5.5619392 173.5087 9208444
-10.377155 5.768517 173.26497 9537665
103.99579 6.2615933 168.80025 9341054
103.33636 6.2585692 169.09482 9341054
102.44576 6.2538095 169.46677 8683379
101.77721 6.2502694 169.74304 7565667
-8.7436199 6.2294912 174.08556 11576729
-9.5718536 6.4361281 173.84071 8353391
-10.531633 6.4943147 173.48639 12630447
-9.8649054 7.2359891 174.0365 9735042
-10.625526 7.5163388 173.84686 11314331
-11.406837 7.5906434 173.56894 9932934
-12.071049 7.9302087 173.44011 8682867
-10.858879 8.6137066 174.18182 9932933
-11.474908 8.6018744 173.9353 9735555
-12.418009 8.6279612 173.5751 6775126
-11.565253 9.4107113 174.21426 12695980
-12.524092 9.46486 173.8588 8551025
-13.480215 9.5189877 173.50436 8616818
-12.630698 10.304885 174.14348 6775126
-13.573581 10.328626 173.78242 8090730
-14.498927 10.530154 173.49739 9143418
-12.979985 11.008718 174.27985 6511954
-13.646617 11.349901 174.15077 10063752
-14.426414 11.420752 173.87207 9866884
-15.373454 11.665424 173.59535 8682867
-14.529181 12.460005 174.23578 9208954
-15.48475 12.510576 173.88017 8945782
-16.307768 12.713341 173.6358 9010805
-15.59659 13.359059 174.16606 10064262
-16.536297 13.379148 173.8049 11971487
-17.155106 13.587055 173.64273 10984593
-15.951247 14.070765 174.32391 10984593
-16.61982 14.414821 174.21512 9800320
-17.55312 14.535988 173.90298 8287083
-18.435345 14.90741 173.7225 7169629
-17.513546 15.540112 174.36658 7958630
-18.467354 15.588029 174.01369 8616819
-19.428761 15.644357 173.74992 7959145
-20.127905 15.789069 173.67754 8419440
-28.543156 16.543905 174.86345 5919306
-29.49658 16.655567 174.73579 5919306
-30.548214 16.6528 174.54845 6577491
-31.601091 16.651367 174.36835 7169886
-32.455372 16.656918 174.28775 7038307
-33.428345 16.779861 174.25261 9274748
-34.402828 16.903387 174.21756 11707804
-29.749474 17.343439 174.93994 6116941
-30.599058 17.456312 174.82953 6906712
-31.537933 17.616314 174.72862 7762021
-32.518208 17.576508 174.61449 6775126
-33.503075 17.539324 174.5206 9208697
-34.542149 17.641481 174.47261 11313303
-35.52961 17.605408 174.37889 9406077
-36.409977 17.845695 174.39368 9931907
-37.274166 17.855568 174.32661 8681843
-31.609699 18.378056 174.99586 7564642
-32.581383 18.500452 174.94279 7564642
-33.442204 18.508707 174.87541 8090986
-34.519638 18.519651 174.79137 11970976
-35.59856 18.531269 174.70741 9273979
-36.462975 18.541121 174.64034 9273979
-37.545094 18.554077 174.55659 8550770
-38.628841 18.567696 174.47293 9276028
-39.516544 18.811819 174.48856 9802371
-40.169041 18.82082 174.43849 9210491
-33.706573 19.20701 175.10593 9735812
-34.570019 19.216284 175.03868 9801091
-35.673325 19.464682 175.06439 10589836
-36.535938 19.473108 174.98009 11774108
-37.401104 19.482904 174.90356 8551024
-38.48682 19.497231 174.82004 8157036
-39.574268 19.512268 174.73665 9538688
-40.445713 19.524912 174.67001 9998211
-41.453686 19.586868 174.60999 9735296
-42.65107 19.793064 174.58659 9538432
-43.308418 19.803959 174.53682 9932934
-38.575165 20.216509 175.21454 8420208
-39.655689 20.227282 175.08942 9735300
-40.564533 20.483974 175.1738 9997958
-41.431988 20.493824 175.07408 9735041
-42.51907 20.50749 174.95448 9274747
-43.611431 20.523611 174.84937 9932934
-44.487156 20.537296 174.76662 10590865
-45.398567 20.793425 174.814 9734787
-46.273567 20.806395 174.71529 10854036
-43.527752 21.26465 175.40732 9472383
-44.620663 21.27993 175.28447 9537920
-45.545269 21.543653 175.37248 9471615
-46.423325 21.557268 175.27486 10655634
-47.424541 21.523434 175.1255 8353646
-48.502602 21.641851 175.08311 9340542
-49.451771 21.692118 175.00455 9208699
-50.446678 21.87779 175.02487 9405819
-51.334 21.894848 174.92867 9997955
-48.560886 22.346951 175.61626 9735044
-49.668133 22.367195 175.49551 8616560
-50.670906 22.557251 175.5318 9668734
-51.407887 22.569904 175.43643 10786701
-52.559021 22.424469 175.1834 8946296
-53.675526 22.44812 175.06401 8090730
-54.346836 22.462828 174.9926 7037274
-51.779598 22.915493 175.6554 11906725
-52.449474 22.929605 175.58365 7826790
-53.34417 22.948849 175.48822 7037274
-54.465076 22.973797 175.36934 7037792
-55.569511 23.323709 175.62936 7301478
-56.569744 23.286276 175.40233 8617077
-57.406197 23.386963 175.33743 9208443
-58.42577 23.581902 175.34726 9341057
-59.56287 23.612057 175.23036 10656147
-59.856255 24.198275 176.09068 8089962
-60.520699 24.208008 175.95372 8879478
-61.407543 24.221617 175.7718 9734531
-62.518471 24.239672 175.54597 9866117
-63.409122 24.254913 175.36641 10129289
-64.464493 24.888222 176.2852 7827046
-65.363922 24.905422 176.10709 7564651
-66.490936 24.928049 175.88599 11708833
-67.620811 24.951874 175.66632 10261641
-68.300179 24.966751 175.53534 8682867
-69.399643 25.613873 176.4653 9537918
-70.316925 25.636522 176.29709 10722193
-71.464493 25.665131 176.08214 8946037
-72.615334 25.694944 175.86864 8092017
-73.308136 25.713511 175.74124 10855060
-74.433273 26.368237 176.63519 9539200
-75.384377 26.401506 176.50854 10656913
-76.327873 26.431969 176.35873 9802116
-77.502304 26.46818 176.15143 10459278
-78.444572 26.497984 175.98653 8485488
55.502644 -14.016287 171.72629 9735811
54.61343 -14.001702 171.79843 9538432
53.504387 -13.983963 171.88718 9604226
52.39769 -13.966619 171.97443 10262156
51.514397 -13.953036 172.04314 10262156
50.85273 -13.943062 172.09404 10064777
74.369568 -13.267695 171.27791 5919050
73.433342 -13.316848 171.7196 8090986
72.795021 -13.546021 171.94226 8090986
59.368019 -13.645324 171.60193 9735299
58.568863 -13.652238 171.9698 9866630
57.569118 -13.66138 172.43028 10261132
50.412205 -13.936543 172.12776 10064777
49.53249 -13.923646 172.19411 10195847
48.434628 -13.907924 172.27594 9735296
47.558109 -13.895642 172.34027 8617843
46.464596 -13.880737 172.4194 9538686
45.373051 -13.866217 172.49702 8354671
44.501369 -13.854986 172.55809 9208955
43.631096 -13.844009 172.61821 11313820
42.541027 -13.829328 172.67513 10261643
41.387878 -13.794081 172.45755 9209467
32.086082 -13.672923 172.65628 8092011
31.461803 -13.673559 172.77037 8815222
30.628681 -13.674419 172.9191 9274748
29.586361 -13.675512 173.09917 9866374
28.542997 -13.676624 173.27342 9734531
27.426235 -13.508421 173.52684 9011576
26.396114 -13.432397 173.22649 8288366
25.726496 -13.194068 173.03015 8090987
75.399483 -12.28983 171.16298 7630184
74.486191 -12.451818 171.54808 7169117
73.731735 -12.63625 171.84581 6511954
27.122093 -12.824361 173.78033 9932166
26.449089 -12.585968 173.5826 9669250
25.538013 -12.551817 173.20128 9735811
24.870377 -12.315558 173.00499 11314844
76.471207 -11.415748 170.98578 8419702
75.514595 -11.49438 171.42569 7893615
74.557846 -11.573348 171.86552 7893615
26.260139 -11.941165 173.75449 9932166
25.551228 -11.575946 173.59113 10854293
24.527079 -11.403284 173.21538 11051671
77.269829 -10.57861 170.92836 9668995
76.458328 -10.580585 171.32753 8419702
75.500275 -10.65927 171.76819 8617080
24.528635 -10.394289 173.61316 9077883
23.477621 -10.292016 173.19806 10065291
78.43309 -9.1285543 170.93756 10984594
77.498108 -9.3782578 171.29794 10392202
76.598808 -9.620554 171.64386 9603460
24.270609 -9.6056662 173.81183 8090992
23.445286 -9.5118589 173.49112 9736327
22.623802 -9.41891 173.17175 9209728
79.38533 -8.2091656 170.83798 10853262
78.423401 -8.2871494 171.28056 11445398
77.461502 -8.3653994 171.72305 9735296
23.412741 -8.7297316 173.78535 8814971
22.601337 -8.4254961 173.55371 8222579
21.815815 -8.4069958 173.22046 9012606
80.228111 -7.1338449 170.85503 8486003
79.465645 -7.3190398 171.1563 9472382
78.543938 -7.4816184 171.54503 10919055
22.432001 -7.3544374 173.90294 10459537
21.46994 -7.4946389 173.43054 8420726
20.650063 -7.1058202 173.22853 9012606
81.186676 -6.2089505 170.75471 7039331
80.538223 -6.4406033 170.98099 7762539
79.591568 -6.4878039 171.42845 8025710
21.484587 -6.5236158 173.82001 9012606
20.457693 -6.4629269 173.39879 8551284
19.799812 -6.2387061 173.20207 8813686
82.148415 -5.2812524 170.65372 9406846
81.498497 -5.5136065 170.88054 8551537
80.475464 -5.5143094 171.38428 8156779
79.621788 -5.7470236 171.7113 7039331
21.159298 -5.8329592 173.95146 9012606
20.498188 -5.6087213 173.75339 8287855
19.60681 -5.5957651 173.37209 9142651
18.950661 -5.3731914 173.17545 10261132
82.405914 -4.5061903 170.83847 9143674
81.437355 -4.5842581 171.28427 10459790
80.581985 -4.8175235 171.61198 9012088
20.304813 -4.9632545 173.92424 8089963
19.655201 -4.5261855 173.81508 9274237
18.67403 -4.4542775 173.41811 9800324
84.156212 -2.9495959 170.60196 9735812
83.439537 -3.3238025 170.80455 10394253
82.499344 -3.3590875 171.25357 9406846
81.750481 -3.8850932 171.41112 8946295
19.18008 -3.5194516 174.00633 9800581
18.368666 -3.4413738 173.68541 9076601
17.560822 -3.3638535 173.3658 9010808
84.473892 -2.246242 170.72812 8419184
83.444824 -2.2464113 171.23509 7761510
82.584938 -2.4813628 171.5643 8287853
18.327717 -2.6528778 173.97876 9537152
17.518806 -2.5768867 173.65804 9339773
16.713421 -2.5014706 173.33867 9471359
85.39254 -1.2271776 170.68526 9998728
84.417641 -1.3058138 171.13391 8089963
83.55587 -1.5414494 171.46382 7038298
17.446665 -1.6076397 174.00925 9997703
16.458193 -1.4979221 173.62402 9997703
15.595038 -1.0669608 173.41989 8681843
86.403 -0.2828261 170.64658 8814453
85.514404 -0.31445798 171.06766 9537921
84.736633 -0.59830493 171.26117 8813942
16.387777 -0.52772993 174.01514 9405566
15.405746 -0.42090803 173.67059 9537152
14.544616 -0.20711589 173.45979 9472639
88.204323 0.82503808 170.45361 8682867
87.410568 0.63464153 170.72906 8946039
86.458611 0.46799028 171.09862 9011576
85.60215 0.34897661 171.45065 9537921
15.232156 0.22726637 174.11229 10129289
14.589095 0.44196737 174.00526 9604225
13.587153 0.48107123 173.6041 10460302
95.243446 1.8116592 170.26227 5919050
94.426689 1.8118318 170.72765 6116943
93.813995 1.8119859 171.07663 4868418
90.296837 1.3087748 170.45543 11378324
89.466438 1.3085562 170.87302 10129025
88.637848 1.3084158 171.2937 9735043
12.289018 1.0877899 174.30949 11183001
11.636937 1.0838581 174.02155 11051160
10.771217 1.0787262 173.63928 11445406
-2.7251124 1.6429499 174.77617 9537921
-3.4919047 1.7104052 174.49316 9669763
-4.2565293 1.7775995 174.21091 9735556
96.027542 2.7821455 170.21817 5920082
95.371216 2.5394149 170.49135 5920592
94.607437 2.458653 170.89287 6315093
-3.499783 2.5795622 174.80437 8089963
-4.5423503 2.5708866 174.38318 8354163
-5.3762059 2.7807937 174.12485 7039331
97.019257 3.7563181 170.05722 8814712
96.361404 3.5126109 170.33093 8090990
95.542152 3.5128083 170.79765 4868418
94.885132 3.2691264 171.07083 6315093
-3.7149024 3.2314353 174.95387 8089963
-4.5520673 3.4412985 174.69412 9406851
-5.5921407 3.4307623 174.27332 7039331
98.071609 4.7372656 169.99455 8092019
97.331696 4.5727291 170.28748 9275262
96.549629 4.4905105 170.66443 8814712
95.875809 4.245101 170.91124 8814712
-4.5596261 4.096159 174.92789 8814971
-5.4498 4.4683642 174.70651 10393233
-6.3971066 4.5987453 174.37697 12235174
-7.0658441 4.9397297 174.24307 8682867
99.228035 5.7295613 170.10194 11379356
98.415451 5.5304661 170.40211 9932680
97.398827 5.2316189 170.72404 8814712
-5.8303714 5.61413 174.99037 12169892
-6.454515 5.6051793 174.74181 15130317
-7.4092717 5.6354699 174.37865 10064518
103.02881 6.7707539 169.97018 11906725
102.37082 6.7677946 170.26924 10261895
101.44022 6.5919924 170.42094 8749427
100.44261 6.2434239 170.29514 8222827
99.332626 6.2379942 170.75464 10918803
-6.5368428 6.4103174 175.02249 11775135
-7.5072303 6.4683919 174.66399 9801347
-8.4744997 6.5263076 174.30667 10590092
-7.6056895 7.3042684 174.95026 8682867
-8.5598984 7.3318119 174.58623 10458762
-9.3189039 7.3920207 174.31158 10129798
-10.019506 7.9672256 174.2601 10129798
-7.9513736 8.0055885 175.08716 8682867
-8.622303 8.3473997 174.95657 13023917
-9.4106188 8.4208212 174.67549 12497830
-10.241275 8.6257429 174.42899 9012086
-9.5028477 9.4540644 175.041 10327432
-10.46896 9.507679 174.68243 9472637
-11.299057 9.711957 174.43588 12104098
-10.572557 10.351031 174.96965 9604222
-11.522552 10.374075 174.60553 11446169
-12.145832 10.58247 174.44179 6511954
-10.921266 11.057368 175.10725 5920074
-11.552506 11.489965 175.02753 7433055
-12.46487 11.467578 174.66058 6511954
-13.212109 11.896192 174.53377 9208695
-11.783372 12.381245 175.28337 6511954
-12.408912 12.589759 175.11879 6511954
-13.437939 12.562799 174.70418 9866626
-14.265973 12.765547 174.45787 9406078
-12.634722 13.259152 175.29024 10064003
-13.465735 13.461844 175.04279 8880245
-14.493066 13.433663 174.62845 9208699
-15.115416 13.64166 174.46484 10853012
-13.768787 14.284262 175.27553 8682867
-14.525935 14.338186 175.00252 9208699
-15.471244 14.356413 174.63971 10392973
-14.551725 15.020467 175.29686 9406078
-15.52387 15.297253 175.05333 8814459
-16.424488 15.553189 174.82059 8617079
-17.256409 15.853312 174.62279 9010805
-23.591747 16.452579 175.70293 9736067
-24.445904 16.677145 175.63551 9210491
-25.498743 16.671522 175.44783 7630948
-26.551195 16.666468 175.26044 5657670
-27.392937 16.662865 175.11073 5394754
-28.248276 16.889 175.043 6248529
-25.536217 17.360878 175.69586 8288365
-26.478605 17.632437 175.62619 5789256
-27.445728 17.58194 175.43585 5788488
-28.499424 17.577765 175.24687 6973022
-29.487415 17.651165 175.09758 7565667
-30.1994 17.802591 175.02554 7038298
-26.851976 18.276556 175.79222 6446930
-27.498316 18.505041 175.75967 6709338
-28.466721 18.454803 175.56924 6643545
-29.485529 18.543768 175.42004 7499622
-30.453705 18.494736 175.23013 7827814
-31.312981 18.724062 175.15999 7564642
-28.61467 19.209146 175.93445 6445909
-29.455761 19.20286 175.75285 7499110
-30.538609 19.4394 175.70703 8617331
-31.500523 19.385319 175.46901 7762021
-32.538834 19.486744 175.40883 8090986
-33.45866 19.525204 175.33141 8946296
-34.408131 19.691858 175.32588 9735812
-35.051838 19.696249 175.24992 10260358
-31.689598 20.166458 176.02417 8617331
-32.333141 20.169744 175.94731 7564642
-33.532108 20.299831 175.89929 8617331
-34.517792 20.429398 175.87715 9274234
-35.500797 20.387257 175.72385 9273720
-36.550842 20.494236 175.67645 9208441
-37.535786 20.453449 175.52399 7433313
-38.440941 20.708696 175.60786 8420208
-39.523617 20.719683 175.48308 9735044
-36.573559 21.187136 176.20415 7037274
-37.439529 21.194881 176.10355 8617330
-38.523094 21.205379 175.9781 9077882
-39.436195 21.465731 176.07777 10919316
-40.424839 21.425238 175.91232 9734788
-41.487701 21.537647 175.86752 10129546
-42.482143 21.500343 175.71652 9077369
-43.40229 21.762346 175.80388 8682867
-44.497337 21.777975 175.681 9340285
-43.547626 22.29265 176.38812 9011578
-44.400826 22.29236 176.18855 9208443
-45.4753 22.296522 175.96812 9866373
-46.573376 22.312691 175.83481 8616823
-47.452721 22.663057 176.23045 8616566
-48.530117 22.892038 176.32883 7827308
-49.391678 22.895601 176.13451 8616560
-50.253849 22.899868 175.94128 7827301
-51.400528 23.496677 176.71869 10261129
-52.502476 23.511356 176.53232 9142907
-53.593937 23.521458 176.30585 7826790
-54.465549 23.529072 176.1167 7038307
-55.408791 24.127005 176.89279 8485748
-56.525517 24.146711 176.71619 9208955
-57.420635 24.163326 176.57567 9603458
-58.53056 24.180279 176.36665 10064009
-59.459793 24.583847 176.78557 9012088
-60.387478 24.799067 176.94891 10262156
-61.294296 24.819172 176.81148 9537152
-62.430401 24.845448 176.64064 9405566
-63.566242 24.871515 176.46207 9010808
-64.5467 25.479723 177.16797 7563874
-65.46685 25.503786 177.03374 7563874
-66.619583 25.534863 176.86696 8682867
-67.544678 25.560753 176.73433 9472126
-68.472107 25.587343 176.60236 9472126
-73.72187 26.343809 176.73062 8618360
72.437828 -13.20833 172.25386 9735555
71.525146 -13.371388 172.6382 9932934
70.80233 -13.330035 173.01102 8682867
56.536968 -13.663774 172.79585 10458504
55.424641 -13.647709 172.91214 9472381
54.544659 -13.637229 173.03021 9537923
53.501011 -13.637864 173.35347 9537922
52.455715 -13.638567 173.67162 9998727
51.827702 -13.638998 173.85944 10459278
29.402302 -13.341596 174.56482 9209467
28.706648 -13.313301 174.27443 9209467
28.013742 -13.2853 173.98524 9932166
73.504539 -12.334666 172.07889 6511954
72.548286 -12.414483 172.5182 7038298
71.591782 -12.494701 172.95744 10459534
28.5331 -12.451296 174.53857 9143419
27.532589 -12.413736 174.11984 9669250
74.330673 -11.270796 172.09906 7564651
73.486832 -11.501489 172.42226 8092011
72.529114 -11.58129 172.86226 8092011
28.127159 -11.579556 174.70584 10129545
27.448339 -11.341852 174.50529 9011576
26.566635 -11.440166 174.08449 8617331
25.855522 -11.075213 173.92006 10262155
75.273361 -10.355716 172.00188 8617080
74.449631 -10.434232 172.37633 8091247
73.558212 -10.513408 172.78387 8749685
27.259041 -10.692672 174.6787 9406078
26.582283 -10.457015 174.4783 10787728
25.666134 -10.428909 174.09238 9998726
76.252205 -9.2093153 171.9798 10853012
75.530731 -9.3746519 172.26901 8880252
74.647858 -9.5189991 172.64619 8091501
26.405754 -9.5937538 174.74196 12432037
25.717705 -9.5744762 174.45128 10524556
24.884743 -9.4801807 174.12741 8617333
77.234962 -8.0594091 171.95764 9340539
76.589722 -8.2905111 172.18265 10590350
75.645294 -8.3386221 172.62866 11116435
25.392044 -8.6360435 174.6804 9340798
24.411385 -8.4687357 174.32127 7827823
23.594845 -8.164216 174.08751 8354421
78.187408 -7.1363177 171.85945 9340539
77.540894 -7.3678951 172.08499 9932675
76.520065 -7.3697391 172.58714 10590350
24.392469 -7.4664025 174.70859 8090995
23.562592 -7.3775139 174.38388 11117208
22.883251 -7.3635902 174.09491 11381404
79.142937 -6.210722 171.76082 8090987
78.49498 -6.4428015 171.98676 9011575
77.472809 -6.4442792 172.48981 10130054
76.621002 -6.6769938 172.81593 10590350
23.609804 -6.518208 174.74342 10327438
22.702868 -6.5021162 174.35661 13024433
22.03684 -6.2760162 174.15704 9012606
79.395683 -5.4379301 171.94698 7827815
78.517281 -5.4697895 172.36696 8683123
77.779816 -5.7491198 172.61798 9340539
23.417641 -5.8681073 174.91661 10985364
22.473879 -5.4762297 174.66216 9867140
21.517494 -5.4087305 174.27415 9078140
80.355988 -4.507329 171.84801 9012088
79.592354 -4.5854869 172.19275 9012088
78.772018 -4.5862451 172.59665 7762021
22.124889 -4.5544205 174.8745 9209467
21.406998 -4.4596529 174.60072 8946295
20.597834 -4.4508367 174.25343 8156012
81.385338 -3.3244748 171.81635 8222572
80.512245 -3.3515978 172.2356 7893607
79.602776 -3.699523 172.54384 5985866
21.27536 -3.464252 174.93636 10262156
20.600021 -3.4589024 174.64577 8682867
19.781513 -3.3806186 174.32185 9011320
82.359276 -2.1684313 171.80127 8287853
81.592239 -2.246923 172.14763 9867142
80.825378 -2.3254814 172.4939 10393229
20.562531 -2.6650324 174.94276 8682867
19.519352 -2.5871673 174.52127 9274747
18.636086 -2.3669615 174.22522 9734531
83.330399 -1.2274501 171.70111 7827558
82.561905 -1.306134 172.04808 9537664
81.736992 -1.3063183 172.45444 9735299
19.41177 -1.6482028 174.84508 9209210
18.450228 -1.5014989 174.48613 9275004
17.792051 -1.2842863 174.28654 9735299
84.339836 -0.28307351 171.67177 8813942
83.561966 -0.36198965 172.00386 10524047
82.600899 -0.48042405 172.3963 10524303
18.423904 -0.48907724 174.92567 9209467
17.613144 -0.41763121 174.62819 8946039
16.742552 -0.20238978 174.41353 9406078
86.135979 0.82470262 171.48582 10854036
85.406662 0.66606438 171.74921 8946039
84.516556 0.63429224 172.17332 9143163
83.743301 0.34886527 172.37836 10853012
17.443493 0.23483074 175.07216 8682867
16.480347 0.406003 174.79253 10261131
15.546091 0.51830137 174.47864 9340029
93.201309 1.8121902 171.42575 6510930
92.384262 1.8124629 171.89128 9143163
88.223976 1.308382 171.50494 9735043
87.603195 1.3083316 171.82175 9208955
86.775543 1.3082644 172.24419 9275004
14.481063 1.1008487 175.27782 9209467
13.601194 1.0955765 174.88911 9341309
12.725163 1.090315 174.50209 8682867
0.083667286 1.5152806 175.85623 9735812
-0.55168962 1.7297424 175.67899 9275005
-1.3957372 1.7241391 175.33858 9735812
-2.167089 1.7915069 175.0537 9603714
94.186478 2.7826591 171.26703 6315093
93.440697 2.4914479 171.57108 6511444
92.56263 2.4593673 172.05792 8879734
-0.76527929 2.3837972 175.82993 8616563
-1.3998036 2.5973601 175.65276 8222063
-2.452065 2.5883842 175.22763 8879991
94.970169 3.7567997 171.22469 4868418
94.313103 3.5132432 171.49791 6643801
93.493614 3.5135908 171.96484 7366495
-1.61412 3.2522135 175.8037 7038307
-2.4580369 3.4628263 175.54149 7827820
-3.4384599 3.5254517 175.17105 8221805
95.981224 4.7356052 171.09959 10262156
95.30748 4.4902463 171.34642 6643801
94.482445 4.4903669 171.80672 8090476
93.824577 4.2459841 172.08008 6510930
-2.6748624 4.3379855 175.77112 8617333
-3.558682 4.4588714 175.46045 9143935
-4.3145499 4.6248288 175.21744 8157298
-4.9872336 4.966713 175.07144 7039331
97.352737 5.728241 171.12259 8287600
96.433128 5.4791288 171.42207 8222321
95.638252 5.3957925 171.77975 10985366
94.886993 5.229846 172.052 10853780
-2.8905177 4.9951878 175.92239 8485747
-3.5255437 5.427186 175.82719 10262416
-4.3674617 5.6354084 175.57312 8618105
-5.2044711 5.6231861 175.23967 7039331
100.61793 6.7603674 171.06464 11708316
99.507088 6.7547903 171.53116 9208181
98.502998 6.4059758 171.38116 9076856
97.56076 6.2298131 171.48903 7038307
96.676567 6.2259493 171.85587 7038307
-4.4467492 6.4440327 175.85635 8486263
-5.4252028 6.5018358 175.4946 7828585
-6.2638364 6.708745 175.24571 10985620
-5.5205789 7.3413553 175.78343 8552305
-6.4827161 7.3684225 175.41617 8683379
-7.1116376 7.5783525 175.25087 8682867
-5.8659415 8.0454979 175.92151 8092011
-6.5409417 8.3884001 175.78983 10327688
-7.4246535 8.4597721 175.47052 9143163
-8.1762886 8.888772 175.34215 10853263
-6.724236 9.3654814 176.0977 7038307
-7.3552756 9.5752316 175.93141 7433064
-8.3973866 9.5522585 175.51324 8090734
-9.2331753 9.7567215 175.2645 8682867
-7.5764251 10.241385 176.1035 8814201
-8.4153328 10.445858 175.85355 8485237
-9.4553871 10.421445 175.43568 7696228
-10.082649 10.63013 175.27048 9012086
-8.7102966 11.261397 176.05481 8616822
-9.4754124 11.317167 175.77599 9801092
-10.468062 11.572978 175.48566 8748914
-9.5633259 12.139901 176.06133 10064265
-10.461897 12.596994 175.88614 9208699
-11.378624 12.729891 175.57779 8682352
-10.563051 13.317348 176.1265 11707804
-11.399453 13.51999 175.87698 11707804
-12.368043 13.567743 175.515 7103834
-11.700856 14.345694 176.11432 11707804
-12.463393 14.398842 175.8389 8748402
-13.224134 14.452131 175.56413 8682867
-12.560012 15.234505 176.17384 10457995
-13.528603 15.280631 175.81435 9340541
-14.46267 15.763917 175.75101 8551283
-15.213702 15.925214 175.54712 7564651
-13.567583 15.985513 176.29941 9142393
-19.590517 16.485271 176.45857 8089960
-20.440386 16.704519 176.35175 8353903
-21.495369 16.696411 176.1628 9866627
-22.463062 16.643606 175.97263 8814198
-23.404146 16.913073 175.90652 10985622
-20.682194 17.393145 176.56432 7827561
-21.537935 17.617327 176.49649 8748661
-22.382996 17.611063 176.34499 9406079
-23.438656 17.603817 176.15538 10985622
-24.49382 17.59717 175.96611 9867141
-25.349716 17.822622 175.89565 8682867
-22.41568 18.303846 176.59134 9669507
-23.57172 18.485201 176.49013 10656657
-24.545689 18.524471 176.32538 9406336
-25.388866 18.517736 176.15758 9274494
-26.360914 18.557024 175.98344 7367777
-24.824734 19.243856 176.75778 9734788
-25.457062 19.237432 176.61993 8814457
-26.524193 19.34934 176.48166 6841694
-27.470982 19.511871 176.40756 6445908
-28.37393 19.536751 176.23695 6050893
-29.517471 19.69067 176.11487 6972250
-27.890396 20.194679 176.84616 7564642
-28.523865 20.189154 176.70738 5919050
-29.399662 20.42878 176.70869 6775126
-30.455858 20.420887 176.47943 7893607
-31.45277 20.4965 176.32909 8156781
-32.402081 20.662598 176.31615 6972766
-33.262547 20.667574 176.21404 8617331
-31.860134 21.178179 176.9595 7367010
-32.499313 21.176447 176.83954 6644058
-33.351711 21.174627 176.68037 7827302
-34.415642 21.172138 176.47374 7695460
-35.451237 21.503092 176.78433 7958119
-36.376976 21.541164 176.67857 7629667
-37.35218 21.720903 176.7345 8748660
-38.421463 21.721313 176.52745 9341054
-38.592422 22.275183 177.30716 9209467
-39.454552 22.277641 177.15239 11576989
-40.532761 22.281546 176.95998 9734788
-41.396187 22.285421 176.80693 9997960
-42.464027 22.513775 176.94019 9340289
-43.314629 22.853251 177.27457 9340289
-44.40144 22.860783 177.08594 8420469
-45.48946 22.869316 176.89839 10261131
-46.361195 22.876942 176.7493 10260874
-46.566254 23.441257 177.52661 8616566
-47.442722 23.449827 177.37798 7827308
-48.320168 23.458998 177.23012 7827308
-49.418667 23.471558 177.04639 7038307
-50.518787 23.485054 176.86382 7038298
-50.301647 24.050446 177.72028 7038307
-51.408035 24.065132 177.53828 8090477
-52.516407 24.080835 177.35738 9406335
-53.404751 24.094252 177.21355 10261644
-54.294476 24.108318 177.07051 9933191
-56.554806 24.721931 177.5415 10985367
-57.453945 24.738972 177.40088 10656402
-58.579891 24.761101 177.22614 10524560
70.397064 -13.332342 173.20984 10459534
69.58596 -13.337271 173.60764 9735554
68.629082 -13.418922 174.04648 10196105
51.408466 -13.63929 173.98338 10064777
50.569267 -13.639884 174.2278 9670018
49.518707 -13.640647 174.5282 9735296
48.677063 -13.641271 174.76384 9209467
48.045055 -13.641747 174.9381 9537921
31.441307 -13.281749 175.47179 9012601
30.657873 -13.249594 175.14499 8617845
29.867968 -13.36062 174.75903 8091760
71.362717 -12.193151 173.19136 10459534
70.519821 -12.424628 173.51392 11051671
69.561897 -12.50578 173.95343 12564394
30.514366 -12.526402 175.36746 8617845
29.695488 -12.495054 175.02498 8683638
29.026237 -12.040772 174.91382 9209467
72.300385 -11.278771 173.09645 8092011
71.543678 -11.464306 173.39494 11708833
70.55542 -11.560226 173.84348 11708833
69.798691 -11.74644 174.14166 15722454
30.459038 -11.661352 175.68402 9011320
29.771139 -11.421272 175.48042 8683381
28.701397 -11.341567 175.04829 9406078
73.304749 -9.905056 173.15312 14077894
72.552109 -10.29961 173.36568 10064777
71.594498 -10.499509 173.75734 8550513
70.735611 -10.82976 174.04799 8089963
29.280548 -10.613351 175.58597 8945527
28.430912 -10.514505 175.25673 9406078
27.585487 -10.416516 174.92889 8880246
74.24868 -8.9854717 173.05717 8092011
73.604828 -9.216773 173.2816 11051928
72.660561 -9.2658825 173.72726 10392974
28.406267 -9.7224436 175.55841 10129545
27.573654 -9.410759 175.32043 9669505
26.866165 -9.6066875 174.93646 11840158
75.195297 -8.0637836 172.9608 10590350
74.550308 -8.2954111 173.18565 8880503
73.52964 -8.2983227 173.68752 10064520
72.68074 -8.5310526 174.01244 9537918
27.561573 -8.4017334 175.7133 10196106
26.703419 -8.5246477 175.29285 10787728
25.876446 -8.2172861 175.05565 9538175
75.498772 -7.3718443 173.08946 10590350
74.565109 -7.327877 173.56715 7564643
73.830902 -7.6066351 173.81683 7564643
26.689444 -7.5150585 175.68512 10327435
25.618052 -7.420135 175.2581 9801349
24.713285 -7.185791 174.95833 8090995
76.393181 -6.3689346 173.052 10590350
75.631638 -6.4474845 173.39565 8682873
74.869995 -6.5261502 173.73927 8617331
26.117569 -6.7806196 175.72697 9932678
25.4394 -6.5511236 175.52354 9406595
24.521982 -6.5345349 175.1324 8090995
77.347572 -5.4403028 172.95512 8024941
76.584869 -5.518786 173.29933 9801094
75.764893 -5.5201206 173.70279 8353909
25.260349 -5.68011 175.78961 8814716
24.583822 -5.4526043 175.58611 8288374
23.719427 -5.3536034 175.25044 8485750
23.009453 -4.9977579 175.08304 9209467
78.156624 -4.5868773 172.89963 7762021
77.541031 -4.5875597 173.20261 7038302
76.590073 -4.6353402 173.65195 9011838
24.403622 -4.5810018 175.85196 10985369
23.728722 -4.3556266 175.64821 9209467
22.68277 -4.3008986 175.2164 9209467
79.335472 -3.107481 172.91356 4867385
78.534973 -3.4197807 173.1824 4867385
77.739861 -3.5140343 173.53622 6380371
77.027214 -3.888721 173.73665 9011838
23.318768 -3.4810781 175.81558 7959401
22.541767 -3.5181046 175.46416 9209467
21.727148 -3.4678974 175.13078 9209211
80.300034 -2.169204 172.81554 8353902
79.532974 -2.2478213 173.16185 6314319
78.708862 -2.2482553 173.56769 5656901
22.452538 -2.6027713 175.78661 7959401
21.544266 -2.5978708 175.39482 9209211
20.876663 -2.3772306 175.19247 9209211
81.118263 -1.3065 172.75925 9735299
80.499405 -1.3067073 173.06403 8945783
79.674072 -1.3069915 173.47052 9011320
79.019882 -1.5428499 173.69804 6511954
22.258297 -1.9467939 175.96127 7565675
21.548466 -1.5949129 175.79236 9669764
20.692591 -1.5057229 175.45657 9340797
19.879942 -1.2142901 175.21919 9537918
82.38829 -0.12565154 172.75395 10261387
81.497902 -0.36234364 173.02725 10261387
80.67202 -0.36249524 173.43674 10787732
79.98687 -0.59923273 173.60101 9011320
20.520878 -0.48659986 175.83537 10130056
19.53159 -0.45856792 175.42796 10327175
18.74564 -0.19805723 175.28256 10261382
83.339241 0.66592932 172.78098 9932166
82.561653 0.5865885 173.11884 8748404
81.784409 0.507231 173.45656 9011832
19.459227 0.24180019 175.94727 10261382
18.579247 0.45824677 175.73946 10129796
17.764517 0.52785695 175.44322 9209211
17.033115 0.6703819 175.24094 10787732
91.566963 1.8127354 172.35693 9603970
90.544983 1.8131431 172.93922 9209467
86.154778 1.3083141 172.5611 7959144
85.534019 1.3082641 172.87807 8682867
84.706215 1.3082975 173.30086 9471871
16.255516 1.1116356 176.0621 9735299
15.587996 1.1076097 175.76709 9801092
14.922919 1.1035906 175.47311 9932678
2.2133293 1.5286287 176.71484 9209467
1.5726533 1.7439524 176.53593 8617075
0.59294748 1.781108 176.15656 8682612
92.344948 2.783473 172.31638 8287597
91.485184 2.5409269 172.70549 8880246
90.66658 2.5413833 173.172 9209467
1.3598657 2.401237 176.68829 8288365
0.72014189 2.6156874 176.5094 8024170
-0.25756407 2.6510015 176.13013 9275005
92.559258 3.562922 172.5175 8616562
91.628624 3.3928118 172.97705 12103588
0.50648928 3.4941754 176.74152 6643285
-0.34438848 3.4851074 176.39702 7892840
-1.3338237 3.5477419 176.02301 8353648
93.477211 4.6133776 172.43028 6510930
92.544617 4.4426718 172.89075 10787988
-0.43165255 4.3217688 176.66467 7300960
-1.4079795 4.353713 176.28473 8090991
-2.0424247 4.3458467 176.0275 8090991
95.256355 5.7265825 172.23169 11906468
94.338676 5.4778438 172.52953 8354675
93.544754 5.3948002 172.88693 8092019
92.794968 5.2290874 173.15862 10262926
-0.7741704 5.0247164 176.78149 5393730
-1.4552369 5.3692212 176.63312 7827562
-2.4192243 5.498744 176.29446 8157040
-3.3191123 5.8718705 176.07669 7039331
98.172333 6.7481122 172.08353 8287600
97.506073 6.7449241 172.35953 7038307
96.424492 6.5687594 172.54169 6643543
95.591858 6.3956571 172.6756 7959144
94.576469 6.2245378 172.96573 8881017
-2.4794583 6.5508366 176.67035 8551540
-3.5359368 6.53303 176.24857 8618105
-4.1699309 6.7439733 176.08165 13551549
99.423653 7.2715926 172.34428 8681835
98.547699 7.2682161 172.74312 9208183
-2.4845576 7.2186012 176.92796 8617331
-3.3329597 7.426002 176.67542 10065036
-4.3876519 7.4064312 176.25365 13551549
-5.0210414 7.6168752 176.0867 8092011
-3.6227956 8.2389336 176.87759 10261899
-4.4003644 8.5213413 176.68205 10919828
-5.4008956 8.5564098 176.3028 8683891
-6.2982936 8.9280291 176.09483 11905692
-4.6219296 9.4123449 176.94148 7893358
-5.4678731 9.6176996 176.68904 9143929
-6.4496922 9.670023 176.32384 9143674
-5.6880326 10.286425 176.86252 8880503
-6.407208 10.539117 176.67841 8616822
-7.3028445 10.54719 176.32982 11182230
-6.6160951 11.315015 176.89798 8814201
-7.3873239 11.370299 176.61661 9274494
-8.1565218 11.425526 176.33606 7038307
-7.4721313 12.196513 176.90448 7038307
-8.4560671 12.471471 176.62502 9209214
-9.4378519 12.745612 176.34601 9669250
-8.5620136 13.557621 177.00729 9669762
-9.5259895 13.574533 176.63515 8813942
-10.292845 13.627586 176.35439 8945014
-9.4409161 14.376928 177.01497 8485233
-10.384775 14.462218 176.68274 10787215
-11.151137 14.514841 176.40546 11707804
-10.478524 15.302588 177.03517 9274747
-11.453952 15.346934 176.66389 11379095
-12.293144 15.54902 176.41884 10786703
-11.493731 16.063841 177.24982 11707804
-12.325232 16.032194 176.86839 10523788
-13.154306 16.000893 176.48857 10786703
-17.309391 16.548813 177.32011 9668991
-18.348099 16.519533 176.9277 4866361
-19.328003 16.799736 176.67699 8616305
-17.535507 17.004585 177.41414 4866361
-18.435341 17.38386 177.2312 9274233
-19.433197 17.644072 176.9662 8748150
-20.380352 17.742054 176.7467 7564392
-18.847607 18.36581 177.53487 8616822
-19.552448 18.505136 177.3782 9734788
-20.324436 18.56698 177.18599 9142909
-21.379822 18.554171 176.95946 8353905
-22.456045 18.782972 176.90154 9142907
-23.088306 18.77565 176.76276 10261643
-21.447336 19.283981 177.5058 8617332
-22.528019 19.515478 177.45654 9209467
-23.373329 19.505188 177.26891 9406335
-24.349874 19.542965 177.09077 9537409
-25.510956 19.726204 176.98682 8354163
-26.144114 19.719675 176.84718 7039331
-24.295769 20.231899 177.63904 8814457
-25.353977 20.220032 177.40486 8222577
-26.453012 20.46637 177.44719 6643798
-27.295034 20.454403 177.23074 7827814
-28.380322 20.689518 177.16924 6972250
-28.502819 21.23193 177.92558 7564642
-29.342831 21.217331 177.67992 6840919
-30.391834 21.199831 177.37415 7564642
-31.297588 21.459623 177.51015 7564388
-32.426998 21.723896 177.64346 7104095
-33.497013 21.721489 177.44342 6249814
-34.35326 21.720261 177.28442 6643287
-34.503571 22.272234 178.05394 3749937
-35.363625 22.271654 177.89516 5393477
-36.439503 22.271894 177.69786 7234909
-37.515591 22.273005 177.50185 8748660
-38.287479 22.692215 177.96544 7695975
-39.411449 22.834402 177.9644 10524816
-40.277691 22.837473 177.8096 9340801
-41.361416 22.842165 177.61742 10063753
-43.506176 23.416637 178.05318 7828335
-44.379353 23.422855 177.9017 8881278
-45.472237 23.431561 177.71358 9538436
-49.638634 24.042133 177.83003 9011579
68.398064 -13.118307 174.28101 10985620
67.555534 -13.350801 174.60295 8090735
66.538727 -13.358303 175.10112 9011582
47.412342 -13.642232 175.10974 9143163
46.567787 -13.64289 175.33521 9537921
45.722225 -13.64356 175.55667 11906724
44.663712 -13.644417 175.8275 11117208
43.603638 -13.645295 176.09241 9998727
33.563755 -13.340582 176.36824 9604736
32.471577 -13.251971 175.9299 8618098
31.777428 -13.007602 175.72533 8092011
69.331215 -12.204129 174.1882 13353909
68.574867 -12.390525 174.48621 9603968
67.586121 -12.487866 174.93443 8288115
66.829575 -12.675001 175.23213 7038307
33.236336 -12.632014 176.50522 8092011
32.538448 -12.387731 176.29903 8092011
31.589983 -12.351558 175.90231 8551537
30.898067 -12.109437 175.69781 9011320
69.567909 -11.443955 174.37691 11906723
68.607246 -11.525375 174.81769 8353647
67.762177 -11.758522 175.14053 8617081
32.350433 -11.728962 176.47684 8092011
31.654903 -11.486899 176.27078 8287854
30.79377 -11.384675 175.93793 9011320
71.267303 -9.9129324 174.1541 8089963
70.565216 -10.28201 174.35196 8616563
69.632401 -10.32078 174.79614 9011321
68.90126 -10.839162 174.94835 8089963
31.482651 -10.611463 176.54126 9011320
30.773121 -10.588715 176.24266 9932678
29.915201 -10.489242 175.90999 8879990
72.2089 -8.9921474 174.05974 9734787
71.565033 -9.2240496 174.28406 8484721
70.631699 -9.1818933 174.761 9471872
69.900139 -9.4605913 175.00966 8682356
30.51503 -9.5806208 176.52852 10919829
29.534969 -9.5276127 176.12457 9209211
28.600441 -9.1506882 175.86818 10327692
72.45079 -8.2249975 174.24866 9209210
71.690552 -8.3042965 174.59154 8748405
70.930191 -8.3838129 174.9344 9537663
29.430626 -8.4476795 176.50542 8682867
28.576117 -8.3540039 176.17197 10854036
27.890341 -8.1204996 175.96684 9011320
73.396797 -7.300138 174.15398 7564643
72.635612 -7.3792291 174.49728 9537918
71.874275 -7.458488 174.84068 9866625
28.634602 -7.4842291 176.54048 10854036
27.700102 -7.4641848 176.1433 9932678
27.016466 -7.2326264 175.93835 9932678
74.345741 -6.3729758 174.05913 8617331
73.583504 -6.4519348 174.40295 7564643
72.634018 -6.5006361 174.85117 9669504
28.44389 -6.8252883 176.71779 9011320
27.756687 -6.5936656 176.51134 8748148
26.689327 -6.5305228 176.07352 10261899
75.149651 -5.5211535 174.00545 8617331
74.534203 -5.5223112 174.30824 9735811
73.713165 -5.5239711 174.71208 8090987
73.064926 -5.7577009 174.93758 8682867
27.565369 -5.9348269 176.68839 8089963
26.600136 -5.5370154 176.42686 9011834
25.625559 -5.3590531 176.07462 10261903
76.137581 -4.3564782 173.98706 9011838
75.487755 -4.5903091 174.21313 8288370
74.665741 -4.5915942 174.61758 8617587
74.016312 -4.8257003 174.84337 9736068
26.263918 -4.3839459 176.73608 8092019
25.56855 -4.3761239 176.4377 10985369
24.726734 -4.2940426 176.10518 10985369
77.278023 -3.1090879 173.92654 9011838
76.478035 -3.4217048 174.19499 10327696
75.65464 -3.4226146 174.60033 10722709
75.003662 -3.6574712 174.82664 8617587
25.538923 -3.5726299 176.74187 10459282
24.695915 -3.4923534 176.40813 8880763
23.856966 -3.4126678 176.07587 8419952
78.125206 -2.0138121 173.94946 7761509
77.588989 -2.2959878 174.10027 7893354
76.647392 -2.2496543 174.58278 9340544
75.994873 -2.485137 174.80959 13024949
24.664824 -2.6882629 176.7119 7696744
23.595432 -2.6090193 176.27962 8090987
79.089996 -1.0715967 173.85292 10261132
78.435677 -1.3074803 174.08051 8353646
77.609695 -1.3078399 174.48729 10129545
76.955933 -1.5439237 174.71448 9406078
23.520191 -1.5742992 176.65524 9341054
22.559196 -1.4218007 176.29884 8551797
21.847244 -1.0702461 176.12886 9340801
80.118073 -0.12600988 173.88689 9011320
79.432777 -0.36272275 174.05115 10261132
78.605522 -0.36293077 174.45914 9932167
77.919968 -0.59980643 174.61908 10853012
23.242352 -0.63046092 176.90718 9341054
22.49247 -0.48410523 176.69067 9340801
21.662399 -0.411771 176.38496 9537923
20.77363 -0.19385499 176.16249 10261132
81.271034 0.66579425 173.81322 9011832
80.49353 0.58647835 174.15102 8222060
79.716331 0.50712919 174.48866 9011320
21.499805 0.24893874 176.83308 9340801
20.611221 0.46666461 176.6227 9537922
19.498964 0.68211329 176.31395 9603712
89.522636 1.8136674 173.52179 10131086
88.499619 1.8142577 174.10449 10131086
84.085304 1.3083476 173.61797 9537408
83.46431 1.3083979 173.93513 9537408
82.636131 1.3084818 174.35828 9932934
18.500469 1.1254462 177.05487 9537921
17.599226 1.1199125 176.65623 10458766
16.702059 1.1143905 176.25952 8682867
4.3645597 1.5422355 177.58234 8486262
3.7183018 1.7586201 177.40147 7433830
2.7288556 1.7957746 177.01825 8814709
90.257065 2.5416193 173.40538 11380121
89.642792 2.5420494 173.75543 10854551
88.878448 2.4615622 174.15726 10131086
3.5074358 2.6403685 177.63586 7827814
2.646173 2.6327076 177.2878 8288365
1.6453195 2.6972136 176.90987 8551537
91.28006 3.7590284 173.32748 11380121
90.623978 3.5155468 173.6003 10788241
89.803482 3.5162702 174.0679 12301483
2.563036 3.4721699 177.55811 7169884
1.5752225 3.5057397 177.17413 8419439
0.93329 3.4988294 176.91426 6971994
91.608391 4.4924488 173.44466 13221811
90.65535 4.4444203 173.96762 9932678
2.2207208 4.1778016 177.67607 8288365
1.5765624 4.3916883 177.49512 7169117
0.71965265 4.3806691 177.14751 6774871
0.0787654 4.5936661 176.96761 6643285
93.3703 5.7257791 173.22929 8092019
92.493294 5.6015363 173.59953 9341569
91.578545 5.3532233 173.8961 9406335
90.703476 5.2292309 174.2657 8813942
1.3625369 5.055202 177.64928 6643285
0.71929884 5.4909053 177.54897 7563875
-0.29625368 5.5307922 177.15625 7629668
-1.2027717 5.9049773 176.92807 6840664
95.289764 6.7349868 173.27861 9735555
94.405022 6.7313228 173.64592 11117464
93.525215 6.4256229 173.71869 9539461
92.478401 6.2240343 174.07762 8946555
0.50439215 6.3788671 177.78391 5920074
-0.352139 6.5874085 177.52115 7038043
-1.4184356 6.5689211 177.09402 7564131
97.450424 7.2639494 173.23532 10851980
96.560608 7.259686 173.60539 8682867
95.67112 7.2555194 173.97397 8682867
-0.63973951 7.4023972 177.7238 7300959
-1.4228406 7.462132 177.43954 6446162
-2.2035575 7.5216899 177.15613 6577748
-1.4980989 8.2827559 177.72897 5722695
-2.2798619 8.3413248 177.44476 7038298
-3.2373471 8.5454226 177.1481 8617331
-2.3565478 9.1639128 177.73444 6511954
-3.2987895 9.4991236 177.49471 6906713
-4.343533 9.7184963 177.16968 8485237
-3.5744443 10.564501 177.80063 7959148
-4.4234262 10.543137 177.45891 7038307
-5.200027 10.59886 177.17563 8485237
-3.7939076 11.238493 177.97644 7893358
-4.4337611 11.448345 177.80679 7893358
-5.2813392 11.425608 177.4651 7433064
-6.0568118 11.480356 177.18187 8814454
-4.6540952 12.123786 177.98282 8813945
-5.2933431 12.333312 177.81325 6445910
-6.4060121 12.472286 177.43034 7695717
-7.342752 12.804971 177.19185 10262156
-5.5146699 13.010379 177.98955 5919050
-6.3696218 13.517637 177.85344 9538177
-7.4278398 13.637556 177.48509 9012088
-8.0637627 13.846324 177.31854 8486000
-6.8075242 14.345613 178.03426 8814454
-7.4459405 14.555504 177.87747 7038298
-8.2891626 14.528319 177.53445 9933702
-9.1350727 14.731048 177.29301 9472383
-7.671494 15.240455 178.09459 8486000
-8.3804522 15.374856 177.91882 9933702
-9.3644333 15.419319 177.55682 8157035
-10.210588 15.622941 177.32848 8090987
-9.8209448 16.128824 178.01855 9537918
