# .PCD v0.7 - Point Cloud Data file format
VERSION 0.7
FIELDS x y z rgb
SIZE 4 4 4 4
TYPE F F F U
COUNT 1 1 1 1
WIDTH 1208
HEIGHT 1
VIEWPOINT 0 0 0 1 0 0 0
POINTS 1208
DATA ascii
138.7464 -54.53009 -41.452637 10655626
138.95903 -54.721142 -40.611053 8748400
139.2883 -54.738033 -39.622478 6511954
139.55418 -54.936398 -38.61578 8682612
139.88199 -54.95842 -37.62566 5393730
140.20926 -54.982925 -36.634472 6314831
140.55656 -54.906292 -35.698318 10984846
140.92552 -54.860344 -34.663734 10063747
141.19711 -54.886776 -33.834221 7563619
141.53206 -54.735714 -33.018356 9866628
141.85725 -54.7719 -32.01989 9010807
142.18205 -54.810596 -31.019756 7958888
142.47682 -54.895004 -30.056433 11248278
142.76593 -55.075535 -29.001419 10524812
143.05486 -55.154858 -28.060974 11643806
143.29378 -55.34288 -27.145285 10525327
157.4364 -55.106689 27.181301 7827822
157.5631 -54.87933 28.18066 7038307
157.62993 -54.801617 29.054825 8156527
157.67876 -54.712185 30.163807 7169373
157.59421 -54.656773 31.091537 7630180
137.17494 -53.421749 -47.330605 8156528
137.50737 -53.511425 -46.250591 8353651
137.78311 -53.603333 -45.335098 8222319
138.08412 -53.742737 -44.291286 10196106
138.38748 -53.794765 -43.339478 8880246
138.71936 -53.804871 -42.35083 10918289
139.03687 -53.765022 -41.46093 11707291
139.26918 -53.872475 -40.655628 10458250
139.60114 -53.843838 -39.710693 9340795
139.9306 -53.862953 -38.718983 13287346
140.25951 -53.884583 -37.726227 7565157
140.58778 -53.908649 -36.732365 6249555
140.91553 -53.935215 -35.737282 8814193
141.24272 -53.964264 -34.74091 8813421
141.45152 -54.169632 -33.894482 12432037
141.78705 -54.01823 -33.077168 10591121
142.00446 -54.041672 -32.410538 9143675
157.86693 -54.156929 29.119267 9077884
158.05234 -53.724537 30.039764 9406591
157.93802 -53.749161 31.002934 9209212
157.83601 -53.701931 31.903622 9997960
136.23793 -52.725376 -50.87542 9471871
136.52042 -52.71843 -50.051559 9998472
136.78722 -52.855438 -49.111336 9471872
137.03261 -52.923553 -48.311993 8025194
137.35893 -52.885891 -47.393703 8551028
137.69467 -52.886158 -46.404842 8616823
138.02963 -52.888813 -45.415649 7169889
138.36378 -52.893894 -44.425961 7827558
138.69724 -52.901402 -43.435768 8485488
139.09042 -52.77776 -42.41766 9339515
139.42427 -52.744923 -41.471745 8747379
139.70062 -52.756966 -40.644451 9011319
139.92499 -52.872211 -39.853832 9340795
140.24425 -52.968502 -38.804989 10130054
140.51505 -53.0774 -37.884655 7565157
140.84006 -53.192516 -36.797607 7565157
141.05907 -53.209633 -36.133224 7565157
158.25549 -53.144554 30.27647 9735812
158.2486 -52.877998 31.065128 9472128
158.15414 -52.785049 32.035149 9603201
158.1138 -52.56813 32.938885 9735044
135.80449 -51.608948 -52.762241 9143934
136.10034 -51.973171 -52.080864 10327692
136.4245 -52.012352 -51.130802 9406078
136.76419 -52.003864 -50.140419 10195851
137.10291 -51.997715 -49.14996 9011577
137.38454 -51.994404 -48.324463 9143163
137.66556 -51.992821 -47.498802 9800581
138.00208 -51.993034 -46.507767 9603460
138.33783 -51.995625 -45.516354 6840925
138.67274 -52.000629 -44.524483 7827558
138.95567 -52.109715 -43.568359 9603969
139.28171 -52.106205 -42.612316 10260359
139.56248 -52.025486 -41.876629 9339515
158.5069 -51.837631 31.989155 6577492
158.36932 -51.821457 33.072674 7367008
158.26053 -51.839237 33.845108 6840408
135.47565 -50.42342 -53.759098 8682867
135.8721 -50.821144 -53.116318 8748917
136.43884 -50.947693 -52.256485 9275260
136.78931 -50.940327 -51.266811 9209467
137.12979 -50.931946 -50.273712 9538176
137.46941 -50.925873 -49.280563 8945271
137.73668 -51.065273 -48.336403 9668994
137.98247 -51.135323 -47.533504 9471872
138.24802 -51.278549 -46.590096 9734788
138.5284 -51.280415 -45.762482 9208699
158.68811 -51.213726 32.344391 5392706
158.7471 -50.831951 32.95388 7037531
158.61096 -50.853798 33.921577 9077626
158.57678 -50.612522 34.846333 5392706
135.61195 -49.821846 -53.938244 9077625
136.21736 -49.800083 -53.297455 8682867
136.7148 -50.093369 -52.436695 8946295
137.03253 -50.225487 -51.357475 9209467
137.26001 -50.219597 -50.694145 9209467
159.00056 -50.047588 33.207111 6643541
158.96169 -49.867695 33.998047 7433057
158.89497 -49.693264 34.984406 8485489
158.82253 -49.582851 35.837559 7300959
135.27844 -48.644459 -54.935776 10263180
135.75417 -48.971722 -54.245647 10459534
136.36076 -48.948009 -53.604748 9472383
159.17224 -49.275684 34.043873 6643541
159.22662 -48.833065 34.858135 7696229
159.10536 -48.767773 35.956135 7761766
159.09573 -48.547771 36.63871 6840664
135.11731 -47.748867 -55.59478 11315610
135.65976 -47.834961 -54.963428 10263180
136.2139 -47.999092 -54.277161 9932934
159.45686 -48.113384 35.110474 7367263
159.49908 -47.734818 35.83934 6511954
159.34892 -47.761852 36.900146 5722695
159.31284 -47.522575 37.835598 8222314
134.87183 -46.602451 -56.535995 9142907
135.23424 -46.917576 -55.926857 9867910
135.93922 -46.887142 -55.202568 10261899
159.74089 -46.950378 36.183212 6511954
159.73309 -46.768574 36.788242 6511954
159.59018 -46.793213 37.767399 9208952
159.47749 -46.814514 38.551872 11511192
134.61008 -45.662701 -57.871822 9341313
135.11426 -45.939949 -57.017006 7959404
135.61763 -46.219894 -56.160095 8616562
159.99559 -46.145134 37.865459 10063747
160.061 -45.896603 38.81258 12037280
159.98792 -45.845821 39.657845 10853776
160.07584 -45.578873 40.540291 10787984
133.556 -44.479561 -61.518478 10261903
134.05299 -44.523022 -60.776291 8879990
134.49763 -44.625378 -59.816628 9011576
134.50438 -44.887543 -58.987061 8353904
135.01144 -45.055939 -58.119308 8683641
135.35602 -45.276146 -57.500282 8486262
160.54929 -45.102356 39.738602 8682867
160.43546 -45.074577 40.756577 8419951
160.59886 -44.840191 41.637093 9275261
160.81447 -44.595421 42.591133 8092019
161.21063 -44.431129 43.530632 9407621
161.19815 -44.390991 44.570301 14077637
131.0578 -43.739708 -71.364388 6774358
131.73953 -43.824608 -70.714973 6708309
132.22467 -44.072926 -70.161049 6510930
131.71013 -44.107712 -68.485603 9932419
132.11411 -44.106663 -67.694168 9406074
132.5928 -44.105408 -66.741402 10129540
133.06461 -44.104156 -65.785233 6511954
133.52945 -44.102909 -64.825676 5853512
133.04825 -44.188908 -63.42028 7564651
133.451 -44.222214 -62.829163 7564651
134.05382 -44.273151 -61.939255 8748923
134.45413 -44.307583 -61.344025 6510930
161.93745 -44.149864 44.779224 8682867
161.77808 -44.16621 45.574265 11380124
161.89288 -44.114735 46.520962 9538176
162.21283 -43.977253 47.603283 11576217
161.99115 -43.980324 48.385983 8617328
163.15211 -43.973896 50.457867 8813683
162.90331 -43.973381 51.240704 8813683
164.00928 -43.970379 53.557129 8616563
163.74516 -43.969864 54.344032 11906469
164.97989 -43.967079 56.311241 8813942
164.85378 -43.777744 57.156109 9801349
164.58025 -43.715435 58.098633 9275004
130.74115 -42.585396 -72.210854 6510930
131.29283 -42.799965 -71.614082 6840151
131.78197 -43.145393 -71.009163 6905688
165.14919 -43.168781 57.260056 11381404
165.01613 -42.749317 58.105522 10722962
164.81061 -42.540829 58.92635 9538432
130.49814 -41.629116 -72.894997 7039331
130.98349 -41.870541 -72.344124 7761253
131.60126 -42.004864 -71.727684 6642772
165.30544 -41.767921 58.357906 10065291
165.08432 -41.657356 59.11517 8946553
130.59727 -40.774921 -73.223984 9340796
131.23717 -41.016788 -72.53524 8353902
131.71317 -41.396957 -71.925026 6971994
165.38524 -40.856686 59.134521 7828074
165.10655 -40.859177 59.932461 7367266
130.28004 -39.752403 -74.006577 11905692
130.82744 -39.811047 -73.489891 10130053
131.38666 -40.119625 -72.840469 8090730
165.67316 -40.013008 59.238712 7235938
165.46582 -39.804436 60.064579 7170145
165.25801 -39.596531 60.891224 7893866
130.34128 -38.965816 -74.336433 11116434
131.06169 -38.94577 -73.703865 9340539
165.84831 -38.818077 60.054543 7498853
165.54552 -38.75127 60.998447 7366751
130.0136 -37.783092 -75.200203 10261129
130.60448 -37.934948 -74.604523 9735296
131.09476 -38.170055 -74.053505 10590347
166.04184 -38.113319 60.276363 9209467
165.86426 -37.813992 61.117371 9668988
165.90887 -37.271023 61.588558 9011059
129.84204 -36.747627 -75.829254 10261129
130.39606 -36.80122 -75.316582 9340285
130.89418 -37.035973 -74.76992 9867142
166.19374 -36.845016 61.240318 10261124
166.12515 -36.634632 61.669777 9011059
129.88618 -35.958332 -76.153236 9735043
130.61307 -35.931496 -75.525246 9932422
166.34158 -35.997635 61.751152 9011059
129.533 -34.77655 -77.007675 9077368
130.12938 -34.92247 -76.415199 9735043
130.62891 -35.153488 -75.868965 10261643
129.70735 -33.83646 -77.286278 11379095
130.27837 -33.898212 -76.754768 12365734
114.40823 -33.288593 -135.39832 8682867
114.77496 -33.207653 -134.52196 7564642
115.1372 -33.127064 -133.64682 9143670
115.58368 -33.026905 -132.55463 9340024
116.02386 -32.927361 -131.46426 9010547
116.37093 -32.84819 -130.59343 6971734
116.71377 -32.769417 -129.72382 5920074
129.25998 -32.905731 -78.108208 8682867
129.83708 -32.999573 -77.556679 10853009
130.41525 -33.094547 -77.003761 13549237
118.59098 -31.968271 -118.91679 8092016
118.95797 -31.87668 -117.86737 8092016
119.24694 -31.803835 -117.02919 9076858
119.53205 -31.731344 -116.19241 5919050
119.88276 -31.641321 -115.14826 5524292
120.22773 -31.551826 -114.10603 7169634
120.49931 -31.480648 -113.27374 7169634
129.06148 -31.628407 -78.870277 9143674
129.63686 -31.919783 -78.229439 9603712
130.13863 -32.145096 -77.683861 8353134
120.83319 -31.392202 -112.23536 8682356
121.16146 -31.304276 -111.19881 9932678
121.4197 -31.234362 -110.37122 8814197
121.73708 -31.147497 -109.33865 9538176
122.04903 -31.06122 -108.30798 10459278
122.29426 -30.992571 -107.48506 7827819
122.59536 -30.907272 -106.45837 9078397
122.89124 -30.822515 -105.43372 9735299
123.12368 -30.755135 -104.61555 9208187
123.40891 -30.671408 -103.59492 9931651
123.68893 -30.588169 -102.57623 9538694
123.90879 -30.522047 -101.76289 8092019
124.12515 -30.456234 -100.95098 8092019
129.23047 -30.781992 -79.135246 10327179
129.84967 -30.951023 -78.499275 11577242
124.28522 -30.407099 -100.34289 8814969
124.44302 -30.358168 -99.735756 8814969
124.70178 -30.277052 -98.725502 7564643
124.95542 -30.196461 -97.717331 7565159
125.15434 -30.132416 -96.912514 11183260
125.39802 -30.052757 -95.908455 11775140
125.63665 -29.9737 -94.906525 14210509
125.86967 -29.895149 -93.906929 9998216
126.10596 -29.819002 -92.915344 8879991
126.34331 -29.744961 -91.930916 8945784
126.57612 -29.671427 -90.948509 9143163
126.80388 -29.598534 -89.968384 9866630
127.02706 -29.526127 -88.99041 8420727
127.15872 -29.482985 -88.40464 8092019
128.82016 -29.928612 -79.964165 7038307
129.42099 -29.959957 -79.434135 10327179
127.98882 -28.631472 -82.774132 8287597
128.41879 -28.724689 -82.074867 11051417
128.87355 -28.850061 -81.261787 12696500
129.11685 -29.187902 -80.382576 8420216
129.57089 -29.366972 -79.892029 7038307
127.96872 -28.327173 -83.631157 6510930
128.45731 -28.346409 -83.074928 8550769
128.9458 -28.366074 -82.517677 9208443
145.24516 -58.558784 -20.173719 8682867
145.50792 -58.790794 -19.426962 10261899
145.93602 -58.694717 -18.530151 7696228
146.42952 -58.727398 -17.547886 7498850
146.79221 -58.749645 -16.733229 8550514
147.10831 -58.875385 -15.767866 8682100
147.28609 -58.948627 -14.786699 8616823
147.21001 -59.045235 -13.639435 9011323
147.2981 -59.044197 -12.579155 9932166
148.44118 -59.042385 -11.595032 10590347
148.49068 -59.041691 -10.882303 10457996
148.55885 -59.040661 -9.8128605 10129540
148.61928 -59.039635 -8.7429619 9208435
148.66399 -59.03878 -7.8511071 9208435
148.69565 -59.038101 -7.1373982 12432037
149.81473 -59.036263 -6.1041226 9537150
149.84309 -59.035419 -5.2049718 9142907
149.87024 -59.034409 -4.1259503 10063753
149.88963 -59.033405 -3.0467608 9735043
149.89854 -59.032742 -2.327183 9406846
150.9967 -59.030876 -1.2503092 10854036
150.99536 -59.029888 -0.16307861 11182745
150.98604 -59.0289 0.92418641 10260875
150.97249 -59.02808 1.8301389 10260875
152.05893 -59.02636 2.7627714 8683385
152.03424 -59.025547 3.6751096 8420470
152.00381 -59.024738 4.5873141 10327181
151.96819 -59.02393 5.4993701 10459537
153.0369 -59.022022 6.6488757 10459537
152.98856 -59.021225 7.5671191 11512225
152.92343 -59.020267 8.6684799 8353908
153.42931 -59.01899 9.6255913 8353135
153.94272 -59.017872 10.403038 7235422
153.87172 -59.017082 11.326603 6249039
153.79558 -59.016296 12.249737 8091498
154.84122 -59.014351 13.463383 13485495
154.75183 -59.013573 14.392296 7565154
154.63737 -59.012646 15.506245 6511954
155.60527 -58.818138 16.239029 7367005
155.65071 -58.798428 17.127037 7301218
155.62285 -58.837406 18.26054 7038307
155.75594 -58.620785 19.188526 11380381
155.8671 -58.577862 20.192757 7104092
155.95567 -58.428299 20.967556 8814710
144.79636 -57.64431 -21.886078 11906724
145.04918 -57.709324 -21.301041 9472383
145.37466 -57.794472 -20.546696 9011832
145.80925 -57.910614 -19.53739 11117208
146.31386 -57.847763 -18.532316 7893607
146.70476 -57.835762 -17.722883 5920074
146.98816 -58.076797 -16.897869 8945272
147.2879 -58.322102 -15.965193 8418928
155.91698 -58.102348 17.410271 7630443
155.98479 -58.016575 18.241241 7893615
156.12303 -57.738323 19.082863 9472899
156.15051 -57.802174 20.230556 7366495
156.17274 -57.857452 21.188847 8156524
156.30983 -57.583221 22.038181 9471870
156.42441 -57.378712 22.950546 8089704
144.54865 -56.679333 -23.219263 9669762
144.92343 -56.884266 -22.260479 9867399
145.29842 -56.899345 -21.46146 9670536
145.76695 -56.815189 -20.549887 8420983
146.18649 -56.861034 -19.631435 11315100
146.51929 -57.200794 -18.64703 9472382
156.38878 -57.041679 19.370831 8419951
156.47281 -56.901447 20.120564 7037274
156.52292 -56.875946 21.046173 7103323
156.60449 -56.783443 22.131966 10129286
156.65355 -56.761364 23.062111 9011062
156.7814 -56.542988 24.161465 8484719
143.73528 -55.428009 -25.98012 9341316
144.00006 -55.643246 -25.243259 9801866
144.35977 -55.911674 -24.26265 10722707
144.87682 -55.802143 -23.270819 9669762
145.2579 -55.781311 -22.489302 8946039
145.6217 -55.870766 -21.650961 8618105
145.91763 -56.143421 -20.800402 12433069
156.84436 -56.007992 21.186756 8484719
156.97113 -55.766373 22.06974 11576730
156.99312 -55.823338 23.036362 9142649
157.01456 -55.88208 24.004871 7827562
157.10658 -55.748043 24.987122 10262156
157.19421 -55.602814 25.77729 10590609
142.74327 -54.506508 -29.710133 13550517
142.9595 -54.535931 -29.040169 11445913
143.27818 -54.67609 -27.943691 12959408
143.48849 -54.802528 -27.181597 10525327
143.79193 -54.8578 -26.346287 12499632
144.29216 -54.772724 -25.364872 10920346
144.72812 -54.870842 -24.368 10064778
145.16345 -54.922371 -23.411682 9275004
145.52914 -55.058071 -22.530407 9538176
145.74799 -55.110783 -22.026972 7565675
157.31314 -54.948158 23.084614 7958376
157.43991 -54.709084 23.988602 8157297
157.46309 -54.773716 25.045246 12367527
157.4838 -54.835129 26.020565 7960175
157.54893 -54.759769 26.876106 6775387
157.66278 -54.559582 27.807537 7038307
141.64227 -53.63171 -33.939682 11181969
141.91451 -53.659485 -33.106567 10591121
142.21146 -53.841045 -32.027275 9143675
142.56686 -53.733006 -31.102657 9011832
142.89244 -53.773518 -30.098164 9866627
143.21767 -53.816566 -29.091894 11248795
143.54256 -53.862152 -28.083733 9867658
143.81305 -53.902039 -27.242123 9670535
144.12317 -53.958603 -26.406002 9077114
144.62659 -53.872726 -25.422665 12234402
144.99406 -54.051426 -24.501442 9602943
145.28882 -54.215824 -23.74468 7563619
157.73106 -53.946728 24.311443 7565675
157.79305 -53.856079 24.96933 7565675
157.83661 -53.84734 25.885403 6710107
157.91017 -53.775177 26.957649 5591110
157.96797 -53.732014 27.911678 6512214
158.04047 -53.64735 28.857037 9406592
158.12373 -53.491501 29.462658 9735812
140.15677 -52.416054 -39.685997 9340795
140.43242 -52.431793 -38.856571 7762021
140.73431 -52.597519 -37.780499 9078137
141.02927 -52.65538 -36.846611 12630443
141.32451 -52.816853 -35.794964 9800574
141.62334 -52.889019 -34.833515 9076593
141.89664 -52.9146 -33.999985 10326660
142.16948 -52.941978 -33.165359 8682867
142.49666 -52.977085 -32.16246 9012089
142.88754 -52.835041 -31.171722 10853265
143.21405 -52.874958 -30.165039 11182230
143.60483 -52.737495 -29.169464 10327693
143.87665 -52.774548 -28.327276 8354933
144.14824 -52.813488 -27.483624 7697260
144.45599 -53.05986 -26.465969 10655886
144.75421 -53.316917 -25.623772 13023917
158.10973 -53.110554 26.009411 7762285
158.28645 -52.737034 26.939491 5920076
158.30714 -52.799702 27.923931 5656645
158.32732 -52.864132 28.910591 9735043
158.4276 -52.679344 29.865971 9932422
158.48256 -52.364674 30.716305 9735043
139.18661 -51.652039 -43.404926 10459278
139.46478 -51.660305 -42.576622 10523531
139.77026 -51.816277 -41.501015 8616049
140.01266 -51.862976 -40.734501 9340027
140.28922 -51.876606 -39.904728 7762021
140.62061 -51.895061 -38.908188 7038298
141.01421 -51.736954 -37.927334 11775391
141.34465 -51.760124 -36.928165 12630443
141.67458 -51.785721 -35.927795 9669246
142.004 -51.813721 -34.926136 9339765
142.27817 -51.838799 -34.090412 9735039
142.55203 -51.865704 -33.253555 8419952
142.88031 -51.90012 -32.248005 9012089
143.17851 -51.98032 -31.279392 11905696
143.47141 -52.156067 -30.218517 12629162
143.86302 -52.018036 -29.221176 7565160
158.50526 -52.162895 27.17382 4867385
158.56712 -52.073833 27.839714 6446161
158.68195 -51.871815 28.77969 10458510
158.77399 -51.740444 29.784271 10524303
158.69305 -51.774399 30.757973 7957865
158.65585 -51.592079 31.543354 5392706
137.93062 -50.564892 -48.329948 8879478
138.21265 -50.563507 -47.501335 9340286
138.43248 -50.74255 -46.651875 9471872
138.75887 -50.821835 -45.601398 8485236
139.04353 -50.928604 -44.642677 7564651
139.37872 -50.935818 -43.647606 9407616
139.71323 -50.945377 -42.651894 11050643
140.04703 -50.957275 -41.65546 8945270
140.32471 -50.96891 -40.824501 9603712
140.60199 -50.982315 -39.992928 8354414
140.93417 -51.000446 -38.994167 7367775
141.32875 -50.841976 -38.011143 15788512
141.6601 -50.864792 -37.009766 12894132
141.99089 -50.889957 -36.007198 11380381
142.26195 -51.004791 -35.07935 9011321
142.53258 -51.121597 -34.150696 9340028
142.75221 -51.142662 -33.480141 11181974
158.97726 -51.113235 29.22961 9735043
159.06148 -50.955666 29.839386 7301214
159.04404 -50.790005 30.827438 5655878
158.8979 -50.809723 31.876442 5589829
158.96872 -50.425541 32.40276 6839128
136.93144 -49.609447 -52.350288 9077625
137.215 -49.689281 -51.425446 9538175
137.52496 -49.8148 -50.371113 11116694
137.836 -49.853817 -49.411186 9405822
138.17567 -49.850155 -48.41526 9076601
138.45815 -49.848793 -47.585167 9208700
138.73997 -49.849167 -46.754818 9077370
139.07755 -49.851612 -45.758068 9143419
139.41438 -49.856342 -44.760883 9144189
139.75049 -49.863407 -43.763134 8881274
140.08594 -49.87273 -42.764801 10655886
140.42073 -49.88438 -41.765736 8682099
140.69928 -49.895779 -40.932575 9208955
140.91479 -50.087852 -40.081135 7170908
141.2131 -50.140251 -39.143524 7762789
141.51749 -50.304943 -38.061405 15788512
141.79408 -50.323551 -37.226006 10986391
159.39531 -49.804977 30.896946 6115917
159.28752 -49.81916 31.671597 5721415
159.14996 -49.801193 32.759727 6445138
136.78073 -48.693054 -53.290192 11643553
137.17601 -48.805779 -52.537334 8946295
137.51912 -48.795399 -51.53883 9406846
137.86134 -48.787262 -50.540379 11051157
138.20271 -48.781403 -49.541893 9537664
138.54324 -48.77779 -48.543266 9076601
138.88298 -48.776394 -47.544415 9208956
139.16553 -48.776928 -46.711845 9340286
139.39615 -48.881119 -45.915092 9472385
139.72343 -48.962559 -44.859383 8881018
139.99835 -49.148304 -43.840149 8288627
140.27849 -49.155704 -43.006824 9866371
159.54366 -49.071396 31.803432 5918794
159.50339 -48.852039 32.713802 6380113
159.40746 -48.759556 33.694347 6314576
159.39862 -48.494789 34.494537 5920074
136.59964 -47.893444 -53.91869 10327435
137.15997 -47.888317 -53.28566 12761260
137.53694 -47.909538 -52.48616 10261641
137.82339 -47.901203 -51.652222 10721166
138.16631 -47.893181 -50.651558 9471869
138.47337 -47.923447 -49.713203 9340282
138.78831 -48.062618 -48.628609 9603453
139.01534 -48.061398 -47.961575 8617075
159.82237 -47.932152 32.847542 6380625
159.74893 -47.800438 33.767963 6709590
159.71748 -47.57431 34.632057 6117196
159.7106 -47.327141 35.368931 6511954
136.34755 -46.584217 -54.987183 9274748
136.79205 -46.896946 -54.278282 8814453
137.41594 -47.09827 -53.438717 10721935
137.71922 -47.37273 -52.555351 9472126
138.00598 -47.364506 -51.720314 9077368
160.10602 -46.895256 33.643826 5920074
160.04489 -46.719944 34.637291 6643797
159.90227 -46.704674 35.735443 6972505
136.16193 -45.678291 -56.179901 9142906
136.68161 -45.854267 -55.421898 8879734
137.12195 -46.108768 -54.661568 8682867
160.3968 -46.166496 34.71516 8814709
160.37674 -46.039959 35.600864 10196362
160.39404 -45.844414 36.605034 7827814
160.45821 -45.594559 37.569679 9471867
160.40671 -45.522938 38.372829 10655884
135.45064 -44.396427 -59.848213 6510930
135.64412 -44.515812 -59.081993 7302502
135.90288 -44.608212 -58.370663 7960175
135.94405 -44.97398 -57.316113 8617334
136.44702 -45.078186 -56.576721 9143162
160.91397 -45.124714 36.862556 5920074
160.91577 -44.995682 37.597439 6840919
160.82703 -44.945339 38.557552 8287851
161.16711 -44.65332 39.46265 8090987
161.37631 -44.500221 40.670448 8090987
161.81548 -44.331043 41.406044 9604226
161.62563 -44.348824 42.394714 9078655
132.76398 -43.764206 -69.806862 8748405
133.12006 -43.999336 -69.090157 8353645
133.48154 -44.105835 -67.985283 6511954
133.96227 -44.104568 -67.022644 6116940
133.98737 -44.101658 -63.86277 7038304
134.36383 -44.10062 -63.057873 13024949
134.73514 -44.09959 -62.250675 10525331
135.0562 -44.208805 -61.148285 7629667
135.32143 -44.299896 -60.437447 10854036
162.36671 -44.107819 42.593487 11183001
162.21213 -44.122643 43.388218 9078655
162.05594 -44.137913 44.182949 8682867
162.89659 -43.978851 45.261608 10459022
162.616 -43.97818 46.238613 9998727
163.81812 -43.975338 48.299099 10129542
163.5188 -43.974678 49.281372 8682867
164.71611 -43.971695 51.386635 9735555
164.46208 -43.971275 52.176968 13353915
164.20502 -43.970757 52.966152 11906469
165.53574 -43.842182 55.023685 9208700
165.32578 -43.740585 55.898129 8813942
132.35565 -42.860188 -70.636955 9208955
132.91594 -43.036747 -70.051094 12235689
165.68289 -42.889107 56.035286 9011321
165.47269 -42.628281 56.927456 8617336
132.05455 -41.735229 -71.455299 6313808
132.69016 -41.885765 -70.814949 11972517
133.11769 -42.312279 -70.225334 13551549
165.99673 -41.907658 56.217194 8814971
165.80519 -41.7388 56.953999 8814971
165.58478 -41.626686 57.711067 8814971
131.68236 -40.64864 -72.318207 9209467
132.1713 -40.890778 -71.763863 7366751
132.82213 -40.872849 -71.192284 7234909
166.10275 -40.924393 56.997982 7564651
165.80269 -40.854549 57.937412 7762029
131.78297 -39.791393 -72.647469 8222572
132.42761 -40.033939 -71.954086 7827302
166.29732 -40.221607 57.214848 8682867
166.13853 -39.940536 57.981449 7827821
165.95595 -39.660187 58.815594 7696231
131.46419 -38.765339 -73.433189 8090987
132.01567 -38.823914 -72.912781 8288110
132.57907 -39.133404 -72.259201 9209467
166.45247 -38.955017 58.167431 15722454
166.25891 -38.786957 58.909218 8090989
166.10773 -38.53471 59.621914 5393738
131.2755 -37.631947 -74.155373 9867142
131.68715 -37.998859 -73.608986 7827301
132.39211 -37.994717 -72.98243 8880759
166.60561 -37.792347 59.011158 9735810
166.36649 -37.688255 59.813007 8617074
166.26028 -37.266811 60.583485 9603195
131.32545 -36.839813 -74.480171 9867142
132.0162 -37.009144 -73.79258 7893096
166.75809 -36.628078 59.858315 8814968
166.44922 -36.588509 60.789513 8879731
131.01526 -35.746864 -75.255836 11380380
131.57347 -35.80035 -74.739525 10525072
132.07516 -36.035595 -74.189369 9867142
166.90491 -35.991753 60.138866 9340801
166.76624 -35.781155 60.770035 8814713
166.55663 -35.571697 61.603729 9011059
131.06049 -34.954659 -75.5802 10195850
131.79292 -34.927288 -74.947563 9866886
167.08528 -34.802761 60.933556 8420470
166.84601 -34.720482 61.712124 8683127
130.7058 -33.768726 -76.437851 10261643
131.36256 -33.919857 -75.789787 9472128
131.75226 -34.327385 -75.259117 9932422
167.20834 -33.654755 61.847805 9011579
115.34579 -32.877708 -136.50456 11511711
115.86352 -32.930054 -135.90341 8221804
116.25803 -33.039352 -135.2695 6511954
117.05231 -32.691006 -128.8555 11051928
117.38657 -32.612991 -127.98843 14210248
117.79835 -32.516109 -126.90647 13354939
130.52826 -32.733215 -77.070259 7563619
131.10883 -32.828701 -76.5149 8618105
131.5918 -33.009796 -76.006142 8289140
167.35527 -33.015076 62.132103 9011579
167.5005 -32.587612 62.186722 13023917
115.68665 -32.083412 -136.70921 9274237
118.20398 -32.419762 -125.82636 10393227
118.52362 -32.34317 -124.96386 13023663
118.83911 -32.26693 -124.10262 10064006
119.15057 -32.19109 -123.24271 10722705
119.45785 -32.115616 -122.38414 9209727
119.83607 -32.021832 -121.31286 7038563
120.20837 -31.928656 -120.24355 7828331
120.42881 -31.872995 -119.603 8682867
130.57053 -31.941916 -77.396767 8221548
131.24075 -31.988041 -76.785118 8551540
115.78748 -30.547548 -137.3623 10064009
115.72881 -31.259224 -137.07004 8747893
130.258 -30.614353 -78.320213 12433061
130.81995 -30.902411 -77.66526 7892583
131.31859 -31.126732 -77.112526 10787983
130.49991 -29.777998 -78.606667 10392970
130.98421 -30.061653 -78.04554 7563619
129.8074 -28.554947 -81.110878 9997959
129.98975 -28.717089 -80.492302 9208958
130.27066 -29.102859 -79.517235 8287857
130.90309 -29.104784 -78.990822 6510930
129.5584 -28.239416 -82.253998 9340286
129.91901 -28.304203 -81.68512 9406335
147.48521 -58.378174 -15.449095 10261132
147.74667 -58.555801 -14.66942 9800582
148.00833 -58.735126 -13.887857 10261132
148.33141 -58.832031 -13.019632 9274494
148.75653 -58.701767 -12.021725 9603711
149.20605 -58.691658 -11.110689 10261383
149.53781 -58.79768 -10.232042 8682867
149.84241 -58.890812 -9.1684151 8353900
149.86806 -58.986244 -8.1782455 9076853
149.78052 -59.037113 -7.0029187 10984593
150.91248 -59.035255 -5.9609494 9537150
150.93488 -59.034576 -5.2364278 9866630
150.95837 -59.03373 -4.3306584 10261132
150.97606 -59.032887 -3.4247401 9340541
150.99031 -59.031876 -2.337559 9341053
152.10316 -59.029999 -1.2528956 10854036
152.10278 -59.029327 -0.52267867 11181716
152.09612 -59.028332 0.57257813 11180945
152.08144 -59.027344 1.6677167 9932167
153.17918 -59.02544 2.7899435 8420470
153.15933 -59.02478 3.5251081 7828590
153.13008 -59.023968 4.4441028 9407107
153.09499 -59.023155 5.3629222 10459537
153.8045 -58.980335 6.1318698 9341570
154.226 -58.945477 7.3573527 13551549
154.28139 -58.920593 8.3074532 8748923
154.46584 -58.923706 9.2118568 9866631
155.01236 -58.759186 10.107594 9142651
155.14966 -58.836243 11.053673 7892584
155.2897 -58.756279 12.14296 8945527
155.44502 -58.64101 13.017612 13156790
155.57114 -58.651642 14.096245 10524811
155.60208 -58.704494 15.231102 6775125
155.69278 -58.547855 15.996254 6511954
146.95905 -57.42271 -17.538141 7563619
147.23386 -57.599461 -16.764254 8879479
147.56107 -57.791153 -15.81472 9011065
147.98662 -57.825096 -14.782101 9077117
148.34839 -57.755375 -13.995634 9208703
148.68797 -57.914265 -13.049753 8879993
149.15614 -57.850441 -12.007572 9077624
149.48854 -57.952923 -11.130812 10261383
149.75055 -58.242741 -10.245934 8090987
150.01694 -58.328346 -9.5399094 7564643
155.78842 -57.930702 13.079304 9011321
155.85278 -57.879612 14.122826 8419178
155.96719 -57.670883 14.997868 8287592
155.97482 -57.774906 16.026386 8813936
156.04845 -57.696102 17.045856 8222579
156.16533 -57.483597 17.945904 7038307
146.50545 -56.495453 -19.270969 10656654
146.72864 -56.755726 -18.583652 9143417
147.06435 -56.807022 -17.836733 8287854
147.51125 -56.767582 -16.884531 9274234
147.90715 -56.875267 -15.8507 10261129
148.25229 -56.890202 -15.023468 9077372
148.63902 -56.878147 -14.124842 9208959
148.96962 -57.076244 -13.163694 9340286
149.30049 -57.277103 -12.199203 8090987
156.05891 -57.292282 13.953171 7037266
156.28453 -56.797604 14.997158 10918797
156.32748 -56.808559 16.063953 8550764
156.35274 -56.854778 17.016754 7827564
156.43161 -56.760277 18.025307 7893615
156.49948 -56.679821 18.901279 8486260
156.6326 -56.413006 19.720726 7037274
146.19814 -55.717968 -20.571119 9933708
146.6358 -55.780434 -19.600723 8682867
147.00108 -55.826145 -18.79649 8682867
147.36826 -55.924248 -17.944317 9998212
147.85591 -55.85326 -16.922897 9273977
148.21301 -55.988922 -15.954506 9668990
148.49547 -56.093063 -15.191404 9208955
148.71483 -56.289215 -14.492233 9735043
156.534 -56.21973 15.895851 8616302
156.68436 -55.929077 16.911312 8090474
156.76971 -55.821754 17.963341 8682867
156.82591 -55.790676 18.98016 9275518
156.84973 -55.841793 19.940556 7037274
157.01489 -55.506474 20.922039 8090218
157.09961 -55.344692 21.510693 9142649
145.7343 -54.581631 -22.501892 9406848
146.06552 -54.743542 -21.670847 9144449
146.4696 -54.892426 -20.698008 8749692
146.9283 -54.894306 -19.734964 9472382
147.41579 -54.734295 -18.848177 9998725
147.67189 -55.041672 -18.052313 10327432
147.99637 -55.287346 -17.118559 9010806
157.05737 -55.025246 17.924442 9209467
157.1584 -54.862957 18.878036 8879995
157.18509 -54.918098 19.93644 8156270
157.30994 -54.684998 20.84705 9998215
157.32173 -54.783936 21.927589 10195335
157.41089 -54.633747 22.712669 9142649
144.97333 -53.364235 -25.124393 10655886
145.24124 -53.579243 -24.381275 8945014
145.54549 -53.882767 -23.487251 8879477
145.90149 -53.852711 -22.766066 9537150
146.42101 -53.806255 -21.715944 8550510
146.88045 -53.804016 -20.754803 8616818
147.18028 -54.076416 -19.896612 10985621
147.33263 -54.313793 -19.377113 10656654
157.46791 -54.056362 19.252388 8090736
157.53152 -53.960121 19.901573 11379356
157.64857 -53.748974 20.816143 10196107
157.6539 -53.861679 21.864704 8155754
157.71417 -53.810097 22.806076 8813941
157.76678 -53.786152 23.799515 8618104
157.88226 -53.580429 24.724308 7565675
144.65565 -52.520557 -26.501972 9866372
145.02792 -52.792549 -25.491976 12234402
145.51727 -52.814789 -24.447134 8681842
145.90176 -52.788147 -23.663321 8878965
146.26941 -52.871136 -22.822367 11510168
146.63954 -53.02216 -21.919044 7827044
147.00661 -53.042862 -21.132263 8090216
157.94208 -52.992668 21.242527 7761253
158.02744 -52.829659 21.835014 6510930
158.08139 -52.799854 22.812153 9867142
158.1635 -52.683338 23.712605 10196108
158.16754 -52.800755 24.770195 7762539
158.2832 -52.595287 25.69978 6446678
158.3452 -52.504967 26.362068 6972767
143.44579 -51.590473 -30.932121 15194062
143.66446 -51.616852 -30.258659 13023663
143.99207 -51.658295 -29.247028 7565160
144.20018 -51.874668 -28.390074 7039331
144.53751 -51.732895 -27.556728 7301989
144.92201 -51.80135 -26.54999 8813942
145.36244 -51.89222 -25.549778 10655886
145.76157 -51.976673 -24.641651 9208186
146.20856 -51.839317 -23.820118 8352877
146.4668 -52.13113 -23.032639 13549237
158.33089 -52.093964 22.654873 11051672
158.48431 -51.801983 23.728661 10459022
158.50813 -51.860111 24.746738 7169116
158.59274 -51.749348 25.751339 6643547
158.63741 -51.740677 26.692242 6578007
158.76443 -51.502861 27.61274 5262143
142.48285 -50.52504 -34.970306 8682356
142.7234 -50.583511 -34.195889 10195337
142.98671 -50.688293 -33.302231 12037026
143.26407 -50.823021 -32.333569 9866116
143.59312 -50.859207 -31.323719 11906464
143.92184 -50.897762 -30.312145 12630186
144.22043 -50.981934 -29.337818 8814712
144.51878 -50.92012 -28.529049 6643804
144.86195 -50.832214 -27.617672 9340800
145.32341 -50.770855 -26.57729 9933191
145.70468 -50.910088 -25.66045 9867397
145.99876 -51.24844 -24.758266 9536894
158.71991 -51.195755 24.07708 8287597
158.78293 -51.102669 24.73864 6510930
158.91617 -50.843582 25.625393 7038307
158.99336 -50.757946 26.669247 9208958
159.01526 -50.817833 27.657452 7103836
159.08057 -50.764221 28.695435 8419439
159.23506 -50.445789 29.575424 6511954
141.10258 -49.551098 -40.134079 7565410
141.43248 -49.659824 -39.039661 10525584
141.70624 -49.767765 -38.111729 13354683
142.02739 -49.86805 -37.052963 9276285
142.30725 -49.994041 -36.086609 9932679
142.70195 -49.841843 -35.095993 9932679
142.97791 -49.866043 -34.256176 10458509
143.29662 -49.816628 -33.373501 10853266
143.64787 -49.745632 -32.419163 9734786
143.9781 -49.78112 -31.406649 11906464
144.30801 -49.818916 -30.39241 10985107
144.58276 -49.852188 -29.545868 14604230
144.8573 -49.887188 -28.697922 7959406
145.1337 -50.032162 -27.720264 9932937
145.37387 -50.153629 -26.992064 11906725
159.2627 -50.007645 26.597469 9866630
159.35071 -49.887726 27.604195 7366497
159.43228 -49.774799 28.52277 6971738
159.4727 -49.799294 29.640297 6313808
159.48907 -49.730171 30.384995 6839128
139.62727 -48.422085 -45.752514 9735812
139.90892 -48.426163 -44.918526 8749432
140.18433 -48.611805 -43.897984 8288627
140.51027 -48.698055 -42.840851 9340028
140.79457 -48.81115 -41.876026 11905694
141.07396 -48.822338 -41.040657 9472639
141.35294 -48.835209 -40.204674 7302238
141.68719 -48.852627 -39.200626 7828582
142.02095 -48.872345 -38.195553 10328461
142.35422 -48.894321 -37.18935 10986391
142.68701 -48.918571 -36.181927 8682100
142.9696 -48.993744 -35.264977 10459023
143.27046 -48.920456 -34.461678 9932679
143.57463 -48.948265 -33.534683 9208443
143.96782 -48.847504 -32.490471 9866628
144.23482 -49.062126 -31.461979 10985107
144.56552 -49.099472 -30.445957 9537407
159.66072 -49.054626 27.772194 9734788
159.73778 -48.950077 28.658035 8945272
159.86296 -48.708977 29.509773 6905943
159.80043 -48.812908 30.578461 8484717
159.7686 -48.565525 31.502945 5524292
138.68341 -47.707024 -49.338844 9011574
138.9109 -47.70496 -48.671314 9274745
139.22507 -47.846638 -47.586369 9011833
139.47331 -47.882927 -46.814434 9143163
139.75592 -47.88504 -45.979725 10919317
140.09447 -47.889584 -44.977673 11380381
140.43236 -47.896347 -43.97509 8485745
140.8123 -47.829086 -42.932091 11511199
141.16856 -47.737473 -41.98637 10524304
141.50641 -47.705482 -41.027554 10458246
141.74268 -47.813667 -40.209702 10260867
142.06393 -47.778076 -39.303928 9011315
142.39873 -47.797348 -38.296219 11775135
142.66992 -47.998158 -37.271019 12564394
142.9687 -48.056213 -36.325603 9998728
143.2179 -48.22295 -35.403591 10459023
143.49524 -48.246288 -34.5606 9998472
160.13223 -47.984142 29.645981 6642515
160.1489 -47.864941 30.566635 7366237
160.04767 -47.801666 31.505726 5919050
159.94167 -47.790462 32.338089 7696229
137.72458 -46.661972 -53.314125 9472126
137.95488 -46.80122 -52.531353 9472125
138.20479 -46.864616 -51.718925 9143161
138.47647 -47.000362 -50.764576 9866369
138.81973 -46.994797 -49.761742 9011574
139.162 -46.991337 -48.75872 9274745
139.50333 -46.989964 -47.755394 8946040
139.8456 -46.946156 -46.798862 8222317
140.08391 -47.043533 -45.980663 12564142
140.40881 -46.996655 -45.077862 11709346
140.74677 -47.00301 -44.072811 9077626
141.08571 -46.966427 -43.11377 13813441
141.48343 -46.843342 -42.079266 9997960
141.75487 -47.034588 -41.05302 12103071
142.03525 -47.047188 -40.213306 11116176
160.36343 -47.234604 30.688511 5919050
160.38365 -46.906094 31.54335 6380113
160.24127 -46.931419 32.552757 6249039
160.27965 -46.62719 33.211533 5920074
137.21399 -45.534359 -55.206001 8089963
137.59644 -45.824978 -54.467644 9735297
138.09619 -46.009178 -53.646511 10064262
138.48665 -46.012398 -52.656078 10326664
138.77763 -46.005493 -51.817699 11378839
138.95302 -46.161869 -50.937637 9669247
139.29935 -46.15699 -49.932018 9471867
139.64423 -46.154011 -48.925987 9471867
139.87202 -46.314507 -47.880325 9735043
140.21297 -46.315117 -46.873924 8288109
140.49603 -46.317055 -46.034817 11511711
140.66539 -46.318855 -45.530998 10459279
160.79271 -46.008762 32.648449 5920074
160.75888 -45.903309 33.514996 6314832
160.80112 -45.695904 34.39991 11314585
160.76855 -45.576359 35.338173 13551034
136.54041 -44.498234 -58.190514 10656658
137.03354 -44.546013 -57.432663 8682357
137.33731 -44.679653 -56.480148 8089963
137.343 -45.023598 -55.639465 8813941
137.9736 -45.148319 -54.819134 10984850
138.39145 -45.350544 -54.141636 13550517
161.29318 -45.073402 34.304806 12432551
161.28366 -44.911003 35.318436 13353138
161.29291 -44.8447 36.37999 8748660
161.60091 -44.592728 37.160622 6116940
161.81531 -44.46246 38.306389 7695714
162.22331 -44.295139 39.231369 8090987
162.03967 -44.310848 40.219727 8090987
133.85324 -43.682823 -68.899551 8090218
134.54747 -43.849701 -68.199013 6445394
134.43605 -44.10331 -66.056557 5721927
134.82565 -44.102257 -65.248955 6511954
135.21014 -44.101208 -64.438858 7761770
135.66525 -44.099957 -63.463795 9932168
136.1133 -44.098701 -62.485558 8550772
136.40826 -44.097866 -61.831703 7037274
135.96031 -44.187943 -60.264999 9406334
136.45987 -44.233639 -59.510735 7039331
137.05728 -44.289429 -58.601749 7696741
162.78212 -44.07003 40.408562 9538175
162.63266 -44.083271 41.202999 11051414
162.48137 -44.097069 41.997585 11183001
163.49373 -43.980343 43.10667 8814709
163.22577 -43.97966 44.087139 8485488
164.4554 -43.976807 46.131672 5920074
164.22667 -43.976269 46.920704 10589836
163.99481 -43.975639 47.70882 11576217
165.15077 -43.97271 50.000656 9209211
164.90375 -43.972191 50.79311 9735555
166.05116 -43.969131 53.131939 8090987
165.94408 -43.819344 53.891468 8485233
165.90182 -43.592388 54.62986 8813942
133.48311 -42.920715 -69.602104 11183001
134.09879 -42.810905 -69.106796 7432545
134.59042 -43.062611 -68.545418 5919050
166.34721 -43.034966 53.965488 10722451
166.19116 -42.751991 54.72625 10129802
166.03452 -42.469696 55.488102 10459279
133.56825 -41.94569 -70.002693 11775138
134.27336 -41.891827 -69.400291 8090474
166.506 -41.770149 54.90564 10064009
166.24951 -41.65583 55.768764 11248796
133.25095 -40.754665 -70.867699 8814709
133.89163 -40.905506 -70.222717 9867141
134.32231 -41.333366 -69.629662 8814709
166.59323 -40.89806 55.617825 8945528
166.33601 -40.784252 56.482544 10788243
132.87665 -39.664257 -71.734428 6971994
133.47537 -39.838882 -71.115189 7300958
133.99678 -40.041943 -70.550972 9340285
166.80872 -40.082302 55.899254 9209211
166.70114 -39.739605 56.586704 9603969
166.49197 -39.518059 57.43235 9735555
132.69092 -38.523563 -72.457497 11380380
133.1581 -38.841125 -71.885765 7564899
133.68382 -39.131104 -71.27523 6379600
167.01299 -38.743622 56.790226 8682867
166.70674 -38.701084 57.71722 10919827
132.84944 -37.719429 -72.709175 8025450
133.44232 -37.903648 -72.090462 5920074
133.92651 -38.283577 -71.473152 6510930
167.10573 -37.745796 57.625427 10064518
166.85971 -37.600998 58.49218 10919827
132.46188 -36.634472 -73.573486 7893096
132.89748 -36.945797 -73.042778 6643797
133.59436 -36.999989 -72.396599 5920074
167.31685 -36.837658 58.021431 11380377
167.23572 -36.58342 58.535084 10459533
166.96869 -36.626762 59.254562 9209467
132.50993 -35.838501 -73.896996 9538177
133.20677 -36.008251 -73.205116 7762278
167.46957 -35.776615 58.753979 9735810
167.18843 -35.777836 59.56041 9275007
132.19835 -34.741688 -74.675682 9867142
132.84192 -34.844296 -74.061623 9736324
133.20796 -35.212372 -73.569939 9736836
167.58617 -34.767284 59.533394 9077885
167.34109 -34.609459 60.411964 9077886
131.98177 -33.60302 -75.390022 11906725
132.42924 -34.016697 -74.805603 14671573
133.12563 -33.956669 -74.219749 12829366
167.91304 -33.861748 59.593983 7564651
167.70341 -33.650158 60.430195 9143679
167.42064 -33.652489 61.240219 8683128
116.38831 -32.66814 -135.7489 6511954
116.97665 -32.804825 -134.92477 6511954
117.21586 -32.990364 -134.09547 9143670
117.59972 -32.91853 -133.24312 9932163
117.9477 -32.838291 -132.35612 9932163
118.37635 -32.738586 -131.24927 7169370
132.0269 -32.808216 -75.715561 9209985
132.726 -32.969757 -75.025414 13355455
167.95174 -32.839005 60.612316 8683642
167.64053 -32.799061 61.550797 10984852
116.1349 -31.825924 -136.44226 8089963
116.67673 -31.99457 -135.88805 8222572
117.16548 -32.248993 -135.33881 7367522
120.57439 -31.836088 -119.17632 8682867
120.79079 -31.780779 -118.53715 9011320
121.14644 -31.689207 -117.47346 9405566
121.49641 -31.598122 -116.41187 7958120
121.7718 -31.525726 -115.56413 7366495
121.9759 -31.471684 -114.92927 7761253
131.71045 -31.716852 -76.495979 10459537
132.28206 -31.871054 -75.921623 8354934
132.78201 -31.993618 -75.424904 9012606
168.03957 -31.782335 61.526917 9603971
167.79144 -31.73148 62.296127 9669251
116.31518 -30.829878 -136.76547 9406078
116.896 -31.112576 -136.12224 8024682
122.11067 -31.435688 -114.50639 8485232
122.37708 -31.364202 -113.66203 7630179
122.70517 -31.27523 -112.60822 11511449
122.96328 -31.204502 -111.76685 13550517
123.21748 -31.13413 -110.9269 7564651
123.52982 -31.046755 -109.879 8814203
123.83672 -30.959869 -108.83324 8551799
124.07785 -30.890816 -107.99827 8288627
124.37387 -30.805006 -106.9567 7038307
124.66454 -30.719744 -105.9172 8484979
124.89277 -30.651901 -105.08733 8484979
125.17281 -30.56768 -104.05215 8353907
125.44769 -30.483965 -103.0191 9538694
131.75494 -30.92256 -76.823441 10525072
132.42357 -31.029799 -76.183662 11117209
168.36743 -30.871264 61.590912 9538691
168.24556 -30.661999 62.236305 8288627
116.21279 -29.8717 -137.64359 11380380
116.66733 -30.036627 -137.06898 10656401
125.66328 -30.41744 -102.19433 9538694
125.92771 -30.33477 -101.16549 8552055
126.18694 -30.25264 -100.13889 10723226
126.39018 -30.187328 -99.319283 8814969
126.63925 -30.106211 -98.297012 8157555
126.88315 -30.02557 -97.276917 9341571
127.12138 -29.94553 -96.25927 8091248
127.35463 -29.866032 -95.243843 9208443
127.53728 -29.802845 -94.433205 9800836
127.7606 -29.724325 -93.422188 8879734
127.97909 -29.646296 -92.413338 8090218
128.19202 -29.568838 -91.407051 8748405
128.40007 -29.491919 -90.402916 8616818
128.52245 -29.445971 -89.801628 8090730
131.57597 -29.754009 -77.687172 9406076
132.18379 -30.067446 -77.011765 10327433
168.55511 -30.04681 62.583488 8092019
116.58419 -29.386272 -138.30612 9932678
128.64273 -29.400278 -89.201241 7564386
128.80057 -29.339622 -88.401985 7630435
128.95499 -29.279318 -87.604271 7367263
130.77751 -28.444387 -80.415398 10853012
131.26756 -28.54356 -79.637733 7234397
131.47585 -28.856714 -78.834724 7367008
131.97638 -29.071808 -78.206238 9537918
130.52348 -28.124781 -81.555428 9012606
131.13669 -28.151331 -80.850578 10326668
131.62727 -28.173088 -80.285324 9405566
150.21706 -58.393497 -9.0088234 7959401
150.45868 -58.612869 -8.2372169 7827815
150.74672 -58.779934 -7.4048848 8353646
151.13554 -58.770924 -6.392262 9077112
151.57043 -58.598331 -5.5463834 9603201
151.76826 -58.705616 -4.5315518 10261132
151.98401 -58.779064 -3.4418147 9011832
152.15523 -58.839199 -2.5314524 9209467
152.37363 -58.704151 -1.6193316 10393741
152.69737 -58.611286 -0.5214923 10720906
152.87628 -58.680622 0.39636582 10786699
153.05487 -58.752136 1.3165929 10260871
153.26668 -58.795773 2.3501737 8617592
153.58867 -58.537052 3.3527296 7565675
153.76695 -58.614658 4.281425 9670535
153.94502 -58.694195 5.2124972 9999243
154.19421 -58.585629 6.1494288 9012606
154.37209 -58.66906 7.0862193 11512225
154.69325 -58.373173 8.0337982 9538438
154.90669 -58.478096 9.1659851 9668996
155.47836 -58.313782 11.454041 7563619
149.63367 -57.378483 -11.321587 11050641
149.96324 -57.687866 -10.259733 8879991
150.3231 -57.844219 -9.2683659 7564643
150.74164 -57.729778 -8.3899193 7959401
151.10593 -57.850227 -7.4213071 8090987
151.45755 -57.884312 -6.5626531 8814454
151.85747 -57.802292 -5.5766606 9405566
152.11513 -57.765663 -4.5407872 9997703
152.29572 -57.825703 -3.6308024 9735043
152.47601 -57.887871 -2.718735 9275260
152.72168 -57.853462 -1.6741831 9604225
152.94171 -57.842575 -0.70520812 10260611
153.183 -57.772591 0.26036805 9997695
153.40697 -57.806194 1.3208959 10260871
153.58629 -57.878555 2.2454298 9472130
153.79553 -57.840382 3.1204908 9603716
154.02237 -57.886951 4.2153239 8684155
154.28546 -57.736946 5.1458201 9276034
154.47958 -57.824333 6.1618571 8354934
154.65819 -57.906815 7.1003604 8881021
154.90834 -57.800747 8.0457458 10064780
155.13461 -57.835194 9.1179085 8287600
155.36441 -57.741188 9.9912643 8484721
155.56137 -57.841022 11.037766 7826791
155.78374 -57.787483 12.042645 7563619
155.88605 -57.629475 12.804893 7563619
148.98117 -56.364769 -13.795713 9735043
149.21854 -56.596821 -13.022444 9340540
149.51135 -56.724052 -12.215723 9340539
149.84537 -56.824585 -11.336946 10392968
150.31776 -56.762978 -10.282825 9208956
150.6532 -56.867802 -9.3966045 7696229
151.01094 -56.862728 -8.5597572 8419696
151.42381 -56.948849 -7.5087781 9274748
151.71121 -57.071812 -6.7187886 9735043
151.98497 -57.303516 -5.81601 10129289
152.57384 -57.073101 -3.6364977 9997959
152.75473 -57.134525 -2.7227595 9406590
153.00645 -57.116447 -1.623894 9669250
153.21423 -57.041988 -0.81589538 9800577
153.47247 -56.966125 0.2159192 9734524
153.72299 -56.846172 1.1400106 9800578
153.9032 -56.917244 2.0663755 9012093
154.18988 -56.815411 3.1827505 9143422
154.36981 -56.890518 4.1147265 8749947
154.57993 -56.854633 4.997436 9604742
154.80771 -56.904316 6.1015391 7828847
155.07826 -56.703545 6.9811969 8749433
155.26701 -56.846645 8.0657272 10459535
155.46837 -56.85202 8.9763107 8287601
155.69905 -56.828274 9.9671478 7564136
155.95181 -56.726059 10.925541 8682099
156.11444 -56.811001 11.880795 7563619
156.15419 -56.912453 12.969582 7760998
156.28131 -56.670025 13.860287 8418665
156.35675 -56.545353 14.549221 8616298
148.39473 -55.392132 -16.0816 9931905
148.6981 -55.635727 -15.139309 8946039
149.02719 -55.854412 -14.160488 9735043
149.48788 -55.810631 -13.117352 9668994
149.85403 -55.74131 -12.320175 10524047
150.19815 -55.901382 -11.362417 9866373
150.63115 -55.866825 -10.375917 8683127
150.94173 -55.920612 -9.5955734 7762026
151.27525 -56.232613 -8.5218353 9274748
154.87009 -56.222897 5.2472186 11380380
155.0143 -56.285694 5.9985499 9999242
155.40965 -56.017216 7.3247218 8618104
155.51825 -56.066715 7.8922458 10854036
155.75343 -56.063889 8.9376221 9011580
155.95969 -56.094494 9.909462 8287859
156.26041 -55.855309 10.854149 9405820
156.47302 -55.850124 11.909412 7761765
156.59036 -55.701435 12.865368 8813683
156.61757 -55.740685 13.815567 9997952
156.63051 -55.836292 14.908127 11050383
156.757 -55.596169 15.805103 9076852
156.83194 -55.473392 16.498692 8485232
147.92575 -54.567059 -17.920401 9603197
148.25896 -54.839363 -16.916269 9273977
148.60233 -54.842712 -16.103422 9931905
149.00507 -54.748161 -15.241785 9274748
149.40585 -54.85704 -14.195225 9143162
149.75533 -54.872696 -13.357336 10458254
150.14687 -54.861187 -12.446867 10392461
150.48042 -55.162735 -11.382849 9340542
150.75011 -55.242405 -10.674793 9735812
156.79617 -55.115501 12.693657 8616561
156.95818 -54.817642 13.922985 8748147
156.99706 -54.816189 14.801659 9800318
157.02336 -54.858421 15.756798 9077110
157.10596 -54.764145 16.862823 7563874
157.25128 -54.464417 17.692009 8485232
157.30658 -54.405212 18.464741 8090736
147.38658 -53.531303 -19.92388 11380380
147.68744 -53.805626 -19.062063 9932678
148.20158 -53.787003 -17.997969 9669248
148.58037 -53.883045 -17.048697 9142648
148.93951 -53.867245 -16.216402 9208440
149.35252 -53.831028 -15.276188 9866630
149.71413 -53.967831 -14.296104 9603457
150.02074 -54.213928 -13.343878 10655633
157.24139 -54.136211 14.730404 9076858
157.35768 -53.938305 15.743771 9143419
157.48456 -53.69799 16.646461 7498337
157.4991 -53.786911 17.720894 7629669
157.52414 -53.833618 18.683193 8090736
157.66679 -53.559032 19.662617 10261133
146.9216 -52.628166 -21.660183 7300957
147.29317 -52.781738 -20.751839 9537406
147.64961 -52.744865 -20.035892 9142907
148.03284 -52.895641 -19.105564 9340286
148.49564 -52.897343 -18.129578 9866628
148.89206 -52.910149 -17.219303 9076856
149.15933 -53.077141 -16.433632 8221805
149.49384 -53.2631 -15.471575 9735043
157.73927 -53.001511 16.674435 7893608
157.83426 -52.864933 17.711815 6906460
157.89671 -52.805355 18.646324 9077117
157.91992 -52.861588 19.646893 9274752
157.99869 -52.767921 20.670444 8682611
158.08417 -52.604137 21.262157 9011576
146.51581 -51.359104 -23.580795 7563619
146.73611 -51.687313 -22.842297 10589066
147.12044 -51.886261 -21.869135 6840662
147.50374 -51.895817 -21.05759 9076597
147.98219 -51.805016 -20.131464 8089963
148.38663 -51.902168 -19.201883 9340286
148.75388 -52.277035 -18.108599 10064006
158.13675 -52.043865 17.794994 7038307
158.25528 -51.827686 18.70858 9932424
158.30634 -51.798347 19.63422 9274495
