# .PCD v0.7 - Point Cloud Data file format
VERSION 0.7
FIELDS x y z rgb
SIZE 4 4 4 4
TYPE F F F U
COUNT 1 1 1 1
WIDTH 1210
HEIGHT 1
VIEWPOINT 0 0 0 1 0 0 0
POINTS 1210
DATA ascii
166.96756 -42.69968 52.550529 8880246
166.64912 -42.606594 53.572376 12038567
158.85815 -41.383686 -24.767382 8617337
159.08057 -41.778515 -23.970852 7827822
159.50616 -41.843704 -23.020926 12761775
159.80237 -41.951927 -22.246824 10985880
160.12825 -42.006802 -21.430225 9736329
167.26152 -41.699276 52.810253 8879734
166.98657 -41.695076 53.608109 12564399
166.75845 -41.621853 54.34729 12038055
158.81789 -40.561619 -25.542788 8617337
158.99237 -40.793377 -24.983461 9867145
159.4037 -40.860607 -24.067768 8683386
159.84589 -40.975075 -23.035822 10394001
167.30403 -40.895206 53.577969 8089963
166.94566 -40.890945 54.61655 8089963
166.79807 -40.63599 55.324718 8353647
158.61201 -39.716496 -26.683264 12235429
158.97954 -39.721813 -25.91111 10327695
159.353 -39.830833 -25.039455 11314589
159.6624 -40.016373 -24.237169 9604230
167.42654 -40.218918 53.973434 8089963
167.36485 -39.794399 54.62149 8222063
167.01906 -39.79163 55.622185 10196106
166.88707 -39.368073 56.472141 8682867
158.62997 -38.502895 -27.666098 9734014
158.7811 -38.93008 -26.991335 10918287
159.3007 -38.804256 -26.011858 10195080
159.66246 -38.927029 -25.153006 9537665
167.58655 -38.948792 54.918091 10985369
167.4514 -38.735786 55.543945 11577760
167.10457 -38.73407 56.546597 9472383
166.8992 -38.522129 57.373829 8682867
158.50342 -37.676311 -28.625448 9142651
158.81628 -37.835236 -27.838387 8747634
159.24677 -37.780308 -26.985418 10260101
159.54123 -38.066879 -26.129381 9471614
167.60019 -38.100647 55.817905 8682867
167.46681 -37.728947 56.614384 9208955
167.21432 -37.534264 57.558441 10262154
167.05534 -37.25209 58.329525 11380377
158.35263 -36.446693 -29.974194 9142651
158.66185 -36.839764 -28.997896 8550257
159.11694 -36.900902 -27.996056 9273720
159.45117 -36.997635 -27.216667 9734014
167.75842 -36.82822 56.770481 9012088
167.55219 -36.615593 57.600872 9867396
167.20306 -36.616093 58.607712 10262154
167.0658 -36.404743 59.237705 9209467
158.2861 -35.767845 -30.683802 10065035
158.56573 -35.869785 -30.01413 9407363
159.03427 -35.843082 -29.058113 8420211
159.34326 -36.037506 -28.249306 8682867
167.77039 -35.978672 57.676697 9209467
167.56332 -35.766579 58.508896 10262154
167.26076 -35.696999 59.45892 9275007
158.21437 -34.554794 -31.853624 8355190
158.50667 -34.85677 -30.989244 9407363
158.97748 -34.856194 -30.006538 10262157
159.18245 -35.140984 -29.338991 8815227
167.81166 -34.958546 58.68734 8420467
167.62712 -34.643372 59.568821 9406594
167.33832 -34.621017 60.426868 8552056
158.12784 -33.712276 -32.79166 9933193
158.44604 -33.84594 -31.965805 9933193
158.86154 -33.893578 -31.058046 10393743
159.12315 -34.125557 -30.316568 10065035
167.93993 -33.63876 59.77898 9866888
167.65837 -33.640629 60.589375 8157555
167.42422 -33.571896 61.341244 8814457
157.9189 -32.411644 -34.82856 10591378
158.06247 -32.816036 -33.952312 9406848
158.40669 -32.841675 -32.94809 8879992
158.80019 -32.882076 -32.036636 8814199
159.01099 -33.173431 -31.351364 10591378
167.9771 -32.828968 60.568653 9012093
167.6102 -32.832256 61.623894 10590095
167.45705 -32.578514 62.346798 7038307
157.79382 -31.772802 -35.914196 9999243
158.12549 -31.832542 -34.873768 10262414
158.43396 -31.852495 -33.946335 9670019
158.75523 -31.876169 -33.020016 9866626
159.0004 -32.100796 -32.275326 9735041
168.09737 -32.14555 60.978748 9011579
168.03101 -31.719164 61.642521 10392973
167.71745 -31.722689 62.54343 8682871
167.60957 -31.297552 63.325527 7760997
157.45505 -30.428738 -38.70879 8089963
157.67497 -30.534145 -37.861568 10788247
157.86784 -30.779037 -36.922047 8880509
158.11447 -30.896368 -36.01646 9801865
158.4908 -30.869663 -34.953762 9144448
158.71054 -31.078836 -34.005165 8617591
158.88855 -31.288855 -33.246502 9735041
168.25186 -30.862494 61.954491 8288883
168.1301 -30.653345 62.600147 7037791
167.77399 -30.657925 63.61948 6708309
167.57773 -30.450356 64.469734 6510930
157.69962 -29.361267 -41.585011 9210491
157.59778 -29.521614 -40.953514 9144447
157.77692 -29.662109 -39.941685 8947070
157.79993 -29.882971 -38.993008 7565675
158.10544 -29.896523 -38.063652 11050899
158.37265 -30.003258 -37.024502 11314327
158.63922 -30.111172 -35.98457 9933193
168.29713 -29.905653 63.66592 6510930
168.0105 -29.8829 64.545403 6708309
168.09927 -29.496176 65.511765 9340285
168.07507 -29.278278 66.531517 10590351
150.86749 -28.673096 -107.55218 8090737
151.26741 -28.626915 -106.47759 8813945
151.3219 -28.541586 -105.43703 9734788
151.37985 -28.458118 -104.40525 9011065
156.12534 -28.554464 -52.732922 9210491
156.43532 -28.626699 -51.864208 9210491
156.79146 -28.634804 -50.94099 9012859
157.10539 -28.682514 -50.08662 8815483
157.36404 -28.848503 -49.255856 5394762
156.65976 -29.073095 -47.805645 11182232
156.93953 -29.071852 -46.864452 9734788
157.21317 -29.070614 -45.92152 8617592
157.50183 -29.073112 -44.982983 9078655
157.3983 -29.212217 -43.936062 11973027
157.29001 -29.351814 -42.89262 15458773
157.52452 -29.357067 -42.145874 9210491
168.74406 -28.974739 67.507195 10393231
168.36705 -28.980494 68.534538 10854036
168.064 -28.985544 69.356056 9538435
169.21451 -28.935801 73.447838 9735297
168.76407 -28.935225 74.46228 9077372
169.75073 -28.928934 79.600288 9275004
169.36145 -28.928473 80.414619 9406334
169.84129 -28.582857 81.399826 9143678
169.38107 -28.572031 82.18409 8814713
150.81842 -27.803421 -108.33688 9406340
151.23642 -28.158148 -107.81438 10261391
151.4213 -28.395981 -103.63396 8089963
151.46085 -28.33415 -102.86511 8089963
151.51089 -28.252249 -101.8435 8879990
151.5578 -28.170902 -100.82585 10787726
151.6017 -28.090162 -99.812172 11313813
151.64252 -28.010033 -98.802467 9735296
151.68031 -27.93046 -97.796783 8089963
151.7067 -27.871208 -97.044853 8089963
156.06236 -27.729282 -53.72102 9275003
156.34995 -27.833031 -52.878193 9671041
156.70689 -27.840029 -51.95401 9539199
157.06378 -27.847902 -51.029217 9012859
157.20961 -28.049992 -50.452084 8815483
169.94772 -27.902676 81.703499 8090992
169.67593 -27.668795 82.328331 7038307
150.97096 -26.856588 -108.65279 9209216
151.50377 -27.389212 -108.00533 11905701
153.8463 -26.736347 -84.702888 9998211
153.83487 -26.664713 -83.740234 9209467
153.82082 -26.593536 -82.781189 9932934
153.80418 -26.522919 -81.825867 11380380
153.78491 -26.452906 -80.874229 10525328
155.82234 -26.439882 -55.63097 8090475
156.01509 -26.758698 -54.815807 8090987
156.33165 -26.842234 -53.918259 10787727
156.76021 -26.799562 -52.859539 13420213
156.94498 -27.150507 -52.032734 10197128
169.9052 -26.762379 82.585396 7498857
169.58304 -26.52779 83.295822 7893614
150.78297 -25.704676 -109.32072 9867399
151.34886 -25.881292 -108.81057 8419957
153.76299 -26.383347 -79.92617 9735812
153.73204 -26.297129 -78.746323 8617075
153.69727 -26.211683 -77.571648 10590092
153.67456 -26.160784 -76.869507 9932934
155.22026 -25.487822 -69.897263 14143427
155.16208 -25.423998 -68.979805 8090987
155.62735 -25.697264 -57.884388 9604484
155.82094 -25.88089 -56.89613 8354163
156.14394 -25.877775 -55.955833 8420212
156.53053 -25.837675 -54.911358 9604227
156.65176 -26.060757 -54.028198 13023917
156.90662 -26.059799 -53.275513 13157042
170.26703 -25.857023 82.61805 8814713
169.87825 -25.620716 83.44207 7564651
150.87517 -24.838419 -109.6457 9143934
151.45436 -25.13516 -109.07064 10787985
154.55302 -25.299059 -68.269661 12828338
155.18968 -24.795847 -65.464249 9011064
155.33005 -24.780745 -64.867233 7760997
155.42122 -24.83917 -63.815487 8024170
155.42787 -24.93449 -62.86359 8683128
155.77516 -24.842976 -61.87746 8419956
155.77882 -24.939369 -60.931217 9472384
155.71147 -25.111921 -59.762012 8880245
155.86269 -25.152538 -58.822556 9932675
156.13664 -25.139877 -57.859592 9144449
156.38635 -25.170603 -56.973743 10130830
156.6021 -25.313662 -55.907139 10591380
170.13701 -24.825392 83.570381 7564651
169.81219 -24.628841 84.258232 10064780
150.59332 -23.894726 -110.28999 8157040
151.16055 -24.069378 -109.77973 8091761
170.39633 -24.028584 83.699043 10064780
170.03755 -23.83885 84.439224 9538437
169.73122 -23.558878 85.155075 9209982
150.78157 -23.075289 -110.52077 7827819
151.26555 -23.321144 -110.04116 7565675
170.35497 -22.957035 84.530106 9209726
169.89796 -22.827339 85.393402 9144187
150.51305 -21.822254 -111.29873 8353135
151.05824 -22.046534 -110.77981 8089963
170.52477 -22.193537 84.786034 7565667
170.32349 -21.73011 85.454948 8223085
169.90985 -21.632256 86.222435 8420720
150.28456 -20.573936 -112.10879 11905692
150.72606 -20.81168 -111.59646 9142392
151.211 -21.055908 -111.11552 8089963
170.50372 -20.81111 85.803719 9341310
170.31248 -20.531698 86.325203 8090986
169.87692 -20.572302 87.031563 7432289
150.39696 -19.823172 -112.38022 9141878
150.91333 -19.986803 -111.82902 9931137
170.46095 -19.732918 86.642586 8156524
170.05656 -19.651115 87.383492 8090475
150.16457 -18.762524 -113.14486 7563360
150.69945 -18.954151 -112.53144 7103067
151.0174 -19.23321 -112.09362 8089963
170.40926 -18.775928 87.410622 8946296
170.00195 -18.725248 88.134239 9735812
150.27654 -18.008766 -113.41814 9733757
150.8513 -18.094715 -112.81458 9602171
170.57718 -18.035883 87.653496 8814454
170.26718 -17.754189 88.377129 9077114
150.10873 -16.718357 -114.23637 5919050
150.60155 -16.953737 -113.63688 7760739
150.88783 -17.4137 -113.12453 10851980
170.53534 -16.920181 88.517685 9932422
170.12654 -16.869984 89.243454 9208443
149.92714 -15.589019 -115.23753 6511954
150.40437 -15.773129 -114.57523 7103837
150.79735 -16.045746 -113.90681 6972253
170.82144 -16.177559 88.562988 10458766
170.49562 -15.844672 89.438873 10458766
170.48007 -15.256135 90.219086 9537667
149.82178 -14.69722 -116.30263 10261643
150.2999 -14.88149 -115.63794 9077369
150.68948 -15.154392 -114.96344 8089963
170.89719 -14.654427 90.530334 9932424
170.54071 -14.577928 91.308044 8287859
170.4162 -14.354674 92.03614 7038307
148.90912 -13.761359 -128.0822 8682867
149.41623 -13.764704 -127.58659 11380639
148.92218 -14.161552 -126.24483 9736329
149.52335 -14.160228 -125.52806 8814713
150.09425 -14.306196 -117.66848 10656659
171.03487 -13.95762 93.443504 6643028
170.56068 -13.955746 94.253792 5920074
148.93669 -13.049228 -128.41725 8682867
149.44443 -13.052273 -127.92114 9998985
148.69089 -12.096266 -129.14095 16775151
149.19933 -12.098883 -128.64439 9275515
149.08846 -11.064356 -129.27817 9998980
149.22693 -11.383579 -128.98097 12432037
149.3347 -10.068157 -129.54489 8420719
160.58388 -43.602726 -18.879103 7695973
160.88005 -43.589458 -18.195704 8287084
161.25137 -43.660866 -17.256989 7760998
161.54964 -43.928333 -16.307997 7892581
162.59958 -44.024399 -6.2125225 10261383
162.62866 -44.023361 -5.2364187 11905692
162.65222 -44.022331 -4.260108 10984590
162.6696 -44.021309 -3.2837276 8419440
162.68144 -44.020287 -2.3072529 8879991
162.68709 -44.019276 -1.3307036 9274749
162.68625 -44.018066 -0.15883625 8814201
162.67932 -44.017067 0.81769383 8090736
162.66609 -44.016075 1.79414 7038812
162.64745 -44.015083 2.7705765 7762277
162.62811 -44.014297 3.5515156 6512978
164.01942 -44.007614 8.7189369 10261128
163.95869 -44.00666 9.7032814 8287850
163.89236 -44.005707 10.687307 5920074
163.81981 -44.004864 11.670908 7104348
163.74165 -44.003925 12.654036 7696485
163.66759 -44.005749 13.637669 6510930
164.89236 -43.997547 17.746157 10327179
164.7776 -43.996643 18.735657 11971488
164.65657 -43.995739 19.724339 10129289
164.53001 -43.994846 20.712412 12432301
164.42427 -43.994133 21.502245 10261132
165.64705 -43.989632 24.715284 13551541
165.52174 -43.98893 25.510424 11512217
165.32707 -43.987892 26.702044 11906719
165.15843 -43.987034 27.694016 12629672
165.05438 -43.986523 28.288696 11708828
166.17421 -43.982033 31.583452 6511954
165.97591 -43.981197 32.580334 7563874
165.77187 -43.98037 33.576122 8682867
165.64667 -43.97987 34.172977 10853521
166.81781 -43.975876 36.940479 7959144
166.68016 -43.975346 37.540981 7367263
166.44598 -43.974586 38.540836 6840922
166.20612 -43.973797 39.539341 8551287
167.26787 -43.969627 42.574436 8616562
167.00371 -43.968853 43.577827 11050643
166.78792 -43.968235 44.379292 8089961
167.71365 -43.825554 45.713757 8089963
167.63101 -43.748192 46.559376 7038307
167.55064 -43.632595 47.494202 10064525
167.39732 -43.707714 48.453369 12301739
167.27278 -43.700504 49.42268 9208443
167.19806 -43.567059 50.364925 10985366
160.28 -42.444866 -20.667318 13486007
160.40109 -42.796516 -20.056541 12367784
160.72777 -42.88662 -19.205439 9275516
161.17271 -42.813156 -18.228189 10063492
161.42131 -42.929256 -17.536442 7563619
167.79112 -42.942749 47.585194 11907239
167.69246 -42.870087 48.539871 12301739
167.61115 -42.753021 49.486176 9406078
167.50406 -42.677414 50.513271 12367534
167.42534 -42.478642 51.4622 10853782
160.12444 -41.595108 -21.82119 9736329
160.39322 -41.805115 -20.994883 10394253
160.72063 -41.902889 -20.135004 9999238
161.12894 -41.819809 -19.252661 10657166
161.31781 -42.216759 -18.440517 10458249
167.95329 -42.103756 48.689442 10392973
167.98001 -41.712948 49.575531 9208443
167.86017 -41.71674 50.478695 14671317
167.71333 -41.662201 51.492825 12170156
167.46756 -41.702999 52.211681 9208443
160.16257 -40.507259 -22.740885 9736329
160.33916 -40.808987 -22.046038 9736329
160.7115 -40.870335 -21.114332 9407615
161.04037 -41.008221 -20.21376 7959657
161.30852 -40.971588 -19.617754 8288622
168.11523 -41.03931 50.423901 14210509
168.00949 -40.860023 51.496387 12104362
167.69034 -40.858982 52.503567 8879994
167.5567 -40.644669 53.126511 8617337
159.97279 -39.656994 -23.890957 8223349
160.27124 -39.860809 -23.073692 9933708
160.7007 -39.840633 -22.095045 8881278
161.02995 -39.934624 -21.234261 9144443
168.1846 -40.231655 51.772224 9208443
168.08467 -39.804581 52.533329 8880252
167.74963 -39.799149 53.506092 9077887
167.71773 -39.374439 54.068459 7038307
159.86932 -38.686657 -24.923075 9537665
160.20387 -38.789398 -24.137846 9538176
160.68663 -38.813316 -23.076521 12697010
160.94116 -39.125763 -22.193312 9012606
168.27835 -38.957783 52.912388 8617337
168.2001 -38.70142 53.422039 8288372
167.84018 -38.6968 54.465603 8617080
159.81053 -37.556774 -25.995764 10261132
160.0759 -37.901379 -25.151678 10261132
160.50974 -37.849892 -24.288864 9406335
160.82527 -38.01535 -23.490574 14605262
168.38872 -37.966908 53.69112 9670023
168.18132 -37.741505 54.539108 7828590
167.92635 -37.557114 55.47892 9275265
159.65767 -36.75573 -26.988615 10457479
160.02171 -36.874588 -26.128248 9603458
160.51083 -36.740658 -25.219189 10261132
160.72005 -37.043724 -24.527313 9668994
168.52771 -36.620617 54.780994 7039331
168.26256 -36.660851 55.501392 9801352
168.00711 -36.510479 56.404919 10985111
159.65294 -35.673401 -27.908493 9735297
159.96596 -35.850254 -27.105967 11313558
160.34418 -35.952785 -26.229742 9275264
160.71758 -35.953781 -25.449047 8618105
168.56358 -35.839962 55.541916 9012350
168.2623 -35.76725 56.491581 8288109
167.96062 -35.695461 57.441483 8156779
159.54341 -34.714893 -28.943201 11248536
159.90874 -34.828636 -28.084509 10261641
160.32654 -34.882706 -27.166407 10261641
160.5052 -35.109673 -26.602251 10262415
168.56909 -34.873947 56.59576 7762021
168.3483 -34.649605 57.481148 7762021
168.11771 -34.418884 58.401943 8814711
159.47124 -33.713261 -29.936186 9275777
159.85002 -33.809135 -29.064291 10722192
160.22952 -33.906448 -28.189884 9472126
160.4593 -34.290531 -27.386944 10261641
168.6763 -33.744011 57.537762 7104091
168.41855 -33.594585 58.446953 7762028
168.151 -33.63781 59.171219 7564651
159.32013 -32.805851 -31.014734 9867913
159.78993 -32.792023 -30.045042 8749947
160.20894 -32.840717 -29.128908 9406078
160.38876 -33.06461 -28.565168 10129545
168.72438 -32.783215 58.463257 7893616
168.37233 -32.784031 59.478008 10262416
168.23392 -32.571308 60.113224 9736073
159.30978 -31.731749 -31.93955 9538177
159.64784 -31.818316 -31.160635 9275778
160.04427 -31.94603 -30.225153 9276034
160.34056 -32.248974 -29.351542 10129545
168.94398 -32.141735 58.540234 7564651
168.77237 -31.767731 59.449509 10525588
168.45526 -31.715775 60.422081 8091505
168.31616 -31.503103 61.059002 9538691
158.97256 -30.508064 -34.060707 7828335
159.18712 -30.803871 -33.052204 9077370
159.60202 -30.908598 -32.047417 9866884
160.03934 -30.869793 -31.153463 11380380
168.9599 -30.857403 59.916851 7039331
168.84038 -30.647303 60.561787 7631211
168.55658 -30.649239 61.377056 9538691
168.43515 -30.439745 62.022804 8288883
158.50746 -29.384308 -38.963673 9472640
158.79247 -29.393829 -38.02541 12235172
158.91283 -29.536619 -36.968075 10854035
159.13466 -29.581381 -36.095188 10262157
159.26541 -29.772919 -35.122112 10064779
159.38385 -29.963654 -34.147469 8946296
159.65144 -30.019981 -33.284149 8682867
159.96536 -30.204596 -32.269123 8879991
169.1526 -30.031998 60.905293 8288883
169.01199 -29.898333 61.622147 9933448
168.83952 -29.772449 62.559166 7828333
168.92078 -29.449787 63.362598 7696746
168.81644 -29.269701 64.486137 9077113
157.3582 -28.451136 -49.66861 5394762
157.61687 -28.617647 -48.837276 7959918
157.93068 -28.667337 -47.981178 8485235
158.2867 -28.679586 -47.054295 8485235
158.59592 -28.757504 -46.181721 9274747
158.15852 -29.086132 -42.92223 12499115
158.45413 -29.093143 -41.983936 10460045
158.74785 -29.100819 -41.044422 10788759
159.03973 -29.109133 -40.103889 9144449
159.27196 -29.116327 -39.350582 8091503
169.49144 -28.96538 65.451363 13682619
169.1188 -28.969715 66.479416 11577245
170.09654 -28.937042 71.410614 9143681
169.6584 -28.93642 72.430511 9143681
170.70682 -28.930109 77.556145 9012088
170.32733 -28.929634 78.375191 8814709
170.59827 -28.716061 79.417984 9209467
170.41672 -28.59724 80.418633 10919828
151.91866 -27.860863 -107.47862 9406340
152.34837 -28.055031 -106.96237 9077117
153.91989 -27.481876 -94.351196 8814713
153.91167 -27.440456 -93.840485 8616048
157.34615 -27.656103 -50.495792 8815483
157.49193 -27.858562 -49.918385 8815483
157.84868 -27.868563 -48.991787 9932935
158.20541 -27.879457 -48.064335 9208699
158.44402 -27.953783 -47.376797 9406077
170.78143 -27.751974 80.403664 9735811
170.34689 -27.570238 81.266083 8683126
152.07361 -26.911949 -107.79397 10326926
153.89752 -27.378431 -93.076508 9142135
153.87595 -27.296255 -92.061111 8089705
153.85696 -27.215633 -91.053352 8881020
153.8618 -27.121325 -89.818642 8618105
153.86504 -27.028288 -88.591003 7038307
153.86436 -26.954477 -87.613274 8946043
153.86105 -26.881178 -86.639465 10854036
153.85501 -26.808533 -85.669289 9735296
157.23369 -26.593445 -51.849445 9868164
157.47653 -26.863792 -50.954266 8947067
157.83418 -26.872395 -50.026562 13946565
158.15674 -26.930889 -49.139133 10196108
158.41171 -27.287619 -48.126781 9932163
171.12653 -26.790462 80.504684 8419952
170.73856 -26.552673 81.328171 9143675
170.35022 -26.31562 82.151794 7038307
151.88455 -25.756542 -108.46078 9998209
152.35483 -25.854593 -108.06263 9208435
155.59296 -25.998476 -77.124039 7892582
155.54253 -25.914143 -75.944084 12630964
155.48857 -25.83045 -74.769417 11380895
155.44252 -25.764132 -73.833855 8682867
155.39415 -25.698317 -72.901863 7037274
155.34331 -25.632957 -71.973366 9340030
155.29016 -25.568155 -71.048401 14076870
156.98447 -25.686399 -53.931698 10591380
157.22443 -25.83568 -52.879059 14670540
157.50708 -25.875858 -52.008961 12368045
157.84511 -25.879963 -51.073082 11183257
158.13705 -25.950453 -50.191853 10525070
158.32376 -26.087381 -49.555378 10985364
170.93399 -25.718763 81.590759 9341054
170.60992 -25.521164 82.27816 9406848
151.97861 -24.888395 -108.78521 11643295
152.56268 -25.186993 -108.21028 11709087
156.31534 -25.023441 -66.817001 8485488
155.75067 -24.909193 -66.137833 11380380
157.01692 -24.462528 -62.713879 7367013
156.28613 -24.68026 -60.696671 9340539
156.46495 -24.662636 -59.905018 9735296
156.68729 -24.641182 -58.916466 10590347
156.90805 -24.620531 -57.9291 9144449
156.99164 -24.715712 -56.823433 11841189
157.16948 -24.725994 -55.980511 10920345
157.20097 -24.985775 -55.007099 9012606
157.50479 -24.998188 -54.03867 7499625
157.7021 -25.159079 -53.038155 9934221
157.95615 -25.31044 -51.946186 10460308
170.87 -24.725222 82.404732 9670019
170.48021 -24.488485 83.230804 7564651
151.69722 -23.942097 -109.43032 9143934
152.26643 -24.117811 -108.91817 11051157
156.62094 -24.367233 -61.906582 7433064
156.84628 -24.344769 -60.912113 9011576
157.07018 -24.322943 -59.918835 11248019
157.29245 -24.301888 -58.92688 9275005
157.46928 -24.285563 -58.133961 9144449
171.16785 -23.813618 82.549767 9406847
170.76428 -23.760048 83.268883 9011833
151.87717 -22.8941 -109.77158 8683640
152.37312 -23.367979 -109.17902 10787985
171.03229 -22.938009 83.400635 9143419
170.72563 -22.656832 84.117897 9143419
151.6183 -21.864462 -110.43758 10524300
152.21576 -21.850138 -109.99049 9274492
171.29897 -21.975971 83.634224 8089963
170.97356 -21.740149 84.350967 7432031
170.8222 -21.276995 84.935326 7366237
151.3477 -20.607281 -111.21628 8089963
151.83472 -20.85191 -110.73498 8616049
152.32204 -21.097334 -110.25312 9340027
171.33289 -20.669275 84.505455 7695200
170.92889 -20.586271 85.245995 7826786
151.4525 -19.853951 -111.48023 9931137
152.02504 -20.025433 -110.96735 9273721
171.50404 -19.901211 84.762138 7366237
171.22757 -19.6658 85.396301 7103066
170.82294 -19.583321 86.138016 6774869
151.76752 -18.984749 -111.63743 8813171
152.13074 -19.270235 -111.23145 9010550
171.46294 -18.819551 85.600899 7103835
171.05766 -18.737066 86.343697 6511954
170.78024 -18.502029 86.979118 8288621
151.35933 -18.106041 -112.348 8089963
151.9212 -17.986469 -111.97597 8089963
171.41255 -17.859402 86.368912 7170140
170.9509 -17.730261 87.240044 9472895
151.15425 -16.507446 -113.32475 10851980
151.60359 -16.972759 -112.6909 9142905
171.69978 -17.118422 86.411079 6511954
171.30382 -16.881159 87.248154 10460048
170.90756 -16.644365 88.085487 10788247
151.48811 -15.722431 -113.57505 9275264
151.79634 -16.063042 -112.95586 9735558
171.5731 -16.068539 87.386581 10196366
171.34091 -15.589128 88.310997 10525075
171.06976 -15.260544 89.217484 13024949
151.38608 -14.828801 -114.63567 8880249
151.66843 -15.167889 -113.99404 8880507
171.84882 -14.810448 88.575508 9143681
171.48816 -14.695735 89.437912 11116696
171.47264 -14.360517 90.220924 8156015
150.26201 -13.770712 -126.7597 9604227
150.27071 -14.15857 -124.6284 8616048
150.86472 -14.157246 -123.90528 6971481
151.05835 -14.315739 -116.68014 10590865
151.70111 -14.322397 -116.01984 9142907
171.74522 -13.960883 92.227074 8221549
172.34354 -13.6168 95.522133 7893358
171.9046 -13.618509 96.364159 8551280
149.95241 -13.05554 -127.42471 10392972
150.55153 -13.138868 -126.79874 9866113
172.24135 -12.900702 96.281654 11314071
149.77399 -11.863644 -128.20422 8092011
150.10197 -12.151624 -127.73837 9274488
150.65971 -12.345839 -127.09643 10853012
172.54472 -11.941797 96.452698 12432037
172.40047 -11.702275 96.918137 11380123
149.80252 -11.147365 -128.54056 9538686
150.40359 -11.230098 -127.91304 8945521
172.7045 -10.740034 97.090561 11380124
149.68921 -9.7099438 -129.38173 8092011
150.18794 -10.020222 -128.7383 9538686
149.95444 -8.7495737 -129.61168 10064776
149.94501 -7.5441756 -130.23373 9209985
150.08434 -7.8662977 -129.93428 9999241
150.14481 -6.8190608 -130.40784 9209985
150.42046 -7.0616875 -130.01593 9538432
150.34496 -6.0923462 -130.58226 11380639
161.77202 -43.65881 -16.035675 8089959
162.07079 -43.823639 -15.180765 7037274
162.3983 -43.794277 -14.171587 7892585
162.4165 -43.943829 -13.31367 10326924
162.28673 -44.030937 -12.258715 9405823
162.35255 -44.029869 -11.284382 10262924
162.41223 -44.028805 -10.309646 8815478
162.46637 -44.027744 -9.3346148 12434093
162.51425 -44.026699 -8.3592386 13157042
162.56419 -44.02544 -7.1884413 9276028
164.29071 -44.01548 0.83433163 9997959
164.28065 -44.014675 1.6233007 9735043
164.26253 -44.01368 2.6093369 9406335
164.23891 -44.01268 3.5953445 8024940
164.20895 -44.011696 4.5811329 8287859
164.17351 -44.010712 5.5666943 9537667
164.13167 -44.009743 6.5520821 9734531
164.07394 -44.008575 7.7341995 8222064
165.39374 -44.002377 12.590809 8288622
165.3101 -44.001438 13.583452 5920074
165.21999 -44.000504 14.575499 7563618
165.12436 -43.999523 15.567043 16775143
165.02237 -43.998619 16.557835 11314845
166.21448 -43.993183 20.730858 9931910
166.10837 -43.992432 21.528769 8089963
165.97087 -43.991573 22.525454 8287597
165.82703 -43.990685 23.521345 7827046
165.70813 -43.989979 24.3174 7037274
166.8727 -43.985268 27.784595 9867660
166.73256 -43.984577 28.58568 14208453
166.55258 -43.983719 29.586109 8682867
166.36624 -43.982872 30.585278 7959144
167.51459 -43.978512 33.729115 9734779
167.3459 -43.977814 34.533138 7038041
167.13013 -43.97702 35.537098 6511954
166.95306 -43.97636 36.339317 7959144
168.02473 -43.972008 39.555199 7169884
167.77837 -43.971207 40.563046 10787732
167.78554 -43.881836 41.563625 8814197
168.23405 -43.562519 42.480755 8024170
168.11353 -43.547588 43.44133 8550513
167.96564 -43.578171 44.482746 8418927
167.85168 -43.538319 45.462711 8616050
167.80148 -43.421097 46.172421 9734273
161.66913 -42.837471 -17.039268 7563619
162.06711 -42.774872 -16.1625 9011058
162.4415 -42.848286 -15.214682 8024166
162.66714 -43.103748 -14.447445 8682356
168.42326 -42.904194 42.874287 8089963
168.37437 -42.784378 43.581722 8089963
168.29056 -42.736675 44.353176 9537407
168.14215 -42.767879 45.397587 9997188
167.99303 -42.800434 46.443439 10523532
167.94702 -42.618244 47.302311 11314844
161.4613 -41.412544 -18.849522 11904668
161.5833 -41.766586 -18.234509 10326663
161.91307 -41.910336 -17.326441 8089962
162.43677 -41.799839 -16.19858 8484716
162.66324 -42.05254 -15.432092 9734779
168.55164 -41.972263 44.495266 8089963
168.46936 -41.841457 45.487118 9734273
168.39644 -41.691006 46.462864 11838877
168.2086 -41.842991 47.470585 10459281
168.19289 -41.560024 48.379509 11248539
168.11906 -41.423241 49.32373 9208443
161.30484 -40.557495 -20.010443 8288622
161.57579 -40.769489 -19.177256 11181458
161.90588 -40.868801 -18.309584 9011061
162.31296 -40.852383 -17.368444 8222060
162.50829 -41.1861 -16.600006 9734788
168.71036 -40.807087 46.535183 9340287
168.61258 -40.731228 47.492191 9011838
168.45927 -40.804161 48.457058 9011838
168.34377 -40.753586 49.478611 9538181
168.26328 -40.618469 50.468906 14210509
161.36963 -39.536404 -20.805641 8617843
161.52179 -39.767582 -20.233757 8486257
161.89719 -39.830273 -19.293545 9866626
162.22881 -39.969837 -18.384975 9602941
162.35191 -40.323959 -17.767176 7038298
168.83485 -40.101067 47.55558 9011838
168.8271 -39.792191 48.476189 8090994
168.70776 -39.796867 49.372578 8090476
168.60117 -39.717854 50.405525 10459793
168.47021 -39.718445 51.373188 10919832
168.40826 -39.385536 52.063999 7038307
161.18439 -38.615826 -22.094973 10919317
161.43738 -38.8778 -21.257526 9669763
161.88675 -38.794701 -20.278759 9735299
162.21877 -38.890064 -19.410343 9603455
169.03879 -38.890991 49.376015 8814454
168.95869 -38.753689 50.369686 8222317
168.83717 -38.70203 51.39748 7367267
168.55875 -38.749962 52.333469 8222579
161.09398 -37.809319 -23.055384 13091767
161.42542 -37.899471 -22.193293 10919061
161.87489 -37.761909 -21.264896 9932424
162.12964 -38.076302 -20.374662 10392718
169.18443 -38.080662 50.52652 7037274
169.10321 -37.94062 51.479572 7038817
168.97578 -37.631538 52.368816 8025711
168.67361 -37.545261 53.335983 8091249
160.90698 -36.389305 -24.687334 10261132
161.05829 -36.738789 -24.077318 9866629
161.41147 -36.87204 -23.179255 9603201
161.78868 -36.926392 -22.242525 9537665
162.01526 -36.959724 -21.679083 7038307
169.24446 -36.701645 52.623394 9406848
169.01428 -36.626751 53.370335 8288882
168.73633 -36.62294 54.176487 7433831
160.69525 -35.542706 -25.841206 8618105
161.00583 -35.749275 -25.018791 9933450
161.37735 -35.842983 -24.16395 10261899
161.72911 -35.933582 -23.303595 10130057
162.00395 -36.136051 -22.469994 9208443
169.30788 -35.777222 53.464108 8617331
168.9597 -35.772728 54.473572 7959660
168.75417 -35.557362 55.305111 9012350
160.86572 -34.750492 -26.151241 7894639
161.3219 -34.812073 -25.146585 10459794
161.69693 -34.945736 -24.25094 10393485
161.84007 -35.293415 -23.636806 9735555
169.45862 -35.138287 53.736702 7564643
169.35294 -34.794827 54.421864 9538176
169.04706 -34.706337 55.40229 8748662
168.84064 -34.491417 56.23587 9604226
160.58038 -33.493546 -27.804182 8682867
160.73347 -33.837719 -27.194971 9275519
161.12558 -33.853012 -26.363073 8157554
161.63828 -33.873524 -25.274895 9670535
169.48395 -33.641331 55.321224 8484977
169.13365 -33.638847 56.334576 8156012
168.92639 -33.424271 57.170223 7762021
160.67691 -32.855953 -28.138586 9932422
161.20367 -32.706432 -27.164007 9209212
161.43517 -33.091816 -26.356436 7828332
169.63437 -33.000397 55.596928 8089963
169.4272 -32.78484 56.433483 8418928
169.07599 -32.783459 57.448429 9472640
160.35582 -31.576571 -29.885015 9144448
160.61424 -31.79439 -29.162117 9932422
160.99008 -31.918743 -28.272444 9866629
161.43262 -31.835314 -27.418299 10261643
169.7213 -31.929302 56.532513 10261385
169.51331 -31.714037 57.371082 9142650
169.20444 -31.627855 58.357731 7761772
169.09593 -31.285364 59.050053 7564651
160.25148 -30.623487 -30.928415 11380380
160.50757 -30.851933 -30.178715 9867400
161.01221 -30.786879 -29.233482 9406078
161.30356 -30.98004 -28.406841 9932422
169.80748 -30.856802 57.471783 8089962
169.61896 -30.645372 58.319496 7826790
169.2654 -30.645626 59.338772 10064780
169.14616 -30.435156 59.983662 9538691
159.9691 -29.441204 -34.070286 8682867
160.18533 -29.579401 -33.04641 8682867
160.43915 -29.748348 -32.105774 8682356
160.73462 -29.888065 -31.219854 10590865
160.9379 -30.144108 -30.338333 10459279
161.18227 -30.326609 -29.50367 10129545
169.80943 -29.867697 59.394421 11905954
169.63522 -29.714731 60.436096 8223090
169.64238 -29.444475 61.315327 7959919
169.62209 -29.263521 62.234035 8092019
158.78291 -28.498524 -45.960743 8682867
158.9987 -28.706942 -45.197491 11050899
159.42604 -28.725258 -44.081257 9933702
159.78221 -28.741529 -43.149746 8880502
159.99747 -28.952751 -42.385151 7826533
159.44537 -29.121979 -38.785332 8682867
159.67505 -29.129873 -38.030369 11050899
159.95969 -29.140123 -37.085621 11774880
160.24234 -29.151104 -36.139805 8486262
160.52332 -29.16267 -35.192501 9933193
160.74666 -29.172472 -34.433804 12695984
170.23016 -28.958832 63.393566 11644324
169.8618 -28.961779 64.422684 11512993
170.86958 -28.93819 69.568268 7038307
170.52826 -28.937677 70.388054 9143165
171.54623 -28.931196 75.706909 9208187
171.26855 -28.930834 76.324341 8681843
170.98897 -28.930468 76.940849 9209467
171.56844 -28.628946 78.452614 10064775
171.22278 -28.618975 79.043007 14604230
153.08755 -27.697033 -106.66113 9340287
153.3539 -28.096973 -106.02972 8813943
153.82104 -28.347549 -104.99688 8155756
153.9115 -28.272261 -103.98243 9866371
153.92744 -28.184658 -102.92427 8945271
153.93974 -28.097607 -101.87032 8550257
153.94823 -28.011118 -100.82046 8550257
153.95316 -27.925083 -99.774712 11972001
153.95433 -27.83956 -98.732986 11709852
153.95197 -27.754587 -97.695419 9341819
153.94606 -27.67013 -96.661926 7893614
153.93651 -27.586128 -95.632446 8354163
153.92722 -27.523493 -94.862907 8814713
158.68021 -27.828857 -46.894966 8616819
158.99022 -27.906818 -46.020443 9274747
159.34705 -27.920729 -45.08971 11314327
159.70392 -27.935667 -44.15778 9736067
159.9198 -28.145868 -43.39254 8287853
171.71793 -28.176779 78.521614 10064775
171.51112 -27.657003 79.239906 10656911
171.20854 -27.249361 80.040031 9209467
152.89174 -26.559477 -107.34447 9208435
153.25595 -26.849588 -106.94247 8682358
155.96527 -26.445688 -82.966118 11577244
158.4725 -26.490822 -48.768497 8485235
158.68994 -26.697088 -48.003269 10392712
158.92833 -26.961699 -47.125813 9669248
159.3364 -26.918806 -46.120239 9274747
159.65207 -27.010809 -45.217056 9340796
159.76965 -27.336651 -44.588696 9538688
171.79308 -26.654774 79.476158 8946295
171.46968 -26.455904 80.163185 9275260
152.91409 -25.88253 -107.63431 9208435
153.47438 -25.910814 -107.20512 9208435
155.89801 -26.367832 -81.976151 8879989
155.82767 -26.290483 -80.990273 7037274
155.75435 -26.213644 -80.008369 7563874
155.67804 -26.13726 -79.030449 7827046
155.63039 -26.066566 -78.072227 8813683
158.39098 -25.689852 -49.784897 11577500
158.60779 -25.895203 -49.01825 9208435
158.96626 -25.905457 -48.086559 9932416
159.32478 -25.916531 -47.153976 9602939
159.56461 -25.991381 -46.462742 9602941
171.73126 -25.660967 80.286583 8683124
171.2677 -25.649984 81.076584 8419952
152.70149 -24.741161 -108.30903 11709087
153.19266 -24.991034 -107.83081 9471864
157.25812 -25.383537 -70.80526 10985881
157.17145 -25.329134 -70.089516 8092019
157.06009 -25.258064 -69.141151 9736071
156.96785 -25.177809 -67.983162 9406590
157.50027 -24.560003 -63.342068 7367013
157.97136 -24.56485 -53.84499 8420727
158.19754 -24.559736 -53.076839 10460308
158.35614 -24.744537 -52.07653 9276035
158.54291 -24.934198 -51.087166 11380121
158.86304 -24.936182 -50.140999 12827051
159.04697 -25.127562 -49.152874 9932416
159.26358 -25.224604 -48.280247 9932416
159.54292 -25.323135 -47.218243 8748401
172.03076 -24.750509 80.428062 9012091
171.56635 -24.740015 81.219208 8748917
152.80849 -23.991358 -108.56892 10458761
153.38611 -24.169138 -108.0591 9998209
158.10562 -23.99095 -59.012562 10262158
157.90463 -24.055443 -58.006962 11578273
158.01521 -24.093477 -57.047218 12170154
158.23325 -24.074627 -56.056721 12433069
158.48911 -24.024349 -55.165749 9538693
158.34041 -24.211033 -54.18124 8552312
158.65584 -24.199667 -53.017624 9670793
158.93813 -24.194164 -52.055096 8881019
159.10712 -24.191103 -51.477562 9735812
171.8972 -23.87458 81.275795 8748917
171.50287 -23.743753 82.034142 8419184
152.64937 -22.472713 -109.3775 9143934
152.99089 -22.940998 -108.90929 8945526
153.49396 -23.417498 -108.31919 10458761
172.16556 -22.913721 81.505592 7564651
171.76488 -22.807007 82.257545 8551028
152.75642 -21.720013 -109.63937 8879477
153.2316 -21.814903 -109.23969 8682099
172.07419 -21.759073 82.48011 8748152
171.69519 -21.686361 83.171303 8748661
152.46011 -20.647705 -110.35332 8089963
153.04712 -20.94286 -109.77415 8550513
172.09889 -20.604506 83.258804 8616564
171.69469 -20.520878 84.000259 8550507
152.5666 -19.892773 -110.61668 8353134
153.14133 -20.065285 -110.10201 8089963
172.28241 -19.681393 83.604904 8353136
171.93066 -19.675947 84.2024 8682094
171.65398 -19.440287 84.836922 7366237
152.85643 -19.112331 -110.7525 9142136
172.23146 -18.752728 84.351006 8287341
171.82594 -18.669687 85.094666 7103323
152.48643 -17.798304 -111.63262 8419437
153.04024 -18.021425 -111.1104 8748659
172.34 -18.057199 84.662521 7564136
172.14824 -17.775507 85.18663 9407359
171.78477 -17.584929 85.935715 6511954
152.21323 -16.532078 -112.41737 7367263
152.8031 -16.823748 -111.83658 6840919
172.36411 -16.893213 85.449844 9933702
171.95711 -16.810661 86.195564 7696228
152.55132 -15.745959 -112.66694 7301473
152.91287 -16.093058 -112.08643 6511954
172.32434 -15.960124 86.20797 9802116
172.17215 -15.384079 87.172256 8880508
152.3847 -14.844015 -113.67671 8485749
152.71819 -15.188867 -113.07308 6511962
172.55777 -14.816799 87.369568 9143681
172.42316 -14.591065 88.086334 9143681
172.1754 -14.365182 89.008873 9603715
151.27812 -13.778496 -125.76603 9603200
151.3078 -14.156252 -123.36127 9143422
151.74901 -14.15526 -122.81536 9932679
152.18803 -14.154268 -122.26835 7564651
152.18327 -14.327617 -115.52352 8616307
152.66553 -14.332932 -115.02661 8090992
172.80824 -13.966881 90.399696 10063750
172.33615 -13.964052 91.212227 8813687
173.33046 -13.614194 93.628143 7563618
173.00163 -13.614862 94.259346 8616307
172.67264 -13.615732 94.890762 8814201
151.03584 -12.824943 -126.48656 9734527
151.44489 -13.185043 -125.90515 9603201
173.22986 -12.897711 94.384743 9011579
172.79063 -12.898844 95.227699 8353651
151.14734 -12.062602 -126.7655 9800320
151.67885 -12.352619 -126.10033 9734788
173.23761 -11.836959 95.203835 8288114
172.90184 -11.508657 96.107101 11445658
150.90154 -11.073327 -127.50781 9405560
151.50343 -11.156468 -126.87936 9931906
173.58679 -10.737721 95.397346 10590351
173.25099 -10.545788 96.193382 9866629
172.96736 -10.257458 96.965065 11380124
150.71167 -9.7139683 -128.38388 7894120
151.22968 -9.956295 -127.75617 8945268
151.53406 -10.43791 -127.21486 9405560
173.52812 -9.5317345 96.458206 9208443
173.19652 -9.5325022 97.094627 11906468
150.92404 -8.704648 -128.69022 9143674
151.42447 -8.9955835 -128.05489 8879733
173.50267 -8.5634499 97.267715 10261387
150.5625 -7.787076 -129.50883 8617330
151.16505 -7.8370676 -128.89653 8749173
173.62193 -7.8350062 97.610664 9208443
150.912 -6.7721262 -129.68445 7696485
151.44846 -7.0640526 -129.0135 9538432
150.66304 -5.7689867 -130.43697 12104105
151.19052 -5.9316907 -129.8405 7104348
150.85182 -4.8771062 -130.70654 11051930
151.30032 -5.1211653 -130.14563 9736070
151.04115 -3.9825439 -130.97699 8091760
151.21861 -2.9218333 -131.34343 6512986
163.01842 -43.527626 -13.229013 10392718
163.34448 -43.667126 -12.333443 9735557
163.72133 -43.748302 -11.37275 10131594
164.02711 -43.856911 -10.48303 13947332
164.07564 -44.026268 -9.4188023 11183766
164.12395 -44.0252 -8.4337378 10525837
164.16678 -44.024147 -7.4484186 9210491
164.20329 -44.02309 -6.4628124 8682867
164.23421 -44.022045 -5.4770594 8682867
164.25888 -44.021004 -4.491127 9209211
164.28087 -44.019764 -3.3078041 9011833
164.29283 -44.018734 -2.3216648 8879991
164.29843 -44.017712 -1.33543 9537664
164.29861 -44.016693 -0.34916484 8089963
164.29578 -44.016087 0.2425977 8089963
165.80605 -44.00885 5.8301487 8616307
165.78062 -44.008259 6.427248 8089963
165.73364 -44.007278 7.4223022 9340030
165.66959 -44.006111 8.6159286 9142910
165.60977 -44.005146 9.6102276 7038307
165.54364 -44.004185 10.604185 7235423
165.47191 -44.00333 11.597748 6775383
166.7688 -43.997593 15.933121 6510930
166.70689 -43.997032 16.533661 10064268
166.59904 -43.996109 17.534037 9340544
166.4856 -43.99519 18.533848 8024943
166.36575 -43.99427 19.532852 10195082
166.26596 -43.993549 20.331608 9931910
167.5137 -43.988789 23.769934 14076861
167.42354 -43.988251 24.373049 8090987
167.26857 -43.987366 25.377623 8222572
167.10794 -43.986485 26.381302 8552052
166.97488 -43.98579 27.183517 9867660
168.14954 -43.98122 30.505032 15196110
167.99631 -43.980537 31.312132 10853779
167.75967 -43.979519 32.521442 8813680
167.59732 -43.978844 33.326794 9734779
168.72701 -43.974449 36.522804 8419440
168.66858 -43.828949 37.445942 8222316
168.5257 -43.801239 38.393475 8748916
168.47237 -43.75634 39.164036 8551537
168.50114 -43.571529 40.419872 8616818
168.44131 -43.419708 41.299549 8090730
168.39304 -43.298923 42.004314 8090730
162.96608 -42.637833 -14.177416 7827563
163.26761 -42.804443 -13.314413 8879995
163.69873 -42.803032 -12.302822 10196107
163.97258 -43.022697 -11.455648 9407871
164.17467 -43.208 -10.808976 14078918
168.92668 -43.07629 38.557865 7367263
168.91931 -42.81562 39.340996 7367263
168.79997 -42.786636 40.331474 7695972
168.70238 -42.657211 41.436138 8090730
168.58528 -42.678787 42.268528 7367005
168.54163 -42.492523 43.12093 7300958
162.86253 -41.811401 -15.187517 9076851
163.26408 -41.749439 -14.301443 7432805
163.64203 -41.824268 -13.344151 7827565
163.8698 -42.081818 -12.570014 9537667
169.13867 -41.863731 40.323795 7038298
169.02733 -41.817474 41.301487 8353645
168.881 -41.843723 42.34367 8287592
168.7339 -41.871483 43.387299 7958628
168.76862 -41.410408 44.408459 8089963
168.71915 -41.290794 45.119816 8089963
162.65334 -40.377583 -17.009268 7564392
162.8443 -40.77792 -16.189053 9011323
163.18443 -40.8936 -15.282696 9142907
163.6375 -40.769585 -14.333369 8947320
163.86592 -41.024345 -13.56012 13486013
169.25983 -41.058315 41.646992 7038297
169.21555 -40.883221 42.472099 8287592
169.09964 -40.882214 43.358524 9076849
169.05981 -40.638828 44.341095 8089963
168.91145 -40.668201 45.389935 9405821
168.86629 -40.482986 46.250629 11378583
162.49574 -39.517242 -18.17762 10260614
162.72406 -39.764877 -17.411554 7169886
163.17775 -39.845398 -16.270926 7695978
163.5567 -39.914104 -15.316744 7301220
163.70979 -40.152412 -14.736067 8092011
169.42987 -39.98243 43.351273 8156009
169.35333 -39.840008 44.331928 8089963
169.24057 -39.783615 45.348488 13155760
169.08868 -39.853127 46.312313 10984852
169.01314 -39.674236 47.387157 9011838
169.04135 -39.279228 48.274166 7564651
162.48802 -38.685669 -18.967287 10260614
162.70059 -38.803852 -18.358248 9931649
163.09363 -38.787167 -17.450319 8748148
163.44888 -38.987694 -16.429672 7038049
163.7043 -39.311928 -15.528673 6511962
169.57895 -39.170612 44.478951 8089963
169.50774 -39.027496 45.421089 10260872
169.49384 -38.739449 46.3307 10129289
169.34012 -38.826363 47.259892 8945272
169.26405 -38.647381 48.33865 7827563
169.18739 -38.469151 49.419907 8814454
162.37517 -37.564022 -20.273003 9537667
162.63075 -37.879959 -19.379498 8681841
163.02417 -37.860416 -18.473392 8616048
163.38866 -37.899654 -17.580547 8813427
169.75705 -37.960064 46.497742 9405566
169.71173 -37.772987 47.364979 9537152
169.55864 -37.843498 48.335453 8813943
169.4435 -37.789734 49.36282 9143420
169.32408 -37.789761 50.272846 7037274
169.31622 -37.466759 51.233486 8814969
162.28455 -36.752728 -21.238707 7761772
162.61864 -36.844086 -20.369005 9537667
162.99844 -36.902424 -19.422571 10062978
163.3289 -37.023438 -18.533867 9010549
169.90511 -37.146038 47.640133 10853012
169.85451 -37.025345 48.361935 9011581
169.80905 -36.829323 49.255238 8353908
169.7029 -36.746922 50.294064 9998214
169.57568 -36.745319 51.268345 9538177
169.4785 -36.563591 52.100937 8814969
161.99796 -35.724766 -22.865667 8682867
162.26973 -35.680664 -22.268078 10064264
162.60518 -35.81073 -21.35939 8156271
162.98557 -35.866158 -20.41423 6906718
163.16679 -36.169006 -19.70743 10062978
170.02754 -35.844818 50.335835 9472383
169.946 -35.724739 51.292278 10327178
169.66879 -35.826019 52.368771 10919571
169.59016 -35.567947 52.881405 12432037
161.97395 -34.492214 -24.053503 9735555
162.17424 -34.877415 -23.237711 9340797
162.5901 -34.779808 -22.351164 13486781
162.92604 -34.867432 -21.480576 8945783
163.20306 -35.071693 -20.640118 7037274
170.18951 -35.024376 51.389156 9932419
170.09378 -34.720314 52.367046 9603970
169.78503 -34.71513 53.263496 9735555
169.68297 -34.285618 54.033627 10854036
161.92888 -33.666473 -24.842098 9735555
162.10948 -33.895535 -24.272202 9998727
162.57381 -33.751091 -23.343943 10459278
162.88235 -33.997013 -22.39077 15921634
163.0383 -34.22377 -21.81398 13486781
170.31931 -33.866566 52.661823 7564651
170.18349 -33.649792 53.293575 8354163
169.83389 -33.645054 54.307583 8946296
161.75426 -32.553749 -26.142336 8682867
162.05229 -32.863865 -25.259062 10327948
162.47563 -32.918644 -24.326336 9999237
162.81207 -32.824444 -23.643866 9538688
170.40895 -32.794468 53.590359 8814971
170.14194 -32.833965 54.316875 8222574
169.88503 -32.681084 55.22736 8616306
161.70689 -31.732111 -26.932116 10722450
161.99361 -31.834635 -26.247026 9735555
162.41858 -31.88685 -25.315474 11577500
162.76823 -32.13562 -24.369614 10459787
170.44611 -32.007191 54.354931 8683125
170.21597 -31.771925 55.279484 10064006
169.99451 -31.544678 56.170155 14143679
161.65173 -30.47595 -28.287342 10129545
161.96069 -30.812469 -27.240152 9867141
162.38022 -30.860748 -26.308872 10261899
162.5739 -31.155203 -25.60615 10854034
170.51227 -30.860916 55.433689 13551549
170.32449 -30.647739 56.28046 11445913
170.02682 -30.575758 57.242855 8089962
161.3952 -29.659016 -30.242619 9866886
161.77219 -29.795746 -29.208643 11117208
162.1803 -29.8382 -28.277746 9406335
162.36395 -30.05645 -27.507147 8813171
170.71155 -30.032112 56.410225 7038307
170.51813 -29.868353 57.349659 8089962
170.22179 -29.82699 58.30048 8089962
170.56671 -29.351496 59.110065 10656145
170.34537 -29.260931 60.184284 12827311
160.20903 -28.661987 -42.13271 8221290
160.49498 -28.777157 -41.28278 8221290
160.85156 -28.796534 -40.347118 7958374
161.23706 -28.858898 -39.29414 12433061
160.91348 -29.180073 -33.864277 14077637
161.12325 -29.195839 -33.302738 9998727
161.47214 -29.222614 -32.365459 8287597
161.8889 -29.255678 -31.237818 8089963
162.16573 -29.278265 -30.484362 8089963
171.03288 -28.95487 61.127583 8881021
170.59628 -28.956619 62.363857 9670793
171.70477 -28.939497 67.511482 12432037
171.37337 -28.938971 68.335266 9143680
171.03864 -28.938448 69.157761 10261903
172.45546 -28.932442 73.641556 9341059
172.18513 -28.932066 74.26223 11379607
171.82149 -28.93162 75.08831 9471614
172.55873 -28.638039 76.408379 9997703
172.23837 -28.646322 77.260735 9471359
171.91426 -28.639219 77.861809 9208187
154.1835 -27.754734 -105.78484 9603456
154.73303 -27.78417 -105.34519 11248537
160.16638 -27.755354 -43.150036 7300702
160.48802 -27.770441 -42.308567 8089704
160.91699 -27.791765 -41.185024 8221291
161.15694 -28.073559 -40.286449 7695202
172.54492 -27.89097 77.233086 9932423
172.2256 -27.581867 78.087563 9143675
154.01247 -26.618099 -106.48502 8287856
154.37769 -26.909464 -106.08159 7893355
156.34805 -27.00428 -90.009949 7498338
156.30302 -26.922974 -88.991341 9931651
156.25467 -26.842175 -87.976883 9208187
156.20312 -26.761883 -86.966537 10062979
156.14839 -26.682098 -85.960342 9405307
156.09048 -26.602819 -84.958267 7563619
156.0294 -26.524002 -83.960075 8880246
159.90486 -26.538982 -45.039986 8682867
160.0874 -26.897837 -44.211716 8880502
160.50121 -26.850883 -43.195469 7037274
160.90997 -26.78314 -42.212978 9470843
161.05478 -26.991848 -41.632023 11904668
172.52838 -26.64423 78.242912 10064777
172.12662 -26.587278 78.961319 8419952
154.03595 -25.939476 -106.7747 8287856
154.59866 -25.968483 -106.34337 8287856
157.79535 -25.752798 -75.635872 7565675
157.71913 -25.696665 -74.905022 11906725
157.61513 -25.622267 -73.93383 12498346
157.50829 -25.548271 -72.966728 8155756
157.39873 -25.474733 -72.003616 9340030
157.31491 -25.419977 -71.283775 10985881
159.80222 -25.865816 -45.977932 8813939
160.09914 -25.903416 -45.177219 10063235
160.47224 -25.890913 -44.231159 10064003
160.80724 -25.904753 -43.356464 6775126
161.04884 -26.184301 -42.455799 7563619
172.81564 -25.918217 78.273956 8419952
172.42691 -25.678379 79.100273 8946296
153.82436 -24.794977 -107.4501 9208435
154.19069 -25.085165 -107.04646 9537661
158.79037 -24.805691 -64.739311 5392714
157.9856 -24.658184 -63.974571 5920082
159.5172 -24.562136 -49.087498 10393225
159.70126 -24.754663 -48.09827 9537657
160.0192 -24.759048 -47.149319 9866369
160.14578 -25.007999 -46.234241 8222316
160.45351 -25.071426 -45.253056 9866112
160.75726 -25.096701 -44.309452 10064003
172.69026 -24.881386 79.222244 8683126
172.36559 -24.681868 79.911758 9012091
153.98289 -23.803186 -107.7812 9339511
154.54033 -24.033865 -107.26247 9010548
159.02417 -24.171251 -60.219963 10065295
159.3593 -23.577425 -55.80769 10261643
159.34569 -23.546019 -55.161339 9669507
159.31587 -23.665836 -54.17025 9012346
159.40714 -23.717728 -53.180866 8091759
159.74228 -23.633675 -52.188251 8814968
159.59688 -23.891531 -51.142185 10985364
159.70277 -24.005096 -50.19305 11314328
159.98763 -24.002529 -49.230732 9998466
160.20796 -24.064207 -48.31918 9406071
160.42819 -24.191109 -47.268539 10524043
172.95404 -24.082882 79.344391 8288371
172.56378 -23.843443 80.173058 8748920
153.7039 -22.744799 -108.46769 9470843
154.26866 -22.769529 -108.03675 9931651
172.96121 -22.815411 80.232834 9012091
172.56209 -22.625587 81.041199 8748921
153.79608 -21.838236 -108.80952 9997701
154.36162 -21.861866 -108.37849 9931651
172.96762 -21.545458 81.124283 10064011
172.49994 -21.536318 81.920044 9735047
153.58095 -20.689922 -109.48928 9340027
154.07686 -20.937519 -109.0086 10918543
173.15291 -20.62335 81.466843 9406339
172.71609 -20.661573 82.17672 10064011
172.52534 -20.380444 82.69828 8814203
153.68871 -19.933256 -109.75172 8879477
154.27176 -20.107492 -109.23948 10063491
173.03932 -19.771324 82.263855 8814203
172.63431 -19.687094 83.007088 8222064
153.38779 -18.856121 -110.46591 9340027
153.98241 -19.151363 -109.88735 9932417
173.21332 -19.00036 82.517952 8681843
172.93639 -18.763376 83.153648 8353136
172.58385 -18.757952 83.752525 8353136
153.72359 -17.768204 -110.70811 9340279
154.07738 -18.268993 -110.21625 10130053
