# .PCD v0.7 - Point Cloud Data file format
VERSION 0.7
FIELDS x y z rgb
SIZE 4 4 4 4
TYPE F F F U
COUNT 1 1 1 1
WIDTH 1225
HEIGHT 1
VIEWPOINT 0 0 0 1 0 0 0
POINTS 1225
DATA ascii
121.68016 -60.441162 88.270645 9472128
121.0604 -60.397453 88.937057 9012091
120.38977 -60.33041 89.563675 8485749
119.58546 -60.252235 90.312889 9143420
118.91562 -60.188995 90.93499 9538176
118.51392 -60.151924 91.307205 10459278
132.88354 -59.177105 77.248497 9735812
132.67229 -59.165573 77.553139 9735812
130.33203 -59.269955 79.803276 9734528
129.7973 -59.245289 80.552956 11577504
129.15288 -59.216984 81.449654 9932166
128.37924 -59.240417 82.262398 9077628
127.71905 -59.288448 82.795944 9735813
126.90314 -59.413734 83.485344 10327949
126.18181 -59.441002 84.234337 10788244
125.46902 -59.601597 84.84729 9275004
124.8612 -59.576462 85.629555 9405816
124.24007 -59.547318 86.401527 8221799
123.50249 -59.700745 86.988899 9866628
122.77827 -59.806583 87.721741 10458510
122.09032 -59.780609 88.568008 9471871
121.44875 -59.688759 89.31855 8288371
120.7504 -59.715824 89.888237 8156786
120.02273 -59.61042 90.642944 8024941
119.08679 -59.686031 91.292824 11050644
118.31433 -59.788685 91.835434 10260873
117.64384 -59.729687 92.453819 9012603
116.90611 -59.62727 93.189011 8420469
116.17239 -59.451183 94.040703 9340799
115.52345 -59.409092 94.670975 11446173
114.87374 -59.368446 95.298935 12630191
114.09307 -59.321362 96.049644 9077883
113.31129 -59.27631 96.797401 9077882
112.63863 -59.223835 97.543114 9208959
111.80852 -59.314804 97.863785 9537667
111.04446 -59.28529 98.619576 9208701
110.27795 -59.257092 99.371681 8616307
109.50888 -59.230343 100.12029 7892584
108.84737 -59.198936 100.72403 10261641
108.42604 -59.167789 101.06291 10261641
149.52997 -58.571312 61.172546 10195339
149.18341 -58.515495 62.02792 13485241
148.62727 -58.815784 62.68969 13353400
148.13594 -58.88311 63.534286 12432557
146.62491 -58.884033 63.931171 9735556
146.31448 -58.882565 64.635216 11183002
145.84302 -58.880386 65.688721 11314332
144.103 -58.880295 66.578255 10590353
143.61755 -58.878166 67.615761 7037274
143.2901 -58.876762 68.305519 6510930
141.79984 -58.877819 68.643013 7958632
141.3833 -58.876102 69.493843 9143681
140.87688 -58.874058 70.511528 9143165
139.31259 -58.87484 70.98867 9340022
139.05479 -58.87384 71.490425 8682092
138.62119 -58.872189 72.324669 8879471
138.09444 -58.870224 73.322411 9997699
136.53671 -58.871094 73.76149 9208182
136.17914 -58.869823 74.416931 9340027
135.7283 -58.868237 75.234009 7565675
134.95316 -58.918941 75.953629 9012350
134.10556 -58.995266 76.456154 8617847
133.63077 -58.988773 77.254059 10262156
132.86626 -59.006668 78.096359 9668476
132.20915 -59.051167 78.654335 8813166
131.39716 -59.099926 79.373741 9800320
130.755 -59.069199 80.279205 9668734
130.21753 -59.044678 81.031502 9932166
129.89409 -59.030354 81.481667 9932166
127.30989 -59.14436 83.973518 9341310
112.13107 -59.120506 98.385429 8287859
111.4914 -59.095982 99.017204 7827565
110.72153 -59.067757 99.772232 7892584
109.94917 -59.040966 100.5237 7301470
109.29286 -59.013905 101.1371 9077624
108.58805 -58.962635 101.70391 10919570
107.73994 -58.90192 102.37917 9998470
106.89558 -58.845501 103.05505 9537665
106.12334 -58.831028 103.79906 9011321
105.49621 -58.830154 104.43478 9012600
104.86497 -58.829304 105.06649 9539202
104.10271 -58.828297 105.8197 7564903
103.33501 -58.827312 106.5673 12957614
102.56191 -58.826351 107.30934 12957614
101.9137 -58.825569 107.92363 7893352
101.26158 -58.824799 108.53369 6643029
100.47435 -58.823895 109.26074 8748918
99.681847 -58.823017 109.9821 9407107
98.884277 -58.822155 110.69773 8683384
98.215698 -58.821457 111.28975 7039331
97.543381 -58.820774 111.87754 7631210
96.732109 -58.819973 112.57767 7038563
95.915794 -58.819199 113.2719 8683384
95.091187 -58.814709 115.36271 9143681
94.39447 -58.814114 115.93164 9143681
93.517319 -58.727825 116.70711 11446174
92.714676 -58.6036 117.28732 11117208
91.905983 -58.539536 117.71294 9472383
91.097771 -58.476978 118.13581 9208953
90.493431 -58.242619 118.52734 9537918
150.24759 -57.357643 60.411942 8287859
149.86093 -57.770267 61.09634 9932424
149.61154 -57.589912 62.046185 10591377
92.681122 -58.033138 117.53525 8485488
92.186386 -57.615814 117.94647 10459278
91.306503 -57.548672 118.40639 10853520
90.428139 -57.483772 118.86472 9209210
150.76828 -56.547852 59.779125 8684155
150.48738 -56.718586 60.423367 8485494
150.15714 -56.814777 61.299793 10130571
149.87556 -56.987656 61.943512 10591377
92.122894 -56.854725 118.28381 10459278
91.441872 -56.652809 118.70007 9537918
90.478073 -56.62608 119.18502 7564643
89.580391 -56.623821 119.62763 8946296
88.964355 -56.253181 120.07981 9209467
151.16602 -55.614006 59.654808 9210242
150.78418 -55.76305 60.625111 9736327
150.46387 -55.975845 61.339123 10591377
91.315224 -56.039852 119.00882 9537918
90.678169 -55.725506 119.44874 8551026
89.774292 -55.55595 119.96167 7827563
88.832611 -55.540653 120.43116 8222066
88.154907 -55.450428 120.80088 8090736
151.68898 -54.740452 59.088058 11907239
151.41177 -54.712994 59.946949 9407618
151.11595 -54.962349 60.546188 9604994
89.957626 -54.72237 120.20664 7169635
89.271217 -54.546074 120.61524 7827821
88.314651 -54.710804 121.01968 7761514
87.483345 -54.379501 121.56202 8418927
152.409 -53.532692 58.313343 11709089
152.08891 -53.741222 59.031593 11643553
151.70659 -53.888027 60.00584 10000008
89.259315 -53.89476 120.88308 8090736
88.554237 -53.601131 121.34801 7893357
87.579941 -53.543175 121.85075 10721678
86.817169 -53.424751 122.27367 10063493
152.99925 -52.527859 57.695198 9208443
152.67896 -52.73518 58.415314 10787731
152.36256 -52.746429 59.347092 11380124
88.551117 -52.85149 121.651 8090479
87.777191 -52.61919 122.12526 12432812
86.738998 -52.641232 122.62724 8683124
85.900818 -52.479164 123.10481 8090991
153.65817 -51.324482 57.098881 10458766
153.33307 -51.728313 57.609249 9603201
153.01559 -51.787109 58.489708 10195594
152.62817 -52.145542 59.238194 11380124
87.704529 -51.929218 122.43842 11380124
87.027878 -51.689648 122.86774 11380124
86.264122 -51.549263 123.29996 12827823
85.420906 -51.513268 123.72936 11183001
84.634766 -51.149273 124.26256 11906722
153.9763 -50.683765 56.879009 9669250
153.60831 -50.732372 57.921917 10787472
153.28699 -50.939354 58.644894 8682867
86.44339 -50.616741 123.58673 12959409
85.561768 -50.635029 124.01322 10525072
84.585541 -50.588715 124.51215 10261644
83.972832 -50.374786 124.8997 8814457
154.68268 -49.420734 56.209385 9801607
154.29471 -49.775211 56.963535 9603200
153.99609 -49.811836 57.812817 12694952
85.684235 -49.815636 124.28239 9603970
84.774216 -49.666798 124.79005 9735299
83.846909 -49.5793 125.28157 10459280
83.086777 -49.346058 125.74934 11051416
155.24225 -48.518074 55.567204 11709860
154.92084 -48.721546 56.294735 11709860
154.60225 -48.793571 57.163364 11182742
84.8899 -48.778481 125.09019 9209468
84.264488 -48.474735 125.5201 9143675
83.367805 -48.490673 125.95495 9472640
82.634079 -48.461567 126.32776 8092019
155.83684 -47.516033 54.934017 8092019
155.57082 -47.660931 55.562817 9078657
155.22241 -47.836258 56.402836 9078655
154.87119 -48.126328 57.12064 11709855
84.169586 -47.779812 125.84609 8090987
83.552628 -47.568954 126.23447 8683124
82.504051 -47.667782 126.7108 9012349
81.665268 -47.461086 127.20671 9341315
156.22549 -46.675167 54.731773 8747888
155.85643 -46.718277 55.783974 12235688
83.469772 -46.884148 126.55042 10130570
82.711723 -46.657997 127.03033 9669764
81.783997 -46.580673 127.52698 9208957
81.017441 -46.482872 127.95271 9603716
80.413086 -46.180798 128.43036 10787991
157.53343 -45.510715 53.40794 8484719
157.04553 -45.784485 54.207348 9866367
156.65445 -45.907223 55.078411 9076853
82.176155 -45.895317 127.80051 9471615
81.427925 -45.703327 128.32814 9734788
80.515358 -45.508106 128.93939 14407377
79.619919 -45.387932 129.47969 15525859
78.860519 -45.240376 129.97505 9867142
78.358688 -45.116104 130.32446 8092011
159.5851 -44.425392 51.335369 9668995
159.11044 -44.488903 52.240429 9603202
158.45529 -44.707058 52.871094 11642529
157.9429 -44.906044 53.630844 9800581
157.60762 -45.052704 54.279324 9537403
80.453491 -44.82906 129.53439 16249839
79.962112 -44.816383 129.78667 16249839
79.223175 -44.636482 130.33774 10394000
78.245865 -44.617622 130.84999 8223597
77.558693 -44.361347 131.7093 9604227
76.95993 -44.275505 132.29117 9669766
76.063812 -44.209023 132.9514 9341058
75.246414 -44.2001 133.3791 10065035
168.30728 -43.406918 42.961781 9076856
168.12395 -43.639431 43.778057 8089963
166.76712 -43.909893 44.281605 5920074
166.55093 -43.908047 45.082951 9209217
166.33142 -43.906208 45.883434 11380383
164.1778 -43.906078 46.991508 10589836
163.89124 -43.903778 47.977612 8682867
161.92831 -43.949375 49.097401 9405819
161.61606 -43.943817 50.06588 9405818
160.62883 -44.185638 50.607681 8089962
160.31352 -44.181561 51.570175 9866371
76.39624 -43.989025 133.53462 9209467
75.739464 -43.981911 133.87814 9932426
74.753159 -43.972141 134.39075 8485495
73.866028 -43.919754 135.08432 8485751
73.513031 -43.788067 135.99223 9472644
72.528069 -43.78796 136.51834 9801350
71.5392 -43.787872 137.03737 9011320
70.546967 -43.783417 139.20146 10261643
69.875267 -43.783398 139.53838 8813685
68.864693 -43.783398 140.0381 10656913
68.019958 -43.783409 140.44922 13156530
66.958115 -43.779041 142.61351 8682867
66.270157 -43.779091 142.93341 10789267
65.407684 -43.779171 143.32854 10591376
64.716385 -43.77924 143.64119 8090995
63.589264 -43.77496 145.80699 9012347
62.533543 -43.775135 146.26126 10130569
61.813988 -43.574989 147.12201 10129797
61.121155 -43.391224 147.86169 9800572
60.252331 -43.407742 148.28255 9800572
59.623249 -43.356289 148.61281 8551281
168.74918 -42.44471 42.20892 8089963
168.56619 -42.675941 43.026489 9076856
168.38278 -42.908245 43.844101 8089963
61.334656 -42.679962 148.04263 9603193
60.531368 -42.630508 148.45778 9603193
59.461773 -42.507206 149.03368 9866883
58.731556 -42.217209 149.50961 10458763
168.97797 -41.751617 42.408943 7958884
168.87721 -41.797798 43.104225 8089963
60.52906 -41.79348 148.79541 9340023
59.835407 -41.600906 149.21419 10327178
58.941845 -41.503735 149.69293 10919314
58.133457 -41.45742 150.10936 9406590
169.5992 -40.332443 41.551609 9208435
169.3421 -40.771603 42.354218 8813680
59.853016 -40.775227 149.53749 9866629
59.107395 -40.580883 149.98254 9668994
58.275406 -40.495373 150.42635 8682868
57.448467 -40.440845 150.85515 10591121
169.82605 -39.664009 41.692543 8287592
169.71341 -39.723866 42.445042 8089963
59.172523 -39.755932 150.28214 9405822
58.495155 -39.576607 150.68761 8287853
57.43927 -39.600784 151.19743 9933191
56.625217 -39.555885 151.61609 9340540
170.3835 -38.359669 41.016628 11314587
170.15143 -38.775002 41.684036 8813937
58.395214 -38.996567 150.96996 8090987
57.695164 -38.70142 151.43312 10591121
56.857704 -38.643547 151.86844 9998727
56.055428 -38.552895 152.23303 9538175
170.67479 -37.586437 40.940571 10590864
170.49199 -37.814697 41.765625 10854036
56.96875 -37.765476 152.16685 10261899
56.243523 -37.431683 152.60435 9406593
55.492516 -37.444347 152.68796 9209467
171.0881 -36.660748 40.313175 10064777
170.936 -36.850227 41.001812 9866884
56.158455 -36.572639 152.9908 8092019
55.318104 -36.597939 153.02913 9275007
171.71196 -35.23798 39.441372 7565675
171.45482 -35.675095 40.252613 9143934
171.19748 -36.113037 41.063084 9735038
55.342022 -35.596031 153.42757 8880763
54.769802 -35.253777 153.5775 9209467
171.94089 -34.564331 39.579762 7960432
171.82916 -34.620041 40.338467 12103588
55.467194 -34.710175 153.77734 9537923
54.661366 -34.549801 153.86046 9209467
172.41898 -33.534649 38.7281 9406334
172.23666 -33.759918 39.559155 11708831
54.682789 -33.545074 154.26003 8880247
53.986134 -33.449089 154.3149 9275261
172.73178 -32.635983 38.851269 8682355
172.53723 -32.913357 39.626553 10788498
53.952244 -32.566418 154.66719 9603714
53.32378 -32.238331 154.81288 10853012
173.21059 -31.547018 38.173328 7498337
173.05853 -31.734137 38.868473 8156267
53.93047 -31.584629 155.05867 9537921
53.25407 -31.529081 155.09698 9537664
173.5051 -30.766382 38.090885 9143163
173.32257 -30.990833 38.926327 10263180
53.124676 -30.659945 155.45284 8945783
52.569118 -30.2446 155.66432 8682867
174.70752 -29.338387 36.813663 8616307
174.27078 -29.742573 37.504749 9406079
173.94817 -30.019358 38.333164 10392974
53.282112 -29.908142 155.91698 8682867
52.510567 -29.687349 156.11296 9143162
51.845863 -29.211843 156.63194 9472383
51.079124 -29.101057 156.84509 9538176
178.5231 -28.923376 33.37962 8484721
175.7966 -29.029665 35.940899 7563619
175.66879 -29.035425 36.796055 11379348
51.155678 -28.828257 157.7285 9669503
50.349972 -28.803438 157.83136 9340795
48.122044 -28.755213 160.83575 11907495
47.540264 -28.75552 161.00783 14605262
46.763653 -28.755934 161.23421 10525843
44.105568 -28.750446 164.60579 13485752
43.181107 -28.578541 165.12901 11446170
42.40694 -28.377249 165.42177 9209467
43.100552 -27.787859 165.63994 9209467
42.402576 -27.500862 165.76396 8748917
42.513756 -26.608688 166.12325 9209467
41.953087 -26.520096 166.15251 9472895
42.441025 -25.922649 166.39801 8682867
41.825218 -25.480719 166.49416 9341309
41.444252 -24.62641 166.67805 9867909
41.251492 -24.198837 166.76299 9736323
41.769901 -23.830973 167.13286 10263180
41.0811 -23.56707 166.93794 10459534
40.953846 -22.526142 167.29292 10327949
41.062931 -21.500717 167.74443 8684155
40.438145 -21.38472 167.51903 9407363
40.438316 -20.626036 167.8181 9736071
40.110664 -19.649048 168.06093 10524303
39.877281 -19.135307 168.16212 9406078
39.704285 -18.500566 168.3372 10129545
39.551842 -17.658581 168.60289 9669248
39.398781 -16.814873 168.869 9472382
38.987427 -16.164928 168.94662 8485490
38.928413 -15.497864 169.25179 9011323
38.706238 -14.91621 169.59828 8353650
38.1632 -14.292433 170.05518 9011323
37.320419 -14.068204 170.13264 7563619
36.793274 -13.74116 171.68672 10458249
35.965179 -13.741781 171.86095 11379349
32.246864 -13.391703 175.83772 8815477
31.952919 -13.091479 175.82835 8092011
32.460625 -12.678596 176.21126 8092011
31.765602 -12.434802 176.00572 8092011
31.692299 -11.521136 176.33371 8419952
31.548965 -10.580439 176.64262 9208699
31.201126 -10.46077 176.53883 9011320
31.028648 -9.5833063 176.81038 10195850
30.863693 -8.5951157 177.12891 9801092
30.412903 -8.2554932 177.06729 11183001
30.919258 -7.8288951 177.45552 9735043
30.46843 -7.4891748 177.39391 11314588
30.20446 -6.4309731 177.69708 10195851
30.14222 -5.3891435 178.08128 10459023
29.667168 -5.3820081 177.87793 10459023
29.630981 -4.5409327 178.19424 10722195
29.552734 -3.6075978 178.52873 8946299
28.855537 -3.3794017 178.31615 9341059
29.360596 -2.9382925 178.7095 9209467
29.005066 -2.3412409 178.79086 8288366
28.753006 -1.3718677 179.06413 8025193
28.797958 -0.69932389 179.34914 8288365
28.614883 -0.24990609 179.59601 7367263
124.27431 -59.259445 86.997032 7762021
123.83067 -59.247715 87.577087 9603713
123.27424 -59.233742 88.300591 10261131
122.71543 -59.220875 89.021828 9011576
122.01518 -59.19368 89.864693 7564648
121.39412 -59.154999 90.538361 8089963
119.53613 -59.265072 91.637505 10984595
118.78761 -59.222744 92.432259 12432039
118.16206 -59.188496 93.091759 7564651
117.53472 -59.155281 93.748466 9210238
148.93367 -58.317997 63.240929 13813697
148.4902 -58.545803 64.03878 12432557
148.064 -58.668121 64.729904 8814710
147.28 -58.879036 65.48719 7367267
146.96274 -58.877563 66.194687 7038307
145.36394 -58.878216 66.738701 13879491
144.9592 -58.876423 67.611229 9142651
144.63135 -58.875004 68.307228 8089963
143.04193 -58.875713 68.821762 7234653
142.70842 -58.874329 69.508629 8682355
142.28662 -58.872601 70.364922 10195593
141.94586 -58.871227 71.048286 9932422
140.36319 -58.872036 71.525627 10392970
139.8421 -58.870026 72.535912 10590089
139.4025 -58.86837 73.375099 9340022
139.13629 -58.867382 73.877235 10655371
137.56044 -58.868279 74.316292 9143162
137.01933 -58.866348 75.306297 9143162
136.56306 -58.864765 76.128357 7565675
136.28697 -58.863815 76.620377 11905701
134.71861 -58.864803 77.021568 8749433
134.15802 -58.862961 77.99099 10853004
133.59047 -58.861137 78.956337 8680811
132.67812 -58.886745 79.496185 9931392
131.82619 -58.897823 79.849968 9537147
131.28827 -58.872326 80.607277 9208181
130.67395 -58.858097 81.534325 8616562
129.87637 -58.920441 82.257103 8879988
129.19093 -58.959461 82.783585 8486000
128.37357 -58.968651 83.572403 9933191
127.82653 -58.948429 84.315002 7960425
127.01999 -59.027206 84.883232 10393486
126.35932 -59.005455 85.767197 9209468
125.55202 -59.086403 86.326302 8551537
124.99803 -59.070374 87.057037 7301470
124.33031 -59.052425 87.93132 8551537
123.65941 -59.035812 88.802544 7564643
123.21053 -59.025497 89.381767 7564643
121.02078 -59.132317 90.941284 8089963
120.64668 -59.110039 91.343063 8550257
120.02184 -59.073608 92.010712 9537151
119.26997 -59.031246 92.808441 10260873
118.51562 -58.990284 93.602371 8222320
117.88525 -58.957241 94.261185 8617847
117.0164 -59.020973 94.725243 8024941
116.25727 -58.983837 95.507675 7893351
115.59312 -58.931255 96.27372 10392717
114.89961 -58.947315 96.825066 9077369
114.25341 -58.926945 97.508636 10327949
113.22394 -58.955593 98.146332 8551541
112.58337 -58.930004 98.78318 8287859
111.94099 -58.905457 99.417412 7038307
111.1678 -58.877224 100.17533 9143419
110.3922 -58.850433 100.92958 7893608
109.62765 -58.832333 101.69309 8748916
109.01261 -58.831097 102.34949 11840158
108.39384 -58.830166 103.00238 11314071
107.64634 -58.829075 103.78106 9537665
106.89332 -58.828003 104.55434 9471872
106.26156 -58.827129 105.19466 9735555
105.62579 -58.826271 105.83095 9867655
104.85793 -58.825256 106.5896 7039331
104.08469 -58.824265 107.34268 12957614
103.30601 -58.823299 108.09013 10786703
102.65308 -58.822506 108.70881 8879989
101.9962 -58.821735 109.32338 7038043
101.20327 -58.820824 110.05572 10393485
100.40504 -58.819935 110.78233 9933192
99.736015 -58.819214 111.38351 9538435
99.063019 -58.818512 111.98044 9012348
98.25106 -58.81768 112.69151 7631210
97.433807 -58.816875 113.39674 7038819
96.611542 -58.816093 114.09603 8288627
96.061562 -58.785454 114.93518 8617592
95.698586 -58.527931 115.73571 9341057
94.751747 -58.394554 116.37105 9932679
93.937775 -58.32542 116.79935 8748149
149.42134 -57.602211 62.600048 9735812
149.16714 -57.619762 63.338932 12761265
148.84775 -57.70813 64.191856 11511711
95.699219 -57.905643 116.10146 10261644
94.92614 -57.648762 116.58514 9669507
93.882668 -57.643032 117.1009 6774614
93.140594 -57.615326 117.47714 6511954
92.688492 -57.276474 117.83586 10459278
150.20662 -56.186226 61.867592 9341054
149.83551 -56.550987 62.560276 10920085
149.46252 -56.736122 63.462948 12038567
149.11235 -57.039551 64.163124 9735812
94.867844 -56.946918 116.896 9142907
94.138412 -56.742447 117.33718 7103323
93.429184 -56.523357 117.77425 9275260
92.583748 -56.464649 118.21387 11446173
91.881851 -56.458805 118.56151 9537918
150.45891 -55.545837 61.843472 10065033
150.08931 -55.607445 62.876717 10986135
93.649887 -55.68581 118.00249 11972259
92.743736 -55.578827 118.49136 12037798
91.774963 -55.648922 118.93984 9011577
90.993294 -55.263222 119.47961 7958633
151.05991 -54.573074 61.156582 8683635
150.77307 -54.637627 61.939445 8288366
150.41937 -54.870377 62.730328 8090987
92.817657 -54.765484 118.78203 11116954
91.974297 -54.578575 119.27217 9143163
90.995605 -54.510216 119.78124 8024426
90.34407 -54.466068 120.11951 7563619
151.71423 -53.494766 60.430714 9012600
151.3609 -53.724468 61.224033 8486256
151.07588 -53.657959 62.150616 7038298
92.080238 -53.737457 119.55824 9340542
91.258926 -53.624424 120.00784 8222061
90.426346 -53.665726 120.40089 8156270
89.665604 -53.545147 120.82375 8419700
152.23965 -52.554508 59.932388 16775151
152.0065 -52.800522 60.348461 9999752
151.7074 -52.709778 61.344765 7762277
91.462029 -52.910065 120.19504 7827047
90.702095 -52.656471 120.67101 8353647
89.772743 -52.550724 121.17087 8748150
88.863213 -52.388355 121.6837 9406336
153.02492 -51.342739 58.967709 8682867
152.63705 -51.701946 59.716644 13353915
152.25357 -51.816341 60.731182 10986134
90.589165 -51.850365 121.05058 8682867
89.9748 -51.624676 121.44363 9866885
88.99353 -51.566139 121.9501 10590864
88.109413 -51.577888 122.38049 11380124
153.26137 -50.644089 59.057655 8682867
152.93422 -50.793877 59.863335 9735555
152.7184 -50.76305 60.542614 8682867
89.932091 -51.059017 121.69199 10788243
89.142242 -50.684593 122.23122 10064265
88.293404 -50.643475 122.66548 11840675
87.526375 -50.501778 123.09996 11972261
86.847122 -50.263973 123.52988 12630190
153.88564 -49.636623 58.341869 11379607
153.56551 -49.745296 59.173367 9932420
153.17816 -50.022152 60.01408 9538176
89.024841 -49.881557 122.61177 10261643
88.572441 -49.669422 122.91964 11511710
87.75309 -49.62582 123.3404 12170408
86.771309 -49.575584 123.84383 11248793
85.992432 -49.350891 124.31744 10261641
154.47815 -48.664021 57.681152 11379607
154.19763 -48.697636 58.479961 9735297
153.86986 -48.845924 59.289135 10129798
87.813316 -48.818714 123.63517 10789267
86.964676 -48.651604 124.12001 11117462
85.981964 -48.604591 124.62259 10261641
85.268936 -48.323494 125.08645 9209467
155.27052 -47.323948 56.842632 8092019
154.88104 -47.679382 57.600124 11117206
154.51471 -47.794529 58.562126 8748660
87.056664 -47.815723 124.41071 10919827
86.242828 -47.544193 124.92038 10130055
85.50042 -47.464249 125.31788 9209467
84.607155 -47.57489 125.71307 9077882
155.47481 -46.723682 56.916416 9868169
155.15619 -46.729836 57.860241 10789012
154.89674 -46.934483 58.401329 8092019
86.364204 -46.75671 125.17717 9209467
85.684753 -46.621777 125.57287 9143674
84.72641 -46.688679 126.02131 9735556
83.882011 -46.533695 126.51206 9735814
83.18087 -46.266636 126.9976 8092019
156.78845 -45.542759 55.549355 7432805
156.36356 -45.743183 56.335884 9538436
155.86194 -46.06617 57.05727 9407619
155.53934 -46.161469 57.789371 11709855
84.904739 -45.903328 126.45177 10064521
84.070549 -45.715488 127.01824 8617849
83.292839 -45.591946 127.50353 8617335
82.543373 -45.398254 128.03319 9208443
81.629524 -45.20105 128.64667 9734788
158.88548 -44.419556 53.439827 10590097
158.62775 -44.418594 54.204002 9734788
157.73836 -44.763638 54.819633 9800578
157.2262 -44.907814 55.760464 8748667
156.83829 -45.05714 56.559261 9209217
83.404007 -44.915348 128.01141 9735043
82.737503 -44.758419 128.47108 10459278
81.832375 -44.697426 128.96698 9866885
81.064842 -44.596996 129.54347 13486019
80.44828 -44.383511 130.22578 12564660
79.649239 -44.258339 131.0408 8222577
78.836044 -44.245647 131.4794 8815224
78.347664 -44.238441 131.7413 8092011
168.15248 -43.344479 44.433491 8879222
167.97012 -43.616737 45.121628 7761514
167.81151 -43.807632 45.859299 7038307
166.16397 -43.904827 46.483047 11380383
165.88002 -43.902546 47.480991 10919573
163.7164 -43.902485 48.568436 9735555
163.47957 -43.900673 49.355042 8353133
163.23958 -43.898926 50.140789 8813683
161.2381 -43.938229 51.226849 8879477
160.67302 -43.995323 52.326584 9603199
159.86758 -44.177425 52.915939 9734787
159.61073 -44.175751 53.684273 10590097
79.180832 -44.025707 132.05649 8815228
78.362953 -44.013889 132.49411 8420725
77.469437 -43.947872 133.16974 9472382
76.999969 -43.839722 133.84242 9998469
76.121033 -43.788479 134.55455 10392718
75.30912 -43.788334 135.00935 10458513
74.657532 -43.788227 135.36955 9011582
73.3834 -43.783604 137.73209 10261902
72.718758 -43.783546 138.08295 9340798
71.885422 -43.783482 138.51697 9011320
71.049683 -43.783436 138.94626 9340798
69.86499 -43.77895 141.21718 9340798
69.183495 -43.77895 141.55077 9932679
68.15844 -43.778976 142.04546 8550514
67.473267 -43.779011 142.37135 8089963
66.21386 -43.774628 144.63829 9932934
65.341217 -43.774719 145.03307 10262929
64.74762 -43.489094 145.85542 8881534
64.069382 -43.345623 146.42924 8946811
63.203114 -43.35738 146.85081 9275260
62.403008 -43.305065 147.26556 10656657
168.40567 -42.671837 44.369133 10391945
168.24869 -42.809868 45.252666 10786703
64.11367 -42.637848 146.69202 10788500
63.313084 -42.584259 147.10753 10261899
62.270885 -42.599892 147.61409 9932675
61.602207 -42.417881 148.01631 10458246
168.92857 -41.438004 43.766567 8089963
168.73524 -41.728001 44.491535 10391946
168.51381 -42.107918 45.17786 13022893
63.409378 -41.907204 147.33238 11511966
62.717846 -41.579082 147.80461 10459535
61.709316 -41.643497 148.27495 9669504
60.930908 -41.399422 148.75616 9735041
169.25261 -40.594429 43.631813 8945271
169.14296 -40.616917 44.47253 8089963
62.649048 -40.726166 148.18135 9406591
61.907196 -40.528233 148.62599 8682612
61.078663 -40.438648 149.0697 8748405
60.255177 -40.380119 149.49847 9405822
169.63168 -39.739368 43.075684 8089963
169.52231 -39.760818 43.917309 12168866
61.977627 -39.704071 148.9227 7563619
61.303677 -39.521526 149.32771 8024426
60.316586 -39.578136 149.79068 8681843
59.562374 -39.457115 150.21042 9208443
170.26144 -38.249371 42.361847 9471608
170.00543 -38.738194 43.005577 8945271
169.84712 -38.915276 43.781883 10787472
61.207939 -38.941402 149.60803 9340798
60.607903 -38.628536 150.0291 9076857
59.678638 -38.58139 150.50534 9669250
58.748005 -38.535694 150.98164 10787987
58.143654 -38.224888 151.40408 10591121
170.51625 -37.573582 42.293278 10064004
170.36028 -37.706425 43.184177 10129799
59.795082 -37.704586 150.80055 9734531
59.036861 -37.583527 151.2224 11050647
58.002693 -37.560966 151.74034 11380380
57.275009 -37.206436 152.24095 10656657
170.96686 -36.547501 41.661663 10525070
170.78491 -36.815636 42.358612 10130054
170.62718 -37.001152 43.104912 10261641
59.095314 -36.77747 151.51772 9537664
58.26952 -36.664654 151.96941 10656657
57.418327 -36.449371 152.47481 9867143
56.664165 -36.440712 152.84937 9012093
171.30481 -35.648178 41.578648 9998468
171.13347 -35.825012 42.464901 9603195
58.404228 -35.751366 152.27031 10393485
57.608818 -35.507881 152.7596 9341312
56.634357 -35.584538 153.20186 8354934
56.079006 -35.269508 153.53868 8814971
171.74825 -34.631832 40.974056 10787985
171.64008 -34.64819 41.822155 10787985
57.708721 -34.723537 153.02579 9209467
57.020653 -34.542866 153.43701 8684152
55.989857 -34.50441 153.83243 9209215
172.07518 -33.782154 40.831768 13484983
171.96716 -33.797832 41.681156 10787985
56.873028 -33.82748 153.79724 10263180
56.078991 -33.613861 154.16583 9341822
55.393856 -33.268875 154.35304 8814198
172.56477 -32.649952 40.194691 14472646
172.39919 -32.810787 41.08205 11774879
56.156349 -32.789181 154.52576 10263180
55.356716 -32.546886 154.64137 9537921
173.09122 -31.425325 39.53191 11249817
172.90929 -31.691513 40.235691 11446940
172.75192 -31.874096 40.988735 10263180
55.406384 -31.697357 154.97847 9867142
54.615303 -31.392052 155.11899 9735556
173.34882 -30.743185 39.457798 10526095
173.19388 -30.870459 40.358807 10920853
54.713219 -30.583719 155.4391 9801349
53.975452 -30.506815 155.49231 9537921
174.48065 -29.349873 38.302906 9735812
174.13925 -29.678129 38.931614 10130570
173.77979 -30.035837 39.6134 9867910
54.516163 -29.96623 155.83978 8814203
53.844723 -29.624922 156.12968 9011320
53.086727 -29.165768 156.57948 9405566
178.31799 -28.920788 34.452358 9603202
178.149 -28.918728 35.309681 9471355
175.57191 -29.040041 37.437763 8813683
175.47433 -29.044962 38.079449 9735812
52.567867 -28.872877 157.5446 9998215
51.760513 -28.847221 157.65034 9867139
50.442467 -28.754061 160.12593 9340286
49.670048 -28.754435 160.36595 8419696
48.703068 -28.754915 160.66132 7959401
46.283363 -28.74918 164.00949 8682867
45.294456 -28.749743 164.28403 9669250
44.600338 -28.316967 165.39371 10656657
43.881668 -28.428015 165.36658 9932934
44.346863 -28.035217 165.51193 11380380
43.91909 -27.559546 165.71136 9472383
43.162868 -27.175985 165.88199 9932934
43.860756 -26.583431 166.10133 11183001
43.091255 -26.490278 166.15666 9932934
43.712051 -25.962208 166.35214 10656657
43.208599 -25.535011 166.53415 9999496
42.502392 -25.308022 166.64124 9209467
43.143913 -24.571775 166.91914 9538690
42.372242 -24.480656 166.97371 9538946
42.602684 -23.592697 167.32167 10064523
41.814545 -23.421932 167.31346 11380380
42.322945 -22.826614 167.63327 10261902
41.913807 -22.432997 167.71408 9933450
41.777668 -21.554987 168.03326 9538949
41.650166 -20.505739 168.39146 9867656
41.172783 -20.471382 168.1978 9407363
40.983559 -19.542585 168.48178 9670277
40.793571 -18.61278 168.76575 10524556
40.980682 -17.746376 169.18846 10261382
40.342209 -17.414211 169.04228 10129796
40.254913 -16.403727 169.40263 9603967
40.081253 -15.668123 169.64415 9538174
39.807259 -15.378587 169.70407 9735296
39.457352 -14.749105 170.0565 9669251
38.937126 -14.131097 170.61729 9011323
38.058815 -13.748852 171.52953 8945272
37.207001 -13.740853 171.59785 7563619
33.124161 -13.356144 176.23235 9670785
33.107361 -12.559142 176.53889 8092011
32.494087 -12.245757 176.39626 8092011
33.005089 -11.829462 176.78183 8092011
32.709534 -11.528008 176.77245 8092011
32.390457 -10.498494 177.04024 8091243
32.235275 -9.3992023 177.40694 8090731
31.757843 -9.3856153 177.205 7564643
31.82415 -8.5100555 177.57944 9143163
31.651131 -7.6253772 177.85353 10261131
31.461098 -6.9595447 178.03384 9735043
31.213623 -6.4241714 178.1378 9537921
30.857643 -5.3999162 178.38763 9537922
30.836815 -4.5853519 178.7001 8090735
30.220581 -4.2815852 178.5526 9011321
30.50724 -3.6163788 178.93956 7630443
30.107643 -2.4959683 179.20845 7498851
29.70713 -1.3736666 179.47762 7169884
29.542702 -0.47385329 179.83543 8288365
28.945412 0.42919374 180.27821 7827302
148.15436 -58.389866 65.307571 7696234
147.68527 -58.424534 66.093102 9077885
147.03632 -58.499306 66.958244 8288371
146.48921 -58.717777 67.684013 8221807
145.90701 -58.87286 68.482735 8089963
144.38344 -58.87394 68.828514 9406334
144.04956 -58.872528 69.521675 11050644
143.54288 -58.870434 70.558647 10787473
143.20126 -58.869049 71.248062 10787473
141.68794 -58.870205 71.559593 9932422
141.25378 -58.868507 72.409645 10854036
140.72635 -58.866497 73.426399 11050129
138.8681 -58.866402 74.37841 10392458
138.4171 -58.864769 75.211464 9866373
137.86943 -58.862839 76.207695 9866373
137.50064 -58.861561 76.869728 10853012
136.00893 -58.862873 77.111214 11182235
135.5415 -58.861313 77.927032 10326924
134.97433 -58.859467 78.902367 10128769
134.49649 -58.857937 79.712082 10128769
133.01614 -58.859329 79.917778 10458251
132.62903 -58.858135 80.556129 9273973
132.04303 -58.856361 81.510376 8878962
131.45004 -58.854614 82.46035 8090728
131.05124 -58.853458 83.091476 7038298
129.48135 -58.854668 83.410423 8420720
129.07739 -58.853546 84.031677 7565667
128.46637 -58.851871 84.960213 8420720
127.84863 -58.850227 85.884277 10130314
127.3289 -58.848862 86.651031 9801605
125.94963 -58.886978 86.8237 8354159
125.39285 -58.871044 87.556984 6511954
124.83363 -58.856144 88.288017 9012088
124.17435 -58.846287 89.173004 9866886
123.39111 -58.888702 89.967194 8156012
122.70003 -58.93787 90.461708 8682612
122.07549 -58.909927 91.184608 9142651
121.0129 -58.910072 91.850266 9273980
120.38506 -58.873802 92.51992 10260873
119.76836 -58.844921 93.197128 9537151
119.08411 -58.839977 94.052475 8353648
118.40099 -58.838589 94.908554 9340027
117.82709 -58.83746 95.618347 9932163
117.24876 -58.836334 96.324394 9998213
116.54922 -58.835007 97.167206 10261131
116.07977 -58.834137 97.726402 8090730
114.29402 -58.835438 98.116096 11906725
113.81953 -58.834602 98.664017 10985879
113.10323 -58.833366 99.482018 9077372
112.50196 -58.832348 100.1598 8089963
111.89634 -58.831348 100.83374 9077370
111.16442 -58.83017 101.63776 8485745
110.42673 -58.82901 102.43647 7893608
109.8077 -58.828064 103.0982 9209467
109.1845 -58.827126 103.75583 9209467
108.43154 -58.826027 104.5402 10525071
107.67296 -58.824951 105.31912 10261899
107.03664 -58.824066 105.96416 8354158
106.39622 -58.8232 106.60511 7368295
105.62276 -58.822182 107.36929 8420724
104.84386 -58.821186 108.12786 8419440
104.05939 -58.820206 108.88079 8616048
103.40173 -58.819412 109.50399 11906725
102.74008 -58.81863 110.12305 10393485
101.94135 -58.817715 110.86072 11183001
101.13734 -58.816818 111.59265 9669765
100.46336 -58.81609 112.19825 7630443
99.785469 -58.815384 112.79952 8420213
99.068649 -58.734673 113.74296 8420212
98.343369 -58.503086 114.45786 8222577
97.515182 -58.635159 114.88499 8814971
96.785751 -58.537121 115.31289 9802121
148.72192 -57.588261 64.703896 8617334
148.43015 -57.660343 65.356972 6906720
147.9503 -57.626499 66.210434 7827821
147.48042 -57.662922 66.996101 9077885
146.79297 -58.162155 67.823685 8089963
98.41452 -57.770096 114.81985 10590351
97.839546 -57.6618 115.14633 8552056
96.934647 -57.633904 115.60284 8354934
96.022987 -57.444141 116.12768 11051674
95.384033 -57.117001 116.57362 10261644
149.50658 -56.231918 63.905674 11511711
149.11838 -56.601398 64.643845 6775134
148.67392 -56.706989 65.622856 7235684
148.12918 -56.890469 66.431892 7433064
97.771553 -56.945213 115.46794 8092019
97.150078 -56.555573 115.93037 8552313
96.171631 -56.61338 116.38863 11577760
95.261963 -56.498363 116.88251 9932423
94.576263 -56.289917 117.30369 8616563
149.70651 -55.633163 63.990208 10459536
149.38654 -55.656551 64.918755 8683126
149.12511 -55.870319 65.446175 9012091
96.339935 -55.723255 116.66364 10130829
95.405724 -55.598053 117.17371 9670022
94.585381 -55.531811 117.60408 10590354
94.136818 -55.306866 117.91525 15721430
150.42546 -54.479237 63.157398 9143675
150.03995 -54.634914 64.131126 11314844
149.71704 -54.85289 64.847099 10722452
96.238808 -54.905838 117.04195 10130574
95.718803 -54.73679 117.36585 9144449
94.965584 -54.613464 117.78608 10853783
93.90731 -54.673691 118.28271 14339780
93.229538 -54.417816 118.71917 12037798
150.95041 -53.534691 62.665596 11314586
150.66873 -53.5779 63.457287 10656913
150.37086 -53.831676 64.057442 9735811
95.063957 -53.900375 118.02428 10130574
94.194 -53.606758 118.57044 11116954
93.20829 -53.534355 119.08465 8748666
92.470985 -53.35598 119.51923 9932680
151.67052 -52.38451 61.825172 7301470
151.34799 -52.59803 62.544876 10064261
150.96211 -52.751347 63.522346 11445915
94.173569 -52.721996 118.93606 10261646
93.419479 -52.604786 119.35435 7367013
92.361076 -52.672546 119.84804 9998727
91.681435 -52.422546 120.283 8551282
91.162582 -52.263004 120.60251 8682867
152.26149 -51.373466 61.211731 9012600
151.93886 -51.585754 61.933247 8353902
151.61896 -51.602772 62.868816 8090987
93.484863 -51.948215 119.58608 6708566
92.806625 -51.618328 120.05241 8418927
91.984077 -51.563633 120.47927 10196106
91.049927 -51.456455 120.98206 9472383
152.52702 -50.771374 61.104542 10788500
152.2738 -50.635872 62.014778 11906465
151.88417 -50.999733 62.763779 9735297
92.809013 -50.864006 120.35445 8089962
92.116913 -50.668137 120.7738 10327693
91.203339 -50.57283 121.26171 9735555
90.246887 -50.595203 121.72346 11051159
89.601082 -50.289093 122.16428 10261643
153.18544 -49.627369 60.441723 9604226
152.83231 -49.724274 61.385242 13354682
152.54326 -49.78693 62.176632 15197142
91.985367 -50.057041 121.08414 9735555
91.356506 -49.688934 121.54156 9603970
90.419609 -49.586117 122.04404 8879479
89.597206 -49.538803 122.46776 10063753
88.917641 -49.220123 122.93035 10195851
153.84375 -48.550102 59.703957 11379607
153.52048 -48.759342 60.430351 11249051
153.19928 -48.83794 61.299351 13946819
90.601646 -48.751568 122.28985 8682100
89.904465 -48.580757 122.70163 12169385
88.97438 -48.567547 123.16466 8682356
88.220131 -48.465508 123.57692 9143930
154.43777 -47.541832 59.079491 11379607
154.1143 -47.749924 59.807678 10393231
153.77994 -47.840832 60.701874 10854038
153.46677 -48.169151 61.262638 11512479
90.048828 -47.91333 122.8988 10985111
89.172768 -47.641304 123.43935 8155756
88.184021 -47.590607 123.94631 7893351
87.309113 -47.323395 124.48431 9999239
155.03259 -46.533974 58.451862 8092019
154.77292 -46.739277 58.993103 12300968
154.45277 -46.748917 59.93737 11577248
89.13752 -46.764919 123.80887 7168861
88.382065 -46.530815 124.3041 7169374
87.529861 -46.498238 124.7443 10591633
86.751579 -46.494476 125.09325 10262154
156.05975 -45.575527 57.640453 8420983
155.61577 -45.748436 58.548862 8091506
155.15234 -46.025932 59.264992 12827055
87.713943 -45.758205 125.1907 11906725
86.998962 -45.771221 125.53151 9932678
86.074677 -45.691795 126.05215 9143162
85.24202 -45.455906 126.65784 10656401
84.577034 -45.295685 127.11819 8092019
158.17313 -44.418102 55.54023 9209217
157.69119 -44.48632 56.438446 10261904
157.04105 -44.71064 57.059544 8288373
156.53015 -44.915886 57.813644 9407363
156.19254 -45.06683 58.458805 9932937
86.360382 -45.019608 126.47141 9537920
85.610359 -44.820847 127.00778 11116696
84.788185 -44.791546 127.43607 9144191
83.995239 -44.582901 128.15956 8552312
83.322418 -44.406986 128.78973 10261643
82.567619 -44.309711 129.43755 10459022
81.758003 -44.294319 129.88637 10788245
167.95935 -43.389328 45.898888 7038307
167.8002 -43.580967 46.637764 12235947
167.64478 -43.848698 47.116741 12762546
165.53165 -43.899818 48.676346 9011832
165.23483 -43.89756 49.670532 9735555
163.05676 -43.897606 50.729141 8813683
162.80988 -43.895836 51.512699 7563619
162.55911 -43.894085 52.295021 8682099
160.47084 -43.930828 53.544819 8879477
159.92506 -44.011208 54.362083 8945528
159.22179 -44.174465 54.835655 9471871
158.89507 -44.174225 55.794182 9537920
82.603973 -44.083305 130.18689 9932681
81.953316 -44.071297 130.54645 10130571
81.139168 -44.056923 130.99396 9406847
80.50029 -43.932648 131.72807 8683126
79.687393 -43.863235 132.36021 9867403
78.871262 -43.794582 132.98946 8815228
78.219353 -43.788937 133.34981 9209467
76.84465 -43.784119 135.83762 10458513
76.353096 -43.784023 136.11353 11181979
75.531525 -43.783886 136.56947 11905701
74.542297 -43.783749 137.11014 9143680
73.880829 -43.783661 137.46687 10261902
72.742661 -43.779049 139.76134 10063753
71.899239 -43.778999 140.19539 10458511
70.883942 -43.778961 140.70976 9011833
70.205109 -43.778946 141.04886 9340798
68.989517 -43.774445 143.33965 10985367
68.298126 -43.774475 143.66927 9537665
67.577057 -43.565533 144.38939 9209211
66.911697 -43.361259 144.93338 9669762
65.972916 -43.325069 145.50085 9604742
65.309448 -43.13855 145.90225 8684155
168.2243 -42.687378 45.82505 9011065
168.09796 -42.781315 46.58828 13223354
67.051575 -42.583389 145.26826 10656657
66.087662 -42.552452 145.755 12630448
65.22126 -42.56081 146.17796 11907239
64.594849 -42.503399 146.50931 11907239
168.73615 -41.479321 45.236286 12167842
168.56725 -41.71027 45.937511 10261131
168.34782 -42.14608 46.438347 11906725
66.867485 -41.966892 145.60672 11381404
66.308563 -41.842594 145.93172 13157816
65.536674 -41.592171 146.41223 14078918
64.494141 -41.603516 146.9207 13288890
63.719494 -41.355537 147.40157 12762290
169.06035 -40.634472 45.103756 11378583
168.93442 -40.726555 45.869431 9011838
65.43737 -40.691025 146.82339 11512738
64.698227 -40.673244 147.19426 14078150
63.839359 -40.516022 147.68013 12104360
63.052525 -40.33321 148.14079 10459279
169.43997 -39.777424 44.549076 11708316
169.32594 -39.840199 45.304123 10853524
64.85321 -39.923138 147.41957 12301996
64.126381 -39.625053 147.89709 11512223
63.11903 -39.531864 148.43025 9998728
62.368057 -39.40728 148.84987 8616819
170.07045 -38.284538 43.838238 8089963
169.84877 -38.663315 44.529842 10326666
169.63925 -39.021961 45.182358 10326668
64.01194 -38.899609 148.24512 10854293
63.441578 -38.518986 148.67876 10393742
62.489731 -38.532574 149.14171 9142907
61.658001 -38.467949 149.57692 8879478
60.962399 -38.169083 150.03935 9405566
170.33714 -37.579464 43.760067 9800577
170.21176 -37.66864 44.529285 9931910
63.300674 -37.744171 149.05965 9011576
62.611557 -37.656803 149.43385 9932166
61.856647 -37.532284 149.85539 9142650
60.865479 -37.587723 150.32085 9405566
60.186714 -37.405411 150.72807 9405566
170.77649 -36.579659 43.141853 9208435
170.61835 -36.765923 43.889297 9998210
170.46303 -37.03109 44.374756 9405566
61.92025 -36.727051 150.14784 9076601
61.090645 -36.666386 150.58046 9405566
60.253338 -36.576748 151.02852 9273980
59.500446 -36.379715 151.47826 8879222
171.12729 -35.647335 43.053616 10393226
170.96913 -35.833286 43.802322 9800830
61.238373 -35.698643 150.89684 10129289
60.396786 -35.501598 151.39023 9734531
59.478348 -35.525429 151.8326 8945783
58.776081 -35.248981 152.28929 9472639
171.5587 -34.660954 42.458782 10261383
171.47708 -34.674164 43.095978 9340021
171.32034 -34.899422 43.714878 10261382
60.70332 -34.86153 151.49672 9800839
59.868164 -34.485298 152.05896 9274750
58.80162 -34.505455 152.57568 9801606
57.979389 -34.456821 152.99977 9406594
171.88574 -33.810188 42.318851 9998469
171.76106 -33.896397 43.09269 9209720
59.725868 -33.770081 152.41653 9998474
59.107162 -33.520176 152.82147 9472644
58.215549 -33.537605 153.25322 8814460
57.368496 -33.476646 153.69456 8617843
56.835884 -33.174183 154.07825 10263180
172.39392 -32.630119 41.672619 8090987
172.26138 -32.750042 42.409328 10261897
172.0295 -33.186855 43.012081 13023917
59.030933 -32.736908 153.1739 9143680
58.408016 -32.591675 153.53885 10261902
57.559341 -32.530071 153.98117 9144187
56.626751 -32.549278 154.429 9671043
172.90274 -31.449104 41.023769 10263180
172.74625 -31.672602 41.646145 9539201
172.66495 -31.683905 42.286465 9210491
58.417278 -31.962282 153.78731 10261902
57.685085 -31.695486 154.25485 9078394
56.769314 -31.658104 154.72052 8815222
56.137272 -31.405987 155.05779 9604482
173.17224 -30.737638 40.939671 11578526
173.04797 -30.821516 41.717289 9868422
56.9081 -30.678406 155.04605 10064011
56.038044 -30.609787 155.36946 9472130
55.243164 -30.374655 155.50914 9537921
174.30246 -29.364195 39.584667 9735812
174.06615 -29.573837 40.192455 9867654
173.72009 -29.918665 40.847515 11183768
173.41516 -30.198139 41.584148 14076861
56.155849 -30.039291 155.69792 7564651
55.3265 -29.632496 156.08669 7893359
54.547447 -29.347439 156.33421 9866632
181.46558 -28.918646 33.70789 10853004
178.0197 -28.917187 35.952122 9208182
177.84319 -28.915144 36.807835 8353648
175.37576 -29.050137 38.721355 9735812
175.24316 -29.057381 39.577351 9735812
54.5909 -28.939014 157.27382 10129289
53.780914 -28.912251 157.38322 10326668
51.98365 -28.753351 159.63391 9537659
51.020977 -28.753788 159.94319 9669503
48.256168 -28.748102 163.44215 7564643
47.270611 -28.748632 163.72862 8419696
46.009232 -28.402081 165.32642 9406078
45.320614 -28.206181 165.4207 9603457
46.087147 -27.686575 165.60928 9406078
45.259537 -27.451923 165.7224 9340541
45.257633 -26.670891 166.03334 10064520
44.497055 -26.604313 166.07791 10656657
45.412918 -26.017046 166.2899 10656657
44.604824 -25.578552 166.48366 10459278
43.79652 -25.141233 166.6769 9932934
44.563309 -24.614082 166.86856 10261899
43.870724 -24.421202 166.96181 8880505
43.907555 -23.543137 167.31042 9143678
43.133896 -23.262615 167.44043 10261902
43.837425 -22.660049 167.66364 10261902
43.13625 -22.392042 167.78693 10459280
43.211262 -21.645931 168.08214 10919830
42.445694 -21.584942 168.12462 10261902
43.149578 -20.978022 168.34944 10788245
42.500183 -20.493019 168.55797 10262156
42.436783 -19.499441 168.95497 9932934
41.761887 -19.470863 168.84782 10130313
41.940952 -18.599554 169.22481 10393485
41.666176 -17.662848 169.51892 10854036
41.0466 -17.121307 169.46338 9735296
41.571747 -16.731705 169.84486 9209467
41.280609 -16.433941 169.83589 9341052
40.96888 -15.646463 170.04323 9209467
40.845741 -15.022472 170.43773 9209467
40.292816 -14.506577 170.67082 9406846
39.634407 -14.158527 170.82558 10260875
39.444763 -13.797434 171.89326 8089963
38.976982 -13.779522 171.75188 10260875
34.303009 -13.623244 176.63863 9143675
34.006828 -13.320458 176.62935 9143675
33.911537 -12.518024 176.90407 8354927
33.741661 -11.637818 177.17711 9143673
33.553711 -10.97471 177.35724 9537918
33.307449 -10.440255 177.46135 8748403
32.954422 -9.419652 177.71098 9274747
33.006035 -8.7606802 177.99352 9603712
32.559448 -8.3083057 177.97824 10261131
32.610458 -7.6470084 178.26144 10261131
32.214005 -6.5314879 178.52971 9998471
31.816605 -5.4144173 178.79819 9867399
31.64241 -4.521132 179.07524 10656914
31.542519 -3.7005143 179.35576 10854036
31.243134 -3.3996358 179.3446 10854036
31.067902 -2.5013726 179.62315 9538435
30.667213 -1.3755012 179.89362 9340798
30.956749 -0.69869995 180.28651 14076861
30.352806 -0.39761195 180.24104 9735298
29.976151 0.35749483 180.66661 9405821
29.696899 0.65937972 180.78572 8089963
28.949783 1.1190764 181.71585 8089963
146.08655 -58.526627 68.781128 8089962
145.53775 -58.722691 69.466194 8089962
145.05519 -58.671616 70.439026 10326922
144.59375 -58.719631 71.220573 11510938
143.02904 -58.868359 71.592102 10656401
142.68185 -58.866989 72.278755 10656401
142.15521 -58.864941 73.305801 9734788
141.80042 -58.863598 73.988609 9734788
140.28131 -58.864834 74.270836 10984079
139.83096 -58.863186 75.112434 11115409
139.28406 -58.861221 76.11879 9866629
138.91565 -58.859924 76.787628 10261132
137.31496 -58.860928 77.200066 9406078
136.94083 -58.859661 77.859077 9406078
136.37416 -58.85778 78.844582 9603457
135.89667 -58.856228 79.662766 9405306
134.0135 -58.856419 80.518753 9405047
133.42764 -58.854626 81.482979 8353134
132.83495 -58.852848 82.443031 10194308
132.33574 -58.851379 83.239799 9273976
130.85048 -58.852882 83.406189 11905692
130.44669 -58.851742 84.034103 10261382
129.83551 -58.850044 84.972496 9078138
129.21768 -58.848366 85.906448 10853268
128.69781 -58.846989 86.681427 10064521
127.69923 -58.847115 87.127266 9341054
126.69899 -58.847252 87.566902 8419952
126.16885 -58.845924 88.326462 8551537
125.52686 -58.844353 89.233864 8814453
124.98705 -58.843056 89.986557 9208699
124.44241 -58.841778 90.735825 9603713
123.89352 -58.840508 91.481979 9011320
122.21127 -58.84177 91.837982 10853012
121.76685 -58.840794 92.424187 10195082
121.09541 -58.83934 93.299713 9800323
120.5312 -58.838146 94.025703 8616822
119.96236 -58.836975 94.748047 9143166
119.27409 -58.835575 95.610504 9340027
118.57973 -58.834209 96.467949 10984848
117.99649 -58.833084 97.178741 11642524
117.64452 -58.832417 97.603569 11379356
115.72562 -58.833488 98.144142 9537920
115.25124 -58.832634 98.699249 10591121
114.65434 -58.831577 99.389702 10656658
113.93276 -58.83033 100.2137 10327693
113.20525 -58.829102 101.03246 9537921
112.59465 -58.828102 101.71087 8813942
111.97969 -58.827114 102.38532 9077882
111.23656 -58.825943 103.18991 9406847
110.48775 -58.824799 103.9891 8946041
109.8593 -58.82386 104.65114 9275004
109.22674 -58.822933 105.30905 9932934
108.4626 -58.82185 106.0937 9735555
107.69276 -58.820789 106.87282 5920074
107.0471 -58.81992 107.51795 7039331
106.39733 -58.819061 108.15895 9144190
105.6127 -58.818058 108.92308 7696236
104.95472 -58.817238 109.55563 9736071
104.29272 -58.816433 110.18401 11380638
103.49352 -58.815487 110.93288 11709346
102.6889 -58.814564 111.67596 10393485
102.1317 -58.66534 112.42023 7762024
101.38141 -58.623936 112.95194 7038307
100.4207 -58.541214 113.51903 7630183
99.536896 -58.357899 114.03129 9669764
147.26843 -57.513603 67.470039 8683128
146.83569 -57.676842 68.099861 9274750
146.34853 -57.729744 68.903236 9866885
145.77998 -57.749584 69.87104 8879990
145.23718 -57.941555 70.670242 9142907
101.47584 -57.964294 113.19386 9208696
100.65285 -57.601376 113.78118 7366494
99.691536 -57.556389 114.27732 10787729
98.85994 -57.556675 114.68652 12432037
148.6068 -56.24263 66.07357 9012091
148.18848 -56.316643 66.743187 7827821
147.66373 -56.639542 67.417229 7103840
147.11673 -56.671654 68.339165 10195338
146.57977 -56.728172 69.226051 10919829
146.22565 -56.911888 69.705391 9735299
100.50939 -56.818878 114.17121 6510930
99.824776 -56.643333 114.5787 7629927
99.017693 -56.676991 114.96239 9998215
98.244095 -56.558006 115.39098 8748665
97.621422 -56.167583 115.85441 8092019
149.2583 -55.47089 65.504028 9012091
148.90239 -55.65044 65.989738 10262156
148.42007 -55.618282 66.846375 9011833
147.93767 -55.587849 67.70195 9339773
147.40189 -55.840656 68.44561 10721426
146.87256 -56.135628 69.147591 9735299
99.86377 -55.988995 114.82253 7038307
99.239815 -55.624577 115.27608 7893356
98.492615 -55.528423 115.68246 8880250
97.425568 -55.57785 116.18779 9209984
96.809906 -55.33429 116.58865 9735812
149.63669 -54.608177 65.362236 10393486
