# .PCD v0.7 - Point Cloud Data file format
VERSION 0.7
FIELDS x y z rgb
SIZE 4 4 4 4
TYPE F F F U
COUNT 1 1 1 1
WIDTH 1196
HEIGHT 1
VIEWPOINT 0 0 0 1 0 0 0
POINTS 1196
DATA ascii
104.76467 -37.546391 -97.349915 7301470
105.45113 -37.656914 -96.703384 9275260
106.15611 -37.844288 -96.006294 10062722
106.86771 -37.971596 -95.330414 9274233
107.5984 -38.04549 -94.661751 8551281
108.24473 -37.980106 -94.128777 9800580
108.9128 -38.016674 -93.531296 10853012
109.81215 -37.853138 -92.822136 9274748
110.57947 -37.791092 -92.182388 10130056
111.35936 -37.8316 -91.485901 8616816
112.07689 -37.971157 -90.799324 7827815
112.815 -38.123783 -90.088974 8419695
113.61323 -38.31242 -89.310272 7565675
114.13625 -38.344528 -88.841034 7565675
150.65111 -38.041389 -49.976139 12038823
150.98663 -37.963951 -49.068771 11314588
151.35924 -37.633999 -48.338806 10787987
66.046135 -37.459373 -138.2235 11115923
66.717552 -37.37281 -137.51062 9734531
101.83255 -36.435139 -100.46083 10195592
102.61527 -36.589973 -99.695518 7958119
103.32253 -36.641659 -99.046684 8353132
104.04494 -36.833191 -98.316742 7234909
104.81307 -36.855587 -97.628845 6643540
105.58319 -36.880215 -96.940987 10130056
106.35554 -36.907173 -96.252991 10195592
107.13024 -36.936462 -95.564926 9472639
107.77697 -36.962353 -94.990761 9209467
108.4244 -36.989571 -94.415405 9274748
109.20227 -37.023891 -93.723473 9669250
109.90694 -37.056473 -93.095894 8945782
110.76133 -37.098011 -92.334145 8484716
151.28767 -36.902611 -49.382977 10985367
151.65552 -36.778534 -48.432858 10722450
151.97322 -36.706032 -47.572727 9406589
75.074394 -36.32822 -130.09219 8880766
75.675339 -36.244087 -129.3434 11907238
76.395287 -36.146477 -128.45308 9341054
76.993874 -36.067543 -127.71712 9735043
77.587181 -35.989182 -126.98042 9340542
78.175888 -35.911297 -126.24311 9735043
78.7593 -35.833988 -125.50503 9998212
79.453201 -35.741909 -124.61859 11905694
80.140114 -35.650558 -123.73123 10458763
80.707352 -35.575012 -122.99111 10261383
81.269447 -35.500011 -122.25037 11445399
99.705101 -35.711678 -102.68783 7564651
100.51529 -35.809593 -101.92579 9143423
101.19743 -35.907253 -101.27692 8748405
101.96554 -35.922161 -100.59225 10589323
102.78976 -35.866261 -99.892471 9273978
103.54783 -35.785854 -99.262917 10260870
104.31744 -35.805832 -98.574501 7695203
105.08756 -35.827541 -97.884827 7827301
105.85825 -35.850929 -97.193802 10457995
106.62962 -35.876099 -96.50132 10918545
107.3381 -35.999844 -95.816544 9603968
107.99954 -36.098919 -95.18721 9209467
108.60201 -36.297924 -94.570267 9077369
109.12141 -36.320045 -94.108536 9011576
151.99626 -35.865063 -48.460705 9866367
152.31236 -35.868977 -47.518093 10260099
152.59828 -35.64352 -46.92569 11378324
81.716148 -35.440365 -121.65742 12432037
84.117523 -35.155304 -120.5088 5920074
84.660149 -35.082287 -119.75652 10524558
85.156914 -34.992657 -118.94565 7893352
85.65612 -34.907192 -118.14703 9340280
86.241524 -34.802494 -117.17941 9142904
88.85865 -34.468346 -115.45039 8090216
96.627975 -34.656204 -105.91323 6510930
97.141411 -34.658733 -105.45918 11380380
97.869133 -34.834843 -104.73201 10788501
98.638832 -34.970165 -103.98764 8749691
99.237251 -35.019489 -103.436 9209985
99.878395 -35.027622 -102.86662 9472131
100.64788 -35.038834 -102.18259 9274751
101.41756 -35.05172 -101.49754 8945528
102.18744 -35.066284 -100.81152 9339515
102.93679 -35.038971 -100.16392 8681843
103.77338 -34.929001 -99.479424 9142647
104.54482 -34.948483 -98.789619 8090473
105.22948 -35.053688 -98.134842 8945527
105.91431 -35.160339 -97.479187 8089963
152.18298 -35.254826 -48.600327 9209467
152.55757 -34.923855 -47.864803 10523271
152.92421 -34.881428 -46.824852 9470839
153.30049 -34.504025 -46.137135 9735043
89.184357 -34.381485 -114.73553 8616303
89.731216 -34.277039 -113.74809 11839901
90.409798 -34.225636 -112.93459 9340795
91.242348 -34.115345 -112.1777 9274491
91.960625 -34.014725 -111.55553 8813685
92.633278 -33.950481 -110.85205 8287342
93.104034 -33.965454 -110.12643 6774103
93.783997 -33.907845 -109.43758 7695972
94.500244 -33.88361 -108.68686 8091242
95.21685 -33.928265 -107.86465 10985364
95.86042 -34.001945 -107.11073 9341053
96.607124 -33.994617 -106.40004 9274488
97.35881 -33.990932 -105.69534 10919828
98.110909 -33.989128 -104.9911 9603969
98.870499 -33.991604 -104.29465 8223348
99.631035 -33.996117 -103.59887 8420469
100.2683 -34.002186 -103.02207 10984592
100.91098 -34.011326 -102.45016 9406077
101.68246 -34.023697 -101.7631 8551027
102.40962 -34.209286 -101.03104 9339515
103.09486 -34.309563 -100.37814 8681843
103.78017 -34.41124 -99.724503 8353133
152.94574 -34.113609 -47.633965 10457478
153.24489 -33.781715 -47.123272 9010544
153.59848 -33.691765 -46.176128 9866371
153.87723 -33.553001 -45.50668 8682867
96.577278 -33.417095 -107.39269 9209467
97.036186 -33.398415 -106.87132 8813936
97.722237 -33.371338 -106.08908 10722448
98.416557 -33.349167 -105.31776 9274229
99.154343 -33.343502 -104.59382 7565675
99.772491 -33.341175 -103.99419 8681843
153.58856 -32.969143 -47.026997 9406078
153.8998 -32.781822 -46.316319 9932423
154.2554 -32.750656 -45.296356 10261132
154.16684 -32.014515 -46.396172 12037796
154.47871 -31.827324 -45.683319 10458510
154.83025 -31.780035 -44.693691 12300967
154.87328 -30.93191 -45.530312 12629932
155.144 -30.912241 -44.749184 11643295
155.54109 -30.692867 -43.89542 10394253
155.98289 -30.330168 -43.293602 10855060
155.43536 -30.316778 -44.95322 11643293
155.94144 -30.022266 -44.154842 9078654
156.43358 -29.752249 -43.336266 12038820
156.71153 -29.735495 -42.551128 15919067
157.34978 -29.309595 -42.85651 15853529
157.69806 -29.317455 -41.735172 10854803
158.74359 -29.056597 -41.194065 9736580
159.03342 -29.064583 -40.253223 10788759
161.29993 -28.974911 -38.969845 12433061
161.5826 -28.789827 -38.423061 12433061
161.93614 -28.811775 -37.482166 12433061
162.27167 -28.763733 -36.603882 11446167
161.86551 -28.199841 -38.28474 12433061
162.22008 -27.95109 -37.615597 12433061
162.61072 -27.789343 -36.764893 11511960
163.00209 -27.594109 -35.946308 11446168
162.57536 -27.025368 -37.628773 12433061
162.88867 -26.881496 -36.960651 12104097
163.25946 -26.822981 -36.057247 11314070
163.57355 -26.815853 -35.249233 11050643
163.14561 -26.245586 -36.936131 11576729
163.5338 -25.977535 -36.199444 10919056
163.92247 -25.826355 -35.343273 9340028
164.40685 -25.612463 -34.43066 10326665
163.86188 -25.063601 -36.271378 11576729
164.2209 -24.880199 -35.524601 9274235
164.68251 -24.789066 -34.549786 8418927
165.17186 -24.695959 -33.710995 9078141
165.716 -24.379494 -32.941685 9342339
164.50917 -24.282701 -35.379932 8945271
164.99277 -23.838301 -34.793026 9997955
165.49008 -23.740139 -33.930317 9406845
165.95181 -23.776646 -32.987827 9605252
166.40799 -23.606001 -32.24828 9210491
165.89885 -23.161032 -34.012608 9209463
166.39888 -22.994423 -33.282558 10065288
166.89516 -22.885403 -32.459362 9802372
167.36153 -22.794052 -31.666531 9538950
167.92094 -22.597557 -30.867252 8618105
168.35109 -22.527782 -30.110699 10261643
167.87756 -22.08271 -31.901005 9209985
168.2133 -22.106203 -31.128376 9209985
168.81169 -21.989418 -30.274708 9604228
169.42912 -21.789591 -29.461048 10261643
170.28847 -21.448978 -28.765888 9998212
170.54813 -21.463833 -27.968182 9536888
171.15196 -21.109449 -28.274975 10392461
171.58855 -21.032869 -27.289524 9932166
172.41405 -20.680758 -26.569836 8485745
173.03647 -20.415422 -26.026051 8682867
128.79945 -43.600838 -73.359993 11380380
129.33733 -43.663956 -72.847305 10130573
130.24867 -43.624428 -72.050346 9735556
130.88347 -43.664383 -71.462135 7761253
131.56264 -43.748249 -70.812729 6905688
132.38046 -43.851177 -70.0298 6905688
133.08881 -43.792236 -69.300568 8287597
133.87602 -43.668461 -68.77961 8682611
134.63594 -43.806152 -68.031509 6774103
135.32594 -43.822807 -67.405266 6182222
136.07811 -43.758549 -66.643616 5919050
136.67455 -43.821922 -65.92334 7695204
137.55067 -43.824284 -65.411774 7959150
138.29092 -44.063263 -64.467781 7564651
138.68095 -44.065346 -63.641869 9406079
139.05534 -44.064198 -62.808735 7366751
141.16853 -44.061066 -61.530552 8418927
141.53018 -44.059917 -60.682522 9340027
141.95767 -44.05854 -59.66217 10195849
143.92799 -44.055817 -58.665817 5920074
144.27235 -44.054657 -57.801216 8617331
144.61183 -44.053513 -56.934757 9735812
146.47517 -43.842991 -55.765465 8814454
146.82706 -43.796043 -54.774895 9340541
147.13321 -43.601986 -54.087524 9734788
125.56361 -42.511971 -76.791763 11906983
125.96185 -42.553406 -76.414688 9736329
126.62717 -42.623711 -75.784386 11051159
127.43267 -42.815445 -74.968964 9340802
128.18288 -42.839516 -74.285141 7433318
128.86206 -42.817394 -73.68763 8617849
129.57645 -42.952175 -72.981689 10262415
130.38339 -42.940815 -72.264465 9011577
131.18721 -42.771038 -71.627563 6510930
131.86858 -42.853374 -70.976959 6774102
132.63928 -42.995003 -70.217178 9537920
133.36731 -42.814377 -69.653549 12564654
134.12657 -42.948162 -68.907944 7761253
134.81798 -43.037357 -68.244934 6642517
135.44366 -43.157265 -67.625725 6445394
146.77974 -43.112064 -55.693192 7564643
147.09535 -42.907795 -54.989246 9340542
147.42186 -42.800137 -54.143097 10129801
147.6971 -42.6544 -53.492451 10064007
122.62119 -41.500721 -79.922615 9406079
123.27885 -41.56142 -79.303734 9077112
123.94595 -41.769428 -78.604347 10589837
124.67484 -41.876598 -77.89901 11050644
125.47975 -41.820305 -77.205582 10525588
126.15163 -41.790821 -76.618164 9736329
126.85917 -41.916302 -75.922966 8420470
127.64296 -41.953472 -75.202675 9209722
128.39157 -41.896576 -74.559944 9012597
129.12437 -41.792736 -73.954437 9670535
129.93552 -41.883385 -73.183441 7565418
130.61369 -41.96067 -72.538147 7367524
131.28996 -41.932957 -71.94593 7432288
132.07564 -42.039059 -71.19017 6313808
132.79871 -42.219498 -70.454193 12367275
133.48636 -42.303951 -69.796898 13551549
147.40569 -42.098026 -54.989819 11906725
147.71281 -41.903828 -54.299545 11314329
148.06502 -41.860069 -53.304413 10459019
36.149567 -40.607605 -171.46686 10195339
36.907936 -40.764507 -171.00346 8288627
37.663582 -40.921951 -170.54083 7170401
38.130707 -41.103848 -169.75668 7827814
39.027069 -41.090542 -169.0098 5919050
39.75457 -41.006378 -168.47818 8616048
40.658184 -40.901424 -167.81055 10457479
119.80946 -40.536343 -82.877922 7103579
120.46693 -40.591064 -82.270874 6314832
121.20583 -40.834328 -81.504929 7499106
122.05795 -40.831924 -80.750534 7300958
122.71043 -40.786919 -80.190231 8748405
123.37057 -40.846844 -79.571472 9668992
124.16344 -40.920273 -78.825409 10721679
124.95866 -40.99585 -78.076096 9997959
125.68032 -40.884022 -77.484444 9736329
126.40466 -40.773178 -76.889885 9801865
127.20756 -40.854069 -76.131096 10657170
127.91949 -40.979908 -75.431793 10788750
128.55162 -40.993931 -74.858688 9670527
129.362 -41.080856 -74.09021 10130827
130.03935 -41.15498 -73.447144 8618105
147.98221 -41.185356 -54.317642 11248279
148.33888 -40.953571 -53.523094 9932933
148.67906 -40.841541 -52.64143 9603969
35.623146 -39.803333 -172.0303 11380380
36.081207 -40.034847 -171.75519 10853012
37.111969 -39.993706 -171.35681 10326925
37.725861 -40.537373 -170.82532 7039331
44.884731 -40.2925 -162.16943 9735812
45.739307 -40.191227 -161.49464 10196363
46.588219 -40.09026 -160.81699 10459279
47.262806 -40.009777 -160.27271 10788244
48.100327 -39.909466 -159.58954 10197132
48.932194 -39.809502 -158.90381 10263180
49.593155 -39.72982 -158.35309 10263180
50.086498 -39.670177 -157.93904 10261132
117.26075 -39.624329 -85.550827 7564651
117.78477 -39.662994 -85.072021 9011838
118.58192 -39.865726 -84.27314 10918545
119.22566 -39.772301 -83.746468 8616048
119.88287 -39.824398 -83.140884 10062979
120.67331 -39.888744 -82.411743 5591109
121.46593 -39.955181 -81.679741 7695973
122.12804 -40.012119 -81.067558 6643540
122.84458 -39.894283 -80.487694 6906456
123.69692 -39.789352 -79.781738 8221803
124.49802 -39.862743 -79.037491 10392459
125.1655 -39.924885 -78.413734 10656144
125.77585 -40.164776 -77.751053 8749434
126.63525 -40.065525 -77.029907 11051415
148.72525 -39.912479 -53.56105 8617333
149.03107 -39.814373 -52.765423 8946042
149.39804 -39.685421 -51.823494 8814710
34.902855 -38.789043 -172.71826 7760997
35.439644 -39.059628 -172.39612 10195850
36.388374 -39.105335 -171.99666 10392974
37.044365 -39.329937 -171.64465 10853012
55.498676 -38.896835 -150.85188 8682867
55.957726 -38.839817 -150.43271 9932934
56.566486 -38.763931 -149.87247 10525071
57.322124 -38.669403 -149.17007 8682356
58.07225 -38.57526 -148.46555 10261643
58.519524 -38.518902 -148.04178 11380380
115.18444 -38.411377 -87.899269 10984337
115.66172 -38.620655 -87.390549 10064520
116.4472 -38.807915 -86.623512 9142647
117.19256 -38.90551 -85.931534 8419701
117.98396 -38.963432 -85.215805 8682873
118.64064 -39.011887 -84.614471 9866631
119.28908 -38.958385 -84.065262 9997186
120.19012 -38.771576 -83.353912 9865856
120.98318 -38.834324 -82.623215 6380369
121.73207 -38.940434 -81.911591 5788232
122.40055 -38.899525 -81.338837 8156268
123.0403 -39.109352 -80.676041 8287853
123.90997 -39.082108 -79.919022 7301214
149.32321 -38.961899 -52.868351 7038307
149.63626 -38.826851 -52.093246 8289136
149.90266 -38.863361 -51.261555 10262924
34.963272 -37.949883 -173.02344 7037274
35.755295 -38.008221 -172.68207 8484976
36.313049 -38.523884 -172.25528 9932678
58.964481 -38.462742 -147.61707 11380380
59.554646 -38.388062 -147.04974 10064006
60.286877 -38.295063 -146.3385 10525071
61.013664 -38.202366 -145.62537 11183001
61.734322 -38.110081 -144.91003 9603973
62.449593 -38.018192 -144.19284 10392718
63.01738 -37.944977 -143.61771 9012350
63.721859 -37.853741 -142.89691 12958637
64.420967 -37.762863 -142.17435 8682867
65.11393 -37.672459 -141.44986 9340284
65.801598 -37.582363 -140.72372 10786703
66.211441 -37.528473 -140.28716 10786703
112.36337 -37.53392 -90.745583 7564643
113.05833 -37.661407 -90.084152 9143675
113.6924 -37.822208 -89.460701 9407105
114.3495 -37.885674 -88.86068 9670020
114.99653 -38.000069 -88.246696 10590094
115.91201 -37.850212 -87.51738 9208440
116.69269 -37.800781 -86.860367 9274233
117.48543 -37.855553 -86.146294 7695720
118.19022 -37.956944 -85.487938 9603973
118.85581 -37.909641 -84.928894 12630187
119.60258 -38.009262 -84.224983 10655115
120.38325 -37.924385 -83.573227 10063235
121.1899 -38.130714 -82.764374 6775127
121.72087 -38.172859 -82.275101 6972506
149.94081 -37.970306 -52.164089 10723220
150.28975 -37.914639 -51.192307 10986647
150.66066 -37.661362 -50.380196 8815222
35.162239 -37.034283 -173.30295 7037274
35.608498 -37.296413 -173.02063 7037274
66.618919 -37.474789 -139.84998 8682867
67.159294 -37.403385 -139.2661 8682867
67.829414 -37.314457 -138.5347 9274237
68.626358 -37.208252 -137.65495 8353135
69.284431 -37.120201 -136.92012 8879991
69.936485 -37.032551 -136.18369 9142650
70.583328 -36.945206 -135.44583 6510930
71.22419 -36.858292 -134.70645 7169634
71.859734 -36.771763 -133.96574 11314848
72.489388 -36.685719 -133.22351 9012095
73.113884 -36.599949 -132.48009 7037274
73.609306 -36.531624 -131.88432 8616563
110.33152 -36.725857 -92.87442 8813680
110.94027 -36.667675 -92.370911 8813680
111.63446 -36.790642 -91.712105 8484716
112.41792 -36.831936 -91.0121 8222573
113.20279 -36.875053 -90.310089 9077882
113.85795 -36.912376 -89.723495 10393484
114.51425 -36.95108 -89.135292 9735041
115.3033 -36.999195 -88.42746 10458250
116.07308 -37.003353 -87.755981 8681582
116.93494 -36.926128 -87.040771 9142647
117.72974 -36.97971 -86.325485 8418668
118.3327 -37.081181 -85.755569 9669761
119.00912 -37.248997 -85.092155 12038050
150.30739 -37.155731 -52.00301 12434093
150.61812 -36.901344 -51.370655 11446941
150.9574 -36.726822 -50.562679 9143418
151.29744 -36.521511 -49.787479 8813686
35.212784 -36.332993 -173.55798 7696746
73.978722 -36.480515 -131.43698 11906725
74.467644 -36.41272 -130.83972 10787988
79.328789 -35.840397 -127.08205 10128513
79.787971 -35.774189 -126.46909 9537150
80.470657 -35.675411 -125.54856 8089963
81.033653 -35.593529 -124.78043 10260871
81.590981 -35.512009 -124.01151 9537918
107.62451 -35.563854 -95.775352 9209467
108.1403 -35.582745 -95.311295 9932676
108.73842 -35.779755 -94.689186 9143162
109.51488 -35.943378 -93.935249 8484203
110.25205 -36.020317 -93.259064 8945267
111.0132 -36.012272 -92.600555 8813680
111.92107 -35.849602 -91.883575 8550508
112.69563 -35.788589 -91.237099 10788498
113.39436 -35.876263 -90.590096 11578784
114.05299 -35.817787 -90.04335 9276285
114.79817 -35.904491 -89.356369 8354159
115.54178 -36.126087 -88.61042 9735041
116.24427 -36.258305 -87.940231 9668991
116.94795 -36.392239 -87.268234 9537662
151.25381 -35.822708 -50.711708 9866883
151.61974 -35.823872 -49.624786 9735296
151.92929 -35.634972 -48.920994 9735296
82.252792 -35.414787 -123.08765 8092011
82.798592 -35.334194 -122.31689 8223084
83.349495 -35.258522 -121.5611 7827813
83.789665 -35.199436 -120.95996 5920074
86.7547 -34.854706 -119.05907 9340280
87.24221 -34.765961 -118.23845 8090987
87.72393 -34.677776 -117.41814 9471612
88.295563 -34.572601 -116.43385 8748146
88.671829 -34.503025 -115.77823 8090216
104.6814 -34.433533 -98.918877 8090987
105.46927 -34.593285 -98.146629 8419183
106.19883 -34.723602 -97.43998 9602688
106.90919 -34.845093 -96.754616 12759978
107.59628 -34.917824 -96.113396 12694441
108.24436 -34.847698 -95.575859 12037024
108.97604 -34.918514 -94.896255 10524556
109.75278 -34.949192 -94.196404 8549739
110.53062 -34.98159 -93.494911 8549739
111.31103 -35.01619 -92.792824 8813680
112.07326 -35.007984 -92.129028 8155754
112.92731 -34.918102 -91.424843 13157558
113.53806 -35.126484 -90.800377 14078918
114.06452 -35.154701 -90.329819 12039591
151.51199 -35.25108 -50.596039 10327176
151.86171 -34.870113 -49.991299 9538174
152.19434 -34.824287 -49.056129 9603711
152.5692 -34.492714 -48.320496 11378324
90.899811 -34.23732 -114.66075 9997955
91.353432 -34.151188 -113.83012 10524811
91.712463 -34.082718 -113.16589 9340795
94.027779 -33.575321 -110.51883 9210491
94.581291 -33.537697 -109.83347 7630435
95.132263 -33.500851 -109.14828 8288621
95.680809 -33.464809 -108.46272 12103329
102.54324 -33.694561 -101.16316 8879221
103.33179 -33.848564 -100.39268 8156013
104.06188 -33.973602 -99.688194 9143162
104.81809 -33.918056 -99.048218 8682867
105.64891 -33.86586 -98.34082 10392458
106.41342 -33.788624 -97.704063 8484464
107.18929 -33.812344 -97.008308 10655375
107.83637 -33.83334 -96.427444 11905953
108.48412 -33.855545 -95.845444 10853265
109.26221 -33.883656 -95.145622 8353649
109.97659 -34.010735 -94.454025 8879218
110.77283 -34.117832 -93.699883 9537662
111.50468 -34.324165 -92.954361 9077110
112.15595 -34.353294 -92.365959 8089963
152.27856 -33.915562 -49.839176 9735296
152.55754 -33.77359 -49.172596 9866881
152.8878 -33.673874 -48.30574 10523528
153.21109 -33.348457 -47.716114 9536888
96.327179 -33.223667 -108.66891 13550517
96.551971 -33.290077 -107.98405 11511449
97.417992 -33.154881 -107.29082 10854034
98.070976 -33.115929 -106.46624 10459019
98.954514 -32.98922 -105.78952 9011061
99.616135 -32.936813 -105.07915 10721939
100.26684 -32.971653 -104.18761 10064009
100.85957 -33.003052 -103.44283 9800321
101.37883 -33.077999 -102.78395 9932163
102.06077 -33.029819 -102.14147 8156271
102.79086 -33.029305 -101.40724 8747893
103.54029 -33.036514 -100.69141 8879995
104.29633 -33.047382 -99.981255 9011579
105.05908 -33.061878 -99.276184 9669248
105.80455 -33.034962 -98.612541 11444888
106.64725 -32.927776 -97.918961 8353649
107.42418 -32.950684 -97.221115 9209985
108.02465 -33.143452 -96.595955 10459022
108.67361 -33.165211 -96.012993 9800579
152.85406 -32.960445 -49.217106 10261132
153.16542 -32.771107 -48.508118 10392717
153.52167 -32.737 -47.489609 9406078
104.76128 -32.408825 -100.18619 9208957
105.34914 -32.405499 -99.549866 9866627
153.44232 -32.042755 -48.514385 9997959
153.80441 -31.815739 -47.697861 9471871
154.13515 -31.691982 -46.856838 9997959
154.13789 -30.854895 -47.80051 10261131
154.44522 -30.859367 -46.883179 10655633
154.75426 -30.800276 -46.033173 12629932
154.81078 -30.183662 -47.127815 10261132
155.25455 -29.992603 -46.2644 12695468
155.64287 -29.893051 -45.349144 12959153
156.08702 -29.595991 -44.734432 8092019
156.52635 -29.295118 -45.467102 9734788
156.70413 -29.29776 -44.908302 8092019
156.99873 -29.302738 -43.976185 10723219
158.04066 -29.040129 -43.447773 10591633
158.39345 -29.047846 -42.321629 13354167
160.45232 -28.927465 -41.218208 8616048
160.80489 -28.745087 -40.48716 7826533
161.15829 -28.764809 -39.54985 8089702
161.4409 -28.579321 -39.00359 12433061
161.08583 -27.953808 -40.557381 7826533
161.43973 -27.770939 -39.823498 8418666
161.82469 -27.792542 -38.802269 12433061
162.21986 -27.41041 -38.162468 12433061
161.79305 -26.981346 -39.704273 7562586
162.11971 -26.755938 -39.083862 9471352
162.48987 -26.776669 -38.102009 11774875
162.43204 -26.002028 -39.034908 8089963
162.78859 -25.818125 -38.295113 8353135
163.18663 -25.724108 -37.356819 9866883
163.57501 -25.455297 -36.620258 13023917
163.14528 -24.887699 -38.309303 9340030
163.46042 -24.877539 -37.501446 8946038
163.82616 -24.75498 -36.67585 10853263
163.75565 -24.107521 -37.623451 9143161
164.17068 -23.976183 -36.752007 9998212
164.60631 -23.749527 -35.951405 10261384
165.00826 -23.502113 -35.278713 11313812
165.09952 -22.978363 -36.2644 10327431
165.52415 -22.846958 -35.386898 11313812
166.07921 -22.634167 -34.60239 9867136
166.54424 -22.53063 -33.795643 9670786
166.93771 -22.422943 -33.180149 9933702
167.13011 -22.04336 -34.050915 11117208
167.64975 -21.94311 -33.179256 10131081
168.15967 -21.812998 -32.580044 10065034
168.94832 -21.606148 -31.554363 11906982
169.5724 -21.410074 -30.953243 9867398
169.83315 -21.423864 -30.15897 9669507
170.41594 -21.0683 -30.470295 10130828
171.0555 -20.947184 -29.398312 10854807
171.69409 -20.748966 -28.784954 10064522
172.17714 -20.642836 -27.944767 9603457
172.77809 -20.408316 -27.26067 8551281
137.96638 -43.65313 -65.123199 7564651
138.48041 -43.597851 -64.68988 9998216
139.1631 -43.631042 -64.062096 10787730
139.87372 -43.733402 -63.375458 8090216
140.58669 -43.837566 -62.684643 8616303
141.34116 -43.673164 -62.047844 9142391
142.16002 -43.683479 -61.351913 8747891
142.88382 -43.792782 -60.65012 7301475
143.46693 -43.910355 -59.965691 8287853
144.24634 -43.685162 -59.398094 7301214
145.06828 -43.737305 -58.720551 7564386
145.70033 -43.82198 -57.961811 9735812
146.09952 -43.818085 -56.908215 9340798
146.40652 -43.621216 -56.221493 9735043
134.31462 -42.407475 -69.004242 6840408
135.00743 -42.495655 -68.340515 6642517
135.74065 -42.685371 -67.590851 6248015
136.33662 -42.858658 -66.972122 5919050
137.10139 -42.770939 -66.330063 6905945
137.84628 -42.926579 -65.586578 8156012
138.548 -42.859196 -64.991043 8484721
139.35736 -42.928223 -64.232262 9866372
140.11635 -42.756073 -63.636681 10720652
140.82182 -42.960136 -62.90485 9931649
141.56581 -42.81855 -62.307762 10194823
142.35777 -42.81728 -61.598995 9800838
143.02835 -42.887054 -60.964161 7499625
143.74171 -43.140404 -60.201088 6972506
144.54338 -43.0658 -59.519547 8813941
145.27904 -43.178497 -58.80545 8879991
146.0498 -43.136967 -57.830372 9735812
146.38815 -42.922436 -57.070683 9472385
146.72577 -42.740124 -56.27647 8156783
147.03429 -42.481903 -55.655201 7038307
132.29726 -41.598892 -71.20723 6182222
132.91376 -41.634796 -70.637466 11051415
133.67296 -41.764019 -69.894142 13551549
134.36418 -41.849106 -69.233337 8090474
135.14018 -41.804745 -68.559906 6971482
135.90666 -41.902191 -67.825668 6774102
136.61549 -41.892002 -67.195694 6313551
137.42447 -41.861862 -66.485832 6510930
138.19516 -41.772911 -65.839043 8748148
138.90419 -41.867878 -65.157455 8879479
139.61581 -41.964542 -64.472694 9998216
140.39716 -41.879669 -63.8144 10458251
141.04475 -42.034206 -63.158611 9800065
141.76869 -42.26585 -62.396667 9998217
142.34727 -42.348923 -61.837757 10853012
146.73961 -41.930389 -57.156422 10853012
147.04762 -41.733486 -56.466637 8880252
147.37811 -41.724091 -55.496876 7696236
38.840042 -40.871037 -170.06009 6445394
39.80542 -40.817905 -169.60889 6445394
40.763283 -40.76017 -169.13319 8616048
41.555874 -40.796768 -167.13976 10260101
42.269451 -40.713356 -166.60062 9734527
43.155533 -40.609421 -165.92374 9602945
128.93954 -40.666798 -74.671303 11512473
129.57845 -40.642754 -74.110901 10131084
130.26454 -40.735806 -73.450737 9604226
130.8887 -40.832535 -72.844315 8551282
131.65891 -40.965778 -72.089104 8551537
132.4053 -40.865089 -71.469833 6971994
133.15508 -40.765369 -70.847092 6774871
133.93398 -40.904289 -70.081375 10590864
134.63611 -40.887939 -69.460457 8814454
135.37019 -40.923523 -68.785454 12235433
136.19971 -40.75592 -68.124435 6840151
136.90195 -40.843822 -67.452415 6510930
137.54202 -41.115479 -66.746109 6510930
138.21091 -41.10667 -66.15123 7958632
139.0244 -41.117733 -65.417145 9537665
147.42868 -40.848701 -56.342484 10261903
147.72444 -40.858612 -55.453773 9077887
148.04033 -40.708363 -54.687698 8814713
37.606689 -39.724812 -171.2635 10853012
38.209961 -40.031109 -170.88367 8485746
39.147102 -40.075844 -170.47186 6511187
40.078827 -40.438442 -169.86285 5919050
44.035816 -40.505806 -165.24385 9471359
44.735378 -40.423199 -164.69766 10327437
45.431034 -40.340797 -164.14935 10788500
45.950195 -40.279133 -163.73697 10788500
50.577309 -39.610741 -157.52371 11642524
51.066349 -39.551395 -157.10765 12235684
125.94746 -39.634647 -77.856964 8683898
126.84662 -39.629295 -77.054199 11248537
127.46288 -39.833351 -76.402184 10065035
128.14345 -39.803127 -75.807404 9275769
128.90558 -39.926704 -75.064217 9143927
129.64124 -40.003395 -74.367676 9998468
130.45334 -39.781342 -73.749023 11248019
131.20177 -39.799999 -73.069496 9735296
131.92827 -39.932732 -72.353737 8354158
132.62401 -39.910519 -71.741417 8090730
133.46402 -39.865486 -71.011024 6643284
134.15688 -39.945183 -70.351349 8879990
134.85237 -40.026703 -69.688492 8550514
135.58847 -40.208782 -68.939964 11182745
147.98232 -39.908516 -55.769566 10656659
148.30096 -39.826015 -54.918129 8814457
148.61926 -39.744663 -54.066387 8288369
37.52858 -39.033489 -171.56638 10853012
38.44751 -39.068771 -171.18298 9735043
39.221611 -39.248821 -170.80096 9406078
51.390926 -39.511936 -156.82961 12235684
51.876053 -39.452797 -156.41185 9538175
52.679668 -39.354527 -155.71338 9275777
53.477642 -39.256649 -155.0126 9933193
54.111526 -39.178589 -154.45001 9538946
54.898323 -39.081432 -153.74457 9998987
55.679436 -38.984562 -153.0368 10591124
56.454166 -38.888161 -152.32649 11183260
57.223343 -38.792053 -151.61401 10721683
57.834217 -38.71545 -151.04234 10721683
58.5923 -38.620075 -150.32568 9340544
59.194893 -38.543972 -149.75089 9142907
123.34779 -38.669933 -80.6063 6511954
124.11019 -38.645603 -79.942833 6972250
124.72903 -38.843761 -79.303894 8223347
125.4062 -38.807884 -78.721153 11380380
126.16814 -38.924526 -77.993202 8946813
126.95902 -38.953953 -77.278534 12827052
127.7118 -38.889248 -76.640228 10788500
128.44598 -38.777157 -76.037842 8485744
129.25999 -38.857906 -75.270187 12036769
129.93997 -38.926655 -74.627434 10392970
130.60306 -38.94873 -74.022697 10590347
131.504 -38.904202 -73.237427 8880245
132.13034 -39.157143 -72.552536 8617330
132.81953 -39.232502 -71.8983 9209467
133.51091 -39.309334 -71.241356 6182734
148.63559 -38.915985 -54.960514 10524560
148.99025 -38.871941 -53.95853 8617338
149.29893 -38.678856 -53.262375 7038307
36.788765 -38.004227 -172.26804 9537921
37.736694 -38.052448 -171.86792 9998216
38.640602 -38.29781 -171.40813 9603457
59.494591 -38.506123 -149.46292 10261643
59.793373 -38.468178 -149.17464 10261643
120.7627 -37.737541 -83.323494 6511954
121.34513 -37.602547 -82.87027 7893352
122.00535 -37.762627 -82.212189 6643541
122.62426 -37.884937 -81.608223 6577492
123.42584 -37.951447 -80.868225 7103580
124.20965 -37.972797 -80.164726 7300959
124.95538 -37.901283 -79.53772 7104609
125.68365 -37.783474 -78.947502 9933193
126.49541 -37.856915 -78.195267 9604485
127.17393 -37.919659 -77.565926 9670021
127.85455 -37.983971 -76.934021 8485237
128.66371 -37.91457 -76.249886 8945785
129.35876 -38.130573 -75.535294 13549237
130.04178 -38.198402 -74.892868 11050131
149.19147 -37.972401 -54.384792 13485760
149.55884 -37.919857 -53.354671 7367272
149.86787 -37.727406 -52.656761 7038307
36.09536 -36.998432 -172.94183 7497825
37.021385 -37.033802 -172.55554 8945783
37.818321 -37.004841 -172.2464 9735043
71.235413 -36.969387 -137.09421 8089962
71.753456 -36.898972 -136.49359 7037274
72.396568 -36.811279 -135.74164 9472383
73.033546 -36.724091 -134.98831 11184028
73.665253 -36.637177 -134.23367 7038307
74.291023 -36.550766 -133.47769 7037792
117.34549 -36.41819 -86.910759 10130057
117.74358 -36.444736 -86.552635 10130057
118.45002 -36.582466 -85.876541 8682867
119.15784 -36.721817 -85.198517 9669761
119.90729 -36.955574 -84.439499 9340026
120.70315 -37.013885 -83.709503 7498335
121.41906 -36.8876 -83.134125 6511954
122.1577 -36.808849 -82.516708 9274491
122.93922 -36.824951 -81.817719 7958377
123.74345 -36.889725 -81.076172 7827046
124.41548 -36.945168 -80.455948 7366752
125.08933 -37.002071 -79.833359 6709080
125.95441 -36.894291 -79.117416 8025712
126.71389 -37.144363 -78.330177 11117466
127.39388 -37.206043 -77.699951 9209215
149.57442 -37.1633 -54.169079 7038307
149.91203 -36.888386 -53.480091 8156530
150.24736 -36.722527 -52.673985 10130315
150.56589 -36.521618 -51.957382 10459533
35.387169 -35.766388 -173.71039 8092019
36.255486 -35.961647 -173.28452 6839895
37.088615 -36.151642 -172.87491 6905688
74.911499 -36.464733 -132.7206 7037274
75.526009 -36.379086 -131.96214 6643284
76.135284 -36.293816 -131.20264 7038298
76.73864 -36.20895 -130.44186 9012088
77.455559 -36.107681 -129.52753 6511954
78.047096 -36.023685 -128.7645 8617075
78.632774 -35.940147 -128.00031 8879732
79.097755 -35.873505 -127.38834 9405046
115.68499 -35.601772 -88.720268 9011575
116.49331 -35.793282 -87.931549 10656400
117.22605 -35.875271 -87.257462 10130057
117.94617 -35.814972 -86.658043 9801348
118.60503 -35.787472 -86.097198 8551538
119.406 -35.842461 -85.375931 8090987
120.20902 -35.899361 -84.651894 7367007
120.96513 -35.998936 -83.944824 6511954
121.63545 -35.951286 -83.373917 8945011
122.33751 -35.951942 -82.752373 10260871
123.20203 -35.940472 -81.992493 8550512
123.91467 -36.087132 -81.294334 11643036
124.62889 -36.235538 -80.593857 7169373
125.03384 -36.268814 -80.220184 8419696
150.20998 -36.018467 -53.585812 8616819
150.5202 -35.825588 -52.884735 9998215
150.8873 -35.82333 -51.798306 9998212
35.577133 -34.988407 -173.93951 9210240
36.508415 -35.024906 -173.55066 7300960
82.91423 -35.437286 -124.71696 8092011
83.355682 -35.371952 -124.09154 15722454
83.903145 -35.290688 -123.30927 9341820
84.444847 -35.209824 -122.52619 8814451
85.087921 -35.113293 -121.58562 8222321
85.618027 -35.033306 -120.80112 9866625
86.142548 -34.953762 -120.01604 6709076
88.841721 -34.6222 -118.31925 9143166
89.318848 -34.533825 -117.48721 9143166
89.602486 -34.480988 -116.98805 8090736
113.67816 -34.603268 -90.912498 14078918
114.35485 -34.715111 -90.273865 10328973
115.08242 -34.856552 -89.577759 8090987
115.87615 -34.902012 -88.866959 8551283
116.67162 -34.949329 -88.153831 10130059
117.37903 -35.0438 -87.496269 11577503
118.02946 -34.931797 -86.980545 11116952
118.85139 -34.908413 -86.276024 9538176
119.70413 -34.7859 -85.589073 9077881
120.44259 -34.939411 -84.878036 7696228
121.13213 -35.065342 -84.221916 7564128
121.7515 -35.290176 -83.575783 7958629
122.42046 -35.338814 -82.961273 11181458
150.84169 -35.125999 -52.7267 9735298
151.18333 -34.917805 -51.950089 9669504
151.52415 -34.742237 -51.1385 11708315
151.8362 -34.487904 -50.501705 9209467
35.251305 -33.946758 -174.47957 12038820
35.71608 -34.183212 -174.19983 10196620
36.427193 -34.326607 -173.85753 8092019
89.883995 -34.428398 -116.48908 7300957
90.34893 -34.341183 -115.65771 9734270
92.582672 -34.073616 -114.51411 12828082
92.940178 -34.004776 -113.84078 8089963
93.383018 -33.919121 -112.9994 8616049
93.820381 -33.834045 -112.15868 9865857
94.166603 -33.766243 -111.4866 10260358
96.343719 -33.499855 -110.26617 8288621
110.26751 -33.572876 -94.409668 9867141
110.91838 -33.598938 -93.82309 9669762
111.65145 -33.804905 -93.076744 8418927
112.45034 -33.91552 -92.31855 8089963
113.07964 -34.095306 -91.676407 11445914
113.74172 -33.901028 -91.186684 12697521
114.59922 -33.811508 -90.474709 11907492
115.36941 -33.807663 -89.801239 9735555
116.16344 -33.851257 -89.087387 9537666
116.96105 -33.897125 -88.372574 9669765
117.62736 -33.936703 -87.775314 12301226
118.24934 -34.019493 -87.19725 10130057
119.04867 -34.204361 -86.41925 8288109
151.48038 -33.979149 -52.136021 9537918
151.85432 -33.723431 -51.316826 10787727
152.20595 -33.669083 -50.33493 9932674
35.312263 -33.099979 -174.78757 10854036
35.700264 -33.297733 -174.55379 10854036
96.676613 -33.432957 -109.58612 8288621
98.614006 -32.880108 -106.79766 8681835
98.938919 -32.86071 -106.38168 9537659
100.46113 -32.568256 -105.46159 8681843
100.89015 -32.544224 -104.90398 8681843
101.53141 -32.509007 -104.06717 10392714
102.06664 -32.481682 -103.37326 10655627
102.62833 -32.464069 -102.70743 10129545
103.30442 -32.445316 -101.91197 10655633
103.86603 -32.430607 -101.24866 10853012
106.9543 -32.425343 -97.965401 9012606
107.57462 -32.435833 -97.357506 9933450
108.16881 -32.626228 -96.724945 7565675
108.81779 -32.647354 -96.140488 10129543
109.54961 -32.847107 -95.396065 7169634
110.33054 -32.875854 -94.692574 8287340
111.11269 -32.906258 -93.987541 9339770
111.89625 -32.938416 -93.280884 11313301
112.68107 -32.972183 -92.572433 9998213
113.33599 -33.001556 -91.980598 9142906
113.99196 -33.032131 -91.387299 12630702
114.77165 -32.968964 -90.730301 13287860
115.6211 -32.935856 -89.997185 10129803
116.32122 -33.060963 -89.319061 9669509
117.02245 -33.187618 -88.639313 9143422
152.20255 -32.830395 -51.298531 8681835
152.46712 -32.728428 -50.629295 9932165
152.78633 -32.729614 -49.680443 9603198
102.73199 -32.23777 -103.54856 10261132
103.15646 -32.215843 -102.98759 10261132
103.68529 -32.189121 -102.2858 9471612
104.30715 -32.229908 -101.31375 9997961
104.86834 -32.216331 -100.64744 8617080
105.87227 -32.002766 -100.04193 9077369
106.39177 -32.130527 -99.099007 9208699
107.12287 -32.04002 -98.421745 9209215
107.8326 -32.002735 -97.683868 10130829
108.45321 -31.945515 -97.118629 7565675
109.08412 -31.977453 -96.375351 9800835
109.8292 -31.993191 -95.63942 7037791
110.69158 -31.895077 -94.944763 7826533
111.43546 -31.874336 -94.260551 7168860
112.20628 -31.901163 -93.539368 10391944
112.86735 -32.136456 -92.816132 11116693
113.51745 -32.094238 -92.263107 8550770
114.19233 -32.336105 -91.548004 11379608
114.85059 -32.367119 -90.952477 11379609
152.75676 -31.93594 -50.670612 9866115
153.12889 -31.809286 -49.710136 9602942
153.50424 -31.555408 -48.884598 9603200
153.39911 -30.848406 -50.0005 8945008
153.70714 -30.850393 -49.084061 9603199
153.95337 -30.852673 -48.350716 10129545
154.09302 -30.206337 -49.205975 9537148
154.5639 -29.98307 -48.33717 9932161
155.03694 -29.724194 -47.547504 9932160
155.41222 -29.583076 -46.766945 9734788
155.80843 -29.286839 -47.699047 9208435
156.04893 -29.28923 -46.955566 9734788
156.34792 -29.292723 -46.025635 14077376
157.34715 -29.031216 -45.701221 9143422
157.68513 -29.033344 -44.572357 8749691
159.68939 -28.72924 -43.39901 9538688
160.02795 -28.705095 -42.544437 7958888
160.36678 -28.681746 -41.688477 7958119
160.3069 -27.847935 -42.686481 7629667
160.69588 -27.782793 -41.742558 7826533
161.07069 -27.589972 -40.96439 8944756
161.01091 -26.740093 -41.978283 7037274
161.36613 -26.757217 -41.038898 11904668
161.72133 -26.707781 -40.16674 9339255
161.29279 -26.147938 -41.844837 7563619
161.63347 -25.840334 -41.271385 8550513
162.00381 -25.777256 -40.373737 8616306
162.36021 -25.693754 -39.532791 8089963
162.31537 -24.819206 -40.533421 7563619
162.687 -24.755894 -39.632374 8813686
163.00188 -24.744534 -38.826241 10853012
163.01225 -24.11203 -39.793285 9142651
163.50127 -23.884661 -38.874649 9997959
163.92854 -23.655453 -38.14539 11051157
164.32097 -23.473955 -37.405956 9933191
164.40541 -22.985939 -38.35817 10130314
164.86589 -22.839739 -37.389317 10393486
165.41557 -22.494677 -36.692814 9472639
165.81197 -22.351971 -35.863071 11313812
166.02199 -21.977945 -36.741261 9341054
166.35567 -21.891653 -35.978184 9997951
166.8026 -21.820429 -35.236996 11050639
167.40968 -21.663074 -34.524677 10722448
168.13416 -21.412243 -33.831364 10656913
168.72781 -21.353779 -32.897335 9866884
169.01572 -21.374659 -32.321827 9867398
167.77017 -21.286098 -34.80711 10787983
168.70866 -20.94692 -33.9445 9932163
169.09366 -20.973896 -33.177334 9866884
169.57559 -21.008158 -32.215633 9867398
169.96182 -21.03611 -31.44363 11709345
170.81822 -20.688372 -30.751842 7039331
171.11 -20.70969 -30.168079 10262671
143.5108 -42.51889 -60.712261 7039331
143.94933 -42.583935 -60.287632 6972506
144.68286 -42.693867 -59.576698 8813941
145.41534 -42.568504 -58.982037 9406078
146.02138 -42.754387 -58.223923 9341313
141.21107 -41.509655 -63.266502 9011064
141.90031 -41.741405 -62.535629 10326925
142.62344 -41.766136 -61.87579 10326925
143.39973 -41.851421 -61.13866 8880507
144.13377 -41.778664 -60.516754 8287854
144.81468 -41.927402 -59.833988 9011835
145.62341 -41.85059 -59.147247 8749692
146.3623 -41.753563 -58.427032 9012350
146.66496 -41.692959 -57.647976 9801095
41.717171 -40.703636 -168.65631 9734526
42.667889 -40.647949 -168.17841 9734782
43.42662 -40.604145 -167.795 11906725
137.73595 -40.569019 -66.839905 6510930
138.44447 -40.659626 -66.160873 9932678
139.22134 -40.568821 -65.509476 10524560
139.86993 -40.845909 -64.792862 9142906
140.58687 -40.941635 -64.10379 8353390
141.37416 -40.855175 -63.440922 9011064
142.16536 -40.769451 -62.774158 9208443
142.89275 -40.869934 -62.073429 8551542
143.62135 -40.893795 -61.409111 9274494
144.35339 -40.91927 -60.740879 8091247
145.14015 -40.746986 -60.120552 8092018
145.82661 -40.894844 -59.433266 8289397
146.51436 -40.875076 -58.749069 8617849
147.00194 -40.800095 -57.663887 10853012
147.3087 -40.727486 -56.836369 10655890
40.277794 -39.793377 -170.16245 5919050
41.155083 -40.052471 -169.65149 6642773
41.988525 -40.236187 -169.18077 8681835
46.466923 -40.21767 -163.32343 13024949
47.152569 -40.135868 -162.77034 11183001
47.834202 -40.054276 -162.21545 10064521
48.680462 -39.952637 -161.51912 10064520
49.520988 -39.851398 -160.82011 10263180
50.188786 -39.770615 -160.25888 10263180
50.852642 -39.690121 -159.69583 13024949
51.676586 -39.589897 -158.98955 10130057
134.3438 -39.403664 -70.449081 9011064
135.04068 -39.484131 -69.785492 8550514
135.74432 -39.692486 -69.053238 10392973
136.37801 -39.831406 -68.417526 7629667
137.19739 -39.867939 -67.66568 6510930
137.9048 -39.780937 -67.074638 7498081
138.65344 -39.969986 -66.311447 10196106
139.41164 -39.788754 -65.721046 10130314
140.17513 -39.860943 -65.001831 8484976
140.89572 -39.778011 -64.396973 7827046
141.60826 -39.975086 -63.662205 8287341
142.35875 -39.825947 -63.063007 9208186
143.08784 -39.923862 -62.361973 9275007
143.82043 -40.023708 -61.656906 9142906
144.48372 -40.180496 -60.985931 6445908
146.94904 -40.241127 -58.456467 9012350
147.25945 -39.980289 -57.832317 10524304
147.59917 -39.797367 -57.032631 10458511
147.87532 -39.742371 -56.275867 9669508
39.642044 -38.921894 -170.76028 8287598
40.498108 -39.037914 -170.37051 6642773
41.336121 -39.037502 -170.03369 7695204
52.494896 -39.489925 -158.28081 8682867
132.24266 -38.573555 -72.737694 7761766
133.00372 -38.692627 -71.997704 9735811
133.69646 -38.76844 -71.340057 6051404
134.32533 -38.918858 -70.703117 7892583
135.20346 -38.875259 -69.937889 9208443
135.90353 -38.782951 -69.355957 8813941
136.69681 -38.922752 -68.576965 7366495
137.4005 -38.930256 -67.942978 7169372
138.24535 -38.836121 -67.232239 8288622
138.95436 -38.813229 -66.608414 7959657
139.67003 -38.901402 -65.924164 8353647
140.38615 -38.913937 -65.27655 9142906
141.10992 -39.082771 -64.545532 9274492
141.8343 -39.175949 -63.851082 9603202
142.41615 -39.251785 -63.292763 8616048
147.88945 -38.897385 -57.195141 10260875
148.25716 -38.887054 -56.116043 8616305
148.56647 -38.691525 -55.420784 9142649
38.952278 -37.695946 -171.51907 9735043
39.70929 -38.10157 -171.05536 9340029
40.618378 -38.229496 -170.6396 8353134
60.239616 -38.41156 -148.74152 10261383
60.831512 -38.336212 -148.16287 9801347
61.419544 -38.261082 -147.58295 10525071
62.149113 -38.167511 -146.85612 9932934
62.873199 -38.074356 -146.12749 9472642
63.590981 -37.981606 -145.39679 9209211
64.303291 -37.889206 -144.66426 9472639
65.009369 -37.797237 -143.92981 8682867
65.71003 -37.70562 -143.19371 9472126
66.404411 -37.614426 -142.45567 8814453
67.093437 -37.523594 -141.71605 8682867
129.05954 -37.731579 -75.983971 8682867
129.52762 -37.592552 -75.633705 11510425
130.21594 -37.660679 -74.99292 10129542
130.98195 -37.922714 -74.185188 10130053
131.66902 -37.992783 -73.535934 8814452
132.41911 -37.884548 -72.917076 6775127
133.21408 -37.834846 -72.229309 7433313
133.91704 -37.809597 -71.612 5920074
134.70349 -37.941742 -70.842857 9011064
135.40044 -37.943359 -70.217773 10261132
136.25195 -37.783905 -69.533112 8287597
136.88454 -37.883953 -68.917496 7958888
137.58278 -38.07827 -68.196899 9406591
138.29361 -38.161568 -67.519394 10262412
138.78647 -38.029285 -67.142746 15723486
148.20755 -38.199028 -57.045856 9142650
148.52647 -37.99321 -56.333801 7760998
148.85667 -37.884502 -55.477917 9537406
149.1998 -37.547489 -54.843533 16775151
38.21627 -36.990742 -172.09196 10853012
39.011086 -36.963181 -171.78317 10326924
39.985847 -37.138962 -171.32217 9932167
40.54509 -37.537693 -170.94073 9142651
67.640244 -37.451225 -141.12305 9538175
68.318504 -37.361134 -140.38042 11051411
68.991318 -37.27142 -139.6362 9931910
69.65799 -37.182114 -138.89023 8550514
70.319298 -37.093178 -138.14297 8813686
70.844063 -37.022327 -137.54398 9734531
126.74178 -36.597416 -78.557411 9670023
127.42272 -36.658009 -77.926865 11117209
128.18701 -36.911442 -77.133797 7038307
128.96083 -37.02998 -76.394402 8353906
129.6815 -36.830799 -75.848351 8682867
130.52017 -36.809879 -75.115814 9274491
131.2354 -36.887043 -74.447281 10064520
131.93634 -36.857491 -73.840378 9867142
132.72198 -36.983868 -73.083458 6709334
133.47932 -36.875057 -72.461441 5920074
134.17644 -36.947445 -71.80188 5920074
134.87555 -37.021175 -71.139542 7432288
135.47551 -37.179764 -70.524445 9406078
136.07709 -37.339699 -69.907249 8485232
148.90332 -36.98774 -56.359596 9142649
149.21381 -36.791901 -55.661213 9076601
149.58281 -36.737625 -54.628223 8419699
149.95705 -36.400799 -53.901154 5393730
37.5009 -35.969398 -172.78061 7563874
38.28215 -36.151665 -172.39496 9538177
39.277412 -36.117912 -172.00798 9471872
39.856491 -36.307949 -171.70047 9142651
77.94268 -36.156013 -131.40538 6511954
78.541725 -36.070904 -130.6312 5919050
79.13549 -35.98613 -129.85597 8944499
79.723305 -35.901833 -129.0798 10325892
80.421616 -35.801193 -128.1472 9142130
80.997574 -35.717793 -127.36901 9800063
81.567665 -35.634827 -126.58995 8353646
82.132652 -35.552208 -125.81007 9472383
82.580544 -35.486401 -125.18563 7301982
123.49432 -35.419441 -81.973831 8550512
124.0424 -35.582859 -81.413574 8748404
124.65422 -35.691902 -80.821884 7432545
125.45919 -35.894058 -80.016411 7235422
126.22559 -36.003883 -79.28756 8025200
126.96031 -35.883755 -78.692711 7038307
127.71838 -35.81208 -78.054871 10196365
128.52003 -35.837223 -77.333885 8748922
129.20728 -35.899418 -76.697083 9077372
129.89679 -35.963116 -76.057503 9603713
130.71989 -35.93462 -75.342209 9998215
131.47844 -35.927704 -74.674103 11248795
132.10814 -36.026348 -74.071487 9867142
132.81673 -36.246162 -73.343147 7893096
133.37764 -36.302998 -72.82061 6775383
149.53474 -36.029266 -55.576515 10063753
149.8217 -35.796703 -54.989719 8024938
150.14102 -35.791779 -54.048115 5985867
36.796829 -34.734474 -173.54874 6510930
37.619598 -35.073605 -173.08473 7827046
38.564507 -35.094101 -172.69666 9538433
39.129181 -35.494789 -172.31227 9011832
86.109474 -35.083607 -122.72865 10590351
86.641808 -35.002922 -121.93256 8222065
87.271774 -34.905861 -120.97408 5393730
87.773277 -34.818459 -120.15059 6972506
88.262123 -34.728958 -119.31799 8419442
120.74455 -34.497372 -84.813011 8484973
121.28361 -34.535114 -84.327225 7958629
121.90645 -34.759995 -83.682083 6972248
122.72717 -34.896564 -82.893608 8748147
123.45695 -34.950573 -82.22287 8353134
124.25086 -34.824078 -81.578606 7367006
124.92129 -34.803226 -80.994911 7564643
125.73505 -34.867584 -80.245079 8551281
126.41516 -34.922668 -79.617851 10459025
127.09728 -34.979103 -78.98819 9209473
127.91074 -34.942928 -78.284966 8946043
128.66022 -34.92868 -77.628265 9735299
129.34921 -34.98922 -76.990685 9997957
130.12228 -35.243645 -76.189362 9669250
130.81544 -35.307446 -75.546501 9932422
150.15741 -34.956905 -54.949173 8353647
150.47871 -34.876251 -54.087742 6775127
150.79973 -34.796631 -53.225929 9603202
151.10092 -34.489693 -52.681557 8090987
36.927948 -34.056591 -173.76224 8552055
37.847115 -34.06773 -173.38818 9406847
38.431206 -34.258762 -173.07828 9735812
90.928741 -34.388058 -117.54816 6643543
91.395363 -34.300018 -116.70482 7039331
91.856102 -34.212582 -115.86193 9999500
92.311806 -34.125553 -115.01937 12828082
94.630905 -33.839375 -113.67226 8089963
94.980019 -33.770725 -112.9903 9405559
95.412117 -33.685432 -112.13823 12234140
95.838715 -33.600765 -111.28679 9998215
118.66058 -33.642223 -87.008194 8682867
119.19678 -33.675835 -86.526825 7563875
119.9529 -33.904205 -85.766922 8551538
120.67591 -33.772236 -85.197021 7564643
121.35078 -33.818134 -84.589455 8945011
122.16257 -33.87479 -83.857849 6775126
122.97267 -33.932121 -83.120522 6643285
123.64655 -33.980461 -82.501968 6182990
124.30163 -33.983192 -81.920937 7893092
125.25048 -33.839897 -81.14724 7959401
125.98892 -33.896629 -80.467651 9735298
126.68678 -34.029842 -79.788727 12893106
127.2749 -34.1689 -79.204185 8814715
128.13901 -34.332069 -78.364319 8222572
150.74255 -33.985607 -54.317955 7498594
151.11714 -33.727428 -53.500286 7827559
151.48882 -33.597393 -52.544945 8814452
36.238319 -33.007687 -174.45135 9275521
37.125237 -33.038296 -174.08273 9604485
37.840118 -33.296032 -173.69406 9801605
97.938026 -33.3493 -110.21272 10787728
98.347313 -33.265678 -109.35194 9209467
98.751976 -33.18259 -108.49189 8090987
98.99205 -33.133022 -107.97629 7564392
101.05383 -32.881832 -106.84223 8616822
115.90598 -32.419193 -89.996498 8880252
116.57885 -32.595726 -89.317451 8288370
117.17753 -32.663219 -88.756783 8091248
117.78986 -32.875111 -88.116241 8814198
118.59013 -32.921604 -87.393753 7761254
119.39445 -32.970421 -86.670273 8945784
120.20206 -33.021255 -85.945045 9078138
120.92686 -32.888012 -85.374161 7564643
121.67535 -32.802044 -84.761551 8485231
122.46854 -32.810444 -84.067749 5458755
123.23786 -32.909103 -83.353485 6248271
123.91018 -33.092266 -82.677742 5920074
124.52276 -33.172405 -82.098732 7630176
125.21325 -33.368557 -81.39724 9669503
151.45631 -32.808655 -53.538113 7367014
151.81447 -32.767803 -52.52166 9603195
152.06056 -32.766769 -51.792236 8681835
35.590736 -32.032845 -175.0946 9866886
36.398758 -32.005966 -174.78024 10590865
37.132866 -32.052551 -174.46674 9933193
104.78277 -31.924896 -101.89487 9340545
105.41345 -31.894974 -101.04791 7893615
106.62033 -31.626486 -100.50498 9340286
107.14241 -31.60351 -99.7948 9208700
107.77766 -31.580256 -98.952827 9209214
108.33338 -31.569881 -98.276482 9012606
108.89003 -31.561045 -97.601318 8025969
109.556 -31.551426 -96.790314 8353649
110.22002 -31.543039 -95.978287 8089963
110.66166 -31.537985 -95.436386 8089963
112.95461 -31.578636 -93.023972 10261385
113.60849 -31.605621 -92.427414 8946298
114.34551 -31.814123 -91.670784 11248537
115.15139 -31.927111 -90.90271 9932680
115.86797 -31.961742 -90.252838 8748667
116.74389 -31.853817 -89.532532 9143422
117.39523 -31.735302 -89.016373 6512731
118.10151 -31.823689 -88.349319 8222831
118.9008 -31.867817 -87.622658 8155756
119.70219 -31.913652 -86.893639 12367019
120.37212 -31.953249 -86.284676 12170665
121.0452 -31.994501 -85.674911 8683381
121.7634 -32.130287 -84.985283 7894124
122.40038 -32.081696 -84.452988 6840408
