# .PCD v0.7 - Point Cloud Data file format
VERSION 0.7
FIELDS x y z rgb
SIZE 4 4 4 4
TYPE F F F U
COUNT 1 1 1 1
WIDTH 1229
HEIGHT 1
VIEWPOINT 0 0 0 1 0 0 0
POINTS 1229
DATA ascii
78.971169 -1.4036038 173.77061 7959145
77.994072 -1.3092917 174.28937 9406079
77.03688 -1.3563709 174.74138 10261131
76.210197 -1.3564281 175.14809 9932166
75.383202 -1.3564602 175.55507 9407363
74.555794 -1.3565173 175.9622 10065291
73.640633 -1.2386861 176.45988 10130315
72.724678 -1.1207545 176.95801 10261132
77.9673 -0.6485315 174.56833 10524304
77.139893 -0.64833838 174.97548 10853012
76.28508 -0.49039197 175.51352 9603457
75.546181 -0.4113346 175.93538 8814971
74.716759 -0.41116765 176.34286 8814971
73.750366 -0.45839906 176.78294 7629926
72.777596 -0.36340293 177.33044 8484720
71.809807 -0.41066903 177.77113 9932416
71.035194 -0.17331702 178.32378 9932416
70.201912 -0.17312551 178.73253 9209463
69.36792 -0.17293352 179.14169 12761773
74.065498 0.30132455 177.17905 6510930
73.235161 0.30168372 177.59303 6510930
72.221878 0.4214471 178.17404 9340281
71.341919 0.58898503 178.71878 9932416
70.373772 0.54184681 179.17142 10985876
69.539986 0.54238278 179.58731 11841184
68.705147 0.54289168 180.0029 12761773
67.868736 0.54344445 180.41682 10261899
67.031525 0.54397231 180.83107 8616563
66.033897 0.78406292 181.4879 9208442
64.985298 0.78495437 182.01109 13879484
63.284401 1.2768071 184.23123 6511954
62.226521 1.2783253 184.7674 7169372
61.16671 1.2797925 185.30396 5919050
60.317455 1.2810273 185.73407 5392706
59.46698 1.2822628 186.16484 5392706
58.615158 1.2835991 186.59639 6511954
57.76202 1.2849362 187.02878 7959144
56.889603 1.285691 187.40274 9538433
50.41983 1.8049784 192.50677 9143675
49.446449 1.8026705 192.57166 9472639
50.227921 2.2993851 192.72267 7564642
49.522873 2.5451334 192.87126 10393484
48.638992 2.6249104 192.96379 13551287
49.355644 3.2887959 193.18784 13551287
48.649841 3.5347939 193.33655 14077631
47.765446 3.61412 193.42897 11380377
48.481167 4.2808084 193.65421 11380377
47.684231 4.4433908 193.77097 9209467
47.041672 4.5234189 193.84196 9735812
143.98776 -13.263488 131.51793 9340030
143.47237 -13.259068 132.00069 10261123
142.78549 -13.253476 132.64386 11379348
141.91893 -13.397472 133.22453 8418925
141.24466 -13.469181 133.76945 10524300
140.50563 -13.419993 134.55331 11116437
139.61845 -13.692474 135.12871 10327947
138.80159 -13.690976 135.96576 14867154
117.28212 -13.406365 150.08948 8813680
116.44523 -13.393105 150.50667 8353130
115.40133 -13.377084 151.02682 7564651
114.35956 -13.361529 151.54578 8156531
113.52777 -13.349421 151.9599 9932675
112.69735 -13.337664 152.37329 10590347
111.86834 -13.326207 152.78584 8090987
111.04057 -13.315102 153.19763 12432295
110.21408 -13.304297 153.60872 14603206
145.61516 -12.327995 130.4536 8092019
144.99893 -12.480996 130.95407 9603202
144.34674 -12.554572 131.5266 10261132
143.65843 -12.548928 132.17105 9208437
142.97063 -12.543534 132.81497 9208435
142.2832 -12.538441 133.45848 9011062
141.63303 -12.612922 134.02867 9340542
141.02013 -12.766929 134.52559 11906725
116.34016 -12.928547 150.74521 7892581
115.50445 -12.916234 151.16148 7630185
114.51273 -12.670635 151.74832 8485239
113.66849 -12.52028 152.22424 9537918
112.84808 -12.647945 152.57652 9932675
112.01779 -12.637063 152.98952 9801090
111.18881 -12.626508 153.40172 10261641
110.15442 -12.613735 153.91594 10327433
109.12174 -12.601398 154.42905 9801347
108.34507 -12.362729 154.90727 9801347
107.72685 -12.355851 155.2142 8814201
147.59657 -11.392663 129.05907 9142907
146.78461 -11.576068 129.72729 8617849
145.97719 -11.616582 130.46059 9012350
145.2867 -11.610734 131.10716 9340030
144.59676 -11.605136 131.75325 9076858
143.90721 -11.599791 132.39879 9077111
143.25493 -11.674318 132.97092 9143162
142.63985 -11.828621 133.46977 10129545
112.99908 -11.956923 152.7803 9340539
112.21751 -11.716001 153.2618 12168865
111.29809 -11.473946 153.81165 10130568
110.33546 -11.520851 154.26648 10130568
109.36442 -11.452538 154.7718 9538176
108.53765 -11.443834 155.18216 10129800
107.71202 -11.435381 155.59184 10327436
106.88749 -11.427247 156.00087 10985364
105.98473 -11.30373 156.49483 11445658
149.24152 -10.450692 127.98138 8089963
148.5148 -10.563745 128.60429 8353135
147.70677 -10.724096 129.28006 9142907
146.92285 -10.669423 130.03754 8749435
146.23055 -10.663695 130.68581 9472387
145.53877 -10.658146 131.33347 9669507
144.88414 -10.732821 131.9077 8748405
144.26682 -10.887521 132.40845 9143419
110.18118 -10.536881 154.73833 9735299
109.55916 -10.530704 155.04683 10853012
108.77912 -10.291785 155.52679 10853012
107.95146 -10.284158 155.93715 10985622
107.12496 -10.276758 156.34686 10656657
106.00658 -10.440033 156.83154 10196105
105.01665 -10.489333 157.29887 9538175
104.25356 -10.391099 157.71387 9866885
103.41817 -10.246561 158.18314 10195594
102.64236 -10.010721 158.65976 11182489
102.02676 -10.006398 158.96439 11380380
151.73732 -9.0311594 126.36279 8089963
151.10835 -9.185956 126.86927 8682355
150.3054 -9.3391104 127.53783 9076856
149.44379 -9.5518875 128.23178 9800578
148.63251 -9.4847708 129.01825 8156013
147.93678 -9.4790678 129.66859 10195851
147.25143 -9.5697384 130.26372 9735814
146.52122 -9.7881002 130.83879 9538177
145.90144 -9.9432287 131.34161 9735812
107.88852 -9.5895081 156.24763 9932934
107.26787 -9.5843821 156.55513 10261899
106.28195 -9.3449974 157.13652 10590606
105.24984 -9.3371897 157.64764 9209467
104.42523 -9.3312159 158.05579 8945527
103.60165 -9.3254681 158.46338 9603201
102.77892 -9.3198957 158.8705 9932166
101.75173 -9.3132896 159.37862 9867141
100.80894 -9.2306976 159.87578 9077368
99.950058 -9.072114 160.36227 9932163
153.41499 -8.0794764 125.27681 10064009
152.78293 -8.2351017 125.78584 11774626
152.02385 -8.2606697 126.47647 8419184
151.15436 -8.3498545 127.23811 8221805
150.3615 -8.2949238 127.99971 9340027
149.66112 -8.2892952 128.65137 12432038
148.89526 -8.5245218 129.24513 8156787
148.37115 -8.5204973 129.73268 8814715
105.39014 -8.6438112 157.85754 9209467
104.52654 -8.4834757 158.34702 9142906
103.78571 -8.4014969 158.74452 9537664
102.96137 -8.3964491 159.15222 9274236
101.93225 -8.3904686 159.66101 9735046
100.90432 -8.384757 160.16916 10129802
100.08291 -8.3804102 160.57515 9932678
99.262199 -8.3762646 160.9807 9932678
98.525047 -8.2957716 161.37584 9538176
97.666046 -8.1380081 161.862 9735555
155.10283 -7.1229019 124.18391 7563619
154.46742 -7.2795577 124.69547 8616563
153.70488 -7.3055072 125.38919 8024170
152.83131 -7.3953853 126.15425 8155756
152.03517 -7.3404555 126.91884 8617075
151.33188 -7.3350234 127.57309 8815222
150.5623 -7.5714703 128.16977 9208184
103.09863 -7.7020936 159.36407 9867142
102.0218 -7.5106773 159.97093 9208959
101.08349 -7.4596076 160.4532 10261132
100.26049 -7.4556861 160.85976 9735299
99.438271 -7.4519663 161.26591 9735299
98.616714 -7.4484205 161.6716 9472383
97.590736 -7.4442029 162.17819 9735555
96.565643 -7.4402609 162.68416 9144448
95.788628 -7.2062979 163.16069 8092019
95.174149 -7.2042279 163.46393 14604230
156.15916 -6.3188324 123.5956 11840927
155.39604 -6.3454342 124.29485 8156012
154.51823 -6.4361463 125.06351 8616563
153.71869 -6.3813214 125.83121 8222317
153.0123 -6.3761101 126.4882 7565667
152.23874 -6.6138268 127.08784 9144187
101.01205 -6.763001 160.76857 10261132
100.39403 -6.7602787 161.07378 9932678
99.531448 -6.6018629 161.56201 9669762
98.791756 -6.5215688 161.95833 9472383
97.763878 -6.5178251 162.46562 9998727
96.736893 -6.5143328 162.97241 9144448
95.915993 -6.5116892 163.3775 8092019
95.095589 -6.5092454 163.78217 11051672
94.275734 -6.5069275 164.18654 9735812
93.292816 -6.2726827 164.76447 10458765
156.88991 -5.3769765 123.27419 12762028
156.12294 -5.422039 124.07591 9077626
155.41234 -5.4170966 124.73663 9274750
154.7027 -5.4122305 125.39645 10065036
153.92503 -5.6513925 125.99922 8881015
97.894058 -5.8211737 162.68187 9867398
96.908653 -5.5854025 163.26163 6906970
96.086235 -5.5831323 163.66725 6906712
95.264313 -5.5809393 164.07259 7564386
94.442947 -5.5788965 164.47763 10261132
93.490707 -5.6231585 164.92838 9734788
92.522713 -5.5281882 165.44296 9932167
91.653305 -5.4954982 165.88397 8550514
90.792114 -5.3392344 166.37061 8352878
90.177353 -5.3382654 166.67349 9142393
157.57686 -4.6926112 122.77332 12499373
156.99831 -4.6915088 123.54198 12169892
156.32074 -4.5244417 124.33436 9209467
155.62154 -4.6837678 124.90367 11183003
96.0084 -4.884222 163.98665 7367263
95.39122 -4.8828006 164.29105 8024937
94.61068 -4.6478362 164.76964 6775126
93.788269 -4.646193 165.17502 7761509
92.760849 -4.6443186 165.68137 9274237
91.733994 -4.6425858 166.18735 9142651
90.91291 -4.641294 166.59193 8352878
90.09214 -4.640152 166.99631 9931652
89.271614 -4.6390848 167.4005 11181460
88.285408 -4.4051814 167.97987 9734784
93.707413 -3.9458542 165.49657 7761509
92.802162 -3.8274508 165.98969 8813686
91.896996 -3.7092474 166.48264 9668995
91.114922 -3.4742236 166.96205 8879221
90.292274 -3.4732807 167.36728 10786703
89.469879 -3.4724221 167.77226 10457994
88.44223 -3.4714904 168.27837 9208697
87.414856 -3.4706256 168.78424 9208953
86.649498 -3.3766561 169.19864 9932418
85.809532 -3.2359607 169.66855 9209467
85.025284 -3.0016203 170.14871 10261644
84.408562 -3.0014017 170.45226 10261644
90.246895 -2.5364478 167.76646 8682867
89.629066 -2.5359285 168.07071 9011575
88.844917 -2.3004863 168.55133 9208697
87.815178 -2.299804 169.05829 9406078
86.785637 -2.2991557 169.56512 10261132
85.962181 -2.2987635 169.9705 10261132
85.138725 -2.2983963 170.37585 10262156
84.315315 -2.2980795 170.78113 8419184
83.375755 -2.2508335 171.26241 8024681
82.293297 -2.0627995 171.87074 8287853
87.72628 -1.5946486 169.38568 9800579
86.858574 -1.4372149 169.87598 9866630
86.115318 -1.358338 170.27347 9208955
85.290413 -1.3580205 170.67953 10064521
84.465538 -1.357728 171.08553 8089963
83.434395 -1.3573625 171.59303 7432800
82.403267 -1.3570719 172.10057 9537664
81.578171 -1.3568796 172.50659 9735299
80.833748 -1.2782025 172.9046 9340797
79.963188 -1.1209683 173.39615 9998215
85.404518 -0.6506176 170.90796 9537921
84.578514 -0.6503247 171.31453 8813942
83.726448 -0.49238539 171.843 9932422
82.784477 -0.41325888 172.3638 10853012
81.752235 -0.41290063 172.87511 9998215
80.926308 -0.41270041 173.2843 11313820
80.100128 -0.41242513 173.69359 9340541
79.27375 -0.4122 174.10289 10261132
78.536911 -0.3331565 174.52499 9800837
77.475128 -0.17505467 175.16444 9866373
76.64563 -0.17483109 175.57133 9406078
81.725441 0.29797095 173.3593 9735299
81.105385 0.2982021 173.66852 9735299
80.278435 0.29861003 174.08084 8222060
79.507118 0.53686768 174.61636 9011320
78.67897 0.53727609 175.02927 9603458
77.715424 0.49010104 175.47963 9208955
76.742531 0.58587199 176.02522 9537664
75.777885 0.53875715 176.47609 9407363
74.948044 0.53919154 176.88995 8814971
74.169853 0.77797776 177.42924 10261132
73.338379 0.77853781 177.84395 8353134
72.714386 0.77897042 178.1552 9011064
71.883583 1.2662816 179.82745 8815227
71.25753 1.2668879 180.14786 7894383
70.422089 1.2678294 180.57541 8287859
69.376701 1.2690079 181.11064 10853012
68.330002 1.2702868 181.64662 9077368
67.491592 1.2712805 182.07603 9997699
66.652267 1.2723248 182.50595 8485494
65.811958 1.2734201 182.93648 8551028
64.970528 1.2745156 183.36766 7432545
64.128159 1.2756619 183.79941 6511954
52.616531 1.8105013 192.36046 9736836
51.63921 1.8080237 192.42555 9341822
51.873146 2.469774 192.68137 8617587
50.844734 2.5988581 192.80392 7564642
50.820435 3.294414 193.09109 7564642
49.869225 3.5395827 193.25606 8485743
139.69875 -13.231919 135.53239 8089963
139.01363 -13.227982 136.17319 12103848
138.23651 -13.457041 136.7227 10460044
137.56386 -13.454786 137.37415 9276027
136.88972 -13.452712 138.02394 11775392
136.21402 -13.450719 138.67194 12960181
135.26704 -13.680105 139.37625 12630704
134.25815 -13.662374 140.01299 8091503
133.4994 -13.412419 140.56993 9077625
132.68214 -13.397902 141.06325 9735043
131.86641 -13.383734 141.55542 9143163
131.05225 -13.369894 142.04652 12102816
130.23955 -13.356356 142.53661 9340027
129.42841 -13.343191 143.02565 8353135
128.61871 -13.330306 143.51376 7760997
127.60858 -13.314703 144.12236 8748148
126.60043 -13.299572 144.72968 10722194
125.79543 -13.287839 145.21446 8287598
124.99168 -13.276459 145.69832 8813686
124.18916 -13.265355 146.18138 9537409
123.38782 -13.254601 146.6635 8287859
122.58762 -13.244124 147.14488 9340543
121.67953 -13.186131 147.71046 7893358
120.70081 -13.267177 148.25993 7564651
119.79547 -13.209986 148.82359 8288113
119.04871 -13.27882 149.23982 9143162
118.12063 -13.419878 149.67145 8682867
141.31367 -12.294656 134.48059 11248795
140.56606 -12.526963 135.06516 8353903
139.87968 -12.522873 135.70709 8089963
139.19357 -12.519059 136.34868 10064009
138.50769 -12.515545 136.98994 8091499
137.82193 -12.512333 137.63091 12235940
137.07726 -12.745823 138.21223 14604746
129.60161 -12.641284 143.21643 8879477
128.79065 -12.629099 143.70493 7760997
127.77898 -12.61423 144.31421 9208699
126.76933 -12.599864 144.92209 10722194
126.01908 -12.35517 145.47185 7893868
125.21375 -12.344515 145.95638 8682615
124.4096 -12.334133 146.44002 11181971
123.60667 -12.324055 146.92285 9734785
122.80489 -12.314304 147.40489 9735555
121.80428 -12.302487 148.00624 9341310
120.80523 -12.291163 148.60655 9012603
120.00721 -12.282365 149.08594 9011580
119.13885 -12.412573 149.54903 9669250
118.33263 -12.494498 149.93936 9143162
117.49242 -12.481836 150.35791 8221544
116.71656 -12.377642 150.78166 7366238
115.65945 -12.223598 151.36383 7367013
114.6662 -11.978388 151.95123 9406339
114.04034 -11.970256 152.26254 10590347
143.1078 -11.356022 133.2623 8682867
142.38806 -11.470038 133.87808 9866629
141.58794 -11.631375 134.54605 10064777
140.8091 -11.579117 135.29755 8354159
140.12148 -11.575251 135.9406 8089963
139.43413 -11.571635 136.58327 9406079
138.68703 -11.805496 137.16663 8090987
122.76762 -11.612935 147.72092 9406078
121.9661 -11.604041 148.20241 8748405
120.96563 -11.593252 148.80328 9012603
120.16643 -11.584929 149.28319 9537923
119.36822 -11.576954 149.76231 10853012
118.59843 -11.334284 150.27531 10458510
117.75605 -11.322697 150.69446 7432031
116.70545 -11.308675 151.21716 7037274
115.65708 -11.295048 151.73854 8419699
114.82008 -11.284463 152.15466 9735302
113.98457 -11.274157 152.56998 10130057
113.15046 -11.264199 152.98453 9275515
112.36774 -11.023452 153.46654 11314844
111.74363 -11.016474 153.77641 10788756
144.73752 -10.413326 132.1993 9143419
144.12003 -10.568091 132.70003 8616819
143.37517 -10.594878 133.38153 9077369
142.52257 -10.684813 134.133 9735300
141.74197 -10.632414 134.8862 9933191
141.05284 -10.62852 135.53067 8354159
140.30322 -10.862825 136.11612 9406079
117.70399 -10.622443 151.0018 7762283
116.78354 -10.494349 151.5063 7564905
115.86443 -10.366655 152.00995 8682867
115.02579 -10.356897 152.42662 9735299
114.1886 -10.34739 152.84244 10065033
113.35274 -10.338133 153.25748 9210491
112.5183 -10.329176 153.67171 10262667
111.47718 -10.318314 154.18843 9868422
110.52348 -10.231428 154.69269 9736323
109.65676 -10.068622 155.18468 10853012
147.19658 -8.9930925 130.59415 9143419
146.37489 -9.4673338 131.13068 9735812
145.75502 -9.6226654 131.63341 8748405
145.09901 -9.6979046 132.20859 9143419
144.31563 -9.6448212 132.96478 8485233
143.46077 -9.7351522 133.71809 9669250
142.67844 -9.6826105 134.47301 10458510
141.92619 -9.9175138 135.06068 9933191
115.18044 -9.6594696 152.63109 9406334
114.30621 -9.4946747 153.12758 10065033
113.55565 -9.409338 153.53122 9210491
112.71959 -9.4011078 153.946 9210491
111.67639 -9.391161 154.46339 9736836
110.63503 -9.3815212 154.97977 9998983
109.80343 -9.374094 155.39189 10524303
108.97298 -9.366868 155.80347 9735299
108.22882 -9.2833519 156.20331 9670018
107.3633 -9.1218472 156.69414 9209467
149.02757 -8.0432177 129.35941 8156787
148.22609 -8.19806 130.02574 7959408
147.56412 -8.2736454 130.60216 8682871
146.80351 -8.5090179 131.19524 9011833
146.05241 -8.435318 131.93109 9538433
145.18184 -8.5586605 132.68314 8879991
144.31129 -8.7336607 133.41008 8221805
143.5562 -8.9693089 134.00006 9406078
112.87096 -8.7032785 154.15231 9210491
111.78259 -8.5069923 154.76682 10920085
110.83279 -8.4523745 155.25618 10262668
109.99952 -8.4456482 155.66893 9998215
109.16748 -8.4391203 156.08101 9340796
108.33656 -8.4327688 156.49251 8946039
107.50679 -8.4266176 156.90324 8946039
106.47117 -8.41926 157.41588 9604225
105.48393 -8.1805754 157.99768 8420464
104.86388 -8.1765509 158.30437 9341822
150.69643 -7.0880671 128.28333 9208184
149.92757 -7.3246641 128.87923 9866113
149.22647 -7.3197117 129.53117 9274749
148.52603 -7.3150105 130.1824 7827823
147.82629 -7.31041 130.83298 7695979
146.95239 -7.3049288 131.64526 8221805
146.01532 -7.5407162 132.39893 9735812
110.77272 -7.7521677 155.5675 9932678
110.14702 -7.7474909 155.87723 9735296
109.36256 -7.5083952 156.35941 9866881
108.53003 -7.5027189 156.77141 8814453
107.69866 -7.4972181 157.18274 8682867
106.66098 -7.4906182 157.69604 8748916
105.62483 -7.4842439 158.20851 7959657
104.7971 -7.4793458 158.6178 9406847
103.9703 -7.474647 159.0266 9867142
103.1903 -7.2382064 159.50552 9867142
102.57113 -7.234983 159.81152 9537667
152.37479 -6.128324 127.20076 8092011
151.60204 -6.3661671 127.79959 8815222
150.8981 -6.3614602 128.45413 9143417
150.1949 -6.3568797 129.10785 10524043
149.49239 -6.3524513 129.7608 13419447
148.7906 -6.3481975 130.41309 8156787
147.84851 -6.5850258 131.16939 8156272
107.84289 -6.7983108 157.39293 8682867
106.7587 -6.6051998 158.00415 9078394
105.81326 -6.5533419 158.49025 8420464
104.98388 -6.5490437 158.90015 9406847
104.15552 -6.5448704 159.30951 9340285
103.32806 -6.5408726 159.71826 10064521
102.29501 -6.5360842 160.22855 8551288
101.34686 -6.45434 160.72797 9997961
100.48326 -6.2957401 161.21683 9932678
99.865005 -6.2933679 161.52205 10655889
154.06294 -5.1636896 126.11151 9341310
153.28616 -5.4029536 126.71333 8420720
152.57919 -5.3985171 127.37053 8157804
151.87306 -5.394208 128.02681 8092011
151.16769 -5.3900251 128.6824 8814452
150.4631 -5.385993 129.33711 9866113
149.6924 -5.625041 129.93353 13221554
105.74718 -5.8522573 158.80486 8420464
105.12439 -5.8493838 159.11246 9604482
104.34135 -5.6120143 159.59329 9867142
103.51231 -5.6085682 160.00264 9208443
102.47728 -5.6043878 160.51369 9011323
101.44349 -5.6004 161.024 9274237
100.61736 -5.5973783 161.43176 9472130
99.792 -5.5944839 161.83908 9801350
98.9674 -5.5917387 162.24599 8946041
98.187035 -5.3563724 162.72472 7037274
97.569168 -5.3545022 163.02943 7037274
155.76141 -4.1937647 125.01522 11183003
154.98045 -4.4346232 125.62029 8289140
154.27026 -4.4305329 126.28021 9012602
153.56099 -4.4265943 126.93927 9078394
152.85258 -4.4227562 127.59746 9801605
152.14497 -4.4189706 128.25481 8947064
151.3705 -4.6594396 128.85402 8092011
103.44343 -4.9066801 160.31895 8682867
102.53355 -4.7863235 160.81506 9208443
101.62437 -4.6662169 161.31084 8681843
100.84164 -4.4296079 161.79118 8485751
100.01436 -4.4272285 162.19925 9209217
99.187729 -4.424984 162.60692 8485235
98.361855 -4.4228215 163.01422 7498081
97.330429 -4.4202809 163.5228 7432800
96.358131 -4.3246183 164.03973 7367263
95.573006 -4.2607679 164.45181 8419695
155.72331 -3.7020805 125.29251 10459537
155.18929 -3.6992917 125.78868 9012606
154.36864 -3.5316541 126.67049 8617844
153.76765 -3.6922102 127.10915 9801605
153.05817 -3.6888466 127.76816 9999240
99.985664 -3.4897671 162.59048 7564651
99.364616 -3.4884455 162.89665 8024941
98.581116 -3.2519774 163.37733 7563874
97.547279 -3.2499843 163.88689 8617330
96.514328 -3.2481413 164.39598 7827814
95.621834 -3.3871458 164.77921 9077369
94.82122 -3.4794924 165.13608 8551025
94.054787 -3.3846478 165.55142 9208700
93.09906 -3.1960175 166.09761 8813686
92.019585 -3.0072539 166.70471 9142651
97.470856 -2.5451164 164.20805 8353902
96.60318 -2.3869319 164.69868 7959400
95.859299 -2.3075039 165.09673 9209467
95.03257 -2.3064852 165.50397 9998215
94.206306 -2.3054912 165.91095 11379356
93.248444 -2.3514636 166.36383 9603450
92.274612 -2.2564521 166.88127 9208435
91.317734 -2.3025143 167.33365 9208953
90.575256 -2.2235465 167.73074 9011831
89.708832 -2.06633 168.22037 10260870
95.159821 -1.6002381 165.72545 8682867
94.291481 -1.4421201 166.21637 9537920
93.547234 -1.3629006 166.61452 9932416
92.513687 -1.3621169 167.12343 10130052
91.480637 -1.3613667 167.63208 9208953
90.654579 -1.3608236 168.03879 9998211
89.828819 -1.3602804 168.44537 10655370
89.003304 -1.3597875 168.85184 9931649
88.094383 -1.241533 169.34663 9800321
87.185371 -1.1232783 169.84152 9735043
92.637581 -0.65398341 167.34734 11117207
91.603134 -0.65346634 167.85658 9735296
90.838974 -0.41643345 168.38063 9998211
90.011337 -0.41606569 168.78773 10721164
89.183968 -0.41567323 169.19466 10654601
88.221245 -0.46258557 169.64026 9866113
87.255096 -0.36760667 170.17915 9208955
86.293236 -0.4145259 170.62555 8682867
85.530853 -0.17778394 171.16113 9537921
84.705681 -0.17747682 171.57253 9143163
84.08683 -0.17724627 171.8811 10853012
89.16378 0.29520524 169.65195 11378324
88.543251 0.29543197 169.95981 10260611
87.437515 0.4147287 170.58649 8945783
86.538094 0.53389865 171.11035 8682867
85.711235 0.53420657 171.52264 9801349
84.884361 0.53451437 171.93489 8880247
84.057442 0.53489739 172.34723 10195082
83.230492 0.5352307 172.75967 10195082
82.290817 0.58318454 173.25833 8748404
81.219543 0.7739498 173.91324 8682867
80.39138 0.77435857 174.32628 8222060
79.991295 1.259027 175.68225 9735298
79.161797 1.2596643 176.10602 8682867
78.332008 1.2603018 176.53006 9538176
77.501762 1.2609897 176.9543 9998727
76.671028 1.2616279 177.37892 9867398
75.631882 1.2625515 177.91016 12630704
74.59201 1.2635756 178.44189 11182228
73.759392 1.2643154 178.86772 10261383
72.92614 1.265156 179.29404 8157039
72.300835 1.2658112 179.61395 8815227
53.841103 1.8136678 192.27895 9736836
53.105988 1.8117077 192.32791 12039850
52.91589 2.3073676 192.5442 12039850
135.38702 -13.209207 139.49936 13354683
134.37866 -13.192204 140.13815 10985620
137.1955 -12.272971 138.33092 14604746
136.27956 -12.506123 139.07211 14472902
135.38275 -12.499686 139.83066 15459282
134.55994 -12.485493 140.32645 12169636
133.73903 -12.471624 140.82129 9209211
132.91995 -12.458057 141.31514 9143163
132.10254 -12.44479 141.80798 8090731
131.28667 -12.431875 142.29971 9340283
130.47234 -12.419209 142.79045 7958377
129.71733 -12.172512 143.34386 8879477
128.7029 -12.157792 143.95474 7958376
127.69048 -12.143524 144.56416 10261643
126.88213 -12.13249 145.05064 10722194
138.80685 -11.331145 137.28462 8090987
138.06001 -11.565257 137.8676 14406852
137.20154 -11.561754 138.66978 15525076
136.3432 -11.55871 139.47157 15196110
135.6245 -11.553924 140.07947 15196110
134.80257 -11.540918 140.57849 13353909
133.97978 -11.527976 141.07379 8682867
133.15863 -11.515385 141.56798 8617075
132.33936 -11.503069 142.06129 8353903
131.5218 -11.491029 142.5537 7564131
130.70576 -11.479289 143.045 7563619
129.78079 -11.419183 143.62157 8287342
128.78247 -11.499816 144.18288 8222319
127.86124 -11.440436 144.75688 9078143
127.05166 -11.429929 145.24388 9012606
126.24341 -11.419772 145.72997 7039331
125.43642 -11.40984 146.21509 8617079
124.63068 -11.400186 146.69946 10064007
123.82617 -11.390833 147.18297 10064263
122.94968 -11.263918 147.75856 9735555
121.87377 -11.135351 148.45378 8814455
121.07272 -11.127076 148.93471 9012603
120.27277 -11.119102 149.41493 9012603
119.47377 -11.111379 149.89442 10853012
140.42468 -10.386927 136.23341 8353132
139.67537 -10.621484 136.81845 10524300
138.98698 -10.618292 137.46188 7499105
138.12675 -10.614718 138.26573 10789009
137.26677 -10.611466 139.06912 13288628
136.5789 -10.60915 139.71169 13156786
135.80423 -10.842651 140.26425 15196110
134.98497 -10.830731 140.76801 12169636
134.16086 -10.818538 141.26372 8682867
133.39851 -10.569882 141.82202 8617075
132.57724 -10.558517 142.31569 9340285
131.75771 -10.547378 142.80846 6972250
130.82909 -10.48777 143.38686 5920074
129.82677 -10.569501 143.95009 7828073
128.90215 -10.510572 144.52596 8880764
128.08954 -10.500661 145.0145 8617592
127.27832 -10.490978 145.50212 9012606
126.46841 -10.481546 145.98886 9012606
125.65979 -10.47239 146.47467 8288115
124.85242 -10.46346 146.95967 9011579
124.04629 -10.454806 147.44383 10064776
123.04031 -10.444362 148.04788 9998727
122.03596 -10.434287 148.6508 9209212
121.23376 -10.426464 149.1322 8552054
120.43259 -10.418912 149.61292 8815225
119.63245 -10.411665 150.09294 9866373
118.81184 -10.402815 150.54503 10853012
118.05563 -10.315356 150.95236 8748664
117.17782 -10.148976 151.45122 7367527
142.04921 -9.4400148 135.17719 9406847
141.2973 -9.6750937 135.76445 9077882
140.60719 -9.6716738 136.40961 8353902
139.91731 -9.6684799 137.05441 7761251
139.05531 -9.6648035 137.85997 6511955
138.23112 -9.7411728 138.59145 8092011
137.61711 -9.8980808 139.08804 10789009
129.8903 -9.8128681 144.22917 7828330
129.07506 -9.8033314 144.71916 10261646
128.26117 -9.7939968 145.20813 11379356
127.44874 -9.7849131 145.69629 11972519
126.63757 -9.7761307 146.18347 10985881
125.88386 -9.5320368 146.73503 8288628
125.07487 -9.5238552 147.22069 8288115
124.06541 -9.5140028 147.82654 9867655
123.05766 -9.5044346 148.43124 9143934
122.25282 -9.4970827 148.91411 8091761
121.449 -9.4899073 149.39624 8617847
120.64627 -9.4829817 149.87766 8881018
119.84454 -9.476285 150.35835 9537664
119.02589 -9.4684687 150.81558 10524047
118.06393 -9.410593 151.31221 8288113
117.03024 -9.4926968 151.78787 7762283
116.07246 -9.4354095 152.28226 9406334
115.28375 -9.1935339 152.7677 10130057
114.65404 -9.1871529 153.08008 11577503
144.4995 -8.0138092 133.58321 9142651
143.74336 -8.2500591 134.17387 8550770
142.98827 -8.4860601 134.7636 9997703
142.29597 -8.4825134 135.41087 8946040
141.60396 -8.4791641 136.05777 8025194
140.91226 -8.4760342 136.70424 8288110
140.04422 -8.7600794 137.37602 6642771
139.23602 -8.9484568 138.03833 5392706
122.41581 -8.7923641 149.11211 8091761
121.61086 -8.7856903 149.59476 8617847
120.80695 -8.7792139 150.07668 9144190
120.00399 -8.7730398 150.55789 8287853
119.15193 -8.6086988 151.09937 7432800
118.18148 -8.5202198 151.61255 8156782
117.12473 -8.5095453 152.13689 8618101
116.28115 -8.501236 152.55539 10591120
115.43904 -8.4931526 152.97302 10459022
114.59844 -8.4852962 153.38988 10656914
113.75928 -8.4776402 153.80589 9210491
112.97202 -8.2370415 154.29005 9210491
112.34421 -8.2317629 154.60112 11380380
146.14418 -7.0587611 132.5152 9734531
145.38338 -7.2957869 133.10684 9274237
144.6882 -7.2921095 133.75677 9405823
143.99352 -7.2885818 134.40627 8813686
143.29921 -7.2852306 135.05528 10261132
142.60527 -7.2820048 135.70386 9603714
141.85001 -7.5195084 136.29301 7893608
117.91759 -7.8122668 152.02722 9210491
117.28288 -7.8064356 152.34192 9210491
116.49041 -7.5641079 152.82933 9867656
115.64664 -7.5568762 153.2475 10130315
114.80434 -7.5498195 153.66486 10261900
113.96346 -7.5429144 154.08142 10392718
113.12402 -7.5362592 154.49722 10392718
112.07662 -7.5281625 155.01587 10655889
111.1173 -7.4430766 155.52223 9932678
110.24549 -7.2810535 156.01637 9998211
148.3306 -6.1031179 130.95987 8617080
147.80481 -6.1001425 131.44846 8090479
147.0388 -6.3381462 132.041 10260875
146.33913 -6.3343973 132.69107 9997703
145.63997 -6.3307996 133.34058 9405823
144.94151 -6.3273768 133.98978 9734788
144.24454 -6.324101 134.63947 8089963
143.48637 -6.5624509 135.23077 10261132
115.5917 -6.8511653 153.55843 8814715
114.9592 -6.8463354 153.87164 11380380
114.16836 -6.6052604 154.35782 9932681
113.21128 -6.5515866 154.85036 10195596
112.18374 -6.6385188 155.32109 10064264
111.23018 -6.5852714 155.81175 10064264
110.39359 -6.5799198 156.2256 10261382
109.55824 -6.574717 156.63873 9472381
108.72409 -6.5697165 157.05122 9275003
107.93928 -6.3313713 157.53339 10853263
107.31489 -6.3279462 157.84201 10129798
150.00204 -5.1400099 129.88535 8091248
149.37114 -5.2988415 130.3916 8814713
148.70471 -5.3764057 130.97099 9143167
148.00246 -5.3727784 131.62332 9471874
147.30081 -5.3693271 132.27505 9405823
146.59972 -5.3659763 132.92621 8879479
145.89922 -5.362752 133.57678 9274237
145.1346 -5.6019354 134.16743 9734788
113.05927 -5.8921423 155.19052 10261389
112.18247 -5.7298999 155.68721 9669762
111.42981 -5.64714 156.09091 10458766
110.59158 -5.6425385 156.50523 9998211
109.75459 -5.6380119 156.91898 9340796
108.9188 -5.633636 157.33199 10261384
108.08413 -5.6294351 157.74448 11182228
107.04243 -5.6242943 158.25912 10130568
106.08732 -5.5418296 158.76234 9605250
105.21828 -5.3819427 159.25432 9604482
151.68262 -4.1721087 128.8047 8092011
151.04881 -4.3319378 129.31323 8420721
150.37944 -4.4100986 129.89487 7959406
149.67451 -4.4067421 130.54962 8354419
148.97029 -4.403461 131.2037 8879995
148.26666 -4.4003325 131.85712 10853012
147.60027 -4.4786482 132.43594 9339773
146.97118 -4.6383843 132.94008 7563619
110.74048 -4.9375005 156.71558 9735296
109.86527 -4.77631 157.2112 9669505
109.11412 -4.6944766 157.61372 10655886
108.25063 -4.3880587 158.16188 10393227
107.2179 -4.5100603 158.62102 10854036
106.23944 -4.4475064 159.12769 9012606
105.40649 -4.4444575 159.53882 9801350
104.57449 -4.4415259 159.94945 9800836
103.80349 -4.3450985 160.36768 9274748
102.84388 -4.1544452 160.91658 9405822
101.76037 -3.9636269 161.52652 8681843
153.59492 -3.2007976 127.58955 9736580
152.74611 -3.3602414 128.23685 9604480
152.06364 -3.438899 128.81253 8420719
151.35582 -3.4358635 129.4698 9078392
150.64876 -3.4329042 130.12631 8618101
149.94241 -3.4300463 130.7821 7564651
149.27333 -3.5089674 131.3631 8222579
148.64149 -3.6695662 131.86951 10853012
107.26543 -3.5093675 159.00021 10722450
106.39195 -3.3494124 159.49437 9933193
105.64259 -3.2686229 159.89566 10130571
104.80857 -3.2664003 160.30699 9866373
103.97554 -3.2642021 160.71783 9208955
102.93554 -3.2615898 161.23065 9405822
101.89679 -3.2591105 161.74281 9011064
101.06678 -3.2572141 162.15205 9011838
100.32148 -3.1772358 162.55098 8025201
99.453346 -3.0188501 163.04192 8024941
152.95731 -2.7074172 128.62318 8092011
152.40273 -2.7051058 129.09917 8815220
151.66426 -2.7020416 129.73294 12432037
150.92686 -2.6990292 130.3658 8881528
104.9495 -2.5588818 160.52226 9735043
104.07681 -2.3994937 161.01582 9340541
103.19408 -2.3662832 161.46364 9603457
102.21329 -2.2700281 161.98497 9932678
101.2476 -2.3155224 162.44185 11182747
100.41678 -2.3141515 162.85126 9011580
99.58667 -2.3128307 163.26031 8748918
98.757233 -2.3115602 163.66898 6971994
97.846764 -2.1924543 164.16492 5919050
96.936714 -2.0735984 164.66063 6971994
102.42481 -1.6086547 162.14696 10853012
101.42908 -1.3706267 162.7327 11905701
100.59665 -1.3696558 163.14272 9735299
99.764954 -1.3687351 163.5524 8617587
98.93396 -1.3678648 163.96165 6972506
97.896248 -1.3667958 164.47275 5985099
96.859436 -1.3657523 164.9834 8617330
96.030617 -1.3650078 165.3916 9209467
95.24482 -1.1283392 165.87343 8682867
94.623642 -1.1278186 166.17929 9537920
99.900719 -0.65860218 163.77469 7827558
99.068214 -0.65800852 164.18393 5392706
98.167152 -0.46760577 164.74707 6445650
97.196732 -0.37219638 165.28406 7630179
96.227356 -0.41911334 165.73045 8617330
95.397118 -0.41867018 166.13866 8682867
94.567413 -0.41825178 166.54677 9077625
93.738167 -0.4178336 166.95462 9603452
92.766891 -0.18063423 167.58105 10130053
91.730591 -0.18018594 168.09023 9735296
96.431023 0.29309654 166.08141 6971994
95.598831 0.29333955 166.49028 9077625
94.828781 0.53162235 167.0074 8748662
93.998306 0.53182274 167.41833 9077368
93.168221 0.53202301 167.82903 9340538
92.13118 0.53227311 168.34218 9735810
91.09417 0.53254527 168.85417 9209722
90.263977 0.53273755 169.26205 9932674
89.5242 0.61223787 169.6757 10852236
88.667839 0.77102584 170.19926 10260611
87.840195 0.77133399 170.61191 8682867
88.066528 1.2545061 171.56104 9735043
87.44574 1.2547569 171.87762 9208955
86.410973 1.2552085 172.40541 8814453
85.376106 1.2556937 172.9333 8682867
84.54821 1.2561288 173.35576 9537408
83.720093 1.256614 173.77832 9537408
82.891907 1.2570996 174.20108 9735043
82.063438 1.2575858 174.62402 9932934
81.027542 1.2582893 175.15297 10524557
135.92429 -10.367533 140.38782 12169892
135.10689 -10.356252 140.89461 8682867
134.28185 -10.34461 141.3907 8682867
138.08101 -9.4223719 138.88586 8092011
137.46681 -9.5793467 139.38251 10789009
136.81531 -9.6568384 139.95242 9670017
136.10472 -9.6533566 140.57341 10064262
135.29004 -9.6431122 141.08487 8879734
134.46371 -9.6321926 141.58142 8813686
133.63904 -9.6215 142.07686 8155756
132.81612 -9.611062 142.57118 8550513
131.78978 -9.5983715 143.18752 6445906
130.7657 -9.5860176 143.80251 6709590
130.00661 -9.3399897 144.35794 7828330
129.19052 -9.3308554 144.84819 9143936
128.37584 -9.3219204 145.3376 11379356
127.56259 -9.3132362 145.82597 11972519
126.75059 -9.3048544 146.31352 10985881
140.51544 -7.9946899 137.30736 6971736
139.89844 -8.1521616 137.80635 5919049
139.17372 -8.3731422 138.37512 8683378
138.49321 -8.4665842 138.96439 10459533
137.80247 -8.4642887 139.60953 10393229
137.11183 -8.462244 140.2545 9208186
136.40633 -8.4594774 140.8837 10720652
135.61322 -8.5468102 141.35265 9865859
134.7068 -8.6798344 141.83646 9866374
133.76871 -8.6210938 142.41959 8682099
132.75549 -8.7050018 142.98761 8024169
131.8217 -8.6468191 143.56799 7300958
131.00096 -8.637908 144.06029 9603969
130.18176 -8.6291723 144.55168 9143933
129.36418 -8.6206617 145.04224 8881021
128.54823 -8.6123772 145.53207 9670023
127.7337 -8.6043177 146.02098 9801350
126.92048 -8.596487 146.50902 10524560
126.1086 -8.5888042 146.99615 9011578
125.18765 -8.5331564 147.56848 8618105
124.19453 -8.6188383 148.12454 9341313
123.27673 -8.5637035 148.69472 8815227
122.52474 -8.3215857 149.24443 8091761
121.71899 -8.3152599 149.72739 10262156
120.91428 -8.3090839 150.20966 9670277
120.11057 -8.3031597 150.69125 8287853
119.50658 -8.2986765 151.04962 8287853
141.79999 -7.0377278 136.57303 9735812
140.96355 -7.3232718 137.21469 8682610
140.17896 -7.2721334 137.97098 7563874
139.48631 -7.269711 138.61803 9011320
138.79385 -7.2674389 139.26477 9340286
138.13933 -7.3455944 139.83723 9997960
137.52271 -7.5041003 140.33545 9537665
135.51149 -7.9704704 141.65512 8813686
134.8896 -7.9636636 142.0282 9866374
133.85533 -7.9525199 142.64862 9011065
132.88348 -7.7029963 143.33197 9866117
132.05949 -7.694808 143.826 8748148
131.23703 -7.6867461 144.31898 10393486
130.41612 -7.6789098 144.811 10525330
129.59668 -7.6712751 145.30208 9735299
128.77879 -7.6637912 145.79221 10261387
127.96244 -7.656559 146.28165 8879991
127.14758 -7.6494765 146.77031 8484977
126.33402 -7.6425943 147.25815 9341313
125.31898 -7.6342812 147.8667 10064778
124.30576 -7.6262197 148.47403 9407362
123.49649 -7.6200161 148.95903 9538691
122.68845 -7.6139393 149.44324 10064777
121.88148 -7.6081123 149.92676 9933448
121.07561 -7.6024127 150.40948 9144190
120.2707 -7.5969629 150.89159 8287853
119.45554 -7.5909405 151.35866 8024681
118.4901 -7.5348787 151.85706 9012090
117.38857 -7.3366961 152.47887 8486262
143.61139 -6.0795975 135.34808 8813686
142.76181 -6.2694306 136.04829 9406336
141.90327 -6.3626399 136.8037 9472899
141.11705 -6.3114185 137.5616 11182745
140.4229 -6.3090191 138.20996 9669506
139.76662 -6.3872714 138.78406 9603713
139.14818 -6.5461755 139.28366 8090987
129.5667 -6.9555693 145.6203 10787732
128.95242 -6.9505191 145.98813 10787732
128.1346 -6.9438367 146.47784 10524560
127.31834 -6.9373541 146.96683 9143419
126.22665 -6.8099775 147.67101 10327693
125.33987 -6.6845107 148.25208 10590865
124.52782 -6.6788068 148.73851 8552312
123.71699 -6.6733022 149.22415 8617849
122.90729 -6.6679254 149.70912 8486519
122.09873 -6.6627245 150.19324 9078138
121.29124 -6.6576486 150.67668 8354672
120.48479 -6.6527739 151.15945 7498849
119.45775 -6.6458449 151.73587 8814453
118.39612 -6.6372437 152.26447 9933193
117.54751 -6.6305103 152.68475 9933193
116.70045 -6.6239533 153.10423 8288628
115.9427 -6.5396733 153.51103 9604229
115.06267 -6.3763447 154.00984 10722451
145.26375 -5.1173224 134.28627 9734788
144.49965 -5.3566556 134.8764 8682100
143.62621 -5.3531504 135.68803 9077369
142.75468 -5.349833 136.50029 10525585
142.05873 -5.3473802 137.15044 9538950
141.40047 -5.4258542 137.72621 11446432
140.78008 -5.5852571 138.22742 9932678
122.26212 -5.9517488 150.39366 8486000
121.45345 -5.9471726 150.87764 11381404
120.64582 -5.9427485 151.36092 7498849
119.57797 -5.7464857 152.03859 10064520
118.59988 -5.5498114 152.60162 9998986
117.81316 -5.4496975 153.02908 10656658
116.96394 -5.4442568 153.44916 8420213
116.11626 -5.4389005 153.86842 8551544
115.27011 -5.4337115 154.28696 9406851
114.44707 -5.523211 154.65594 8420727
113.45128 -5.5410872 155.13878 9472387
112.52986 -5.417973 155.64172 10655889
147.45364 -4.1530728 132.7319 9734531
146.82457 -4.3129425 133.23615 7563619
146.15935 -4.3914514 133.81381 8221805
145.36574 -4.3396854 134.57451 8879990
144.49901 -4.4337788 135.33122 8419951
143.7066 -4.3822799 136.09068 9998983
143.04388 -4.4610343 136.66589 9801605
142.41885 -4.6210442 137.16641 9538950
116.96294 -4.4962106 153.83101 8814715
116.32606 -4.4928308 154.14575 8156787
115.53032 -4.2514772 154.63449 8420211
114.61028 -4.3891163 155.03188 9275008
113.5759 -4.4788017 155.50487 9340800
112.52193 -4.4738116 156.02548 9867142
111.68034 -4.4699597 156.44116 10721939
110.88984 -4.230535 156.92651 9406078
110.13662 -4.1487694 157.33005 9603457
109.261 -3.9881117 157.82558 10392973
149.12708 -3.182157 131.65953 8617080
148.49519 -3.3428562 132.16577 7564651
147.82735 -3.4219284 132.74557 9800580
147.1236 -3.4193757 133.39888 8155756
146.24464 -3.4162722 134.21469 8353647
145.36641 -3.4133706 135.02979 7564642
144.5999 -3.6549289 135.621 7827814
144.07399 -3.6532044 136.10915 9209467
114.62699 -3.5355051 155.36711 9406078
113.70067 -3.4131148 155.8721 9735043
112.77556 -3.2910249 156.3765 10787732
111.93187 -3.2880979 156.79286 10130058
111.08946 -3.2852464 157.20854 9209211
110.2483 -3.2824206 157.62363 9406078
109.40837 -3.2797697 158.03802 9801092
108.36013 -3.2765284 158.55516 9538432
107.36173 -3.0373728 159.14272 10722450
106.73428 -3.0356483 159.45215 10854036
151.20952 -2.2093625 130.60971 7564651
150.33102 -2.4514344 131.1201 7827821
149.59483 -2.4487493 131.75162 10787985
148.78133 -2.3969724 132.50529 9406332
147.96104 -2.4432635 133.18686 9668993
147.19507 -2.5632491 133.78593 8089963
146.26472 -2.6828475 134.55707 8353647
112.08331 -2.5765285 157.00458 9735812
111.20276 -2.4157028 157.50262 9472128
110.447 -2.3346026 157.90714 9932166
109.60538 -2.3325522 158.32211 9669506
108.55508 -2.3301358 158.83994 9538432
107.50647 -2.3277535 159.35692 10327693
106.66879 -2.3259797 159.76985 9209984
105.83221 -2.3242059 160.18233 9472899
105.04369 -2.0861349 160.66611 9735043
104.41725 -2.0849617 160.97481 9735043
150.13162 -1.7133555 131.90332 13550517
149.58922 -1.7118602 132.38699 11774364
109.75363 -1.6201308 158.53581 9406078
108.65676 -1.4278866 159.15286 9603713
107.70005 -1.3788575 159.6434 9932935
106.86073 -1.3776588 160.05692 9209725
106.02248 -1.3764858 160.46988 9801604
105.18529 -1.3753378 160.88234 10262415
104.34898 -1.3742151 161.29434 9538950
103.51363 -1.3731681 161.70584 10195853
102.51669 -1.1350895 162.29227 10458510
107.64018 -0.66488439 159.96956 11709345
107.00964 -0.66436154 160.27965 12367019
106.16972 -0.66356522 160.69254 13024949
105.40559 -0.4247252 161.21909 11709347
104.56711 -0.42415434 161.63127 9538950
103.72959 -0.4236089 162.04297 8683383
102.68398 -0.42291504 162.55695 9340541
101.63961 -0.42227167 163.0703 10261387
100.80505 -0.42172736 163.48051 9472127
100.04174 -0.1838643 164.00603 8353902
99.208038 -0.18347067 164.41571 6182478
103.93871 0.29128891 162.36966 7828331
102.81847 0.41099596 162.9874 8353903
101.90777 0.53052503 163.50063 8880247
101.07364 0.5306347 163.91628 8945783
100.23949 0.53071529 164.33034 9406591
99.405441 0.53084189 164.743 7762278
98.571991 0.53096825 165.15533 6972506
97.531136 0.53111976 165.67032 6248015
96.551147 0.76949555 166.28844 6906201
95.720512 0.76960379 166.70224 10655627
95.962158 1.2531757 167.59181 9932163
95.337425 1.2531629 167.90495 7038307
94.504875 1.2531793 168.32233 8814199
93.672707 1.2532454 168.73953 9998727
92.840866 1.2533119 169.15662 9209723
91.801537 1.2534907 169.67789 10000264
90.762703 1.2537031 170.1991 10261639
89.931755 1.2539196 170.616 10654857
89.101578 1.2541394 171.03378 9931646
88.480453 1.254339 171.34995 9735043
70.167168 1.7888813 184.51335 8419440
69.539238 1.7901888 184.87094 9801349
68.70092 1.7920167 185.34848 9340798
67.861343 1.7938457 185.8268 12169640
67.020332 1.7957749 186.30586 11380124
66.17794 1.7977052 186.78574 8813683
65.122757 1.8002236 187.38684 8221546
64.065376 1.8027596 187.98924 8090987
63.21769 1.8048434 188.47226 12433837
62.368382 1.8070278 188.95618 14868434
61.517429 1.8092136 189.44106 14736077
60.664761 1.81145 189.92686 11315100
59.810375 1.8137374 190.41379 7039331
59.168423 1.8154538 190.77956 7039331
67.92289 2.2856796 185.99586 12169640
67.081192 2.2879596 186.47552 11380124
66.238022 2.2903409 186.95605 8813683
65.423225 2.539767 187.52298 9208441
64.576767 2.5424757 188.00548 7564130
63.595615 2.4961286 188.54427 11512735
62.666534 2.548717 189.09445 14736848
61.735271 2.6015866 189.64603 13682875
60.80991 2.4723821 190.11865 12301738
60.079037 2.3092084 190.46661 7039331
62.965286 3.2921076 189.23309 12432809
62.112995 3.2956953 189.7193 12432037
137.98837 -7.0244894 140.13341 10261132
137.37166 -7.1831293 140.63174 9273979
136.70911 -7.2611837 141.19518 10457481
135.7912 -7.2047744 141.80994 9076600
134.77039 -7.2905993 142.38167 9340030
133.83002 -7.2333288 142.96561 9537408
133.06361 -6.9863482 143.52554 10853012
132.23822 -6.9788103 144.02003 9208699
131.41452 -6.9714732 144.51353 9143422
139.61623 -6.0650659 139.08032 9011320
138.99765 -6.2241035 139.58006 9537665
138.34174 -6.3026471 140.15358 10261132
137.55626 -6.2523642 140.91031 9011064
136.66771 -6.345408 141.6283 8879222
135.73401 -6.2891212 142.22835 8287857
134.90234 -6.2818546 142.72655 7893357
134.07246 -6.2747135 143.2236 10261644
133.24419 -6.2677231 143.71964 9997959
132.41759 -6.2609358 144.21463 9603201
131.59256 -6.2542739 144.70863 8089963
130.71016 -6.4866047 145.13638 8813943
129.95302 -6.3849487 145.62984 10327437
129.1266 -6.2352433 146.18466 9735299
128.30754 -6.2291613 146.67488 9735555
127.37875 -6.1748118 147.25066 9341054
126.46972 -6.2162161 147.77478 9867399
125.50806 -5.9715104 148.45055 10854036
124.69485 -5.9663315 148.93745 9143935
141.25067 -5.1024489 138.02249 10985881
140.6301 -5.2619834 138.5239 9932678
139.97243 -5.3407264 139.09897 8550513
139.2775 -5.3387504 139.74789 9471872
138.49049 -5.2882791 140.50612 9537920
137.63295 -5.3829517 141.2599 9011835
136.72473 -5.4117594 142.00552 9734788
135.98079 -5.3253512 142.48595 7893614
135.14737 -5.3190603 142.98479 8090992
134.31567 -5.3129196 143.48248 8814713
133.48566 -5.3069043 143.97917 9208699
132.6573 -5.3010659 144.47481 9603201
131.83057 -5.2953291 144.96941 8616564
131.00534 -5.2896929 145.46306 8616564
130.18164 -5.2842579 145.9557 9143163
129.35948 -5.2788992 146.44746 10261387
128.42729 -5.2251129 147.02502 9143675
127.42142 -5.314713 147.58626 9275004
126.49281 -5.2612648 148.16153 10064264
125.67686 -5.2565351 148.64954 11905701
124.86233 -5.2519064 149.1369 10524817
123.99364 -5.4854031 149.55687 9143679
123.18195 -5.4808741 150.04268 8880507
122.426 -5.2388468 150.59464 7762021
121.61608 -5.2347455 151.07912 9933702
120.6052 -5.2298059 151.68373 8814453
119.62467 -4.986753 152.32384 12433069
118.98447 -4.9827728 152.64044 10459278
142.89534 -4.1365252 136.96315 9209467
142.27057 -4.2965322 137.46408 8552313
141.60983 -4.3755093 138.03973 10591380
140.91309 -4.3734813 138.69032 10590864
140.21664 -4.3715787 139.34061 10196107
139.42816 -4.3209743 140.10033 9932678
138.59 -4.6102142 140.74179 9209467
132.8376 -4.5791383 144.67044 8353646
132.00957 -4.5741 145.16556 9143422
131.18306 -4.5691643 145.65973 8616564
130.35811 -4.5643291 146.15289 9406592
129.38731 -4.3183188 146.83406 9932679
128.47157 -4.3615322 147.36113 10655888
127.53957 -4.3086715 147.93819 8880246
126.72058 -4.3045406 148.42754 9603969
125.90286 -4.3005619 148.91602 11905701
125.08642 -4.2966595 149.40376 10064521
124.27137 -4.2929053 149.89093 9998985
123.4576 -4.2892022 150.37749 7959408
122.64503 -4.2856503 150.86336 7169886
121.83357 -4.2822232 151.34856 9209723
120.8207 -4.2780328 151.95401 9801348
119.78757 -4.2733107 152.5307 9472383
118.93288 -4.2687521 152.95314 9209212
118.07989 -4.2642713 153.37468 9603973
117.317 -4.181149 153.78354 10853525
116.43126 -4.0184364 154.28487 8683891
144.72891 -3.1672621 135.74142 9735811
143.92583 -3.3274596 136.40665 9735811
143.26169 -3.4067969 136.98291 9604225
142.56091 -3.4047737 137.63312 8815484
141.86047 -3.4028261 138.28305 10788246
141.16051 -3.4009788 138.93275 9603714
140.49957 -3.4805052 139.50868 9143419
139.87749 -3.641407 140.01056 9143419
125.86836 -3.5807476 149.23869 10064521
125.2552 -3.5782511 149.60478 9209467
124.43876 -3.5749738 150.09222 9801606
123.62356 -3.5718462 150.5791 9801606
122.80981 -3.5687687 151.06544 8156781
121.84868 -3.3257499 151.74016 8419440
120.83404 -3.3223848 152.34639 8222579
120.00533 -3.3193183 152.8073 8090995
119.1489 -3.3156857 153.23021 8090995
118.29411 -3.3121037 153.65231 9735047
117.44096 -3.3086224 154.07352 10721683
116.5894 -3.3052671 154.49397 8683891
115.73934 -3.3019621 154.91362 9012599
114.97871 -3.2198088 155.32097 9406078
114.09513 -3.0582316 155.82079 9406078
146.97917 -2.1952617 134.23711 9931910
146.42955 -2.1935587 134.70822 9274492
145.62956 -2.4360247 135.27301 8682867
144.9229 -2.4340594 135.92255 9735555
144.21999 -2.432183 136.57468 11644064
143.5175 -2.4303827 137.22641 8486261
142.81544 -2.4286327 137.87773 11248795
142.15102 -2.5085285 138.45401 8946044
141.52443 -2.6699708 138.95503 8485494
119.95445 -2.6010447 153.12134 8090995
119.31137 -2.5987644 153.43864 8419703
118.41984 -2.4362159 153.94278 8814203
117.6542 -2.3540778 154.3526 10392719
116.80085 -2.3515477 154.77356 9341307
115.94906 -2.3491182 155.19371 9341307
114.88654 -2.3461299 155.71782 9143161
113.82606 -2.3432343 156.24081 8682867
112.9793 -2.3409817 156.65843 10524560
112.18449 -2.1010313 157.14603 9998728
111.55093 -2.0996048 157.45844 9735812
148.93303 -1.4634684 133.09033 10524555
148.21098 -1.4616346 133.73418 9932164
147.48958 -1.4598019 134.37738 9668738
146.76794 -1.4580241 135.01901 10129289
146.0417 -1.4562662 135.65509 8354417
145.31537 -1.4545119 136.28989 9998986
144.50449 -1.6983199 136.84346 9999244
143.77301 -1.6964188 137.47006 7039331
116.95994 -1.6341994 154.98387 9933187
116.07087 -1.4726365 155.48639 11905692
115.09482 -1.3909492 155.99956 10919059
114.03216 -1.3890374 156.52322 9406078
113.18377 -1.3875848 156.94136 9735812
112.33664 -1.3861582 157.3588 10393486
111.49087 -1.3847324 157.77554 10458765
110.64634 -1.3834064 158.1917 10195080
109.85262 -1.1440319 158.67859 10260871
109.22056 -1.1431072 158.98993 10261132
147.6866 -0.7205534 134.55606 10392461
146.96489 -0.71919578 135.19936 9406847
146.24388 -0.71778905 135.84207 7565675
114.8334 -0.67202586 156.43221 12432045
114.1949 -0.67135018 156.74623 10524559
113.32349 -0.51059949 157.26787 10327181
112.57097 -0.43003127 157.68665 9932679
111.72449 -0.42937419 158.1058 10458765
110.87926 -0.42871764 158.52428 9997699
110.03525 -0.4280616 158.94217 9734528
108.98054 -0.42726997 159.46167 9866630
108.02267 -0.34702489 159.98296 9011577
107.16145 -0.18742383 160.50702 12367019
106.32031 -0.18702728 160.92041 13024949
111.71392 0.2897504 158.4953 9734528
111.08002 0.28993577 158.81113 9734528
110.2065 0.45009905 159.32608 9010807
109.24324 0.53011781 159.84589 9537665
108.1907 0.53011686 160.37025 8090987
107.34989 0.53015405 160.78917 11051415
106.51009 0.53019077 161.20755 13024949
105.6713 0.53025228 161.62549 12433069
104.83346 0.53028852 162.04294 10262415
104.05428 0.76935965 162.55023 10195853
103.21774 0.76927024 162.96698 8617075
103.4746 1.2540781 163.81004 10657173
102.4301 1.2538431 164.34015 7038302
101.59537 1.2537246 164.76385 9340286
