# .PCD v0.7 - Point Cloud Data file format
VERSION 0.7
FIELDS x y z rgb
SIZE 4 4 4 4
TYPE F F F U
COUNT 1 1 1 1
WIDTH 1205
HEIGHT 1
VIEWPOINT 0 0 0 1 0 0 0
POINTS 1205
DATA ascii
-135.81795 -28.907984 95.070427 8814451
-136.65266 -28.965639 94.434738 9012089
-137.28769 -29.005259 93.900063 8288366
-138.07851 -29.054804 93.226105 8090733
-138.87016 -29.105089 92.548843 8353904
-139.50392 -29.145914 92.004433 7564643
-144.60887 -29.169889 88.766052 9866371
-162.98091 -29.003378 74.301819 9011065
-163.3951 -29.014984 73.542435 9340030
-163.9117 -29.030149 72.591873 8681843
-166.89714 -28.931862 71.285568 10129545
-167.2379 -28.933081 70.480927 10589840
-167.57539 -28.934294 69.675018 9932678
-171.6329 -28.941874 67.514725 8682867
-171.95543 -28.943089 66.687386 8288111
-176.3007 -28.951765 63.773521 9208187
-176.60558 -28.952976 62.923885 7563619
-177.59355 -28.614256 62.79369 8156012
-178.31766 -28.671865 61.844791 9669250
-179.12712 -28.504829 60.920147 8353646
-179.6897 -28.47299 60.227909 10261132
-108.03534 -27.314831 116.23409 10392461
-108.77795 -27.648022 115.77016 10392462
-109.68994 -27.704391 115.34174 9932169
-110.65672 -27.57181 114.96466 9669254
-111.45787 -27.719624 114.54892 9077116
-177.90227 -28.1756 62.661495 8813942
-178.49849 -27.850903 62.099018 9867142
-179.08873 -27.711069 61.435448 8287855
-179.75183 -27.623611 60.648876 8485751
-180.33778 -27.670181 59.881023 10393487
-180.8624 -27.478464 59.330791 8089963
-107.11339 -26.550348 116.95053 8813429
-108.12012 -26.646736 116.46394 9208956
-109.08213 -26.510275 116.09094 9209471
-109.9156 -26.670221 115.65608 9142911
-110.62817 -26.989714 115.21082 9011582
-179.41676 -26.898962 61.498547 8354163
-180.08583 -26.716692 60.760204 8814715
-180.67336 -26.761839 59.991108 10393487
-181.26274 -26.807716 59.21944 8945784
-181.83276 -26.774351 58.518635 9274749
-105.60002 -25.316803 118.11843 8616050
-106.37289 -25.588003 117.66601 10195082
-107.27976 -25.637484 117.24294 8879479
-108.3722 -25.698212 116.73301 8748920
-109.28609 -25.750101 116.30595 9012091
-180.48375 -26.046114 60.651783 8814715
-181.00978 -25.851372 60.101505 10064779
-181.60078 -25.89583 59.328556 10262156
-182.2744 -25.805906 58.530231 9275263
-182.8781 -25.663708 57.850903 9998473
-183.49275 -25.333292 57.268429 10855060
-104.31848 -24.332443 119.08404 10853012
-104.81078 -24.548353 118.77841 9931910
-105.71402 -24.594156 118.3585 9734531
-106.6202 -24.640896 117.93706 10129289
-107.52972 -24.688734 117.5136 9209215
-108.20895 -24.917913 117.11951 9012091
-181.55849 -25.18878 59.797794 8551028
-182.31749 -24.868124 59.027271 9538180
-183.00301 -24.588511 58.325382 9472387
-183.67378 -24.685221 57.420895 10459791
-184.28004 -24.604168 56.702633 10065546
-184.73933 -24.480404 56.195286 7565675
-103.20075 -23.284714 120.00231 7564651
-104.15121 -23.55862 119.46973 9537410
-105.05378 -23.601784 119.05124 9405566
-105.95961 -23.646006 118.63093 10129289
-106.74134 -23.941692 118.16454 9932167
-107.31507 -24.099411 117.84614 9932681
-183.36702 -23.749069 58.359112 9603973
-183.9456 -23.711283 57.650394 9801863
-184.54749 -23.754442 56.864719 10591631
-185.1514 -23.798227 56.076145 9407360
-101.92026 -22.310499 120.96337 9868427
-102.41122 -22.522806 120.65973 8486777
-103.31007 -22.562429 120.24437 8156528
-104.39235 -22.611177 119.74375 9273980
-105.29742 -22.652786 119.32484 9931910
-105.79282 -22.868429 119.01791 10853012
-184.20464 -23.018938 57.730587 9077880
-184.89479 -22.82934 56.970409 11314070
-185.50038 -22.871561 56.180599 10590860
-100.40975 -21.102945 122.12051 9734788
-100.90004 -21.313227 121.818 9801607
-101.74938 -21.538626 121.34987 12105129
-102.64764 -21.575855 120.93568 8091505
-103.54895 -21.613979 120.51984 8747893
-104.47099 -21.942341 119.97794 9405566
-185.56789 -22.002956 56.606396 11905950
-186.00238 -21.952738 56.087086 8092011
-99.521721 -20.305759 122.83585 7893358
-100.10985 -20.556805 122.47352 7695979
-100.98758 -20.513678 122.10081 8616566
-101.98401 -20.590618 121.62706 10394513
-102.88475 -20.626339 121.2124 9142651
-103.37875 -20.838549 120.90749 9537409
-186.26572 -21.254124 56.165562 8092011
-98.010864 -19.10771 123.98933 9011323
-98.500374 -19.315063 123.6884 8090737
-99.347359 -19.535292 123.2234 8551029
-100.24181 -19.567001 122.81314 7433064
-101.13913 -19.599529 122.40131 8551030
-102.05853 -19.921925 121.86302 8682615
-97.121941 -18.315626 124.70305 7564651
-97.789391 -18.527645 124.3212 8616823
-98.681168 -18.556501 123.91331 8354161
-99.575615 -18.586109 123.50385 9867142
-100.47253 -18.616425 123.09312 8551030
-100.96539 -18.825584 122.78989 9734788
-95.609924 -17.125475 125.85392 8090216
-96.098808 -17.33025 125.5543 7300957
-96.943863 -17.545906 125.09198 9734270
-98.013695 -17.578028 124.60365 9274492
-98.907837 -17.605532 124.19518 8682867
-99.646065 -17.917036 123.74179 10261899
-94.719467 -16.337488 126.56667 8090987
-95.385918 -16.546158 126.18658 8879988
-96.274704 -16.570255 125.78188 7300957
-97.166031 -16.595041 125.37586 9339513
-98.157928 -16.661695 124.90821 8484977
-92.966362 -15.164146 128.03409 7828077
-93.885323 -15.333048 127.48403 9471611
-94.605804 -15.622046 126.96886 9274490
-95.643623 -15.600785 126.52477 8946038
-96.456192 -15.809084 126.01675 7300957
-97.234268 -15.925424 125.61816 8353132
-90.660545 -14.37398 129.71837 10129545
-91.587013 -14.485245 129.21437 9407362
-92.338387 -14.593572 128.79051 9209983
-93.22126 -14.612255 128.38332 8288627
-94.194931 -14.670783 127.90257 9275005
-95.082993 -14.840091 127.36704 9735297
-71.094254 -13.194138 145.22552 11182741
-72.00238 -13.255047 145.04198 8617072
-72.600327 -13.26967 144.93054 10064003
-75.633858 -13.741273 141.50569 16777207
-76.483994 -13.742867 141.04793 12959929
-77.331017 -13.744461 140.58482 8089963
-78.34391 -13.746374 140.02258 7169373
-79.185005 -13.747972 139.54855 7235421
-80.022957 -13.749568 139.06921 7629923
-80.691582 -13.750847 138.6825 7037274
-87.671875 -13.998857 132.10181 9407363
-88.363441 -14.009021 131.76262 10525588
-89.228378 -14.022205 131.33708 8946042
-90.094193 -14.035742 130.90988 10129545
-90.960648 -14.049714 130.48076 9669767
-91.654617 -14.061256 130.13622 10788247
-70.344658 -12.432513 145.63947 8419955
-71.139412 -12.450225 145.49194 12103329
-72.057747 -12.536601 145.29716 9406331
-69.578224 -11.042655 146.28812 7564651
-70.223122 -11.44848 146.024 8485495
-71.180305 -11.524406 145.82623 12169126
-69.561729 -10.412582 146.52344 9143425
-70.470558 -10.468855 146.34152 7959152
-71.036034 -10.677021 146.16447 9143425
-68.596992 -9.3178673 147.09837 9340030
-69.636375 -9.4666195 146.85918 10130062
-70.401192 -9.6775017 146.64572 9143425
-68.08213 -8.3877554 147.53281 8945272
-68.800644 -8.4642954 147.37715 7563619
-69.520454 -8.5412207 147.22108 8616307
-67.199913 -7.253191 148.10785 7827307
-67.963821 -7.461277 147.89558 8616307
-68.90712 -7.5532708 147.69435 9076601
-67.012299 -6.4167852 148.44968 8156272
-68.034935 -6.5080295 148.23465 8814201
-66.34301 -5.4039488 148.94202 8879738
-67.280754 -5.4628663 148.75398 9735046
-67.970337 -5.7362032 148.53081 8617080
-65.520622 -4.3818359 149.46483 9340545
-66.439209 -4.4558573 149.27467 8288115
-67.205811 -4.6625581 149.06248 9735046
-64.914513 -3.3427784 149.95535 8090737
-65.690147 -3.3906305 149.80022 8748664
-66.476341 -3.694402 149.54881 9274748
-63.985279 -2.2331669 150.52911 8092019
-64.75132 -2.4379156 150.31786 8354165
-65.748154 -2.4429009 150.1393 7827565
-63.366917 -1.0212988 151.08548 9012606
-63.956623 -1.3461175 150.86125 8618105
-64.844208 -1.4804541 150.65434 9143934
-65.639816 -1.8372757 150.38173 8617078
-63.178326 -0.37365991 151.44977 10262157
-64.191475 -0.45681557 151.20876 9867399
-65.02227 -0.62090719 150.93961 10656398
-61.595566 0.60338622 152.48294 9669762
-62.464016 0.43986174 152.20171 10392970
-63.299232 0.29631808 151.94215 10985364
-48.26992 1.770877 162.91382 9538177
-49.13208 1.7425277 162.75066 10786959
-49.877495 1.6298558 162.57707 8746861
-60.139343 1.0160201 153.64738 9735555
-60.938744 1.0158262 153.50819 9406589
-61.739521 1.0156634 153.36879 9340539
-48.166592 2.5870638 163.23314 9209467
-49.213543 2.5026445 163.01659 9865599
-47.44278 3.4338486 163.67369 9012088
-48.499706 3.4346237 163.4868 8353388
-48.960735 3.1801667 163.31133 8089704
-46.53244 4.7358899 164.26491 11907236
-47.461617 4.4539933 164.02794 7959144
-48.387291 4.1714563 163.77841 6510930
-45.933224 5.7291818 164.65956 11380636
-46.734196 5.5177374 164.4688 11644064
-47.684067 5.448873 164.29744 8090475
-45.219067 7.0110297 165.15952 8617080
-45.846657 6.6701589 164.95726 8814199
-46.767815 6.5337267 164.77003 10459022
-47.608086 6.1612568 164.52443 10261388
-45.140175 7.7266169 165.38802 9340545
-46.013279 7.7010965 165.24187 9472131
-46.690018 7.4454145 165.05748 11050904
-45.015629 8.5588951 165.65889 10129803
-46.076866 8.4769583 165.4659 8945788
-44.342705 9.7379646 166.12135 9011577
-45.204876 9.3808193 165.87688 9143167
-45.822014 9.3836813 165.77995 7564651
-43.473488 10.89168 166.6073 9735555
-44.279716 10.678208 166.41505 9011832
-45.243877 10.37882 166.17186 9735044
-43.609711 11.589708 166.79631 10985623
-44.554409 11.551196 166.63493 8946039
-42.766708 12.415682 167.17917 9735812
-43.591496 12.420297 167.04982 10064520
-44.416965 12.425125 166.92039 8682867
-42.056915 13.948493 167.75414 9011832
-42.73671 13.575486 167.53389 9472640
-43.666477 13.392561 167.33128 9077882
-41.199902 14.865334 168.62492 9801346
-42.096298 14.678782 168.24895 9143418
-42.916626 14.394712 167.75258 9604226
-38.819733 15.840801 170.3961 9340801
-39.653114 15.845 170.2652 12564397
-40.322887 15.351555 169.44775 9208435
-41.364155 15.35828 169.29387 9932678
-34.007401 16.767769 174.27382 5394754
-35.05122 16.764097 174.04521 5985612
-35.660252 16.533035 173.82619 6116941
-33.322559 17.735535 174.7816 6249551
-34.281445 17.685406 174.55315 5788744
-34.892269 17.452961 174.33427 6445909
-32.473015 18.735165 175.35999 9274494
-33.379642 18.565969 175.0739 6841688
-34.271137 18.531109 174.86496 6775643
-30.735302 19.845461 176.6313 8945786
-31.671444 19.639469 176.23042 9340287
-32.567101 19.459307 175.86198 8354163
-33.384758 19.329571 175.55403 7039331
-28.346027 21.026638 179.47183 7169629
-28.949024 20.993155 179.09203 6183246
-29.970074 20.352865 177.27792 9209467
-31.010891 20.334595 176.94971 9011577
-31.849331 20.324869 176.72615 8814457
-156.75432 -30.242897 79.603287 6709597
-157.53548 -30.320932 79.048164 7367010
-158.15273 -30.367878 78.407204 7563619
-149.82152 -29.214991 85.390144 10326921
-150.47685 -29.263983 84.806473 7827814
-151.29741 -29.326111 84.072968 7104092
-152.11919 -29.389107 83.335571 8288368
-152.78198 -29.581823 82.666092 9997442
-153.43222 -29.711918 82.144554 8090732
-154.2841 -29.834753 81.504791 8616563
-155.29352 -29.769382 80.988892 7169886
-156.06433 -29.760481 80.516678 7827819
-156.92326 -29.674 80.020798 7564648
-157.8105 -29.718241 79.423111 8353129
-158.51785 -29.728729 78.729752 8089962
-159.15767 -29.67478 77.904053 10721420
-159.92188 -29.366947 77.451843 9142648
-160.68251 -29.267231 76.550705 8418928
-112.52543 -28.274185 113.85177 9537409
-113.29729 -28.481548 113.4252 10063753
-114.14059 -28.578062 113.01129 7762797
-115.03936 -28.634499 112.53823 9143163
-115.88767 -28.700068 111.85004 13551289
-116.49665 -28.733393 111.25298 12630702
-116.84762 -28.826727 110.51704 11380895
-124.05168 -28.840837 105.98221 9537409
-124.6871 -28.842405 105.23365 10064009
-125.31763 -28.843973 104.48107 10590095
-125.944 -28.845537 103.72493 10261132
-126.44168 -28.846786 103.11724 11708316
-132.11098 -28.857687 99.77092 9538176
-132.58932 -28.858837 99.133392 11775139
-133.18338 -28.860395 98.333595 11972262
-133.77229 -28.862051 97.530045 9537409
-134.24026 -28.863297 96.88488 8090987
-139.13469 -28.872532 94.182556 7038298
-139.58629 -28.873775 93.511497 9340286
-140.17116 -28.880447 92.685982 7827815
-140.92352 -28.922348 91.969299 8089963
-141.72301 -28.974688 91.279495 10853012
-142.52336 -29.027782 90.586304 12300709
-143.16438 -29.07093 90.028954 10787215
-143.96652 -29.125618 89.32872 9866371
-145.28265 -28.893206 89.419762 9866371
-145.91579 -28.93486 88.843529 9734788
-146.72643 -28.991421 88.130981 9011065
-147.53819 -29.048769 87.41481 9207930
-148.18846 -29.095348 86.838821 8681843
-149.00349 -29.154558 86.11586 10325894
-161.83669 -28.97377 76.38401 8418928
-162.3576 -28.986832 75.438522 8287342
-162.77348 -28.997742 74.680984 9011065
-166.02754 -28.928802 73.289375 7894126
-166.37804 -28.930063 72.488899 9208958
-166.72523 -28.931252 71.687126 10129545
-171.14095 -28.940081 68.752434 12630447
-171.46997 -28.941267 67.927795 14077894
-175.38683 -28.764498 65.760101 8287859
-175.83171 -28.712242 65.043243 8616566
-176.31667 -28.666697 64.339165 9734273
-177.01614 -28.569008 63.550014 7564135
-111.81269 -27.451406 114.49863 8813686
-112.56788 -27.577478 114.11237 8813686
-113.47944 -27.559135 113.71458 9405823
-114.41047 -27.620674 113.27609 9998473
-115.20498 -27.90896 112.80704 9932165
-115.97961 -28.117708 112.36929 12827309
-175.99113 -27.920732 65.341858 9471358
-176.61476 -27.800249 64.510849 9076858
-177.26106 -27.894886 63.636917 8616566
-177.92577 -27.621395 62.957806 9801093
-178.52199 -27.2959 62.395741 10064265
-110.28397 -26.194901 115.68358 8551288
-110.97366 -26.546026 115.2358 8880505
-111.83846 -26.676582 114.79894 7432800
-112.74838 -26.65538 114.40314 8353135
-113.66219 -26.635126 114.0052 8748148
-114.43996 -26.84107 113.57664 10787732
-176.74193 -27.009771 64.813484 8616566
-177.4192 -26.816776 64.071136 7564136
-178.11317 -26.616003 63.312248 8814455
-178.8448 -26.576923 62.410721 10064520
-179.5831 -26.445686 61.554951 8354163
-109.38828 -25.369392 116.41371 8617335
-110.25523 -25.612349 115.93075 8748923
-111.17652 -25.665899 115.49979 9143675
-112.09473 -25.574245 115.12861 7169884
-112.95026 -25.836632 114.64283 8353647
-178.3927 -25.738981 63.474804 8617075
-178.95493 -25.70145 62.786396 10261899
-179.5399 -25.743418 62.022461 9932934
-180.1266 -25.786085 61.255993 8814715
-180.65152 -25.590893 60.707417 10064779
-107.8625 -24.127697 117.59151 8157299
-108.54963 -24.472815 117.1472 9275262
-109.40947 -24.596552 116.71531 8946298
-110.39349 -24.706139 116.23394 11512479
-111.25259 -24.698772 115.85516 10064777
-111.99374 -24.740812 115.50885 8288365
-179.30759 -24.872738 62.828075 11117208
-179.873 -24.834295 62.136185 9538432
-180.46129 -24.875566 61.368496 9538179
-181.05133 -24.917538 60.598217 9340543
-181.81241 -24.502653 59.880444 8089963
-182.34303 -24.305397 59.325977 9012350
-106.99525 -23.440557 118.25333 9603973
-107.83058 -23.546738 117.83939 8815228
-108.74625 -23.593451 117.41369 9341055
-109.66546 -23.641253 116.98593 9209211
-110.50899 -23.75062 116.56711 10262411
-180.27055 -24.161036 62.029827 13023917
-180.79684 -23.96287 61.481258 9997699
-181.37413 -23.767799 60.866505 8484720
-182.07942 -23.534044 60.11269 8813684
-182.74776 -23.627083 59.213421 10392718
-183.28166 -23.428211 58.655758 9012350
-106.31293 -22.459339 118.9514 10195595
-107.16689 -22.547932 118.53622 10392718
-108.08209 -22.592014 118.11177 9406594
-108.94318 -22.711861 117.68091 8814714
-109.63492 -23.057316 117.23447 8682867
-181.66252 -22.847862 61.043095 10590091
-182.19362 -22.647358 60.489857 9340027
-182.79045 -22.686674 59.712536 9143420
-183.4621 -22.778873 58.80975 8683383
-184.07631 -22.536297 58.176731 8682867
-184.52834 -22.566813 57.587627 9538686
-104.57775 -21.401907 120.14796 9405566
-105.41775 -21.647238 119.67596 9339773
-106.50217 -21.550869 119.23283 9275007
-107.41656 -21.592327 118.80981 9669766
-108.07233 -21.687223 118.48019 9275265
-183.15393 -21.844648 59.748676 9077367
-183.73306 -21.803066 59.04166 9011831
-184.33556 -21.842102 58.257679 10853263
-184.93999 -21.881815 57.470814 10590860
-185.48184 -21.679659 56.905407 10985361
-103.94126 -20.540743 120.77732 9603202
-104.74354 -20.509352 120.43343 9603202
-105.65378 -20.547308 120.01366 9012091
-106.5948 -20.716503 119.52737 8156785
-107.38314 -21.009468 119.05923 9012350
-184.09933 -20.957371 59.076633 9603711
-184.68196 -20.914551 58.36581 11182228
-185.28816 -20.952665 57.577663 10590860
-185.98401 -20.758183 56.813213 10919568
-186.52972 -20.553911 56.244091 10525068
-102.34806 -19.413755 121.93883 9208956
-103.12255 -19.673807 121.48999 9011065
-103.99548 -19.659298 121.10789 10261132
-104.98645 -19.553291 120.71019 8879990
-105.63905 -19.64381 120.38373 9012091
-184.79077 -20.20809 58.644077 11576729
-185.35472 -20.083361 58.005108 11379606
-186.03432 -19.710562 57.366077 9998468
-186.7292 -19.6089 56.548122 11182228
-101.45361 -18.611937 122.65895 8617078
-102.50274 -18.494572 122.23994 8814710
-103.40887 -18.52697 121.8242 8155756
-104.16444 -18.683613 121.42543 9669251
-104.95004 -18.971258 120.96064 9735555
-186.53395 -18.879202 57.224194 10129798
-187.08249 -18.670984 56.653805 9406332
-99.93158 -17.407204 123.82008 11577759
-100.70396 -17.662712 123.37399 9735560
-101.60611 -17.69236 122.96115 7630442
-102.73968 -17.537222 122.51983 8090991
-103.41845 -17.753864 122.13106 9209467
-98.642105 -16.445038 124.78026 8682867
-99.135162 -16.651747 124.47795 8682867
-100.08048 -16.487068 124.12415 11314330
-100.98264 -16.514265 123.71222 8550513
-101.80903 -16.650375 123.29025 7367014
-102.51874 -16.949453 122.85449 7038307
-96.68335 -15.251171 126.31179 8090216
-97.572998 -15.422585 125.77262 9076601
-98.494576 -15.674469 125.20948 8945272
-99.391815 -15.698967 124.79751 8485232
-100.21832 -15.624813 124.44604 11182230
-100.98792 -15.741065 124.02104 8089963
-92.348938 -14.072931 129.7905 10855060
-92.870186 -14.081988 129.5304 10855060
-93.739807 -14.097354 129.09569 8617592
-94.769646 -14.201933 128.3902 12037279
-95.45694 -14.301564 127.86613 11774108
-96.076569 -14.599588 127.18562 10853520
-96.950417 -14.696664 126.65905 8551025
-97.843849 -14.71821 126.24485 9668738
-98.82769 -14.930533 125.63077 9208444
-73.199593 -13.284424 144.81877 8945780
-74.201256 -13.309547 144.63187 9473408
-74.970055 -13.526255 144.4156 10263180
-81.025055 -13.751486 138.48773 9933190
-81.690491 -13.752765 138.09569 9669504
-82.685295 -13.754683 137.502 9406074
-83.511101 -13.756283 137.00191 10261126
-84.333748 -13.757881 136.49664 10260612
-85.153442 -13.759482 135.98665 9997699
-85.969933 -13.761083 135.47147 9932934
-86.945709 -13.763002 134.84692 10854036
-87.755486 -13.764606 134.32127 10064777
-88.400993 -13.765887 133.89714 9736329
-92.00161 -14.067091 129.96362 10788247
-72.612518 -12.418245 145.24243 7695970
-73.335182 -12.500612 145.08391 7827300
-74.059303 -12.583495 144.92491 10130310
-71.735741 -11.282706 145.81685 10064003
-72.502548 -11.495949 145.6022 9077109
-73.45134 -11.595453 145.39725 11181970
-74.039665 -11.924871 145.17136 11905692
-71.1017 -10.283288 146.29799 5920082
-71.668495 -10.491604 146.12064 5920082
-72.58345 -10.548979 145.93719 7432800
-70.957016 -9.4325562 146.6375 7827565
-71.834557 -9.5043793 146.45537 5920082
-72.525932 -9.7814722 146.23053 5920082
-70.074333 -8.4174309 147.16855 8748151
-70.997589 -8.4978113 146.97514 9011323
-71.800156 -8.5103502 146.82811 8090478
-69.468506 -7.2160521 147.71921 9734531
-70.064278 -7.5461493 147.49174 9406078
-71.006371 -7.6353283 147.29173 9735044
-68.551735 -6.2747836 148.22903 9734531
-69.319771 -6.4831705 148.01591 9734531
-70.322037 -6.4951334 147.83374 8879222
-67.942062 -5.0695305 148.78174 8617080
-68.531532 -5.3953094 148.55702 9472131
-69.422447 -5.5344057 148.3477 10919574
-70.219009 -5.8936172 148.07396 8681843
-67.722939 -4.426332 149.05791 7762029
-68.764755 -4.434958 148.86993 8288885
-69.408852 -4.6817532 148.66467 9670023
-66.90094 -3.1879139 149.66026 9735041
-67.793907 -3.4620149 149.40091 8682616
-68.687988 -3.7369854 149.14105 8749435
-66.34758 -2.4459741 150.03185 9143163
-66.948219 -2.4490237 149.92427 9735041
-67.864914 -2.4942446 149.74507 10063750
-65.361725 -1.0271692 150.72971 9209467
-66.159081 -1.3840309 150.45677 9143163
-67.181328 -1.4962726 150.23416 9406077
-64.743675 -0.21459609 151.29207 10656398
-65.514656 -0.31750315 151.07907 9538431
-66.255562 -0.52225965 150.79562 9801090
-67.028099 -0.62579429 150.58218 9735041
-63.792519 0.60175633 152.09288 9012606
-64.531647 0.39707103 151.8027 10130312
-65.604126 0.29369688 151.53275 9209467
-50.426735 1.6999516 162.50557 8088931
-51.240204 1.6997671 162.36142 8220774
-52.054531 1.699598 162.21715 11378324
-62.341335 1.0154897 153.2641 9340539
-63.145313 1.0153553 153.12433 9340539
-63.749302 1.0152782 153.01933 9340539
-49.728893 2.7567394 163.01898 10062977
-50.519924 2.5453668 162.80092 8417896
-51.46273 2.4750755 162.60799 7366493
-49.594154 3.3930161 163.27757 9273720
-50.613384 3.3939648 163.09738 9865598
-48.837177 4.5982685 163.84653 7037017
-49.796436 4.4578633 163.6339 9931393
-50.479374 4.0321736 163.35649 11378324
-47.981869 5.7344675 164.33643 5920074
-48.78455 5.5230541 164.14534 6379600
-49.737217 5.4544196 163.97359 8089704
-47.270138 7.0178113 164.83641 12432045
-48.111443 6.6453276 164.59071 11313820
-49.064964 6.3804026 164.35959 6051404
-49.663376 6.1679325 164.20056 6510930
-47.193504 7.7343307 165.06485 11708322
-48.147724 7.6665101 164.89308 12432045
-48.934174 7.2391934 164.63943 11313820
-46.591843 8.7382288 165.46313 10261132
-47.397434 8.5260105 165.27138 9142909
-48.353016 8.4584703 165.09953 11708322
-46.439751 9.3867178 165.68291 6971744
-47.470478 9.3919601 165.52109 6708572
-45.816166 10.577652 166.14114 9603459
-46.623096 10.535603 166.00053 6971744
-47.337139 10.2598 165.80405 5392714
-45.586269 11.557204 166.47316 8222316
-46.619469 11.563636 166.31129 6050897
-45.036724 12.42896 166.82327 8090730
-45.863792 12.434353 166.69379 7564386
-46.484692 12.438585 166.59666 7959144
-44.123871 13.961456 167.43042 8682867
-44.917324 13.526616 167.17346 8748660
-45.840355 13.423094 166.99586 8682867
-43.278336 14.880046 168.31953 9011832
-44.031334 14.644165 167.89441 9340796
-44.987274 14.409168 167.42863 9538175
-40.904839 15.852102 170.0714 9603709
-41.962967 15.693482 169.67552 9406846
-42.615524 15.367192 169.11005 9801349
-43.241982 15.372046 169.01854 9735812
-36.181683 16.806606 173.81432 6248527
-37.138226 16.758556 173.58759 6116941
-37.746395 16.528444 173.37032 7038298
-35.413807 17.727411 174.32036 6709338
-36.372162 17.678532 174.09245 7565667
-37.132755 17.599977 173.89706 6906968
-34.781807 18.83741 174.86505 6973024
-35.474239 18.55748 174.61093 6643545
-36.365368 18.523972 174.40337 7565672
-33.036488 19.821186 176.02628 7039331
-33.854813 19.691603 175.71767 6973021
-34.748417 19.513229 175.35323 6314322
-35.678074 19.310919 174.96111 6709338
-29.750469 20.949234 178.58861 7827814
-30.548939 20.906176 178.08862 8616819
-31.557262 20.863003 177.54918 9602945
-32.485126 20.667448 176.99431 8485749
-33.13385 20.441206 176.53996 7170144
-34.153431 20.301893 176.12135 7038298
-154.15283 -29.203379 82.768112 7564651
-154.81819 -29.255417 82.167419 9011320
-155.48438 -29.307926 81.564278 9011320
-158.74518 -29.217159 79.892426 10787211
-159.11638 -29.233515 79.360367 10458249
-159.53543 -29.241884 78.612503 9010806
-116.34129 -28.140484 112.17801 15196110
-117.09487 -28.345451 111.7143 13223098
-117.91995 -28.438232 111.26104 8222573
-118.83208 -28.498461 110.77739 10722963
-119.74757 -28.559795 110.29157 10657428
-120.66062 -28.620968 109.79768 14537671
-121.33493 -28.834221 109.08451 13090226
-121.98876 -28.835802 108.35204 9209467
-122.63847 -28.837378 107.61583 9209467
-123.28342 -28.838955 106.87556 9274491
-129.67242 -28.851404 102.92268 9405822
-130.04292 -28.852352 102.45367 9405822
-130.65666 -28.853924 101.66887 9274236
-131.38712 -28.855806 100.7224 9669762
-131.87056 -28.857059 100.0887 9538176
-137.29616 -28.867531 96.844894 9931646
-137.87604 -28.869097 96.016617 9143418
-138.45126 -28.870659 95.185074 9406590
-138.79399 -28.871595 94.684502 6511954
-143.71692 -28.881014 91.830574 9735296
-144.15718 -28.882263 91.137451 9866371
-144.70256 -28.883821 90.267998 9274235
-149.71431 -28.893734 87.007698 8945527
-150.35219 -28.917692 86.172012 7498593
-151.00986 -28.965788 85.58577 9209467
-151.83321 -29.026722 84.848953 7104091
-152.65923 -29.088779 84.1091 8288368
-153.3224 -29.139393 83.514877 7893613
-153.82045 -29.177641 83.067383 7564651
-156.21754 -29.016003 82.187889 8353647
-156.8902 -29.068844 81.579681 9340025
-157.5638 -29.122288 80.968674 9734523
-158.23849 -29.176233 80.354637 9734523
-160.47481 -28.943218 78.834724 7038307
-160.79002 -28.949827 78.270119 8485494
-161.3141 -28.961508 77.32785 9011065
-165.40453 -28.926649 74.68573 9274748
-165.76189 -28.927982 73.888443 9274494
-170.21637 -28.936672 71.012596 8090986
-170.64024 -28.938244 69.986679 7564642
-173.81583 -28.836678 68.372566 9208184
-174.23434 -28.629725 67.811386 9339771
-174.69011 -28.652458 67.022072 9734788
-175.13425 -28.599241 66.307114 9932421
-115.52127 -27.40169 112.87061 10458508
-116.32373 -27.551252 112.43005 11642780
-117.23122 -27.607634 111.95029 9471870
-118.14187 -27.66514 111.46858 10065033
-119.08023 -27.640705 111.00666 12302251
-119.89364 -27.844412 110.51344 10788756
-120.46926 -28.014639 110.15367 10262414
-174.58015 -27.963749 67.703133 12432039
-174.94716 -27.708096 67.264221 9537665
-175.45767 -27.779037 66.347824 9406335
-175.87929 -27.57192 65.782059 8814200
-114.17436 -26.433142 113.85884 8682867
-114.76173 -26.601025 113.53024 9340797
-115.67407 -26.529123 113.15381 10853521
-116.59648 -26.586159 112.69129 9669248
-117.4472 -26.686449 112.22204 8551281
-118.28468 -26.951271 111.69144 10722963
-118.85768 -27.118626 111.33418 14078918
-175.23341 -27.082935 67.228134 9406335
-175.71669 -26.832062 66.589424 9274749
-176.22902 -26.903103 65.670135 10786957
-176.86266 -26.402845 65.017868 9010551
-112.63136 -25.167511 115.05382 8288365
-113.21647 -25.332285 114.72748 9274749
-114.01638 -25.641029 114.2478 10195595
-114.95295 -25.698641 113.80837 8682867
-115.86182 -25.598265 113.44447 9472382
-116.6695 -25.672972 113.03159 10985104
-176.00458 -26.205124 66.552231 8814200
-176.51868 -25.847683 65.937836 9406335
-177.14659 -25.529753 65.185486 9471869
-177.78981 -25.619585 64.3069 7563619
-178.30815 -25.423723 63.766979 7563619
-111.72777 -24.336082 115.78993 8288365
-112.31181 -24.49892 115.4648 10064777
-113.16357 -24.612751 115.04051 8748661
-114.09834 -24.667093 114.60322 9735299
-115.00669 -24.636616 114.21184 9274748
-115.73586 -24.96118 113.75725 8682867
-176.82103 -24.867085 66.13018 9538947
-177.26097 -24.658916 65.565689 8814455
-177.89793 -24.746269 64.683823 7563619
-178.63039 -24.702532 63.784 9340286
-179.22285 -24.556484 63.121109 12104103
-110.87671 -23.316029 116.57862 11907492
-111.5665 -23.547522 116.17889 9933191
-112.4966 -23.597879 115.74529 9406847
-113.4306 -23.6493 115.30953 8288110
-114.31406 -23.895063 114.81799 9998727
-177.6364 -23.987425 65.460594 7563619
-178.15541 -23.78854 64.921761 7563619
-178.73949 -23.826124 64.161514 8155755
-179.39665 -23.915791 63.278381 11446174
-179.9894 -23.830639 62.579418 8092019
-180.66945 -23.485931 61.922741 12169123
-109.28639 -22.262842 117.70908 9340801
-110.00439 -22.576101 117.26395 8880246
-110.83112 -22.651108 116.86634 9604225
-111.82875 -22.585274 116.4495 8946039
-112.76156 -22.633739 116.01549 7695717
-113.2696 -22.856684 115.70003 7366752
-179.09157 -22.994989 64.205475 8749435
-179.74083 -22.724566 63.544041 8618105
-180.33018 -22.761736 62.777351 9144191
-180.92534 -22.706045 62.058025 10064521
-181.57722 -22.52894 61.338345 10590091
-108.59628 -21.582222 118.28957 9078143
-109.32285 -21.564325 117.97392 9340801
-110.23138 -21.529585 117.58416 8946296
-111.1597 -21.574295 117.15358 9077624
-111.91943 -21.905367 116.68279 8814964
-180.2216 -21.819227 63.468887 8092019
-180.66512 -21.846224 62.892567 8092019
-181.26991 -21.60154 62.272144 9078142
-181.93706 -21.68948 61.377354 10261126
-182.53378 -21.726719 60.60146 10458247
-183.06804 -21.524321 60.045574 9932161
-106.9827 -20.410179 119.47831 7893615
-107.63906 -20.503139 119.14914 8748666
-108.58735 -20.674376 118.65886 8683385
-109.49438 -20.637104 118.27078 8946300
-110.40501 -20.600557 117.88081 9735044
-181.44652 -20.954275 62.429691 9340283
-181.97795 -20.750244 61.878155 8353901
-182.6483 -20.837355 60.979992 9932161
-183.32516 -20.83102 60.128788 9143160
-183.86243 -20.626804 59.57024 9406332
-106.15941 -19.535463 120.19609 9209470
-106.81488 -19.626736 119.86809 9012091
-107.80824 -19.584251 119.44376 8354161
-108.77159 -19.568924 119.02177 8814714
-109.56462 -19.807514 118.57336 8683385
-182.382 -20.066572 61.769772 8090987
-182.93846 -19.940989 61.140888 8090987
-183.51808 -19.895573 60.435505 9471867
-184.12115 -19.930729 59.653057 8682867
-184.81306 -19.733511 58.89513 9275004
-185.48596 -19.455452 58.208736 10788242
-104.62554 -18.313265 121.36948 9735555
-105.28622 -18.518631 120.99328 9801605
-106.14552 -18.628773 120.5671 9341055
-107.06375 -18.664219 120.1448 8814711
-107.87987 -18.69632 119.76919 9077624
-183.88374 -19.047041 60.472836 9143160
-184.48848 -18.858898 59.819698 9406590
-185.11732 -18.639841 59.154255 9932934
-185.85722 -18.601574 58.242191 8682867
-186.44713 -18.554937 57.524525 10129798
-103.72492 -17.506149 122.09451 8748405
-104.56007 -17.599699 121.68573 9275004
-105.47466 -17.631994 121.2663 9340797
-106.39253 -17.665077 120.84512 9669762
-107.26335 -17.892237 120.36673 8682867
-185.2045 -17.85 59.508839 11775139
-185.90204 -17.647989 58.746716 9275004
-186.51436 -17.680546 57.954082 9011831
-187.20341 -17.765778 57.033596 9801090
-187.67961 -17.503168 56.586559 10261391
-102.16326 -16.163424 123.32875 8485747
-103.03476 -16.529869 122.79403 7695977
-103.88857 -16.605806 122.38406 8748405
-104.80284 -16.635862 121.96569 9274748
-105.66351 -16.742699 121.54025 9801605
-106.3569 -17.07881 121.09685 9340797
-186.31816 -16.951694 58.63081 9932934
-186.86694 -16.739729 58.062328 8617079
-187.48312 -16.771116 57.265476 9866633
-187.94655 -16.794962 56.666042 11050650
-100.61781 -15.353079 124.48048 10260872
-101.34207 -15.499125 124.04814 8089963
-102.15836 -15.585576 123.62363 8748149
-103.15913 -15.653111 123.1354 7563876
-104.0646 -15.603776 122.76824 9011577
-104.814 -15.856894 122.27413 9735812
-187.28619 -16.039762 57.944592 8617081
-187.74956 -16.062504 57.345829 7827566
-188.29405 -15.769784 56.934254 10261391
-96.704407 -14.152845 127.604 8682867
-97.403831 -14.166587 127.24971 11182228
-98.279236 -14.184253 126.80494 9208444
-99.170547 -14.382466 126.06485 8747893
-99.947716 -14.586499 125.49216 9076601
-100.72038 -14.711528 125.0008 8418928
-101.6206 -14.814648 124.48891 8089963
-102.38786 -14.930034 124.05167 8682355
-103.15634 -15.046021 123.61321 7563619
-75.495232 -13.303225 144.40471 10064008
-76.416939 -13.366676 144.21779 7958633
-76.988426 -13.579779 144.03781 7563619
-88.883774 -13.766848 133.57706 9736329
-89.365273 -13.767809 133.25508 8881278
-90.165245 -13.769408 132.71458 8223604
-91.120979 -13.771332 132.0598 8090994
-91.913979 -13.772933 131.50909 10788247
-92.703339 -13.774533 130.95328 11314590
-93.489632 -13.776134 130.39311 8551799
-94.334045 -13.786675 129.91287 8024944
-95.385979 -13.805377 129.38602 9011579
-96.263687 -13.821393 128.94496 10655885
-74.618431 -12.465215 144.86932 11709343
-75.547874 -12.553559 144.67192 9076857
-76.356552 -12.57341 144.52113 7563619
-74.020004 -11.264915 145.41829 8419693
-74.713036 -11.543994 145.1924 13485751
-75.565132 -11.695457 144.9854 11643295
-73.105988 -10.321485 145.92845 6511954
-73.877327 -10.534993 145.71286 6511954
-74.886772 -10.555378 145.52628 9669759
-72.504005 -9.1189413 146.47884 5920082
-73.09417 -9.4472837 146.25302 7235682
-73.98999 -9.5928297 146.04045 6775382
-74.788719 -9.9565468 145.7646 8814707
-72.403717 -8.5200071 146.71756 8090478
-73.210213 -8.5330009 146.56972 8946043
-73.939919 -8.611577 146.4113 7960173
-71.474518 -7.2427135 147.35358 9735044
-72.370438 -7.5214653 147.0918 9932424
-73.267685 -7.8013644 146.82944 9340801
-70.924973 -6.5024133 147.72412 9076857
-71.529228 -6.5098195 147.6142 9076857
-72.451241 -6.5614214 147.43161 9209214
-69.947098 -5.0885215 148.41911 11380380
-70.745628 -5.4478245 148.14496 9406078
-71.695877 -5.5079899 147.95421 9406334
-72.235352 -5.9163265 147.70793 9932678
-69.92141 -4.4180508 148.67108 9143936
-70.85183 -4.4932413 148.47827 9932679
-71.627106 -4.7019734 148.26375 9932678
-69.154381 -3.3369319 149.20581 9472644
-70.102379 -3.4201856 149.00703 9143936
-70.703209 -3.7520237 148.77808 11050647
-68.385529 -2.2542431 149.74124 9735299
-69.159752 -2.4606717 149.52789 10261646
-70.091438 -2.5333297 149.33595 9867145
-67.738808 -1.2374983 150.2307 8682867
-68.40731 -1.38472 150.05794 9735299
-69.302803 -1.5624586 149.83366 10524561
-66.750862 -0.21828514 150.93459 9735041
-67.587257 -0.38274536 150.66438 9735299
-68.572441 -0.52762544 150.38281 8945783
-66.002823 0.60025585 151.70056 9209467
-66.946548 0.39475572 151.37392 9472383
-67.891014 0.18860427 151.047 8682867
-52.666065 1.6994824 162.10875 9800576
-53.609932 1.74168 161.95715 10985364
-54.274746 1.48771 161.74567 12235172
-64.35437 1.0151495 152.91417 10260875
-65.365288 1.015098 152.73865 12563880
-51.766449 2.7578058 162.65845 7038298
-52.559151 2.5462635 162.44003 7761507
-53.504787 2.4760683 162.2466 9274746
-51.838444 3.3952644 162.88086 7958886
-52.86108 3.396467 162.70015 7367006
-53.450733 3.1842618 162.51738 8484973
-50.368431 4.8859887 163.69106 11378324
-50.985481 4.5453625 163.45616 10918548
-51.958702 4.4618187 163.25301 9668734
-52.72958 4.0357642 162.95921 8484973
-50.298672 5.598773 163.92818 9997445
-51.253567 5.5304508 163.7552 10326924
-52.055157 5.3184428 163.55179 9405822
-50.180859 6.4273396 164.19681 7038042
-51.245892 6.3455358 164.00334 8485232
-49.488598 7.51858 164.63585 8024426
-50.397316 7.4611812 164.4745 6511442
-50.997692 7.248208 164.31505 6511954
-48.653046 8.7482967 165.13936 12432045
-49.460361 8.5362263 164.94742 9800836
-50.418797 8.4692001 164.77522 6510930
-48.709377 9.3987617 165.32672 12037799
-49.74358 9.4048004 165.16458 7958632
-47.881428 10.589767 165.81738 7366501
-48.803528 10.486736 165.64009 9932168
-49.613152 10.273969 165.44751 8484976
-47.240017 11.567691 166.21407 5392714
-47.989437 11.616615 166.11008 7365986
-48.753418 11.505322 165.95538 8681843
-47.10614 12.442991 166.49947 7300960
-48.14325 12.450732 166.33742 8681843
-46.416363 13.625616 166.96568 8814453
-47.292191 13.607437 166.82133 8551027
-47.934711 13.255527 166.6133 9734531
-44.736813 14.891844 168.10724 10656654
-45.571827 14.899186 167.9866 9340796
-46.276184 14.54084 167.3922 7959144
-47.271412 14.4275 167.07204 8090221
-42.577404 15.863402 169.81801 9932678
-43.205914 15.868153 169.72464 9932678
-43.95705 15.626019 169.2643 11906720
-44.915592 15.386023 168.7757 9998725
-37.78199 16.986244 173.53014 7038298
-38.390141 16.756353 173.31274 7038298
-39.362568 16.716404 173.15742 7564648
-37.701946 17.752197 173.82802 7169884
-38.675251 17.675688 173.60316 7696229
-39.508488 17.451658 173.40776 6511954
-36.935421 18.676556 174.33432 8091245
-37.697529 18.597878 174.13849 7696228
-38.536308 18.59701 173.95926 7696228
-36.046593 19.674089 175.15111 6709080
-36.966255 19.545816 174.8192 8090986
-37.884262 19.418346 174.48833 8090986
-33.630035 20.821321 176.83223 6511954
-34.458286 20.806358 176.5526 8222573
-35.316689 20.491045 175.99055 6577235
-36.201164 20.449156 175.7173 6314319
-36.872898 20.28005 175.41479 7564642
-31.782711 21.466501 178.81181 9931910
-32.381023 21.434383 178.43745 9931910
-33.176579 21.392328 177.94127 9735043
-33.98262 21.359327 177.51756 8617331
-121.64728 -28.491642 109.36425 12235690
-122.4469 -28.348183 109.02126 9998726
-123.3779 -28.413498 108.52601 10392456
-124.31261 -28.480019 108.02843 9405565
-125.16425 -28.58172 107.55805 8418671
-125.94513 -28.799723 107.07529 9011320
-126.90319 -28.84444 106.32072 9932678
-127.41309 -28.845711 105.70815 9866629
-128.17282 -28.847614 104.78503 9997956
-128.80098 -28.849194 104.01176 12431013
-129.3 -28.850458 103.39028 9405822
-135.04695 -28.861542 99.959869 9734528
-135.40675 -28.862492 99.471413 9734528
-136.00243 -28.864069 98.654404 10326150
-136.59358 -28.865644 97.834114 9208435
-136.94583 -28.866488 97.340271 9208435
-141.92282 -28.875988 94.581604 8024169
-142.37633 -28.877249 93.897079 8024169
-142.93837 -28.87882 93.038284 9735296
-143.38475 -28.880074 92.349121 9735296
-148.1201 -28.888994 89.696899 8616307
-148.65678 -28.890614 88.803619 8879222
-149.18842 -28.892176 87.907333 9668480
-153.71506 -28.900612 85.415161 7564651
-154.12398 -28.901964 84.673782 7564651
-154.76921 -28.910904 83.578842 8222579
-155.54726 -28.964067 82.793846 7103835
-159.26703 -28.912458 80.876328 10260867
-159.73709 -28.928732 80.149918 8089959
-160.15898 -28.936811 79.398788 8287084
-164.49413 -28.923552 76.671356 9208953
-164.9521 -28.925137 75.679764 10787726
-169.3499 -28.933582 73.056381 9142907
-169.78596 -28.935163 72.035782 9142907
-172.65512 -28.631313 70.488571 7498081
-173.09694 -28.575731 69.779175 8747890
-173.55159 -28.596863 68.992981 9734527
-173.96983 -28.38953 68.432556 11379350
-120.0235 -27.291962 110.6762 9933192
-120.82753 -27.562384 110.16018 11117209
-121.69289 -27.699427 109.66835 9472383
-122.67971 -27.566811 109.22677 9077625
-123.61302 -27.630543 108.73099 10063493
-124.49059 -27.891745 108.18176 9208187
-173.41589 -27.757874 69.825516 8879476
-173.85907 -27.702169 69.113792 11050386
-174.3152 -27.72333 68.325058 11313559
-118.41198 -26.399925 111.85503 11051928
-119.20935 -26.547525 111.39301 12499886
-120.12984 -26.6049 110.90636 10064265
-121.0537 -26.663366 110.41755 9669762
-122.00636 -26.639164 109.94836 9406590
-122.8313 -26.845102 109.44846 10459278
-123.41504 -27.017078 109.0839 9208187
-174.08336 -26.847492 69.347092 9800321
-174.62445 -26.826241 68.44487 9932163
-175.07001 -26.770729 67.729553 9011320
-116.92464 -25.424913 113.00562 10590347
-117.59982 -25.660772 112.56867 9011831
-118.60316 -25.571146 112.10102 9472382
-119.49052 -25.574163 111.65343 10590865
-120.4138 -25.629616 111.16618 10985367
-121.28301 -25.88184 110.62486 9669507
-121.78273 -26.112326 110.27827 8682867
-174.85042 -25.96917 68.67775 9142648
-175.4446 -25.655935 67.895966 9998216
-175.93953 -25.652231 67.059814 7695980
-176.43309 -25.308332 66.470383 7038307
-115.389 -24.153557 114.23633 8617587
-116.09446 -24.510212 113.7793 9670016
-116.96159 -24.638346 113.31181 11116690
-117.87615 -24.689051 112.83084 9537917
-118.77389 -24.626411 112.40519 9735555
-119.69199 -24.659948 111.92953 9341057
-120.27068 -24.825941 111.56999 10985367
-175.79744 -24.668297 68.00779 13487045
-176.26936 -24.566597 67.281097 7762284
-176.77214 -24.558403 66.434868 8288627
-114.4762 -23.31496 114.97938 9538177
-115.36436 -23.561508 114.4855 7894376
-116.31024 -23.615576 114.04339 9341307
-117.23599 -23.665857 113.57522 11971487
-118.15322 -23.714741 113.09368 9077624
-118.83373 -23.950008 112.65432 9143934
-176.41832 -23.776798 67.596313 12829109
-176.98393 -23.724566 66.675293 8486005
-177.56462 -23.674652 65.757416 8419955
-113.8593 -22.560793 115.55699 8288110
-114.69286 -22.539639 115.19506 9077369
-115.63788 -22.590725 114.75455 8814965
-116.5264 -22.718628 114.30826 8946806
-117.33674 -22.978752 113.80823 9801601
-177.196 -22.889063 66.916382 7433064
-177.71089 -22.881138 66.070015 8090736
-178.4133 -22.828892 65.16024 9341571
-179.00635 -22.6791 64.499001 9341571
-112.22975 -21.391735 116.75159 8617842
-113.02737 -21.666584 116.28652 9538176
-113.93331 -21.663206 115.88527 8419439
-114.96434 -21.568151 115.46533 9735043
-115.66737 -21.802271 115.05875 10721680
-177.96587 -21.92091 66.309723 8157043
-178.60393 -21.723301 65.569572 11775140
-179.23006 -21.826649 64.717529 10656916
-179.86249 -21.563871 64.072861 7960433
-180.53676 -21.369781 63.3349 8092019
-110.91361 -20.388945 117.73992 8092011
-111.4208 -20.608162 117.42632 8814964
-112.35564 -20.652004 116.99325 9275258
-113.36364 -20.581717 116.57356 10984594
-114.12823 -20.671261 116.19781 8880246
-114.93816 -20.974358 115.71587 8682867
-178.32915 -21.242186 66.199783 9341316
-179.08095 -20.818373 65.498947 9341571
-179.60562 -20.614019 64.95607 11183260
-180.19614 -20.647243 64.190353 10591122
-180.7883 -20.681 63.422131 9603713
-181.36082 -20.635715 62.725307 9340283
-109.76889 -19.320818 118.67842 9143422
-110.68941 -19.644266 118.13921 9471616
-111.61755 -19.579901 117.75264 9274746
-112.49773 -19.731529 117.30046 9538174
-113.21155 -19.839111 116.93997 9603968
-180.00285 -19.934036 64.853958 11906466
-180.45329 -19.80221 64.362335 13353398
-181.05211 -19.709646 63.660053 12168611
-181.72008 -19.793484 62.766727 10524043
-182.29604 -19.747078 62.066418 9998212
-182.85219 -19.621023 61.43819 8090987
-108.45595 -18.32848 119.66116 8682867
-108.96107 -18.543989 119.34999 9077625
-109.88998 -18.581488 118.92212 8945786
-110.82211 -18.619667 118.4925 9471359
-111.67249 -18.694544 118.08449 9011064
-112.45612 -18.885536 117.65941 9538174
-181.22816 -19.060781 63.819153 7038298
-181.83278 -18.904373 63.147434 9340283
-182.50816 -18.893223 62.300877 11839645
-183.18608 -18.882471 61.450916 9077367
-183.88329 -18.493334 60.799229 9406846
-184.27202 -18.276707 60.435741 10130825
-106.90955 -17.098253 120.84344 9011576
-107.41341 -17.31171 120.53357 9472124
-108.28818 -17.539415 120.05324 8880246
-109.21609 -17.574274 119.62685 10064261
-110.08803 -17.656858 119.20614 10261131
-110.95051 -17.903847 118.7235 9339773
-111.5402 -18.058792 118.39909 9734531
-182.16391 -18.166674 63.163258 7038298
-182.7804 -17.819477 62.588795 9274747
-183.3867 -17.755465 61.860622 8682867
-183.99504 -17.691578 61.12981 9801860
-184.6833 -17.584398 60.323483 10920086
-185.37886 -17.381886 59.564114 11775139
-106.00226 -16.285728 121.57355 9011576
-106.69003 -16.504257 121.17995 9143162
-107.61396 -16.535976 120.7566 9143160
-108.54137 -16.568438 120.3314 8946039
-109.39267 -16.664297 119.91451 9537918
-109.98038 -16.816835 119.59194 12432037
-183.88144 -16.830618 61.779896 9406846
-184.4225 -16.618807 61.221035 10130825
-185.03062 -16.648321 60.435596 9012088
-185.6407 -16.678318 59.647297 9538176
-186.23108 -16.627764 58.931377 9011832
-105.26184 -15.37843 122.41138 9406847
-106.07852 -15.512843 121.95486 9011576
-106.92934 -15.587436 121.52319 8617075
-107.83047 -15.760375 120.99744 9208955
-108.63259 -15.884593 120.57668 9077624
-184.9868 -15.93029 60.91341 8551793
-185.7532 -15.72933 60.175747 10261899
-186.42294 -15.808018 59.25436 9275004
-187.0713 -15.711615 58.536198 8946044
-187.72511 -15.583267 57.832127 7038307
-101.26471 -14.247425 125.27753 8089963
-101.96948 -14.26303 124.91459 8089963
-102.83228 -14.432662 124.31404 8485745
-103.61036 -14.603396 123.79215 8485489
-104.44257 -14.701937 123.33176 9209212
-105.49799 -14.636831 122.9188 9341056
-106.27449 -14.754762 122.47554 9011576
-187.02226 -15.076195 59.344784 8682867
-187.47777 -15.096528 58.744968 7827819
-188.11526 -14.886962 58.199436 7038307
-188.72656 -14.914399 57.394505 7432808
-189.21561 -14.697246 57.045673 10853012
-77.518524 -13.356357 144.02621 8945015
-78.599289 -13.417882 143.70547 9931909
-79.430122 -13.491577 143.30736 8616566
-80.008591 -13.629296 142.99556 8616566
-97.142586 -13.837879 128.50175 10721934
-98.022476 -13.854734 128.05675 11182228
-98.903801 -13.872093 127.60957 9208700
-99.962814 -13.893451 127.07034 7826791
-100.84686 -13.911702 126.61877 8418928
-101.37795 -13.922833 126.34683 9340030
-76.964844 -12.588574 144.40767 7563619
-77.777946 -12.609034 144.25594 7762790
-78.632011 -12.724323 143.96863 9011320
-76.040703 -11.309005 145.04361 10524560
-76.941078 -11.594456 144.77861 6840664
-77.843071 -11.881242 144.51282 6249039
-75.529259 -10.369528 145.48091 8814707
-75.974197 -10.617599 145.31047 8880501
-77.031845 -10.639974 145.11464 8091754
-74.522652 -9.1540604 146.10783 8814707
-75.323647 -9.5178194 145.83159 10525067
-76.28064 -9.5857143 145.6368 9406590
-76.820442 -9.9963856 145.38957 10788244
-74.503258 -8.4876013 146.35713 8354672
-75.439827 -8.5699196 146.16063 11182998
-76.219063 -8.7838421 145.94345 8682867
-73.741188 -7.4077239 146.89066 8814714
-74.597847 -7.5538254 146.68481 8091505
-75.292549 -7.6647077 146.52071 10064777
-72.977547 -6.3271103 147.42473 8617592
-73.755043 -6.5378108 147.20912 9537923
-74.692551 -6.6170812 147.0136 8617592
-72.336426 -5.3135753 147.91229 9209467
-72.910988 -5.52108 147.73389 9340798
-73.867897 -5.5821233 147.54166 9538179
-72.153793 -4.4644608 148.25795 9735555
-73.081505 -4.5132699 148.07542 10458510
-73.657974 -4.7211037 147.8965 9932678
-71.273552 -3.4054012 148.80478 10196619
-72.234627 -3.4933236 148.60188 10130057
-73.014519 -3.7022121 148.38647 10984854
-70.653328 -2.4010816 149.28506 10262668
-71.51506 -2.4327981 149.12059 9144443
-72.166222 -2.6807053 148.9138 8748660
-69.791061 -1.0407872 149.93939 9735299
-70.537071 -1.4508649 149.65594 9407360
-71.599182 -1.591175 149.41595 8091499
-68.97271 -0.22235456 150.53886 9208955
-69.854095 -0.38747412 150.26056 9406591
-70.702446 -0.53252876 150.00327 7959657
-68.22728 0.59883374 151.3058 9340797
-69.039894 0.3517454 150.97041 9866886
-69.92067 0.18618146 150.68643 7564651
-54.785583 1.769855 161.75931 12300708
-55.733269 1.6992898 161.5654 8946295
-56.527798 1.4872444 161.34644 9867139
-66.582024 1.0150304 152.52753 9998469
-67.599266 1.0149697 152.3512 10262156
-68.211075 1.0149306 152.24518 9209211
-54.06715 2.6179187 162.19933 10590348
-54.938427 2.5902891 162.03481 12432294
-55.60527 2.3356559 161.8228 11708828
-53.972576 3.4405475 162.51952 7497824
-55.030022 3.3567724 162.30132 9801346
-53.246517 4.5179348 163.04552 8089960
-54.216286 4.4666591 162.85483 7893096
-54.782589 4.039608 162.59702 7893096
-52.359119 5.605401 163.59656 9076856
-53.312824 5.5368996 163.40959 8090475
-54.111214 5.324183 163.18974 7893096
-51.76548 6.6055593 163.99945 9405822
-52.573021 6.3939877 163.80757 8682098
-53.401493 6.3975625 163.67729 8879989
-51.056469 7.8958006 164.50111 6511954
-51.638084 7.4671135 164.27959 9866373
-52.617188 7.4180923 164.10957 8418925
-50.983967 8.6167488 164.73015 9142906
-51.86607 8.5930471 164.58319 11642781
-52.339954 8.3356743 164.43044 14076861
-50.779648 9.4111834 165.00227 6510930
-51.817432 9.417923 164.83978 9340798
-50.171314 10.558298 165.44482 7760997
-51.085644 10.502492 165.28307 7497825
-51.66951 10.070084 165.06003 9340798
-49.313084 11.582392 165.88985 12696504
-50.144295 11.588815 165.76009 13091774
-50.976433 11.595467 165.6302 10262156
-49.310497 12.503917 166.1684 15131874
-50.212463 12.357518 165.98123 16053231
-48.493996 13.6426 166.64143 9800840
-49.485996 13.563144 166.46021 16448248
-50.280819 13.128656 166.20311 16777207
-47.035622 14.912881 167.77625 8090221
-47.881046 14.758494 167.42928 8090221
-48.514694 14.601692 167.10727 8090221
-49.356949 14.447241 166.75583 12433586
-44.675034 15.880436 169.50964 14604230
-45.516445 15.888201 169.38902 8682867
-46.219902 15.52227 168.76338 8090987
-47.223751 15.407894 168.4444 6709337
-39.897823 16.995926 173.19426 7038307
-40.733479 16.774389 173.01167 9274747
-41.589081 16.782438 172.91042 8090987
-39.818962 17.761339 173.48288 7038298
-40.722004 17.647184 173.33134 10984338
-39.175026 18.601198 173.86746 8090987
-40.032173 18.609509 173.76614 7827814
-40.870461 18.386654 173.5829 11707804
-38.256348 19.781713 174.67754 8354159
-39.194363 19.587437 174.33743 7433056
-39.875336 19.30275 174.03802 8617331
-36.740978 20.773571 175.83495 7038298
-37.539391 20.521757 175.43523 8090986
-38.376297 20.516605 175.21986 8880503
-38.968182 20.269995 174.90028 7564642
-35.021694 21.340389 177.16644 7564642
-36.059559 21.322325 176.81706 7038298
-36.888855 21.308575 176.53885 6511954
-126.13024 -28.511726 107.10112 9208699
-126.89089 -28.598612 106.65663 10525071
-127.99494 -28.448135 106.18943 10129796
-128.87947 -28.37278 105.77568 8945782
-129.75015 -28.479479 105.29364 9866370
-130.45811 -28.737808 104.83095 10261128
-132.85059 -28.855825 102.86244 9077881
-133.58958 -28.857735 101.90018 11051415
