# .PCD v0.7 - Point Cloud Data file format
VERSION 0.7
FIELDS x y z rgb
SIZE 4 4 4 4
TYPE F F F U
COUNT 1 1 1 1
WIDTH 1201
HEIGHT 1
VIEWPOINT 0 0 0 1 0 0 0
POINTS 1201
DATA ascii
-127.41414 -51.706852 78.461349 8353390
-128.37239 -51.55048 77.939026 8221806
-129.14604 -51.739086 77.379204 8090734
-130.05608 -51.566006 76.893982 10984338
-130.87123 -51.598171 76.37722 11050131
-131.67528 -51.691914 75.840256 10260871
-132.67496 -51.60688 75.261116 10460302
-133.40759 -51.464275 74.871918 15197142
-134.19626 -51.567616 74.34021 14210247
-135.23579 -51.401917 73.771194 7892839
-135.98683 -51.341393 73.333229 13024949
-136.91403 -51.313301 72.772232 9011832
-137.67334 -51.254791 72.328278 7366240
-103.97385 -50.118687 91.133881 7037274
-104.54733 -50.378391 90.750305 7497825
-105.42154 -50.414482 90.292137 7563876
-106.38614 -50.347115 89.831001 7038307
-107.13023 -50.396809 89.433159 11511194
-108.06842 -50.536064 88.899933 10458508
-109.01204 -50.54422 88.418167 11314076
-109.8544 -50.628223 87.956367 9406595
-110.67874 -50.652809 87.528267 10064268
-111.71436 -50.557056 87.042915 9143419
-112.56851 -50.744328 86.532562 9998472
-113.46094 -50.517487 86.174911 8682356
-114.35193 -50.661869 85.664017 7892584
-115.15117 -50.62505 85.274803 8287341
-116.15678 -50.546558 84.798439 8089963
-116.97976 -50.683914 84.324921 8616819
-117.86694 -50.648777 83.890503 10064522
-118.81292 -50.677673 83.399704 9407108
-119.63 -50.658592 82.994095 8945785
-120.61362 -50.615711 82.514091 9340542
-121.463 -50.663799 82.06424 8289140
-122.39023 -50.573162 81.632599 13090994
-123.23756 -50.648144 81.172607 9538177
-124.08937 -50.724873 80.709648 8222574
-125.03371 -50.638924 80.267357 10656657
-125.89186 -50.61985 79.84079 9932419
-126.77426 -50.745201 79.278008 8946038
-127.62032 -50.608036 78.816498 11248021
-128.45296 -50.731121 78.249008 8419697
-129.41902 -50.573238 77.722565 9011319
-130.14732 -50.697147 77.219093 9143161
-131.04039 -50.656879 76.686035 9011832
-131.88637 -50.553295 76.209831 9340541
-132.67842 -50.74725 75.636276 7695460
-133.67216 -50.596016 75.089577 12433836
-134.4265 -50.664265 74.593689 13618110
-135.26601 -50.701679 74.058289 9538432
-136.26767 -50.599396 73.483704 12301482
-136.95404 -50.723946 73.004883 9998727
-137.80426 -50.720196 72.480804 7564130
-138.715 -50.59782 71.971115 7827305
-139.59831 -50.610657 71.419365 7169890
-140.37361 -50.55344 70.965012 5919566
-141.15297 -50.497288 70.507629 6313808
-142.2417 -50.397648 69.877975 7432289
-143.15901 -50.26543 69.36853 7563618
-99.65271 -49.139214 93.467339 10984849
-100.27888 -49.227119 93.150993 11773851
-101.17174 -49.528564 92.62883 11049617
-101.94279 -49.465492 92.308418 10523788
-102.80275 -49.591579 91.87178 11379352
-103.79202 -49.621483 91.415932 10656400
-104.75142 -49.569908 90.981346 9603714
-105.57625 -49.641277 90.533676 9801093
-106.44383 -49.587151 90.116211 8222579
-107.39373 -49.546146 89.651627 11313816
-108.28223 -49.720303 89.12912 10853523
-109.15971 -49.507355 88.772346 10326923
-110.02237 -49.576328 88.306458 10064268
-110.9773 -49.72097 87.762726 9406081
-111.88811 -49.499779 87.393326 9011321
-112.69246 -49.624313 86.934547 9471872
-113.57316 -49.701851 86.456627 8682356
-114.48134 -49.496655 86.082214 7169636
-115.4062 -49.690132 85.533768 8221549
-116.28539 -49.649082 85.105835 8813686
-117.11073 -49.784126 84.632103 8550770
-117.9995 -49.746346 84.197929 12826543
-118.89374 -49.710289 83.760323 11248283
-119.82086 -49.903702 83.210831 9670022
-120.63655 -49.818687 82.833282 7697261
-121.65424 -49.993584 82.245605 9341826
-122.33595 -50.111931 81.85141 15722454
-128.63716 -50.057449 78.431152 9143161
-129.12819 -50.139011 78.092484 10261124
-130.24736 -49.940834 77.489334 9143161
-131.1418 -49.898087 76.956573 8353646
-132.15907 -49.779602 76.38121 7958632
-132.94647 -49.817089 75.878799 7629667
-133.68741 -49.749146 75.450424 9736067
-134.63121 -49.632454 74.917786 11117720
-135.46819 -49.609749 74.410187 9472384
-136.28621 -49.744217 73.845673 9998728
-137.24017 -49.649105 73.297356 9669762
-138.0175 -49.664707 72.809952 8617074
-138.83904 -49.669662 72.29982 8748917
-139.7244 -49.679729 71.748032 7433062
-140.5979 -49.654438 71.218948 6445911
-141.52844 -49.636486 70.651413 7629667
-142.23479 -49.685833 70.193115 8353646
-143.11839 -49.687359 69.646133 7826790
-143.64053 -49.539833 69.387711 8089963
-95.721245 -48.269615 95.581726 9537150
-96.744934 -48.315948 95.103813 8813428
-97.61869 -48.344791 94.700211 8089963
-98.50238 -48.635273 94.18663 9932419
-99.410721 -48.715832 93.746689 11116435
-100.31807 -48.53783 93.411446 11840157
-101.15658 -48.611443 93.0056 11050130
-102.11984 -48.558723 92.594772 11576731
-103.10699 -48.583874 92.141785 11971488
-103.90538 -48.700043 91.736794 9932679
-104.82536 -48.523205 91.376122 8813942
-105.73055 -48.602875 90.885078 11841188
-106.63943 -48.684643 90.390465 10591122
-107.6225 -48.630825 89.914383 12038311
-108.39206 -48.577362 89.546349 14209736
-109.26126 -48.702629 89.053955 10129801
-110.21996 -48.744629 88.551025 10064268
-111.0079 -48.789753 88.133514 8484720
-111.84218 -48.860973 87.681747 8682099
-112.9175 -48.934498 87.106987 9340286
-113.72733 -49.05954 86.645203 8156528
-135.97078 -48.964024 74.381409 9340542
-136.48584 -49.053429 74.023956 10130314
-137.21161 -48.915737 73.63533 9603969
-138.18335 -48.953815 73.017883 8156780
-139.03648 -48.865082 72.529144 8354161
-139.97368 -48.670609 72.034576 8748917
-140.75888 -48.689796 71.540771 7235425
-141.5386 -48.749039 71.0327 7037531
-142.51503 -48.682484 70.458031 7892839
-143.34563 -48.61248 69.975067 8880246
-143.94296 -48.779503 69.532806 8089963
-91.63739 -47.095524 97.887238 8089963
-92.242584 -47.165497 97.587585 10063235
-93.178123 -47.410976 97.068878 10589579
-94.021957 -47.546406 96.635704 8354675
-94.984772 -47.494183 96.224854 7169887
-95.906273 -47.609154 95.76516 8287598
-96.862885 -47.616451 95.333046 9537150
-97.80481 -47.552067 94.936485 9603201
-98.633926 -47.617661 94.538109 10195336
-99.46656 -47.685047 94.13739 9143417
-100.45485 -47.514893 93.762726 9275004
-101.40196 -47.644253 93.285652 9735040
-102.33691 -47.674274 92.854179 11905694
-103.20075 -47.720829 92.447845 12432037
-103.92681 -47.859535 92.066231 9143421
-104.592 -48.096298 91.671944 8089963
-142.47261 -48.107296 70.735466 8090474
-143.70236 -47.920818 70.05658 9209467
-144.24568 -48.018368 69.678009 7565160
-88.909653 -46.291553 99.435204 8089963
-89.658981 -46.371555 99.066788 9274237
-90.58548 -46.544521 98.581398 8353134
-91.451828 -46.625004 98.160316 8747891
-92.418968 -46.510052 97.77285 10918030
-93.331581 -46.615685 97.320831 11181202
-94.296585 -46.661762 96.8694 8485489
-95.259109 -46.505123 96.500763 8419696
-96.133636 -46.654629 96.048164 8485233
-96.904305 -46.658607 95.700836 9997699
-97.828308 -46.480534 95.358192 9932166
-98.69278 -46.68924 94.886185 11576731
-99.657196 -46.88879 94.373108 8880246
-100.65065 -46.847198 93.944206 7697002
-81.897659 -45.177792 103.24452 9275265
-82.761604 -45.245014 102.8003 8616822
-83.627228 -45.314316 102.35348 8616822
-84.611763 -45.27586 101.94524 8222064
-85.438545 -45.315674 101.54094 12695465
-86.325783 -45.459549 101.0343 8879222
-87.126892 -45.622238 100.56333 9208186
-88.081184 -45.558872 100.19325 8945786
-88.9729 -45.549286 99.793762 9931910
-89.913086 -45.577374 99.345825 9273980
-90.863327 -45.610863 98.902077 8616305
-91.76358 -45.566544 98.536064 8616560
-92.73175 -45.5499 98.10173 10194821
-93.57666 -45.679787 97.633354 9077111
-94.421417 -45.860981 97.136414 7235166
-95.287888 -45.827026 96.761414 5392706
-96.059647 -45.919514 96.377853 8024938
-96.989212 -46.032791 95.915192 9537662
-71.528168 -44.066334 109.37845 12828338
-72.356705 -44.092468 108.9203 14605005
-73.184387 -44.119698 108.45863 8946552
-74.010956 -44.14809 107.99356 9866629
-74.836456 -44.177593 107.52494 10721422
-75.798409 -44.213478 106.97357 9274747
-76.875023 -44.253525 106.51068 8617080
-77.647415 -44.32122 106.02691 10919314
-78.492966 -44.368908 105.57369 9406333
-79.34153 -44.419708 105.12114 8747892
-80.190712 -44.472233 104.66586 8486006
-81.040634 -44.52647 104.20781 9012350
-81.936523 -44.616463 103.70178 10459538
-82.855133 -44.656334 103.25394 9012091
-83.772812 -44.728752 102.78256 8024686
-84.664993 -44.715359 102.39448 7564392
-85.663994 -44.712608 101.94974 10129286
-86.612762 -44.815201 101.43913 9208186
-87.490463 -44.892159 100.98127 12695210
-88.447632 -44.826607 100.60847 13815489
-89.330544 -44.907631 100.14493 10853012
-90.215004 -44.990532 99.678162 9010808
-90.953842 -45.061222 99.286972 8353131
-47.978474 -43.096336 122.03757 7038307
-48.653008 -43.266949 121.855 7630439
-49.624592 -43.337872 121.65665 9932422
-50.55685 -43.5383 121.25168 8682099
-51.269012 -43.715611 120.58576 7629412
-52.247341 -43.735493 119.98882 7037274
-53.112118 -43.736717 119.60807 8221546
-53.974129 -43.737946 119.2211 8353133
-54.833355 -43.73917 118.82788 7564643
-55.832043 -43.740604 118.36112 9472125
-56.8269 -43.742039 117.88638 11905694
-57.676418 -43.743263 117.4726 10393227
-58.522881 -43.744499 117.05272 8748660
-59.366306 -43.745724 116.62672 6510930
-60.206612 -43.746948 116.19462 10656658
-61.182915 -43.748379 115.68268 12300967
-62.155018 -43.749813 115.1629 7367271
-62.984779 -43.751041 114.71082 7038307
-63.811157 -43.75227 114.25262 8089963
-64.634224 -43.753494 113.78855 8551026
-65.588684 -43.771519 113.04982 9208442
-66.359779 -43.815907 112.37532 8550766
-67.21936 -43.849823 111.97623 10590093
-68.070198 -43.879539 111.5601 8617331
-68.905113 -43.90078 111.11603 6116684
-69.73896 -43.923153 110.66855 7037530
-70.71048 -43.950703 110.14199 8814197
-71.832977 -43.893024 109.84357 12762290
-72.66523 -43.919155 109.38374 12433836
-73.496513 -43.946396 108.92045 9274748
-74.326843 -43.974792 108.45359 9537920
-75.156166 -44.004333 107.98326 10326664
-75.984573 -44.035007 107.50935 8945528
-76.536278 -44.056065 107.19168 7038307
-47.165165 -42.081593 122.55621 10590351
-47.796124 -42.400307 122.32681 10787729
-48.696857 -42.49472 122.13231 7827564
-49.755512 -42.590168 121.90949 9076858
-50.548233 -42.935661 121.64153 9142651
-46.229683 -41.171246 123.05812 7564651
-46.98077 -41.386749 122.84546 9735301
-47.882191 -41.478119 122.652 11971744
-48.785229 -41.571514 122.4575 9011578
-49.539207 -41.79237 122.24238 7037274
-45.410061 -40.163692 123.5753 11578021
-46.117626 -40.414528 123.35732 8880510
-47.064285 -40.465061 123.17091 8353908
-47.967968 -40.55542 122.97742 10787729
-48.602421 -40.874252 122.74728 12432037
-44.437435 -39.173634 124.11311 9406849
-45.295845 -39.407787 123.87462 8551545
-46.243198 -39.455292 123.68921 7564651
-47.072628 -39.605946 123.48662 7893615
-47.783169 -39.859303 123.26717 9735046
-43.44566 -38.143936 124.66935 10458505
-44.313038 -38.396912 124.42213 9011831
-45.418858 -38.448662 124.20698 8485493
-46.249172 -38.596634 124.00517 8090737
-42.466057 -37.161507 125.20609 10524557
-43.484577 -37.396542 124.93867 10327176
-44.591328 -37.444977 124.72452 11576985
-45.431934 -37.72504 124.47202 11379864
-41.664753 -36.253277 125.6838 10721679
-42.613106 -36.367847 125.47329 11708573
-43.693295 -36.473255 125.24284 10195590
-44.473637 -36.688931 125.02478 11840158
-40.114998 -35.022148 126.41347 10261132
-40.766178 -35.27356 126.20515 9669250
-41.726261 -35.367588 126.0002 8813944
-42.760105 -35.503189 125.76678 11313815
-43.680485 -35.797237 125.49493 12432037
-39.273426 -34.03307 126.92822 9011064
-39.914585 -34.334007 126.70332 9734788
-40.887302 -34.374371 126.51595 9077115
-41.922493 -34.507187 126.28331 8551286
-42.685642 -34.792656 126.04255 7038307
-38.428188 -33.045589 127.44297 7565675
-39.070889 -33.345119 127.21832 7563875
-39.977688 -33.413002 127.03242 8155755
-41.017818 -33.511097 126.81181 9208958
-41.846046 -33.796787 126.55941 8091248
-37.462315 -32.163578 127.94012 8420213
-38.179646 -32.396671 127.72681 7565675
-39.131577 -32.423447 127.54811 9012606
-40.112232 -32.524223 127.33701 7432804
-36.609665 -31.179087 128.45503 9340544
-37.328594 -31.410734 128.24199 8815228
-38.281826 -31.43527 128.06393 9144449
-39.263912 -31.533747 127.85341 11841189
-34.9645 -30.112658 129.34328 7038307
-35.63895 -30.244514 129.12148 9735558
-36.495346 -30.443687 128.83366 13024944
-37.44915 -30.465034 128.6514 10459021
-38.305595 -30.667835 128.36499 9802121
-32.927662 -29.197556 130.49072 10985623
-33.877277 -29.416199 130.09982 10721937
-34.768024 -29.514238 129.85263 11050645
-35.674961 -29.566853 129.64342 11051416
-36.552441 -29.771013 129.32849 14340545
17.342789 -27.985563 158.58777 9537921
16.925243 -28.229925 158.2878 10392974
15.905811 -28.415512 157.72154 8354166
15.105324 -28.339125 157.36664 8748923
14.191597 -28.215326 156.9763 9011838
13.23988 -28.200954 156.52342 9931911
12.43557 -28.485388 155.94383 7433056
11.54446 -28.378046 155.63477 9406590
10.652534 -28.25882 155.25314 15329254
9.7242966 -28.247818 154.81023 16777215
8.9546471 -28.421225 154.21642 14803423
7.9586296 -28.381815 153.90518 10263447
7.0477524 -28.373148 153.46965 7039331
6.181633 -28.25963 153.09813 7827305
5.4168434 -28.504162 152.33611 8549999
4.4914932 -28.641205 152.05132 10260358
3.5681078 -28.573826 151.71169 9405307
2.6273882 -28.654196 150.10971 10130057
1.9049455 -28.655029 150.12015 9143418
1.001774 -28.656078 150.12885 10853780
-1.3281821 -28.659939 148.14127 9603717
-2.3976285 -28.66119 148.12749 9471875
-5.0037918 -28.665382 146.1264 9340801
-6.0585365 -28.666636 146.08578 10459023
-8.4080124 -28.670527 144.07976 9143419
-9.4478722 -28.671778 144.01465 8879991
-10.314167 -28.672819 143.95551 8616563
-12.233032 -28.676207 141.95787 8486262
-12.916092 -28.677036 141.89682 8486262
-13.940067 -28.678286 141.79961 8420207
-16.288532 -28.682209 139.74117 6972769
-17.296864 -28.683453 139.6192 11906721
-18.304447 -28.6847 139.49078 15130319
-20.558903 -28.68853 137.40373 6841176
-21.715397 -28.68998 137.22516 6380367
-22.705616 -28.691225 137.0649 7761248
-25.189529 -28.695374 134.88895 6840404
-26.162666 -28.696613 134.70323 5722439
-27.134457 -28.697857 134.51057 7168603
-28.776211 -28.757694 132.73421 5919050
-29.412502 -28.756426 132.58391 7761772
-30.367914 -28.75676 132.36362 9735305
-31.354956 -28.854197 131.8728 12038055
-32.132565 -28.981251 131.32739 10064521
-33.089344 -28.990877 131.12975 13880515
-33.727261 -28.997765 130.99648 9011579
17.368496 -27.418343 158.82936 10262156
16.714798 -27.471228 158.49295 12497580
15.860985 -27.413868 158.10464 11050392
14.942398 -27.383356 157.6743 7564651
14.074413 -27.429182 157.2375 8682357
13.148224 -27.407404 156.79988 7432032
12.272572 -27.46167 156.35596 7827302
11.37175 -27.619728 155.85796 10525331
10.400368 -27.532623 155.42508 16184820
9.6233025 -27.648321 155.00374 16777215
8.7884827 -27.697006 154.5818 16777215
7.8929405 -27.862833 154.08322 11316136
17.411526 -26.470776 159.23299 10130060
16.673374 -26.556835 158.84247 10064012
15.778767 -26.609348 158.39014 10853270
14.771393 -26.613955 157.90279 7037790
13.761311 -26.90028 157.30023 7037274
13.167274 -26.847473 157.03534 7037274
-127.04359 -50.178349 79.360672 9340539
-116.62622 -49.153183 85.139137 8089963
-117.28829 -49.260471 84.759598 9011063
-119.07494 -49.183994 83.887115 8881021
-119.915 -49.323765 83.403893 8092019
-120.87534 -49.392159 82.889503 9012348
-121.67064 -49.4338 82.469681 8223347
-122.52472 -49.580444 81.97654 13880510
-123.44646 -49.551647 81.521973 11511967
-124.31028 -49.702774 81.022079 8223347
-125.31706 -49.576366 80.564987 9012606
-126.12059 -49.6903 80.108658 10064263
-126.94438 -49.653469 79.652313 8748660
-127.8391 -49.597961 79.124924 12300451
-128.66887 -49.486652 78.662109 9669504
-129.48915 -49.621403 78.097145 9143161
-130.44604 -49.394238 77.606743 8551282
-131.34229 -49.350132 77.073456 8485232
-132.00932 -49.462418 76.612869 8287597
-132.98174 -49.237309 76.110283 7432032
-107.5011 -48.140045 90.179016 11709089
-110.29871 -48.182335 88.744522 7366756
-111.09802 -48.299591 88.291344 8550513
-112.16998 -48.368908 87.720062 9011064
-112.92435 -48.392185 87.328583 10392974
-113.73537 -48.515854 86.866806 7893614
-114.7378 -48.592712 86.327576 7235686
-115.5362 -48.561005 85.936653 9603972
-116.38696 -48.701763 85.447639 10064009
-117.41318 -48.596523 84.971931 8484720
-118.248 -48.632172 84.534599 11708317
-119.22018 -48.589645 84.060249 8881021
-120.04772 -48.555058 83.655731 8090477
-120.83632 -48.732014 83.183197 10130313
-121.83838 -48.572052 82.742455 12959666
-122.7228 -48.727776 82.230179 12696238
-123.66804 -48.565186 81.81929 10721426
-124.52119 -48.602894 81.371834 7565675
-125.29276 -48.735867 80.926163 7894383
-126.32407 -48.534084 80.487915 9472898
-127.17446 -48.720871 79.919739 9077624
-128.02495 -48.578415 79.457848 8748659
-128.88162 -48.616344 78.912888 9406332
-129.7101 -48.646778 78.388664 9340798
-130.54507 -48.637764 77.877701 10261899
-131.38429 -48.630173 77.362976 9735555
-132.22505 -48.665035 76.828087 8353390
-133.10373 -48.711315 76.264572 9274748
-133.98708 -48.576195 75.777367 8287858
-134.76947 -48.679005 75.248695 8550770
-135.60292 -48.584965 74.774475 8813942
-136.52417 -48.466518 74.256592 9208956
-137.4576 -48.429241 73.695755 8814710
-138.25742 -48.435398 73.198471 7893608
-139.16798 -48.328423 72.682159 8617332
-140.72169 -48.200356 71.77742 8089962
-102.55402 -47.105465 92.986183 11708316
-103.19286 -47.194324 92.663757 10195594
-104.20944 -47.425522 92.114456 8091248
-105.13184 -47.508507 91.641472 7893098
-105.98793 -47.622845 91.160126 9274749
-106.76923 -47.633991 90.75943 8617337
-107.67667 -47.572617 90.324936 12368045
-108.65895 -47.590775 89.820023 13880771
-109.50452 -47.76123 89.321304 9208701
-110.38333 -47.522469 88.975601 7038049
-111.31812 -47.612568 88.465118 7563618
-112.1227 -47.730301 88.009026 8747893
-113.06985 -47.554279 87.602737 9866886
-114.01917 -47.65099 87.082161 9209472
-114.82654 -47.700367 86.652992 7696236
-115.77328 -47.553158 86.234947 9669766
-116.6534 -47.741409 85.711372 10129543
-117.56127 -47.568027 85.323868 8879477
-118.43697 -47.653206 84.845268 8813685
-119.25597 -47.624699 84.442612 9669250
-120.25888 -47.644047 83.927002 8089963
-121.09338 -47.608246 83.519508 10524557
-121.96648 -47.735039 83.024979 13419702
-122.93055 -47.534149 82.620445 9931910
-123.73521 -47.714363 82.138412 10787219
-124.66753 -47.681473 81.680183 8354162
-125.54093 -47.828804 81.176979 8683383
-126.36376 -47.873684 80.741394 9604226
-127.42073 -47.821964 80.16243 9801347
-128.12602 -47.906082 79.690582 8748659
-128.99039 -47.6199 79.283188 7762021
-129.94696 -47.706253 78.655075 9472383
-130.76692 -47.65976 78.168686 12498861
-131.6078 -47.649174 77.653427 10261899
-132.45338 -47.640095 77.134514 9735556
-133.30112 -47.673744 76.595673 10195854
-134.09901 -47.66507 76.106064 7564651
-134.95857 -47.660278 75.576721 7892843
-135.80591 -47.621059 75.069893 8089963
-136.7083 -47.588074 74.526375 8879735
-137.50598 -47.693405 73.987152 8617075
-138.36819 -47.658134 73.469437 9275261
-139.28658 -47.629387 72.914169 8814710
-140.03876 -47.736668 72.402237 8879991
-140.94136 -47.635468 71.888336 8089962
-141.90511 -47.602291 71.306923 8287598
-142.69586 -47.53904 70.84565 8090474
-143.38109 -47.592342 70.398621 8354161
-144.29131 -47.414536 69.913521 7301730
-99.017044 -46.287483 94.902802 11905695
-99.802353 -46.388939 94.509567 8946040
-100.79761 -46.346088 94.080429 7894124
-101.59431 -46.675785 93.59005 8486002
-102.36418 -46.630566 93.262924 8683125
-103.39521 -46.521935 92.844231 8025712
-104.3596 -46.655777 92.357666 7565418
-105.22295 -46.714085 91.923973 7630697
-106.08844 -46.489384 91.578339 8748922
-106.9773 -46.650902 91.061218 8090995
-107.9077 -46.674587 90.58046 10591634
-108.76749 -46.486809 90.223274 10459279
-109.61584 -46.654282 89.72438 8354420
-110.56007 -46.683811 89.234238 7696492
-111.43388 -46.499557 88.868446 6708825
-112.29456 -46.673634 88.360626 9340285
-113.28343 -46.63591 87.875793 9735299
-114.14236 -46.528404 87.48571 10459023
-115.01624 -46.709236 86.968384 8880508
-115.89757 -46.658501 86.543381 11379868
-116.72577 -46.783569 86.072334 9076600
-117.66969 -46.891083 85.549942 9800321
-118.62102 -46.890789 85.068558 9537150
-119.46268 -47.022465 84.587967 10064263
-120.13873 -47.129215 84.201477 8089963
-131.63985 -47.073353 77.885078 10261899
-132.78011 -46.866333 77.27037 9735305
-133.45564 -46.974518 76.805466 11182237
-134.28333 -46.873669 76.337738 7959409
-135.19128 -46.6679 75.866226 8879738
-135.96657 -46.833733 75.314438 8616307
-136.84889 -46.629139 74.858231 8419184
-137.82353 -46.586277 74.274338 8551281
-138.56958 -46.687778 73.768692 8814710
-139.43306 -46.66156 73.246223 8090474
-140.42532 -46.623047 72.649567 9274236
-141.12914 -46.662251 72.197266 7695204
-141.83649 -46.702488 71.74234 8682100
-142.84579 -46.668247 71.133224 7827303
-143.73549 -46.648262 70.591858 7565160
-144.59412 -46.652107 70.059258 6775127
-94.501038 -45.295544 97.498444 9076855
-95.357269 -45.355198 97.064056 5919050
-96.259171 -45.452579 96.577133 6708822
-97.269852 -45.447411 96.133575 8945271
-98.171112 -45.512276 95.69043 9734788
-99.092438 -45.620785 95.202721 10918802
-100.00674 -45.696423 94.752625 9603714
-100.84969 -45.465382 94.525719 8617333
-101.72234 -45.612953 94.029762 9011831
-102.66186 -45.731411 93.532364 9866372
-103.67097 -45.690899 93.090378 8025711
-104.4627 -45.79427 92.672043 8814457
-105.3286 -45.834538 92.24897 7696748
-106.31812 -45.688751 91.830894 9143680
-107.24625 -45.804379 91.288681 9341314
-108.02814 -45.90501 90.83889 10262670
-108.87459 -45.840435 90.437355 11183255
-109.83119 -45.969822 89.899475 9143934
-110.63181 -46.079865 89.448608 9538947
-112.51672 -45.984371 88.534233 9406334
-113.16655 -46.076706 88.167023 8484976
-137.78375 -46.104061 74.509491 10787988
-138.97517 -45.90202 73.861107 8682867
-139.50302 -45.988995 73.496727 8090474
-140.31686 -45.990616 72.992805 7366495
-141.24352 -45.877796 72.469162 9537408
-142.22627 -45.843269 71.895477 7827048
-142.89584 -45.886444 71.443703 6840925
-143.84276 -45.714649 70.98143 7301730
-144.64096 -45.887726 70.382042 7038557
-145.30208 -45.559414 70.185127 6511954
-81.697594 -44.088112 104.79022 10853012
-82.38559 -44.120838 104.37149 12630704
-83.210571 -44.161125 103.86559 9736836
-84.034752 -44.202679 103.35603 8090479
-85.019028 -44.20509 102.91081 7958634
-85.867493 -44.201893 102.54797 9010807
-86.711868 -44.257404 102.0501 10326665
-87.564507 -44.318462 101.55811 12761515
-88.528175 -44.339867 101.11833 14276040
-89.430412 -44.339466 100.74265 10985622
-90.294159 -44.409039 100.24811 8221291
-91.162804 -44.482155 99.754372 8945008
-92.032562 -44.557064 99.257301 9142387
-92.913368 -44.638371 98.767036 7695972
-93.810883 -44.728649 98.289116 8485488
-94.716087 -44.732857 97.880417 10984337
-95.785255 -44.622421 97.498177 8617075
-96.631256 -44.750793 97.007355 7827047
-97.477005 -44.713444 96.660408 9668738
-98.375809 -44.713253 96.25853 9537409
-99.13385 -44.86084 95.793312 12365988
-99.888046 -45.073044 95.274734 13023917
-51.868019 -43.403316 121.23497 8221549
-52.721668 -43.407394 121.0754 8156010
-53.654499 -43.457237 120.82687 9076854
-54.396221 -43.684917 120.34503 7826791
-55.431961 -43.739342 119.74495 8419439
-56.438503 -43.740784 119.27346 10261384
-57.298035 -43.742023 118.86249 10787727
-58.154549 -43.743263 118.44526 10919314
-59.008022 -43.744503 118.02192 9471871
-59.858418 -43.745739 117.59241 7103067
-60.846512 -43.747181 117.08335 9866885
-61.830494 -43.748623 116.5664 9143421
-62.670311 -43.749866 116.11657 8748665
-63.506847 -43.751102 115.66062 8419700
-64.340096 -43.752338 115.19868 6117196
-65.169968 -43.753571 114.73071 8551026
-65.996475 -43.754814 114.25681 9406078
-66.95623 -43.756248 113.69617 8222061
-67.911453 -43.757694 113.12788 7169885
-68.726273 -43.75893 112.6342 7564642
-69.537506 -43.760159 112.13467 6840919
-70.345154 -43.761395 111.62929 8682867
-71.149109 -43.762623 111.11807 9867141
-72.082245 -43.764057 110.51416 9538176
-73.010521 -43.765491 109.90276 10459534
-73.812958 -43.773125 109.3884 9866629
-74.645058 -43.800301 108.91684 9537920
-75.47789 -43.82988 108.44486 10326665
-76.309982 -43.860558 107.96928 11643554
-77.141373 -43.892399 107.49004 7038307
-78.130669 -43.887402 107.08932 10261645
-79.025864 -43.887806 106.67115 8879735
-79.939232 -43.913017 106.177 9406079
-80.853012 -43.939777 105.67871 10064522
-81.754913 -43.946812 105.25427 10196364
-82.741455 -43.94529 104.82166 12104616
-83.570381 -43.985653 104.31401 10197131
-84.398605 -44.027138 103.8026 10129289
-85.088089 -44.062634 103.37364 8681843
-50.323658 -42.273232 121.9258 10260875
-50.957371 -42.598045 121.69366 8747893
-51.866646 -42.492889 121.57134 9142651
-52.823673 -42.481148 121.40611 8617074
-53.459782 -42.810925 121.17159 11379348
-49.350273 -41.24173 122.47914 7037274
-50.143597 -41.573685 122.21602 8747892
-51.097881 -41.556862 122.05315 10063496
-51.996403 -41.501778 121.91425 11445401
-52.64679 -41.777573 121.69714 8090987
-48.373669 -40.215023 123.03123 10590351
-49.170109 -40.554947 122.7646 8616306
-50.235558 -40.648121 122.54141 7366239
-51.075127 -40.561035 122.42482 9405822
-47.432404 -39.302467 123.53487 8617080
-48.311672 -39.500912 123.30585 10129546
-49.348076 -39.656399 123.06481 8682100
-50.314228 -39.773247 122.85048 7300446
-46.608261 -38.29221 124.05392 8617080
-47.388897 -38.514832 123.8334 9603460
-48.473988 -38.634106 123.59708 10326668
-49.42944 -38.76532 123.37933 9537409
-45.630154 -37.299408 124.59416 10393227
-46.494762 -37.534027 124.35418 8617078
-47.608929 -37.589546 124.13612 9734788
-48.612976 -37.884304 123.84929 10129289
-44.831219 -36.382618 125.0746 13024175
-45.665447 -36.52737 124.87321 10327434
-46.740696 -36.548187 124.67486 8682867
-47.546078 -36.859035 124.41717 9010808
-43.282307 -35.137486 125.80927 12432037
-43.935261 -35.393757 125.59883 11840671
-44.832829 -35.523262 125.39182 11774622
-45.788937 -35.564934 125.20696 9406333
-46.635544 -35.845688 124.95308 8682867
-42.444164 -34.140011 126.32646 7038307
-43.086483 -34.445808 126.09962 7695979
-43.996983 -34.521538 125.91022 8881014
-44.953854 -34.560471 125.72614 9341564
-45.67197 -34.80621 125.50809 10129799
-41.443516 -33.139183 126.87372 8091248
-42.246342 -33.448662 126.61704 8222577
-43.157795 -33.521961 126.42838 7828075
-44.070553 -33.596897 126.23884 8092011
-44.87468 -33.911343 125.98008 8092011
-40.639256 -32.254429 127.34331 7368039
-41.358326 -32.492168 127.12794 8157041
-42.315228 -32.524292 126.9464 9274751
-43.228939 -32.596817 126.7576 9143931
-43.874424 -32.90316 126.52999 8092011
-39.790821 -31.262402 127.86026 10986137
-40.511272 -31.498566 127.64524 7039331
-41.469227 -31.528297 127.46446 8091248
-42.309383 -31.663347 127.26561 8354162
-43.030903 -31.903278 127.04904 8682867
-38.145336 -30.179018 128.72931 9144449
-38.847736 -30.397064 128.44884 11051674
-39.678959 -30.520277 128.22174 12038568
-40.636631 -30.546318 128.03575 8683898
-41.496468 -30.755865 127.75379 10064779
-34.524437 -29.006987 130.8279 10984852
-35.321609 -29.016914 130.65732 10327179
-36.271976 -29.114193 130.18617 9471871
-37.041553 -29.315174 129.71378 10589835
-37.886608 -29.604782 129.22141 10458250
-38.867867 -29.634827 129.02458 10985880
-39.745346 -29.84392 128.70728 10788759
5.6213837 -28.028486 152.92155 7037274
5.0605087 -27.979734 152.67093 7037274
4.3119316 -28.277235 152.18991 10260358
3.2937968 -28.279451 151.69839 8616561
2.4653857 -28.2985 151.29144 8682867
1.5510255 -28.220901 150.88219 8682867
0.60505313 -28.24704 150.40594 11182745
-0.19031888 -28.396715 149.97189 11577502
-1.0534552 -28.396339 149.55609 8551031
-2.0552442 -28.278852 149.12076 10064011
-2.9779813 -28.298056 148.59972 10261131
-3.7823827 -28.356281 148.23273 9603459
-4.7052536 -28.419451 147.78685 8617592
-5.5803795 -28.350855 147.39282 7564651
-6.556324 -28.240503 146.96709 7564651
-7.3499527 -28.404987 146.36371 8945529
-8.3040504 -28.358236 146.06352 6249303
-9.2018509 -28.424038 145.61795 6512475
-10.054905 -28.361263 145.23221 7893869
-10.974464 -28.545639 144.38908 9076600
-11.710564 -28.608852 143.98601 9668736
-12.735195 -28.670765 143.73544 8681843
-14.963413 -28.679537 141.69496 8420207
-15.985939 -28.680796 141.58296 6972511
-16.837429 -28.681843 141.48416 7564651
-18.807877 -28.685326 139.42375 16775143
-19.478546 -28.686159 139.33115 11051155
-20.483913 -28.687412 139.18658 9866627
-21.153629 -28.688251 139.08649 9866627
-23.200256 -28.691851 136.98189 7761248
-23.859146 -28.692684 136.86823 6511953
-24.846565 -28.693935 136.69215 7103576
-25.668503 -28.694979 136.54013 6445903
-28.104767 -28.699102 134.31084 5919050
-29.073597 -28.700352 134.10417 5919050
-30.041008 -28.701603 133.89049 5919306
-30.84593 -28.702642 133.70721 12432556
-32.611485 -28.775873 131.90692 14997971
-33.572994 -28.78581 131.70755 12169383
-34.412415 -28.847828 131.36133 8024943
-35.175426 -28.804338 131.36894 9011579
11.192799 -27.046219 156.00352 9734788
10.415154 -26.978022 155.65627 14407894
9.6324081 -27.27972 155.15714 16777215
8.5742378 -27.279325 154.64731 15921906
7.7133293 -27.296598 154.22546 9408138
6.8706703 -27.354849 153.79579 7499367
6.0059776 -27.437201 153.34578 6972251
5.0672379 -27.435221 152.8942 7037274
4.1805038 -27.496363 152.44214 9207928
3.2861636 -27.518148 152.00232 8616818
2.3327067 -27.342308 151.61388 8682867
1.4922792 -27.438217 151.1701 8682867
0.53277987 -27.384096 150.72958 9603456
-0.30918866 -27.575298 150.24655 11050900
-1.3000945 -27.406813 149.8371 10524816
-2.1631734 -27.433861 149.41019 9603457
-3.0787923 -27.41288 148.97742 9866629
-4.0486908 -27.519636 148.46686 8946041
-4.8486252 -27.572794 148.05988 9735301
-5.7668533 -27.634848 147.59225 8025201
-6.5497437 -27.663534 147.20337 7564651
-7.5024033 -27.679987 146.73758 6446426
-8.7010193 -27.940126 146.05487 5393738
-9.0442047 -27.914917 145.8996 5393738
17.021252 -26.055077 159.21289 10064012
16.412289 -26.001492 158.94101 10064012
15.596527 -26.119549 158.5002 8551031
14.785828 -26.237793 158.06171 6775130
13.862453 -26.307812 157.58844 7300447
12.908306 -26.299908 157.13181 7037274
12.080013 -26.431278 156.67957 8419183
11.251148 -26.380939 156.30038 7958892
10.314606 -26.375408 155.8513 12499125
9.4083405 -26.566854 155.33719 16184820
8.4960823 -26.443182 154.94751 12959933
7.589138 -26.321272 154.55971 8091763
6.7008781 -26.513735 154.05383 8025452
5.7932167 -26.511543 153.61736 8484716
4.8913689 -26.510483 153.18309 6774102
3.9579813 -26.434496 152.76395 8879733
3.0303576 -26.359966 152.34705 9472383
2.1068232 -26.467266 151.85866 8682867
1.2508394 -26.459604 151.44922 8353903
0.4601633 -26.69692 150.97226 9471870
-0.44703656 -26.625839 150.56378 9866628
-1.348194 -26.734705 150.08549 9603457
-2.0664136 -26.679361 149.7617 9735043
-3.3119276 -26.939518 149.05627 8617075
17.296593 -25.392084 159.61343 10524560
16.436565 -25.432726 159.18259 8551031
15.490143 -25.415104 158.73358 9735046
14.614273 -25.467039 158.29051 7038299
13.699245 -25.443472 157.85904 8551025
12.858997 -25.394308 157.47397 7629412
11.909401 -25.390436 157.01791 8222317
10.928459 -25.533258 156.48744 6314582
10.065826 -25.462055 156.10049 10064011
9.2093697 -25.339149 155.73737 10261389
8.325634 -25.426331 155.27623 9208443
7.3670006 -25.428331 154.81349 8616821
6.6027756 -25.551039 154.3956 7563616
5.6545181 -25.658852 153.89499 8089958
4.776268 -25.650047 153.47527 8287594
3.9647753 -25.707733 153.06096 9011832
2.293442 -25.939796 152.16168 8682867
17.162685 -24.411573 159.94513 9735043
16.273808 -24.465801 159.49484 11050647
15.34565 -24.44396 159.05637 11643039
14.493538 -24.396074 158.66505 7104091
13.530579 -24.394066 158.20175 6775126
12.584389 -24.481377 157.71051 7367265
11.772419 -24.704235 157.22916 7301474
10.870502 -24.594358 156.83891 6183252
10.084858 -24.718573 156.41006 7827816
9.5020905 -24.6723 156.14789 9208443
7.9512634 -24.920799 155.30014 9208443
17.541267 -23.610704 160.45105 6510930
16.926331 -23.561653 160.17453 8089962
16.102325 -23.687698 159.72659 10853010
15.291138 -23.623352 159.36165 10525071
14.269367 -23.92285 158.74825 8090986
13.868599 -23.891119 158.56792 6511954
-124.85936 -47.145798 81.805405 9734531
-125.55965 -47.262547 81.402565 9670020
-126.43887 -47.410309 80.89621 8288365
-127.35246 -47.366955 80.404236 9933191
-128.2337 -47.311188 79.885315 8880246
-129.84518 -47.17725 78.949272 7959144
-116.23674 -46.160999 86.578232 8089963
-116.90108 -46.260288 86.200745 9011063
-117.7347 -46.386185 85.726654 10260871
-118.68753 -46.384304 85.24514 9077371
-119.56388 -46.519753 84.745377 9801605
-120.40135 -46.576366 84.298027 9340285
-121.28928 -46.620647 83.830254 9011063
-122.14816 -46.657337 83.380371 8748404
-123.14896 -46.614891 82.891449 7563618
-124.00117 -46.580338 82.474464 9931910
-124.80357 -46.682682 82.025879 9800580
-125.78113 -46.648647 81.545288 10854037
-126.64281 -46.628357 81.117599 7235677
-127.45613 -46.748058 80.611961 7104091
-128.38393 -46.522213 80.13858 8814709
-129.20151 -46.748863 79.534363 7498849
-130.04071 -46.630772 79.067108 7433056
-130.93701 -46.576508 78.536583 10788243
-131.83882 -46.523819 78.002037 8881019
-132.64497 -46.585728 77.476517 8092019
-133.48882 -46.39502 77.038055 11314079
-134.40608 -46.345776 76.492393 9735305
-136.08516 -46.223 75.507851 8353135
-103.00061 -45.120491 93.84005 10853012
-103.62238 -45.19598 93.497269 8288367
-104.55766 -45.3111 92.980217 9077372
-105.57932 -45.272552 92.531662 8090737
-106.43402 -45.209713 92.154175 10064011
-107.1958 -45.299187 91.690712 10262670
-108.23867 -45.342003 91.125793 10262412
-109.13246 -45.368645 90.650635 11380120
-109.97543 -45.505508 90.105309 8288627
-110.85016 -45.472927 89.697479 9538947
-111.7225 -45.53109 89.222595 7630438
-112.66415 -45.515331 88.737404 8484976
-113.55304 -45.487404 88.320496 8484976
-114.37419 -45.585003 87.841461 7168860
-115.24467 -45.663044 87.357803 9142907
-116.13255 -45.610531 86.934921 10919318
-117.03818 -45.564617 86.51857 8484721
-117.90772 -45.642147 86.014366 9735301
-118.82417 -45.598984 85.591797 8551542
-119.7342 -45.552868 85.157242 9341055
-120.59651 -45.767834 84.574112 9866885
-121.58215 -45.468323 84.285988 10985622
-122.39476 -45.684635 83.724777 9011832
-123.23279 -45.654156 83.306061 6906200
-124.22308 -45.548061 82.890472 9603970
-125.00195 -45.711868 82.381233 10525328
-125.87247 -45.679169 81.962303 12367527
-126.78531 -45.796265 81.41684 7893608
-127.72837 -45.717236 80.946762 6511186
-128.60155 -45.692318 80.413147 9209467
-129.4543 -45.656075 79.923935 7433056
-130.2506 -45.711445 79.408493 9011832
-131.19075 -45.580475 78.902084 8814711
-132.03358 -45.5467 78.422928 12104619
-132.82097 -45.762104 77.774826 8355191
-133.72307 -45.623199 77.300865 13353404
-134.54109 -45.544846 76.874924 12497838
-135.33952 -45.766205 76.216103 10853525
-136.25665 -45.629997 75.730881 9406079
-137.08804 -45.554268 75.294357 8221549
-137.87907 -45.665024 74.703201 10130314
-138.85968 -45.500454 74.228264 8682868
-139.74596 -45.409538 73.752808 7958888
-140.47946 -45.497578 73.219978 7169116
-141.44589 -45.395058 72.715988 10261132
-142.10126 -45.370541 72.333389 9866630
-143.10068 -45.400581 71.688889 7038305
-144.23488 -45.195591 71.17421 7038557
-144.92444 -45.305298 70.648743 6511954
-92.7659 -44.109081 99.805611 10786699
-93.457085 -44.153831 99.343712 7893608
-94.286285 -44.208656 98.785789 9011575
-95.114769 -44.264717 98.223892 11904926
-96.090195 -44.123817 98.279327 9340028
-96.922195 -44.18195 97.70858 8681843
-97.753578 -44.241352 97.133774 8682100
-98.805107 -44.212326 96.770393 8945529
-99.660934 -44.350742 96.142487 10195851
-100.37305 -44.54335 95.563332 9932936
-101.241 -44.597858 95.100807 8617847
-102.18143 -44.637661 94.655045 9340540
-103.06557 -44.561661 94.352905 9274492
-104.01066 -44.601345 93.846382 8090987
-104.8773 -44.74403 93.319962 8748664
-105.67583 -44.690556 92.990768 7761773
-106.68846 -44.632099 92.541733 9932425
-107.58552 -44.693066 92.022881 10459536
-108.41881 -44.791031 91.5158 10261899
-109.30357 -44.699745 91.147987 9998726
-110.14982 -44.834904 90.601883 9077884
-111.09389 -44.78524 90.167717 9472641
-111.99185 -44.69754 89.790039 7564643
-112.84829 -44.838406 89.23381 7432288
-113.63396 -44.938541 88.748993 9932678
-114.52798 -44.886227 88.342407 7300702
-115.62805 -44.894932 87.778351 9011064
-116.36501 -44.902039 87.39949 11379868
-117.29036 -44.912491 86.922112 9142907
-118.09363 -45.021099 86.421463 7827819
-118.57713 -45.087189 86.119728 7038307
-120.09621 -44.953037 85.46817 8814713
-120.74847 -45.044228 85.059372 9012093
-131.17404 -45.11108 79.322235 9142907
-133.18759 -45.0317 78.149986 8092019
-133.83403 -45.124031 77.665474 11051676
-134.73723 -44.887234 77.324402 9734788
-135.55289 -45.00536 76.711578 11248283
-136.5016 -44.959061 76.167442 9208444
-137.29085 -44.889668 75.743195 7563619
-138.15758 -44.8689 75.226334 8222317
-138.98251 -44.860977 74.723694 8551538
-140.01958 -44.734493 74.198242 7695460
-140.7664 -44.885609 73.598679 7629667
-141.66231 -44.731258 73.18605 8484978
-142.58577 -44.707726 72.636703 9143165
-143.49586 -44.696716 72.102264 7038307
-144.19168 -44.726002 71.627632 7038302
-145.0761 -44.787598 71.024849 6511954
-145.95567 -44.61969 70.672928 7498337
-54.898018 -43.383038 120.70558 9866369
-55.949699 -43.487206 120.4808 8880246
-56.893997 -43.437717 120.32733 10392714
-57.776192 -43.742008 119.85326 9735297
-58.639858 -43.743259 119.43256 9406590
-59.500462 -43.744503 119.00573 9998471
-60.500458 -43.745964 118.49961 8682612
-68.340698 -43.757603 114.15303 8156527
-69.299751 -43.759056 113.57307 8617331
-70.117752 -43.760296 113.06931 8354165
-70.932098 -43.761539 112.55972 10196108
-71.742767 -43.762783 112.04427 9275004
-72.549652 -43.764023 111.52293 8814197
-73.352783 -43.765263 110.99585 9274236
-74.284828 -43.766708 110.37337 10655889
-75.211838 -43.76815 109.74342 8682867
-76.002037 -43.769379 109.19717 11314331
-76.788292 -43.770622 108.64516 10327696
-77.570541 -43.771851 108.08751 7038307
-78.219437 -43.772877 107.61861 10985625
-80.04689 -43.774982 107.66063 8089963
-80.563873 -43.775806 107.27361 12697009
-81.33609 -43.777042 106.68872 12631216
-82.104134 -43.778278 106.09829 10196876
-82.867836 -43.779514 105.50237 11183770
-83.793922 -43.802147 104.8506 11907237
-84.764786 -43.85041 104.25235 8945270
-85.596054 -43.893185 103.73545 9734784
-86.515991 -43.860912 103.57462 9208185
-87.311974 -43.887558 103.0063 9800577
-88.139511 -43.931736 102.47308 9538432
-88.926048 -43.956451 102.03844 11183513
-89.996597 -43.938633 101.62504 11512220
-90.966591 -43.996716 100.99333 9010800
-91.903305 -43.972782 100.66055 9931646
-92.655945 -43.948326 100.41129 9734267
-93.591553 -43.956764 99.966873 8551282
-94.424881 -44.011223 99.408493 9537662
-95.257736 -44.066849 98.845947 11444632
-98.188553 -44.061104 97.565277 9010808
-53.238003 -42.143795 121.45718 9537918
-54.037643 -42.496979 121.18514 10392711
-55.1129 -42.605476 120.95459 9143160
-56.032177 -42.715885 120.75091 8814453
-52.263206 -41.101398 122.01475 10984849
-53.061466 -41.439659 121.74846 8946038
-54.138512 -41.555134 121.51501 9472125
-55.204666 -41.724892 121.2634 8879989
-55.85944 -42.006897 121.04324 8682867
-51.483021 -40.184662 122.49149 9011576
-52.198658 -40.446854 122.26788 10130054
-53.321953 -40.520771 122.04155 9537918
-54.324574 -40.697666 121.79858 9209467
-50.60165 -39.211163 123.00703 8287341
-51.37904 -39.420254 122.7921 8222317
-52.341759 -39.480022 122.59947 9143162
-53.286205 -39.680317 122.35816 10064261
-49.835773 -38.356075 123.45846 9011064
-50.515289 -38.45969 123.29977 8813685
-51.519455 -38.453674 123.12408 9997959
-52.361584 -38.613216 122.91598 9735043
-48.816292 -37.458038 123.97066 9537152
-49.685467 -37.492855 123.80377 10326668
-50.694248 -37.430798 123.64793 9537664
-51.413998 -37.688671 123.4252 10524047
-48.018906 -36.532154 124.45413 8747893
-48.903622 -36.567139 124.28436 9405566
-49.820316 -36.449272 124.16541 9011064
-50.586697 -36.666531 123.94925 8353391
-46.4692 -35.272354 125.19444 8682867
-47.124664 -35.533543 124.9817 8682867
-48.072796 -35.553352 124.8063 9077369
-48.949024 -35.498245 124.67132 8945528
-49.634266 -35.749462 124.457 7563619
-46.206291 -34.542107 125.51093 9209211
-47.234867 -34.595081 125.30898 8880246
-48.09914 -34.537811 125.17687 10919062
-48.801449 -34.733593 124.98006 9735299
-44.474857 -33.249195 126.29566 8092011
-45.307316 -33.541073 126.04021 12104100
-46.357494 -33.649483 125.81396 11051928
-47.21162 -33.605461 125.67879 9011832
-43.632641 -32.247917 126.81499 8682867
-44.441761 -32.571941 126.5518 8092011
-45.51757 -32.643143 126.33472 13354940
-46.436954 -32.721031 126.14295 12697011
-42.667568 -31.352102 127.31706 8682867
-43.558208 -31.533705 127.09205 8946039
-44.606281 -31.668634 126.8564 8749428
-45.519001 -31.778837 126.65387 10986136
-41.71962 -30.346321 127.96717 12695984
-42.732002 -30.53129 127.67468 8814197
-43.770313 -30.673382 127.40694 9735555
-44.705956 -30.861799 127.13687 9801350
-37.553661 -29.047798 130.16901 8813683
-38.191494 -29.057623 130.02647 10392457
-39.306847 -29.121996 129.65929 11511969
-40.147682 -29.313242 129.17856 8354933
-40.961533 -29.622572 128.66368 8223091
-41.999424 -29.745285 128.38499 9801350
-42.823544 -29.903019 128.117 8287853
-11.079048 -28.114531 144.83836 10655886
-12.090057 -28.129211 144.34518 10129543
-12.825745 -28.198238 143.96272 9142906
-13.751362 -28.442896 143.41779 9012344
-14.752502 -28.379047 142.98586 9604737
-15.765602 -28.346556 142.7052 8485744
-16.712948 -28.287342 142.4767 7498593
-17.472279 -28.486721 141.96283 7564651
-18.368511 -28.683737 141.29294 9340799
-19.388042 -28.685003 141.15628 8682867
-21.655525 -28.688881 139.00894 10063751
-22.491398 -28.689934 138.8757 8550766
-23.660172 -28.691406 138.68079 7038039
-26.161194 -28.695608 136.4465 7563869
-26.81757 -28.696445 136.31854 6445903
-27.964653 -28.697916 136.08725 6182478
-28.946449 -28.699177 135.88193 6971994
-31.489105 -28.703478 133.55701 14274248
-32.292023 -28.704525 133.36473 15195094
-33.25388 -28.705784 133.12781 14801872
-34.21418 -28.707041 132.88399 13354682
-34.85326 -28.707884 132.7178 10984852
-35.656139 -28.810406 131.2657 8024943
-36.617523 -28.823246 131.05695 8155755
-37.739143 -28.839277 130.80998 8813683
-38.540394 -28.85148 130.63116 9077371
-5.2499542 -27.146461 148.03873 11511452
-5.7756729 -27.107262 147.80124 8551287
-6.7154465 -27.178181 147.31964 7959151
-7.6166496 -27.182386 146.88362 5525324
-8.437603 -27.471977 146.371 5722703
-9.4396667 -27.495378 145.87859 5393738
-10.324677 -27.426477 145.47992 7498082
-11.141739 -27.462061 145.07175 11774622
-12.116272 -27.351727 144.64668 10655886
-13.054565 -27.426088 144.16447 9340797
-13.82449 -27.623547 143.71362 8748660
-14.787071 -27.520233 143.31021 10394509
-15.801449 -27.486893 143.01913 9340541
-16.720905 -27.721062 142.68761 7958888
0.27791613 -26.144104 151.10782 9866628
-0.71936399 -26.157345 150.62183 8682355
-1.5309485 -26.185198 150.21941 8945271
-2.3551557 -26.301291 149.77533 8945783
-3.21014 -26.450678 149.30292 8617075
-4.1586075 -26.477493 148.83496 8485233
-5.0085564 -26.509554 148.41246 9471615
-5.962616 -26.389778 148.00102 10392974
-6.8364868 -26.327211 147.60516 10064777
-7.749855 -26.513021 147.0899 7630952
-8.6933022 -26.503096 146.63922 8091760
-9.5203438 -26.539196 146.22607 6445910
-10.451004 -26.425922 145.82335 7037274
-11.432018 -26.316828 145.39461 11971488
-12.212112 -26.516319 144.9381 10327178
-13.151924 -26.592733 144.45427 8748660
-14.118877 -26.487341 144.03085 7893607
-14.879848 -26.598804 143.63235 9866629
-15.660473 -26.802313 143.31396 9537664
6.0398483 -25.139107 154.29074 8813680
5.4731865 -25.094913 154.03549 7366237
4.6567345 -25.153505 153.61835 9734781
3.7824671 -25.268343 153.1506 8682867
2.8510363 -25.439274 152.63266 10459278
1.9271127 -25.446156 152.18462 9011832
1.0868646 -25.537186 151.74289 8090731
0.14092654 -25.369532 151.35477 10787985
-0.73491269 -25.400757 150.92001 7958376
-1.6430358 -25.426159 150.47214 8221292
-2.5347478 -25.575222 149.98215 9406078
-3.4604337 -25.463776 149.58109 10787732
-4.3163834 -25.497803 149.15485 10130058
-5.2768593 -25.379387 148.73982 8879479
-6.1202087 -25.391369 148.32852 11248538
-7.0765114 -25.5068 147.82101 9341824
-7.9706573 -25.496157 147.39439 10789268
-8.8033829 -25.533989 146.9778 10460304
-9.7905464 -25.599352 146.47565 7037274
-10.589005 -25.604868 146.08859 7037274
-11.4953 -25.661993 145.62875 10129542
-12.332634 -25.954752 145.10686 13090226
-13.177216 -25.900778 144.72168 8485488
11.672161 -24.095339 157.42688 6446423
10.690342 -24.0186 156.98471 7104095
9.9021759 -24.237722 156.51639 8288366
8.9257584 -24.440929 155.96364 9208443
8.1546555 -24.381027 155.61627 9800838
7.2415848 -24.449427 155.14856 9932676
6.32127 -24.477673 154.69363 8814195
5.4027328 -24.302885 154.32159 9471867
4.5391884 -24.473801 153.83638 9406332
3.5647242 -24.510351 153.35194 6511954
2.7179263 -24.474955 152.95816 11775138
1.825142 -24.506638 152.51512 9275261
0.87244433 -24.340313 152.12318 8090987
0.033611469 -24.445627 151.67638 8551538
-0.9248274 -24.401423 151.23233 9010807
-1.7649993 -24.60232 150.74626 8155755
-2.6977689 -24.440948 150.36189 10853012
-3.5138814 -24.61397 149.8987 11445662
-4.5115395 -24.509823 149.45998 11511967
-5.2877502 -24.670105 149.0211 10985367
-6.2255821 -24.724705 148.54712 9932678
-7.0388451 -24.905653 148.08206 9341824
-7.7369041 -24.859116 147.76442 11381404
17.56739 -23.035381 160.69586 6510930
16.951469 -22.987457 160.41841 7563618
16.191383 -23.184172 159.97276 9405565
15.104027 -23.227247 159.43147 10656144
14.208706 -23.38633 158.93581 9077625
13.282383 -23.466133 158.45715 7038298
12.486374 -23.404816 158.0983 7827814
11.610046 -23.337908 157.703 6841180
10.626106 -23.488842 157.16782 7630438
9.6865463 -23.492458 156.71356 10064261
8.8649368 -23.452208 156.33385 9997956
7.9320679 -23.482414 155.87209 10590350
7.0212402 -23.368673 155.47905 11379863
6.1934204 -23.369904 155.07962 10130311
5.2299118 -23.459881 154.57893 10064518
4.3607979 -23.543953 154.12613 9143418
3.4236948 -23.476759 153.70163 6972505
2.5284464 -23.486265 153.26636 10393486
1.6386148 -23.49671 152.83334 10327949
0.82727832 -23.657814 152.3772 8485745
-0.15003949 -23.710337 151.88499 8682612
-0.99927121 -23.892136 151.40224 8484464
-1.7244757 -23.842104 151.07292 9208187
17.593513 -22.458811 160.94122 8090479
16.855251 -22.364456 160.6236 9076857
15.829807 -22.517529 160.06772 9602687
14.930923 -22.449986 159.66188 12695212
14.123775 -22.389866 159.2972 9867141
13.235378 -22.324308 158.8956 8486000
12.237072 -22.478704 158.35226 9012600
11.284515 -22.484278 157.89101 8486259
10.534466 -22.505074 157.52115 8814452
9.6060486 -22.391178 157.11974 10064005
8.665699 -22.424227 156.65323 11313815
7.8066292 -22.496414 156.21007 11050900
6.9218826 -22.47101 155.79391 11182741
5.8851852 -22.731617 155.18898 9209467
5.188324 -22.74411 154.84811 8090987
4.1803246 -22.796543 154.34116 8880246
17.43079 -21.480265 161.25787 9274752
16.607597 -21.420723 160.88522 9340286
15.703735 -21.301022 160.49808 10852753
14.847378 -21.448595 160.02583 12102819
13.87476 -21.456001 159.55423 8354670
12.946323 -21.542549 159.07193 9209723
12.142315 -21.675892 158.63072 10262667
11.413021 -21.687511 158.2746 10460305
10.358128 -21.739513 157.74535 8288624
17.540173 -20.583481 161.67265 9932424
16.435146 -20.636089 161.11894 8616565
14.583637 -20.89299 160.12308 11905440
-123.94263 -45.151936 83.351288 8089962
-126.52287 -45.178303 82.024078 10064777
-127.02925 -45.254131 81.702301 8288365
-127.53074 -45.328457 81.375565 9012344
-129.02666 -45.174545 80.591858 9012344
-129.3425 -45.217655 80.356949 9406590
-101.84329 -44.119244 95.741982 8090991
-102.40202 -44.162876 95.342918 8090987
-104.68831 -44.125805 94.456619 8090987
-105.24937 -44.171921 94.047821 7958635
-106.08225 -44.238392 93.422867 8353909
-107.00822 -44.198284 93.100174 10064011
-107.93666 -44.159092 92.772812 10722194
-108.76198 -44.224728 92.124924 9867140
