# .PCD v0.7 - Point Cloud Data file format
VERSION 0.7
FIELDS x y z rgb
SIZE 4 4 4 4
TYPE F F F U
COUNT 1 1 1 1
WIDTH 1197
HEIGHT 1
VIEWPOINT 0 0 0 1 0 0 0
POINTS 1197
DATA ascii
36.817657 -37.11544 -172.60773 8879990
70.474426 -37.430321 -145.5276 8880245
71.167076 -37.337074 -144.74588 10590347
71.853241 -37.244312 -143.96262 9143417
72.533806 -37.151936 -143.17799 9735297
72.939247 -37.096794 -142.70663 11379607
76.453003 -36.736965 -141.14995 9537918
76.844917 -36.682274 -140.66719 9340801
77.493378 -36.59153 -139.86168 9471615
78.136185 -36.501213 -139.0551 8813428
33.464481 -36.019825 -174.38094 11642782
34.317081 -36.039902 -174.03635 11249562
35.277138 -36.115322 -173.62041 7894383
36.081356 -36.304813 -173.22232 7037274
78.772705 -36.411339 -138.24748 8288630
82.307381 -36.035011 -136.37535 7564651
82.917831 -35.94643 -135.54987 7564651
83.52272 -35.858238 -134.72365 8092019
84.002274 -35.788071 -134.06219 10525071
86.971588 -35.483124 -132.72794 7367005
32.803337 -34.8503 -174.89954 9537918
33.630009 -35.065258 -174.68744 10656913
34.63908 -35.027969 -174.3042 13025456
35.227463 -35.216331 -173.99342 10065291
87.20369 -35.448338 -132.39093 6511954
87.664627 -35.379078 -131.71669 7958884
88.236244 -35.292835 -130.87343 9932163
88.576363 -35.241268 -130.36722 7038307
91.591583 -34.919415 -128.75618 10263180
92.118416 -34.827843 -127.87263 9604994
92.425331 -34.770679 -127.33381 8813942
94.777771 -34.502701 -126.39474 9143163
32.937592 -33.936096 -175.23732 9011833
33.761002 -34.146542 -174.99976 8552311
34.482273 -34.401524 -174.61325 10065291
95.271431 -34.408512 -125.48486 8814715
95.662651 -34.333569 -124.75743 10591124
97.98848 -34.064857 -123.75842 8814707
98.458755 -33.972321 -122.83804 8748402
98.831261 -33.898544 -122.1022 8616048
101.03933 -33.64761 -121.23087 9735046
101.48774 -33.556522 -120.30047 8814200
101.75399 -33.502182 -119.74267 8814200
32.059387 -32.913551 -175.58315 11708315
32.776512 -33.080475 -175.54453 9472127
103.7711 -33.286198 -119.19649 8089963
104.0293 -33.232204 -118.6322 10853012
104.37045 -33.160534 -117.88039 10392461
106.54772 -32.907402 -116.91435 10458249
106.95681 -32.818932 -115.96479 11050128
109.12173 -32.564648 -114.95553 9404792
109.43499 -32.494736 -114.1884 9734269
109.74527 -32.42514 -113.42204 8484461
32.114906 -32.06485 -175.89456 11246995
32.973869 -32.307297 -175.83279 8814712
111.88901 -32.170235 -112.36401 5920074
112.18588 -32.101501 -111.59035 9536891
114.24749 -31.862453 -110.68754 8616819
114.53143 -31.794561 -109.90668 8616819
116.65557 -31.53726 -108.77071 13022893
116.92593 -31.470272 -107.98309 11970720
31.26737 -30.849617 -176.43594 9668734
32.083038 -31.257175 -176.20576 9997440
119.03846 -31.211895 -106.80756 11905692
119.29524 -31.145813 -106.01344 9077371
121.42618 -30.894148 -104.82458 9406078
121.66118 -30.826981 -104.0172 7958120
123.74006 -30.62476 -103.2547 9931651
123.96207 -30.558044 -102.4392 9735044
29.744131 -29.744055 -177.30458 8288368
30.500738 -30.023884 -177.0475 7828331
31.207937 -30.175453 -176.93126 9077111
126.14742 -30.320456 -101.23016 8092019
126.35453 -30.254446 -100.40763 10065295
128.48048 -30.031437 -99.363373 7039331
128.62547 -29.982298 -98.740936 7894383
130.79446 -29.74094 -97.450569 9077881
130.97327 -29.676195 -96.613968 8682867
133.04765 -29.465229 -95.703278 9866374
133.21304 -29.40099 -94.859505 9866374
21.171064 -29.00304 -184.42091 10655114
21.898809 -29.185966 -184.2675 9208955
25.663511 -29.28389 -180.73245 8815227
26.52854 -29.282894 -180.60902 11512224
28.810659 -29.423502 -178.28055 9011065
29.681959 -29.440449 -178.25175 9340030
135.32655 -29.171856 -93.701172 11510425
135.47784 -29.10829 -92.850861 6510930
137.23625 -28.919882 -92.60984 9010549
137.29088 -28.861826 -91.932648 6971738
139.16866 -28.580189 -90.556808 9932166
21.055227 -28.191406 -184.72502 9142647
21.942762 -28.42787 -184.64954 8092019
141.03017 -28.315241 -89.380028 13549237
141.07179 -28.259645 -88.699661 8090995
142.93846 -27.974644 -87.265907 11314845
144.78725 -27.724051 -86.262962 15721430
144.81061 -27.669615 -85.574951 15721430
146.65527 -27.434845 -84.776062 9736836
146.66942 -27.381063 -84.084534 9801858
20.332243 -27.008368 -185.14873 7432799
21.207182 -27.196365 -185.09074 9275263
148.52271 -27.126101 -83.029579 9669243
150.38475 -26.850845 -81.718567 7564651
150.38223 -26.81567 -81.252426 9143422
152.24202 -26.538586 -79.913528 7433056
19.578001 -25.728083 -185.60754 8090475
20.33235 -26.005718 -185.51535 7367010
154.10632 -26.259077 -78.54879 8946296
155.99542 -26.0112 -77.632294 8813683
155.96495 -25.960094 -76.920944 8813683
158.18031 -25.716541 -75.433563 7565675
158.1283 -25.678986 -74.945633 7565675
160.40791 -25.442404 -73.447861 9209459
19.469198 -25.014168 -185.86725 7959145
20.277998 -25.069839 -185.8569 7038302
162.66266 -25.183548 -71.664581 11905692
164.96727 -24.928326 -69.859764 12629674
167.29036 -24.671745 -68.01799 9735559
169.61784 -24.411463 -66.132339 6972768
18.811811 -24.083916 -186.19945 8946556
19.635458 -24.168791 -186.17845 9142909
171.9502 -24.147427 -64.202507 8681835
174.28745 -23.879646 -62.227932 9867655
176.74889 -23.642975 -60.720512 10326407
179.10748 -23.367178 -58.657745 8485494
18.695601 -23.114061 -186.55304 9670536
19.44261 -23.272247 -186.50421 8618102
181.45744 -23.085438 -56.543633 8945528
183.94716 -22.832243 -54.900742 9406332
17.948996 -22.045401 -186.93527 8157811
18.691786 -22.143244 -186.90846 11578018
17.259275 -21.005615 -187.30757 8092019
17.938231 -21.012316 -187.31332 10131602
18.609854 -21.244192 -187.2366 7565675
17.061491 -20.103506 -187.63541 9539465
17.890089 -20.186441 -187.6151 12895164
16.409216 -19.195543 -187.95993 8092019
17.224714 -19.247761 -187.9507 10986911
15.5474 -17.6052 -188.53174 10130057
16.388388 -18.007854 -188.39453 8748917
17.11138 -18.523306 -188.21458 8092019
15.570014 -16.810856 -188.82281 10130057
16.323637 -17.005396 -188.76077 11577503
14.926147 -15.794607 -189.33688 10393485
15.687285 -16.065468 -189.15587 11577503
14.061942 -14.903019 -190.00943 5130305
14.824897 -15.173491 -189.81088 7104093
15.637465 -15.355801 -189.6804 8090986
12.529174 -14.504247 -191.06561 9011577
13.447898 -14.507558 -191.06212 5064259
42.735348 -40.649067 -168.15201 9734782
43.494076 -40.605114 -167.76842 11906725
44.250343 -40.561451 -167.38254 9931910
40.294846 -39.768795 -170.16641 5919050
41.194874 -39.891453 -169.73447 6511187
42.065353 -40.02866 -169.27478 7958115
42.911373 -40.141582 -168.85229 9734782
43.847748 -40.297977 -168.30991 10393226
45.174774 -40.492592 -166.83624 9142649
46.057487 -40.391216 -166.15076 8089963
46.756454 -40.307785 -165.58946 9406335
47.451344 -40.224659 -165.02628 8090987
48.31403 -40.121113 -164.31961 9406590
49.17078 -40.017876 -163.61024 8682867
49.851463 -39.935604 -163.04056 10261900
50.528111 -39.853539 -162.46918 9472895
51.368088 -39.751335 -161.75238 9209723
52.202137 -39.649521 -161.03314 9801604
52.864685 -39.568314 -160.45572 9209467
39.574883 -38.962708 -170.77271 8550770
40.4146 -38.961254 -170.43535 6971738
41.353203 -39.01276 -170.03743 7563874
42.189926 -39.013145 -169.70056 9011320
42.795578 -39.547138 -169.24713 8681835
53.686977 -39.467224 -159.73158 9604736
54.503464 -39.366516 -159.00516 10459787
55.151958 -39.286167 -158.42207 11051667
55.79644 -39.206161 -157.83748 9539200
56.596233 -39.106453 -157.10451 9209723
57.232124 -39.027008 -156.51659 9209467
38.234154 -37.620987 -171.83911 10853012
38.842522 -37.933144 -171.47173 9669250
39.588512 -37.990387 -171.14905 9603457
40.559704 -38.165737 -170.68936 8616306
41.528427 -38.341881 -170.23038 9011320
64.417023 -38.23008 -152.0316 11511962
64.863983 -38.171955 -151.57108 11511962
65.604004 -38.075451 -150.80199 8551283
66.338242 -37.979328 -150.03123 8090736
67.065948 -37.883686 -149.25864 8748665
67.78788 -37.788429 -148.48453 9734782
68.360855 -37.712517 -147.86389 10458509
68.929848 -37.636898 -147.24228 11379348
37.304222 -36.818531 -172.52847 8617075
37.961929 -37.045818 -172.17458 10129802
38.879822 -36.971588 -171.83435 10458510
39.860489 -37.077343 -171.39816 9997959
40.612213 -37.539059 -170.91434 9142651
73.510971 -37.142597 -144.67723 9143417
74.190102 -37.049702 -143.87769 9998985
74.862686 -36.957188 -143.07684 10985364
75.529625 -36.865105 -142.27483 13550517
76.05864 -36.791759 -141.63237 10524555
36.392464 -35.698807 -173.33516 6774102
37.159573 -36.105518 -172.86674 6905944
38.1502 -36.160252 -172.44658 9143675
39.062717 -36.170811 -172.07526 9866629
79.805099 -36.393833 -139.66882 13485753
80.439507 -36.303425 -138.84676 16774119
81.068237 -36.213459 -138.02382 11709087
81.690628 -36.124031 -137.19998 8946044
85.200737 -35.746159 -135.25264 8092019
85.79673 -35.658039 -134.41165 9144191
86.387131 -35.570374 -133.57005 8287596
86.738564 -35.517899 -133.06493 7367005
35.65221 -34.88504 -173.95264 9276033
36.524441 -35.000763 -173.55618 7301217
37.479355 -35.051067 -173.15215 7300959
38.287868 -35.247234 -172.74976 8946296
89.809006 -35.193977 -131.50139 10656661
90.484619 -35.09053 -130.4725 9209217
91.041443 -35.004822 -129.61478 9736070
93.466042 -34.75042 -128.76376 7564651
93.77224 -34.69289 -128.21666 7827307
94.277824 -34.597527 -127.3054 9011577
34.137596 -33.569752 -175.07874 7565675
34.770977 -34.109528 -174.61182 12038820
35.705925 -34.145943 -174.22128 10459792
36.711029 -34.110504 -173.83072 8289397
37.441303 -34.15556 -173.51915 8748918
96.932617 -34.270664 -125.78645 8089963
97.416222 -34.176773 -124.86411 9537660
97.703514 -34.120659 -124.31105 10064771
99.753769 -33.905727 -123.84132 9208955
100.03307 -33.850014 -123.2813 8616563
100.49385 -33.757668 -122.34869 9010808
102.71718 -33.504196 -121.45824 9340030
102.89518 -33.467628 -121.08086 7563619
33.38216 -32.747532 -175.68477 8814712
34.103626 -32.894154 -175.35767 8551797
35.022385 -33.167755 -174.88048 10525328
35.938053 -33.167221 -174.51225 9933193
36.557346 -33.483658 -174.1387 9012606
103.16032 -33.412971 -120.51508 8418928
103.51066 -33.340343 -119.76132 8682100
105.71213 -33.086163 -118.8175 7564385
106.04913 -33.014336 -118.0556 8813939
106.29959 -32.960693 -117.48467 10458249
108.32204 -32.741043 -116.87771 7563619
108.56421 -32.687851 -116.30048 6510930
108.88409 -32.617283 -115.53163 7234395
33.425758 -31.996986 -175.92058 9077627
34.318741 -32.123768 -175.57367 8617333
35.18092 -32.121861 -175.22743 9143419
111.05531 -32.361042 -114.49656 9931904
111.43752 -32.273888 -113.5263 7497824
113.52217 -32.033806 -112.64454 8879479
113.88744 -31.947809 -111.66525 8813686
115.96434 -31.706396 -110.74494 6972762
116.24348 -31.638449 -109.9543 10064007
116.45061 -31.587727 -109.36211 10984340
32.66993 -30.721954 -176.55736 10457478
33.488312 -31.16584 -176.25775 10129285
34.432098 -31.301104 -175.86295 9077369
118.31466 -31.395588 -108.99775 7038307
118.58069 -31.328497 -108.20036 9603456
118.84373 -31.261707 -107.40392 10590091
120.76128 -31.080723 -107.05161 9538176
121.00591 -31.012569 -106.24081 10589840
121.24761 -30.944757 -105.431 9406078
123.22751 -30.776131 -105.09455 9931651
123.40028 -30.725521 -104.48048 9208187
123.57135 -30.675013 -103.86714 9931651
125.77623 -30.436871 -102.67323 9998988
31.905165 -29.893204 -177.16898 10063232
32.754204 -30.120201 -177.02084 10457478
125.98988 -30.370199 -101.84795 9538694
128.13411 -30.146793 -100.81915 9537923
128.33327 -30.080729 -99.986649 8288627
130.47295 -29.855217 -98.918739 10131081
130.65817 -29.789726 -98.079086 9538688
132.79317 -29.562197 -96.972122 9538688
132.92146 -29.513559 -96.337112 9538688
22.596663 -28.88225 -184.49149 11051672
23.32527 -29.133421 -184.2193 11116953
24.313833 -29.288513 -183.89441 9143936
27.176878 -29.282146 -180.51375 10591380
27.824797 -29.281399 -180.41599 9275007
28.688253 -29.280396 -180.28212 9734787
30.335882 -29.453522 -178.22928 9734788
31.208723 -29.471352 -178.19791 9865856
135.09375 -29.267847 -94.97982 8485494
137.15077 -29.042896 -93.989342 14075837
137.19423 -28.981237 -93.298714 10260359
139.06357 -28.693096 -91.913696 7564392
140.94177 -28.427244 -90.74646 11707804
140.97195 -28.389742 -90.290161 11707804
22.49243 -28.171724 -184.75002 8092019
23.299063 -28.230459 -184.73848 10065035
141.00146 -28.352442 -89.834793 13549237
142.87126 -28.08503 -88.636826 11643553
144.73601 -27.833685 -87.644127 7039331
144.76244 -27.778692 -86.952515 9933193
146.63374 -27.50716 -85.701447 9736836
21.782598 -26.872717 -185.21623 10065035
22.516729 -27.255045 -185.08551 8749691
148.50894 -27.233261 -84.424805 10393225
150.38841 -26.957098 -83.122452 9143422
150.38722 -26.903822 -82.419632 9143422
152.26514 -26.643387 -81.323334 9867141
154.14728 -26.36277 -79.966675 9735812
21.152723 -25.75087 -185.61865 9735561
21.68244 -26.0261 -185.52455 10590868
22.485891 -26.216974 -185.46471 12038052
154.13429 -26.328091 -79.492996 9735812
156.03177 -26.063858 -78.349739 7827046
158.28189 -25.791986 -76.413086 9209728
160.61682 -25.573933 -75.174591 9209459
160.52823 -25.517353 -74.43306 9209459
20.953955 -25.079418 -185.86171 7564651
21.777777 -25.165937 -185.84023 10459283
162.90326 -25.31451 -73.403511 8681835
162.80113 -25.258139 -72.656754 8681835
165.17879 -25.036659 -71.350433 9735043
165.07385 -24.982342 -70.603813 8682867
167.49028 -24.761539 -69.268303 10459281
167.4109 -24.7255 -68.767265 9011838
169.84123 -24.500845 -67.391342 12433069
169.7524 -24.46501 -66.886749 12433069
20.320562 -23.954472 -186.26527 7564651
20.852064 -24.229803 -186.17114 7959409
21.657766 -24.419975 -186.11157 9735561
172.19727 -24.236296 -65.469894 8681835
172.09889 -24.200668 -64.962036 9932161
174.66611 -24.00362 -64.015785 9341571
174.50468 -23.950285 -63.247902 9933707
177.04311 -23.731161 -62.006996 9209467
176.92589 -23.695843 -61.491386 9209467
179.36304 -23.437191 -59.692657 8287084
19.467085 -22.600729 -186.75034 12039591
20.128698 -23.056835 -186.59138 7960427
20.9158 -23.179001 -186.55627 8749178
181.74826 -23.156931 -57.589119 7564135
184.2881 -22.907154 -55.963524 8090475
19.34339 -21.851435 -187.02313 13355451
20.171019 -21.935936 -187.00226 8092011
18.625456 -20.794449 -187.40146 7565675
19.435392 -20.983093 -187.34219 8486769
19.969671 -21.259142 -187.24756 10065801
18.500143 -20.042059 -187.67542 12433327
19.330015 -20.125631 -187.65485 7827815
17.778524 -18.981472 -188.05493 10986911
18.680258 -19.215841 -187.9801 12235691
17.737494 -17.92425 -188.4415 9341314
18.483839 -18.308584 -188.30981 13617087
16.933462 -16.934137 -188.79425 13024949
17.752905 -16.985836 -188.78525 10788244
16.967985 -16.029469 -189.19748 13486014
17.868048 -16.25832 -189.05301 14408144
15.664435 -14.911528 -190.02057 8090986
16.337873 -15.137608 -189.85504 10656657
17.010405 -15.364037 -189.68921 9735812
14.597091 -14.511969 -191.05664 5920074
15.28678 -14.514775 -191.05273 5920074
43.530338 -39.928391 -168.75085 10787985
44.113724 -39.907509 -168.50902 9932934
44.854042 -40.071968 -168.04666 7300446
45.818756 -40.036041 -167.63069 8879478
46.692425 -40.056404 -167.15048 8089963
47.473095 -40.132725 -166.60555 8288365
48.035683 -40.102558 -166.31256 6511954
42.672741 -38.7211 -169.62091 10985366
43.336796 -39.115559 -169.19882 10393226
44.293991 -39.027691 -168.84813 9538176
45.171818 -39.18013 -168.43503 7893096
45.925133 -39.455044 -168.02394 8089963
57.279308 -39.139835 -159.00325 10788244
57.760925 -39.079498 -158.55409 10984337
58.558609 -38.979153 -157.80363 10655629
59.350311 -38.879196 -157.0511 9340284
59.978981 -38.799538 -156.44742 9340539
60.603657 -38.720142 -155.84235 9932675
61.378628 -38.621319 -155.0842 8879989
61.994572 -38.542534 -154.47626 8089963
41.564178 -37.924595 -170.37982 9011320
42.53109 -38.102173 -169.92102 13024949
43.514317 -38.072353 -169.53708 12300966
44.38821 -38.150703 -169.15465 9670019
62.300873 -38.503216 -154.17177 8813683
62.758312 -38.444427 -153.71443 8813683
63.515728 -38.34676 -152.95058 10853518
64.117729 -38.268898 -152.3383 12433061
69.59623 -37.671089 -149.12943 7564651
70.167038 -37.594826 -148.49612 7959151
70.734528 -37.518734 -147.86205 8814200
40.285938 -36.715347 -171.36919 10261132
40.891541 -37.029465 -171.00208 8484720
41.833233 -37.083057 -170.60205 9537664
42.81987 -37.052921 -170.2169 11314331
43.517353 -37.309868 -169.83528 11905951
71.016663 -37.480831 -147.54459 8814200
71.577583 -37.405178 -146.90884 11905951
72.273819 -37.310982 -146.11311 13023917
72.826233 -37.235973 -145.47552 8092019
76.808182 -36.81538 -143.43764 7564643
77.206291 -36.759827 -142.94724 8288109
77.864914 -36.667664 -142.12914 8288109
78.51786 -36.575966 -141.31009 8813428
79.035706 -36.502861 -140.65404 8813428
39.560497 -35.903111 -171.98007 9142651
40.139336 -36.093311 -171.67245 8616306
41.1311 -36.061756 -171.28574 8089962
42.121181 -36.031357 -170.89926 8814199
42.696098 -36.222939 -170.59264 9735814
79.421623 -36.448269 -140.16159 10984593
82.756195 -36.103279 -138.60988 9209467
83.376144 -36.013344 -137.77158 7366237
83.990494 -35.923805 -136.93265 6642515
84.598373 -35.834778 -136.09294 6643287
87.731133 -35.508282 -134.58459 6510930
87.965897 -35.473091 -134.24225 6511954
38.720371 -34.813183 -172.74617 9801348
39.429333 -35.06955 -172.3602 9208955
40.379311 -34.986904 -172.01038 8089962
41.274017 -35.151207 -171.5858 9142651
41.977493 -35.408985 -171.20151 9142651
88.199669 -35.437904 -133.89995 8287592
88.663986 -35.367867 -133.21498 7630176
89.239639 -35.280663 -132.35841 6971738
92.079514 -34.989311 -131.08904 10129289
92.631325 -34.902256 -130.21413 8485493
93.157425 -34.808094 -129.31111 8617080
95.547737 -34.536732 -128.37334 10458249
95.848412 -34.479305 -127.81843 10458249
37.986469 -33.997017 -173.36201 9735812
38.71489 -34.043221 -173.05077 9867141
39.637417 -33.971813 -172.70757 9143675
40.29496 -34.203316 -172.35202 8090474
96.147148 -34.422077 -127.26382 9010806
96.443436 -34.365158 -126.7096 8089963
98.997955 -34.055332 -125.33664 9340542
99.472122 -33.961632 -124.4018 9471871
101.81341 -33.68856 -123.34811 9010808
102.08693 -33.632992 -122.78074 10853012
102.44839 -33.55925 -122.02472 8945787
36.217312 -32.650776 -174.60266 9012606
37.000347 -32.926109 -174.17944 9670021
37.905323 -33.077126 -173.75595 9867399
38.884098 -32.985657 -173.39798 10590864
39.565235 -33.385532 -172.96692 9932934
104.76662 -33.28548 -120.91713 9340030
105.1134 -33.212677 -120.15301 8089963
105.45717 -33.140213 -119.38953 8089963
107.66555 -32.883934 -118.41977 9471356
108.07759 -32.79443 -117.4556 9010806
110.27371 -32.536991 -116.44211 8353647
110.58908 -32.466263 -115.66312 7037274
35.471092 -31.829569 -175.22552 10261387
36.263966 -32.014721 -174.83369 10393486
37.27248 -31.981707 -174.44083 9932937
38.077789 -31.956125 -174.1268 9209472
38.664295 -32.149113 -173.81505 9012350
110.82335 -32.413479 -115.0796 9931904
113.0011 -32.155266 -114.01867 7038043
113.30043 -32.08569 -113.23302 7563619
115.4673 -31.826246 -112.13144 7103836
115.75284 -31.757574 -111.33855 6511954
117.84024 -31.514009 -110.39664 9011323
118.11263 -31.446209 -109.59691 8024687
33.971039 -30.638092 -176.50023 10063750
34.772343 -30.71237 -176.11609 8617075
35.547478 -30.99221 -175.61043 10392973
36.410042 -31.101398 -175.19405 10919317
37.268421 -31.209669 -174.76955 10195852
37.925625 -31.326595 -174.4353 9012350
120.32355 -31.200832 -108.474 9998727
120.57499 -31.132042 -107.66076 10459278
122.81592 -30.895126 -106.5304 8881019
123.05241 -30.82704 -105.70941 9538947
125.22752 -30.605061 -104.74245 8484979
125.44952 -30.537516 -103.91374 8484979
33.455704 -29.838243 -177.25827 9931646
34.134132 -30.072561 -176.89813 9866625
35.003063 -30.07268 -176.55087 8748917
35.6632 -30.186079 -176.19125 9143419
127.67319 -30.296698 -102.69778 8289133
127.88004 -30.229822 -101.862 8486771
130.18907 -29.954008 -100.18115 11380636
132.48624 -29.676424 -98.457512 8946295
132.66306 -29.611034 -97.607925 9538688
134.6889 -29.429703 -97.120049 8813686
134.77167 -29.397076 -96.690979 11380380
24.617491 -28.920675 -184.50241 9670277
25.414015 -29.287264 -183.74728 9209467
26.29347 -29.286255 -183.62531 9209467
29.335546 -29.27964 -180.17903 8287342
30.197691 -29.278635 -180.0376 9340285
31.059378 -29.277618 -179.89264 11905692
32.519852 -29.498886 -178.14841 10654857
134.89406 -29.348488 -96.048401 11380380
136.96866 -29.14835 -95.314529 9932937
137.08199 -29.100018 -94.666054 14075837
138.95164 -28.807158 -93.277466 7696489
140.84673 -28.540462 -92.119774 7564392
140.89505 -28.483702 -91.43235 9866627
23.97357 -28.242985 -184.7422 8354675
24.766493 -28.147039 -184.78709 9866885
142.78487 -28.215231 -90.245049 8353643
142.82312 -28.159231 -89.554398 8682867
144.6783 -27.944534 -89.03273 8682867
144.70805 -27.888981 -88.337357 7039331
146.59644 -27.616476 -87.095383 11578528
23.142683 -26.673052 -185.30603 8092019
23.852911 -27.185772 -185.12732 9340801
148.48927 -27.341599 -85.827408 12630698
148.49655 -27.305305 -85.358932 12630698
150.38722 -27.028606 -84.063049 7037274
152.27998 -26.731615 -82.504028 10787729
154.18224 -26.467812 -81.392914 11380380
154.16541 -26.41514 -80.678902 11380380
23.038649 -25.958765 -185.56592 11577503
23.849325 -26.016853 -185.55473 9471871
156.1282 -26.15871 -79.569778 7563874
158.4053 -25.886951 -77.642647 8617336
160.70363 -25.630768 -75.918839 10590609
163.00371 -25.371086 -74.153076 7038307
22.385908 -25.026423 -185.89882 13354171
23.211271 -25.11375 -185.87704 9932165
165.31642 -25.109455 -72.349533 7893615
167.64699 -24.83396 -70.273956 6840922
170.01683 -24.572886 -68.404053 10788247
172.48886 -24.343988 -67.000443 9144449
21.676023 -23.973125 -186.27509 9735561
22.345243 -24.206451 -186.1981 10853781
23.024115 -24.216602 -186.20277 10261132
172.34361 -24.290041 -66.234024 9274230
174.82622 -24.057158 -64.786705 8092019
177.21803 -23.784491 -62.782848 9209467
179.61647 -23.507767 -60.732582 9734527
21.535048 -22.985538 -186.63457 10985627
22.343313 -23.17605 -186.57481 9603455
182.09016 -23.244492 -58.897415 7564651
181.95372 -23.209383 -58.373108 7564651
184.6546 -22.994453 -57.28257 7563619
184.50838 -22.959452 -56.753883 7563619
187.09157 -22.704948 -55.09359 9933193
20.851034 -21.944212 -187.00751 8092011
21.665907 -21.999424 -186.99716 10656914
20.659079 -21.041918 -187.33548 8552562
21.489126 -21.126925 -187.31448 9801607
20.011671 -20.132832 -187.66055 8092011
20.828688 -20.186943 -187.65059 8420464
19.956167 -19.183083 -188.00752 7563619
20.720175 -19.462633 -187.91449 7828331
19.181761 -17.906435 -188.46555 10261388
20.006018 -18.24695 -188.35085 8090219
18.309797 -16.717209 -188.8903 9735812
19.215719 -16.952208 -188.81529 10130058
18.346434 -15.927954 -189.284 12039082
19.097242 -16.119171 -189.16414 9735812
17.578268 -15.100805 -189.89685 13486785
18.548643 -15.22589 -189.81186 12828854
11.844123 -14.312544 -195.03444 8486262
15.977035 -14.51783 -191.04831 5920074
16.897902 -14.522052 -191.04172 7038307
47.020233 -39.810196 -167.29901 6511954
47.79274 -39.786152 -166.97589 7696228
48.677151 -39.914997 -166.29529 7959144
49.569653 -39.851013 -165.95035 8222317
50.269821 -39.982086 -165.12096 8748664
51.148777 -39.896885 -164.47096 11512476
51.82848 -39.814003 -163.88658 10328715
52.503963 -39.731365 -163.30052 9210491
53.342403 -39.628399 -162.56549 11512223
54.009048 -39.546288 -161.97586 8092019
45.613117 -38.63512 -168.4715 7037274
46.303272 -38.892715 -168.09256 8945270
47.179043 -39.059765 -167.67456 7104091
48.108173 -38.983997 -167.32562 7104091
48.7887 -39.239712 -166.9317 8617330
54.34066 -39.505352 -161.68033 11380380
54.836037 -39.444096 -161.2363 9144448
55.49313 -39.362625 -160.6429 9802371
56.308594 -39.261135 -159.89893 9933189
56.956852 -39.180172 -159.30225 10788244
44.7113 -37.830128 -169.1505 9143419
45.476063 -38.016586 -168.76953 9143419
46.454731 -37.990719 -168.38589 9340798
47.432095 -37.966042 -168.00223 8025193
47.997253 -38.159637 -167.69884 8288365
64.731354 -38.311527 -154.31369 11379348
65.335632 -38.232922 -153.68933 11248531
66.085022 -38.135052 -152.90715 8485488
66.82856 -38.03756 -152.12335 8090987
67.418701 -37.959923 -151.49496 9143166
68.15052 -37.863205 -150.70807 8090732
68.876526 -37.766926 -149.91956 8420464
69.309097 -37.709404 -149.44574 7564651
43.948513 -36.881229 -169.83009 9867399
44.788261 -36.996521 -169.44693 8945783
45.658005 -36.973209 -169.10608 8156523
46.524673 -37.262535 -168.64371 9012089
73.958359 -37.208469 -146.85812 11314844
74.646538 -37.114208 -146.04559 9867913
75.328957 -37.020321 -145.23193 12696498
76.004776 -36.926895 -144.41699 9210242
76.541458 -36.852489 -143.76428 7564643
43.192165 -35.958183 -170.49696 8420726
44.096264 -35.974384 -170.12683 8092019
45.006599 -35.90815 -169.78653 12103073
45.835583 -36.275234 -169.30873 8090986
80.473221 -36.430977 -141.62097 10064265
80.987396 -36.357624 -140.9528 12037799
81.497658 -36.284618 -140.28404 12103590
82.129745 -36.193722 -139.44734 9998983
85.697144 -35.81078 -137.49075 9866625
86.302376 -35.721237 -136.63661 8682098
86.902008 -35.632202 -135.78203 8287341
87.377197 -35.561272 -135.09787 7366239
41.652554 -34.581585 -171.6571 9142651
42.349964 -34.91003 -171.24757 10261384
43.259144 -35.204697 -170.76598 9407106
44.17215 -35.137707 -170.42484 8881020
44.889503 -35.188175 -170.11632 12038569
90.38018 -35.250648 -133.70197 8089962
90.952744 -35.163094 -132.83133 7564134
91.518875 -35.07597 -131.96031 7761773
94.426109 -34.749058 -130.41019 9735046
94.837326 -34.671532 -129.66905 9735043
95.244637 -34.594357 -128.9285 10458249
40.783184 -33.908592 -172.27132 8748405
41.630291 -33.911591 -171.92929 9932420
42.62138 -34.064877 -171.47025 10787727
43.427681 -34.196087 -171.09419 12366245
44.229111 -34.509361 -170.64874 11379865
97.63961 -34.320805 -127.95928 7563619
98.03228 -34.244503 -127.20926 9274233
98.518311 -34.149582 -126.27242 9209209
100.79185 -33.89418 -125.4322 9735043
101.16663 -33.819122 -124.67377 9997959
101.53752 -33.744366 -123.91595 9010808
103.7926 -33.487892 -123.02296 9406338
40.054478 -33.089993 -172.88605 9011832
40.781055 -33.138458 -172.57462 8222573
41.777977 -33.109707 -172.18475 8880246
42.700844 -33.153912 -171.79601 10787727
104.2386 -33.395535 -122.06506 9603202
104.59161 -33.322056 -121.29955 9340030
106.7396 -33.082977 -120.54597 6511954
107.16389 -32.99213 -119.5787 12300194
109.38779 -32.733345 -118.58937 8616307
109.71292 -32.661644 -117.80779 8287598
110.03493 -32.590282 -117.02694 8814454
38.697567 -31.725739 -173.9678 9012350
39.313244 -32.044815 -173.59476 10064778
40.068218 -32.106709 -173.26669 9932934
41.068699 -32.077869 -172.87543 10393229
41.976875 -32.33321 -172.40967 8288109
112.23793 -32.330772 -115.9874 9537918
112.62252 -32.242699 -115.00213 8222316
114.66463 -32.017048 -114.31728 9340030
115.03271 -31.929985 -113.32263 9340030
117.21466 -31.668003 -112.20077 5920074
117.49469 -31.599358 -111.39827 6249039
37.771179 -30.920315 -174.7359 9932681
38.554607 -31.102716 -174.3143 8749435
39.360416 -31.079514 -174.00371 9209728
40.279766 -31.094318 -173.62173 13024949
41.139442 -31.232479 -173.17889 15196118
119.87448 -31.322062 -109.90027 9274749
120.13266 -31.252657 -109.0847 8682867
122.39314 -31.015274 -107.97047 9867141
122.63634 -30.946445 -107.14702 7038307
124.82961 -30.724169 -106.19647 7761515
125.05831 -30.655979 -105.36507 8484979
127.30194 -30.414536 -104.16469 9735811
35.315834 -29.796207 -176.65286 11379356
36.11813 -29.87331 -176.27261 9669507
36.966431 -30.083374 -175.76939 9734787
37.746292 -30.259912 -175.30527 9669509
38.678738 -30.298307 -174.8833 8749435
39.454208 -30.476208 -174.42403 8092019
127.51541 -30.347057 -103.32593 7367775
129.69856 -30.120453 -102.29331 9208443
129.89725 -30.053644 -101.4473 10655889
132.0298 -29.841557 -100.5885 8682867
132.21481 -29.775221 -99.734924 9209723
134.43542 -29.527891 -98.409698 8089963
134.56308 -29.478697 -97.764412 8813686
25.967901 -28.948063 -184.509 11314844
26.801329 -29.126427 -184.0379 9998983
27.611624 -29.284739 -183.43352 9340539
31.489805 -29.277111 -179.81844 11905692
32.350395 -29.276096 -179.66655 9472638
33.21019 -29.275072 -179.51122 8682867
33.825668 -29.521318 -178.05774 9340026
34.871914 -29.504345 -177.7587 11313813
35.494301 -29.49036 -177.5528 11379356
136.73602 -29.245632 -96.614914 9932937
136.85323 -29.196892 -95.964294 8485494
138.84106 -28.947594 -94.896469 9407614
138.8811 -28.88538 -94.195404 8092011
140.74493 -28.654795 -93.500351 9010550
140.79652 -28.597528 -92.80925 9010550
25.346029 -27.825113 -184.91199 9077369
26.079908 -28.210066 -184.78027 11051672
142.70341 -28.328148 -91.631569 8550249
142.74506 -28.27154 -90.937286 8089955
144.63623 -28.019087 -89.962524 7564642
146.55284 -27.726969 -88.496895 8815484
148.46309 -27.451187 -87.238098 9736836
148.47688 -27.396242 -86.531876 10460301
24.721952 -26.700779 -185.31543 9735043
25.251478 -26.977795 -185.22063 9077369
26.056273 -27.171385 -185.1597 8682867
150.38071 -27.136713 -85.480026 9537920
152.29381 -26.856474 -84.16658 7564651
152.28886 -26.80279 -83.45282 10787729
154.20207 -26.538414 -82.348694 9670018
24.527304 -26.028553 -185.55879 9866373
25.353178 -26.11768 -185.53641 9866630
156.24246 -26.274191 -81.043671 7563874
156.20531 -26.235617 -80.551285 6510930
158.54738 -26.001896 -79.126923 7564651
158.47719 -25.944298 -78.38343 7564651
160.84505 -25.726168 -77.16423 7564643
160.78908 -25.687904 -76.665237 7564643
163.16801 -25.466022 -75.407509 7038307
163.10277 -25.427967 -74.90477 7038307
23.899908 -24.901474 -185.9632 8682867
24.431112 -25.178408 -185.86841 9603457
25.238089 -25.371075 -185.80798 10261132
165.45596 -25.183403 -73.355011 7038307
167.83961 -24.92499 -71.53653 6511954
170.23317 -24.663517 -69.675644 9537923
172.68016 -24.416363 -68.026802 7565675
172.58485 -24.380125 -67.513023 9144449
23.70368 -24.227076 -186.20735 9668991
24.531569 -24.314907 -186.18542 9735043
175.09029 -24.147131 -66.077309 10787988
174.98511 -24.111 -65.560127 10787988
177.44942 -23.855934 -63.821484 8354671
179.86784 -23.578794 -61.777695 9801602
182.36143 -23.31521 -59.95005 7564651
22.964216 -22.982853 -186.65315 10063751
23.753942 -23.106619 -186.61768 9668991
24.414816 -23.565773 -186.45789 9866371
182.22606 -23.279797 -59.42308 7564651
184.87306 -23.04731 -58.078369 7563619
187.32573 -22.757339 -55.893745 11380124
22.222013 -21.736637 -187.10013 9735046
23.032896 -21.927441 -187.0401 9932165
23.566725 -22.204931 -186.94507 9537403
22.101683 -20.98414 -187.37418 9340545
22.933294 -21.069838 -187.35291 10392718
21.38574 -19.922153 -187.75429 9735046
22.198812 -20.112316 -187.69452 9077373
22.734411 -20.390041 -187.5994 9735046
21.26383 -19.166557 -188.02946 7696747
22.09754 -19.251177 -188.00858 9208703
20.553015 -17.873854 -188.49414 8092011
21.398855 -18.166096 -188.39737 9735809
20.587843 -16.964167 -188.82761 11905950
21.49465 -17.200382 -188.75214 12432037
19.870527 -15.97664 -189.26955 8420470
20.62174 -16.168793 -189.15201 10985361
19.106314 -14.932905 -190.0421 8617847
19.770437 -15.271631 -189.79034 8091761
12.544471 -14.311798 -194.99181 8024940
13.478248 -14.310802 -194.93117 7038307
17.588926 -14.525356 -191.03624 7038307
18.280325 -14.528909 -191.03027 9735812
50.680492 -39.702591 -165.7605 10788247
51.6236 -39.665192 -165.30405 12827568
52.552441 -39.619286 -164.80688 13879997
53.478489 -39.574303 -164.30826 9867398
54.216751 -39.538986 -163.90875 9867398
48.73534 -38.556332 -167.246 8288365
49.273643 -38.955059 -166.85942 9275260
50.023808 -39.1409 -166.46268 10788247
50.990128 -39.117832 -166.06856 10788247
51.877853 -39.162033 -165.65808 12564398
52.491966 -39.276253 -165.30569 16247774
54.584145 -39.520805 -163.70541 9144448
57.65242 -39.214989 -161.25117 8682867
58.140335 -39.153683 -160.79398 9735555
58.948498 -39.051868 -160.0302 10919316
59.750652 -38.950436 -159.26433 9800581
60.387592 -38.869614 -158.65009 8879991
61.177742 -38.769012 -157.88023 10458508
61.961956 -38.668793 -157.10855 9076855
62.584465 -38.588928 -156.48964 8550514
63.048817 -38.529182 -156.02463 11511711
48.490261 -37.899376 -167.60265 7696228
49.409081 -38.044235 -167.17596 9275261
50.33485 -38.107285 -166.77867 10656660
51.212818 -38.365326 -166.32401 9143681
63.357059 -38.489456 -155.71423 10063747
63.970097 -38.410229 -155.09251 10063747
69.987633 -37.745029 -151.38304 9802373
70.710983 -37.64817 -150.57829 9077883
71.428352 -37.551819 -149.77211 10261383
46.946606 -36.940422 -168.60039 10261900
47.635128 -37.089844 -168.26462 8748660
48.565353 -37.151203 -167.8662 8025193
49.467815 -37.089714 -167.52722 9012089
50.031593 -37.285107 -167.22354 8090987
71.997604 -37.475037 -149.12613 11182228
72.703285 -37.379444 -148.31728 9472126
73.403114 -37.284302 -147.50713 8092019
77.709 -36.820786 -145.11903 9209211
78.377266 -36.727242 -144.28778 7366751
79.038834 -36.634167 -143.45543 7366751
79.69471 -36.541496 -142.62218 9603970
80.08519 -36.486137 -142.12177 10064265
46.137306 -35.851143 -169.35384 7564642
46.920967 -36.049892 -168.96045 8354159
47.855732 -36.139214 -168.54919 10591121
48.743813 -36.150295 -168.1875 8814710
49.336113 -36.469925 -167.82353 8090987
83.467018 -36.136845 -140.5603 9143419
83.969482 -36.063831 -139.87897 8616818
84.467972 -35.991173 -139.19716 9143419
85.085388 -35.900723 -138.34419 8813680
88.270027 -35.56987 -136.83348 6510930
88.627136 -35.516323 -136.3119 6643029
45.428413 -35.035156 -169.95959 14209480
46.144405 -35.086781 -169.65121 8156779
47.128357 -35.063091 -169.26457 7827814
48.038612 -35.111618 -168.87917 10459537
89.217361 -35.427284 -135.44231 6708822
89.802017 -35.338749 -134.57228 7498082
92.802765 -35.025997 -133.127 7958888
93.252419 -34.956055 -132.41879 7958888
93.801895 -34.866138 -131.52267 8814199
94.115227 -34.807453 -130.96632 9735046
96.53875 -34.532799 -130.02495 10064004
96.841949 -34.474667 -129.4612 11905692
43.710564 -33.685936 -171.18073 9735297
44.532368 -33.963486 -170.74104 12432554
45.453697 -34.059578 -170.33253 11249050
46.386513 -34.089176 -169.94557 9209467
47.386005 -34.431419 -169.40898 7301986
97.142754 -34.416828 -128.89764 10458249
97.441589 -34.359097 -128.3345 7563619
99.741707 -34.102749 -127.52149 9735552
100.12669 -34.026577 -126.7612 9340796
100.5084 -33.950806 -126.00146 9735043
102.88258 -33.674438 -124.94257 10261386
103.24943 -33.599476 -124.17415 8617080
103.52222 -33.54361 -123.59834 8617080
42.990643 -32.866188 -171.79242 9735297
43.766869 -33.055527 -171.4057 8682865
44.758911 -33.030144 -171.01642 10787985
45.66618 -33.049778 -170.64359 10196106
105.87316 -33.266449 -122.48485 9143167
106.30908 -33.174397 -121.51474 10064008
108.55811 -32.914509 -120.54802 8616563
108.80927 -32.859951 -119.95985 8616307
109.14117 -32.787506 -119.17634 8616307
111.37226 -32.526669 -118.16081 7037274
111.69034 -32.455082 -117.36951 7432289
42.158154 -31.76692 -172.55914 8485488
43.019379 -31.972063 -172.13197 10129797
43.969315 -32.060257 -171.71506 9208693
44.807632 -32.063465 -171.37643 10063488
45.411846 -32.384956 -171.00705 9209467
111.92657 -32.401634 -116.77668 11379348
113.98754 -32.175285 -116.11235 8682867
114.21519 -32.122284 -115.51331 7761765
114.44107 -32.069489 -114.91495 7761765
116.64302 -31.806677 -113.80997 6510930
117.00198 -31.719843 -112.80365 6972762
119.28062 -31.47946 -111.73953 8090477
119.48095 -31.426727 -111.12574 9011320
40.796597 -30.837345 -173.58508 15196118
41.446346 -30.955076 -173.24388 12301226
42.297882 -30.960308 -172.89734 9537920
43.15517 -31.078945 -172.46239 10129283
44.135677 -31.154467 -172.00383 9208435
119.61308 -31.391769 -110.71687 10854036
121.76999 -31.188704 -110.03481 8682867
122.02189 -31.119061 -109.20813 9538176
124.30185 -30.878937 -108.07233 9538947
124.47974 -30.827164 -107.4463 7038307
124.65584 -30.775488 -106.82092 7038307
126.91953 -30.533596 -105.63631 8748921
127.13959 -30.465405 -104.79462 10261132
38.392498 -29.724277 -175.58931 9012350
39.247833 -29.832411 -175.14252 8683642
40.102741 -29.942364 -174.70493 8092011
40.827579 -30.201487 -174.09717 11117465
41.689396 -30.318899 -173.65298 10261899
42.475716 -30.398937 -173.26999 8682867
129.3416 -30.238398 -103.77818 6511954
129.54689 -30.170914 -102.92916 8288109
131.74513 -29.941671 -101.87244 13551037
131.88832 -29.891512 -101.23009 9998471
134.12975 -29.643511 -99.919647 8879478
134.30569 -29.577291 -99.056145 8813686
27.546782 -28.981827 -184.51614 9734523
28.224615 -28.99695 -184.51906 9208435
28.928305 -29.283215 -183.23264 9537664
30.024527 -29.281935 -183.05817 9340542
33.854584 -29.274303 -179.39169 8682867
34.712944 -29.273277 -179.22882 9208953
35.90823 -29.481104 -177.41545 11379356
36.735874 -29.463156 -177.1395 10063753
37.768452 -29.441248 -176.79343 9471359
38.387768 -29.428463 -176.5847 10261132
136.45464 -29.360291 -98.137573 8813686
136.61665 -29.294626 -97.266876 9209215
138.75041 -29.071741 -96.300537 7301470
138.79945 -29.010015 -95.599289 8092011
140.63615 -28.770439 -94.887886 8485235
140.6913 -28.712467 -94.193222 9010550
142.6154 -28.44228 -93.025391 8287081
142.6604 -28.385063 -92.327499 9010544
26.779921 -27.779606 -184.94632 10260611
27.493597 -28.154694 -184.81798 10260611
28.248732 -28.552694 -184.68175 9208435
144.57942 -28.113039 -91.129631 7104093
146.50281 -27.838646 -89.906021 9472897
148.43062 -27.56189 -88.656494 9735555
148.44759 -27.506336 -87.946388 9735555
26.612761 -26.914793 -185.26047 9208180
27.426016 -26.975557 -185.24832 9208435
150.37076 -27.227737 -86.66671 14077632
152.29901 -26.964853 -85.600601 8288371
152.29712 -26.910509 -84.882706 7629926
154.22368 -26.627453 -83.547989 9735296
156.31491 -26.351839 -82.031586 12958639
25.964354 -25.979996 -185.59431 9734529
26.791967 -26.06995 -185.57161 9208182
156.27907 -26.312965 -81.53714 9932934
158.63832 -26.079088 -80.121552 14406086
160.9547 -25.802994 -78.165794 7827815
163.26442 -25.523407 -76.163635 8156526
25.259535 -24.924124 -185.97163 10261132
25.929274 -25.15955 -185.89386 9734529
26.610434 -25.171795 -185.8978 8945008
165.60359 -25.25946 -74.369659 7038307
167.99054 -24.998442 -72.551819 7958888
170.40327 -24.736658 -70.698395 12498088
172.82201 -24.471022 -68.799713 11905692
25.143881 -24.175524 -186.24399 10129545
25.934568 -24.128822 -186.27081 10129545
175.24687 -24.201429 -66.855461 9142907
177.67848 -23.927933 -64.865067 12629674
180.1172 -23.650286 -62.827858 10788240
182.63078 -23.386435 -61.008003 7563619
182.49641 -23.350723 -60.478325 7563619
24.445913 -22.892401 -186.70456 9603199
25.215551 -23.128977 -186.62753 9734531
185.23485 -23.135878 -59.410912 8681843
185.09053 -23.10037 -58.876747 10459025
187.63658 -22.827591 -56.965309 7039331
24.259741 -21.989578 -187.03236 10918547
25.091879 -22.076807 -187.01077 8616307
23.616781 -21.078756 -187.35788 9997961
24.435919 -21.135017 -187.34723 10063240
23.567785 -20.129042 -187.70503 9143420
24.332136 -20.410406 -187.61127 9471871
22.78269 -19.258974 -188.01408 7564651
23.624411 -19.193184 -188.04834 8551282
21.934233 -17.660069 -188.5891 8092011
22.776464 -18.066759 -188.45047 10853010
23.269522 -18.583799 -188.26718 7564643
21.966879 -16.862991 -188.88136 12037536
22.723585 -17.060419 -188.81827 12825770
21.333784 -15.839687 -189.37706 8092011
21.998404 -16.180801 -189.16306 10722190
20.486631 -14.942733 -190.04982 7565675
21.149824 -15.282034 -189.7975 7828843
14.178191 -14.310051 -194.8829 8485494
15.111396 -14.309047 -194.81415 8946044
18.972059 -14.532559 -191.02383 9735812
19.664221 -14.536358 -191.01691 11052184
20.356642 -14.540258 -191.00955 7565675
52.188313 -38.897793 -165.72232 10788247
53.003769 -39.034794 -165.27217 12038310
53.878246 -39.05307 -164.87184 10327692
54.835526 -39.032009 -164.46362 10196106
55.440884 -39.348198 -163.65805 9472383
56.008068 -39.420414 -162.76888 9538174
56.833511 -39.317505 -162.01122 10261640
57.32563 -39.255936 -161.5555 8682867
51.401154 -37.809921 -166.46637 9143681
52.277969 -38.069332 -166.01163 10261902
53.248089 -38.052219 -165.62796 10327437
54.072445 -38.176586 -165.24741 10130570
65.206329 -38.375263 -156.49565 9735551
65.818375 -38.295441 -155.8604 10459273
66.577385 -38.196159 -155.06467 8485743
67.330444 -38.097279 -154.26729 9340539
67.928017 -38.018467 -153.62819 8090991
68.669128 -37.920448 -152.82773 8420210
69.404305 -37.822784 -152.0258 10263180
50.074554 -36.869415 -167.36951 9341054
50.637978 -37.065361 -167.06587 8880505
51.538494 -37.006443 -166.72668 8616823
52.463623 -37.07243 -166.3284 10261643
53.339554 -37.223095 -165.91681 9405822
74.555664 -37.256973 -148.92879 9209467
75.113693 -37.180428 -148.26802 10788499
75.80529 -37.085129 -147.44093 11314844
76.491089 -36.99028 -146.61276 11117208
77.034966 -36.914803 -145.94934 8682867
81.026474 -36.487724 -143.79033 6510930
49.225025 -35.640919 -168.19385 8090987
49.881359 -36.042957 -167.77188 10591121
50.836735 -35.964489 -167.41824 9538176
51.710068 -36.126064 -167.00333 9537407
52.457821 -36.40913 -166.59125 9405822
81.417679 -36.431858 -143.2811 8090987
82.064743 -36.339176 -142.43166 8090987
82.705933 -36.246906 -141.58156 7366239
83.087776 -36.19175 -141.07112 7037274
86.327728 -35.858898 -139.61218 13549237
86.818916 -35.786217 -138.91797 12168354
87.427895 -35.695724 -138.0498 9537662
87.910568 -35.623726 -137.35483 8419182
48.32814 -34.827427 -168.87422 10459537
49.092308 -35.019329 -168.49142 9012606
50.072487 -34.999157 -168.10486 11248795
50.968735 -35.02346 -167.73466 9998213
91.080704 -35.291122 -135.78123 6971738
91.545273 -35.220028 -135.07368 9735812
92.120247 -35.131542 -134.18893 8485749
92.576286 -35.061092 -133.481 6511954
95.408089 -34.747757 -132.0948 11511192
96.028381 -34.630169 -130.9653 9340795
46.875702 -33.607479 -169.93793 9209467
47.447052 -33.803467 -169.63098 8486261
48.367134 -33.939926 -169.20712 7565675
49.304119 -34.03212 -168.79388 7762797
50.085857 -34.235008 -168.39958 10459537
50.725315 -34.361717 -168.09256 9866371
98.661911 -34.314255 -129.61588 7564651
99.156113 -34.217789 -128.66324 9275004
99.547569 -34.140938 -127.9019 10788238
101.94858 -33.863415 -126.8671 9208953
102.32509 -33.787487 -126.09676 8682867
102.60497 -33.730812 -125.51941 10787726
104.89294 -33.471199 -124.62387 9209467
46.164978 -32.786522 -170.5463 9209467
46.738354 -32.982758 -170.23843 9341053
47.651123 -32.92062 -169.89555 9407105
48.589809 -32.984383 -169.4928 8092018
49.282295 -33.137562 -169.15399 9012606
105.07328 -33.433712 -124.2345 9209467
105.342 -33.377739 -123.65079 9472128
105.60877 -33.321968 -123.06751 8617080
107.7049 -33.098194 -122.51277 10853012
107.96326 -33.042831 -121.92274 10853262
108.30449 -32.969372 -121.13687 8879991
110.56099 -32.707439 -120.14373 8616307
110.8883 -32.634834 -119.34982 10853012
111.13148 -32.580677 -118.75494 9734531
45.271641 -31.75816 -171.30957 9208951
46.026241 -32.160599 -170.84793 9209467
46.818741 -32.142639 -170.5361 9735812
47.807938 -32.121185 -170.14642 10525328
48.577614 -32.314697 -169.76074 9012606
113.36984 -32.31776 -117.71299 10392711
113.75765 -32.228531 -116.71209 7761765
115.98415 -31.964731 -115.62701 11182739
116.27882 -31.894104 -114.8181 14077885
118.80529 -31.603153 -113.17461 6248274
119.07859 -31.532297 -112.35406 7169634
43.605499 -30.768122 -172.5101 13549237
44.405575 -30.749834 -172.20279 10129281
45.281967 -31.065065 -171.63013 10655369
46.13765 -31.115999 -171.2681 10722191
47.01408 -31.340612 -170.77271 10327949
47.869614 -31.490435 -170.36929 11314844
121.31957 -31.311506 -111.485 9932678
121.57832 -31.241188 -110.65585 9471871
123.87814 -31.000578 -109.53658 8814203
124.12155 -30.930918 -108.69934 7564651
126.58302 -30.636511 -106.90139 7760997
41.255909 -29.668201 -174.61392 8354671
42.242584 -29.739611 -174.12778 10590608
42.992313 -29.928606 -173.58397 9143163
43.717197 -30.17127 -172.95753 11379097
44.719818 -30.148796 -172.57198 10655369
45.481865 -30.330635 -172.11488 11905437
128.97346 -30.357491 -105.2681 7828841
129.18533 -30.289265 -104.41599 7367775
131.45216 -30.042768 -103.16053 9208443
131.64845 -29.975311 -102.30137 13551037
133.85915 -29.743525 -101.21829 8287341
133.99556 -29.693365 -100.56837 8287341
136.20503 -29.459446 -99.44738 9537409
136.33096 -29.409695 -98.791855 10261132
28.903326 -29.012426 -184.52173 9208435
29.742247 -28.883593 -184.57924 7367007
31.119612 -29.280653 -182.87669 10459023
32.213539 -29.279362 -182.68903 10064521
35.784878 -29.27199 -179.01917 8880246
36.85553 -29.270693 -178.80351 9340798
39.005623 -29.415977 -176.3756 9143675
39.828846 -29.399662 -176.09578 8092011
40.856026 -29.37999 -175.74445 8092011
138.53912 -29.173531 -97.632843 7366239
138.65433 -29.124281 -96.971901 7366239
140.57072 -28.850412 -95.824783 8945528
142.52052 -28.557528 -94.426598 9010550
142.56889 -28.499702 -93.724968 11904668
28.297033 -27.662888 -185.00766 10260611
28.855665 -28.12076 -184.8472 9077106
29.633314 -28.138386 -184.85037 7038298
144.50536 -28.226805 -92.536835 9078397
146.44655 -27.951435 -91.322525 9406590
146.46608 -27.913725 -90.84951 9406590
148.40526 -27.636366 -89.606766 8946296
28.106436 -26.989506 -185.25159 9734523
28.934874 -27.081408 -185.22821 9669245
150.35295 -27.338087 -88.098358 9735812
150.36275 -27.282736 -87.381416 14077632
152.29932 -27.019501 -86.320786 9538435
154.24394 -26.735332 -84.995026 9735296
154.23457 -26.68124 -84.27034 10261382
156.38383 -26.429964 -83.023834 10261641
27.47286 -26.083048 -185.57523 9208182
28.154493 -26.096546 -185.57872 9142901
28.824514 -26.333969 -185.50014 8617072
158.72639 -26.156832 -81.120461 14406086
161.08826 -25.899712 -79.42321 7564643
163.42165 -25.619629 -77.429504 8156524
165.81999 -25.374529 -75.900192 8681843
27.292364 -25.184345 -185.90163 9208182
28.122717 -25.274834 -185.87875 9340023
165.71265 -25.316793 -75.133484 8681843
168.13893 -25.072346 -73.571564 10788247
170.57085 -24.810255 -71.725632 10261132
173.0555 -24.562624 -70.093521 8617331
172.96257 -24.525885 -69.575027 11905692
26.558981 -23.937445 -186.34851 9734529
27.350691 -24.063557 -186.31218 9010801
28.010809 -24.52486 -186.15164 9208435
175.50507 -24.292572 -68.15818 9142907
175.40224 -24.256035 -67.636086 9142907
177.90532 -24.000397 -65.913712 11314072
180.36443 -23.722334 -63.883144 9999238
182.83148 -23.440111 -61.805016 10062979
25.822958 -22.688717 -186.79605 9734531
26.635283 -22.881842 -186.73544 10129286
27.169096 -23.161011 -186.63994 9208182
185.45052 -23.189493 -60.214737 8681843
188.02272 -22.91625 -58.312317 7564392
187.86858 -22.880644 -57.77243 7564392
190.5331 -22.620638 -56.091606 10458246
25.707472 -21.935686 -187.06995 8089963
26.541296 -22.023685 -187.04807 9734530
24.996534 -20.871626 -187.45041 13023925
25.811003 -21.063965 -187.39003 9405822
26.346441 -21.343212 -187.29451 8089963
24.879545 -20.115761 -187.72575 13155765
25.715353 -20.202518 -187.70419 12168616
24.175589 -18.821465 -188.1911 10524812
25.022055 -19.11569 -188.09369 12498087
24.216932 -17.912054 -188.52457 8551280
25.124853 -18.150331 -188.44836 9537918
23.338903 -16.990536 -188.85129 9011835
24.164206 -17.04488 -188.84143 7827816
22.482718 -15.849445 -189.38312 9011835
23.38603 -16.081682 -189.24503 8354419
24.289343 -16.314753 -189.11028 10984596
21.868963 -14.953258 -190.05701 7302503
22.62969 -15.227088 -189.8559 7433831
23.443495 -15.412637 -189.72296 7039331
12.48239 -14.023277 -197.8075 11116950
13.434173 -14.027136 -197.81714 8682867
16.277441 -14.307786 -194.72244 9735043
17.209822 -14.306772 -194.64398 8682867
21.049726 -14.544406 -191.00166 7565675
21.743048 -14.548655 -190.99338 8813941
12.497672 -13.306502 -198.06891 10590351
12.045722 -12.106801 -198.50092 9208187
12.517959 -12.348427 -198.4184 7563618
12.065322 -11.145579 -198.8515 7563618
55.837509 -38.821003 -164.19135 9340539
56.737122 -38.986759 -163.61804 11182227
57.67384 -38.957596 -163.15974 11379349
58.421616 -38.934967 -162.79218 8682608
59.242783 -39.057304 -162.02513 9340539
60.145142 -39.013649 -161.49258 8682867
60.805889 -38.941532 -160.90855 8222573
61.60648 -38.839405 -160.12506 8419696
62.400959 -38.73772 -159.3396 9340286
63.031601 -38.656689 -158.70979 8419184
63.658173 -38.575905 -158.07866 8550514
54.506638 -37.756332 -165.23767 9867398
55.185474 -38.021938 -164.8602 10590607
56.152966 -38.008717 -164.47606 8748659
