# .PCD v0.7 - Point Cloud Data file format
VERSION 0.7
FIELDS x y z rgb
SIZE 4 4 4 4
TYPE F F F U
COUNT 1 1 1 1
WIDTH 1207
HEIGHT 1
VIEWPOINT 0 0 0 1 0 0 0
POINTS 1207
DATA ascii
121.91196 -66.61042 -47.682495 7696485
122.32738 -66.820999 -47.121334 6380625
122.92393 -66.915085 -46.428459 6906201
123.2625 -67.328407 -45.84016 10459023
143.86581 -67.056038 39.583115 9734273
143.85495 -66.839615 40.26413 9734273
143.76212 -66.764786 41.172535 9997443
143.65276 -66.71347 42.140858 8747634
121.9545 -65.804893 -48.073269 9472383
122.57266 -65.994164 -47.30545 6314832
123.00652 -66.149971 -46.754215 5920074
144.09096 -65.850456 41.218464 10260613
143.99248 -65.732246 42.28944 8155756
143.90906 -65.658943 43.122429 9339770
143.92636 -65.39106 43.73283 10984852
121.73102 -64.734955 -48.893478 9735045
122.268 -64.900505 -48.225903 9209983
122.7338 -65.22216 -47.550404 6446677
144.26097 -65.259689 41.568729 9010806
144.31158 -64.911835 42.148922 8287341
144.23909 -64.776276 43.071621 10918799
144.1152 -64.717278 44.170948 11313816
144.15814 -64.320251 44.944992 9011579
121.42303 -63.573135 -49.8545 7564651
121.85993 -63.946465 -49.181984 8617337
122.54212 -63.906994 -48.469238 14277073
144.5513 -64.163376 42.409019 9931905
144.53517 -63.935493 43.161587 11510937
144.44972 -63.83514 44.084759 9011579
144.39198 -63.655087 45.019257 8485493
121.15332 -62.429794 -50.764183 7037274
121.55292 -62.799229 -50.134048 7564651
122.1484 -63.055256 -49.354492 10854553
144.79871 -62.866165 44.129688 7695979
144.69252 -62.80011 45.11454 7564649
144.57417 -62.776726 45.995872 9538176
121.23375 -61.788502 -51.025162 7760997
121.88615 -61.9044 -50.260284 7564651
122.33607 -62.333202 -49.543739 12960183
145.05467 -61.839031 45.037655 8091245
144.9381 -61.742519 46.036613 9669762
144.78259 -61.525116 46.871044 9406590
120.95612 -60.851048 -51.934673 9208699
121.54513 -60.898445 -51.269363 8353647
121.95621 -61.167023 -50.584442 7564651
145.22643 -61.280666 45.28371 10065033
145.23616 -60.942642 46.055901 10064777
145.07787 -60.756393 47.050941 9077625
144.89787 -60.604942 47.875084 8682867
120.69906 -59.563843 -53.954399 9405559
120.99487 -59.837173 -53.097221 9340024
121.39181 -60.099861 -52.277447 8419439
121.84506 -60.144531 -51.738472 10656913
145.49934 -60.1614 47.17202 8682867
145.38095 -59.933876 48.037666 9932677
145.56802 -59.534359 48.94524 9011832
145.57207 -59.36021 49.859634 11380376
116.74227 -58.70649 -69.447464 9933193
117.34807 -58.823509 -68.650604 9078398
117.43359 -59.096085 -67.783524 8288882
117.84097 -59.11834 -66.710251 11050641
118.19366 -59.117035 -65.610207 9735296
117.90903 -59.116444 -64.719543 11182226
118.36669 -59.115284 -63.869484 7235420
118.89267 -59.11393 -62.873501 10853262
118.94054 -59.112911 -61.812691 10984847
118.90668 -59.112095 -60.896812 7695714
119.40759 -59.11076 -59.896408 8484973
119.90046 -59.109428 -58.891998 10063752
119.8493 -59.108631 -57.981834 9471100
119.86784 -59.112225 -56.93483 9536633
120.28394 -59.228352 -55.833015 9800061
120.6309 -59.308182 -55.084175 9799804
146.16072 -59.161934 50.065472 9341057
146.01561 -59.118141 50.999882 9341057
146.25009 -58.985538 51.876041 8551543
146.54134 -58.984467 52.778339 10261132
146.76059 -58.983288 53.86047 10590093
147.53175 -58.981457 55.160496 7038307
147.25987 -58.981026 55.867931 9076337
146.98523 -58.980595 56.574192 11181201
147.88843 -58.978962 57.543575 8221544
116.47346 -57.558403 -70.361229 9340801
117.01904 -57.856735 -69.611557 9933193
117.59251 -58.013752 -68.908661 9933193
116.71531 -56.835274 -70.494049 9406594
117.35048 -56.954769 -69.745094 9209728
116.31725 -55.869053 -71.448029 8551799
116.94608 -55.982124 -70.70945 9669508
116.0756 -54.804317 -72.287231 9735299
116.60209 -55.030182 -71.597504 8945783
117.07737 -55.223919 -70.980392 9603970
115.84147 -53.641918 -73.171448 9406590
116.26738 -53.947472 -72.546677 10064520
116.90919 -54.096806 -71.774292 7169116
115.57381 -52.457985 -74.103439 6510930
115.97479 -52.842354 -73.462631 8353902
116.60355 -52.951851 -72.726059 9143674
115.69135 -51.817623 -74.325096 6510930
116.30048 -51.872372 -73.639404 8288109
116.67715 -52.211853 -73.049179 10854036
115.33439 -50.93507 -75.189293 8155755
115.96192 -50.872753 -74.547523 6840666
116.44444 -51.030834 -73.941994 7564391
115.09511 -49.76326 -76.084221 9735299
115.54348 -50.029518 -75.456612 7697003
116.09876 -50.006138 -74.871284 10000018
114.85143 -48.594688 -76.980789 7762021
115.19237 -48.965179 -76.412582 8814710
115.81994 -49.057224 -75.686325 9078915
116.20112 -49.390839 -75.094757 13684685
114.8782 -47.864513 -77.347603 7564642
115.57913 -47.990227 -76.524048 7433314
114.68402 -46.725262 -78.239258 9669762
115.25056 -46.972374 -77.447632 9209468
115.77003 -47.109867 -76.795334 10262156
114.22556 -45.57312 -79.973022 9932934
114.57912 -45.827297 -79.305038 9538176
115.09349 -46.052891 -78.495743 9208955
115.49619 -46.273529 -77.81266 9012088
113.55979 -44.485252 -83.201904 8485230
114.07127 -44.581638 -82.201233 8681835
114.08106 -44.872833 -81.165199 8879215
114.49576 -45.016476 -80.416389 9668993
114.96476 -45.221844 -79.570892 8879991
112.3997 -43.718822 -87.972778 9734526
112.9601 -43.887566 -87.269341 8814196
113.01163 -44.140182 -86.166046 10391686
113.29582 -44.202271 -85.105713 8879991
113.50819 -44.279369 -84.209747 7827815
114.04782 -44.293926 -83.557007 9340286
112.01461 -42.756523 -88.735672 7760739
112.62502 -42.88673 -88.149048 8945011
113.1262 -43.275913 -87.541389 8551024
112.26001 -41.763523 -88.966354 9602939
112.81718 -41.981236 -88.38678 10195076
111.89248 -40.838871 -89.697227 8616561
112.41638 -41.019047 -89.163254 9734525
111.5947 -39.646843 -90.487045 8682867
112.0223 -40.024605 -89.948257 8353902
112.6281 -40.132591 -89.37558 9275263
111.60641 -38.893192 -90.813293 8748916
112.25636 -39.025227 -90.19162 7696229
112.72917 -39.362324 -89.631859 7565675
111.31911 -37.695896 -91.596382 8353130
111.85674 -37.865917 -91.055061 7827815
112.34296 -38.163441 -90.501259 7564643
111.48164 -36.74659 -91.879364 8353131
112.08466 -36.973988 -91.255714 8090987
111.16853 -35.753345 -92.593719 8353130
111.75677 -35.914547 -92.012505 8813680
112.25633 -36.160511 -91.470139 10854036
110.79685 -34.683407 -93.412766 8813168
111.26699 -35.011047 -92.845108 8418923
111.87691 -35.083805 -92.280411 7366239
110.90639 -33.918129 -93.68689 9603712
111.51353 -34.014305 -93.107384 8484719
111.93774 -34.38398 -92.556061 8089963
104.93933 -33.210487 -119.97137 8089963
105.28268 -33.138397 -119.20934 8353389
105.62238 -33.066719 -118.44798 8813939
105.87476 -33.013138 -117.87753 10458249
105.85023 -32.808342 -113.96253 10262156
106.09012 -32.756527 -113.40312 10262156
106.48557 -32.670647 -112.47176 8551025
106.87586 -32.585258 -111.54166 12431013
107.26037 -32.500557 -110.61287 10984080
110.59554 -32.574776 -94.610016 8616048
111.12585 -32.914394 -93.979866 9471100
111.65459 -33.202038 -93.376549 11116692
107.71488 -32.399624 -109.50008 8814194
108.08782 -32.316078 -108.5741 12432037
108.43406 -32.020721 -103.5963 9471607
108.77879 -31.940836 -102.6899 8945007
109.11817 -31.861551 -101.78495 9866109
109.45287 -31.782759 -100.88113 10853004
110.4342 -31.567598 -95.620628 8089963
110.83284 -31.893356 -94.812454 7892326
111.41732 -31.979879 -94.209946 7300446
110.26814 -31.061483 -97.569183 8089963
110.4708 -31.151445 -96.904724 12365988
110.82255 -31.301363 -95.955261 11050386
127.72498 -73.548752 -27.535204 11905701
127.91509 -73.584503 -26.934961 10195598
128.19182 -73.733376 -25.951895 8682875
128.46074 -73.803383 -25.079893 12498089
128.7345 -73.780403 -24.155344 9603712
129.16048 -73.664597 -23.177919 8880245
129.48958 -73.746162 -22.116636 10458762
129.77396 -73.821442 -21.205202 10984849
130.1628 -73.746712 -20.307507 13155760
130.37379 -73.912666 -19.426315 9471607
130.386 -74.045166 -18.505789 9208435
130.63504 -74.062248 -17.343849 9931646
130.93816 -74.061073 -16.357552 10260614
131.38051 -74.059799 -15.360528 7695968
131.48155 -74.058846 -14.41459 7695205
131.57579 -74.057892 -13.467969 9142651
131.66316 -74.056938 -12.520617 9735043
132.07854 -74.055664 -11.509076 8288109
132.39131 -74.054642 -10.66681 6906456
132.64967 -74.053558 -9.7264853 9405822
132.71922 -74.05246 -8.6122694 9405822
132.97316 -74.051239 -7.5072351 9735039
133.33258 -74.050224 -6.7236924 8814195
133.63495 -74.048958 -5.6130013 8288109
133.66556 -74.048035 -4.651053 10590864
134.00294 -74.046822 -3.6309536 10327948
134.17372 -74.045906 -2.7972019 11116690
134.49678 -74.044693 -1.769284 9734779
134.49959 -74.0438 -0.80121869 11314326
134.88945 -74.04258 0.16994983 9210491
135.27223 -74.041367 1.1467717 10986132
135.25406 -74.040482 2.120332 14209990
135.62622 -74.039268 3.1055768 10920086
135.9912 -74.038048 4.0962844 7037274
135.95164 -74.037178 5.0749946 7563619
136.22899 -74.036095 6.0042586 7827559
136.66171 -74.034897 6.9143767 9471870
136.59137 -74.033897 8.0617647 10327693
137.15265 -74.032791 8.7598772 10064521
137.28116 -74.031769 9.7625513 8089963
137.34639 -74.030602 10.96219 8945272
137.92691 -74.029343 11.812909 9406076
137.8316 -74.028496 12.805429 9208435
138.15706 -74.027428 13.675344 11050383
138.45775 -74.026222 14.715756 10656658
138.52832 -74.02507 15.903123 8946812
139.06535 -74.023949 16.646032 8815227
138.9351 -74.023125 17.646662 11315100
139.46873 -74.021996 18.399786 11578272
139.50885 -74.020844 19.600965 10525071
139.92528 -74.019554 20.635489 8486262
140.06335 -74.01857 21.575041 9933193
140.19801 -74.017593 22.518236 14997715
140.62682 -74.016426 23.40003 14273992
140.44778 -74.01564 24.411726 9208443
141.17458 -74.014275 25.243277 10261897
141.11407 -74.013161 26.495321 8090730
141.63858 -74.011864 27.444834 7037530
141.43031 -74.011086 28.463709 8879222
142.14949 -74.009705 29.325891 6971481
142.27821 -73.883423 30.365938 9144443
142.53288 -73.72451 31.200048 11315100
142.37943 -73.766052 32.244473 13288378
142.34418 -73.604698 32.957253 9011320
126.96957 -72.685509 -30.734653 11510938
127.27895 -72.583801 -29.93878 12695468
127.54564 -72.773819 -28.93891 10787214
127.88035 -72.830963 -27.888824 9603199
128.1665 -72.883492 -26.98707 8880254
128.45193 -72.939308 -26.083715 8222324
128.74065 -72.95195 -25.219419 9998472
129.12486 -72.812988 -24.245295 9538175
129.47855 -72.78627 -23.233898 8880245
129.80867 -72.867004 -22.170033 9208953
130.06699 -72.982742 -21.292099 9866883
130.39105 -73.039207 -20.502396 14076605
142.78023 -73.003319 31.327421 11117721
142.73515 -72.808754 32.206284 10722451
142.61037 -72.768036 33.261391 10327436
142.59431 -72.507942 34.10294 10854036
125.78397 -71.467583 -35.60173 5196097
126.02888 -71.488533 -34.857159 5590598
126.30939 -71.695534 -33.797329 6905944
126.63744 -71.808891 -32.703449 10853781
126.87922 -71.942123 -31.840925 11709346
127.16928 -71.98053 -30.943556 11511966
127.48032 -71.920288 -30.095961 12235689
127.91402 -71.798416 -28.956825 9538176
128.25569 -71.78199 -27.969469 7498595
128.54295 -71.833961 -27.065113 8090736
128.82951 -71.889076 -26.159159 8616823
129.11537 -71.94735 -25.251451 7894127
129.33107 -72.144669 -24.393324 7565675
129.73239 -72.084633 -23.278585 8289139
143.05077 -71.920639 32.279182 9932678
143.0204 -71.70076 33.117176 8484720
142.86438 -71.746643 34.168919 8287342
142.83214 -71.530701 35.010204 7826790
125.13899 -70.715508 -38.35075 6446418
125.45491 -70.590797 -37.561607 5591109
125.68304 -70.747025 -36.713406 4603958
125.97855 -70.768425 -35.819176 5196097
126.27319 -70.792961 -34.924015 5063996
126.61584 -70.825577 -33.878399 6642516
126.95743 -70.862198 -32.831371 9471871
127.24927 -70.897049 -31.932655 12104104
127.54043 -70.934975 -31.032715 11577759
127.83075 -70.976028 -30.131464 12564398
128.17416 -70.955193 -29.144016 11709089
128.51259 -70.99263 -28.105316 8485490
128.79344 -71.135437 -27.117058 8090736
128.98512 -71.171455 -26.512156 9735046
143.30084 -70.823479 33.425812 8089963
143.20177 -70.795891 34.251236 8221548
143.06827 -70.803032 35.2397 9141878
143.14064 -70.307983 36.062897 10260100
124.1478 -69.64238 -42.481873 10064261
124.44551 -69.731255 -41.504936 12037285
124.69179 -69.822586 -40.676643 10063752
124.97923 -69.973724 -39.659542 8287854
125.29878 -70.053261 -38.62891 6446162
125.64906 -69.934708 -37.731537 5393730
125.98634 -69.879318 -36.801128 4340785
126.34061 -69.771492 -35.880161 4735545
126.63907 -69.751427 -35.024132 5656391
126.98289 -69.78363 -33.975502 6313551
127.27662 -69.917389 -32.959476 7432032
127.55708 -70.027786 -32.008949 11906725
127.78741 -70.239098 -31.09201 11709345
128.03001 -70.272736 -30.339701 12367019
143.4662 -70.09407 34.194149 8682353
143.43369 -69.87793 35.038666 9405306
143.32123 -69.817024 36.056984 8681585
143.30347 -69.583023 36.839272 5920074
123.80444 -68.84481 -44.312645 8485232
124.08194 -68.951332 -43.456757 9603710
124.38605 -68.950256 -42.562767 9801089
124.68909 -68.952194 -41.668373 9471871
124.99113 -68.95713 -40.773502 9471871
125.34229 -68.966789 -39.728798 8353390
125.6922 -68.980316 -38.683304 6708566
125.99109 -68.995285 -37.786373 5919050
126.28911 -69.013245 -36.888706 4340785
126.54671 -69.031219 -36.11005 4340785
126.88255 -69.058174 -35.090759 5788233
143.71249 -69.002769 35.352608 9274488
143.69632 -68.783134 36.082989 7366495
143.56236 -68.784927 37.091457 6446162
143.57269 -68.488892 37.832592 7367264
123.72823 -67.638985 -45.170677 9011321
124.06873 -67.93679 -44.521263 9142904
124.43789 -67.914742 -43.580505 10195590
124.74284 -67.913689 -42.683922 11182226
125.04679 -67.915558 -41.786938 7103835
125.34975 -67.920456 -40.889511 8682611
125.64206 -68.102554 -39.822994 8748405
125.93783 -68.201248 -38.840775 6840152
126.1825 -68.300789 -38.007931 5919050
144.00957 -67.897682 36.163296 7827045
143.95161 -67.734566 37.055477 6906201
143.81425 -67.738983 38.082661 7367264
143.77763 -67.5298 38.938454 8089963
123.30415 -66.596497 -46.191895 7563619
123.81765 -66.866364 -45.493114 9274493
124.45237 -66.924004 -44.632839 9274491
124.73401 -67.052376 -43.683434 9011831
124.98038 -67.223625 -42.764595 9735296
125.23424 -67.224915 -42.015678 6511954
144.19838 -67.052841 37.074013 8550772
144.17625 -66.781403 37.99464 8879735
144.04407 -66.793648 38.962303 10458252
144.07097 -66.430099 39.765095 8616050
123.04558 -65.422157 -47.106453 7565675
123.38677 -65.831383 -46.517574 7695718
124.02055 -65.999756 -45.744343 8813686
144.41275 -66.089249 38.120167 9275266
144.37617 -65.879616 38.979252 9932935
144.28006 -65.747765 40.07328 9076601
144.23741 -65.598015 40.81044 10853004
123.13351 -64.769989 -47.365253 7565675
123.78852 -64.905388 -46.586998 8485235
124.23649 -65.355042 -45.861298 9734531
144.67015 -65.001373 39.184601 8748921
144.65059 -64.78688 39.92794 8946043
144.51471 -64.794548 40.937328 10655884
144.46548 -64.634285 41.754429 8681842
122.88485 -63.824448 -48.145164 14408659
123.37491 -63.911976 -47.570404 9605258
123.90765 -63.889214 -47.009415 7828333
144.9442 -63.908878 40.135757 10590606
144.9055 -63.701942 41.002922 11379607
144.7561 -63.757111 41.983826 8814196
144.79068 -63.415234 42.669949 11182229
122.70081 -62.597801 -49.007915 15723486
123.06589 -62.864525 -48.470497 15395298
123.64631 -63.001625 -47.771652 10131858
145.17247 -62.94389 41.07975 13023917
145.12906 -62.794525 41.823399 11050899
144.98354 -62.778599 42.972015 10065288
144.98837 -62.464451 43.806919 8025453
122.36754 -61.617596 -49.897732 7564651
122.76006 -61.886471 -49.329628 14933971
123.39465 -61.895409 -48.641861 13486783
123.742 -62.29427 -48.051949 13684680
145.36827 -62.046608 42.083168 8946552
145.34074 -61.850845 42.834927 10789524
145.22337 -61.772499 43.942749 8749941
145.2059 -61.615494 44.510689 8092011
122.1321 -60.527863 -50.99942 9341570
122.48994 -60.892647 -50.246643 7894128
123.0783 -60.945545 -49.575516 11512995
123.4691 -61.141441 -48.970234 15196110
145.63582 -61.021214 42.987022 10065801
145.57236 -60.932343 43.858921 10920854
145.50502 -60.838375 44.795807 10525840
145.53232 -60.583767 45.765968 10065033
121.65147 -59.510586 -53.035488 8682867
122.20402 -59.59626 -52.233963 12630959
122.46404 -59.935219 -51.308533 10328206
122.92847 -60.135006 -50.582268 9670793
146.01299 -60.112564 44.859306 9077882
146.00078 -59.954617 45.867779 9538689
146.01468 -59.761532 46.750359 11315357
146.20863 -59.411152 47.692265 8880506
118.21595 -58.854477 -67.780205 10327433
118.90313 -58.796772 -67.043625 10130053
119.19123 -59.116718 -66.158234 9077623
119.01818 -59.115837 -65.045349 8353899
119.31492 -59.114632 -64.008339 9208951
119.76741 -59.113472 -63.148159 11905692
120.04956 -59.112278 -62.110298 7367006
119.84776 -59.111431 -61.01252 7367006
120.27858 -59.110279 -60.14856 8813422
120.70319 -59.109131 -59.281517 9010802
121.04301 -59.107811 -58.160645 10194819
120.72534 -59.107151 -57.160454 9536633
121.1283 -59.106022 -56.29026 8549482
121.49648 -59.131027 -55.194298 8287077
121.78618 -59.205521 -54.309212 7760733
122.05008 -59.34343 -53.380341 9077365
122.46967 -59.393497 -52.692497 12630959
146.8269 -59.164925 48.133121 10261132
146.5862 -59.163338 48.83625 9932678
146.83372 -59.030743 49.708126 7433319
146.68971 -58.986317 50.645733 7038307
147.53648 -58.984612 51.741611 7038307
147.28139 -58.984165 52.449226 8353134
148.13017 -58.982441 53.563793 9011064
147.79959 -58.981895 54.451588 8550514
148.58102 -58.980034 55.76466 9209215
148.2372 -58.979496 56.655132 11247509
149.08597 -58.97773 57.811317 9406590
148.94429 -58.97752 58.168949 9406590
117.93827 -57.896812 -68.599915 8749433
118.49712 -58.002327 -67.940811 9472383
118.99052 -58.101246 -67.355698 8682867
117.68074 -56.640442 -69.560425 8486262
118.17439 -56.899292 -68.888107 10722707
118.74681 -57.10606 -68.159286 12696493
117.46266 -55.441704 -70.447052 9011576
117.84782 -55.801937 -69.836418 9208443
118.46694 -56.041782 -69.039368 12169124
117.58853 -54.752869 -70.686111 9538176
118.21302 -54.892517 -69.937744 9142649
118.67654 -55.227516 -69.256454 13353653
117.23923 -53.780777 -71.590813 6905688
117.82275 -53.948452 -70.871315 7827046
118.34592 -54.132961 -70.20768 7761253
116.95782 -52.761971 -72.447784 7235421
117.45731 -52.986752 -71.787796 6905944
118.07835 -53.120872 -71.046112 7498081
116.67122 -51.515018 -73.434563 10854036
117.15836 -51.877666 -72.712769 9406592
117.81686 -52.023624 -71.924324 8222065
116.88602 -50.761677 -73.612869 9340545
117.5135 -50.940517 -72.839928 9011581
117.89178 -51.282124 -72.246834 8617080
116.65196 -49.775646 -74.400253 7565675
117.20971 -49.82444 -73.772751 8156530
117.65874 -50.097111 -73.141022 9340545
116.30366 -48.821938 -75.292526 15724526
116.8074 -48.921223 -74.695755 13684685
117.3762 -48.865448 -74.112938 8946561
116.06011 -47.649567 -76.1903 7762021
116.40215 -48.021996 -75.61982 12960962
117.0101 -48.070866 -74.938095 16316663
115.74264 -46.603344 -77.176407 10262156
116.13914 -46.91943 -76.526321 9340797
116.72591 -47.010757 -75.829788 9471872
117.17348 -47.275005 -75.193321 13550517
115.55358 -45.648579 -78.45462 8222061
116.0288 -45.922348 -77.633301 9340286
116.55601 -46.144653 -76.81398 11643296
117.03986 -46.374825 -76.032967 9208184
114.94842 -44.526825 -81.502701 9602425
115.43021 -44.625366 -80.524475 8748405
115.62032 -44.838867 -79.570694 8288110
115.96127 -45.120678 -78.66243 8024426
116.44193 -45.282314 -77.908516 8089963
113.54935 -43.661121 -87.002899 9011318
114.0621 -43.900719 -86.439941 9537148
114.26533 -44.114948 -85.403961 8419696
114.3315 -44.137466 -84.394043 9603458
114.79117 -44.17791 -83.468025 9207925
114.99156 -44.282238 -82.610146 8944751
115.54974 -44.338947 -81.718887 10457478
113.18547 -42.57246 -87.804092 9011318
113.65398 -42.916012 -87.245094 9208440
114.29939 -43.058537 -86.619972 9800063
113.28907 -41.801472 -88.058426 9537403
113.89439 -41.914753 -87.483826 8880245
114.31977 -42.300034 -86.943604 9932419
113.50033 -40.793224 -88.325546 11445657
114.02895 -41.097466 -87.732025 9077368
113.10117 -39.950615 -89.047134 10327949
113.7886 -39.934593 -88.459167 12366758
112.78513 -38.659725 -89.896942 8091503
113.29283 -39.043922 -89.285904 7565675
113.82111 -39.254051 -88.734703 12498344
112.88516 -37.915447 -90.142479 9275261
113.53838 -38.048828 -89.51741 9209984
112.55341 -36.79372 -90.930382 8090987
113.12048 -36.913513 -90.385887 9275260
113.59891 -37.117691 -89.880608 11182744
112.76146 -35.763748 -91.209923 12565166
113.36312 -36.008163 -90.579903 10460559
112.41975 -34.875381 -91.902222 12432807
113.00036 -34.938618 -91.371338 12960180
112.08532 -33.864273 -92.678078 8089963
112.5594 -34.061634 -92.166389 9998213
113.08322 -34.086342 -91.694656 11446685
106.0458 -33.190163 -121.52329 10853262
106.125 -32.959801 -117.30765 10458249
106.45553 -32.889034 -116.54852 11181970
106.86336 -32.801155 -115.60079 10325893
107.26606 -32.713772 -114.65435 9404792
107.66276 -32.62709 -113.70938 7431774
108.05424 -32.540874 -112.76566 8484205
108.28651 -32.489513 -112.20013 10457481
112.15814 -32.9394 -93.0616 11379864
112.8111 -33.06245 -92.42894 8879478
108.45512 -32.233177 -107.64958 9932419
108.81747 -32.150726 -106.72627 8682867
109.17419 -32.068985 -105.80441 9997953
109.52599 -31.987696 -104.8839 9208435
109.87228 -31.907013 -103.96475 11248018
110.21368 -31.826836 -103.04694 9734523
110.5496 -31.747265 -102.1306 9405558
110.94613 -31.652494 -101.03289 8682352
111.90754 -31.791285 -93.891762 9602429
112.44582 -31.987213 -93.278442 12037537
112.7915 -32.313713 -92.80838 10261385
111.63776 -30.929106 -96.145325 8484720
111.88631 -31.140448 -95.116348 8616048
112.26083 -31.288963 -94.187149 8089704
112.70165 -31.286165 -93.642036 10261385
130.76491 -73.569382 -19.276686 9208435
131.09459 -73.75573 -18.414946 9208435
131.46291 -73.709747 -17.654591 9405558
131.90717 -73.796501 -16.701551 10852236
132.31738 -73.748238 -15.785689 8813679
132.48302 -73.939545 -14.799388 7235418
132.53214 -74.057198 -13.559686 9142386
132.85965 -74.056145 -12.718684 10129028
133.27986 -74.054855 -11.697688 8813680
133.35439 -74.053909 -10.738154 7432800
133.42204 -74.052971 -9.7780657 9405822
133.79843 -74.051735 -8.7716532 10392460
134.00114 -74.050804 -7.9451451 10326918
134.36349 -74.049568 -6.9304605 9208952
134.40364 -74.048645 -5.9631982 8288109
134.63617 -74.047493 -4.920567 9998727
134.93416 -74.046494 -4.103518 10261899
135.27003 -74.045265 -3.072787 10657166
135.28229 -74.044357 -2.0990779 9670014
135.55261 -74.043083 -0.96316403 9538685
136.08083 -74.041893 -0.14714307 10986132
136.07191 -74.041 0.83231479 10986132
136.25488 -74.039871 1.8977826 10327948
136.63672 -74.038788 2.7257016 8156268
136.80476 -74.037666 3.7975132 7168861
136.96616 -74.036537 4.8730865 9142649
137.33347 -74.035454 5.7140784 7563619
137.47978 -74.03434 6.7958083 8485233
137.62471 -74.033295 7.7981277 9669762
138.19278 -74.032181 8.5000849 9011832
138.10857 -74.031181 9.6602678 9801093
138.44023 -74.029961 10.688668 11840930
138.77867 -74.028877 11.555848 9406076
138.68527 -74.02803 12.554494 9208435
139.26768 -74.026749 13.421338 9668986
139.30415 -74.025604 14.642137 9933707
139.62566 -74.024521 15.526742 9933707
139.94127 -74.02343 16.415762 10723222
139.8127 -74.022621 17.42267 9208443
140.56349 -74.021271 18.208014 12433581
140.39746 -74.020317 19.387819 11775138
140.9084 -74.019035 20.325605 8354162
140.96295 -74.018028 21.372908 8946812
141.25328 -74.016937 22.288393 12958388
141.53723 -74.015854 23.208086 12102823
141.57454 -74.014847 24.264643 9143162
142.09583 -74.01368 25.061781 10985619
142.29822 -73.895782 26.158983 8683123
142.62392 -73.796295 27.108744 8024937
142.61568 -73.728531 28.174982 7893351
142.78575 -73.625504 29.103357 6511698
142.74127 -73.614601 29.92967 8092011
130.33253 -72.623749 -20.974009 12432037
130.64984 -72.667343 -20.274708 13550261
130.96585 -72.844711 -19.465914 9931902
131.34706 -72.932304 -18.596613 9997951
131.86031 -72.771332 -17.660566 9602937
132.18556 -73.009148 -16.78186 10128769
132.49675 -73.013405 -16.128782 9208435
142.88943 -73.114349 27.219896 11117208
143.01106 -72.883423 28.076754 7827558
143.04839 -72.897789 29.086401 6577491
143.04872 -72.728348 30.055346 7761253
143.02393 -72.473816 30.949461 9932935
129.5269 -71.658669 -24.36537 7565675
129.88136 -71.587372 -23.401258 9406850
130.16777 -71.773735 -22.346882 9736578
130.48276 -71.89064 -21.318529 9210491
130.86771 -71.904945 -20.460695 9932933
131.36143 -71.793533 -19.523298 9143418
131.71129 -71.967361 -18.64698 9800575
132.06273 -72.044991 -17.848265 9405560
143.31786 -72.161865 29.094629 6840151
143.4119 -71.771645 29.953398 7300446
143.26031 -71.80825 31.00178 9669507
143.16403 -71.775497 31.822935 11380124
128.72424 -70.529556 -28.00561 7762025
128.98096 -70.612282 -27.155893 6511962
129.23366 -70.799736 -26.199635 10721683
129.4929 -70.898567 -25.324053 9012093
129.77917 -70.959259 -24.41197 9077886
130.08745 -70.92009 -23.547995 11248025
130.49979 -70.780502 -22.490561 9999493
130.86151 -70.800621 -21.443502 9210491
131.24159 -70.962982 -20.471838 9209211
131.6248 -71.09388 -19.561468 9538176
143.62592 -71.083023 30.239576 7037274
143.58719 -70.904404 31.028807 9208956
143.4684 -70.857254 32.061073 9077625
143.41466 -70.677277 32.968033 6511954
127.49724 -69.478149 -32.806545 8287597
127.74154 -69.506973 -32.054672 12169897
127.9724 -69.717949 -31.136488 12301483
128.25133 -69.834915 -30.183037 12696241
128.49974 -70.013733 -29.249521 11248538
128.89319 -69.856705 -28.268141 9077370
129.29289 -69.741394 -27.220579 7695979
129.58154 -69.795113 -26.309372 10261133
129.86957 -69.851898 -25.396463 10130060
130.157 -69.911865 -24.481775 10327439
130.44388 -69.974953 -23.565256 10327693
130.79347 -69.866539 -22.657566 9210491
131.08229 -70.002525 -21.683279 9210491
131.37535 -70.222549 -20.815128 9209211
143.86737 -70.099342 31.135954 8682867
143.87674 -69.794823 31.909117 8354158
143.74588 -69.78672 32.924438 6511954
143.65271 -69.699158 33.874428 8090729
126.75707 -68.691734 -35.874382 4340785
127.08397 -68.629791 -34.98204 6182992
127.35149 -68.776596 -34.028446 6248016
127.69311 -68.779488 -33.019394 7367524
127.98707 -68.813469 -32.115543 9867397
128.28029 -68.850471 -31.210466 9341053
128.57266 -68.890465 -30.304041 9340798
128.86429 -68.933449 -29.396233 9735556
129.20358 -68.987579 -28.33522 8682355
129.64482 -68.799904 -27.247129 9077882
129.89391 -68.925011 -26.371778 8748917
130.15111 -69.012199 -25.515394 8682867
130.40848 -69.214699 -24.528288 9603711
130.64827 -69.266563 -23.763178 10064264
144.11792 -69.000572 32.282166 6511954
144.08214 -68.838554 33.003086 6775126
143.98352 -68.738068 34.030128 8814451
143.92543 -68.599373 34.855408 8748401
125.67077 -67.579948 -40.329025 10064009
125.872 -67.586258 -39.729568 8945528
126.14508 -67.736931 -38.755367 7169117
126.40148 -67.860123 -37.861244 6971738
126.65178 -67.975777 -36.993649 4933179
126.94991 -67.99649 -36.092518 4340785
127.29418 -67.991905 -35.084068 6117455
127.74343 -67.810814 -33.966103 6643287
128.05981 -67.741226 -33.113125 6511699
128.35471 -67.774689 -32.206661 7038298
128.6488 -67.811089 -31.298983 6511954
128.91457 -67.892143 -30.424326 7827046
129.17316 -68.066231 -29.465729 9340285
129.44722 -68.219109 -28.485447 9406590
129.74248 -68.342285 -27.476164 9012089
144.28378 -68.27002 33.05019 6511954
144.33676 -67.856636 33.79475 8551021
144.22499 -67.775398 34.868198 8090212
144.12471 -67.749237 35.701385 8879988
124.70686 -66.537842 -44.345001 9734788
124.91145 -66.535591 -43.745171 7564392
125.1583 -66.706734 -42.824986 8946040
125.45226 -66.782593 -41.873775 6511442
125.75822 -66.886848 -40.855267 8550769
126.11134 -66.896584 -39.804459 8353391
126.41304 -66.908218 -38.903133 9142651
126.71382 -66.922775 -38.001106 7432289
127.01377 -66.940247 -37.098312 7236194
127.31287 -66.960716 -36.194675 5591110
127.66071 -66.988342 -35.139236 6182992
128.01033 -66.97541 -34.124218 6643287
128.30954 -66.960991 -33.258953 6050892
128.59926 -67.083038 -32.267262 6511954
144.53078 -67.176857 34.20805 8419435
144.52193 -66.936615 34.941463 8616814
144.41989 -66.870621 35.898907 10130574
144.39671 -66.625076 36.755505 12104881
124.55062 -65.559959 -45.412292 9010808
124.84008 -65.851273 -44.728745 7564134
125.1478 -65.84729 -43.827286 7038305
125.4545 -65.846214 -42.925571 8353650
125.79241 -65.813911 -41.967175 7168860
126.11866 -65.88546 -40.925858 8089706
126.4699 -65.863487 -39.916664 7432806
126.7725 -65.874969 -39.012783 7564394
127.04668 -65.931664 -38.141472 7959151
127.31496 -66.078674 -37.185425 8025454
127.55972 -66.18322 -36.346722 6183253
127.85329 -66.294258 -35.35643 5722700
144.82825 -66.071365 35.016964 9209467
144.83359 -65.773331 35.803486 13025984
144.69795 -65.772919 36.833679 15724269
144.60016 -65.692543 37.798515 9867662
124.27599 -64.625328 -46.21426 9734531
124.71581 -64.783478 -45.655235 10392461
125.19326 -64.820137 -44.854385 8353392
125.5018 -64.816216 -43.950394 8156271
125.80939 -64.815125 -43.046097 7893356
126.12286 -64.886024 -42.043152 6971482
126.43171 -65.029297 -40.971966 7366239
126.70858 -65.17569 -39.991364 7235427
145.07179 -64.983192 36.187805 11906727
145.02969 -64.861191 36.845387 16447734
144.92368 -64.789322 37.849072 10394005
144.88478 -64.595024 38.682816 8419956
124.35681 -63.86219 -46.540779 9274237
124.96462 -63.954777 -45.836533 9997703
125.45477 -63.996716 -45.015205 8813686
125.73756 -64.129654 -44.032349 9734788
145.23302 -64.259132 36.972481 11906727
145.25984 -63.914513 37.725246 9209216
145.16531 -63.77779 38.821503 8419957
145.06123 -63.757381 39.667767 8090992
124.20068 -62.695316 -47.341003 7696745
124.69229 -62.887466 -46.707893 8945268
125.14603 -63.090794 -46.109375 9471355
145.47337 -63.175045 38.155704 6510930
145.49547 -62.88081 38.804127 9340799
145.37268 -62.874161 39.754417 9275005
145.31821 -62.693363 40.66864 11708315
123.77535 -61.574062 -48.4062 9406587
124.27312 -61.872097 -47.709145 7433056
124.95583 -61.973057 -46.9198 8616556
145.76613 -62.075344 38.985126 10854036
145.76759 -61.782406 39.785942 8814197
145.62743 -61.788555 40.83234 10129799
145.53725 -61.737457 41.658531 9275003
123.55601 -60.480877 -49.518196 12828597
124.00983 -60.882675 -48.621433 9669758
124.63223 -61.050156 -47.80719 6511954
146.01851 -60.876526 40.640812 9011320
145.99084 -60.721478 41.695744 8814455
145.90163 -60.653645 42.685364 10065801
145.90926 -60.46888 43.579216 14078918
123.13634 -59.475769 -51.586891 10591378
123.49065 -59.713062 -50.581036 10854809
123.94073 -59.896145 -49.773659 10854808
124.40575 -60.25499 -48.856106 9932931
146.4626 -60.047638 41.83321 7038307
146.42628 -59.952019 42.663357 10196107
146.39117 -59.846241 43.678104 9407872
146.53471 -59.588219 44.604351 8748917
146.81622 -59.384502 45.401718 8090987
146.74562 -59.360092 46.349739 12039079
119.42622 -58.51519 -66.661484 11905692
119.80865 -58.746052 -66.124146 8879987
120.18832 -58.959599 -65.259392 6840918
120.27358 -59.113979 -64.147804 11182226
120.72704 -59.112804 -63.280716 10655883
121.17432 -59.111629 -62.410366 7103834
120.87481 -59.110928 -61.384319 7893093
121.23071 -59.1096 -60.257706 9734529
121.65605 -59.108444 -59.38382 8681835
122.07509 -59.107288 -58.506798 12432037
121.96955 -59.1064 -57.457527 9799805
122.07314 -59.10532 -56.369675 9404790
122.47038 -59.104183 -55.489738 8352870
122.8613 -59.103043 -54.60701 8352870
122.93279 -59.14856 -53.586792 10327692
123.2994 -59.193832 -52.766098 9077625
123.62701 -59.317684 -51.789474 10591378
123.96029 -59.35973 -51.232628 10460308
147.38588 -59.157967 46.36116 8748918
147.22762 -59.122471 47.482544 8354163
147.4184 -58.987675 48.527897 7565161
148.22058 -58.985851 49.789509 8814966
147.97456 -58.985394 50.50032 8222575
147.72574 -58.984947 51.210209 7038307
148.58357 -58.983219 52.317467 7300446
148.32594 -58.982769 53.030155 7760997
149.18587 -58.981022 54.156555 9011064
148.85207 -58.980476 55.050789 7038307
149.64403 -58.9786 56.377144 8946044
149.29684 -58.978058 57.27409 8749178
150.23422 -58.846947 58.40358 10657687
150.25914 -58.593258 58.691635 12236717
119.47515 -57.764259 -67.017174 11183256
120.09422 -57.891495 -66.281326 9933446
120.478 -58.122829 -65.74231 5393730
150.4608 -57.996124 58.771416 13420989
119.19236 -56.97192 -67.752487 10592148
119.78708 -56.825844 -67.191544 8355191
120.21323 -57.074627 -66.597351 8092019
118.8959 -55.724602 -68.749969 15722454
119.33669 -56.014305 -68.117798 9867657
119.94534 -56.03125 -67.453186 8092019
118.67789 -54.522362 -69.638466 8681843
119.05096 -54.874222 -69.04538 8681843
119.63236 -55.031868 -68.333664 8682357
120.00494 -55.387623 -67.738983 8092019
118.7199 -53.778763 -69.997574 8747892
119.34438 -53.89333 -69.262802 8287085
119.78829 -54.180527 -68.628632 8418927
118.45508 -52.85664 -70.784164 9340798
119.10212 -52.777344 -70.130562 7695719
119.45639 -53.200665 -69.518906 5919050
118.17331 -51.834427 -71.643387 7564651
118.67509 -51.965523 -71.031792 8419959
119.26048 -52.035309 -70.363571 7630186
117.88649 -50.583282 -72.632179 8617080
118.32261 -50.897152 -71.991905 9735559
118.90809 -51.077152 -71.263397 8814715
118.05396 -49.751816 -72.902206 8880252
118.64104 -50.02684 -72.120407 9998730
119.1133 -50.353073 -71.434738 10064780
117.82936 -48.719467 -73.703697 7893615
118.37315 -48.919193 -73.009354 8551543
118.87997 -49.164089 -72.33046 10327438
117.5908 -47.656052 -74.537018 11379350
118.02367 -47.843361 -73.968979 9012346
118.59753 -47.928318 -73.304504 8814709
117.28371 -46.708427 -75.395996 7037274
117.73199 -46.819614 -74.889702 9602942
118.30472 -46.909004 -74.197548 8419951
117.16477 -45.68713 -76.672302 9866628
117.60474 -45.895538 -75.962761 7629154
118.11576 -46.054626 -75.231873 8089961
116.43146 -44.5779 -79.657539 7827815
116.93778 -44.649147 -78.778152 9866630
117.02842 -44.933098 -77.8274 9669251
117.48264 -45.093102 -77.004845 9603200
115.15281 -43.7798 -85.52771 9274236
115.63543 -43.942501 -84.924149 9405822
116.04147 -44.135845 -84.15892 9800321
115.62555 -44.135548 -82.602997 9405046
116.18394 -44.19257 -81.707703 9800065
116.42135 -44.315762 -80.880463 8419696
116.93291 -44.386578 -79.997986 8419696
114.79653 -42.808308 -86.298256 9997957
115.2873 -43.04221 -85.758392 9734530
114.51058 -41.604404 -87.088776 9932419
114.88438 -41.986835 -86.593948 9800833
115.49632 -42.120892 -85.997803 9142135
114.52857 -40.845497 -87.411942 10064005
115.18008 -40.987194 -86.784592 8682867
114.24997 -39.63615 -88.192848 11511708
114.78828 -39.814312 -87.647263 10655885
115.2741 -40.12035 -87.090088 9932419
114.32446 -38.873428 -88.468796 10525071
114.97425 -38.93964 -87.876625 10327176
114.03941 -37.792782 -89.197876 7565675
114.57298 -38.094475 -88.601257 10261386
113.73953 -36.59523 -89.991905 10065801
114.17182 -36.97451 -89.44841 9735041
114.78498 -37.082478 -88.869354 11510425
113.84064 -35.822388 -90.249374 9671043
114.45495 -35.928139 -89.670288 8354159
114.88822 -36.308189 -89.125443 9537662
113.46349 -34.634235 -91.106125 14078918
114.04967 -34.810272 -90.52005 10394766
114.51166 -35.222298 -89.936226 8091499
113.61516 -33.901066 -91.317352 13223865
114.24389 -33.908867 -90.762283 12697521
106.21905 -33.153656 -121.13624 10853262
106.47702 -33.099014 -120.55597 8682608
106.81797 -33.026577 -119.78316 11905693
107.23866 -32.936584 -118.81834 9931906
107.65399 -32.84716 -117.85492 10458249
108.06326 -32.758396 -116.89303 6839895
108.387 -32.687759 -116.12438 6510930
113.3604 -32.808704 -92.069489 9537407
113.84525 -33.101601 -91.502159 12959924
114.43448 -33.094891 -90.988281 13023917
108.5166 -32.438305 -111.6351 6510930
108.82047 -32.370361 -110.88252 8090728
109.19521 -32.285919 -109.9431 10261382
109.56487 -32.202068 -109.00503 10064004
109.92884 -32.118855 -108.06841 9077368
110.28776 -32.036148 -107.13318 10524555
110.64108 -31.954012 -106.19949 8880248
110.98945 -31.87245 -105.26721 7564651
111.27117 -31.574116 -100.11961 8682867
111.52776 -31.511681 -99.389816 7761509
112.99577 -31.619505 -92.976547 10261385
113.4198 -31.989532 -92.418312 9077370
114.03137 -32.087379 -91.831879 11708830
112.62274 -30.758261 -95.408966 7893094
113.07737 -30.884964 -94.409637 9668738
113.40542 -31.062136 -93.463638 9275776
113.83012 -31.250629 -92.571045 9012348
132.93507 -73.593895 -14.726144 6972503
133.24812 -73.721184 -13.951133 9142642
133.70456 -73.706726 -13.025094 9405302
134.12312 -73.794922 -12.044049 9799804
134.42934 -73.798195 -11.142259 9273720
134.53072 -73.974129 -10.136197 9931651
134.83275 -74.0513 -9.2225866 9800579
135.08604 -74.050201 -8.2626886 8748403
135.14311 -74.04911 -7.1280522 9735039
135.19113 -74.048019 -5.9929852 11380380
135.69318 -74.046974 -5.2950711 9538176
136.0416 -74.0457 -4.2281766 9407102
136.06508 -74.044617 -3.0856407 10657166
136.27809 -74.043549 -2.1080348 9933700
136.68355 -74.04261 -1.4557254 9473407
136.88467 -74.041534 -0.47120923 8223597
136.8761 -74.040474 0.67828113 8749941
137.34908 -74.039268 1.5734761 8552055
137.65315 -74.038162 2.5043614 7367010
137.62505 -74.03727 3.4951603 8748405
137.99815 -74.036034 4.5017066 11905695
138.36388 -74.034798 5.5138335 9010807
138.31403 -74.033913 6.5096374 8748405
138.67886 -74.032822 7.3638206 9341054
139.02681 -74.031601 8.3893557 9406591
138.94397 -74.030586 9.5566416 10985622
139.51462 -74.029465 10.273252 14604230
139.6377 -74.028419 11.295426 12630444
139.75534 -74.027367 12.320073 8616815
140.30019 -74.026093 13.221486 9603455
140.17659 -74.025101 14.39927 8684155
140.73366 -74.023964 15.144059 9933707
140.82469 -74.022926 16.182348 12104618
140.91023 -74.021896 17.223021 11578016
141.45799 -74.020752 17.98427 10788244
141.29378 -74.019775 19.171587 10853781
142.02612 -74.01828 20.145933 6906456
142.17174 -73.842384 21.064772 6577748
142.34743 -73.744553 21.942358 6709597
142.4577 -73.792046 23.013517 8222063
142.51305 -73.686539 24.079161 8551025
142.60378 -73.641571 25.083815 12433063
142.69238 -73.472603 25.701834 12433063
132.43958 -72.58754 -16.605719 9931646
132.79504 -72.724884 -15.748467 9011057
133.14171 -72.861702 -14.909841 8419433
133.59326 -72.83963 -13.985873 9142386
134.04573 -72.820938 -13.05705 9602681
134.35051 -73.113617 -12.175019 10062976
142.70009 -73.029137 22.232752 5393738
142.76273 -72.957779 23.064157 7038819
142.85693 -72.793121 23.844328 6973021
142.89076 -72.822449 24.852324 10064773
142.97028 -72.734695 25.930868 9801603
143.0248 -72.701126 26.89002 11051415
143.12381 -72.531975 27.741648 12433069
132.00386 -71.624428 -18.324322 9405560
132.3242 -71.674721 -17.613365 9734527
132.64314 -71.860046 -16.792019 10129028
133.0473 -71.898506 -15.916045 8879477
133.54659 -71.803497 -14.953687 9405820
133.86676 -71.998085 -14.121896 9011059
134.18962 -72.060379 -13.395774 9536888
143.12119 -72.074074 23.919241 6183505
143.21863 -71.931595 24.95529 5788489
143.31532 -71.79174 25.995054 7301214
143.34773 -71.82608 27.011614 9537920
143.41795 -71.733902 27.844915 7103835
143.45384 -71.746948 28.763712 6643284
131.83456 -70.613464 -19.527309 9735555
132.1405 -70.87854 -18.665709 9668990
132.59157 -70.841003 -17.755699 9668733
133.04353 -70.806633 -16.841215 10458253
133.3967 -70.988869 -15.950879 9076858
133.75165 -71.07399 -15.13844 8813686
143.51469 -71.16008 25.319445 5065281
143.56685 -71.089775 25.922941 5590599
143.66698 -70.917549 26.775255 7432033
143.74573 -70.833183 27.865305 7169117
143.80594 -70.794518 28.910872 6840409
143.83299 -70.684624 29.742502 7037274
143.83394 -70.454338 30.404844 7037274
131.07887 -69.365433 -22.382723 9210491
131.29008 -69.573158 -21.576935 9276028
131.64886 -69.834724 -20.569862 9867398
132.08495 -69.871704 -19.628092 9735555
132.53654 -69.829765 -18.720249 10064007
132.92352 -69.916275 -17.839626 9800321
133.31006 -70.105354 -16.874014 10655633
143.94621 -70.198303 27.186979 8089963
143.9873 -70.173409 27.913252 7497826
144.16608 -69.772751 28.669359 7169886
144.15425 -69.781044 29.80195 6248531
144.07596 -69.659073 30.774221 7629667
144.08578 -69.353577 31.547441 13024949
130.0811 -68.403603 -26.409143 9735812
130.36345 -68.55127 -25.410387 8682867
130.59686 -68.692459 -24.563082 9603711
130.87178 -68.832382 -23.594931 9932932
131.11345 -68.947891 -22.752304 8815221
131.52711 -68.764473 -21.768805 8486256
131.90979 -68.87381 -20.832933 13287603
132.37462 -68.909157 -19.832422 10590606
132.80083 -69.033325 -18.8379 10721679
133.05864 -69.220894 -18.141788 10853012
144.3763 -69.242821 29.07337 6840922
144.4713 -68.914604 29.817209 6183251
144.38936 -68.76075 30.888033 9604738
144.26009 -68.757599 31.877642 10656913
129.16296 -67.517952 -30.115082 8681843
129.35822 -67.546524 -29.507341 9340285
129.66704 -67.751701 -28.365686 8814453
129.97737 -67.83033 -27.362484 8485745
130.30862 -67.810997 -26.408136 9472640
130.62071 -67.764725 -25.540865 8814453
130.91048 -67.823151 -24.620989 10721934
131.19971 -67.884697 -23.69927 9472639
131.48837 -67.949318 -22.775595 10064776
131.85094 -67.848526 -21.861734 9209723
132.23193 -67.881866 -20.99415 12761259
132.54562 -68.261284 -20.019989 8682867
144.7146 -67.932816 30.716551 10592145
144.62361 -67.838806 31.66781 9407871
144.49283 -67.828728 32.68771 8025449
144.50063 -67.526665 33.467072 9209467
128.47493 -66.709839 -33.055195 6182734
128.78246 -66.564987 -32.31271 7564642
129.01654 -66.773598 -31.387316 6511954
129.31096 -66.812538 -30.475765 8024425
129.60474 -66.854454 -29.562807 9603457
129.94661 -66.907211 -28.495806 8945784
130.28767 -66.963844 -27.426811 8551538
130.58276 -66.970161 -26.550079 9077882
130.99179 -66.769585 -25.571474 9011831
131.28616 -66.781639 -24.690393 9603711
131.5269 -66.938599 -23.803827 8157035
131.80351 -67.079857 -22.829096 9933190
132.00745 -67.189545 -22.104219 10393741
144.93575 -66.933456 31.810747 12039591
144.88951 -66.738228 32.702866 7959913
144.75966 -66.72963 33.711899 6446161
144.77283 -66.427338 34.450542 8089957
127.29482 -65.550423 -37.841908 9537667
127.49541 -65.562294 -37.237637 5393738
127.76742 -65.721428 -36.25655 5393738
128.08078 -65.840416 -35.198742 6117199
128.37169 -65.98484 -34.178379 6380112
128.66896 -66.014595 -33.268803 6709078
129.0265 -65.874779 -32.373199 8090989
129.38362 -65.737892 -31.47551 7038307
129.67914 -65.776291 -30.561386 10063753
129.97395 -65.817665 -29.645857 10392461
130.29254 -65.899025 -28.615238 9405823
130.62691 -65.920158 -27.606148 8879735
130.89021 -66.149841 -26.570799 9340541
131.13823 -66.134026 -25.857929 9340538
145.20247 -65.856056 32.775105 7366750
145.104 -65.824448 33.609795 7366750
145.0146 -65.678238 34.693844 8419182
145.04353 -65.330101 35.439796 8617336
126.3876 -64.475403 -41.727833 6839895
126.63791 -64.566704 -40.887634 5919050
126.8874 -64.660347 -40.047329 6643290
127.1313 -64.843414 -39.122189 8551030
127.43393 -64.857498 -38.215065 9669252
127.73562 -64.874443 -37.307102 5393738
128.03641 -64.894226 -36.398304 8419955
128.38637 -64.921021 -35.336861 7433056
128.73534 -64.951546 -34.274143 6511954
129.0336 -64.980919 -33.362015 7038299
129.33118 -65.013199 -32.44873 7367270
129.68912 -64.876022 -31.548874 7038307
129.93025 -64.99688 -30.701994 10260875
130.21983 -65.127342 -29.701225 10392461
130.41658 -65.156189 -29.089008 9931910
145.37692 -65.010284 33.797325 10984080
145.32806 -64.812126 34.717506 9537408
145.21541 -64.737526 35.779182 11248797
125.42912 -63.438034 -45.616692 9208435
125.65983 -63.533016 -44.935654 8747889
125.91423 -63.615234 -44.09375 9734788
126.21182 -63.754589 -43.06007 8879737
126.54126 -63.822639 -42.013241 8089706
126.87977 -63.794033 -41.048847 6116172
127.18503 -63.802288 -40.140446 7958635
127.48931 -63.813316 -39.231403 7695980
127.79273 -63.827168 -38.321655 7827564
128.09535 -63.843845 -37.411179 5393738
128.42929 -63.830437 -36.442352 8288369
128.72415 -63.958427 -35.428852 8551537
129.03792 -64.091682 -34.353775 8419951
129.2764 -64.292618 -33.424053 7038299
129.52502 -64.319008 -32.661736 7038307
145.67795 -63.858616 34.707413 8945786
145.5786 -63.818352 35.573204 7893613
145.44321 -63.815708 36.607967 9472388
145.44693 -63.519459 37.401104 7958632
125.57091 -62.808716 -45.804035 8945520
125.89803 -62.762566 -45.105129 8221543
126.24071 -62.724319 -44.139416 8418927
126.57236 -62.788918 -43.089958 10130313
126.92846 -62.760399 -42.073418 10920341
127.23544 -62.765701 -41.162971 6511954
127.54147 -62.773773 -40.251987 7893096
127.79811 -62.881939 -39.373459 7826790
128.05914 -63.002914 -38.467663 7300447
128.33492 -63.157539 -37.480442 5392706
128.53667 -63.17001 -36.871853 8287342
145.88884 -62.914921 35.724979 5985875
145.83836 -62.726162 36.631454 5722444
145.7178 -62.714249 37.578926 6510930
145.67363 -62.60788 38.209225 7234653
125.29832 -61.688446 -46.70541 8813934
125.75525 -61.919159 -46.075497 8419433
126.24969 -61.735844 -45.230263 8616558
126.61246 -61.731686 -44.16655 8813941
126.91502 -61.902023 -43.082581 8287853
127.16842 -61.989769 -42.236832 8814965
127.42098 -62.079704 -41.390984 6511954
146.14998 -61.844822 36.711414 7103582
146.04779 -61.818939 37.558601 7432288
145.95343 -61.68 38.659981 8550769
145.97882 -61.336662 39.419914 6511954
125.08577 -60.547455 -47.795654 7959142
125.49889 -60.894459 -47.007698 6972503
126.01591 -61.067665 -46.284592 7169625
126.43179 -61.052822 -45.465759 8090469
146.28149 -61.158073 37.619884 9406334
146.35623 -60.817638 38.391792 7695460
146.26472 -60.718002 39.552879 6840919
146.35223 -60.410522 40.564865 7432544
124.37537 -59.413193 -50.533791 10460308
124.72104 -59.520134 -49.720123 11380636
125.02898 -59.752823 -48.848125 10853775
125.49125 -59.920849 -48.077728 8024935
125.92875 -60.221638 -47.252884 6709331
146.69705 -60.254395 38.860867 10261132
146.73137 -60.110527 39.438057 8682355
146.82857 -59.816319 40.414261 8551025
146.83397 -59.711548 41.450275 7235427
146.92128 -59.516216 42.350239 8617079
146.85278 -59.464249 43.097462 11379609
147.24568 -59.294582 44.180367 7565162
120.74649 -58.698307 -65.140274 9734270
121.30257 -58.806408 -64.454391 10721422
121.83031 -58.934269 -63.606102 11709087
122.14545 -59.110954 -62.536469 9867657
121.93911 -59.110237 -61.57724 9537919
122.04979 -59.109299 -60.660084 9208951
122.54861 -59.107941 -59.633194 8683380
123.03914 -59.106586 -58.602364 8616566
123.24543 -59.105515 -57.619789 10852495
122.89411 -59.104992 -56.74395 11246994
123.35995 -59.103657 -55.710083 7563610
123.81738 -59.102322 -54.672539 11116183
124.20239 -59.101177 -53.780087 9406336
124.29608 -59.111122 -52.695824 7695977
124.28809 -59.179771 -51.714046 9867657
124.62361 -59.277943 -50.893326 9276035
125.20477 -59.297874 -50.170399 7563619
147.60901 -59.249237 42.553082 9208958
147.44864 -59.269032 43.276295 7761772
147.88582 -59.092903 44.182621 7697005
147.63805 -59.124737 45.271946 7696488
148.17384 -58.989185 46.222183 8222833
147.88789 -58.988594 47.110527 9143422
148.70142 -58.986774 48.364128 8420213
148.4025 -58.986195 49.255558 7894380
149.27522 -58.984463 50.351509 10723218
148.96396 -58.983894 51.24622 8354415
149.83791 -58.982143 52.362396 14604230
149.5795 -58.981693 53.080894 7959662
150.45584 -58.979931 54.21632 10262670
150.18852 -58.979481 54.937832 9932937
150.4084 -58.972229 56.050846 7038307
150.72061 -58.812904 57.122532 7302247
150.51175 -58.713058 57.818035 10657687
120.92912 -57.9272 -65.362915 6577490
121.5496 -58.03537 -64.635963 9734527
151.0441 -57.877319 57.226089 7565675
150.78696 -57.787418 58.064335 11447202
150.66232 -57.39888 58.851254 12236717
120.64562 -56.760624 -66.302536 7827817
121.26719 -57.014874 -65.49501 7300957
121.70905 -57.219955 -64.907738 5393730
151.18834 -56.789825 58.011868 9868428
150.92889 -56.79911 58.747253 12565425
120.44781 -55.585636 -67.154449 8552569
120.94553 -55.899441 -66.447876 8683640
121.4435 -56.168217 -65.765518 9734270
151.39278 -55.995644 58.3008 9538435
151.26509 -55.803516 58.879875 11117467
120.1199 -54.692459 -67.993233 9342083
120.62612 -54.834034 -67.37114 9012862
121.23195 -54.950672 -66.65538 9670020
151.53621 -54.810097 59.197231 13288121
119.90128 -53.604599 -68.820328 7893096
120.27618 -53.958542 -68.22406 11117722
120.84763 -54.013199 -67.57901 10459791
119.94431 -52.859241 -69.179153 6379601
120.57246 -52.976051 -68.439285 11643553
121.0188 -53.26535 -67.801361 13617855
119.67847 -51.699352 -70.095871 7827304
