# .PCD v0.7 - Point Cloud Data file format
VERSION 0.7
FIELDS x y z rgb
SIZE 4 4 4 4
TYPE F F F U
COUNT 1 1 1 1
WIDTH 1170
HEIGHT 1
VIEWPOINT 0 0 0 1 0 0 0
POINTS 1170
DATA ascii
-68.665985 -67.361908 -117.76176 7038307
-67.857613 -67.176689 -118.19367 8946554
-66.915489 -67.084419 -118.52267 11578784
-65.888092 -67.006279 -118.82775 12039078
-65.162468 -66.892189 -119.06587 9932937
-116.41351 -65.953697 -86.942482 8879734
-115.8358 -66.085464 -87.674744 9406079
-115.14099 -66.04924 -88.463921 10393230
-114.38476 -66.215385 -89.116432 9142909
-67.012291 -66.238396 -118.82269 11052184
-66.188042 -65.979012 -119.1432 12104358
-64.97435 -66.16143 -119.3978 10458763
-63.988491 -65.793983 -119.80318 9471870
-117.2096 -65.083572 -86.369011 9077116
-116.71159 -65.071365 -87.079803 9077115
-116.17314 -65.02005 -87.872429 9801348
-115.60648 -65.330109 -88.377831 9932934
-65.935036 -65.373932 -119.44405 14077885
-65.257919 -65.161301 -119.70721 12103842
-64.173714 -64.983711 -120.0658 7563619
-63.193027 -64.978317 -120.33038 8616306
-152.355 -63.835014 -64.893616 7564648
-151.88179 -63.767876 -65.559761 7564648
-150.31194 -63.709713 -65.75193 10064262
-149.8382 -63.643253 -66.407921 10064262
-118.01246 -63.970333 -85.939819 8485237
-117.53251 -64.219673 -86.459641 9142908
-116.93865 -64.225784 -87.294113 8945272
-65.13765 -64.404449 -120.03098 11906463
-64.363243 -64.091423 -120.35885 8418927
-63.278805 -64.10408 -120.64422 8484977
-62.315399 -64.087204 -120.90856 7893098
-61.534893 -63.708374 -121.26342 9472900
-149.36205 -63.576988 -67.061073 8814968
-147.81682 -63.520985 -67.23365 8617335
-147.22093 -63.439167 -68.037163 8485237
-146.62155 -63.357639 -68.836525 8551286
-145.22121 -63.320343 -68.829048 7893614
-144.74164 -63.255817 -69.458794 8814713
-144.0183 -63.159485 -70.398445 7367271
-142.48216 -63.090538 -70.509193 9143678
-142.07771 -63.024197 -70.950417 9670021
-141.40138 -62.913979 -71.681679 8485491
-140.58624 -62.782154 -72.552605 9537667
-139.53236 -62.692974 -72.86776 9471359
-138.61755 -62.626282 -73.033714 11380380
-118.88509 -62.859833 -85.410522 8025454
-118.3364 -63.10746 -86.028427 7564648
-117.73647 -63.15749 -86.843636 8879479
-117.20748 -63.485275 -87.38311 7563619
-63.438129 -63.218182 -120.94289 8748404
-62.452156 -63.087978 -121.25694 8156782
-61.496937 -63.002682 -121.54546 7039331
-60.775246 -62.823166 -121.80781 7565418
-137.93816 -62.518147 -73.742195 12630188
-137.11951 -62.388908 -74.585777 12367271
-136.43457 -62.28159 -75.283333 10919573
-135.04716 -62.217583 -75.164665 5919050
-134.50124 -62.132751 -75.712982 6971738
-133.67955 -62.006012 -76.529861 7366754
-132.9921 -61.900799 -77.205132 7038307
-132.30501 -61.797318 -77.87674 7038307
-130.84538 -61.729671 -77.877785 8023913
-130.2065 -61.649147 -78.564423 8287084
-119.96986 -61.761562 -84.850487 9669251
-119.2492 -62.018108 -85.524918 9472128
-118.64521 -62.110336 -86.25042 8617078
-118.14737 -62.37075 -86.761314 9734531
-63.214085 -62.45388 -121.29734 6511954
-62.509007 -62.155975 -121.60079 6774614
-61.677849 -61.966076 -121.8964 6642516
-60.63007 -62.183445 -122.09309 9011834
-59.832272 -61.89922 -122.41611 7959144
-129.50851 -61.542511 -79.212456 7563619
-128.6626 -61.412392 -79.980209 9998215
-127.95506 -61.304306 -80.614372 8814201
-127.52937 -61.239532 -80.992317 7761512
-124.67959 -60.623394 -82.606361 7564392
-123.41869 -60.632084 -82.636848 8024681
-122.51874 -60.778076 -83.216934 6906712
-121.63847 -60.879402 -83.875854 6972249
-120.95326 -61.055614 -84.411583 7301214
-120.29342 -61.069954 -85.195488 9735044
-119.66335 -61.235909 -85.817986 8288114
-61.605167 -61.142319 -122.23324 7563874
-60.840187 -61.195114 -122.41764 9866885
-59.884022 -61.117577 -122.7034 7104091
-58.991531 -60.948128 -123.00756 7696228
-58.351215 -60.65089 -123.29354 7959144
-124.157 -60.466545 -82.693947 7564392
-123.52867 -60.354374 -83.138924 6840921
-122.76403 -60.49297 -83.632614 7695714
-122.03386 -60.539726 -84.288887 6643543
-60.819164 -60.512718 -122.74004 9735299
-60.007633 -60.333477 -123.09982 10854036
-59.132565 -60.129238 -123.49689 7367263
-58.237488 -60.032928 -123.81302 7367263
-57.364365 -59.891357 -124.15949 9537918
-56.509117 -59.710247 -124.5707 9275006
-55.689014 -59.609543 -124.9453 10459025
-57.457294 -59.495281 -124.85538 9537918
-56.684696 -59.468834 -125.14739 9143678
-55.757042 -59.438251 -125.49414 10459025
-54.871181 -59.358513 -126.09693 8881021
-54.038631 -59.33168 -126.49695 8092019
-53.270123 -59.302086 -127.00754 8092019
-52.353123 -59.281139 -127.59576 7959408
-51.436306 -59.280552 -127.9745 9932940
-50.516697 -59.279892 -128.34662 10656400
-49.863033 -59.280365 -129.21552 9997953
-49.00824 -59.280354 -129.95262 8287596
-48.074482 -59.279675 -130.30711 8089963
-47.138226 -59.279057 -130.65488 10589581
-46.199451 -59.27832 -130.99586 10590092
-45.811447 -59.177547 -132.14656 10327437
-44.95216 -59.089714 -132.48219 8419440
-43.882248 -59.081448 -132.75616 7564130
-43.308933 -58.811535 -132.85257 9734788
-44.947445 -58.476757 -132.7243 7169628
-44.046337 -58.239742 -133.07281 8222060
-43.091084 -58.033371 -133.12518 10720910
-43.837097 -57.47163 -133.3719 9734788
-43.170055 -57.031357 -133.49612 9470842
-42.372898 -56.927761 -133.48997 8352103
-43.020847 -56.044418 -133.84889 9141619
-42.152298 -56.15345 -133.76103 8878447
-41.525188 -55.76796 -133.86739 9141619
-42.266727 -55.202969 -134.1151 9141619
-41.360146 -54.997349 -134.14018 8944496
-42.176273 -54.329617 -134.42963 9866366
-41.375107 -53.999329 -134.50613 9142646
-40.646782 -54.08728 -134.4337 8681835
-41.364658 -53.065376 -134.84723 9340540
-40.441578 -53.146942 -134.7664 9406077
-41.221588 -52.232929 -135.14389 11378324
-40.510872 -52.151695 -135.13428 9143161
-39.668118 -51.987061 -135.14793 8617331
-40.43158 -51.270676 -135.45219 8682867
-39.638451 -50.97419 -135.51682 8090987
-38.874207 -50.752289 -135.55573 9143675
-39.67128 -50.351376 -135.86195 8814710
-38.852589 -49.951859 -136.08153 8814710
-38.177288 -49.725147 -136.18558 8419440
-38.000076 -49.324951 -136.59532 8682868
-37.179211 -48.935108 -137.0247 9538433
-36.424175 -48.687889 -137.27176 9340798
-35.86903 -48.547485 -137.39008 9537662
-35.430004 -48.450264 -138.39931 8683125
-34.701656 -48.360085 -138.3149 8682867
-33.002682 -48.383774 -140.0123 9076858
-32.098763 -48.286118 -139.93092 9142908
-31.11878 -48.184414 -141.05441 9867144
-30.393007 -48.105946 -140.97745 7565675
-29.576235 -48.021832 -142.1149 8682610
-28.665667 -47.92337 -142.00423 8813680
-28.01335 -47.857098 -143.16158 10458766
-27.099371 -47.758106 -143.03719 9143675
-26.06304 -47.650284 -144.13933 9668995
-25.329794 -47.570911 -144.02766 9537665
-24.458487 -47.480911 -145.15205 9866374
-23.722807 -47.401157 -145.02925 10261132
-22.6495 -47.28928 -146.11676 10261127
-21.1896 -47.13549 -147.13361 12301226
-20.083265 -47.020012 -148.21783 13024949
-19.339613 -46.939346 -148.0632 11840931
-18.400831 -46.842094 -149.17967 10656913
-17.655279 -46.761158 -149.01355 8682867
-16.698767 -46.661926 -150.12601 8354671
-16.137888 -46.600983 -149.99319 8814966
-15.164686 -46.500023 -151.10361 8353902
-14.414995 -46.418552 -150.91537 10854036
-13.423811 -46.31559 -152.02159 8287855
-12.418039 -46.211056 -153.13278 7039331
-11.663431 -46.129051 -152.92365 8223089
-10.639448 -46.022511 -154.0305 8090987
-10.072367 -45.960812 -153.86522 9341054
-9.031332 -45.852501 -154.9695 9340542
-8.462656 -45.790634 -154.79602 8089963
-7.4044971 -45.680386 -155.89783 8089963
-6.3309345 -45.568558 -157.00464 11379356
-5.5682697 -45.485462 -156.75217 10919062
-4.0943394 -45.330032 -157.72223 10918030
-2.9852011 -45.214382 -158.82407 10063235
-2.4109824 -45.151714 -158.61797 9143163
-1.4761832 -45.055092 -159.78839 9734788
-0.90060639 -44.992256 -159.57417 8617075
0.24342895 -44.872799 -160.67305 7893614
0.82011199 -44.809902 -160.45032 8814713
1.9820459 -44.688503 -161.54634 7432800
3.1606195 -44.565331 -162.64731 7959144
3.7399728 -44.501999 -162.40823 5656901
4.3550854 -44.440468 -163.75293 4867385
4.9368267 -44.376881 -163.50632 8091498
6.1496334 -44.246624 -164.59671 12828597
6.7301998 -44.170998 -164.29669 12828597
7.957098 -44.015568 -165.29633 11775391
9.1995754 -43.85812 -166.29828 8551537
-103.07172 -73.603546 -96.313576 11905951
-102.5211 -73.834633 -96.727615 12234659
-101.79464 -74.097542 -97.207466 10327433
-101.10295 -74.018227 -97.717049 9143417
-100.27407 -73.926086 -98.326424 9340027
-99.373711 -73.903114 -98.929527 9142648
-98.574158 -74.03936 -99.424896 8485232
-97.696571 -74.037506 -100.04219 9406076
-96.872856 -73.958611 -100.64205 9340027
-95.969643 -73.942169 -101.22511 9734272
-95.152992 -73.972878 -101.75634 8879476
-94.309105 -74.105545 -102.32464 6972253
-93.493172 -74.042595 -102.91982 8353906
-92.674118 -73.980042 -103.5091 9734788
-91.82016 -74.045746 -103.8908 7893356
-90.974846 -74.03717 -104.51057 7169630
-90.148605 -73.973289 -105.18399 7235421
-89.349319 -74.033463 -105.71264 11181717
-88.387993 -73.99054 -106.19425 6971481
-87.484566 -73.968475 -106.51769 8616049
-86.781624 -74.054588 -106.85474 11182229
-85.874428 -74.029449 -107.31122 8681835
-85.038292 -73.885742 -107.74612 7892834
-84.25943 -73.640442 -108.19634 6906711
-104.00063 -72.889641 -95.782707 8682867
-103.42729 -73.01812 -96.271675 10919313
-102.67115 -73.170418 -96.925545 11116692
-101.91068 -73.159805 -97.549957 9472381
-101.12574 -73.024155 -98.148788 10130054
-100.37354 -73.037025 -98.658356 10918799
-99.579628 -73.132759 -99.159218 9537406
-98.745003 -73.151382 -99.722595 11313302
-97.940186 -73.119347 -100.28844 9866627
-97.114143 -73.041252 -100.8895 9932165
-96.311523 -73.015282 -101.45114 9998727
-95.417488 -73.077988 -102.03544 9275004
-94.547531 -73.192688 -102.57987 7761772
-93.748283 -73.175858 -103.13506 10261387
-92.858368 -73.248337 -103.71214 9997959
-92.038063 -73.189545 -104.30058 8222321
-91.173157 -73.316605 -104.83596 7958891
-90.353622 -73.263733 -105.41985 8813939
-89.400276 -73.374939 -105.97327 10655374
-88.567558 -73.264679 -106.40706 8418671
-87.724861 -73.010712 -106.88932 9010807
-86.72303 -73.099365 -107.30483 9208180
-85.889854 -73.099319 -107.68034 8682091
-85.085579 -73.051811 -108.06198 7564127
-84.175186 -73.152878 -108.4314 8682092
-83.333305 -72.973518 -108.88326 7564128
-82.527863 -72.788277 -109.32112 6248783
-81.723488 -72.605972 -109.75731 7366496
-105.18752 -71.965973 -95.110237 8092019
-104.44672 -72.159622 -95.727821 9735556
-103.71875 -72.132492 -96.447121 10590605
-102.99043 -72.108528 -97.165154 10327433
-102.21548 -72.055336 -97.838097 7564643
-101.33021 -72.146736 -98.403503 9143417
-100.46389 -72.17997 -98.982117 10260870
-99.566216 -72.338676 -99.525734 10392199
-98.874443 -72.269363 -100.03083 10523788
-98.134834 -72.385704 -100.48521 9537664
-97.444908 -72.320839 -100.98708 9669251
-96.109383 -72.575867 -101.78728 9538176
-95.696907 -72.540443 -102.08588 8682867
-87.48172 -72.558189 -107.18196 7892581
-86.84726 -72.327103 -107.56123 7037274
-86.005241 -72.183533 -107.9986 8682093
-85.034279 -72.143852 -108.45216 7892579
-84.146164 -72.143692 -108.85248 8024164
-83.289314 -71.998001 -109.29753 7235165
-82.486443 -72.058853 -109.63471 7103580
-81.546204 -72.0345 -110.06825 7892840
-80.646896 -71.938866 -110.51217 6774358
-79.639526 -71.652374 -111.08198 8089960
-107.28901 -70.794106 -93.680046 10261132
-106.77621 -70.86142 -94.142021 9734529
-106.1032 -71.062851 -94.689911 9406850
-105.40106 -71.078239 -95.362228 9604485
-104.67107 -71.048676 -96.084717 9932935
-103.99321 -71.130333 -96.699265 9538175
-103.3129 -71.373779 -97.232498 8682867
-85.223763 -71.53141 -108.61442 8287079
-84.287903 -71.272949 -109.14062 8287335
-83.449471 -71.140068 -109.57218 8155754
-82.47541 -71.169907 -109.99906 7037787
-81.599503 -71.121506 -110.41336 7366752
-80.69799 -71.027405 -110.85769 6576723
-79.818359 -71.043053 -111.24775 7498337
-78.860733 -71.027786 -111.68546 9273464
-78.058403 -70.861061 -112.11444 10260100
-77.256882 -70.697113 -112.54192 10261124
-108.49091 -69.829552 -93.014198 7827557
-107.72382 -70.021225 -93.658203 8945008
-107.00945 -70.031219 -94.345192 9273976
-106.27758 -69.996536 -95.072182 10130058
-105.55125 -70.071671 -95.737007 10064522
-104.83385 -70.309341 -96.309227 9933193
-83.271584 -70.56765 -109.88376 8089963
-82.667152 -70.501541 -110.18288 7103580
-81.802475 -70.225891 -110.68397 6577236
-80.915627 -70.05616 -111.15226 6379344
-79.928963 -70.173233 -111.54955 6510930
-79.056328 -70.134819 -111.95831 8616049
-78.157631 -70.051308 -112.39709 10062980
-77.260391 -69.971008 -112.83386 10260612
-76.326859 -70.071892 -113.21378 10260612
-75.469902 -69.820015 -113.70177 9537150
-110.23997 -68.715858 -91.894234 8089963
-109.51757 -68.939117 -92.479774 8617072
-108.7882 -69.003227 -93.153282 9866625
-108.05936 -69.069977 -93.82489 9603196
-107.26833 -69.109726 -94.570732 9339769
-106.57005 -69.170204 -95.215965 10392974
-80.717072 -69.566399 -111.43971 5919050
-80.086197 -69.358765 -111.80796 5919050
-79.225449 -69.162712 -112.27514 7695204
-78.38916 -68.982399 -112.72492 9208444
-77.450951 -69.080925 -113.10785 9800065
-76.51503 -69.182442 -113.48858 9602428
-75.618538 -69.109207 -113.92219 9339772
-74.723297 -69.039116 -114.35397 8747634
-73.892365 -68.87394 -114.79519 8484204
-73.233727 -68.9291 -115.06967 8483690
-111.77802 -67.686119 -90.915604 8616307
-111.05599 -67.907455 -91.509048 9076856
-110.34497 -68.017418 -92.148674 8484721
-109.60064 -68.076355 -92.844978 10261382
-108.92779 -68.075302 -93.497658 9406331
-108.20434 -68.285439 -94.090004 7827298
-107.6214 -68.442528 -94.573555 9142905
-77.603188 -68.369751 -113.32678 9339515
-76.740524 -68.116631 -113.81782 8287341
-75.841194 -68.044304 -114.25237 9273979
-74.943123 -67.975082 -114.68507 8945014
-74.010056 -68.086014 -115.06072 7957860
-73.079033 -68.199852 -115.43421 7431774
-72.231163 -68.09787 -115.85757 8154983
-71.393532 -67.874084 -116.32552 8287341
-70.468849 -67.675186 -116.82257 7695205
-112.86363 -66.781609 -90.315552 10459022
-112.11736 -67.063477 -90.901825 9142907
-111.32418 -67.091835 -91.663597 11248022
-110.53164 -67.123413 -92.423073 9076857
-109.81969 -67.236282 -93.062126 8748146
-109.08497 -67.52298 -93.63092 9406331
-75.83934 -67.323502 -114.54466 9734271
-75.03273 -67.172577 -114.96912 8616048
-74.190712 -67.201103 -115.33706 7892324
-73.293045 -67.138603 -115.76685 6905688
-72.396439 -67.079178 -116.19495 7892067
-71.500771 -67.022758 -116.62139 7498081
-70.605988 -66.969376 -117.04616 7958887
-69.678215 -67.095238 -117.41338 7827561
-68.81884 -66.871567 -117.89108 7827815
-114.41976 -65.707916 -89.341766 7630443
-113.66764 -66.085526 -89.884621 7893358
-112.9925 -66.074745 -90.550903 10393486
-112.2544 -66.212418 -91.202843 9406335
-111.58733 -66.16925 -91.877754 9011321
-110.83671 -66.34848 -92.52076 8221549
-74.035088 -66.472725 -115.70158 7234909
-73.435562 -66.431908 -115.98833 6708565
-72.57225 -66.196564 -116.47253 7103323
-71.708961 -65.964539 -116.95538 7367262
-70.777237 -66.087982 -117.32536 8353900
-69.847229 -66.214249 -117.69341 8682611
-68.952202 -66.167274 -118.11572 8222317
-68.057228 -66.122665 -118.53544 8420208
-67.246986 -65.78289 -118.93538 10788755
-116.06565 -64.607574 -88.285011 9932934
-115.37455 -65.084061 -88.729271 9340797
-114.67033 -65.066231 -89.424736 7169892
-113.8757 -65.19577 -90.135902 7564650
-113.13561 -65.143616 -90.886902 9340543
-112.38175 -65.318787 -91.535088 8616562
-70.914055 -65.383606 -117.54845 10261382
-70.003891 -65.200317 -118.03271 10129544
-69.152069 -65.111992 -118.45229 9340286
-68.255051 -65.068573 -118.8741 9472384
-67.317474 -64.988731 -119.22247 10591632
-66.391754 -65.031464 -119.45377 12762032
-153.59126 -63.844002 -65.193871 10854036
-153.11375 -63.77631 -65.86483 7564648
-151.52519 -63.717621 -66.057533 9209214
-151.04723 -63.650654 -66.718193 9077884
-116.69053 -63.860664 -87.875389 8616307
-116.2161 -64.046127 -88.39814 9603969
-115.56083 -64.191856 -89.003387 8419695
-114.85743 -64.137337 -89.716721 7761770
-114.14347 -64.273407 -90.345474 7038307
-113.47185 -64.414513 -90.930649 7958892
-69.1353 -64.401764 -118.74702 8879991
-68.352646 -64.222992 -119.17195 9275260
-67.499046 -64.042244 -119.53853 9736323
-66.485725 -64.188751 -119.75327 12696494
-65.570801 -64.050003 -120.05164 12695978
-64.785881 -63.661518 -120.41139 8616562
-150.44673 -63.56715 -67.54052 9734788
-149.00345 -63.527424 -67.549095 8616307
-148.52292 -63.461426 -68.196953 9208958
-147.91931 -63.37915 -69.003212 8090736
-147.55547 -63.330013 -69.484718 7038307
-146.01833 -63.276363 -69.63102 8485749
-145.28996 -63.179199 -70.578712 7038307
-144.80177 -63.114563 -71.207207 7170141
-143.39888 -63.073814 -71.170372 10262156
-142.7184 -62.963322 -71.908974 9012088
-141.89638 -62.830334 -72.787636 8682616
-141.20847 -62.719925 -73.514259 9537667
-139.76733 -62.650879 -73.416328 10261643
-139.49344 -62.607262 -73.702492 10261643
-117.62949 -62.743835 -87.256416 9734531
-117.09994 -63.072552 -87.795975 8221549
-116.48723 -63.122192 -88.602028 8485489
-115.77967 -63.123558 -89.335716 8090987
-115.03157 -63.396404 -89.92514 8419698
-67.295319 -63.385841 -119.84592 8682867
-66.634521 -63.184158 -120.10052 9998212
-65.716927 -63.046749 -120.39902 8879221
-64.78537 -62.999016 -120.66673 8484720
-63.951862 -62.87484 -120.93765 9736323
-139.0818 -62.541882 -74.130104 9142907
-138.53151 -62.454987 -74.697441 8089963
-137.84116 -62.346684 -75.401901 9406594
-137.2874 -62.260262 -75.96212 7038307
-135.74687 -62.174664 -75.975456 7827304
-134.91843 -62.046814 -76.799507 8222317
-134.22543 -61.940697 -77.480713 8617075
-133.52983 -61.834961 -78.156532 7564650
-132.98378 -61.756149 -78.700874 8616310
-131.52742 -61.69685 -78.705765 7366499
-130.8913 -61.620388 -79.400543 8682611
-118.53077 -61.663692 -86.821144 8617078
-117.97686 -61.965004 -87.292259 7826792
-117.37125 -62.011967 -88.088921 9011065
-116.79238 -62.237114 -88.743179 9405822
-66.49147 -62.41655 -120.43452 9537150
-65.781883 -62.110279 -120.74247 9011063
-64.912498 -62.084766 -120.98497 8221549
-63.917126 -62.167027 -121.21967 8091242
-63.056934 -61.877144 -121.56158 7104347
-130.49734 -61.569599 -79.808723 8682611
-130.0705 -61.50399 -80.195717 8748406
-129.35715 -61.394825 -80.836487 8222065
-128.78493 -61.307732 -81.345665 8814201
-127.10283 -61.174908 -81.368202 7367013
-126.38998 -61.067314 -81.990364 8221803
-125.54501 -60.897552 -82.523232 9208702
-120.24944 -60.68449 -85.652603 10261132
-119.62794 -60.896355 -86.227669 9406335
-118.99445 -60.996655 -86.937729 8946041
-118.32825 -61.082344 -87.705643 7563878
-117.73993 -61.315262 -88.215225 7563619
-64.86515 -61.269428 -121.31177 8945270
-64.104942 -61.128593 -121.5695 9341565
-63.070484 -61.070602 -121.86869 9209979
-62.198025 -60.860989 -122.18794 10393485
-122.71954 -60.300888 -84.106239 7038307
-122.25633 -60.271584 -84.657166 7038307
-121.49931 -60.36211 -85.221352 6511954
-120.79097 -60.315323 -86.033226 10261132
-119.88787 -60.387108 -86.70414 9735041
-119.40847 -60.355038 -87.236626 9735041
-64.100838 -60.451942 -121.91141 11381404
-63.286095 -60.26519 -122.27868 10394253
-62.319389 -60.110249 -122.66122 10590864
-61.422951 -60.027939 -122.97198 9998471
-60.516083 -59.814201 -123.41985 8748660
-59.818878 -59.663113 -123.80781 7959144
-59.730988 -59.472942 -124.32774 8880761
-58.810429 -59.456089 -124.62722 7433315
-57.982498 -59.373608 -125.11942 8880245
-56.91209 -59.301693 -125.64088 9143678
-55.992146 -59.283466 -126.01508 10919319
-55.544025 -59.28426 -126.90622 10195851
-54.859814 -59.284359 -127.55195 8353646
-53.943333 -59.283798 -127.94874 8156779
-53.023983 -59.283127 -128.33896 8354158
-52.1017 -59.282513 -128.72247 16247774
-51.022312 -59.281822 -129.16124 10327176
-50.600185 -59.28307 -130.35835 6380368
-49.657074 -59.037704 -130.84041 8024678
-48.770382 -58.931416 -131.20493 9471872
-47.79911 -59.09874 -131.48093 9735043
-46.850353 -59.093094 -131.81563 11577760
-46.081455 -58.915134 -132.15486 11577760
-48.666969 -58.112331 -131.56372 8222573
-47.912186 -58.223022 -131.78482 8879990
-46.961239 -58.217419 -132.12027 11314332
-46.010113 -58.214432 -132.45479 9340286
-45.147682 -58.003864 -132.83963 6511954
-44.466164 -57.864983 -133.13293 6511954
-47.843864 -57.521542 -132.08397 8617075
-47.048977 -57.210732 -132.48447 8353135
-46.140503 -57.164204 -132.82111 7563619
-45.186436 -57.163826 -133.15559 6577747
-44.268925 -57.111877 -133.46674 8222060
-46.227371 -56.464321 -133.06522 7563619
-45.383217 -56.201534 -133.46417 7827044
-44.417126 -56.071056 -133.82338 8748146
-43.520603 -55.950203 -133.91103 9010547
-44.690556 -55.328346 -134.04945 8287336
-43.650608 -55.013168 -134.26102 8813678
-42.713604 -54.863529 -134.26393 9866366
-43.512634 -54.260014 -134.52892 10787211
-42.724514 -54.031254 -134.56903 10326660
-43.598091 -53.567101 -134.78716 13550517
-42.795609 -53.196499 -134.87834 11050640
-41.948673 -52.807407 -134.97388 9800576
-42.783077 -52.298214 -135.20627 9866366
-41.975708 -51.970192 -135.28166 10129284
-41.261829 -51.887981 -135.27223 11378324
-41.970806 -51.041965 -135.64026 8813684
-41.093071 -51.120262 -135.54381 9668991
-41.098473 -50.283272 -136.05228 9669249
-40.169319 -50.003128 -136.1716 9340798
-39.455093 -49.703339 -136.32669 9538433
-40.271919 -49.511833 -136.68149 10129545
-39.369617 -49.26907 -136.89586 9471611
-38.501427 -48.895405 -137.31705 9669506
-37.647102 -48.722778 -137.43231 9735812
-36.888218 -48.626602 -138.54561 7630442
-34.817299 -48.579884 -140.16026 8814969
-36.158798 -48.539345 -138.47708 7039331
-34.090439 -48.501343 -140.10332 8551027
-33.304909 -48.420715 -141.26694 9537409
-32.574734 -48.34185 -141.19926 9537409
-31.8458 -48.262985 -141.12872 9537665
-30.855215 -48.16021 -142.26126 8813686
-29.297407 -47.996071 -143.32726 6511954
-28.272848 -47.889542 -144.45622 8682867
-27.534582 -47.809643 -144.35364 8485749
-26.797789 -47.729885 -144.24835 9734788
-25.935148 -47.640915 -145.38878 8682615
-25.195784 -47.560764 -145.27219 8616822
-24.130072 -47.449806 -146.3775 9011578
-23.048319 -47.33707 -147.48431 10261385
-22.303503 -47.25631 -147.34618 9143164
-21.389486 -47.161736 -148.48116 10985366
-20.829 -47.100979 -148.3694 10985366
-19.898359 -47.004608 -149.50256 7827302
-19.148577 -46.923225 -149.34271 12630959
-18.200006 -46.824978 -150.47217 9669762
-17.448294 -46.743324 -150.30063 7828326
-16.481688 -46.643097 -151.42627 7894376
-15.916292 -46.581692 -151.28928 7039322
-14.743845 -46.459068 -152.36438 8550513
-13.175383 -46.293404 -153.33844 8288883
-12.158796 -46.187778 -154.4631 7039331
-11.398191 -46.105083 -154.24792 8946554
-10.363329 -45.997417 -155.36838 8090987
-9.7915859 -45.935253 -155.19849 11248795
-8.7393894 -45.825748 -156.31641 9274235
-8.1662312 -45.763325 -156.13823 8089963
-7.0965366 -45.651974 -157.25378 8550773
-5.4348698 -45.476097 -158.18024 10392461
-4.5244617 -45.382137 -159.366 7564643
-3.7537329 -45.298145 -159.09619 8353645
-2.2466223 -45.139076 -160.0714 8617075
-1.1080878 -45.020271 -161.18741 8617075
-0.52779603 -44.956974 -160.96791 7893614
0.62888122 -44.836178 -162.08121 7893614
1.2100503 -44.772762 -161.85306 7038307
2.3849847 -44.649963 -162.96356 8682867
3.7714822 -44.504215 -163.99791 11381404
4.784811 -44.399147 -165.19991 11381404
5.3709927 -44.33514 -164.9476 9802375
6.4011745 -44.22086 -166.12479 12828597
6.9864025 -44.143658 -165.81494 10460308
8.2266216 -43.9865 -166.83035 10261895
9.4824352 -43.827377 -167.84819 8091499
-93.54438 -72.740715 -103.47054 13550517
-92.996391 -72.700089 -103.86425 10984852
-92.174797 -72.64167 -104.45343 7564392
-91.354439 -72.864723 -104.91512 8090734
-90.442238 -72.89814 -105.52191 8813939
-89.589409 -72.931267 -106.06618 11642012
-88.702164 -72.720947 -106.56657 8879222
-101.62028 -71.610634 -98.446037 8089955
-100.26915 -71.844925 -99.266243 9011318
-99.714317 -71.78833 -99.671913 10194564
-98.78933 -71.790878 -100.30445 8748147
-98.069107 -71.778625 -100.80347 7235677
-97.310295 -72.027298 -101.21142 8879990
-96.527763 -72.051102 -101.73682 9340797
-95.641701 -72.055428 -102.34194 8880246
-94.828705 -72.095566 -102.88091 9274750
-94.004128 -72.031174 -103.47483 10392973
-93.203087 -72.018074 -104.02953 8551030
-92.31134 -72.094368 -104.60609 6511962
-91.419899 -72.173203 -105.17914 8222062
-90.619194 -72.167564 -105.72552 9142391
-89.786812 -72.110039 -106.29668 11642266
-88.881447 -71.996704 -106.77894 8353131
-87.919388 -72.055901 -107.18822 7892581
-87.102394 -71.857071 -107.6366 7037274
-86.134895 -71.64254 -108.15916 8945264
-103.87941 -70.647751 -97.058998 8682867
-103.28548 -70.894844 -97.506668 8024425
-102.5308 -71.061996 -98.069046 8418923
-101.57047 -71.119316 -98.701225 9208180
-100.74596 -71.140244 -99.256721 8945524
-99.911575 -71.055313 -99.86657 9405562
-99.100853 -71.022728 -100.4367 8748146
-98.197815 -71.07814 -101.03047 7893351
-97.31913 -71.185631 -101.58409 9669251
-96.536102 -71.070747 -102.17225 9538176
-95.799194 -71.055847 -102.68386 10327692
-95.063164 -71.043221 -103.19379 9867142
-94.235847 -71.118973 -103.72652 9998214
-93.350754 -71.133682 -104.32622 8024941
-92.537575 -71.182343 -104.85904 9735557
-91.71067 -71.126244 -105.44569 9341054
-90.884224 -71.07328 -106.03053 9010805
-90.052322 -71.018898 -106.60672 9405563
-89.105286 -71.092476 -107.04416 8945265
-88.140594 -71.152679 -107.45419 8484716
-87.223022 -71.035614 -107.9148 7432030
-86.326561 -71.030205 -108.32066 8024165
-85.351799 -70.991608 -108.77524 8024165
-84.538078 -70.803581 -109.21783 8089957
-83.725609 -70.618454 -109.65865 8353131
-105.64761 -69.596359 -95.889397 9933193
-104.72697 -70.02626 -96.559067 9801350
-104.03044 -70.095139 -97.19828 8353134
-103.29774 -70.072632 -97.919327 7563619
-102.53673 -70.144226 -98.477989 9668476
-101.83517 -70.170174 -98.94696 10523784
-101.04432 -70.040924 -99.546989 10260871
-100.21889 -70.065506 -100.10142 10062978
-99.261765 -70.133759 -100.72649 8748146
-98.439537 -70.16433 -101.27602 7104091
-97.606529 -70.089828 -101.88026 10327180
-96.787025 -70.126076 -102.42542 10326921
-95.896317 -70.132668 -103.03271 8616303
-95.112282 -70.163933 -103.55582 8813939
-94.282814 -70.379929 -104.02674 8353647
-93.527687 -70.361855 -104.55019 8551026
-92.717545 -70.452911 -105.06025 10656402
-91.888847 -70.397301 -105.64786 9209467
-89.184792 -70.450134 -107.26834 8550509
-88.361572 -70.250603 -107.71983 8024166
-87.512375 -70.004448 -108.20185 7563616
-86.452866 -70.152519 -108.61907 7300445
-85.564949 -70.092865 -109.04305 7629408
-84.651802 -69.986938 -109.49715 7497822
-83.699051 -70.06356 -109.89518 7103578
-82.790359 -69.964142 -110.34469 6643285
-81.924126 -69.689178 -110.84612 6708821
-81.320213 -69.627045 -111.14342 6840151
-106.46358 -68.88578 -95.466125 12169897
-105.74391 -69.121628 -96.041466 9801610
-105.01592 -69.20002 -96.706245 8748924
-104.28191 -69.174805 -97.430374 9208442
-103.56576 -69.199509 -98.111473 10721423
-102.6946 -69.271461 -98.76252 9734525
-101.89814 -69.281792 -99.303566 11049872
-101.10305 -69.294724 -99.842506 14075837
-100.35484 -69.40847 -100.30395 10589065
-99.468658 -69.511047 -100.86497 8682610
-98.911263 -69.459259 -101.27013 9735555
-87.265297 -69.557037 -108.49426 7760994
-86.625771 -69.331955 -108.87334 8024169
-85.752373 -69.113304 -109.35518 7432544
-84.862114 -69.090378 -109.76534 7959400
-83.906898 -69.167931 -110.16415 7498849
-82.995644 -69.069511 -110.61432 7170140
-82.114021 -69.022919 -111.03022 6577491
-81.138649 -69.060936 -111.45409 6379600
-80.328476 -68.89032 -111.88815 6116429
-79.519371 -68.722435 -112.32072 6510930
-107.99845 -67.839325 -94.519989 8090987
-107.40047 -68.108604 -94.960152 11380381
-106.79126 -68.155388 -95.526215 10985879
-106.05549 -68.124512 -96.255028 8617337
-105.31952 -68.096642 -96.982468 7564651
-104.57219 -68.293793 -97.604607 8024685
-103.99249 -68.424118 -98.098915 10063750
-84.988174 -68.552994 -109.92609 8551537
-84.114464 -68.273354 -110.43276 7498849
-83.193352 -68.038094 -110.94282 7433312
-82.228165 -68.153915 -111.33057 6906713
-81.338768 -68.169197 -111.72488 6576980
-80.430923 -68.081291 -112.1693 6576980
-79.524773 -67.996628 -112.61173 6576723
-78.581749 -68.092888 -112.99771 8945272
-77.717216 -67.8368 -113.49083 9076600
-109.66072 -66.806145 -93.437729 7563619
-109.061 -67.041313 -93.902336 7563619
-108.32876 -67.110077 -94.577003 8024682
-107.59089 -67.074638 -95.310188 9867398
-106.85297 -67.04216 -96.041901 8485745
-106.10319 -67.234825 -96.668678 7564651
-82.354362 -67.450089 -111.5586 8354670
-81.512329 -67.198021 -112.03985 7366495
-80.667801 -67.013718 -112.49474 7432544
-79.779747 -67.035507 -112.88587 7169116
-78.774193 -67.204605 -113.27024 8024170
-77.869232 -67.126945 -113.70937 10062980
-76.965698 -67.052414 -114.14664 9602172
-76.127556 -66.883186 -114.59277 9733758
-75.312668 -66.923782 -114.94359 8616048
-110.86716 -65.844353 -92.748703 8814201
-110.11332 -66.082542 -93.364685 7169635
-109.37648 -66.04364 -94.105736 7958376
-108.63914 -66.007408 -94.844765 9537406
-107.94772 -66.098938 -95.468857 8485745
-107.30392 -66.318069 -95.97937 10591121
-79.822731 -66.356369 -113.14139 6511954
-78.957504 -66.181198 -113.6019 6117452
-78.097099 -66.063438 -114.03706 8615791
-77.19062 -65.989822 -114.47509 9535868
-76.307533 -66.023567 -114.85919 9338746
-75.308762 -66.205261 -115.23582 9536124
-74.453705 -66.099045 -115.66411 8812914
-73.542336 -65.902397 -116.15429 6971737
-72.677658 -65.667519 -116.63892 6708565
-112.4134 -64.814079 -91.76223 7564642
-111.6563 -65.048271 -92.383385 7761767
-110.96078 -64.960754 -93.108849 8090736
-110.28904 -65.077354 -93.706642 7564393
-109.57415 -65.157715 -94.365189 7563619
-108.96703 -65.277443 -94.898163 12102816
-78.097351 -65.34269 -114.32863 7761000
-77.283531 -65.187904 -114.75782 9601661
-76.404999 -65.165253 -115.16263 9470075
-75.527802 -65.145363 -115.56574 9010294
-74.62339 -65.081497 -115.99903 8155498
-73.720161 -65.020622 -116.43066 6642516
-72.818016 -64.962715 -116.86063 7695716
-71.882225 -65.083771 -117.23337 10787469
-71.01664 -64.855713 -117.71567 11905692
-70.416924 -64.822525 -117.9993 11905692
-154.72386 -63.836021 -65.666985 10262412
-154.3625 -63.784927 -66.173943 10524816
-153.99983 -63.733837 -66.679352 10853012
-152.39299 -63.675049 -66.866096 8222318
-114.18015 -63.711472 -90.596832 8089963
-113.44964 -63.929985 -91.200089 8287854
-112.71249 -63.989208 -91.891235 8156523
-111.91831 -64.127686 -92.597679 7564643
-111.1771 -64.084969 -93.344887 7301478
-110.41326 -64.305084 -93.979912 9472129
-109.78799 -64.571579 -94.455658 7563619
-76.278709 -64.483353 -115.49554 9010294
-75.67379 -64.439568 -115.78567 8550257
-74.803474 -64.199989 -116.27455 6907230
-73.93338 -63.963699 -116.76205 6971737
-72.993385 -64.082443 -117.13748 7958888
-72.055351 -64.203995 -117.51108 10787469
-71.153275 -64.152466 -117.9384 9735039
-70.252068 -64.103828 -118.36419 7893607
-69.41349 -63.959911 -118.80025 8617075
-68.576088 -63.755543 -119.26024 8814453
-67.908035 -63.6287 -119.58836 8682867
-151.78813 -63.590904 -67.695549 8879991
-151.42337 -63.540493 -68.190956 8616307
-149.84227 -63.484013 -68.357933 9340030
-149.11223 -63.384556 -69.332985 11379609
-148.62282 -63.318481 -69.979668 7038307
-147.19011 -63.280827 -69.964447 7433064
-146.57835 -63.199238 -70.76046 7367522
-145.9633 -63.117874 -71.552139 7170141
-145.07457 -63.075748 -71.772621 8683380
-144.04781 -63.010742 -72.135452 9406846
-143.22495 -62.879272 -73.025032 6906712
-142.53114 -62.767879 -73.758217 9537667
-142.11348 -62.701263 -74.19561 9537667
-140.6561 -62.631889 -74.091705 10524559
-115.62093 -62.687096 -89.713066 8089963
-115.01022 -62.91087 -90.194237 8089963
-114.27473 -63.073761 -90.830368 8747892
-113.53231 -63.066917 -91.560463 10919060
-112.85213 -63.061275 -92.229042 10459022
-112.15018 -63.312912 -92.787338 9867141
-111.45678 -63.540062 -93.349815 9735044
-73.066147 -63.410389 -117.37653 6971481
-72.216415 -63.19112 -117.848 7366751
-71.35804 -63.098522 -118.27222 7695460
-70.45414 -63.05056 -118.69895 8419439
-69.551018 -63.005459 -119.12415 8682867
-68.648674 -62.963184 -119.5479 8682867
-67.756577 -63.043804 -119.85429 9011831
-67.071754 -62.830124 -120.11986 10459019
-140.24068 -62.566013 -74.522705 10261643
-139.82436 -62.500282 -74.951637 9340542
-139.12825 -62.391014 -75.662315 10985111
-138.42979 -62.282135 -76.368126 7761772
-136.87067 -62.19566 -76.379837 7761772
-136.31381 -62.109688 -76.934059 8221805
-135.6154 -62.002636 -77.621941 8617075
-134.77426 -61.874603 -78.44088 9077885
-134.07841 -61.77179 -79.122322 8616310
-132.60042 -61.709801 -79.122902 8616310
-132.0876 -61.648144 -79.683144 9735043
-116.66483 -61.728916 -89.177727 8090219
-116.03298 -62.153255 -89.584457 8089963
-115.28374 -62.09758 -90.342659 8089963
-114.46533 -62.181446 -91.100067 9273979
-113.75477 -62.228416 -91.771431 14602949
-113.08665 -62.38924 -92.343147 12301226
-71.343414 -62.388325 -118.56602 7958376
-70.530022 -62.25753 -118.98536 8682611
-69.688072 -62.051987 -119.44789 8682867
-68.812393 -62.087307 -119.82822 8682867
-67.851959 -62.201466 -120.15285 10064261
-66.928925 -62.062515 -120.45387 11905951
-66.16938 -61.794926 -120.76022 11445144
-131.44366 -61.571327 -80.379128 11576735
-130.63582 -61.464817 -81.189232 8090733
-130.05858 -61.376854 -81.703094 7038307
-128.35457 -61.242447 -81.724922 7038307
-127.77961 -61.155571 -82.227882 8090474
-127.05877 -61.047329 -82.851509 7761512
-126.19077 -60.917728 -83.593025 8024942
-125.46516 -60.810001 -84.20533 8090736
-124.73725 -60.702579 -84.811905 8814201
-124.15353 -60.616856 -85.293762 9536894
-118.41749 -60.649948 -88.05394 7827820
-117.69567 -60.936234 -88.678612 8617331
-117.02447 -60.958725 -89.449211 8551282
-116.13593 -61.18935 -90.052284 8089963
-115.48148 -61.232803 -90.623642 8089963
-114.78887 -61.34956 -91.208748 8089963
-68.851372 -61.47134 -120.05966 9209211
-68.002014 -61.196362 -120.49748 12695466
-67.077347 -61.059761 -120.80043 13287346
-66.106491 -60.965797 -121.10022 11774108
-65.328964 -61.007671 -121.28846 10458251
-123.71471 -60.552685 -85.652557 10851980
-123.27525 -60.488609 -86.009727 10851980
-121.93958 -60.038086 -85.96209 9011320
-121.07903 -59.91983 -86.673706 10261132
-120.31774 -60.013672 -87.23082 9931907
-119.43486 -60.13538 -87.76825 9208698
-118.64953 -60.182743 -88.445122 8222062
-117.95994 -60.235394 -89.15229 8617331
-116.69483 -60.584988 -90.089386 8089963
-67.091263 -60.38966 -121.1631 11378324
-66.272835 -60.19593 -121.53695 10657421
-65.346565 -60.13311 -121.8436 12761514
-64.509361 -59.940376 -122.25377 10854805
-63.579365 -59.871723 -122.51599 11644064
-62.889439 -59.742386 -122.80386 10591377
-63.720921 -59.566353 -122.96241 12301994
-62.780441 -59.480835 -123.49468 8749173
-61.992397 -59.403194 -123.96037 7893608
-61.06715 -59.36974 -124.3399 11314586
-60.296856 -59.287628 -125.03307 11774882
-59.39835 -59.287052 -125.46926 7170658
-58.496685 -59.286575 -125.89883 6511954
-57.59198 -59.286007 -126.32191 6511954
-56.684261 -59.285492 -126.73851 7695204
-56.141289 -59.286385 -127.76922 10524816
-55.242802 -59.286213 -128.42749 9340541
-54.315193 -59.184479 -128.98657 9011576
-53.492588 -58.986645 -129.45387 10261641
-52.549732 -58.972157 -129.81018 10064262
-51.606167 -58.959404 -130.16347 7893351
-50.692657 -58.781052 -130.59149 6380368
-49.92498 -58.594345 -130.93376 7367005
-53.300575 -58.303925 -129.86469 11182486
-52.593693 -58.054283 -130.21037 8682867
-51.73978 -58.096294 -130.49318 8485230
-50.788418 -58.080284 -130.83284 6840918
-49.837231 -58.066864 -131.17143 7761764
-49.105125 -57.999844 -131.45435 8617075
-51.768822 -57.429474 -130.74457 8419438
-50.941906 -57.249035 -131.10515 7630179
-50.022999 -57.157269 -131.4632 8682611
-49.001305 -57.180763 -131.81204 9997959
-48.106121 -57.073006 -132.16801 7959145
-47.456783 -56.818619 -132.49535 7563619
-50.322208 -56.354534 -131.67325 8617078
-49.458233 -56.134045 -132.06253 10457736
-48.433918 -56.159744 -132.41142 9010550
-47.439838 -56.118397 -132.776 9274495
-46.611485 -55.940235 -133.1362 8616823
-45.835487 -55.764065 -133.47729 9471611
-49.231667 -55.430931 -132.41779 10062979
-48.579895 -55.175312 -132.74646 7695205
-47.679775 -55.069519 -133.10339 9011323
-46.72076 -55.065792 -133.44095 7630186
-45.761547 -55.064579 -133.7776 8089959
-44.891155 -54.855789 -134.16452 7563616
-47.608807 -54.369221 -133.403 7893358
-46.806339 -54.06028 -133.80545 7038307
-45.890057 -54.015465 -134.14413 7958372
-44.927853 -54.016685 -134.48087 7168859
-44.137817 -53.91552 -134.68947 9142646
-45.905987 -53.228725 -134.4472 8089958
-45.053699 -52.967697 -134.84831 7300704
-44.082706 -53.023281 -135.01285 11774106
-43.324547 -52.830837 -135.04132 13550517
-44.815311 -52.269146 -135.2059 6511962
-44.026913 -52.211994 -135.30656 9997696
-43.183979 -51.994614 -135.33949 9471351
-44.035648 -51.509281 -135.5641 9142647
-43.258739 -51.077179 -135.71355 9010803
-42.387051 -50.756283 -135.82545 8681843
-43.328842 -50.442757 -136.15048 9010803
-42.449238 -50.167953 -136.28745 8681843
-41.655243 -49.799679 -136.53069 10459022
-40.988701 -49.587521 -136.6908 10459022
-41.65229 -49.396973 -137.09921 11380380
-40.813267 -49.177315 -137.28928 9800835
-39.794582 -48.940796 -137.47379 9537403
-38.895466 -48.859669 -138.69514 9143162
-37.982853 -48.755074 -138.63451 8814713
-36.458401 -48.757172 -140.27501 12432037
-35.545898 -48.658623 -140.21307 9406848
-34.770061 -48.579128 -141.39182 7039331
-34.0368 -48.499905 -141.33081 8813686
-33.058983 -48.398533 -142.4895 9866374
-32.138988 -48.299034 -142.39806 9998216
-31.325209 -48.215473 -143.56831 9537665
-30.586485 -48.135502 -143.48343 7563874
-29.75498 -48.049988 -144.65109 8682867
-29.013231 -47.9697 -144.55504 8682867
-27.791227 -47.841885 -145.6669 7039331
-27.047564 -47.761372 -145.55788 7039331
-26.178045 -47.671684 -146.71581 9734788
-25.618055 -47.611004 -146.62599 8616822
-25.059069 -47.550438 -146.53461 6511962
-24.544298 -47.499245 -147.75037 6511962
-23.795488 -47.418095 -147.61861 8814199
-22.89012 -47.324551 -148.77025 7038307
-22.139006 -47.243046 -148.62703 10919056
-21.027021 -47.127052 -149.73679 9011320
-20.462057 -47.065777 -149.6207 9011320
-19.520815 -46.968349 -150.76486 9998727
-18.765188 -46.886265 -150.59903 10656913
-17.805777 -46.786903 -151.73941 8749173
-17.048204 -46.704597 -151.56186 7894376
-16.260683 -46.623856 -152.74561 8814966
-15.690596 -46.561932 -152.60423 9735812
-14.506186 -46.438091 -153.6915 9669506
-12.922392 -46.270836 -154.67474 7631210
-11.895079 -46.16412 -155.81326 9933193
-11.128145 -46.080666 -155.592 8880503
-10.082159 -45.971851 -156.72627 10591121
-9.5058231 -45.909168 -156.55167 13551289
-8.4422245 -45.798531 -157.68361 9735301
-7.8643894 -45.735538 -157.50061 8089963
-6.7831516 -45.622963 -158.63022 8288371
-5.2984104 -45.466473 -159.63263 8683379
-3.4071372 -45.265652 -160.49113 8550768
-1.8845313 -45.104969 -161.47733 7893352
-0.73329377 -44.984879 -162.60806 14076861
-0.1485312 -44.921062 -162.38318 10985109
1.0211847 -44.798927 -163.51123 9472640
1.6069925 -44.734943 -163.27762 8682867
2.5993402 -44.632206 -164.48367 7039331
3.1864374 -44.568058 -164.24161 7235421
4.1966381 -44.463451 -165.45056 11052188
5.812933 -44.292576 -166.41173 9143675
6.854269 -44.167702 -167.57027 10788244
7.4437771 -44.089886 -167.25383 8814966
8.6976833 -43.93103 -168.28256 8092011
9.7704144 -43.796139 -169.42511 14076861
-96.73053 -69.642311 -102.68182 10523529
-96.31443 -69.608292 -102.98225 9734270
-94.974556 -69.874908 -103.78022 7169632
-94.282555 -69.82328 -104.27612 7169632
-93.45118 -69.762871 -104.86778 10326923
-92.787941 -69.939079 -105.2402 10590609
-92.022301 -69.851135 -105.7992 9209467
-91.148781 -69.980904 -106.33504 9010805
-90.273201 -70.110939 -106.86472 8023911
-89.444038 -69.980873 -107.34155 7366238
-88.493996 -69.709946 -107.87904 7300445
-103.40236 -68.778137 -98.487679 12629418
-102.84584 -68.722054 -98.906181 8747886
-101.90675 -68.774864 -99.525841 10457991
-101.06214 -68.915192 -100.04131 12300198
-100.28311 -68.964111 -100.55306 9800323
-99.614777 -68.963318 -101.0113 7894126
-98.706528 -69.020439 -101.60783 9077626
-97.893555 -68.995659 -102.176 9603969
-97.011421 -69.107384 -102.73009 9734527
-96.108139 -69.173775 -103.31909 8879475
-95.298531 -69.157448 -103.88034 8484974
-94.465042 -69.094742 -104.47528 9011319
-93.631798 -69.034859 -105.06777 10853520
-92.799255 -68.97802 -105.65851 9669762
-91.987251 -69.073158 -106.16789 9209467
-91.230415 -69.063644 -106.68618 9209467
-90.448128 -69.247574 -107.13379 7497824
-89.59671 -69.107231 -107.62643 6774614
-88.69796 -69.039452 -108.05857 6511954
-87.702896 -69.055206 -108.50028 7958889
-86.879982 -68.863541 -108.94849 7695204
-86.05851 -68.674751 -109.39481 6510930
-104.59726 -67.794304 -97.838531 7563877
-103.82862 -68.003151 -98.475227 10655887
-103.06995 -68.03949 -99.059746 9735043
-102.15246 -68.085815 -99.667534 9472900
-101.25987 -68.184464 -100.23464 10064780
-100.41845 -68.10347 -100.84757 8091248
-99.625252 -67.983292 -101.44512 7762540
-98.939888 -68.092873 -101.86539 8682869
-98.132423 -68.084976 -102.42213 10064520
-97.248055 -68.197311 -102.97748 9208954
-96.411972 -68.130386 -103.57955 8813681
-95.574898 -68.065308 -104.17773 9668733
-94.738289 -68.003075 -104.77358 9603711
-93.916527 -68.050514 -105.31068 10591374
-93.022644 -68.069466 -105.90948 9406846
-92.144279 -68.197906 -106.44915 9209467
-91.311104 -68.147758 -107.03728 9407615
-90.457695 -68.138626 -107.59932 8024937
-89.709106 -68.006828 -108.02121 8749429
-88.827759 -68.161751 -108.35542 6511954
-87.920647 -68.156799 -108.76592 7301214
-86.996941 -68.046936 -109.22637 6971481
-86.095131 -68.047714 -109.63219 6708565
-85.114204 -68.015991 -110.08675 7827814
-84.238892 -67.737114 -110.59378 7498849
-83.62841 -67.672081 -110.89505 7762277
-106.12951 -66.734978 -96.901573 8354166
-105.41998 -66.941345 -97.482338 8157042
-104.75018 -67.071762 -98.063835 8814714
-104.03666 -67.167397 -98.705696 7893869
-103.23702 -67.15004 -99.345558 9866888
-102.40171 -67.172478 -99.907722 8157555
-101.55623 -67.089447 -100.52435 9933450
-100.71202 -67.009521 -101.13871 8551542
-99.820557 -67.114777 -101.70213 8222577
-98.908081 -67.174385 -102.30043 9143419
-98.183418 -67.34536 -102.72001 9143675
-97.484222 -67.288017 -103.22435 7367264
-96.691032 -67.317131 -103.75121 6512210
-95.758644 -67.337776 -104.37539 6512978
-95.059952 -67.286118 -104.87291 8090987
-93.85318 -67.571068 -105.56628 10263180
-93.156548 -67.524811 -106.05994 10130825
-89.332573 -67.588943 -108.35993 10263180
-88.911819 -67.35228 -108.64523 9012600
-88.112534 -67.177223 -109.076 6643284
-87.282669 -67.020706 -109.51309 6576723
-86.217545 -67.175133 -109.93026 6642772
-85.323952 -67.121857 -110.35419 6643540
-84.404671 -67.022713 -110.8083 7169884
-83.507698 -67.033203 -111.208 7762277
-82.600563 -66.982697 -111.63692 10263180
-81.810585 -66.759186 -112.08318 7761509
-107.82782 -65.783691 -95.747986 9341054
-107.0694 -66.085518 -96.326668 10064777
-106.36854 -66.095154 -97.000732 9078140
-105.62848 -66.068947 -97.731308 8486261
-104.81982 -66.182297 -98.456169 9472385
-104.09959 -66.31102 -99.075745 8683128
-103.30816 -66.513252 -99.583366 8091248
-102.60101 -66.442307 -100.09974 7565675
-102.03592 -66.386963 -100.51182 7565675
-87.031799 -66.57785 -109.80531 6510930
-86.457466 -66.329773 -110.16434 6379600
-85.526421 -66.090538 -110.68049 6050894
-84.681152 -66.000786 -111.09746 5787466
-83.623009 -66.165382 -111.50735 6379856
-82.73365 -66.121941 -111.92542 9275516
-81.818138 -66.033173 -112.37363 8223085
-80.932617 -65.99543 -112.78767 7762278
-79.992378 -65.86499 -113.26387 7235163
-79.385155 -65.811523 -113.55898 7761248
-108.85905 -64.993141 -95.149193 10721422
-108.09888 -65.132233 -95.820724 9867142
-107.36375 -65.207306 -96.495537 9604226
-106.62196 -65.178513 -97.229034 8617332
-105.88664 -65.258484 -97.900124 9078140
-105.1616 -65.499535 -98.477982 8617847
-84.46962 -65.385582 -111.44172 5392706
-83.855354 -65.323395 -111.74352 5919050
-82.975838 -65.054756 -112.24835 6248015
-82.08567 -65.015129 -112.66524 6643029
-81.040939 -65.132133 -113.08834 6445650
-80.147957 -65.155746 -113.48092 7366748
-79.235588 -65.077003 -113.92368 6840661
-78.389717 -64.903801 -114.37466 6445906
-77.642403 -64.826645 -114.74246 10259076
-155.62776 -63.793671 -66.486443 9867657
-155.13983 -63.724979 -67.165184 8092019
-153.63548 -63.682835 -67.182838 8551281
-153.26997 -63.631935 -67.684845 8090987
-110.28867 -63.975323 -94.2705 9998215
-109.62588 -64.144547 -94.832603 8748149
-108.90336 -64.157898 -95.532875 10984852
-108.20626 -64.081993 -96.253906 9077884
-107.53393 -64.208031 -96.846184 11314588
-106.82455 -64.445663 -97.411613 8156781
-81.985916 -64.356476 -112.97672 5919050
-81.249924 -64.214363 -113.36575 5919050
-80.381126 -64.092812 -113.80619 5919562
-79.465866 -64.015152 -114.24981 6380368
-78.574066 -64.04493 -114.63934 6051662
-77.536598 -64.174858 -115.05392 8023915
-76.702362 -64.111679 -115.45521 9601661
-75.783241 -63.910603 -115.95047 8155756
-74.911499 -63.671555 -116.43985 6643285
-152.90286 -63.581074 -68.185059 8551281
-152.53456 -63.530312 -68.683777 8090987
-151.05727 -63.490223 -68.684669 6510930
-150.44398 -63.406666 -69.503677 7168860
-149.82724 -63.323387 -70.318413 5920074
-148.37715 -63.285458 -70.301826 7038307
-147.88383 -63.219639 -70.943596 8222829
-147.26439 -63.137577 -71.742195 9077882
-146.76616 -63.072155 -72.377632 9077882
-145.22038 -63.020607 -72.496071 6840919
-144.57074 -62.928345 -73.264137 7762021
-143.87245 -62.816624 -74.004692 9275260
-143.45128 -62.749401 -74.445961 8288365
-141.69493 -62.634785 -74.63089 7564643
-112.03678 -62.825611 -93.147408 13024949
-111.43137 -63.058689 -93.620811 11116438
-110.6941 -63.126335 -94.307762 10852754
-109.9513 -63.089836 -95.05336 10853266
-109.22684 -63.103443 -95.75544 9472129
-108.45197 -63.303074 -96.411697 8156784
-80.23056 -63.358685 -114.17117 10064771
-79.561996 -63.213215 -114.53111 7367262
-78.675026 -63.186699 -114.94126 6249040
-77.78952 -63.162868 -115.34964 5920074
-76.876823 -63.094814 -115.78821 5920074
-75.965492 -63.029667 -116.22497 5130557
-75.055435 -62.967461 -116.66 5656901
-74.111015 -63.083954 -117.03814 7037274
-73.296722 -62.944176 -117.46139 7103067
-72.634109 -62.815556 -117.81188 6510930
-141.13524 -62.546345 -75.208366 7827815
-140.43327 -62.436134 -75.925423 8880247
-139.72887 -62.32626 -76.63752 9340542
-138.65723 -62.238747 -76.925629 8156528
-137.58815 -62.151978 -77.208031 9209215
-136.8839 -62.043995 -77.902084 9143678
-136.17746 -61.936325 -78.591248 9012606
-135.46831 -61.829098 -79.274849 9933450
-134.91841 -61.752033 -79.829414 8616310
-133.42896 -61.691914 -79.827293 8616310
-132.91115 -61.629868 -80.390465 12432042
-113.59383 -61.796806 -92.149666 12826541
-112.94328 -62.006577 -92.679077 11577503
-112.24555 -62.090694 -93.318916 11314587
-111.54422 -62.005764 -94.048683 9734530
-110.86642 -62.064266 -94.682175 11049875
-110.18169 -62.263802 -95.250267 9800323
-109.65998 -62.332973 -95.725456 9011579
-77.939003 -62.457371 -115.56792 7235420
-77.061279 -62.213806 -116.06177 5920074
-76.136803 -62.01487 -116.55862 5920073
-75.235199 -62.08794 -116.93504 5854280
-74.288498 -62.20504 -117.31399 7629411
-73.378891 -62.149113 -117.74623 6971481
-72.470329 -62.096062 -118.17688 6643284
-71.625351 -61.947994 -118.61729 6906456
-70.75679 -61.791233 -119.07189 8682355
-69.967552 -61.610813 -119.50036 8682867
-132.52126 -61.583405 -80.810585 10853268
-131.99982 -61.521629 -81.368309 7564386
-131.33727 -61.440907 -82.056381 8682611
-129.76936 -61.33297 -81.958611 8814201
-129.18959 -61.245365 -82.466766 8814201
-128.31734 -61.114189 -83.222893 7762022
-127.58802 -61.005177 -83.847366 9011321
-126.85636 -60.896454 -84.465935 8353907
-126.12266 -60.788059 -85.079613 9143166
-125.3867 -60.679886 -85.687439 9866631
-115.16274 -60.775909 -91.143005 8089963
-114.70974 -60.870289 -91.535789 8089963
-114.05552 -61.077648 -92.067764 11905953
-113.30733 -61.03204 -92.823204 11314331
-112.55949 -60.989208 -93.576927 9735299
