# .PCD v0.7 - Point Cloud Data file format
VERSION 0.7
FIELDS x y z rgb
SIZE 4 4 4 4
TYPE F F F U
COUNT 1 1 1 1
WIDTH 1198
HEIGHT 1
VIEWPOINT 0 0 0 1 0 0 0
POINTS 1198
DATA ascii
156.10118 -21.180706 -107.24263 9010291
106.68741 -19.905083 -154.95021 7235164
107.53267 -19.949358 -154.35196 8090731
108.1873 -19.933239 -153.71788 9471616
108.84088 -19.917547 -153.08472 8813686
109.49341 -19.902361 -152.45232 8813686
110.30756 -19.884003 -151.66289 7564651
111.12034 -19.866278 -150.87456 9076857
111.76942 -19.852671 -150.24466 8879222
112.41759 -19.839487 -149.61548 9997703
113.06489 -19.826757 -148.98688 7563618
113.87283 -19.811489 -148.20201 7301221
114.67952 -19.796898 -147.418 9406337
115.27374 -20.008739 -146.72711 10195336
115.91724 -19.997908 -146.10136 8419433
116.72054 -19.985035 -145.31981 7103833
117.52287 -19.972773 -144.53893 9472378
118.16395 -19.963493 -143.91467 7827812
118.80444 -19.954681 -143.29082 8156777
119.57728 -19.889162 -142.56593 10589833
120.31978 -19.998861 -141.78163 12102815
121.04172 -19.927216 -141.10985 9406075
121.67979 -19.920355 -140.48729 8024937
122.40089 -19.849781 -139.81569 7038043
123.14023 -19.96174 -139.03328 6446162
123.90959 -19.899786 -138.31004 6972505
124.54582 -19.894899 -137.68828 7498593
125.2654 -19.826578 -137.01706 8287594
126.0022 -19.940781 -136.23598 10260614
126.7702 -19.881218 -135.51288 8616304
127.34987 -20.10026 -134.83261 8484717
127.98434 -20.097746 -134.2114 8616302
128.77721 -20.095263 -133.43477 7367776
129.56982 -20.093382 -132.658 11381404
130.2038 -20.092421 -132.0365 9999239
130.99617 -20.091835 -131.25937 9932933
131.7885 -20.091906 -130.48199 12564391
132.47983 -19.870438 -129.91643 10459537
133.11392 -19.871416 -129.29381 8025969
133.85243 -19.928677 -128.54008 9670022
134.64819 -19.812059 -127.81869 9603716
135.33388 -19.878235 -127.11225 9341314
135.96843 -19.881163 -126.4882 11248279
136.65416 -19.948418 -125.78118 9538434
137.45143 -19.834057 -125.05714 10853521
138.19084 -19.894852 -124.30071 9405307
138.8264 -19.899744 -123.6747 9602942
139.46222 -19.905066 -123.04814 9735041
140.25746 -19.912371 -122.26417 10327180
141.05325 -19.920341 -121.47937 9734788
141.69038 -19.927195 -120.85083 9932166
142.32785 -19.934532 -120.22161 9932166
143.12541 -19.944304 -119.43412 8616306
143.91689 -19.865047 -118.6979 7760998
144.62604 -19.740372 -118.06563 9997703
145.2661 -19.749569 -117.4329 8353647
145.99014 -19.805452 -116.69408 8880245
146.78554 -19.72818 -115.95308 9209210
147.51122 -19.785248 -115.21203 9669508
148.15416 -19.796461 -114.57551 9669508
148.79781 -19.808052 -113.93809 6906718
149.60347 -19.823282 -113.13989 7695716
150.41031 -19.83914 -112.34026 7827046
151.05745 -19.852472 -111.69989 9931137
151.77336 -19.874964 -111.10777 9470843
152.51317 -19.90082 -110.5302 9470843
153.16985 -20.000086 -109.9826 8089963
153.93092 -20.180037 -109.32166 8682099
105.17764 -18.796711 -156.09627 10984593
105.75029 -19.031445 -155.73599 9142392
106.78315 -19.048094 -155.24962 7103579
107.72193 -19.048725 -154.62498 6840408
108.37756 -19.033257 -153.98964 8156012
109.03213 -19.018211 -153.35512 9011065
109.79323 -18.956524 -152.63982 6840153
110.55664 -19.029596 -151.85368 7563620
111.31511 -18.969034 -151.1403 8089706
111.96523 -18.955975 -150.50922 7892327
112.61446 -18.943291 -149.87871 8747892
113.4247 -18.928133 -149.09152 8616306
114.23373 -18.913572 -148.30525 8287854
114.88006 -18.902418 -147.67688 9932418
115.52553 -18.891661 -147.04903 8485229
116.1703 -18.881359 -146.42172 7498590
116.97523 -18.869072 -145.63828 6051660
117.77915 -18.85741 -144.85548 6183246
118.42154 -18.848587 -144.22971 7695976
119.06329 -18.840136 -143.60432 10655885
119.86469 -18.83024 -142.8231 10195074
120.66527 -18.820925 -142.0424 14076605
121.30515 -18.813953 -141.41814 11116178
121.94453 -18.807386 -140.79416 8090474
122.74311 -18.799822 -140.0145 8616049
123.54106 -18.792805 -139.23515 11248280
124.179 -18.787712 -138.61185 6840919
124.81657 -18.783022 -137.98868 6511954
125.61304 -18.777771 -137.20993 7958886
126.40913 -18.773096 -136.43123 9800063
126.99048 -18.992474 -135.74915 10457479
127.57114 -19.211981 -135.06772 9536891
128.3656 -19.209017 -134.28979 10128771
129.15977 -19.206635 -133.5118 6775639
129.795 -19.2052 -132.88928 7696741
130.43007 -19.204206 -132.26665 9209467
131.06512 -19.203646 -131.64394 8090987
131.85881 -19.203539 -130.86526 9735553
132.71011 -18.981674 -130.14296 9341311
133.34537 -18.982534 -129.51926 11906725
133.98067 -18.983843 -128.89532 11578271
134.77492 -18.986078 -128.11487 10328462
135.56927 -18.988844 -127.33401 11709087
136.20506 -18.991604 -126.70892 13287089
136.84088 -18.994761 -126.08344 10985364
137.63609 -18.999327 -125.30096 12300708
138.43153 -19.004503 -124.51779 11183001
139.0683 -19.009111 -123.89077 8682867
139.70537 -19.014166 -123.26321 8682867
140.50208 -19.021057 -122.47793 9734788
141.29941 -19.028599 -121.69186 11182487
141.9377 -19.035152 -121.06226 10722193
142.57645 -19.042 -120.43205 8090218
143.37555 -19.051338 -119.64333 8419439
144.17535 -19.061224 -118.85361 7563619
144.81586 -19.06967 -118.22089 8616307
145.45688 -19.078465 -117.58742 9471871
146.09853 -19.087759 -116.95316 8090987
146.90144 -19.099972 -116.15918 9011831
147.70528 -19.11281 -115.36393 7038307
148.34923 -19.1236 -114.72666 8814201
148.9939 -19.134789 -114.0885 7038307
149.63927 -19.146473 -113.44933 8682355
150.44716 -19.161623 -112.64896 8089447
151.25954 -19.177855 -111.84958 6971738
151.97945 -19.199917 -111.2588 9010550
104.53655 -17.882996 -156.76067 12432037
105.10985 -18.117332 -156.40033 10984593
106.14328 -18.132597 -155.91423 7103323
107.09354 -18.222731 -155.43666 6313808
103.81721 -16.665184 -157.58369 4473663
104.51385 -16.976278 -157.13513 7432547
105.34119 -16.987206 -156.74641 8419183
106.20758 -17.150581 -156.2785 5393731
103.08148 -15.72078 -158.45616 5328458
103.9639 -15.840765 -157.94476 3092782
104.69116 -15.92293 -157.53976 4473663
105.31968 -16.078102 -157.12183 5722697
100.91576 -14.704173 -160.32446 9405304
101.54019 -14.857041 -159.89833 8682096
102.4743 -14.939735 -159.39464 6709334
103.4086 -15.02296 -158.89027 5657165
104.03666 -15.177494 -158.46843 6249045
84.592316 -13.759775 -176.50429 8682867
85.259605 -13.913847 -176.09044 10327436
86.155342 -13.944365 -175.6476 9208187
86.998375 -14.220069 -175.02873 9274749
98.678543 -14.305873 -162.7554 9800319
99.705856 -14.312176 -162.25206 9734527
100.52814 -14.317427 -161.84807 10458253
83.888885 -12.816564 -177.21075 8089963
84.490555 -13.052207 -176.83646 8419441
85.476761 -13.004572 -176.39754 10129289
86.15506 -13.287876 -175.96846 9734531
83.182983 -11.870957 -177.91942 8813683
83.78595 -12.107048 -177.54427 9142647
84.773804 -12.058943 -177.10478 8485494
85.453621 -12.342714 -176.67476 10853012
82.474281 -10.922857 -178.63026 8090987
83.078773 -11.159446 -178.25432 8945525
84.068298 -11.110796 -177.81425 9932678
84.74968 -11.395255 -177.38321 9011838
81.763107 -9.9720592 -179.34343 9537665
82.36895 -10.209222 -178.96657 9143163
83.360184 -10.160195 -178.52589 10261644
84.043167 -10.445203 -178.09389 11906725
80.953598 -8.6997013 -180.23174 7564643
81.692383 -9.0170984 -179.76076 8485489
82.641747 -9.0155735 -179.32039 9011834
83.334061 -9.4926033 -178.80676 9933708
80.236145 -7.742249 -180.95 9340541
81.01239 -7.8207307 -180.55785 8617075
81.993546 -7.8669214 -180.08345 8288367
78.821159 -6.6227293 -182.05748 11905951
79.432617 -6.8622313 -181.67712 11050900
80.430138 -6.8119879 -181.23386 9603457
81.352295 -6.9787831 -180.73836 9406335
78.096519 -5.6585565 -182.78166 10064267
78.709595 -5.8988314 -182.40028 12695466
79.70903 -5.8483505 -181.95616 11576986
80.633209 -6.0156531 -181.45959 9208955
77.369102 -4.6909895 -183.50859 8682867
77.983696 -4.9321113 -183.12613 9275004
78.985138 -4.8814774 -182.6812 10919313
79.911392 -5.0493526 -182.18338 9866883
76.638763 -3.7199275 -184.23825 9406590
77.254997 -3.9619975 -183.85466 8682867
78.338127 -3.9597466 -183.35234 9801348
79.33696 -4.0389004 -182.85646 9275004
75.905426 -2.7451723 -184.9707 8814715
76.660446 -2.9391522 -184.54202 9669764
77.688744 -3.0348403 -184.02577 9011832
78.65892 -3.2283325 -183.49727 10919829
75.169235 -1.7667222 -185.70613 12433069
75.926163 -1.9615791 -185.27614 9143422
76.956818 -2.0577836 -184.75858 8946039
77.711952 -2.2524831 -184.32947 8682867
74.478561 -0.78465319 -186.5663 9341060
75.36969 -1.0784111 -185.94753 9077886
76.384369 -1.0276775 -185.51096 9603457
76.978958 -1.2725294 -185.06398 10261132
167.1324 -26.384996 -96.581322 9076596
167.88405 -26.429329 -95.94416 8813428
168.63124 -26.473263 -95.300446 8089963
169.37 -26.516294 -94.648674 10128514
169.98335 -26.540428 -93.924591 10523784
170.39534 -26.551353 -93.354126 10261124
165.15469 -25.797852 -98.368515 14603206
165.82031 -25.604393 -97.958008 11642520
166.52898 -25.881287 -97.301666 8681835
167.39677 -25.700344 -96.7341 9076596
168.18941 -25.74946 -96.118347 8813428
168.98502 -25.799322 -95.5 8879221
169.77435 -25.84853 -94.873863 9076854
170.4518 -25.968319 -94.270782 9800831
171.20045 -26.1693 -93.525818 10261124
171.95721 -26.215162 -92.870369 8879479
172.59924 -26.244169 -92.150497 10261132
173.14587 -26.259268 -91.377876 9011320
173.21101 -26.219595 -90.619125 9932934
175.8997 -25.916424 -88.55835 9865342
178.58623 -25.609013 -86.444542 9341307
178.45056 -25.545639 -85.590454 8354416
163.31612 -24.76008 -100.21616 7564647
164.1087 -24.959898 -99.532043 7695205
164.87611 -24.848328 -99.008064 8155754
165.65199 -24.799589 -98.44928 10787213
166.52513 -24.709942 -97.836205 9142386
167.31548 -24.756239 -97.223465 8681835
168.10875 -24.803255 -96.608154 10129282
168.82539 -25.082073 -95.945038 9537144
169.42406 -25.118731 -95.480164 11378324
181.07111 -25.20023 -82.872238 7563619
161.48717 -23.734091 -102.05106 7564651
162.08141 -23.919615 -101.52206 8288627
162.76674 -24.033354 -100.95731 7039331
163.62035 -23.846622 -100.40294 7039331
164.40094 -23.888868 -99.799225 7037274
165.26149 -23.702423 -99.239601 8747890
166.04817 -23.745602 -98.630959 7892581
166.75943 -24.019905 -97.973885 10655625
167.35309 -24.05357 -97.514191 8681835
159.47603 -22.71011 -104.02161 9538686
160.05173 -22.737759 -103.57812 9143932
160.74696 -23.002693 -102.93732 8485751
161.51855 -23.041128 -102.34214 8156787
162.36806 -22.851744 -101.79205 8419956
163.14531 -22.891077 -101.19221 8486262
164.00159 -22.701891 -100.63701 9538692
164.69373 -22.815334 -100.0673 7498339
165.4933 -23.01309 -99.37886 10524043
157.66663 -21.706575 -105.83186 8879478
158.44463 -21.89452 -105.16402 10721935
159.22197 -22.052788 -104.51021 12564137
160.1729 -22.004435 -103.82014 9538686
160.99025 -21.85745 -103.2749 8485235
161.83147 -21.830681 -102.6572 8156013
162.6552 -21.781374 -102.06285 9143165
163.44904 -21.974873 -101.38066 8486262
155.67595 -20.705301 -107.77669 8023654
156.44928 -20.889536 -107.11406 8879221
157.12198 -20.994013 -106.56306 8089963
157.88402 -21.026186 -105.97785 8484720
158.73056 -20.924006 -105.39041 9997958
159.48869 -20.86438 -104.84987 11051413
160.25838 -20.897911 -104.25835 8288623
161.03049 -20.932201 -103.66467 8419187
161.61125 -20.958141 -103.21805 9537153
153.51016 -19.70833 -109.85571 8089963
154.21274 -19.886238 -109.244 9340027
155.0334 -19.947578 -108.60165 9866112
155.88969 -20.026297 -107.92487 8681842
156.73018 -19.921179 -107.34326 7366755
157.48288 -19.85877 -106.80804 7563877
158.24727 -19.889208 -106.22191 8353134
158.90121 -20.069633 -105.65034 8089963
159.59047 -19.943977 -105.19134 7564651
127.10083 -18.547188 -135.86754 9602684
127.73743 -18.544348 -135.24443 7695714
128.5329 -18.541447 -134.46544 7103834
129.32814 -18.539099 -133.68642 7696741
129.96416 -18.537659 -133.06311 10525072
130.60013 -18.536718 -132.43967 9275004
131.23596 -18.536077 -131.81612 9735553
132.03076 -18.535929 -131.03644 8617330
132.8255 -18.536377 -130.25648 8617846
133.46132 -18.537189 -129.63222 11906725
134.09717 -18.538448 -129.00769 12959920
134.89218 -18.540546 -128.22665 9736583
135.68735 -18.543295 -127.44514 9867657
136.32362 -18.545902 -126.81954 13550517
136.96005 -18.54896 -126.19354 7039331
137.75592 -18.553387 -125.41037 9208959
138.5522 -18.558401 -124.62656 11183001
139.1895 -18.562904 -123.99902 9275004
139.82713 -18.567806 -123.37095 9275004
140.62465 -18.574484 -122.58502 10656144
141.42268 -18.581839 -121.7983 11182487
142.06163 -18.588139 -121.16821 10393485
142.70099 -18.594837 -120.53748 8616819
143.50093 -18.603922 -119.74815 9143419
144.30145 -18.61356 -118.95776 8616307
144.9426 -18.621702 -118.32456 9734531
145.58424 -18.630346 -117.69061 12432557
146.22647 -18.639391 -117.05586 10261384
147.03026 -18.651283 -116.26122 8551281
147.83493 -18.663742 -115.46536 8814201
148.47951 -18.67428 -114.82761 9669508
149.1248 -18.685213 -114.18893 7893358
149.77087 -18.696548 -113.54926 7760996
150.57956 -18.71133 -112.74827 7563360
151.39456 -18.727377 -111.94949 6971738
152.11707 -18.749086 -111.3597 8089963
152.78972 -18.999153 -110.73093 9010550
153.53325 -19.024256 -110.15082 9142392
154.2822 -19.050272 -109.57141 10129797
155.10866 -18.850454 -109.04328 10393225
155.99152 -18.93976 -108.34174 10326150
156.8466 -18.821501 -107.75517 8221549
157.58112 -18.940983 -107.151 9405307
107.43295 -17.925631 -155.39839 5919050
107.91164 -18.145741 -154.8987 5919050
108.5683 -18.130968 -154.26204 7300959
109.22389 -18.116547 -153.62617 8156014
110.04186 -18.099188 -152.83253 6248789
110.85834 -18.082426 -152.04001 7300705
111.51042 -18.069489 -151.40688 7234397
112.16158 -18.056952 -150.77443 6510930
112.81183 -18.044836 -150.14265 7103324
113.62338 -18.030272 -149.3539 9536892
114.43365 -18.01634 -148.56598 8090215
115.08099 -18.005632 -147.93637 7959142
115.7275 -17.995354 -147.30728 8485229
116.48027 -17.939159 -146.59729 7432797
117.23374 -18.017572 -145.81812 7695969
117.98473 -17.962492 -145.10944 7433059
118.62814 -17.953964 -144.48241 7827564
119.27096 -17.945915 -143.85582 10655885
120.07367 -17.936354 -143.07317 8616560
120.87559 -17.92742 -142.29095 9997695
121.51645 -17.920723 -141.6655 9472131
122.15691 -17.914427 -141.04034 7563619
122.95685 -17.907112 -140.25929 9405308
123.75613 -17.900366 -139.47849 9274491
124.39513 -17.895449 -138.85408 8288109
125.03376 -17.890928 -138.22974 7366751
125.83164 -17.885834 -137.44955 8024680
126.62905 -17.881298 -136.66948 6511954
127.26672 -17.878132 -136.04549 8879475
127.90414 -17.875366 -135.42149 8156008
128.70059 -17.87248 -134.64151 8879731
129.4969 -17.870163 -133.86145 10787985
130.13374 -17.868769 -133.23729 10854036
130.77054 -17.86775 -132.61307 10196106
131.40721 -17.867136 -131.98866 10064519
132.20303 -17.866934 -131.20801 8090987
132.99889 -17.867283 -130.42702 7959403
133.63554 -17.86804 -129.80196 11315610
134.27226 -17.869173 -129.17668 13354421
135.06831 -17.871162 -128.39462 9144704
135.86458 -17.873716 -127.61211 8486776
136.50171 -17.876247 -126.9857 8092019
137.13905 -17.879128 -126.35886 7301991
137.93607 -17.883348 -125.5748 8814202
138.73341 -17.888113 -124.79003 10459023
139.37161 -17.892418 -124.1617 11775139
140.01015 -17.897068 -123.53284 9275004
140.80881 -17.903498 -122.74595 10985364
141.60803 -17.910498 -121.95828 8814201
142.24786 -17.916546 -121.32742 9340543
142.88815 -17.922993 -120.69596 8090218
143.52888 -17.92984 -120.06377 8616818
144.33055 -17.938978 -119.2726 8616307
145.13303 -17.948704 -118.48035 10788244
145.7756 -17.956968 -117.84565 12959669
146.41887 -17.965633 -117.21011 11708315
147.2238 -17.977051 -116.4146 8288366
148.02968 -17.989058 -115.61775 8880247
148.67528 -17.999117 -114.97926 8222063
149.32155 -18.009602 -114.33987 8419696
149.96861 -18.020508 -113.69949 7300701
150.70038 -18.078712 -112.95181 9536378
151.51186 -18.0033 -112.20506 9076342
152.40239 -17.937021 -111.51271 7892840
153.13655 -17.868523 -110.98261 9405562
153.88223 -17.892069 -110.40148 9143416
154.63461 -17.916615 -109.82198 10261639
155.39244 -17.942247 -109.243 10656398
155.96217 -17.961611 -108.80754 9932416
106.71618 -16.703117 -156.2218 5130558
107.41478 -17.016207 -155.77167 5524804
108.14949 -17.01358 -155.24193 6313809
108.80739 -16.999624 -154.60358 7695719
109.6283 -16.982725 -153.80684 7235685
110.44766 -16.96641 -153.01126 5525324
111.10196 -16.953821 -152.37578 6971999
111.75531 -16.941587 -151.74094 7563362
112.40775 -16.929754 -151.10689 6708821
113.14704 -17.045277 -150.32272 6511698
113.98494 -17.127371 -149.45885 7564128
114.63409 -17.116758 -148.82735 7958629
115.28241 -17.106522 -148.19649 8485229
115.92999 -17.096689 -147.56616 7498591
116.73832 -17.084927 -146.77898 8090473
117.5457 -17.07373 -145.99257 8419696
118.19083 -17.065248 -145.36397 8879991
118.8353 -17.057096 -144.73576 8222321
119.47917 -17.049345 -144.10805 10261385
120.28316 -17.04019 -143.32384 9406078
121.08638 -17.031618 -142.54016 8156531
121.72839 -17.025169 -141.91353 7827823
122.36989 -17.019123 -141.28723 7958636
123.17113 -17.012087 -140.50465 8089706
123.9718 -17.00563 -139.72241 7563619
124.61187 -17.000883 -139.09685 8551025
125.25156 -16.996489 -138.47141 7892839
126.05078 -16.991566 -137.68979 8419182
126.84958 -16.987226 -136.90833 6511954
127.48832 -16.984158 -136.28319 8484717
128.12685 -16.981438 -135.6581 8551023
128.92471 -16.978617 -134.87674 11840415
129.72238 -16.976328 -134.09529 10064520
130.36034 -16.974936 -133.47002 9603969
130.99821 -16.97389 -132.84473 8682867
131.63605 -16.973246 -132.21927 9011832
132.43326 -16.972994 -131.43718 8353391
133.23051 -16.973236 -130.65489 8089963
133.86835 -16.973894 -130.02875 10920852
134.50621 -16.974949 -129.40237 13749179
135.30371 -16.976759 -128.61899 10460304
136.10139 -16.979086 -127.83519 8486519
136.73973 -16.98139 -127.20771 8880503
137.37827 -16.984095 -126.57985 8090734
138.17673 -16.988003 -125.79449 9143167
138.97556 -16.992474 -125.00841 9801095
139.61497 -16.99645 -124.37904 11775139
140.25471 -17.000853 -123.74915 7827819
140.9785 -17.051256 -123.01337 8419700
141.7719 -16.96771 -122.27751 7038307
142.49666 -17.019142 -121.54015 10129801
143.13823 -17.025213 -120.90767 7826790
143.78018 -17.031658 -120.27448 8090218
144.58347 -17.040277 -119.48204 8156779
145.3875 -17.04944 -118.68851 11315100
146.03134 -17.057205 -118.05278 11315100
146.67583 -17.065392 -117.41634 9538175
147.39215 -16.938927 -116.7779 8814710
148.19351 -16.859301 -116.03222 8814711
149.00233 -16.870966 -115.2327 7696228
149.65027 -16.880713 -114.59204 10064777
150.299 -16.890844 -113.95039 6511442
150.9485 -16.901371 -113.30778 6971480
151.70975 -16.971699 -112.53504 9931650
152.59143 -16.784748 -111.89493 7695973
153.4147 -16.961557 -111.18446 6906712
153.97511 -16.978279 -110.74834 9209467
105.09084 -15.632501 -157.5954 5919050
105.92838 -15.819766 -157.05283 6643546
106.8643 -15.875836 -156.57394 6643546
107.59598 -15.959516 -156.16948 6643546
108.34028 -16.105425 -155.51727 7038307
108.99925 -16.092148 -154.8775 7893358
109.82137 -16.076069 -154.07909 8288373
110.64196 -16.060509 -153.28183 5788496
111.2979 -16.048586 -152.6458 7169893
111.95462 -16.037315 -152.01285 8616561
112.61044 -16.026348 -151.38055 7235677
113.45086 -16.192476 -150.47037 6248782
114.19025 -16.225668 -149.72931 6511954
114.84153 -16.215706 -149.09784 7958629
115.49192 -16.206043 -148.46692 9800320
116.14152 -16.196783 -147.83655 7761253
116.95243 -16.185728 -147.04922 8879221
117.76223 -16.175163 -146.26262 7959401
118.40933 -16.167156 -145.63371 7762022
119.05572 -16.159475 -145.00526 10590093
119.86276 -16.150427 -144.22015 10853520
120.66897 -16.141869 -143.43547 9406590
121.31324 -16.135416 -142.80807 10064011
121.957 -16.129316 -142.18091 8814203
122.52313 -16.198257 -141.57916 10589840
123.33218 -16.339382 -140.68913 8089706
124.13385 -16.333105 -139.90581 9142904
124.77474 -16.328508 -139.27936 9669507
125.41522 -16.324261 -138.65306 8813941
126.2155 -16.319435 -137.87041 7958631
127.0153 -16.315145 -137.08781 7300957
127.65482 -16.312201 -136.46188 8879475
128.29419 -16.309553 -135.83589 10524811
129.09312 -16.306765 -135.0535 9932933
129.89182 -16.304491 -134.27107 9209467
130.53064 -16.303095 -133.64496 8682867
131.16936 -16.302052 -133.01886 8682867
131.80803 -16.301405 -132.3925 8353905
132.60632 -16.301048 -131.60947 9142651
133.40465 -16.301292 -130.82614 8089963
134.04329 -16.301846 -130.19919 9736836
134.68207 -16.30275 -129.57202 13749179
135.48064 -16.304441 -128.78773 10788753
136.27942 -16.306631 -128.00284 8880503
136.91866 -16.308834 -127.37463 8090987
137.55803 -16.311386 -126.746 9471871
138.35762 -16.315025 -125.95954 10458511
139.15759 -16.319262 -125.17257 8617080
139.79788 -16.323063 -124.54237 10853782
140.43852 -16.327261 -123.91173 8814203
141.07956 -16.331707 -123.28056 7038307
141.88136 -16.337908 -122.49073 7038307
142.68373 -16.344572 -121.70007 8814201
143.32622 -16.350418 -121.06681 8090218
143.96913 -16.35656 -120.43285 12630447
144.77356 -16.364719 -119.63943 7828327
145.57874 -16.373463 -118.84496 9736324
146.22354 -16.380901 -118.2085 9736324
146.86903 -16.388687 -117.57132 11445915
147.35345 -16.394739 -117.09282 9537918
103.80855 -14.7308 -158.9493 6249045
104.43739 -14.885335 -158.52716 5525322
105.37439 -14.96952 -158.02075 5919050
106.31168 -15.054239 -157.51347 6906719
106.94067 -15.210106 -157.0898 7564651
87.355034 -13.759967 -175.22093 8550513
88.124741 -13.989614 -174.66524 8089963
88.967102 -13.989516 -174.25555 8616819
89.704842 -14.064934 -173.81314 8419185
90.333046 -14.215141 -173.32959 9142651
101.55659 -14.324474 -161.34151 8287851
102.58559 -14.331921 -160.83339 7301214
103.40929 -14.338164 -160.42549 6380368
86.701859 -12.973071 -175.8412 9602945
87.469711 -13.05209 -175.45271 9340285
88.321228 -13.052719 -175.05695 8353648
88.921112 -13.289564 -174.68292 8090734
86.0009 -12.026825 -176.54778 9142394
86.770065 -12.105724 -176.15871 9537152
87.622925 -12.105953 -175.76247 9603713
88.22406 -12.343144 -175.38776 9143161
85.297432 -11.078183 -177.25645 9011838
86.067963 -11.156988 -176.86679 8484980
86.922218 -11.156891 -176.47011 9076857
87.524658 -11.39453 -176.09462 9735299
84.591415 -10.127045 -177.96732 9011838
85.36338 -10.205859 -177.57703 9011838
86.21904 -10.205382 -177.17979 7630186
86.822708 -10.443422 -176.80348 9735299
83.265945 -8.5362883 -179.22318 9144449
83.893524 -8.9181747 -178.778 9802121
84.69342 -9.0129328 -178.36835 10130317
85.492973 -9.1079073 -177.95874 9275009
86.118469 -9.490016 -177.51457 7893096
82.552673 -7.5779977 -179.93976 9208443
83.160904 -7.8170791 -179.56113 8354934
84.020195 -7.8158989 -179.16235 10788759
84.79541 -7.8950229 -178.77037 12433069
81.836624 -6.6167116 -180.65886 9735043
82.446342 -6.8564916 -180.27921 9340029
83.307236 -6.8551588 -179.87975 8091505
84.083969 -6.9343977 -179.48709 10196879
81.118034 -5.6523304 -181.38045 10854036
81.729248 -5.8928328 -180.99974 10656657
82.591644 -5.8914232 -180.59962 10525071
83.369896 -5.9707432 -180.20616 9538178
80.396637 -4.6847548 -182.10451 8682867
81.009338 -4.9260545 -181.72284 8682867
81.873474 -4.924593 -181.32199 10393229
82.653267 -5.0041261 -180.92772 9735043
79.67247 -3.7138844 -182.83116 8682867
80.286758 -3.9560316 -182.44846 10130057
81.152519 -3.9544919 -182.04688 9735555
81.933914 -4.0342484 -181.65176 10459278
78.728607 -2.7398801 -183.66125 11380380
79.561447 -2.982564 -183.17674 10393485
80.42894 -2.9810469 -182.77434 9735555
81.211914 -3.0611095 -182.37837 9735555
78.047783 -1.9252009 -184.30505 8946039
78.833252 -2.0055268 -183.90781 10854035
79.702499 -2.004107 -183.5045 10524812
80.487175 -2.0844755 -183.10764 8814709
77.34877 -0.94422889 -185.12059 9866630
78.127884 -1.024981 -184.70203 9932678
78.999207 -1.0236335 -184.29781 10261898
79.808647 -1.2681274 -183.75108 10261641
78.55162 -0.28553414 -185.08818 12037793
170.86719 -25.682493 -94.143814 9011318
171.26993 -25.708389 -93.830536 10261124
171.87564 -25.747581 -93.359261 7629669
172.65556 -25.79598 -92.712433 9340030
173.54349 -25.614801 -92.1185 9537403
174.33492 -25.665009 -91.468658 9736323
175.1071 -25.712721 -90.804512 9539200
175.81854 -25.791916 -89.946228 11182742
176.83078 -25.587528 -89.554001 8944240
177.59671 -25.634905 -88.873375 9273976
178.19939 -25.659405 -88.108543 8091499
178.64487 -25.662128 -87.265396 8420719
168.98463 -24.619858 -96.035629 9537144
169.79774 -24.826351 -95.333099 9931646
170.50673 -24.948622 -94.746796 9011318
171.31227 -24.998613 -94.120972 9274489
172.21074 -24.911856 -93.48764 7958632
173.01544 -24.86714 -92.905411 8813680
173.91431 -24.684839 -92.315155 9734780
174.65047 -24.971619 -91.633812 10656913
175.26698 -25.011543 -91.154144 10656913
166.916 -23.559046 -98.065903 10655625
167.72256 -23.760872 -97.370361 8682867
168.42558 -23.879309 -96.790283 9471611
169.22403 -23.925264 -96.171646 9734267
170.02547 -23.971943 -95.550392 10063232
170.83006 -24.019312 -94.926453 8024683
171.71936 -23.834126 -94.34465 9077370
172.40848 -24.034264 -93.737915 10064265
173.14151 -23.919392 -93.24118 11314329
165.05791 -22.522409 -99.927505 11708316
165.64812 -22.552834 -99.471878 12892588
166.35951 -22.824486 -98.815933 8288112
167.15117 -22.866634 -98.204056 9932166
167.94569 -22.909498 -97.589722 9537920
168.74323 -22.952957 -96.972839 9800320
169.54382 -22.997168 -96.353394 10063232
170.34747 -23.04199 -95.731323 11180945
171.05975 -23.161545 -95.143768 9537407
163.01556 -21.488087 -101.92613 9537153
163.60112 -21.515818 -101.47511 8486262
164.30754 -21.783337 -100.82483 9933193
165.0928 -21.82192 -100.21939 9472898
165.88077 -21.861097 -99.611542 14077629
166.67159 -21.900923 -99.001396 9539206
167.46538 -21.941391 -98.388718 10524560
168.26207 -21.982475 -97.77356 9406078
168.96831 -22.098221 -97.1922 9603457
169.78423 -22.299543 -96.490082 10654857
161.17961 -20.474653 -103.76073 8814203
161.96999 -20.664261 -103.08289 9997704
162.7599 -20.82387 -102.41893 9800325
163.63405 -20.817131 -101.76759 8748920
164.51181 -20.810808 -101.11322 8222830
165.40155 -20.89926 -100.40688 9078137
166.19164 -20.936787 -99.798302 9539206
166.9846 -20.974905 -99.187332 10854806
167.70155 -21.245852 -98.527527 10261901
159.16048 -19.463831 -105.73122 7960176
159.94562 -19.649666 -105.05901 7959152
160.62895 -19.754875 -104.49958 10392719
161.40361 -19.787107 -103.90501 8814203
162.18082 -19.819836 -103.30824 12037287
162.96063 -19.853127 -102.70927 10984599
163.74309 -19.88702 -102.10806 8156270
164.52827 -19.921455 -101.50458 6906712
165.22459 -20.030661 -100.93365 7038298
166.02911 -20.223789 -100.24362 8354930
157.34352 -18.470903 -107.54224 7958634
157.9328 -18.646345 -107.02139 8945271
158.61163 -18.748653 -106.46672 8091248
159.38075 -18.77779 -105.87766 7960176
160.15233 -18.807405 -105.2865 8880508
160.92638 -18.837585 -104.69321 7564651
161.70299 -18.868286 -104.09786 8814203
162.48218 -18.899485 -103.50033 9997958
163.17337 -19.005482 -102.93467 9012091
163.97202 -19.194643 -102.25084 7893615
155.53465 -17.487108 -109.34308 9932416
156.31143 -17.666378 -108.68015 8616561
156.98689 -17.766191 -108.1291 8090476
157.94377 -17.799398 -107.39761 10458761
158.90407 -17.833267 -106.66319 8420470
159.67513 -17.860954 -106.07333 8420470
160.44873 -17.889137 -105.48151 9800839
161.13506 -17.992182 -104.92091 8353909
161.92812 -18.177567 -104.24295 10327179
153.55417 -16.507021 -111.28567 6906712
154.31816 -16.682318 -110.6213 8880502
154.98819 -16.779375 -110.07343 10261639
155.74837 -16.80308 -109.49348 10261639
156.5108 -16.827261 -108.9117 8946038
157.27556 -16.851887 -108.32809 8945782
158.04265 -16.876957 -107.74255 10787726
158.91313 -16.952341 -107.05679 8946298
159.75279 -17.011869 -106.40143 8157298
107.99479 -15.667909 -156.21429 8288365
108.52388 -15.662713 -155.78105 7038307
109.35201 -15.647062 -154.98492 8814201
110.17854 -15.631918 -154.18968 8419702
110.8385 -15.620193 -153.55438 7169893
111.49741 -15.60882 -152.91972 7695977
112.15535 -15.597749 -152.28558 8419438
112.97633 -15.584494 -151.49391 6775382
113.79591 -15.571725 -150.70299 6183246
114.45048 -15.561909 -150.07091 7235163
115.10426 -15.552394 -149.43932 7958629
115.75708 -15.543229 -148.80824 9735040
116.57193 -15.532335 -148.02002 9931906
117.38573 -15.521826 -147.23235 8287084
118.0358 -15.513916 -146.60266 7564643
118.68527 -15.506257 -145.97339 7959401
119.33389 -15.49895 -145.34445 10589840
120.14391 -15.490314 -144.55858 9867141
120.95286 -15.48216 -143.7731 9406590
121.59937 -15.476055 -143.1451 7564651
122.24526 -15.470202 -142.51718 7564651
122.87091 -15.60973 -141.75258 7564651
123.58575 -15.676462 -140.97867 9273977
124.3903 -15.670525 -140.1951 10260614
125.03339 -15.666148 -139.56834 9866628
125.67611 -15.662149 -138.9416 9669507
126.39187 -15.701501 -138.19614 9011320
127.16658 -15.871315 -137.25137 7300957
127.80733 -15.868417 -136.62511 10260870
128.44778 -15.86587 -135.99879 10524811
129.24799 -15.863146 -135.21574 9209467
130.0479 -15.860902 -134.43251 9209467
130.6875 -15.859506 -133.80576 8682867
131.32692 -15.858459 -133.17879 8353905
131.96626 -15.857763 -132.55164 8090736
132.76521 -15.857388 -131.76732 9142651
133.56406 -15.857496 -130.98264 8089963
134.20302 -15.857949 -130.35449 8880503
134.9763 -15.713594 -129.75139 12039076
135.76289 -15.642338 -129.05597 9802376
136.56239 -15.644276 -128.26865 8485745
137.20204 -15.6462 -127.63824 8090987
137.84178 -15.648499 -127.0074 9143419
138.5526 -15.695136 -126.25865 9735046
139.3709 -15.611512 -125.54563 9735556
140.08205 -15.659015 -124.79554 10327440
140.7226 -15.662812 -124.16229 7893359
141.36336 -15.666907 -123.52852 7038307
142.1647 -15.672528 -122.73534 7630186
142.96645 -15.678667 -121.94116 9012346
143.60832 -15.683933 -121.30502 10131081
144.25052 -15.689548 -120.66817 12630447
144.89305 -15.695516 -120.03056 10327692
145.69691 -15.70347 -119.23239 9670531
146.50142 -15.711908 -118.43306 9144443
147.1456 -15.719043 -117.79259 13287604
147.79033 -15.726502 -117.1512 10985881
148.50536 -15.779505 -116.3915 11775140
149.33463 -15.701591 -115.66143 6578005
150.05125 -15.755434 -114.89921 7367263
150.69989 -15.76461 -114.25449 6906456
151.34966 -15.774185 -113.60905 7498854
152.00024 -15.784106 -112.96257 9735558
152.79314 -15.847326 -112.24957 7762024
153.73865 -15.782609 -111.58792 6840919
154.57088 -15.850351 -110.89584 8288365
155.32567 -15.871812 -110.31305 8748659
156.08403 -15.893794 -109.72945 9998983
156.74213 -15.989318 -109.16586 9275004
157.49304 -16.164553 -108.47805 9208953
158.26172 -16.18857 -107.892 10261383
106.71679 -14.761803 -157.57085 6643546
107.34661 -14.917669 -157.14671 7498855
108.2123 -14.956454 -156.68935 8090986
109.02932 -15.038264 -155.94943 9406334
109.81227 -14.980028 -155.24284 11050644
110.47488 -14.968399 -154.60486 8616823
111.13642 -14.957093 -153.96748 8419442
111.79695 -14.946167 -153.33076 8287597
112.57547 -14.889765 -152.62668 9011574
113.325 -14.96592 -151.80981 7498848
114.10094 -14.910386 -151.10728 5920074
114.75964 -14.901241 -150.47638 7367007
115.41962 -14.892649 -149.84885 8682867
116.20104 -14.83944 -149.15787 9077368
116.9429 -14.91739 -148.34468 8682098
117.5947 -15.082637 -147.49463 7563619
118.24589 -15.074823 -146.86368 10261132
118.89634 -15.067365 -146.23311 8682613
119.54616 -15.060254 -145.60291 9997703
120.35741 -15.051764 -144.81557 7959144
121.16779 -15.043807 -144.02863 9406590
121.81536 -15.037851 -143.39935 8485492
122.46239 -15.032096 -142.77029 7564651
123.27036 -15.02551 -141.98422 7038307
124.07761 -15.019359 -141.19843 9142904
124.72288 -15.014755 -140.56985 9668991
125.36769 -15.010551 -139.94148 10984338
126.01215 -15.006648 -139.31303 7037274
126.84125 -15.111169 -138.38792 9800833
127.50856 -15.217004 -137.62033 7826789
128.15111 -15.214153 -136.9924 11050385
128.79341 -15.211654 -136.36444 11050385
129.59586 -15.209023 -135.57942 10261898
130.39789 -15.206802 -134.79419 9209467
131.03937 -15.205428 -134.16579 9406079
131.68065 -15.204379 -133.53722 8616823
132.32182 -15.203678 -132.90848 7038307
133.12309 -15.203215 -132.12215 9537666
133.92419 -15.203278 -131.33553 9734787
134.56511 -15.203651 -130.7058 8682868
135.19287 -15.131436 -130.16707 10065546
136.12885 -14.987067 -129.40344 9144704
136.93083 -14.988917 -128.61432 9735555
137.57253 -14.990714 -127.98254 10525072
138.21429 -14.992909 -127.3502 11380124
138.85632 -14.995354 -126.71741 9735812
139.65887 -14.998935 -125.92581 9735812
140.46188 -15.002913 -125.13335 10130316
141.10431 -15.006455 -124.49863 8814203
141.74699 -15.010397 -123.86314 9669511
142.55067 -15.015707 -123.06798 9538690
143.35486 -15.021499 -122.27186 9210491
143.9986 -15.026537 -121.63411 9341565
144.64268 -15.031874 -120.9957 9538432
145.2872 -15.037509 -120.35648 9538432
146.09352 -15.04506 -119.55631 9670274
146.90047 -15.053096 -118.75505 8813684
147.54663 -15.059926 -118.113 13879484
148.19334 -15.067056 -117.47006 9999243
148.84056 -15.074486 -116.82623 8025968
149.48845 -15.082263 -116.1815 7039331
150.29913 -15.092505 -115.37408 7037786
151.11081 -15.103225 -114.56529 8089963
151.76091 -15.112197 -113.91696 8090992
152.41194 -15.121516 -113.26772 8880507
153.12907 -15.137419 -112.66518 7301477
153.86963 -15.155813 -112.07696 6511954
154.61372 -15.174752 -111.48831 7301986
90.332413 -13.76385 -173.83647 8616307
91.069122 -13.989898 -173.22197 9800581
91.908386 -13.990317 -172.80486 10196107
92.606155 -14.211735 -172.1239 9208443
93.428802 -14.210493 -171.67815 12433068
104.43955 -14.346388 -159.91402 6379857
105.47054 -14.354994 -159.40083 6248015
106.29584 -14.362184 -158.98901 6971738
89.478928 -13.00672 -174.53773 8288112
90.451111 -13.055492 -174.06657 8616821
91.303574 -13.057071 -173.66994 8551543
91.902908 -13.294891 -173.29582 8288371
88.708687 -11.988095 -175.30562 9932675
89.620178 -12.154842 -174.81509 8682868
90.609695 -12.108698 -174.37404 9011322
91.210114 -12.346766 -173.99928 9538435
88.009514 -11.03823 -176.01283 9603457
88.922607 -11.205006 -175.52153 10261640
89.913506 -11.15823 -175.08011 9603457
90.515198 -11.396646 -174.70473 9340286
87.307938 -10.085971 -176.72209 8879478
88.222687 -10.252834 -176.23 9406078
89.215042 -10.205491 -175.78815 9471871
89.817909 -10.444229 -175.41203 10590609
85.840607 -8.5334997 -178.02818 8814454
86.644592 -8.8748541 -177.51741 8287854
87.592163 -9.0794716 -176.9949 9011320
88.42955 -9.3300371 -176.50514 9208443
85.131744 -7.574604 -178.74298 10129798
85.953751 -7.8139129 -178.26482 9801348
87.028114 -7.8131909 -177.76595 7432289
87.634285 -8.0530252 -177.38795 8814454
84.420395 -6.6128116 -179.45998 10788759
85.244141 -6.8527346 -178.98082 9998470
86.320282 -6.8516941 -178.48131 8551025
86.92775 -7.0921268 -178.10245 7893096
83.706436 -5.6481242 -180.17947 9735043
84.532028 -5.8886614 -179.69925 10656142
85.610046 -5.8873754 -179.19893 9406332
86.218918 -6.1284313 -178.81914 8682867
83.206062 -4.6800323 -180.80112 9471615
83.896362 -4.9699264 -180.36388 9867142
84.897232 -4.9201379 -179.91888 9735297
85.507385 -5.1618409 -179.53825 13023917
82.48732 -3.7091038 -181.52534 10261643
83.179306 -3.9999051 -181.08696 9406849
84.181892 -3.9497793 -180.64133 8618104
84.793518 -4.1921554 -180.25967 10262156
81.765976 -2.734781 -182.25218 10788244
82.45961 -3.0265896 -181.81259 10261899
83.463928 -2.9762509 -181.3662 9078398
84.076927 -3.2193747 -180.98363 8420726
81.090286 -1.9202447 -182.89342 9011832
81.874741 -2.0006716 -182.49669 10590863
82.743385 -1.9993777 -182.09367 10195591
83.357849 -2.2433991 -181.71004 9341313
79.713928 -0.77685672 -184.13728 10261641
80.398857 -0.93966144 -183.7054 9538175
81.176437 -1.0204157 -183.28754 9077368
81.953354 -1.1011543 -182.87001 9472125
82.636131 -1.2639287 -182.43907 12432037
78.988441 -0.28490859 -184.88545 10261641
79.643501 -0.28397059 -184.58153 10261641
80.516716 -0.28277016 -184.17627 11314071
81.1716 -0.28188249 -183.87248 10261641
174.81786 -24.502193 -91.721588 11906724
175.65414 -24.71578 -90.998444 10131081
176.38412 -24.843325 -90.394012 9210491
177.21446 -24.897675 -89.747696 8485231
178.03917 -24.951571 -89.093758 8222060
172.69518 -23.414986 -93.804276 9406335
173.52397 -23.623436 -93.089096 10261382
174.24709 -23.746773 -92.491737 9208435
175.06923 -23.796862 -91.853424 10854548
175.89482 -23.847645 -91.21225 10656913
176.72391 -23.899221 -90.568062 10130313
177.45848 -24.026127 -89.96048 8353902
177.97417 -23.978115 -89.596207 8222060
170.79123 -22.35404 -95.711365 9209214
171.41115 -22.546688 -95.159698 9340543
172.12776 -22.666079 -94.568993 11051159
172.94209 -22.712057 -93.938385 9077370
173.75975 -22.75876 -93.305016 10787727
174.5808 -22.806152 -92.668816 10392713
175.3083 -22.928921 -92.068352 10590608
176.02592 -22.890955 -91.548416 10393229
176.64851 -22.927919 -91.065659 11380380
177.39624 -23.214857 -90.37542 6972250
169.34187 -21.80208 -97.046936 10129545
170.02513 -21.600351 -96.626945 9209214
170.74318 -21.780426 -96.007584 8880249
171.64217 -21.685286 -95.377716 9406592
172.4556 -21.728716 -94.749115 8813942
173.17648 -21.847542 -94.155472 9208956
173.8871 -21.806499 -93.642349 11183001
174.60033 -21.765438 -93.127319 8683642
175.24481 -22.122398 -92.482666 9932681
175.86543 -22.157518 -92.002243 9012350
167.85933 -20.781391 -98.620209 9932935
168.57925 -21.052958 -97.957909 9932423
169.32718 -20.853138 -97.488792 9998727
170.14558 -20.656223 -96.965668 10525328
170.84621 -20.611509 -96.461761 8617334
171.56273 -20.726784 -95.873184 7959405
172.37691 -20.768017 -95.245178 7958891
173.11153 -21.045403 -94.569229 7300446
173.72629 -21.077583 -94.094635 7037274
165.59087 -19.733765 -100.79408 9736323
166.18466 -19.760136 -100.33754 9210239
166.90056 -20.028133 -99.680031 11315356
167.78468 -19.926872 -99.064415 11117974
168.57651 -19.868811 -98.498268 8353647
169.45996 -19.672625 -97.926498 9867142
170.26682 -19.710224 -97.305649 9537921
170.99547 -19.983173 -96.6362 8354163
171.60448 -20.012514 -96.167099 5920082
163.5359 -18.708263 -102.79826 9012091
164.12524 -18.73229 -102.34647 8288371
164.83592 -18.996248 -101.69447 8881014
165.62611 -19.029602 -101.08801 10131081
166.50597 -18.925545 -100.47697 8881019
167.29395 -18.864859 -99.915024 8618356
168.08507 -18.804249 -99.35067 9933958
168.89557 -18.934755 -98.684753 8683380
169.49936 -18.961409 -98.220886 9537921
161.49423 -17.694632 -104.78754 8089963
162.07899 -17.71632 -104.34007 8089963
162.78496 -17.976589 -103.69331 10261641
163.56902 -18.006775 -103.09293 9143677
164.35574 -18.037415 -102.4903 8288371
165.23135 -17.93059 -101.88374 9604739
166.01555 -17.867336 -101.32574 9736071
166.71155 -17.895184 -100.79231 8880251
167.40967 -17.923471 -100.25707 8618355
160.0452 -16.711519 -106.31939 8420470
160.74672 -16.968298 -105.67754 10787988
161.5249 -16.995449 -105.08291 8682099
162.30566 -17.023045 -104.48611 9340027
163.08904 -17.051111 -103.88713 9801091
163.95184 -16.847353 -103.33436 8354164
164.67067 -16.96767 -102.74168 7761512
165.41531 -17.058058 -102.14336 8090732
157.15182 -15.696934 -109.07832 8682867
157.72139 -15.713538 -108.63503 8682867
158.48262 -15.736009 -108.04237 9208953
159.13939 -15.985954 -107.37586 9143674
159.90932 -16.010065 -106.78275 8091503
160.68166 -16.034597 -106.18761 9406847
161.5724 -15.986965 -105.57402 9603712
162.42928 -16.091633 -104.84148 9011063
163.30472 -16.073824 -104.18976 8221806
117.84917 -14.647362 -147.8134 9010806
118.50932 -14.640698 -147.1907 9734786
119.16873 -14.634286 -146.56764 7038307
119.99144 -14.626694 -145.78871 8353651
120.81261 -14.619484 -145.00938 7235421
121.46852 -14.614025 -144.38557 10130313
122.12346 -14.608817 -143.76161 8485492
122.77757 -14.603909 -143.13719 10262417
123.59385 -14.598137 -142.35626 7038307
124.40892 -14.592766 -141.57483 9142904
125.06014 -14.588759 -140.94917 9668991
125.7104 -14.585052 -140.32326 9668991
126.36 -14.581597 -139.69681 6906199
127.17083 -14.577662 -138.91315 6840661
127.98055 -14.574107 -138.12891 6182734
128.62753 -14.571553 -137.50081 8616304
129.27386 -14.569298 -136.8723 9405819
130.08086 -14.566813 -136.08582 10195335
130.8869 -14.56476 -135.29854 8089963
131.53102 -14.563457 -134.66812 10063753
132.17464 -14.562352 -134.03694 9143166
132.81754 -14.561547 -133.40532 7038307
133.62048 -14.560911 -132.61472 12103591
134.42262 -14.560659 -131.82323 7893352
135.06393 -14.560754 -131.18907 8354159
135.70451 -14.561149 -130.5544 8618361
136.50476 -14.561996 -129.75989 9868425
137.30441 -14.563257 -128.96423 9999240
137.94363 -14.564551 -128.32683 11380124
138.5826 -14.566094 -127.68849 11315100
139.22115 -14.567985 -127.04942 9999239
140.0188 -14.570611 -126.2493 12367276
140.81599 -14.573688 -125.44792 13156281
141.45345 -14.576427 -124.80579 11511200
142.09062 -14.579466 -124.16273 9603715
142.72772 -14.582754 -123.51848 9998983
143.52353 -14.587278 -122.71206 9210491
144.31917 -14.592149 -121.90411 9933702
144.95546 -14.596435 -121.25653 9538432
145.59161 -14.600919 -120.60789 8025193
146.22758 -14.605652 -119.95828 8551025
147.02255 -14.612051 -119.14442 8353134
147.81732 -14.618782 -118.32909 11313816
148.46185 -14.625361 -117.68245 10985881
149.11078 -14.632587 -117.03777 9999243
149.76028 -14.640163 -116.39226 7039331
150.57306 -14.650084 -115.58389 10985622
151.38678 -14.660469 -114.77393 8089963
152.03825 -14.669137 -114.12472 9735043
152.69418 -14.678405 -113.47702 8090992
153.41656 -14.694202 -112.87614 8090992
154.15877 -14.712044 -112.28706 7301986
154.99394 -14.883328 -111.48004 8092019
155.80402 -14.934524 -110.82029 8288883
156.64609 -15.002372 -110.12347 9538432
157.40588 -15.023095 -109.53351 11315100
158.16783 -15.044188 -108.9416 10721934
158.93193 -15.065656 -108.34772 10261639
159.54712 -15.311836 -107.65018 10853518
160.31467 -15.334394 -107.05268 8617331
161.08443 -15.35745 -106.45306 9143675
92.887436 -13.769987 -172.64723 8090479
93.953156 -13.773394 -172.15086 11578017
94.434921 -14.06498 -171.40337 10788758
95.271698 -14.207691 -170.66042 11577503
96.290878 -14.206131 -170.08667 11182489
96.900719 -14.205193 -169.73949 9208443
107.12167 -14.369722 -158.57596 7169117
108.15492 -14.379403 -158.05782 7038298
109.16582 -14.38652 -157.50389 6511954
109.8596 -14.377841 -156.89578 8551283
110.53924 -14.367754 -156.26898 9012088
111.21742 -14.35802 -155.64249 7104091
112.06339 -14.346151 -154.85924 6775126
112.73883 -14.336936 -154.23286 6511954
92.240891 -12.980301 -173.26547 7433064
93.223007 -13.061746 -172.77654 8880250
94.205238 -13.143555 -172.28734 9078656
91.548248 -12.03121 -173.96938 9011836
92.454422 -12.064618 -173.53493 8288371
93.366135 -12.232849 -173.04379 9669507
90.853317 -11.080056 -174.67509 8879735
91.760826 -11.113017 -174.24031 8879735
92.673973 -11.281101 -173.74843 9143420
90.156029 -10.126607 -175.38274 11183001
91.06488 -10.159199 -174.94743 10064265
91.979515 -10.327281 -174.45491 9932679
88.676239 -8.6920404 -176.64699 8814197
89.410988 -9.0111446 -176.17732 9209211
90.440399 -8.9517059 -175.72298 10064520
91.282654 -9.3711929 -175.16302 9603714
87.972244 -7.7327046 -177.35965 8682868
88.747627 -7.8125281 -176.96735 10130313
89.822769 -7.8124552 -176.46788 9209211
90.643173 -8.0529165 -175.99004 10262156
87.265854 -6.7706714 -178.07457 7037274
88.042572 -6.8505268 -177.68161 8288109
89.025314 -6.8982801 -177.20583 9538176
89.941383 -7.090909 -176.70277 8682867
86.557091 -5.8058763 -178.79172 8419439
87.335129 -5.8857307 -178.39813 7564386
88.319435 -5.9334011 -177.92157 8485488
85.845779 -4.8381534 -179.51111 11050643
86.625221 -4.9181633 -179.11687 8683123
87.611221 -4.9656868 -178.63963 8682867
85.131981 -3.8674345 -180.23297 11577243
85.912819 -3.9475505 -179.838 10985105
86.900543 -3.9950566 -179.35997 8617587
84.415619 -2.8935213 -180.95726 9604484
85.335663 -2.9248104 -180.51726 9801605
86.262749 -3.0944941 -180.01836 9078649
83.696701 -1.9163125 -181.68408 9341056
84.618393 -1.9476528 -181.24329 8025711
85.547302 -2.1178133 -180.74333 9998728
82.328201 -0.77301335 -182.92436 12432037
83.011353 -0.93578714 -182.49319 11971743
83.931595 -0.96721983 -182.04338 8814710
84.810471 -1.2607152 -181.43013 8486003
81.608009 -0.28125751 -183.66994 10261643
82.480896 -0.28000763 -183.26492 10721934
83.571838 -0.27844548 -182.75874 10524555
176.94193 -22.703318 -90.948242 11380380
177.56793 -22.740427 -90.462875 6511954
178.02313 -23.25321 -89.888901 5919050
175.41348 -21.649725 -92.571594 8092019
176.25536 -21.857519 -91.847061 8091245
176.99019 -21.979692 -91.241608 7696228
177.72754 -22.102844 -90.633759 6511954
173.27716 -20.574387 -94.659714 7037274
174.11143 -20.777359 -93.943069 8682611
174.83928 -20.895555 -93.344604 9012350
175.66698 -20.939363 -92.705353 8749435
176.49808 -20.983843 -92.063217 7959402
177.33281 -21.028965 -91.418121 6775384
171.15816 -19.513659 -96.72818 6709597
171.98517 -19.71203 -96.019058 5722703
172.70644 -19.826534 -95.427246 8616307
173.52615 -19.866455 -94.7957 7300702
174.34924 -19.907024 -94.161331 8287597
175.17575 -19.948236 -93.52417 9209472
176.00572 -19.990017 -92.884079 10064267
176.83925 -20.032446 -92.241135 10393231
177.38069 -20.303263 -91.712639 7565675
169.05557 -18.466597 -98.778183 9275260
169.87563 -18.6607 -98.076218 9274749
170.59056 -18.771646 -97.490677 8814454
171.40283 -18.807938 -96.866455 6314583
172.21826 -18.844845 -96.239487 6182997
173.03693 -18.882294 -95.609848 9603201
173.85892 -18.920343 -94.97744 10854036
174.68433 -18.958956 -94.342216 8551025
175.42867 -19.236008 -93.659157 9932681
176.05199 -19.266121 -93.178986 9143424
167.1678 -17.440306 -100.65796 9340545
167.78181 -17.622538 -100.11552 8223597
168.49084 -17.730154 -99.536034 8618355
169.29593 -17.763031 -98.918655 9867654
170.10403 -17.796431 -98.298775 10130825
170.9153 -17.830345 -97.67627 8092011
171.72975 -17.86483 -97.051178 6972512
172.54741 -17.899784 -96.423431 6972512
173.2854 -18.172421 -95.747116 8880506
173.90266 -18.199799 -95.27269 9537920
165.09344 -16.417536 -102.6758 6971735
165.68861 -16.438755 -102.22078 7235425
166.40628 -16.701204 -101.56432 11182231
167.20454 -16.730843 -100.95349 8419702
168.00574 -16.760933 -100.34027 8355183
168.80992 -16.79151 -99.724602 8223343
169.61717 -16.822636 -99.106377 8486515
170.42751 -16.854204 -98.485703 8092011
171.14586 -16.962433 -97.898941 8092011
171.97556 -17.155684 -97.190094 6972512
162.04982 -15.386712 -105.70062 8089963
162.63092 -15.404646 -105.24744 9932163
163.40776 -15.428888 -104.64134 6971738
164.22839 -15.685861 -103.78394 7234906
165.0105 -15.711417 -103.17368 8353128
165.79912 -15.737768 -102.56358 7958630
166.59151 -15.764738 -101.95175 8879995
167.3867 -15.792128 -101.33751 7564651
168.18472 -15.819941 -100.72099 10788502
169.04985 -16.085844 -99.866272 8024944
169.85876 -16.115543 -99.24752 7038307
158.08899 -14.384641 -110.28765 14078918
158.63589 -14.397196 -109.82294 10853262
159.54881 -14.418585 -109.04591 10130052
160.15636 -14.651808 -108.05959 10261638
160.9077 -14.671718 -107.44715 8617331
161.66081 -14.691924 -106.83247 8617331
162.41649 -14.712551 -106.21609 9011832
162.94096 -14.953298 -105.44742 9471869
163.71976 -14.976786 -104.84053 7169117
164.50108 -15.000669 -104.23135 5919050
165.28484 -15.025001 -103.62 6971735
166.07118 -15.049674 -103.00636 8089957
95.232956 -13.778026 -171.5545 8684155
95.873276 -13.780607 -171.25609 8684155
96.727524 -13.784331 -170.85776 10195338
97.490494 -13.927126 -170.14162 9735302
97.9142 -14.203628 -169.15569 8288625
98.924103 -14.20206 -168.56575 8947063
99.930672 -14.200489 -167.97012 8486512
100.53283 -14.199546 -167.60985 9537667
113.07612 -14.332498 -153.91948 6511954
113.5813 -14.325887 -153.44968 11642524
114.25391 -14.317359 -152.82323 12893360
114.92525 -14.309033 -152.19688 9209467
115.5955 -14.300958 -151.57039 12302252
116.4316 -14.291347 -150.78725 9867139
117.26615 -14.28212 -150.00389 12235684
117.93254 -14.274998 -149.37708 9734527
118.59782 -14.268176 -148.75018 8682867
119.26207 -14.261605 -148.12317 8682867
120.09097 -14.253819 -147.3391 10326667
120.91841 -14.246382 -146.55478 7038307
121.57918 -14.240714 -145.92705 7959144
122.23902 -14.235397 -145.29916 9341820
122.89806 -14.230229 -144.67093 10591630
123.72049 -14.224248 -143.88524 10262417
124.54169 -14.218615 -143.09906 7038307
