# .PCD v0.7 - Point Cloud Data file format
VERSION 0.7
FIELDS x y z rgb
SIZE 4 4 4 4
TYPE F F F U
COUNT 1 1 1 1
WIDTH 1201
HEIGHT 1
VIEWPOINT 0 0 0 1 0 0 0
POINTS 1201
DATA ascii
-31.300615 -9.3811054 153.99475 5787720
-32.166565 -9.4515991 153.73656 5655878
-33.040104 -9.5518627 153.46516 6971992
-34.094116 -9.5024786 153.20149 8419700
-34.972576 -9.5797863 152.97675 7696236
-35.728725 -9.8876076 152.72885 7038819
-29.50218 -8.4628592 154.82042 10985877
-30.32189 -8.556304 154.56599 6841438
-31.23921 -8.55408 154.32126 6116685
-32.339111 -8.5518379 154.02766 5787720
-33.255005 -8.5502615 153.78313 10656656
-34.071163 -8.6446772 153.52925 12433069
-27.715811 -7.3739605 155.70657 5788232
-28.548994 -7.6022754 155.39816 5920074
-29.469873 -7.5998936 155.15259 6512211
-30.53142 -7.549459 154.88736 5919821
-31.410395 -7.6505523 154.61417 5853513
-32.320717 -7.8244343 154.30525 5721671
-33.116261 -7.9765668 154.03526 13024949
-25.131392 -6.0684319 156.88658 5392961
-25.867987 -6.1631804 156.65454 4340785
-26.69739 -6.4509649 156.3251 4998459
-27.701979 -6.4484234 156.0575 7170141
-28.709131 -6.3909769 155.8094 5920074
-29.592417 -6.4926181 155.5349 5525062
-30.56616 -6.6741385 155.20622 5722442
-24.059999 -5.294642 157.46321 6182477
-24.865805 -5.5258217 157.16135 5392961
-25.909094 -5.4844584 156.89862 4340785
-26.837412 -5.4824271 156.65105 5525059
-27.764612 -5.4805961 156.40359 7367520
-28.77688 -5.5757227 156.09695 7170141
-22.25519 -4.1279249 158.38309 6839896
-23.111227 -4.4518971 158.03302 5655877
-24.103941 -4.5148673 157.74457 5984843
-25.036604 -4.5130782 157.49632 5919050
-25.967981 -4.5114322 157.24783 5195838
-26.995062 -4.7436256 156.88586 5920074
-27.802389 -4.8980126 156.61188 9735812
6.6319408 -3.1379652 172.36116 9472126
5.5771313 -3.1292188 171.85619 8090986
4.7382641 -3.1223822 171.45451 6511954
3.903471 -3.1156402 171.05473 7564642
3.072752 -3.1090436 170.65695 7564643
2.246069 -3.1024914 170.26099 7760997
1.2184352 -3.0944943 169.7688 6840669
0.19641677 -3.0866899 169.27924 8090734
-0.61684614 -3.0805211 168.88965 8879994
-1.4263822 -3.0743973 168.50182 9997961
-2.4330235 -3.0669901 168.01955 8090994
-3.4343967 -3.0596931 167.53967 9800582
-4.231432 -3.0539536 167.15771 8814710
-5.0250378 -3.0483601 166.77739 7893608
-6.0121593 -3.0414612 166.30426 8222572
-6.9944782 -3.0347068 165.83344 6446422
-7.7764912 -3.0293984 165.45856 7366752
-8.7494335 -3.0228992 164.9921 5919050
-9.7178631 -3.0165603 164.52774 8089962
-10.489008 -3.0115879 164.15797 9012606
-11.367579 -3.1669044 163.67192 8420726
-12.282248 -3.2411005 163.20123 10261643
-13.158461 -3.1951139 162.79755 11642779
-14.105162 -3.1889803 162.34383 9209727
-15.047853 -3.182934 161.892 9604227
-15.798838 -3.1782115 161.53201 9735812
-16.657515 -3.2125881 161.10434 11248794
-17.656378 -3.3649569 160.56148 8748148
-18.582983 -3.359082 160.11739 9734788
-19.505987 -3.353302 159.6749 8089963
-20.425371 -3.3477831 159.23721 7366496
-21.347258 -3.5412099 158.84578 8616049
-22.28581 -3.5396655 158.59604 8747378
-23.223093 -3.5382123 158.34656 6576978
-24.158976 -3.5369234 158.09727 7300699
-25.203348 -3.5747433 157.80367 6116428
-26.015242 -3.7304161 157.52797 5393730
29.747351 -2.1369529 183.91029 8748660
29.082067 -2.2850609 183.52965 9011576
28.191717 -2.203074 183.13354 10261131
27.220869 -2.1968052 182.668 9405308
26.199972 -2.3258073 182.12369 9405565
25.337591 -2.320121 181.71022 9143418
24.491056 -2.4044127 181.26797 8485493
23.622862 -2.3983335 180.8519 8617077
22.759832 -2.3924077 180.43816 7104092
21.823843 -2.3859942 179.98955 8748917
20.997389 -2.4691005 179.55748 8814716
20.122648 -2.3742347 179.17412 9209468
19.244566 -2.4566829 178.71748 9209467
18.278677 -2.5822344 178.201 8354933
17.369993 -2.5756369 177.76556 8222573
16.466566 -2.5691071 177.33264 8222573
15.568327 -2.5627205 176.90215 8354159
14.675192 -2.5563531 176.47411 9209211
13.787054 -2.5501795 176.04848 8946039
12.903868 -2.5440493 175.62515 8814453
12.025541 -2.5380127 175.20413 9734530
11.151983 -2.5320706 174.78537 9339773
10.28311 -2.526247 174.3688 9208187
9.2906017 -2.4769218 173.91028 9866117
8.3449841 -2.5135548 173.43956 10591121
7.4050732 -2.5499103 172.97171 9077882
6.4292583 -2.5010588 172.52106 9143417
5.5848827 -2.4956796 172.11609 8288365
4.744688 -2.4904201 171.71315 6775126
3.9086437 -2.4852302 171.31223 7762022
2.9526196 -2.4374788 170.87061 7696229
1.9598674 -2.515275 170.36052 8024426
1.0142115 -2.4677005 169.9238 7827563
0.19598952 -2.4629133 169.53128 8353648
-0.61847121 -2.4581711 169.14056 9011577
-1.5506002 -2.4114296 168.71005 8748666
-2.5174847 -2.4887128 168.21263 8025201
-3.4401302 -2.4421742 167.78662 10261132
-4.2383442 -2.4378119 167.40359 9143931
-5.1525021 -2.3918579 166.98143 8222573
-6.0999317 -2.468776 166.49356 8880503
-7.0053082 -2.4230459 166.07552 9012606
-7.9064274 -2.3777106 165.65941 9801605
-8.839777 -2.4543111 165.17848 6116429
-9.7326374 -2.4091551 164.7663 8089962
-10.504892 -2.4053595 164.39549 8222062
-11.465872 -2.4007368 163.93407 7828333
-12.422567 -2.3961668 163.4747 10984594
-13.299871 -2.3519711 163.06963 10326922
-14.207373 -2.4280586 162.60152 8946298
-15.077394 -2.3840592 162.20006 9735812
-16.017359 -2.379926 161.74876 10064777
-16.985781 -2.4950383 161.23561 9801349
-17.772924 -2.5142961 160.84854 8813685
-18.663122 -2.6165574 160.3783 9405823
-19.543661 -2.5629559 159.97557 8813686
-20.464373 -2.5589514 159.53381 8156011
-21.479921 -2.5003598 159.20164 9207672
-22.381498 -2.6052208 158.92171 8484463
-23.404184 -2.6676824 158.62523 7168859
-24.379389 -2.9479682 158.25916 8616300
29.723944 -1.2955192 184.23926 8814453
28.741079 -1.2921908 183.76678 8748660
27.850691 -1.2131052 183.36948 10129545
27.036642 -1.2866284 182.9473 9537407
26.227034 -1.3595628 182.52747 9603711
25.351423 -1.2808664 182.13716 9537920
24.396933 -1.2777272 181.67822 10458510
23.448439 -1.2746807 181.22221 8814710
22.505865 -1.2716765 180.769 7169884
21.569113 -1.2687148 180.31857 8025193
20.638128 -1.2657961 179.87088 9735299
19.712698 -1.2629453 179.42592 12103329
18.8328 -1.3931285 178.94904 12366501
18.021208 -1.4787695 178.5231 9538433
17.111753 -1.4754236 178.086 9143675
16.207579 -1.472087 177.65141 9143675
15.308607 -1.4688107 177.21933 8420211
14.414709 -1.4655946 176.7897 9209471
13.525839 -1.4624224 176.36244 9735555
12.641912 -1.4593103 175.93753 9275003
11.709066 -1.517828 175.46411 9340796
10.743292 -1.4525858 175.0249 9800580
9.8744488 -1.4496214 174.60721 10063496
9.010191 -1.4467678 174.1917 9734531
8.1504803 -1.4439251 173.77841 10195338
7.2952557 -1.4411101 173.36719 10524813
6.4443722 -1.438373 172.95805 11182228
5.508131 -1.3747556 172.53241 9537918
4.5455685 -1.4325607 172.04495 8288109
3.5887356 -1.4898583 171.56049 9472640
2.6677303 -1.4266311 171.14201 9012089
1.8396739 -1.4241316 170.74382 8419440
1.0155467 -1.4216939 170.3475 8748404
0.10763351 -1.3593646 169.93497 9406332
-0.875269 -1.4684702 169.41699 8617076
-1.838873 -1.4134988 168.97461 7367272
-2.6461277 -1.4112898 168.58635 7827822
-3.5362148 -1.3497735 168.1821 8617332
-4.4494114 -1.4065874 167.71884 9078394
-5.3578053 -1.462923 167.2581 9143675
-6.2353001 -1.4017603 166.85977 8814970
-7.1089001 -1.3410069 166.46318 10657173
-8.0521679 -1.4484135 165.96501 9538436
-8.9802532 -1.3949265 165.53922 7037531
-9.8418789 -1.334746 165.14812 8221548
-10.771311 -1.4415386 164.65681 9011064
-11.686945 -1.3885943 164.23676 9998728
-12.537378 -1.328952 163.85094 11642523
-13.453756 -1.4351798 163.36612 9537407
-14.357786 -1.3827503 162.95149 10919831
-15.257994 -1.3307236 162.53854 14670032
-16.161894 -1.4363604 162.06001 11577760
-17.077475 -1.3201132 161.66571 11051159
-17.97331 -1.4254771 161.19135 9011064
-18.859091 -1.3738284 160.78525 9537409
-19.775702 -1.571082 160.26398 9406335
-20.697939 -1.5690269 159.82037 9011832
-21.634356 -1.5683693 159.51073 9536893
-22.378157 -1.7663203 159.23788 9537408
29.771986 -0.60524243 184.54161 8879991
28.787405 -0.6041919 184.06732 9406078
27.80924 -0.60318339 183.59616 9406078
26.837477 -0.60211658 183.12811 9077884
25.872076 -0.60114181 182.66306 9537920
25.151869 -0.60040593 182.31615 10458510
24.43556 -0.59971505 181.97104 9998215
23.48538 -0.59877098 181.51335 11643036
22.541189 -0.59786922 181.05855 8748916
21.60285 -0.59696007 180.60646 7367263
20.67021 -0.59609383 180.1572 8287854
19.743269 -0.59527022 179.7106 10656398
18.821844 -0.59443957 179.26669 12103329
17.905928 -0.59360206 178.82547 9143675
16.995291 -0.59280777 178.38681 9077882
16.090017 -0.59205675 177.95067 9341054
15.189924 -0.59129912 177.51701 9800838
14.294928 -0.59053499 177.08578 9800838
13.404989 -0.58986455 176.65698 10261644
12.519941 -0.5891878 176.23065 10261382
11.639799 -0.58850497 175.80652 9209467
10.764395 -0.587816 175.38486 9209467
9.8937664 -0.58722103 174.96527 10129289
9.0276775 -0.5865702 174.54802 9010808
8.1662197 -0.58596355 174.13289 10129289
7.3091564 -0.58540136 173.71991 10064262
6.2442532 -0.58470285 173.2068 11905950
5.1856289 -0.58404654 172.69675 9340796
4.3436642 -0.58351517 172.29102 10524816
3.5058804 -0.58297855 171.88724 10262156
2.6721249 -0.5825367 171.48555 10262156
1.8424433 -0.58203977 171.08572 8879478
0.81097215 -0.58149892 170.58865 8419183
-0.21477708 -0.58095086 170.09433 7893612
-1.0309392 -0.58058679 169.70097 7762027
-1.8434774 -0.58011812 169.30942 7762027
-2.652277 -0.57974464 168.91968 7630443
-3.6581097 -0.57933795 168.43488 8090987
-4.6587925 -0.5788914 167.95262 9538945
-5.2565784 -0.57870013 167.66451 10263180
-19.80443 -0.97424698 160.49088 9867141
-20.727892 -0.97341889 160.0462 9735555
-21.286428 -0.97320247 159.82721 9406590
-109.14902 -24.179888 116.97813 9735812
-109.70036 -24.209084 116.72106 8814711
-110.62203 -24.258646 116.29108 12433580
-111.54696 -24.309164 115.85928 9143675
-112.47572 -24.36075 115.42535 9143419
-113.40794 -24.413361 114.98946 8814454
-114.15646 -24.456207 114.63921 9735299
-115.15026 -24.317421 114.25311 9011832
-116.09374 -24.372587 113.81116 9801601
-117.02068 -24.424549 113.34661 11445398
-117.93568 -24.474354 112.86538 9340539
-118.76953 -24.560163 112.41011 9735554
-119.67684 -24.53178 111.96506 9340800
-120.47392 -24.550545 111.55601 9998216
-121.50298 -24.477016 111.06829 8089963
-122.49393 -24.334709 110.62823 8682355
-123.24364 -24.378729 110.2326 8682099
-124.09718 -24.469786 109.7653 8550513
-124.99946 -24.282448 109.3884 9011063
-125.94791 -24.34001 108.88714 8616307
-126.70983 -24.386841 108.48421 9669507
-127.66627 -24.446363 107.97803 9866627
-128.68877 -24.307108 107.52085 8880503
-129.5233 -24.155994 107.16315 8419952
-130.29886 -24.205297 106.7523 7959401
-131.27283 -24.268074 106.23608 9012601
-132.25111 -24.331825 105.71716 9341310
-135.34924 -24.123796 104.24439 7563619
-135.94879 -24.164272 103.92609 7563619
-136.55005 -24.20505 103.60674 6446418
-102.58637 -23.283001 120.25867 7893871
-103.48428 -23.32373 119.84283 7696236
-104.38486 -23.365341 119.42538 9931910
-105.28864 -23.407953 119.00621 9668738
-106.19527 -23.451424 118.5854 10129289
-107.10525 -23.49596 118.16267 9735302
-108.01818 -23.541395 117.73825 8289141
-108.93464 -23.587917 117.31186 9472641
-109.85423 -23.635286 116.88368 8946039
-110.79969 -23.601492 116.47672 10986134
-111.6918 -23.481768 116.12811 9669762
-112.56559 -23.640266 115.67554 9143419
-113.4948 -23.58614 115.284 8419696
-114.37217 -23.683636 114.85443 9801349
-115.36823 -23.542936 114.46801 8288621
-116.31402 -23.596506 114.02572 9341307
-117.05685 -23.636703 113.65392 13023917
-118.04987 -23.603945 113.16758 9538175
-118.94942 -23.538414 112.74172 9933191
-119.81323 -23.634758 112.26707 7893869
-120.73798 -23.578609 111.82468 8221806
-121.5463 -23.680384 111.37568 8221804
-122.37543 -23.660322 110.9665 7893351
-123.37677 -23.543409 110.5107 9537405
-124.23202 -23.632715 110.04331 11247763
-125.17837 -23.687901 109.54398 10260872
-126.12449 -23.483583 109.15209 9471614
-126.95277 -23.590567 108.6909 8418928
-127.78411 -23.698753 108.2277 9142907
-128.717 -23.580965 107.80665 9932935
-129.71071 -23.554462 107.31731 9341054
-130.48784 -23.602665 106.90615 7564643
-131.37262 -23.69932 106.42081 8618099
-132.42166 -23.587334 105.93927 9538945
-133.2971 -23.574408 105.50418 9538945
-134.08881 -23.625483 105.08473 8879991
-134.88376 -23.677256 104.6634 10787984
-135.85538 -23.574827 104.21694 7563619
-136.84576 -23.556831 103.72613 8485233
-137.76028 -23.659611 103.22356 10261900
-138.57104 -23.714409 102.79296 5920074
-139.4545 -23.563866 102.4108 6906713
-140.27299 -23.619728 101.97591 8419696
-141.16544 -23.469477 101.5891 8090986
-141.94687 -23.518967 101.11767 8354158
-142.96399 -23.368109 100.55018 6972249
-91.270782 -22.279743 125.69904 7038307
-91.791237 -22.296648 125.46043 7761768
-92.660255 -22.325592 125.06174 7169627
-93.53112 -22.355286 124.6619 8485229
-94.404236 -22.385918 124.26068 9340545
-95.454781 -22.423775 123.77757 7958376
-96.376526 -22.269003 123.42947 7235165
-97.213242 -22.489496 122.96847 7761765
-98.096001 -22.523697 122.56194 8222573
-98.981438 -22.558865 122.15392 9077882
-99.932335 -22.65181 121.69352 8879990
-100.81586 -22.586555 121.32668 9604742
-101.77538 -22.722559 120.84512 9407877
-102.67724 -22.484549 120.5398 8289398
-103.59373 -22.60124 120.08507 8418929
-104.47923 -22.5641 119.70615 9405566
-105.40137 -22.682959 119.24804 10129289
-106.31763 -22.445917 118.93597 10195595
-107.23559 -22.592302 118.46864 10326925
-108.14498 -22.532061 118.08837 9341058
-109.06911 -22.68074 117.61736 8880506
-109.98553 -22.621941 117.2334 8880246
-110.83532 -22.635201 116.85007 9604225
-111.83279 -22.568819 116.43306 8946039
-112.76552 -22.616772 115.99886 7695717
-113.61631 -22.700535 115.58664 7893352
-114.56872 -22.465721 115.25754 9011576
-115.45209 -22.561995 114.82581 8880501
-116.33877 -22.659473 114.39208 9078392
-117.33125 -22.661629 113.9187 9998724
-118.0664 -22.69861 113.5333 8419697
-119.0445 -22.549831 113.10237 11577243
-119.97057 -22.597471 112.61647 7960175
-120.90054 -22.646145 112.12818 7499108
-121.90608 -22.579285 111.64951 7564386
-122.64175 -22.538414 111.29606 8353902
-123.52108 -22.636484 110.81281 9143159
-124.46369 -22.580299 110.36146 10458251
-125.28696 -22.683784 109.90421 9405821
-126.21134 -22.574017 109.48419 9471614
-127.15426 -22.54632 109.02095 9340542
-128.02615 -22.637115 108.54452 8879479
-128.79802 -22.682062 108.13731 9406079
-129.79387 -22.652994 107.64806 9998984
-130.73822 -22.533222 107.2224 8222317
-131.58667 -22.642704 106.75023 6709077
-132.3726 -22.690407 106.33514 9473152
-133.33224 -22.583895 105.89639 8946810
-134.31064 -22.561199 105.41356 7565675
-135.21442 -22.658918 104.91846 7563619
-136.01532 -22.709377 104.49465 7563619
-136.88699 -22.55549 104.11977 10327437
-137.76265 -22.67127 103.63131 11314588
-138.71054 -22.672455 103.15397 7762022
-139.69171 -22.483051 102.73872 6248782
-140.62201 -22.5858 102.22817 6511954
-141.44647 -22.640043 101.79021 8090986
-142.22183 -22.686579 101.31232 8880503
-143.08203 -22.77944 100.73555 8090733
-144.00528 -22.577993 100.24881 10129547
-144.93358 -22.376194 99.759163 7038307
-145.76491 -22.396814 99.232063 8551537
-146.65099 -22.30658 98.719582 9142651
-81.985329 -21.284824 130.23404 10525071
-82.836998 -21.303795 129.84709 10788756
-83.689842 -21.323463 129.45934 8092019
-84.544197 -21.343904 129.07056 9275777
-85.571243 -21.369495 128.60283 12038051
-86.460083 -21.51647 128.14795 9670018
-87.248802 -21.599741 127.76324 10854548
-88.354233 -21.490583 127.31461 10656655
-89.183723 -21.467632 126.95429 10394254
-90.04834 -21.493132 126.55891 11446430
-90.977303 -21.574862 126.11239 9473409
-91.83683 -21.501245 125.759 8551279
-92.827675 -21.579971 125.28616 6709333
-93.700447 -21.608816 124.88605 10129540
-94.575523 -21.638525 124.4846 8813684
-95.515564 -21.725237 124.03143 8221548
-96.376205 -21.512989 123.73404 8024425
-97.43528 -21.551422 123.24744 8090477
-98.320427 -21.58432 122.84046 7893608
-99.208214 -21.618137 122.43191 9012089
-100.14429 -21.463907 122.0776 9537922
-101.03776 -21.499121 121.66599 9999500
-101.93371 -21.53516 121.25291 12894644
-102.83266 -21.572084 120.83814 8090991
-103.73423 -21.609827 120.42188 9010808
-104.63891 -21.64851 120.00386 9405566
-105.54646 -21.688009 119.58427 9339773
-106.5066 -21.537512 119.21774 9275007
-107.42085 -21.578474 118.79453 9669766
-108.33857 -21.620356 118.36944 9209472
-109.25936 -21.663092 117.94263 9340801
-110.13227 -21.899288 117.45918 9209211
-111.05938 -21.944172 117.02868 9472639
-111.99033 -21.990133 116.59602 9012343
-112.9247 -22.036974 116.16155 8814454
-113.67493 -22.075119 115.81243 7366752
-121.81954 -22.093756 111.89366 5920074
-126.28971 -21.929094 109.7112 8879478
-127.24817 -21.982014 109.20683 9405822
-128.21068 -22.035872 108.70001 8616307
-128.98405 -22.079721 108.29262 8616307
-129.56592 -22.113073 107.98606 9142907
-130.86188 -21.776995 107.47309 8551026
-131.84232 -21.83363 106.95643 7103835
-132.63031 -21.8797 106.54102 9998984
-133.42145 -21.926472 106.1236 8815227
-134.21573 -21.973896 105.70437 7565675
-135.27966 -21.829763 105.22874 7564647
-136.28281 -21.890549 104.69891 7959145
-137.1568 -21.734562 104.32374 9341054
-137.96722 -21.784307 103.89545 10393742
-138.89508 -21.701096 103.46307 8288109
-139.66805 -21.678762 103.08348 6511954
-140.59952 -21.779509 102.57317 6775126
-141.61575 -21.758547 102.06594 7564642
-142.56653 -21.642973 101.55648 7959145
-143.32886 -21.685389 101.06283 6906202
-144.16406 -21.518673 100.61568 8814202
-144.93254 -21.561964 100.11781 7367271
-145.80569 -21.654842 99.532906 7235170
-146.7644 -21.624119 98.949028 8945271
-147.6454 -21.718681 98.358467 9405823
-148.50037 -21.552742 97.89872 9406080
-149.31854 -21.31147 97.495003 9997704
-150.22311 -21.219727 96.971657 9405566
-74.873116 -20.235668 133.82283 8090987
-75.548851 -20.245234 133.51797 7169889
-76.563347 -20.260422 133.05995 8419439
-77.490608 -20.385841 132.59665 9800836
-78.273285 -20.426723 132.23163 10129545
-79.239914 -20.490023 131.7757 9669507
-80.259018 -20.509134 131.31407 8814710
-81.109505 -20.525812 130.92853 11577760
-81.96125 -20.54328 130.54208 11511967
-82.985001 -20.565201 130.07733 9604485
-83.839485 -20.584255 129.68901 8355190
-84.695496 -20.604092 129.29977 8683898
-85.671967 -20.674166 128.83672 10327436
-86.521019 -20.59543 128.49008 9341053
-87.444534 -20.672531 128.04776 12565422
-88.288315 -20.620159 127.6929 12038051
-89.211174 -20.533216 127.31671 10590606
-90.251091 -20.562469 126.84184 10065288
-91.119751 -20.587662 126.44503 9077625
-91.990555 -20.613756 126.04714 8616817
-92.968269 -20.509192 125.65432 8748401
-93.835152 -20.435364 125.29845 10458508
-94.833839 -20.514643 124.82225 9076858
-95.713791 -20.543699 124.41909 8550513
-96.596191 -20.57358 124.01456 7564132
-97.480766 -20.60424 123.60869 7762029
-98.322922 -20.8244 123.14541 8617077
-99.309685 -20.898678 122.67653 9143675
-100.14956 -20.701195 122.38241 7893358
-101.22363 -20.742012 121.88824 9472386
-102.1215 -20.776859 121.47479 11710372
-103.0224 -20.812578 121.05963 9011065
-143.79883 -20.857037 101.13428 7169373
-144.37454 -20.888218 100.7618 9932169
-145.21536 -20.719454 100.31207 7564135
-146.07047 -20.636972 99.815506 8747892
-146.83713 -20.592867 99.357185 9011064
-147.68019 -20.701477 98.784088 9142651
-148.53094 -20.687407 98.260155 9142649
-149.36356 -20.560688 97.797112 9602942
-150.34201 -20.529034 97.201302 9076601
-151.24063 -20.624134 96.599182 9010808
-152.11346 -20.455542 96.128441 7565163
-152.71423 -20.490204 95.738274 7038307
-73.954002 -19.421534 134.29398 7959656
-74.761795 -19.601873 134.07608 7301474
-75.683105 -19.509069 133.75331 7301474
-76.699486 -19.523743 133.29468 9010806
-77.547409 -19.536697 132.91179 11181973
-78.396362 -19.550419 132.52814 10589840
-79.416359 -19.567751 132.06685 10722451
-80.267509 -19.582909 131.68163 8092019
-81.119835 -19.598835 131.29555 9275004
-82.18087 -19.433563 130.88916 9275777
-83.036255 -19.450836 130.50124 8025969
-83.893044 -19.468866 130.11235 9275778
-84.922997 -19.491407 129.6445 7959663
-85.782875 -19.510918 129.25366 7630186
-86.644417 -19.531237 128.86188 7893357
-87.680313 -19.556522 128.39052 9932420
-88.505486 -19.7649 127.9394 10457994
-89.372093 -19.787746 127.54464 9602944
-90.414322 -19.816072 127.06957 10854547
-91.284836 -19.84049 126.6725 10853264
-92.157433 -19.865696 126.27417 8682867
-92.898964 -19.698957 126.01151 8682867
-146.00891 -20.116934 100.0826 8089963
-147.32024 -19.754711 99.424721 8089962
-147.90723 -19.785904 99.045219 8089962
-148.76559 -19.614567 98.585686 8879472
-149.55435 -19.656906 98.075348 8945266
-150.3461 -19.69978 97.562599 8287085
-151.24559 -19.792881 96.960396 7958120
-152.18439 -19.669254 96.42878 7762027
-153.01755 -19.627535 95.927132 7367271
-153.85458 -19.585976 95.422981 7696235
-154.711 -19.501438 94.925621 7827049
-155.60303 -19.329618 94.444244 9208440
-156.42105 -19.375629 93.913559 8813939
-72.207123 -18.097141 135.09319 10262156
-72.955528 -18.44853 134.83054 8157038
-74.042313 -18.536592 134.6051 8420463
-74.989799 -18.57201 134.40619 7170141
-75.851349 -18.586395 134.04825 7366753
-76.870125 -18.600462 133.58885 8681841
-77.720009 -18.612865 133.20525 11181970
-78.57093 -18.626015 132.82092 9932935
-79.524353 -18.747719 132.34749 9473156
-80.410637 -18.842609 131.91463 8092019
-81.264618 -18.858002 131.52808 9538692
-82.327652 -18.69173 131.12122 8025969
-83.184677 -18.708406 130.73273 7565675
-83.699532 -18.718754 130.49927 7565675
-149.77512 -19.014488 98.219261 9208435
-150.68416 -18.916168 97.69503 7432032
-151.43968 -18.88279 97.23822 7300446
-152.30562 -18.620462 96.812767 8419696
-153.19589 -18.534992 96.294647 8551542
-154.00433 -18.577585 95.771492 8288370
-154.8163 -18.620783 95.245857 8222575
-155.6319 -18.664585 94.717674 9077111
-156.4511 -18.708996 94.186958 9405819
-157.27399 -18.754057 93.653709 11115665
-158.18025 -18.580111 93.164375 7827822
-159.04901 -18.328253 92.732628 7564650
-159.79872 -18.219101 92.312614 7038307
-71.433228 -17.453457 135.46819 8879995
-72.117416 -17.539238 135.31509 10656401
-73.068321 -17.573421 135.13367 9209723
-74.174034 -17.534288 134.95184 8091242
-75.126068 -17.83341 134.64856 7104347
-153.42416 -17.884331 96.437302 8814713
-154.35332 -17.783772 95.901604 8682867
-155.12546 -17.749056 95.434914 9274747
-155.94336 -17.790962 94.906181 11049359
-156.84363 -17.61397 94.421913 8748147
-157.66956 -17.656506 93.887871 9209214
-158.49928 -17.699661 93.351173 9670023
-159.41333 -17.52253 92.858345 7827822
-160.25145 -17.566389 92.316078 7696235
-161.0936 -17.610853 91.771088 8617075
-162.02225 -17.433208 91.269409 8287854
-70.346359 -16.431219 136.0387 10853523
-71.334373 -16.586828 135.80585 7762029
-72.284149 -16.618599 135.6255 9603458
-73.181328 -16.695755 135.43774 9143419
-156.17764 -17.134007 95.047859 10590092
-156.95203 -16.725155 94.743797 7565675
-157.57227 -16.755442 94.343498 7960176
-158.48242 -16.575298 93.854485 8815484
-159.31712 -16.616177 93.315643 8617337
-160.15576 -16.657635 92.774132 9274753
-160.99838 -16.699646 92.229858 7696233
-161.84512 -16.742268 91.682762 7893352
-162.69601 -16.785442 91.132851 8813942
-163.64424 -16.696701 90.579979 8617332
-164.36343 -16.41287 90.255569 10262155
-68.608246 -15.221005 136.9552 8287853
-69.365509 -15.377853 136.7164 9538432
-70.435852 -15.454412 136.47701 8683126
-71.427109 -15.70193 136.13927 7564651
-72.257439 -15.752584 135.96715 8484977
-159.76845 -15.960761 93.321251 11379356
-160.39929 -15.990763 92.914391 10064011
-161.35246 -15.810535 92.431625 8222064
-162.19489 -15.850327 91.879822 8419440
-163.0412 -15.890624 91.325172 8090733
-163.86636 -15.612888 91.011269 7959405
-164.69855 -15.439986 90.610512 12103586
-65.742027 -14.251724 138.22166 7433057
-66.697708 -14.418082 137.91367 7563618
-67.734268 -14.614984 137.57787 8287597
-68.598137 -14.610955 137.42801 9208955
-69.489365 -14.617304 137.26515 9209467
-70.306702 -14.729909 137.03336 10985878
-40.064465 -13.319985 150.69153 13024949
-40.670025 -13.450454 150.53566 8222320
-41.52763 -13.520343 150.35159 6840927
-42.628201 -13.526681 150.10448 6511962
-43.4659 -13.591037 149.84782 6841696
-44.396244 -13.71245 149.46353 9670793
-45.294704 -13.713511 149.19357 9276035
-62.120613 -13.879188 140.04913 6248272
-63.035027 -13.8963 139.83424 8223349
-64.13475 -13.917395 139.5746 8617081
-65.236671 -13.939158 139.31259 9012091
-65.972626 -13.953903 139.13655 9734788
-38.872482 -12.179594 151.32442 8682867
-39.815773 -12.516734 151.03232 10853779
-40.777874 -12.51749 150.86104 9800832
-41.663799 -12.626067 150.66348 8485492
-42.640564 -12.814307 150.42038 6578011
-37.911831 -11.164448 151.86978 10261391
-38.756168 -11.422161 151.62466 8617075
-39.871685 -11.429665 151.42371 8090730
-40.924744 -11.545688 151.19382 8353900
-41.696381 -11.822528 150.95451 8617072
-37.059544 -10.426172 152.29364 10261134
-38.098148 -10.469843 152.093 10261391
-39.029118 -10.475349 151.92563 8617079
-39.882732 -10.518781 151.75795 7038298
-35.471508 -9.2517347 153.00917 8222579
-36.176876 -9.4325809 152.81718 6906975
-37.064762 -9.5129271 152.62973 8617081
-38.183506 -9.518609 152.42892 10261391
-39.030987 -9.7775717 152.18277 8814201
-34.368698 -8.3577919 153.55714 11511968
-35.281185 -8.5510902 153.30159 9998987
-36.329533 -8.5170422 153.12791 6971739
-37.219326 -8.5974302 152.94017 8419186
-37.878269 -8.7535954 152.76556 10261391
-32.525269 -7.3060284 154.44492 7235167
-33.52161 -7.4829731 154.11189 12498605
-34.347324 -7.6464629 153.82951 10656917
-35.360477 -7.5938249 153.64084 11380639
-36.347019 -7.7253947 153.41699 9143418
-37.197887 -7.9846931 153.1702 8485232
-30.769339 -6.1528955 155.34723 5656649
-31.661169 -6.3859048 155.02115 6051149
-32.541389 -6.488142 154.74719 7959404
-33.603283 -6.4388976 154.48143 12367276
-34.602665 -6.4384289 154.21846 11183260
-35.424122 -6.8256307 153.91302 12433581
-29.074236 -5.2844634 156.12656 5920074
-29.80118 -5.4772434 155.85968 4538171
-30.725538 -5.4760337 155.61272 5788235
-31.833807 -5.4748707 155.31647 5722185
-32.756634 -5.4740758 155.06972 8025454
-33.602009 -5.5122452 154.82916 12235691
-34.400799 -5.6666222 154.55748 13024949
-27.195551 -4.2172289 157.02954 6183246
-28.055407 -4.430418 156.71942 8946296
-28.941309 -4.5072284 156.45349 6117453
-30.053854 -4.5060983 156.1561 5327685
-30.980127 -4.5053458 155.90848 6840920
-31.844423 -4.6158819 155.63564 6116942
-32.800854 -4.8928175 155.27583 6839895
-25.665541 -3.339236 157.76823 5919050
-26.279707 -3.4691405 157.55513 5393730
-27.145689 -3.5335586 157.29921 5788488
-28.26288 -3.5326228 157.00047 7499106
-29.192827 -3.5319943 156.7518 5393730
-30.044844 -3.570586 156.50925 5525316
-30.850626 -3.7264316 156.23509 5196100
-23.673319 -2.1608992 158.74323 7037274
-24.412817 -2.3576703 158.47154 8682094
-25.33803 -2.553874 158.1503 6511440
-26.416536 -2.5042508 157.88023 7103576
-27.310682 -2.6091659 157.60156 5722695
-28.277205 -2.601855 157.34557 6577748
-29.179293 -2.8142848 157.02448 5854025
-22.643034 -1.5022448 159.26599 9537408
-23.51779 -1.5682067 159.00708 7826790
-24.645292 -1.568283 158.70528 8550512
-25.583521 -1.5683811 158.45406 7826784
-26.520567 -1.5684946 158.20322 7366490
-27.444075 -1.7660042 157.88193 6445903
30.076094 -0.14369185 185.01495 9142651
29.334631 -0.14403257 184.65834 9274236
28.596495 -0.14436908 184.30334 9406078
27.862318 -0.14480056 183.95024 9011576
26.888853 -0.14523566 183.48203 10195853
25.921667 -0.14576277 183.01689 9998474
24.960684 -0.14623205 182.55467 9998215
24.005812 -0.14674354 182.09541 10261130
23.056921 -0.14724748 181.63899 9143161
22.113913 -0.14774396 181.18542 7827814
21.410261 -0.14808671 180.84697 7367263
20.710226 -0.14847496 180.51015 7893352
19.781431 -0.14900376 180.06267 9801091
18.858198 -0.14947553 179.6178 9472639
17.94042 -0.14999041 179.17561 9143675
17.028112 -0.1504983 178.73596 7563874
16.121031 -0.15099955 178.29895 9801093
15.219137 -0.15149428 177.8643 9340801
14.322378 -0.15203242 177.43224 9340801
13.430716 -0.15256415 177.00252 9866630
12.543905 -0.15308967 176.57526 10524297
11.662008 -0.15360901 176.15028 9735296
10.784925 -0.15412223 175.72762 8946039
9.6954327 -0.15475504 175.20259 9603457
8.6126385 -0.15542933 174.68086 9734531
7.7517452 -0.15597202 174.26595 9932678
6.8952312 -0.15645917 173.85312 10590862
6.0430813 -0.1570407 173.44254 10984849
5.1952801 -0.15756679 173.03392 10064262
4.3516293 -0.1580876 172.62738 10064521
3.5122128 -0.15865299 172.22285 10130570
2.4688244 -0.15936063 171.72002 9866628
1.4313487 -0.15999417 171.21997 8089963
0.60586351 -0.16059186 170.8222 8089963
-0.21569261 -0.16113468 170.42622 7893612
-1.0335332 -0.16167271 170.03207 8090991
-2.0503216 -0.16236326 169.54202 8222576
-3.0618191 -0.16304713 169.05452 8617587
-3.8668537 -0.16366895 168.6665 8420208
-4.6684017 -0.16418628 168.28024 9538945
-5.6624699 -0.26831484 167.71803 9275004
-6.5305233 -0.41317022 167.18336 7433832
-7.4394283 -0.37203714 166.77852 11972519
-8.2251263 -0.3721844 166.39981 8354421
-9.1265316 -0.33143178 165.99857 7695721
-10.057047 -0.4135263 165.48361 8945271
-10.95035 -0.37279344 165.08626 10524559
-11.839968 -0.33237594 164.69063 10590864
-12.756811 -0.41393313 164.1823 10392715
-13.638803 -0.37350586 163.79036 11182489
-14.517416 -0.33335444 163.40007 13683909
-15.421404 -0.41445529 162.89789 15657955
-16.409071 -0.33415553 162.48816 12103848
-17.304308 -0.41490531 161.99016 11709089
-18.168604 -0.3750056 161.60675 11380124
-19.100439 -0.37535512 161.15753 9932422
-20.028605 -0.37569159 160.71005 9932934
-20.884031 -0.33621269 160.33681 9932934
-21.798349 -0.57561302 159.88539 9867142
-22.781282 -0.52661139 159.65515 9668995
-23.683096 -0.63367015 159.35931 8287341
-24.690458 -0.77621889 158.99011 8813686
-25.563822 -0.84284598 158.73132 8089961
-26.181826 -0.97538877 158.5162 5393730
30.020277 0.6298871 185.61639 8221547
29.3375 0.47305676 185.16092 9537918
28.444105 0.54799587 184.79248 9406078
27.463949 0.5452013 184.3192 10129545
26.490141 0.54248989 183.84901 9144193
25.612074 0.61632288 183.48708 9998988
24.801001 0.53759509 183.03329 9143162
23.844313 0.53493035 182.57137 9406077
23.043348 0.45703241 182.1232 9405821
22.184492 0.53052306 181.77022 7892840
21.244078 0.52792901 181.31615 8287854
20.30934 0.5253672 180.86493 9340286
19.380278 0.52286255 180.4164 9406079
18.456762 0.520365 179.9705 9406333
17.538702 0.51784939 179.52734 7037274
16.62599 0.51541555 179.08675 8090474
15.718611 0.51293844 178.64871 10195339
14.816351 0.51056796 178.21323 9537923
13.91921 0.50817895 177.78015 9340801
13.027113 0.50584632 177.34952 9537921
12.139975 0.50346994 176.92131 9801089
11.257643 0.50117475 176.49545 9998211
10.380095 0.49888554 176.07185 9472127
9.507246 0.49660239 175.6506 9800837
8.6390514 0.49432513 175.23154 9405566
7.7753582 0.49215356 174.81465 9341053
6.7890301 0.53272402 174.37369 10131081
5.8482113 0.48705676 173.88448 11117207
4.9987316 0.48487827 173.47452 10327179
4.0686016 0.43977493 172.99088 9867142
3.102911 0.48027143 172.55966 9472639
2.2669811 0.47816011 172.15619 10129286
1.4350184 0.47610375 171.75436 11379095
0.48322096 0.51609766 171.32925 9274492
-0.42264757 0.47139487 170.85706 8419697
-1.3233663 0.42704874 170.38747 8617332
-2.2609501 0.46703562 169.96924 7762027
-3.0721073 0.46508068 169.57753 9275773
-4.0012798 0.50464338 169.16338 8880759
-4.9630833 0.41868716 168.62965 9472639
-5.8830624 0.45831141 168.21994 9471871
-6.6784954 0.45645145 167.83585 9406336
-7.5906773 0.49570569 167.42989 10656660
-8.5329456 0.41063434 166.90572 10129804
-9.436697 0.44997427 166.50388 9537668
-10.336618 0.489059 166.10394 9603202
-11.264688 0.40462577 165.58659 9866885
-12.156664 0.44372067 165.19054 10459278
-13.045069 0.4825801 164.79616 10656657
-13.959703 0.39876392 164.28537 11446175
-14.840643 0.43768767 163.89441 12959928
-15.718222 0.4763256 163.50479 12104106
-16.620176 0.39310548 162.99994 11116696
-17.490751 0.43177226 162.61371 11380124
-18.429361 0.42975539 162.1602 11182745
-19.36421 0.4277432 161.7084 9932678
-20.22484 0.46608245 161.32669 8748660
-21.107344 0.38374919 160.83545 9538176
-21.957018 0.22190934 160.42343 9012091
-22.525812 0.22114861 160.27097 8288371
-116.89052 -22.244078 114.31307 9341307
-109.59725 -21.094723 118.02118 9340801
-110.20235 -21.356752 117.64652 8946040
-111.11443 -21.321667 117.25497 8814453
-111.96131 -21.401215 116.84618 8092011
-112.89677 -21.446802 116.41163 9735810
-113.83578 -21.493202 115.97526 8814454
-114.77879 -21.540609 115.53669 9340541
-115.72547 -21.588913 115.09611 9997959
-116.48582 -21.628244 114.74203 9801601
-117.49879 -21.593592 114.27567 9405819
-118.3993 -21.523043 113.85148 9602941
-119.20269 -21.618933 113.40737 11116692
-120.12823 -21.557528 112.9668 9801090
-120.99938 -21.650896 112.4896 7432542
-121.8294 -21.62607 112.08199 6380625
-122.83141 -21.503164 111.6283 6840919
-123.68763 -21.587666 111.16237 6577747
-124.5471 -21.673218 110.69431 7432545
-125.48376 -21.64205 110.23564 8418671
-126.47105 -21.329275 109.86777 8287085
-127.23881 -21.370468 109.46431 9274236
-128.20267 -21.422836 108.95754 9142907
-129.17075 -21.476137 108.44842 8353135
-129.94859 -21.519543 108.03915 8550771
-130.79282 -21.36149 107.67988 9603458
-131.77383 -21.417021 107.16331 9011320
-132.75943 -21.47348 106.64405 10130315
-133.66125 -21.387365 106.22601 10065035
-134.41269 -21.361845 105.85851 8815227
-135.27808 -21.204147 105.48845 7565675
-136.2825 -21.263161 104.95864 8090987
-137.2919 -21.323151 104.42603 9341054
-138.10349 -21.371996 103.99752 9933191
-138.7144 -21.409037 103.67482 10261900
-141.52673 -21.157785 102.36393 8288109
-142.13388 -21.193977 102.02356 7169373
-98.457939 -20.258356 123.31333 8748664
-99.348328 -20.290041 122.90446 8814457
-100.2415 -20.322601 122.49408 7301478
-101.13715 -20.355892 122.08221 8813945
-102.03564 -20.390057 121.66879 9736071
-103.11745 -20.432085 121.17065 9537409
-104.0391 -20.545523 120.71491 9668995
-104.8721 -20.550516 120.34238 9603202
-105.7761 -20.48432 119.96688 9012091
-106.63527 -20.630983 119.52561 8156785
-107.54574 -20.566025 119.14675 8617337
-108.47137 -20.710409 118.67686 8749178
-109.35897 -20.582735 118.3334 8814714
-110.30755 -20.541574 117.92803 9998217
-111.238 -20.583803 117.49715 8617842
-112.17175 -20.626871 117.06442 9143673
-113.02359 -20.706209 116.65356 10655885
-113.97637 -20.465635 116.32658 9274748
-114.86069 -20.557196 115.89629 8748660
-115.8097 -20.603336 115.45557 9077369
-116.76245 -20.650341 115.01284 9537918
-117.51354 -20.686134 114.64321 9734527
-118.49258 -20.531754 114.21413 9273977
-119.41979 -20.574467 113.72964 8090219
-120.26487 -20.654146 113.27126 7958629
-121.18461 -20.617695 112.82327 9668220
-122.10828 -20.581593 112.37316 6972248
-122.97413 -20.59363 111.93232 6972248
-123.9175 -20.531889 111.48287 7367006
-124.7417 -20.630793 111.02708 8879475
-125.63238 -20.726728 110.53899 9076856
-126.61034 -20.481955 110.14795 8155499
-127.48326 -20.567638 109.67333 8484464
-128.25587 -20.608011 109.26793 11380380
-129.22586 -20.659304 108.75871 9866887
-130.20013 -20.711519 108.24695 7038307
-131.04645 -20.551212 107.8875 9537665
-131.83289 -20.593945 107.4742 9340028
-132.75467 -20.696526 106.96797 11379093
-133.72348 -20.56007 106.53703 11380123
-134.67581 -20.54394 106.06459 9407363
-135.47708 -20.589148 105.64277 8223342
-136.28174 -20.635012 105.21899 8420464
-137.19785 -20.729837 104.7189 9077882
-138.19981 -20.704094 104.22543 9735811
-139.12596 -20.529066 103.83192 10195336
-140.01497 -20.641727 103.33807 6511954
-140.83963 -20.690826 102.90287 7432800
-141.73857 -20.531952 102.51632 8879991
-142.53094 -20.576099 102.04784 7761766
-143.29437 -20.616329 101.55444 5919050
-144.32294 -20.457016 100.98354 9011066
-88.625298 -19.20536 128.11142 10852751
-89.49324 -19.227602 127.71634 9142393
-90.362869 -19.250544 127.32021 10852751
-91.234444 -19.27422 126.923 10590092
-92.282822 -19.303572 126.44482 9603711
-93.188881 -19.455669 125.98052 9800834
-93.993973 -19.542727 125.5873 9405823
-94.970634 -19.610609 125.1255 10261132
-95.834816 -19.56196 124.76065 8484977
-96.81678 -19.631659 124.29579 8156273
-97.684929 -19.415384 123.99671 8879738
-98.638359 -19.501795 123.53778 8222066
-99.530663 -19.532366 123.12852 8616822
-100.42574 -19.56381 122.71767 7893358
-101.32328 -19.59597 122.30547 8616823
-102.22379 -19.628925 121.89161 9011835
-103.12687 -19.662657 121.4763 9142651
-103.99972 -19.647654 121.09406 10129546
-104.9905 -19.541172 120.69621 8879990
-105.90314 -19.576977 120.27577 9077884
-106.81875 -19.613596 119.85379 9012091
-107.81196 -19.570566 119.42927 8354161
-108.71046 -19.496222 119.0595 8880507
-109.57735 -19.581381 118.63956 8880507
-110.50095 -19.515774 118.25515 9537666
-111.3772 -19.665701 117.80497 9142906
-112.30811 -19.601309 117.4168 9538174
-113.18755 -19.689644 116.99 9603968
-114.18482 -19.537312 116.60773 8551282
-115.13242 -19.58046 116.16878 9077369
-115.89349 -19.615671 115.81605 8945783
-116.79307 -19.856903 115.31876 9208444
-117.73408 -19.900021 114.85706 9931905
-118.62998 -19.779711 114.45566 9537148
-119.54443 -19.740171 114.01162 7958375
-120.39117 -19.818253 113.55307 8089959
-121.32745 -19.861042 113.06403 9865599
-122.22382 -19.835402 112.6233 6643543
-123.18249 -19.610983 112.23345 6643543
-123.99927 -19.622429 111.81751 8090216
-124.93679 -19.585783 111.36076 9734270
-125.80419 -19.6681 110.89027 11313303
-126.67513 -19.751444 110.41765 9602945
-127.70512 -19.625126 109.95176 9931910
-128.565 -19.599552 109.52971 9866630
-129.34299 -19.638622 109.12218 10854037
-130.25496 -19.736622 108.62277 8090993
-131.25919 -19.488955 108.22007 9208699
-132.15344 -19.576382 107.73399 9405302
-132.94553 -19.617754 107.31837 10457990
-133.74078 -19.659733 106.90095 12300194
-134.73953 -19.713114 106.37635 9472639
-135.80978 -19.561419 105.9007 8683891
-136.61711 -19.605127 105.47643 8815478
-137.4279 -19.649441 105.05025 10130313
-138.24213 -19.694408 104.62198 12432295
-139.12872 -19.532427 104.24296 10261383
-140.06049 -19.626848 103.7351 6775126
-141.08029 -19.599369 103.23345 7367007
-142.02182 -19.695513 102.71999 10853012
-142.80746 -19.736784 102.24462 9735812
-143.64267 -19.564724 101.79983 8222317
-144.41147 -19.603577 101.30369 8353391
-145.24571 -19.707748 100.73803 8089963
-146.13126 -19.519726 100.26888 8089963
-147.03819 -19.415359 99.749725 10326665
-148.0526 -19.359854 99.142021 8616302
-79.834953 -18.27483 132.39876 8092019
-80.518196 -18.286287 132.0898 9144448
-81.373398 -18.301292 131.7028 9802120
-82.401199 -18.320116 131.23743 8486519
-83.259071 -18.336475 130.84877 9012606
-84.157043 -18.503922 130.38174 11906725
-85.113411 -18.561337 129.93301 10261387
-85.975571 -18.58007 129.54192 10590351
-86.839409 -18.599554 129.14984 8156528
-87.833488 -18.560057 128.72353 9866370
-88.665268 -18.407625 128.4149 11708059
-89.65519 -18.478998 127.94578 9866115
-90.526566 -18.501095 127.54928 11314330
-91.399918 -18.523933 127.15156 9603711
-92.39608 -18.598078 126.67858 9011831
-93.264824 -18.520735 126.32329 9734270
-94.207886 -18.601658 125.87114 9668738
-95.08976 -18.627411 125.46848 8682100
-95.973976 -18.653923 125.06445 8090474
-96.860405 -18.681105 124.65923 7958892
-97.793999 -18.519587 124.30893 8616823
-98.783836 -18.589449 123.84051 8419697
-99.660774 -18.541454 123.4697 10130314
-100.65662 -18.613001 122.99792 8945530
-101.5566 -18.643719 122.5852 8353906
-102.44967 -18.530266 122.23362 8880247
-103.34866 -18.458462 121.86262 8156013
-104.26434 -18.594921 121.40034 9669507
-105.18517 -18.77416 120.91854 9867141
-106.09988 -18.808668 120.49774 9209469
-107.01749 -18.843914 120.07536 8880505
-107.75399 -18.872719 119.73611 9472124
-108.72837 -18.716154 119.36568 8880247
-109.65571 -18.753269 118.93826 8880507
-133.13992 -19.004351 107.4744 10852748
-133.93674 -19.045132 107.05668 9405302
-134.73683 -19.086411 106.63709 7038298
-135.33893 -19.117838 106.32114 9210491
-137.69913 -18.821445 105.25636 9011573
-138.51562 -18.864651 104.82774 11511449
-139.33559 -18.908459 104.39704 6511954
-140.15927 -18.952871 103.96433 6511954
-140.98663 -18.99789 103.52941 6511954
-141.93448 -18.907469 103.09003 8419183
-142.8934 -18.885918 102.56521 8090987
-143.99214 -18.509724 102.046 10129802
-144.76347 -18.546595 101.54917 9340030
-145.53769 -18.58404 101.05027 7826791
-146.31485 -18.622061 100.54926 8484721
-147.09503 -18.660591 100.04614 12498088
-147.98141 -18.748415 99.45507 9406077
-148.95453 -18.710686 98.864449 8484716
-149.9055 -18.438919 98.390144 8616301
-150.62932 -18.293098 98.002312 8484974
-151.66425 -18.235899 97.381607 7563619
-74.508934 -17.068216 135.06448 7762277
-75.228592 -17.278023 134.83075 7827814
-76.053902 -17.475725 134.40331 7563874
-77.075523 -17.48905 133.94293 8352877
-77.927811 -17.500834 133.55853 11708314
-78.781113 -17.513256 133.17343 9407363
-79.806458 -17.528986 132.71042 8486776
-80.662056 -17.54278 132.32388 9736070
-81.51899 -17.557243 131.93658 9275003
-82.548927 -17.575426 131.47089 9604228
-83.408653 -17.591276 131.08208 10459537
-84.269852 -17.607786 130.69232 10459278
-85.252281 -17.674309 130.2285 11314331
-86.106293 -17.591364 129.882 11642523
-87.035355 -17.664923 129.43909 9537664
-87.884026 -17.608381 129.08435 8946040
-88.812233 -17.516451 128.70847 11576474
-89.858147 -17.540932 128.23332 9406334
-90.731728 -17.562014 127.83626 9209211
-91.607254 -17.583794 127.43797 8880246
-92.484673 -17.60619 127.03861 8879732
-93.432869 -17.54966 126.63964 10326150
-94.390343 -17.575489 126.20333 9076599
-95.306587 -17.682457 125.75263 8089961
-96.193115 -17.707739 125.34805 8090216
-97.081856 -17.733664 124.94229 9734270
-97.973152 -17.760275 124.53509 9077115
-98.866692 -17.787558 124.12659 8682867
-99.717171 -18.006241 123.66016 10788243
-100.61539 -18.035219 123.24893 8353651
-101.51648 -18.064936 122.83614 8617078
-145.16879 -17.919621 101.57227 8418928
-145.86336 -17.807961 101.18861 7695205
-146.60132 -17.770386 100.74499 8945271
-147.45529 -17.593367 100.28977 8617335
-148.24069 -17.630323 99.78344 8222576
-149.02917 -17.667841 99.274933 7958375
-149.81073 -17.617935 98.809105 8221289
-150.69 -17.529037 98.299294 9734011
-151.59393 -17.616968 97.696678 8617075
-152.49191 -17.617121 97.136292 8156524
-153.37457 -17.43985 96.663101 8880246
-154.18475 -17.479908 96.139999 8682867
-73.687996 -16.294556 135.49599 10263180
-74.420837 -16.505997 135.28775 8946807
-75.365509 -16.536015 135.07426 8090730
-76.223251 -16.547144 134.70016 7827302
-77.247231 -16.559891 134.23892 9142648
-78.10157 -16.57114 133.85399 14076861
-78.957008 -16.583021 133.46843 13156018
-79.985008 -16.598057 133.0051 8881533
-80.899002 -16.499699 132.63808 9340797
-81.738663 -16.438114 132.28937 10130054
-82.599327 -16.452349 131.90079 9274746
-83.461349 -16.467234 131.51132 10327692
-84.497597 -16.485819 131.04289 9472639
-85.312569 -16.576334 130.64389 10064520
-86.190376 -16.706457 130.20099 10656145
-87.23185 -16.7276 129.72917 9537664
-88.101479 -16.745855 129.33496 9471871
-88.972954 -16.764801 128.93968 10392716
-89.774216 -16.845768 128.55066 8682867
-90.679985 -16.993063 128.08842 10064520
-91.731956 -17.018288 127.61026 9011832
-92.610672 -17.040054 127.21059 8616560
-93.315239 -17.057938 126.89002 9734270
-148.72874 -16.781141 99.851013 9735558
-149.3221 -16.808096 99.468941 7563619
-150.18994 -16.628492 99.006096 9405046
-150.98758 -16.664917 98.49231 10851980
-151.78859 -16.701826 97.976357 7958889
-152.59293 -16.739313 97.457932 9341310
-153.40073 -16.777328 96.937157 8551538
-154.28885 -16.597454 96.461754 9274747
-155.10425 -16.636072 95.935982 9274747
-155.91345 -16.585493 95.453133 10392970
-156.782 -16.418526 94.984306 7959917
-157.7308 -16.314405 94.437828 8880507
-71.500763 -15.124347 136.51749 7564135
-72.472435 -15.297328 136.21196 8090219
-73.474701 -15.547456 135.87967 10919574
-74.431267 -15.577855 135.69099 9209212
-75.291458 -15.70845 135.43146 7827302
-76.360527 -15.802413 134.9408 7432544
-77.214684 -15.812427 134.55487 8946039
-78.070198 -15.823108 134.16898 11643551
-79.09864 -15.836746 133.70601 13747897
-79.956764 -15.848714 133.31943 9670278
-80.754608 -15.822821 132.97493 8880245
-151.21133 -16.01515 98.637451 10851980
-152.01398 -16.050785 98.120949 7563619
-152.90811 -15.870186 97.658096 8617331
-153.71228 -15.905698 97.132942 8617331
-154.59827 -15.723024 96.654137 8682867
-155.36058 -15.538084 96.35199 8682867
-156.28571 -15.534846 95.783195 9866627
-157.19852 -15.619553 95.14946 8880507
-158.02184 -15.656692 94.611259 8420470
-158.84885 -15.694363 94.070396 7960176
-159.64998 -15.656467 93.595406 9603461
-160.62897 -15.551731 93.046844 8814203
-162.20654 -15.176275 92.402054 7893356
-163.04697 -15.214119 91.84391 7564648
-70.048698 -14.200984 137.75076 12301739
-70.839706 -14.528045 137.09482 11314843
-71.699913 -14.588211 136.896 8550771
-72.652298 -14.615416 136.70636 8024170
-73.730705 -14.828502 136.35091 9011321
-157.24213 -14.959622 95.692963 9471871
-158.06036 -14.994486 95.151085 9800838
-159.05862 -14.88934 94.624992 8617845
-159.86987 -14.850094 94.154808 9340542
-160.69971 -14.885949 93.604362 9077375
-161.53325 -14.922233 93.051208 7827823
-162.6246 -14.597958 92.726151 9209980
-163.38336 -14.55574 92.29203 7564648
-164.198 -14.589618 91.712105 6709597
-165.03247 -14.625413 91.138527 9867142
-165.62909 -14.424472 90.948097 8682867
-43.963173 -13.355944 149.98526 7565417
-44.707939 -13.363775 149.85002 12828597
-45.688202 -13.45905 149.51773 11973288
-46.60421 -13.518035 149.23096 10788243
-47.265179 -13.715842 148.58006 8287855
-48.336704 -13.717115 148.23451 9406334
-49.405491 -13.71839 147.88129 8419184
-50.294201 -13.719455 147.58124 5919050
-51.181198 -13.720519 147.27547 5196094
-52.242985 -13.721797 146.90175 3749937
-66.340973 -13.961424 139.04819 8616307
-67.079002 -13.976738 138.87039 8616307
-68.187973 -14.000145 138.60178 7168860
-69.114067 -14.020161 138.37604 9209467
-69.670616 -14.03235 138.23978 9209467
-42.859665 -12.305842 150.56927 8223090
-43.85548 -12.598817 150.28407 7499625
-44.787937 -12.608077 150.11493 10262414
-45.669811 -12.664634 149.9373 10064522
-46.614861 -13.006639 149.64302 9209214
-41.211544 -11.060095 151.3221 10261382
-41.964825 -11.369463 151.07407 7367264
-42.852749 -11.452605 150.88559 8354675
-43.973324 -11.462303 150.68286 7960175
-44.971684 -11.756647 150.39674 9012348
-40.351856 -10.293645 151.75766 7038298
-41.080189 -10.488808 151.55627 7564385
-42.20084 -10.496927 151.35419 8222316
-43.135777 -10.504114 151.18549 8353903
-43.864857 -10.70059 150.9834 9144190
-39.399097 -9.2964334 152.29495 8222573
-40.152176 -9.5843296 152.05493 8222572
-41.172291 -9.5362072 151.89145 6840663
-42.231083 -9.6525068 151.66051 5721927
-43.006435 -9.9309378 151.41995 8090475
-38.34734 -8.5262165 152.7661 10064011
-39.391499 -8.5698156 152.56451 8683124
-40.327633 -8.574894 152.39632 9998984
-41.185993 -8.6182013 152.22787 7367263
-36.754185 -7.3431125 153.48573 7827046
-37.554672 -7.4742961 153.29514 8156011
-38.397747 -7.6540084 153.07906 9340798
-39.480015 -7.6110153 152.90265 9012089
-40.331486 -7.871603 152.65521 9341054
-35.112667 -6.0537062 154.25331 11708572
-35.659512 -6.2483029 154.08429 12236200
-36.58128 -6.4441075 153.84828 8880246
-37.707455 -6.4481654 153.64671 8090731
-38.602055 -6.5288491 153.45801 8222573
-39.175282 -6.8398871 153.24138 9341054
-34.062862 -5.2798562 154.79292 13024949
-34.864315 -5.4348106 154.53323 12761260
-35.83989 -5.4373026 154.35155 12234658
-36.735703 -5.5174375 154.16287 8485232
-37.535847 -5.5458498 154.01024 7827815
-32.119606 -4.1157794 155.74951 5919050
-33.076599 -4.3931713 155.38934 7300703
-33.939461 -4.5039496 155.11679 10525587
-34.865471 -4.5041585 154.88022 12563624
-35.941723 -4.5551782 154.65903 12037280
-36.901669 -4.8978381 154.36206 9472125
-30.507128 -3.3359587 156.4735 5393730
-31.242807 -3.4334316 156.24001 5590600
-32.04903 -3.5698938 155.97305 6642516
-33.08984 -3.5307455 155.70909 6050636
-34.130222 -3.4917765 155.44518 7235165
-34.935772 -3.6286533 155.18771 10130311
