# .PCD v0.7 - Point Cloud Data file format
VERSION 0.7
FIELDS x y z rgb
SIZE 4 4 4 4
TYPE F F F U
COUNT 1 1 1 1
WIDTH 1182
HEIGHT 1
VIEWPOINT 0 0 0 1 0 0 0
POINTS 1182
DATA ascii
-72.122551 -52.442471 -139.38057 9011831
-71.142014 -52.336037 -139.53287 7630178
-70.162918 -52.229988 -139.67908 7432799
-68.989624 -52.103184 -139.84711 9537918
-68.01339 -51.997955 -139.98116 10524555
-67.038696 -51.893127 -140.10909 10853777
-66.065315 -51.788616 -140.23178 8090987
-65.093513 -51.684544 -140.34845 8090987
-64.123116 -51.580799 -140.45992 8090987
-60.902145 -51.287376 -139.58566 7565675
-60.137703 -51.206249 -139.65959 7565675
-59.183624 -51.105133 -139.74699 9736326
-58.040737 -50.984318 -139.84496 8419440
-57.090061 -50.884075 -139.92091 8485232
-56.141239 -50.784267 -139.99121 7892840
-55.004696 -50.664921 -140.0688 8221548
-54.059467 -50.565895 -140.12793 8616049
-53.116055 -50.467297 -140.18135 10788497
-51.986202 -50.349476 -140.23891 9210491
-51.046524 -50.25172 -140.28131 9340027
-50.108803 -50.154366 -140.3183 8879477
-48.985874 -50.038044 -140.35614 8484464
-48.052162 -49.941547 -140.38228 10655630
-47.124607 -49.849995 -140.41574 13419191
-46.019455 -49.746517 -140.46613 13024949
-45.098667 -49.659039 -140.49825 9800830
-44.175289 -49.567196 -140.51149 9669761
-43.060638 -49.447422 -140.49251 7960175
-42.133678 -49.347477 -140.46979 8288624
-41.208782 -49.24773 -140.4413 8090987
-40.10157 -49.1283 -140.4001 9011831
-38.997448 -49.009193 -140.35098 8879992
-38.079567 -48.910149 -140.30435 7038307
-37.164066 -48.811359 -140.25214 11511450
-36.068226 -48.693069 -140.18251 9406848
-32.917709 -48.356529 -141.16306 9537409
-32.007137 -48.258175 -141.07614 10459023
-31.098772 -48.160034 -140.98444 7960176
-30.193085 -48.062145 -140.88725 7761767
-29.109379 -47.94503 -140.76418 8813680
-28.029316 -47.828289 -140.63385 8287596
-26.952892 -47.711895 -140.4964 8748917
-26.058636 -47.615143 -140.37654 9010544
-24.140188 -47.411198 -141.30406 10129281
-23.246704 -47.314537 -141.16364 9866115
-22.17802 -47.198875 -140.98901 8748661
-21.113216 -47.083618 -140.80746 9537665
-20.052498 -46.968781 -140.61913 9340541
-17.929153 -46.742298 -141.41551 9800579
-17.047691 -46.646851 -141.23718 9274237
-15.993733 -46.532612 -141.01729 8682100
-15.118558 -46.437729 -140.82925 9340030
-14.420598 -46.362083 -140.67542 8616307
-12.974702 -46.208908 -141.54149 8222576
-12.102441 -46.114319 -141.33311 7762027
-11.233571 -46.020027 -141.12 8682867
-10.194795 -45.907349 -140.85872 7169892
-8.8982849 -45.770164 -141.72189 8287598
-8.206336 -45.695068 -141.5349 9011577
-7.3439517 -45.601517 -141.29778 9735812
-6.828073 -45.545464 -141.15343 9735812
-6.1423464 -45.471031 -140.95834 9144190
-4.82269 -45.331253 -141.77921 16777215
-4.1372328 -45.256802 -141.57231 10591121
-3.1126955 -45.14547 -141.25745 9867398
-2.2625175 -45.053085 -140.99069 11446173
-0.92175126 -44.910877 -141.7708 8682867
-0.073261052 -44.818657 -141.48854 9472384
0.94058728 -44.708401 -141.1447 9341054
2.3000882 -44.564144 -141.89345 9537659
2.9744189 -44.490799 -141.65184 9208693
3.9818752 -44.381119 -141.28517 9537659
5.0048018 -44.269444 -141.51427 9143160
6.0275264 -44.151691 -141.71468 9735812
7.0275984 -44.041092 -141.32024 7168861
8.7528687 -43.850945 -141.85509 8418928
9.7470922 -43.740997 -141.4404 8749692
11.155368 -43.585934 -142.08717 14077894
11.485912 -43.549324 -141.94325 14077894
11.980451 -43.494652 -141.72649 15197142
12.637859 -43.421921 -141.43556 12104359
14.060977 -43.265141 -142.05421 9077626
14.879779 -43.174603 -141.67633 8090986
15.924823 -43.059311 -141.82397 7827817
16.969769 -42.944065 -141.96237 8617334
17.782143 -42.854206 -141.56767 6709597
19.071682 -42.712234 -142.2206 6510930
19.880589 -42.622715 -141.81183 6906462
20.686247 -42.533581 -141.40053 8814715
21.829754 -42.407719 -142.11305 8420464
22.632792 -42.318893 -141.68864 8420464
24.111582 -42.155926 -142.2169 10261388
24.910137 -42.067547 -141.77812 8682871
26.083471 -41.938343 -142.46713 8090995
26.882891 -41.856369 -142.0358 9603969
27.68257 -41.779968 -141.61989 10262156
28.883789 -41.666824 -142.3497 8683640
29.667482 -41.57111 -141.85378 8288883
31.19206 -41.411385 -142.34749 10064775
31.814875 -41.335041 -141.93924 9471871
33.197273 -41.192661 -142.51895 9340539
33.816814 -41.116543 -142.09978 8485488
35.367634 -40.953251 -142.55847 9340539
35.983158 -40.877354 -142.12807 9340545
37.852688 -40.674541 -142.34715 8683642
38.463032 -40.59893 -141.9052 9868171
39.42952 -40.507771 -142.77249 9868171
40.038052 -40.432255 -142.32074 11709860
40.644012 -40.357006 -141.86777 11709860
41.929707 -40.226154 -142.49554 10788241
42.532757 -40.151024 -142.03238 14076861
43.832859 -40.018444 -142.65077 8813942
44.582199 -39.924755 -142.05878 9143163
46.046207 -39.771614 -142.54453 12893876
46.641396 -39.696934 -142.0603 14078925
47.970631 -39.560711 -142.65503 14078668
48.562473 -39.486225 -142.16066 15196118
49.906364 -39.348206 -142.74568 13749445
50.494797 -39.273972 -142.24113 13749445
51.853352 -39.13409 -142.81616 12630448
52.438168 -39.059982 -142.30148 7565675
53.81147 -38.918362 -142.86668 11379095
54.392696 -38.844551 -142.34184 8089963
55.925133 -38.682667 -142.76323 9142906
57.473583 -38.518955 -143.1794 8092019
58.048149 -38.445419 -142.63463 7038557
59.894924 -38.243347 -142.75803 9406339
61.755077 -38.03952 -142.86609 9932681
63.853828 -37.866272 -143.00595 12037794
64.414375 -37.793003 -142.42755 11905951
66.123291 -37.68082 -143.00957 8682867
66.540016 -37.625687 -142.5661 10261641
68.131432 -37.529835 -143.28708 8090987
68.407471 -37.492874 -142.98541 8090987
68.682724 -37.45602 -142.6833 13550517
70.29583 -37.357925 -143.39539 8682867
70.706017 -37.302479 -142.93311 8682867
72.748642 -37.1465 -143.16731 9143417
74.945168 -36.969643 -143.22546 11117465
77.026268 -36.808952 -143.42514 7564643
77.424446 -36.753036 -142.93413 8288109
79.12719 -36.645771 -143.60869 6510930
79.521683 -36.589848 -143.10831 7827302
81.378685 -36.461605 -143.60626 6510930
81.76889 -36.405476 -143.09627 7300958
83.904945 -36.237324 -143.23463 7629411
86.061829 -36.066761 -143.35651 8814715
88.112999 -35.912537 -143.64134 12959925
88.490532 -35.856075 -143.10251 13552573
90.312599 -35.737011 -143.73283 10262670
90.685799 -35.680397 -143.1844 9670278
92.656219 -35.540009 -143.62132 9538434
95.018555 -35.340382 -143.48619 6510930
96.918884 -35.213989 -144.09732 9339766
-102.13539 -55.196354 -140.3017 10196367
-101.32401 -55.121296 -140.60361 13551549
-99.652672 -55.046261 -139.71005 9144187
-99.049995 -54.990749 -139.92979 8617330
-98.045403 -54.898472 -140.29109 7037274
-97.040588 -54.806499 -140.64655 8484976
-95.025558 -54.69931 -139.88776 10855060
-94.030365 -54.608738 -140.22832 7564651
-93.035095 -54.518539 -140.56322 7565159
-92.437927 -54.464596 -140.76126 10460303
-90.085129 -54.325054 -140.11 7236702
-89.057434 -54.211349 -140.35934 7762533
-88.222572 -54.112572 -140.53328 7630696
-87.180328 -53.989552 -140.74467 9011581
-86.139359 -53.866886 -140.95024 11511196
-83.109955 -53.572483 -140.14037 7564389
-82.084465 -53.452381 -140.32707 7827046
-81.060516 -53.332706 -140.50725 10063751
-80.03801 -53.213509 -140.68172 7828332
-79.017105 -53.094696 -140.84975 8288112
-77.998802 -52.977062 -141.01398 9866371
-77.192383 -52.888073 -141.15395 7827049
-74.134811 -52.608543 -140.34837 9341059
-73.142746 -52.500633 -140.5074 10590868
-72.152046 -52.393093 -140.66098 7564651
-71.162666 -52.286015 -140.80826 7367269
-70.174667 -52.179214 -140.95016 8551023
-69.188126 -52.072872 -141.08592 8222316
-68.202972 -51.966816 -141.21632 11511449
-67.219337 -51.86121 -141.34071 10590606
-66.433426 -51.777008 -141.43652 8090987
-63.1544 -51.477501 -140.56551 7893867
-61.993893 -51.353977 -140.6851 8223348
-61.028469 -51.251495 -140.77888 7565675
-60.064785 -51.149433 -140.86691 8289140
-59.102657 -51.047672 -140.94986 12959663
-58.142262 -50.9464 -141.02696 9143161
-57.183506 -50.845432 -141.0992 8485232
-56.22649 -50.744953 -141.1656 9274493
-55.462036 -50.664745 -141.21539 9734788
-54.889492 -50.604809 -141.25021 8287342
-54.127121 -50.525108 -141.29376 9274236
-53.175816 -50.425915 -141.34331 10129545
-52.03656 -50.307304 -141.39615 8946039
-51.089104 -50.208878 -141.43462 9340027
-50.144749 -50.111954 -141.47046 10984848
-49.022678 -50.005005 -141.53207 9997701
-48.090816 -49.917858 -141.58247 8681843
-47.16058 -49.830967 -141.62715 9142650
-46.045532 -49.726337 -141.67197 9143418
-45.116524 -49.638031 -141.69963 10130057
-44.189285 -49.549911 -141.7213 9537918
-43.078606 -49.444427 -141.74057 8354418
-42.151592 -49.353161 -141.74033 8288624
-41.218288 -49.252514 -141.70667 9011831
-40.101109 -49.131992 -141.65933 10458505
-39.172436 -49.031803 -141.61398 9405819
-38.246075 -48.931839 -141.56293 7432804
-37.137295 -48.812134 -141.49477 8616819
-36.031811 -48.692825 -141.41895 8223089
-35.296574 -48.613483 -141.36441 7039331
-34.929497 -48.573776 -141.33572 10261132
-34.196735 -48.494694 -141.27565 9274237
-33.465183 -48.415646 -141.21277 9537409
-30.835138 -48.13522 -142.18893 8089963
-30.104612 -48.056206 -142.10634 8682610
-29.011763 -47.938114 -141.97656 8484716
-28.10376 -47.839951 -141.86314 8222060
-27.19857 -47.74202 -141.74431 8748917
-26.295795 -47.644417 -141.6208 8354159
-25.755484 -47.585979 -141.54439 8814198
-25.036623 -47.508224 -141.43929 9735044
-22.918894 -47.282623 -142.32675 8616815
-22.021469 -47.185513 -142.17488 8419696
-21.126564 -47.088631 -142.01837 9471871
-20.234808 -46.992077 -141.85686 9866630
-19.168264 -46.876553 -141.65695 9208955
-18.4594 -46.799763 -141.52031 9405560
-17.025658 -46.648033 -142.44331 9405560
-16.493547 -46.590351 -142.33122 10063235
-15.962697 -46.532822 -142.2173 9340030
-15.080298 -46.437172 -142.02386 8287342
-14.025342 -46.322811 -141.7859 7695720
-12.038245 -46.110886 -142.52782 8682869
-10.987042 -45.996895 -142.26541 9208443
-10.114512 -45.902195 -142.04204 7827818
-9.4187756 -45.826721 -141.86006 8551283
-7.9345384 -45.669228 -142.67587 9735812
-7.4129806 -45.612564 -142.53015 9011577
-6.892489 -45.556107 -142.38298 9735812
-6.2006774 -45.480919 -142.18416 9735812
-5.3384624 -45.387318 -141.93227 13223617
-4.0054097 -45.246075 -142.75331 9209467
-3.1445076 -45.152508 -142.48553 9867398
-2.1158092 -45.040718 -142.15901 9603969
-1.4326444 -44.966454 -141.93831 8682867
-0.078475744 -44.82288 -142.7184 8880247
0.94424129 -44.711613 -142.36853 9735812
1.792732 -44.619331 -142.07277 9341054
3.1657093 -44.473644 -142.82118 9537410
4.0120788 -44.381496 -142.50993 11051414
4.85501 -44.289753 -142.19511 8814454
6.0754681 -44.147041 -142.93597 7366752
6.7482615 -44.072628 -142.66907 7234910
7.7532892 -43.961502 -142.26469 7695204
8.991888 -43.825123 -143.00826 10260873
9.8269205 -43.73283 -142.65662 8814713
10.658326 -43.640854 -142.30173 12038826
11.913541 -43.502659 -143.02066 12104359
12.907899 -43.392696 -142.57741 12104359
13.955989 -43.277103 -142.74171 8617331
15.004219 -43.161499 -142.89667 8419952
15.826072 -43.070564 -142.50972 6972762
17.112898 -42.928833 -143.18797 5920082
17.768181 -42.856403 -142.86743 8617334
18.584099 -42.76614 -142.4641 7761256
19.886101 -42.622753 -143.11935 9405566
20.53684 -42.550739 -142.78612 9405566
21.022902 -42.496983 -142.53467 7564643
22.177719 -42.369881 -143.25729 10263180
22.986301 -42.280407 -142.82576 9538689
23.630444 -42.209183 -142.47858 12433069
24.80093 -42.080311 -143.18324 9998216
25.603815 -41.99147 -142.73654 8090995
27.127216 -41.853149 -143.3425 9341060
27.933037 -41.775703 -142.91864 10459278
29.779593 -41.584278 -143.25974 9538691
30.566181 -41.488033 -142.7541 11841184
31.948414 -41.345974 -143.35197 9801603
32.730396 -41.249989 -142.83211 10261132
33.970901 -41.125275 -143.52055 9340539
34.748554 -41.029556 -142.98688 9340539
36.159233 -40.883789 -143.55496 7038307
36.931847 -40.788368 -143.00739 7038307
38.202469 -40.659843 -143.67125 8682867
38.817265 -40.583687 -143.22243 9276035
40.866974 -40.358406 -143.30287 8880761
42.31982 -40.207218 -143.8287 11380377
42.927265 -40.131477 -143.35854 13880253
44.846657 -39.921871 -143.50935 12433069
45.448315 -39.846561 -143.02774 12433069
46.777615 -39.710625 -143.64035 13157048
47.376045 -39.635464 -143.14842 13157048
48.571156 -39.516476 -143.87694 14604238
49.166698 -39.441437 -143.37483 14472653
50.970226 -39.245811 -143.5863 14537677
52.933846 -39.029774 -143.6521 11709858
54.908859 -38.812092 -143.69765 8089963
56.89505 -38.592793 -143.72296 9275777
58.892597 -38.371918 -143.72792 9077627
60.328094 -38.223003 -144.2756 10064011
60.901272 -38.149376 -143.71237 9275009
63.006565 -37.97665 -143.87155 9932681
65.002357 -37.828484 -144.18912 9472639
65.564697 -37.754524 -143.59987 8682867
67.297295 -37.640915 -144.19086 9867139
67.715302 -37.585274 -143.73929 8946295
69.745171 -37.432159 -144.01085 9340539
71.931862 -37.258011 -144.11003 9998468
74.000511 -37.100094 -144.34756 9735297
74.407059 -37.044128 -143.86702 8090987
76.089088 -36.939838 -144.56931 10262929
76.492142 -36.88361 -144.07918 8684155
78.597191 -36.720787 -144.27545 7695716
80.854355 -36.536686 -144.28578 6510930
82.999405 -36.368927 -144.44653 7565675
83.389244 -36.312378 -143.92735 8287341
85.164955 -36.198608 -144.59077 8287341
85.550766 -36.14196 -144.06197 7038307
87.606255 -35.987991 -144.35953 12433069
89.810905 -35.812668 -144.4639 11183513
92.037453 -35.634712 -144.55141 9735812
94.162247 -35.473309 -144.811 9734788
94.531075 -35.416225 -144.24326 8419440
96.555374 -35.271084 -144.67488 7562586
-103.23003 -55.21674 -141.43375 7564651
-100.91829 -55.083881 -140.75294 9538438
-100.10666 -55.009109 -141.04822 7037274
-99.091995 -54.91589 -141.41228 8090730
-98.483162 -54.860157 -141.62766 11380380
-96.035728 -54.714794 -140.99547 7958633
-95.030762 -54.623421 -141.33853 9208187
-94.226768 -54.550564 -141.60846 7761515
-93.623734 -54.496113 -141.80833 7038307
-91.840706 -54.410702 -140.95679 10460303
-91.044434 -54.339077 -141.21436 7565667
-90.049171 -54.249786 -141.53059 8617073
-89.026077 -54.144146 -141.79742 9077880
-88.393745 -54.069515 -141.92476 7564651
-85.099899 -53.744709 -141.14909 8748409
-84.061775 -53.622971 -141.34212 7038302
-83.23243 -53.525917 -141.49184 6511954
-82.197151 -53.404919 -141.67328 9340286
-81.16333 -53.284409 -141.849 7827813
-80.131226 -53.16436 -142.01814 8617328
-76.187248 -52.778301 -141.32607 7169891
-75.383942 -52.690731 -141.45995 7564392
-74.982758 -52.64711 -141.52528 6511962
-74.18087 -52.559925 -141.65285 7564651
-73.179634 -52.451244 -141.80756 7564651
-72.179924 -52.343018 -141.95596 8814971
-71.181519 -52.235142 -142.09898 8157043
-70.184708 -52.127659 -142.23576 8354164
-69.388206 -52.041985 -142.34142 9734788
-65.844749 -51.714005 -141.50571 8090987
-65.256531 -51.651096 -141.57307 9340539
-64.864761 -51.609257 -141.61668 9340539
-64.082016 -51.525837 -141.70122 8090987
-63.104847 -51.421818 -141.80226 7565675
-62.129402 -51.318249 -141.89748 10459791
-61.155495 -51.215038 -141.98752 10130568
-60.183388 -51.112274 -142.0717 8024682
-59.212856 -51.009827 -142.15074 11248790
-58.244221 -50.907841 -142.22404 8222060
-57.083996 -50.785973 -142.30518 7761253
-56.119099 -50.684784 -142.36696 7563619
-55.15609 -50.584114 -142.42305 8024170
-54.194767 -50.483784 -142.47426 6775127
-53.235455 -50.383873 -142.51991 7695973
-52.092033 -50.269604 -142.58232 7958633
-51.147472 -50.181034 -142.64651 11379095
-50.204411 -50.092697 -142.70483 11905438
-49.074532 -49.987011 -142.76775 9076596
-48.13451 -49.899174 -142.81421 8681843
-47.196091 -49.811562 -142.85492 8682355
-46.258469 -49.723534 -142.88864 8682867
-44.011658 -49.510094 -142.93768 9537918
-43.0784 -49.421555 -142.94885 10984849
-42.146801 -49.333344 -142.95511 14077885
-41.216946 -49.245365 -142.95573 12169122
-40.099426 -49.135281 -142.93568 9406076
-39.162647 -49.034504 -142.88605 7958890
-38.227982 -48.933659 -142.82968 7958890
-37.109322 -48.812866 -142.75514 7367007
-36.179569 -48.712486 -142.68733 6510930
-35.437584 -48.63242 -142.62903 9274748
-34.881992 -48.572399 -142.58321 10261132
-34.142807 -48.492565 -142.51872 9274237
-33.036724 -48.373055 -142.41621 9997960
-32.117573 -48.273781 -142.32518 10985367
-31.384132 -48.194546 -142.24852 8089963
-29.095181 -47.950806 -143.22945 8682867
-28.179214 -47.851746 -143.1109 9866886
-27.08334 -47.733253 -142.9623 9143675
-26.173058 -47.63475 -142.83316 8090987
-25.265621 -47.53661 -142.69872 9011577
-24.180227 -47.419136 -142.53104 9735044
-23.458637 -47.34103 -142.41562 9208435
-21.861685 -47.171902 -143.37721 10261123
-21.140038 -47.0937 -143.24728 9340539
-20.06072 -46.976856 -143.04712 9208955
-19.164434 -46.879784 -142.87527 9406076
-18.271307 -46.783009 -142.69833 9866113
-17.558733 -46.705811 -142.55385 9405560
-16.109337 -46.552357 -143.47449 8813939
-15.218843 -46.455803 -143.27667 8879477
-14.154132 -46.340393 -143.03354 8617077
-13.093943 -46.225437 -142.78391 7498856
-11.088988 -46.011574 -143.51706 9208443
-10.03292 -45.896992 -143.24283 9340798
-9.1562691 -45.80183 -143.00963 9736836
-8.4574089 -45.725937 -142.81987 9735812
-7.307919 -45.604847 -143.73248 9735812
-6.9580445 -45.566772 -143.63231 9735812
-6.2599463 -45.491005 -143.42964 9735812
-5.2165775 -45.377666 -143.12091 12762550
-4.5235062 -45.302402 -142.91199 14209480
-3.1768272 -45.159695 -143.73341 9209467
-2.1390271 -45.046925 -143.40086 8288113
-1.1062324 -44.93462 -143.06253 9143418
0.26083538 -44.789677 -143.85017 8288366
0.94789243 -44.714912 -143.61192 8025194
1.9744732 -44.603222 -143.25026 9406591
2.6561267 -44.529087 -143.00613 8813944
3.8723719 -44.400433 -143.81796 8813944
4.7231274 -44.307819 -143.49834 9537664
5.5695043 -44.207024 -143.1474 8814454
6.8025441 -44.067257 -143.90521 9406079
7.8161545 -43.955147 -143.49422 7037274
8.489068 -43.880753 -143.2175 7037274
9.9079857 -43.724491 -143.89214 9668734
10.91356 -43.613293 -143.45891 8223090
12.682167 -43.418316 -143.96236 9011576
13.68112 -43.307838 -143.50891 8485745
15.130823 -43.148132 -144.13661 9011577
15.793904 -43.074802 -143.82231 9208700
16.619463 -42.983482 -143.4269 7432805
17.91885 -42.840382 -144.10762 9274236
18.905426 -42.731262 -143.61577 10326668
20.055794 -42.604679 -144.36461 7958120
20.384102 -42.568333 -144.19563 7958120
20.875227 -42.514011 -143.94118 10262156
21.5278 -42.441772 -143.60023 9341057
22.857246 -42.295383 -144.24341 7564648
23.832123 -42.187492 -143.7155 8089963
25.014339 -42.057358 -144.43251 9537665
25.828533 -41.976624 -144.00899 8090995
26.641548 -41.899357 -143.59372 8090995
28.026781 -41.788235 -144.33052 9407363
28.829615 -41.700333 -143.86308 9735814
30.053005 -41.578152 -144.58914 10854036
30.370914 -41.539276 -144.38403 14604230
31.004019 -41.46175 -143.97244 9801603
32.873695 -41.260193 -144.26305 9406334
33.501995 -41.182953 -143.83949 9537664
34.912739 -41.037598 -144.42599 10064005
35.537594 -40.960518 -143.99132 9537667
37.118294 -40.794029 -144.45264 7038307
37.738899 -40.717285 -144.00664 7827819
39.023369 -40.587353 -144.67691 10130313
39.487141 -40.529808 -144.33475 10854036
39.948929 -40.4725 -143.99158 8092019
41.094738 -40.35984 -144.76482 9209467
41.708614 -40.283363 -144.29735 10656655
43.786175 -40.054455 -144.34923 11708316
45.268269 -39.899864 -144.86522 11708316
45.874332 -39.823933 -144.37607 13749697
47.821899 -39.610794 -144.50272 13946564
49.781143 -39.395969 -144.60918 13552065
50.377621 -39.320625 -144.0984 13026237
51.75201 -39.179482 -144.69554 13156536
52.344948 -39.104427 -144.17451 13156536
53.881725 -38.942654 -144.62886 9866114
55.874767 -38.722954 -144.67207 9735043
57.588249 -38.538822 -144.97093 9472899
58.170208 -38.46439 -144.41901 9012606
59.750805 -38.297119 -144.83792 10655629
61.863995 -38.124611 -145.02132 9275520
62.437469 -38.050449 -144.4472 10853012
64.151726 -37.939854 -145.07074 11052183
64.578125 -37.884071 -144.63031 8682867
66.172035 -37.789864 -145.39206 10262411
66.736282 -37.715275 -144.79196 10524302
68.91246 -37.543964 -144.93222 8485488
70.968102 -37.388912 -145.20744 8682867
71.382851 -37.332752 -144.73749 10590347
73.043869 -37.231522 -145.46713 8092019
73.455246 -37.175102 -144.98763 8091503
75.276108 -37.052792 -145.54817 10262929
75.68354 -36.996265 -145.0589 12696498
77.795303 -36.833744 -145.27428 9340797
79.927986 -36.668819 -145.47374 9931907
80.326721 -36.612076 -144.96483 8287341
82.081291 -36.501377 -145.65697 8287341
82.344917 -36.46347 -145.31122 8287341
82.607536 -36.425571 -144.96553 9538691
84.646477 -36.274456 -145.29556 8420211
86.966736 -36.082851 -145.25676 10591124
89.178604 -35.907711 -145.37753 8090987
91.159973 -35.768284 -145.85323 5393730
91.537483 -35.710899 -145.29533 6709594
93.667084 -35.549702 -145.56805 9734788
95.944283 -35.366737 -145.63768 6841179
98.123177 -35.200363 -145.88583 5393730
-104.34299 -55.237499 -142.58424 7563619
-102.20549 -55.122112 -141.81239 9538438
-101.18076 -55.027744 -142.18512 7564643
-100.36089 -54.952496 -142.4785 8288110
-97.874222 -54.80452 -141.84056 10656401
-97.06237 -54.730564 -142.12109 7037274
-96.250427 -54.656803 -142.39755 7760998
-95.438545 -54.583187 -142.67017 11378324
-93.020706 -54.441662 -142.00595 7236445
-92.216682 -54.369339 -142.26604 9406846
-91.211761 -54.279221 -142.58537 8156780
-90.407814 -54.207306 -142.83707 9143417
-87.972458 -54.019886 -142.00821 7564651
-87.130714 -53.920872 -142.17181 10458767
-86.079758 -53.797375 -142.3712 10261388
-85.240074 -53.698959 -142.52609 8419702
-84.191963 -53.576366 -142.7137 9735041
-83.145302 -53.45414 -142.89552 6511954
-82.309135 -53.35667 -143.03636 10261639
-79.100571 -53.044682 -142.18158 9735039
-78.07782 -52.929657 -142.34967 10919055
-77.062088 -52.818798 -142.52232 8090479
-76.250481 -52.730396 -142.65593 7564392
-75.642387 -52.664204 -142.75372 6511962
-75.03479 -52.598259 -142.84914 7564651
-74.225426 -52.510498 -142.97321 8419959
-73.215134 -52.401112 -143.12283 8551544
-72.206177 -52.292068 -143.2668 9407363
-68.99041 -51.999146 -142.39278 7894126
-68.195473 -51.913902 -142.49231 9340028
-67.203087 -51.807571 -142.61214 10062979
-66.21241 -51.701698 -142.726 10195591
-65.223213 -51.596111 -142.8345 10590347
-64.235748 -51.491032 -142.937 9735296
-63.052967 -51.365414 -143.05286 9012605
-62.069084 -51.261154 -143.14345 7565675
-61.08704 -51.157322 -143.22813 8024682
-60.106613 -51.053879 -143.30769 5919050
-59.128094 -50.950863 -143.38135 6643290
-58.151253 -50.848232 -143.45 8353651
-57.176285 -50.746017 -143.51282 8813945
-56.397533 -50.664494 -143.55962 8090736
-56.008583 -50.623825 -143.58165 8090736
-55.232723 -50.543602 -143.62505 8287342
-54.272152 -50.450775 -143.69551 5920074
-45.695782 -49.669991 -142.9039 8682867
-45.321129 -49.634426 -142.9129 10130057
-44.946667 -49.598858 -142.92111 10984849
-44.572479 -49.56329 -142.92839 10984849
-37.080017 -48.813519 -144.03358 9210491
-36.141991 -48.7122 -143.96028 8288621
-35.39341 -48.631371 -143.89761 8090736
-34.832893 -48.570839 -143.84853 8090736
-34.087242 -48.490292 -143.77959 9537666
-33.157051 -48.38979 -143.68922 9142907
-32.229637 -48.289585 -143.59338 9537665
-31.119995 -48.169712 -143.47163 8024682
-30.197973 -48.070042 -143.36465 6511954
-29.646023 -48.010391 -143.2981 6511954
-27.70188 -47.803871 -144.30215 8814457
-27.149519 -47.744114 -144.224 9734788
-26.231173 -47.644745 -144.08969 9603202
-25.132744 -47.52589 -143.9221 9997960
-24.038353 -47.407497 -143.74739 9735041
-23.129322 -47.309101 -143.59657 10787467
-22.404366 -47.230614 -143.47231 10261123
-20.245567 -47.000511 -144.32379 9340798
-19.160412 -46.88298 -144.11174 10655633
-18.079611 -46.765881 -143.89294 9405560
-17.182163 -46.668629 -143.70561 9010801
-16.645145 -46.610439 -143.591 8813939
-15.180142 -46.455311 -144.50912 9405819
-14.28511 -46.358265 -144.30145 10589582
-13.215167 -46.242222 -144.04642 8287859
-12.149781 -46.126682 -143.78491 8682869
-10.126824 -45.910851 -144.50914 11775396
-9.0658216 -45.795681 -144.22302 9736836
-8.185235 -45.7001 -143.9799 9736836
-7.6584773 -45.642834 -143.83197 9736836
-6.1442881 -45.482094 -144.64339 9735042
-5.2674303 -45.38686 -144.38066 9538433
-4.2196279 -45.27306 -144.06 9209467
-2.1625936 -45.053188 -144.66284 9538434
-1.1206262 -44.939899 -144.3183 9143678
-0.25616339 -44.845921 -144.02689 7564643
1.1247876 -44.699425 -144.81459 9341054
1.8151877 -44.624317 -144.56923 9998472
2.331485 -44.568157 -144.38358 10261132
2.8464162 -44.512104 -144.19643 8090478
3.7170999 -44.41927 -144.5135 7893098
4.7602768 -44.307571 -144.75845 9208443
5.7839656 -44.184357 -144.3255 8484720
7.1992755 -44.024025 -145.02272 6511954
7.8800459 -43.948715 -144.74342 7366239
8.8968267 -43.836311 -144.32031 8089960
9.9906054 -43.716042 -145.14766 11904668
10.667113 -43.641186 -144.85461 10786701
11.341571 -43.566635 -144.55957 8682867
11.845443 -43.510838 -144.33673 8814453
13.125575 -43.369938 -145.06615 8682867
13.79638 -43.295738 -144.75832 9734788
14.631647 -43.203339 -144.37077 9340286
15.928012 -43.060623 -145.07722 7695716
16.926376 -42.950203 -144.5948 8550513
18.735792 -42.750656 -145.03537 7959149
19.562061 -42.659241 -144.61714 7958120
21.054335 -42.494835 -145.20007 10262156
21.876297 -42.403938 -144.76701 8748921
23.710293 -42.201687 -145.15157 7499625
24.526602 -42.111343 -144.70308 8089963
26.065857 -41.97485 -145.34941 9341060
26.885576 -41.896877 -144.92726 15723486
27.538744 -41.834648 -144.58723 10065035
28.934475 -41.71489 -145.3035 10065035
29.574722 -41.636677 -144.89597 11380380
31.130878 -41.474056 -145.41997 9998727
31.925865 -41.376553 -144.89561 9209467
33.178654 -41.251057 -145.61334 11380380
33.811749 -41.173138 -145.1828 10722450
34.4422 -41.095482 -144.75111 9537664
35.7103 -40.967949 -145.45047 9998472
36.494576 -40.871117 -144.89716 8287859
37.934296 -40.722313 -145.47214 9143418
38.558006 -40.645004 -145.01845 9406590
39.856777 -40.513664 -145.69524 10130313
40.167484 -40.475056 -145.46318 10854036
40.631905 -40.417343 -145.11435 8814968
42.10059 -40.264866 -145.66112 9209467
42.716286 -40.188042 -145.18515 10853777
44.045841 -40.052826 -145.83908 8089963
44.658447 -39.976223 -145.35262 10458507
46.764271 -39.743664 -145.37563 12367536
48.276276 -39.585602 -145.88145 10262156
48.729958 -39.528461 -145.50052 13156792
49.181854 -39.471519 -145.11891 14604238
50.256096 -39.368633 -145.99382 13156792
50.856819 -39.292694 -145.47528 13156536
52.247665 -39.149925 -146.08606 11708834
52.844746 -39.074245 -145.55705 9999239
54.844471 -38.854156 -145.61839 9537150
56.855846 -38.632351 -145.65941 10524560
58.878857 -38.408901 -145.67982 10984337
60.997337 -38.236244 -145.88036 11314844
63.148823 -38.07056 -146.09596 9932934
63.579948 -38.014423 -145.65694 8814712
65.603401 -37.86483 -145.99098 10788755
67.930176 -37.675156 -146.00432 9734782
68.352844 -37.618793 -145.54536 10261129
70.132462 -37.501785 -146.14565 10590347
70.551559 -37.445274 -145.67683 9340539
72.21405 -37.344765 -146.42464 13023917
72.629959 -37.28804 -145.94608 13023917
74.728691 -37.12846 -146.19968 10262413
76.984337 -36.947392 -146.27161 10261899
79.123924 -36.78281 -146.4904 11643552
79.527176 -36.725765 -145.98232 10656657
81.55069 -36.577614 -146.34787 8419183
83.86158 -36.388779 -146.3519 11511708
86.061111 -36.216515 -146.51215 5393738
86.450974 -36.159138 -145.97433 5393738
88.282196 -36.04163 -146.65588 6446677
88.667877 -35.98415 -146.10806 4802367
90.779716 -35.825817 -146.411 5393730
93.041885 -35.645714 -146.5143 8287853
95.202774 -35.482204 -146.79308 5920074
95.451065 -35.443676 -146.40797 7169629
97.634315 -35.277512 -146.6696 6249298
-103.92895 -55.19928 -142.73747 8617331
-103.10095 -55.122906 -143.04066 8222573
-102.06583 -55.027725 -143.41451 7564643
-101.44463 -54.970734 -143.63559 7564643
-99.745949 -54.896202 -142.69601 9011833
-99.130905 -54.839966 -142.91107 8288110
-98.105927 -54.746613 -143.26433 10458505
-97.08091 -54.653545 -143.61176 9011574
-94.829605 -54.528183 -142.87207 8484979
-94.220619 -54.473225 -143.07156 8946043
-93.205734 -54.381958 -143.39906 9406846
-92.190918 -54.291019 -143.72079 9406846
-90.005913 -54.171463 -142.96132 9143417
-89.194649 -54.095444 -143.1945 11050899
-88.13958 -53.975754 -143.4149 11708316
-87.289391 -53.875935 -143.57483 9866371
-86.228081 -53.751579 -143.76886 8485489
-85.168297 -53.627647 -143.95697 7893096
-81.682724 -53.28381 -143.13954 8617328
-81.056892 -53.211147 -143.24016 10261894
-80.223434 -53.114414 -143.37111 10327431
-79.185234 -52.995327 -143.53278 10458505
-78.157082 -52.882339 -143.70428 7564643
-77.131851 -52.770741 -143.87178 6840926
-76.312569 -52.681736 -144.00191 6511962
-75.90332 -52.637302 -144.0654 6511962
-75.289886 -52.570801 -144.15857 9011321
-74.67701 -52.504391 -144.24997 9011321
-71.19886 -52.183529 -143.40454 8486006
-70.192917 -52.075321 -143.53683 8354163
-69.188721 -51.967514 -143.66295 7894126
-68.18589 -51.860096 -143.78363 8813171
-67.18483 -51.753113 -143.89818 9602685
-66.385086 -51.667782 -143.98622 8681840
-65.985596 -51.625229 -144.02869 8681840
-65.187622 -51.540329 -144.11053 9405306
-64.191536 -51.434486 -144.20837 9076856
-63.197224 -51.329144 -144.30032 8748661
-62.204536 -51.224152 -144.3869 7565675
-61.213818 -51.119583 -144.46762 7169373
-60.224739 -51.015442 -144.54317 6511443
-59.632164 -50.953094 -144.58578 7893358
-53.698414 -50.396904 -143.73981 5920074
-53.125069 -50.343029 -143.78178 9537664
-52.170742 -50.25351 -143.84737 7958633
-51.217674 -50.164272 -143.90767 8879478
-50.266209 -50.075172 -143.96207 10457992
-49.126255 -49.968666 -144.0202 9931902
-48.177921 -49.880169 -144.06276 9931902
-47.231232 -49.791859 -144.09941 8813683
-46.095703 -49.684654 -144.13181 8748147
-45.150539 -49.594879 -144.15089 8354159
-44.207146 -49.505398 -144.16426 8090987
-43.077332 -49.398304 -144.17346 7695973
-42.137741 -49.309372 -144.17542 12893356
-41.200016 -49.220776 -144.17174 7037274
-40.077118 -49.114735 -144.16054 9668992
-39.143276 -49.026676 -144.14555 11905692
-38.208176 -48.934689 -144.11267 9011574
-34.782299 -48.569202 -145.13197 9143166
-34.217812 -48.508259 -145.07727 8616823
-33.279175 -48.406788 -144.98193 9143423
-32.156147 -48.285431 -144.86084 8486006
-31.223015 -48.18457 -144.75429 12696241
-30.292763 -48.083992 -144.64235 9406590
-29.179825 -47.963722 -144.50137 8682867
-28.255247 -47.863678 -144.37843 8354163
-25.919815 -47.614815 -145.30907 8616822
-25.181337 -47.534912 -145.1925 9142909
-24.261013 -47.435326 -145.04225 9340284
-23.160255 -47.316135 -144.85559 11313812
-22.063683 -47.197418 -144.66196 12432037
-21.153032 -47.098801 -144.49547 10327693
-19.70256 -46.945477 -145.4778 7366752
-19.15584 -46.886185 -145.36766 9143422
-18.247093 -46.787762 -145.18031 9340284
-17.160557 -46.669994 -144.94954 8287592
-16.438498 -46.591702 -144.79216 7564643
-15.898503 -46.533203 -144.67186 7564643
-14.237775 -46.356869 -145.54732 8287859
-13.338249 -46.25927 -145.32953 8682616
-12.263072 -46.142647 -145.06248 9078143
-11.192553 -46.026489 -144.789 9208443
-9.8646698 -45.886158 -145.69991 16777207
-9.1515589 -45.808716 -145.5043 10460816
-8.0856876 -45.692989 -145.20604 9736836
-7.2011108 -45.596916 -144.95296 8089963
-6.6720185 -45.539478 -144.79903 8089963
-5.3191066 -45.396217 -145.6609 10457995
-4.261869 -45.281334 -145.33421 15920098
-3.2096968 -45.166977 -145.00148 10459537
-1.8354213 -45.021404 -145.82921 8090992
-1.1353076 -44.945271 -145.59447 8090992
-0.089170247 -44.83149 -145.23787 9142649
0.60550952 -44.755882 -144.9971 11379095
1.8266361 -44.626873 -145.8479 10261644
2.3475559 -44.570156 -145.65904 8813944
2.8670614 -44.513645 -145.46858 8090478
3.5576489 -44.438465 -145.21254 6643547
5.1434751 -44.26963 -145.90598 7037274
5.8304887 -44.181633 -145.59424 7497825
6.6868858 -44.080654 -145.2305 7564642
8.116395 -43.923244 -145.94156 6511954
8.8001146 -43.847683 -145.65483 10260614
9.4812832 -43.772285 -145.36586 10260614
10.927026 -43.613064 -146.05089 9471612
11.436853 -43.556713 -145.8257 8682867
11.945107 -43.500462 -145.59927 8682867
12.620606 -43.425793 -145.29547 8682867
13.913524 -43.283432 -146.02794 10063749
14.92368 -43.171707 -145.55498 8025706
16.736107 -42.971867 -146.02634 6905688
17.738953 -42.860931 -145.53316 7300961
19.06403 -42.715046 -146.22636 8880507
19.89616 -42.622982 -145.80081 10985622
20.559166 -42.54961 -145.45839 10262156
21.734112 -42.420334 -146.21593 8748921
22.725304 -42.310661 -145.68597 7170661
24.08242 -42.163475 -146.34857 9209727
24.911373 -42.084507 -145.93407 8945784
25.572184 -42.021721 -145.60098 8090995
26.969036 -41.91008 -146.37048 9538179
27.79273 -41.831581 -145.93892 10459792
28.449207 -41.769047 -145.59137 10065035
29.6873 -41.650795 -146.35669 9472899
30.491308 -41.55238 -145.8374 10788244
32.062645 -41.388084 -146.36226 8682867
32.701435 -41.309647 -145.93484 8681843
34.127502 -41.163109 -146.55003 11380380
34.762798 -41.084808 -146.11134 10064264
36.677872 -40.877728 -146.37544 9472640
37.30798 -40.79982 -145.92468 8287859
38.919613 -40.629997 -146.38922 9143418
39.545284 -40.552372 -145.927 10130313
41.014645 -40.400017 -146.49034 8420470
41.63636 -40.322689 -146.01701 7565675
42.96529 -40.187843 -146.68694 8353647
43.583935 -40.110558 -146.20293 8089963
45.082596 -39.954521 -146.73997 8089963
45.696922 -39.877541 -146.24492 12631478
47.057091 -39.738914 -146.89371 11907754
47.668125 -39.66206 -146.38805 9868166
49.043835 -39.521465 -147.02734 11709346
49.651337 -39.444897 -146.51106 13617343
51.646641 -39.226032 -146.61378 12169385
53.803173 -38.986511 -146.56151 7958891
55.821381 -38.76429 -146.6208 9208187
57.704094 -38.559235 -146.79932 9273980
58.293518 -38.483837 -146.24008 9209467
59.975803 -38.367153 -146.8788 10064006
60.415218 -38.310917 -146.45149 9209467
61.988304 -38.220806 -147.26288 8682867
62.570122 -38.145588 -146.67989 9932934
64.743736 -37.977631 -146.88719 9735811
66.93573 -37.807198 -147.07315 9340022
67.505623 -37.731613 -146.46286 9734782
69.14653 -37.634167 -147.23755 11379348
69.570496 -37.577347 -146.76991 11379348
71.655777 -37.420635 -147.06172 10524558
73.900772 -37.242466 -147.17566 8618105
76.027046 -37.080772 -147.4332 11314844
76.439117 -37.023476 -146.93568 11314844
78.174339 -36.916668 -147.6748 14604238
78.582787 -36.859165 -147.16748 14604238
80.747566 -36.692394 -147.38333 9603711
82.934341 -36.523037 -147.5831 8617073
83.333481 -36.465366 -147.05569 13550517
85.142647 -36.35112 -147.76643 7169888
85.537796 -36.293335 -147.22905 7169888
87.763847 -36.118702 -147.386 4669753
90.012505 -35.941498 -147.52628 3223593
90.397461 -35.883556 -146.96864 5393730
92.410522 -35.742214 -147.46049 8090986
94.702438 -35.559715 -147.56351 7630952
97.01796 -35.374401 -147.64935 8092019
98.810272 -35.118958 -147.66727 8221548
99.525688 -34.791386 -147.9693 7892584
-105.05648 -55.220039 -143.90758 10063747
-104.21993 -55.142937 -144.21307 10261899
-103.38329 -55.066036 -144.51436 9735555
-101.03053 -54.932903 -143.7818 7564643
-100.20225 -54.857235 -144.0706 9011833
-99.166855 -54.762951 -144.4265 8288108
-98.545654 -54.706593 -144.63692 9011574
-96.26088 -54.579422 -143.88499 8090987
-95.235825 -54.486919 -144.22066 8288109
-94.210938 -54.394806 -144.55055 10064779
-93.596008 -54.33963 -144.74548 8814715
-91.176239 -54.200394 -144.036 8617073
-90.161697 -54.110077 -144.34547 9143417
-89.145607 -54.019135 -144.64571 9866371
-88.091934 -53.905617 -144.87881 8089963
-84.110191 -53.504246 -144.13831 9011579
-83.053673 -53.381237 -144.31378 10984852
-82.209663 -53.283195 -144.44952 12433061
-81.15638 -53.16106 -144.61337 9998724
-80.104675 -53.039352 -144.77145 8354159
-79.271881 -52.947121 -144.90648 10326922
-78.235512 -52.834335 -145.07526 8748406
-74.064667 -52.438179 -144.33887 9735044
-73.249046 -52.350101 -144.45427 10656398
-72.230934 -52.240372 -144.59294 11116692
-71.214317 -52.131027 -144.72614 10064264
-70.199432 -52.022137 -144.85307 9406080
-69.186012 -51.913624 -144.97452 7695976
-68.174438 -51.805504 -145.08981 9207928
-67.164398 -51.697811 -145.19969 7563619
-66.156197 -51.590496 -145.30339 9405306
-65.149628 -51.483624 -145.40189 9734527
-64.546562 -51.419724 -145.45821 7038298
-59.040352 -50.890945 -144.62631 7893358
-58.252239 -50.808365 -144.67741 7893358
-57.273277 -50.709339 -144.74724 7959150
-56.497597 -50.636013 -144.81575 8090736
-55.916824 -50.581341 -144.86504 8090736
-55.143116 -50.508595 -144.92769 10524817
-54.177223 -50.417912 -145.00072 9011838
-53.212696 -50.327427 -145.06836 9011838
-52.249641 -50.237137 -145.13 9274747
-51.095875 -50.129189 -145.19664 10260872
-50.136051 -50.039452 -145.24629 9931902
-49.177795 -49.949974 -145.28992 9471351
-48.221031 -49.860775 -145.32837 8353131
-47.265778 -49.771599 -145.36044 8089963
-46.119946 -49.663212 -145.3868 8550512
-45.1665 -49.572731 -145.40161 9011576
-44.214962 -49.482521 -145.41064 9603457
-43.265045 -49.392582 -145.41464 7564130
-42.317131 -49.302975 -145.41293 7037274
-41.181988 -49.195721 -145.40408 7037274
-40.237965 -49.106644 -145.39102 8024943
-39.296089 -49.017906 -145.37241 9011579
-38.168262 -48.911793 -145.34328 10722452
-37.230446 -48.823612 -145.31349 7894380
-36.29158 -48.731533 -145.26543 8881270
-35.34774 -48.630295 -145.18446 9143166
-32.269115 -48.301502 -146.16867 9209215
-31.327484 -48.199688 -146.05701 10130829
-30.201017 -48.07793 -145.91634 9276035
-29.265209 -47.976727 -145.79366 8682867
-28.332375 -47.875847 -145.66539 7630954
-27.216572 -47.755104 -145.5051 7630954
-26.474785 -47.674885 -145.39449 8616822
-24.116463 -47.423428 -146.29553 9669506
-23.191101 -47.323296 -146.13458 10261385
-22.26899 -47.223438 -145.96829 10590347
-21.166243 -47.104023 -145.76256 9998728
-20.250536 -47.004826 -145.58601 6379601
-18.234116 -46.79007 -146.4502 9143422
-17.320557 -46.69109 -146.25273 9735300
-16.591688 -46.612045 -146.09184 12432037
-16.046581 -46.552986 -145.96884 10063235
-15.14069 -46.454784 -145.76018 8616563
-12.920174 -46.217724 -146.49844 7038307
-12.197753 -46.139297 -146.31516 9538950
-11.297883 -46.041695 -146.08183 9538950
-10.401155 -45.944332 -145.84447 15130582
-8.879385 -45.782959 -146.70616 10459275
-8.1630602 -45.705166 -146.50238 9735811
-7.2704043 -45.608238 -146.24432 11378583
-6.7364421 -45.550194 -146.0873 11378583
-6.2038455 -45.492352 -145.92871 12167842
-4.3048081 -45.289825 -146.62926 15920610
-3.2431273 -45.174423 -146.29024 14604750
-2.3621638 -45.078659 -146.00333 7038307
-0.97371697 -44.931515 -146.83163 8879992
-0.094708234 -44.835865 -146.5285 9734529
0.78098464 -44.740608 -146.22159 13023917
1.3045428 -44.683693 -146.03554 13023917
2.3638628 -44.572285 -146.95535 8616563
2.8880441 -44.515202 -146.76157 7037274
3.7583811 -44.420471 -146.43539 7103582
4.6252136 -44.326111 -146.10568 7366239
5.8778505 -44.179314 -146.88518 7827046
6.9137015 -44.056225 -146.43758 6511954
7.6020746 -43.980141 -146.15512 6511954
8.8734951 -43.840172 -146.93896 6511954
9.7318382 -43.745228 -146.57133 7893352
10.415922 -43.669621 -146.2749 7038298
11.875535 -43.508816 -146.95909 13288371
12.897474 -43.39579 -146.49596 9406078
14.712443 -43.195759 -146.99849 10063749
15.727274 -43.083515 -146.5148 9011321
17.218355 -42.919239 -147.15112 9011064
17.891689 -42.84473 -146.81648 7301220
18.562765 -42.770519 -146.48012 8090992
19.901049 -42.623161 -147.17619 7301473
20.403156 -42.567574 -146.91585 8682867
20.903545 -42.51218 -146.65431 6511954
22.257454 -42.363174 -147.33366 9866630
22.92284 -42.289509 -146.9742 8486262
23.585964 -42.21611 -146.61319 8486262
24.975321 -42.099545 -147.39114 9932678
25.808722 -42.020393 -146.96832 8945527
26.472839 -41.95726 -146.62761 7037274
27.885675 -41.8442 -147.40257 9801606
28.712589 -41.76395 -146.95683 9209984
30.613638 -41.56575 -147.31761 8682867
31.259806 -41.486626 -146.89415 9735555
31.581573 -41.447132 -146.68173 9735555
32.846455 -41.320652 -147.42226 11050641
33.648594 -41.222012 -146.87796 9537664
35.089642 -41.07386 -147.49605 9143675
35.727139 -40.995178 -147.04887 10590864
37.659016 -40.786205 -147.30943 9537409
38.29118 -40.707912 -146.85027 8813686
39.603664 -40.575417 -147.55016 9406335
40.232979 -40.49725 -147.08009 7565675
40.546356 -40.458336 -146.84447 7565675
41.874523 -40.323807 -147.53053 9603716
42.499218 -40.245926 -147.04906 9340801
43.998901 -40.090115 -147.603 10261641
44.619343 -40.012508 -147.11031 9866371
45.97913 -39.87418 -147.77545 11907754
46.596359 -39.796761 -147.27208 11315872
48.12574 -39.637077 -147.79941 10129545
48.585632 -39.57922 -147.41365 9406078
50.129986 -39.417698 -147.92863 10854036
50.739052 -39.340778 -147.4035 14077894
52.146389 -39.196587 -148.03749 14604238
52.751823 -39.119923 -147.50169 12498862
54.175247 -38.97382 -148.12585 7565675
54.776787 -38.897282 -147.57945 8288883
56.813816 -38.672966 -147.63661 10195082
58.794167 -38.517693 -148.0148 11380380
59.239136 -38.461151 -147.58952 11380380
59.5345 -38.423492 -147.3055 11380380
61.107994 -38.334106 -148.1347 9735296
61.549091 -38.277405 -147.69911 9932934
63.875439 -38.091042 -147.78085 10721934
65.929817 -37.940025 -148.13875 9471871
66.362633 -37.883003 -147.68245 10261132
68.577415 -37.710262 -147.85999 10195336
70.811234 -37.534966 -148.01579 8353907
72.923752 -37.376255 -148.31187 9340539
73.344193 -37.318813 -147.8253 9735814
75.057381 -37.215069 -148.59244 9209467
75.474388 -37.157421 -148.09584 9735811
77.763466 -36.974319 -148.18184 9077625
80.071487 -36.788567 -148.24525 8682867
82.398628 -36.600163 -148.286 10261641
84.744987 -36.4091 -148.30374 7104093
86.978889 -36.234844 -148.4807 5985617
89.105446 -36.077404 -148.82695 4340785
89.495697 -36.018955 -148.26958 5327424
91.771996 -35.83934 -148.40645 8748660
94.071716 -35.656982 -148.52646 8091760
95.73558 -35.427105 -148.78078 8683381
96.740486 -35.157127 -148.69482 7236450
97.770256 -34.973297 -148.56183 7039329
98.745865 -34.768307 -148.33832 8221548
98.005737 -34.196411 -149.02539 7169630
98.798111 -33.940369 -148.80507 7892583
99.596558 -33.96854 -148.46088 9405823
99.172554 -33.098206 -148.98459 6510930
99.708038 -32.860352 -148.86119 9142908
99.951721 -32.268375 -148.99532 8814197
100.24146 -31.849024 -149.04277 9209726
100.32961 -31.422089 -149.17496 10983825
-105.99196 -55.221691 -145.17458 8813680
-105.14668 -55.143982 -145.48088 7958888
-102.75578 -55.008488 -144.73776 7564643
-102.12821 -54.951134 -144.95856 7564643
-101.2915 -54.874763 -145.24959 9011833
-100.45471 -54.798626 -145.53635 11906725
-97.92437 -54.650326 -144.845 9011574
-97.096153 -54.575493 -145.1189 10854036
-96.267906 -54.500851 -145.38876 9143675
-95.439766 -54.426453 -145.65456 10854036
-92.981155 -54.284714 -144.93799 8156787
-92.161331 -54.211559 -145.19125 9537918
-91.136848 -54.120457 -145.50215 8551281
-90.112526 -54.029678 -145.80734 8617331
-87.233498 -53.805126 -145.03368 9801091
-86.376114 -53.704941 -145.18439 7893096
-85.733665 -53.629971 -145.29489 7037274
-85.091995 -53.555252 -145.40292 7037790
-84.237343 -53.455803 -145.5435 7038307
-83.170624 -53.331944 -145.71332 9143420
-82.105568 -53.208534 -145.87735 9538174
-81.254898 -53.110126 -146.00395 9538174
-80.617683 -53.036533 -146.09627 9011576
-77.200447 -52.721886 -145.23824 9142909
-76.167023 -52.609863 -145.39478 9011065
-75.135056 -52.498268 -145.54559 8287342
-74.3106 -52.409225 -145.66176 10459023
-73.281563 -52.298332 -145.80139 12563879
-72.253967 -52.187874 -145.93544 12103329
-71.228203 -52.077812 -146.06322 8682616
-70.204002 -51.968155 -146.18546 7630187
-69.181602 -51.858894 -146.30141 8090222
-68.364754 -51.771736 -146.39043 8287342
-63.944149 -51.355927 -145.51224 7630179
-63.141991 -51.271103 -145.58128 8287853
-62.140903 -51.165504 -145.66243 7761769
-61.141556 -51.060268 -145.73837 6511962
-60.145966 -50.956902 -145.81242 9077110
-59.162083 -50.862377 -145.90562 7893358
-58.181774 -50.769981 -145.99782 8288115
-57.202713 -50.677814 -146.08464 8616823
-56.225147 -50.585888 -146.16518 8090736
-55.248825 -50.494144 -146.24034 7564651
-54.274036 -50.402699 -146.30934 9932938
-53.300621 -50.311443 -146.373 8551284
-52.32885 -50.220482 -146.43056 9867139
-51.16457 -50.111626 -146.49232 9867139
-50.196083 -50.021164 -146.53784 9604736
-49.229206 -49.930969 -146.57739 9210491
-48.26387 -49.841007 -146.6116 8353131
-47.299953 -49.750935 -146.63876 9734782
-46.336166 -49.659611 -146.65643 9866367
-45.758709 -49.604839 -146.66405 10853012
-45.181854 -49.550156 -146.66937 9011576
-44.221966 -49.459301 -146.67403 9011576
-43.263844 -49.368622 -146.67361 8747885
-42.307697 -49.278351 -146.66747 8287592
-41.162788 -49.170307 -146.6532 7432545
-40.210743 -49.080536 -146.63562 7038307
-39.260796 -48.991127 -146.61246 8353651
-38.123474 -48.884201 -146.57785 13682621
-37.177834 -48.795399 -146.54346 7565675
-36.234337 -48.706898 -146.5034 7564904
-35.480877 -48.636295 -146.46814 7563619
-34.916805 -48.583485 -146.43924 8616823
-34.160549 -48.505886 -146.37581 7564393
-33.213589 -48.40358 -146.27477 11379356
-30.107056 -48.071648 -147.20901 9868171
-29.351902 -47.989922 -147.10599 8420981
-28.222336 -47.867798 -146.94566 9078394
-27.284157 -47.766262 -146.80666 9274494
-26.34903 -47.665066 -146.66225 9011322
-25.230627 -47.54406 -146.4825 8222321
-22.849598 -47.290123 -147.36542 8617078
-22.291677 -47.229725 -147.26195 11643039
-21.364319 -47.129295 -147.08548 11116952
-20.255436 -47.009151 -146.86755 7366752
-19.151093 -46.889477 -146.64264 8091248
-16.93125 -46.652706 -147.45444 10524555
-16.380451 -46.592945 -147.32948 11182228
-16.014027 -46.553265 -147.24509 8682867
-15.282792 -46.47393 -147.07391 12695210
-14.189595 -46.355389 -146.81207 9142910
-13.463307 -46.276592 -146.63406 7038307
-11.949368 -46.116188 -147.53963 11512481
-11.223466 -46.037403 -147.3481 7565675
-10.319333 -45.939255 -147.10451 8288624
-9.4183064 -45.841446 -146.85684 10459275
-7.8807712 -45.678349 -147.71562 9734782
-7.3407726 -45.619694 -147.55696 8879476
-6.8018403 -45.561142 -147.39684 9734273
-6.2645249 -45.502785 -147.23517 11378583
-5.3716531 -45.405766 -146.96219 12498862
-3.9905021 -45.259544 -147.83144 11709089
-3.2770669 -45.181965 -147.6003 11445916
-2.2109106 -45.066032 -147.2489 11050642
-1.5029385 -44.989082 -147.01158 8090992
-0.10005596 -44.840408 -147.84065 8089963
0.60676312 -44.763477 -147.5907 10260872
1.6627772 -44.648556 -147.21126 8616563
3.7874477 -44.421234 -147.744 6248788
4.8363223 -44.306992 -147.34082 6511704
6.6228323 -44.090412 -147.88206 8222576
7.6648402 -43.973831 -147.44739 6511954
8.3566074 -43.897324 -147.15781 6511954
9.8139544 -43.736835 -147.8703 9011320
10.847671 -43.62254 -147.41724 10196107
12.664866 -43.422215 -147.95134 12037794
13.691653 -43.308666 -147.47733 9340022
15.181437 -43.144562 -148.14183 8089963
15.862903 -43.069191 -147.81351 9142907
16.71134 -42.975319 -147.4005 10261387
17.877562 -42.84697 -148.20612 11050901
18.723526 -42.753399 -147.77908 8090992
19.397562 -42.678844 -147.43539 8090992
20.581139 -42.548607 -148.22296 8682867
20.917816 -42.511337 -148.04617 8682867
21.588755 -42.437103 -147.69064 7235421
23.127636 -42.274876 -148.30812 8089963
23.801548 -42.210938 -147.97652 9275007
24.47344 -42.14727 -147.64304 11380380
26.049889 -42.019032 -148.36014 11380380
26.71953 -41.955242 -148.01379 10985622
27.386951 -41.891689 -147.66554 10262156
28.816067 -41.777325 -148.446 8880507
29.638847 -41.685108 -147.94977 9341057
31.227861 -41.519428 -148.50339 8682867
31.877575 -41.439659 -148.0721 8880245
33.803989 -41.232227 -148.38516 8090987
34.608986 -41.133072 -147.83017 8617331
35.904621 -41.003113 -148.56493 9472383
36.705021 -40.904213 -147.99568 9538176
38.016926 -40.772179 -148.71921 8813686
38.653919 -40.693237 -148.25262 8813686
40.299267 -40.519886 -148.72865 9341054
40.93169 -40.441242 -148.2504 9340800
42.904865 -40.226749 -148.46198 9735297
43.53149 -40.14856 -147.97173 11905951
44.890793 -40.010548 -148.65335 11248537
45.514187 -39.932476 -148.15228 10789527
47.044838 -39.77301 -148.69664 9736836
47.663712 -39.695232 -148.18439 10853012
49.055161 -39.553299 -148.8448 9735043
49.670574 -39.475716 -148.32172 9735043
51.231438 -39.31242 -148.83914 10854036
51.689808 -39.254452 -148.43855 10261132
53.56953 -39.05072 -148.6712 10526355
55.764885 -38.806694 -148.6107 9801092
