# .PCD v0.7 - Point Cloud Data file format
VERSION 0.7
FIELDS x y z rgb
SIZE 4 4 4 4
TYPE F F F U
COUNT 1 1 1 1
WIDTH 1180
HEIGHT 1
VIEWPOINT 0 0 0 1 0 0 0
POINTS 1180
DATA ascii
-17.675859 -46.717789 -141.38184 9734530
-16.794865 -46.622238 -141.20256 9142651
-16.267618 -46.565063 -141.09283 8813686
-15.003238 -46.431622 -142.02472 8287342
-13.948344 -46.31715 -141.78642 7695720
-13.247408 -46.241066 -141.62418 7762027
-11.960976 -46.105148 -142.52765 8682869
-10.909852 -45.990982 -142.26485 9208443
-10.211575 -45.915134 -142.08636 7564648
-8.9040136 -45.776886 -142.96111 9736324
-7.8573451 -45.663151 -142.67401 9472384
-6.5309577 -45.522778 -143.52939 9735812
-5.834003 -45.447033 -143.32501 9735812
-4.9655108 -45.352535 -143.06641 14276047
-3.7934263 -45.228897 -143.94897 9209467
-3.0991132 -45.153404 -143.73015 9209467
-2.2338388 -45.059261 -143.45329 8090992
-1.0426328 -44.933445 -144.31436 9143678
-0.0059296489 -44.820602 -143.96364 7959145
1.3758242 -44.674084 -144.74883 9735812
2.0653365 -44.59893 -144.50227 10064009
2.7529147 -44.523998 -144.25369 7367013
3.9802897 -44.394245 -145.07797 7893098
4.8384385 -44.300709 -144.75247 9208443
6.0804048 -44.152538 -145.50893 7760997
6.9360414 -44.054863 -145.15459 7169884
8.878336 -43.840633 -145.64729 8879475
9.7297134 -43.74638 -145.28572 11904668
10.835358 -43.624767 -146.11758 8616817
11.515511 -43.54945 -145.81755 8682867
11.854471 -43.511868 -145.66656 8682867
12.976318 -43.38855 -146.48723 9406078
13.823481 -43.294685 -146.09738 10261129
14.961189 -43.169586 -146.90892 9997955
15.806171 -43.075985 -146.50511 9011321
16.959721 -42.949074 -147.30746 10261132
17.63434 -42.874382 -146.97363 8156014
19.140326 -42.70845 -147.59671 6511962
19.81245 -42.633972 -147.25146 7564646
20.997255 -42.503586 -148.03456 6511954
21.668139 -42.429256 -147.67892 7235421
22.336681 -42.355225 -147.32164 9866630
23.712538 -42.21891 -148.04671 9011578
25.793364 -42.042809 -148.51868 8484976
26.464684 -41.978893 -148.17363 11380380
27.891994 -41.864841 -148.96799 9341057
28.561726 -41.800812 -148.61086 9341057
29.998558 -41.671642 -149.34631 9341059
30.490866 -41.61121 -149.02541 9341059
31.93223 -41.463837 -149.69193 7565675
32.422802 -41.403492 -149.36266 9340539
33.879642 -41.254284 -150.01778 9340539
34.368393 -41.193977 -149.68013 7300958
35.840725 -41.042782 -150.32379 6510930
36.327534 -40.982567 -149.97784 7958632
37.815411 -40.829426 -150.60976 8092019
38.300137 -40.76926 -150.25543 8814714
39.642193 -40.634281 -150.99638 8814199
40.286114 -40.55415 -150.51308 8683124
41.644615 -40.417137 -151.24489 8090987
42.285442 -40.337147 -150.75041 8419696
43.660343 -40.198196 -151.47316 9340286
44.139084 -40.138195 -151.09406 7564643
45.689499 -39.977364 -151.68103 11116180
46.16573 -39.917549 -151.29362 9208443
47.573418 -39.774647 -152.00012 10459537
49.472519 -39.570011 -152.30428 8288369
49.944767 -39.510334 -151.90056 9011320
51.386086 -39.36343 -152.59312 8682356
53.372475 -39.197159 -153.03212 10788244
53.842716 -39.138916 -152.61687 10788244
55.572025 -39.035606 -153.41953 9670023
56.039616 -38.977097 -152.99374 12433069
57.637005 -38.890915 -153.93156 7564651
58.102398 -38.832096 -153.49539 7564651
60.187515 -38.684673 -153.98314 10656401
62.295559 -38.534691 -154.45691 8089963
62.754482 -38.475399 -153.99921 8813683
64.426445 -38.382187 -154.9164 8813683
64.882568 -38.322582 -154.44812 11379348
66.882767 -38.187153 -155.04231 8288108
69.0578 -38.029266 -155.46567 6906714
71.256691 -37.868759 -155.8743 8815220
71.703247 -37.808418 -155.37404 8092011
73.330742 -37.725883 -156.43826 9537665
73.774979 -37.665234 -155.92735 9537665
74.974411 -37.446949 -156.52272 9537665
76.002586 -37.031521 -156.58369 11051158
76.146317 -36.313068 -157.04318 9209467
76.599213 -35.902122 -157.02129 11314071
-121.3051 -57.341362 -124.96091 7563619
-120.54914 -57.267391 -125.38398 8616563
-119.60295 -57.175198 -125.90785 8616305
-119.03462 -57.119938 -126.21909 8616304
-116.50585 -56.956936 -125.95774 9735808
-115.56503 -56.866199 -126.45872 11248787
-114.81139 -56.793812 -126.85479 9735297
-112.90004 -56.689827 -126.27447 9735297
-112.33925 -56.636242 -126.56361 12959663
-111.59086 -56.564945 -126.94582 16249822
-110.6543 -56.475967 -127.41782 10130566
-108.2373 -56.323631 -127.09807 6511954
-107.67929 -56.271027 -127.37109 6511954
-106.7485 -56.183586 -127.82137 9865598
-105.81665 -56.096375 -128.26596 9405304
-103.45932 -55.950016 -127.90892 8352878
-102.71446 -55.878807 -128.24515 6643541
-101.78085 -55.788994 -128.65744 7367264
-100.84656 -55.699375 -129.0641 6972250
-100.28559 -55.645725 -129.30528 7366751
-98.35144 -55.53447 -128.73196 8288109
-97.795166 -55.48156 -128.9655 8353130
-96.867508 -55.3936 -129.35005 6906455
-95.939362 -55.30592 -129.72919 7565158
-95.01059 -55.218536 -130.10197 9210498
-92.76902 -55.078671 -129.64577 11512735
-91.83049 -54.982441 -129.97862 12696753
-90.853745 -54.8638 -130.25113 9340284
-89.877594 -54.745487 -130.51782 12959151
-89.292206 -54.674679 -130.67487 12959151
-88.707191 -54.603958 -130.82947 7235165
-87.927505 -54.509853 -131.0323 6511954
-86.953667 -54.392635 -131.28017 7827302
-85.980499 -54.275692 -131.52226 8353902
-85.008377 -54.159206 -131.75793 8484973
-84.231163 -54.0662 -131.94261 7169626
-79.672531 -53.57967 -131.69437 12038050
-79.098274 -53.511574 -131.81615 9538686
-78.141998 -53.398441 -132.01431 9931904
-76.995796 -53.263161 -132.24464 10128771
-76.041824 -53.150791 -132.43045 8090216
-75.089035 -53.038887 -132.61011 7104092
-74.137352 -52.927341 -132.78442 6182734
-73.193283 -52.820648 -132.96404 8551025
-72.066513 -52.696575 -133.18102 9077369
-71.128586 -52.59351 -133.35577 8485232
-70.191681 -52.490784 -133.52455 8090218
-69.255775 -52.388371 -133.68805 9406332
-68.320923 -52.286316 -133.84564 9143161
-67.200577 -52.164337 -134.02766 9011315
-66.268143 -52.062992 -134.17342 9208435
-65.336922 -51.96204 -134.31343 9274486
-64.220978 -51.841297 -134.47438 7959144
-63.29229 -51.741104 -134.60269 8024937
-62.550335 -51.66119 -134.70132 9340796
-61.994305 -51.601398 -134.77312 15721430
-61.253819 -51.521866 -134.86537 13024433
-60.329243 -51.422794 -134.97653 9670019
-59.406097 -51.324051 -135.082 11380380
-58.300022 -51.206032 -135.20175 7827558
-55.441742 -50.856647 -136.60052 9010800
-54.518513 -50.759232 -136.67456 9405561
-53.59692 -50.662136 -136.74301 8814966
-52.472748 -50.526516 -136.76523 9538174
-51.595432 -50.312386 -136.44008 15196110
-48.485672 -49.911686 -137.60335 9735043
-47.810375 -49.725983 -137.26813 9537665
-47.177399 -49.58075 -137.04182 10985367
-46.489033 -49.546169 -137.17589 10261388
-45.646843 -49.522747 -137.39317 9274487
-44.578655 -49.433022 -137.4762 9998209
-42.440678 -49.227516 -138.76025 7039331
-41.710789 -49.150646 -138.75003 8879990
-40.615509 -49.03265 -138.72029 9997958
-39.519985 -48.911148 -138.67201 9537664
-38.607166 -48.807381 -138.61835 8814713
-37.877068 -48.722561 -138.56586 8814713
-33.810074 -48.453243 -140.02809 9011065
-32.724091 -48.335838 -139.93559 9405823
-31.641449 -48.2188 -139.83562 8157298
-30.741877 -48.121506 -139.74689 8880507
-29.393572 -47.979492 -140.812 8813680
-28.672422 -47.901428 -140.72716 8484716
-27.773087 -47.804119 -140.61687 8485232
-26.876446 -47.707069 -140.50136 8748917
-24.959784 -47.503357 -141.4436 9735044
-23.884602 -47.386932 -141.2802 10129281
-22.813341 -47.27087 -141.10976 9340286
-21.585978 -47.141655 -142.11609 9143163
-20.871014 -47.064201 -141.9892 9340542
-19.801851 -46.948303 -141.7935 10261132
-19.091173 -46.871212 -141.65952 8682867
-17.837545 -46.739105 -142.62819 9866113
-16.771088 -46.623444 -142.40742 9602939
-15.885509 -46.527355 -142.21846 9340030
-14.785764 -46.41185 -143.19748 9011065
-14.076677 -46.334885 -143.0341 8617077
-13.016571 -46.219788 -142.78413 7498856
-11.717825 -46.082634 -143.6964 9208443
-11.011385 -46.005852 -143.51651 9208443
-9.9553738 -45.891121 -143.24196 9208443
-8.8114777 -45.770706 -144.17363 9736836
-7.9317698 -45.675091 -143.92906 9736836
-7.2301555 -45.59882 -143.73073 9735812
-6.8803077 -45.560802 -143.63037 9735812
-5.8904166 -45.457069 -144.5891 9735812
-5.1894126 -45.380806 -144.37814 9538433
-4.3158965 -45.285789 -144.11116 9209467
-3.1315 -45.160843 -144.99829 10459537
-2.0845048 -45.046898 -144.65926 9538434
-0.18496293 -44.844063 -145.2933 8879735
0.85690337 -44.730602 -144.93182 10195592
1.9052336 -44.620377 -145.84305 10261644
2.4261248 -44.563686 -145.6539 8813944
2.945431 -44.507061 -145.46327 8090478
3.8240492 -44.413338 -145.78485 7169633
4.8766427 -44.300632 -146.03319 7234653
5.5661759 -44.219578 -145.74684 7037274
6.6476216 -44.088139 -146.57317 6511954
7.6805348 -43.973251 -146.14807 6511954
8.9525433 -43.833294 -146.93166 6511954
9.8106918 -43.738277 -146.56374 7893352
10.927124 -43.615479 -147.40944 9736329
11.270329 -43.577492 -147.25722 10656654
11.78381 -43.520664 -147.02769 14604230
12.691704 -43.420517 -147.29114 10721937
13.770895 -43.301418 -147.46832 9340022
14.452171 -43.225929 -147.1496 10261129
15.601776 -43.09951 -147.96828 8418928
16.451815 -43.005379 -147.55623 10261643
17.617476 -42.877136 -148.36563 11906208
18.465031 -42.783272 -147.93965 9143678
19.81609 -42.634491 -148.65193 9472386
20.49201 -42.559605 -148.29994 8682867
21.689341 -42.427845 -149.09003 10853780
22.53244 -42.335033 -148.6385 9274237
23.764742 -42.235752 -149.5403 11709089
24.44343 -42.171234 -149.20204 11116440
25.119965 -42.106926 -148.86172 8287341
26.375025 -42.009548 -149.76277 7037274
27.219471 -41.929016 -149.32269 7564651
28.494171 -41.829853 -150.21617 7564651
29.335602 -41.747574 -149.75478 9933193
30.614922 -41.625797 -150.56517 10591124
31.110302 -41.564896 -150.23839 11248796
31.604095 -41.5042 -149.91083 8090995
32.567089 -41.41597 -150.91348 9341571
33.224751 -41.334991 -150.46628 9143933
34.533333 -41.204395 -151.24193 13551549
35.188427 -41.123436 -150.78351 9406334
36.513462 -40.990768 -151.55043 9406334
37.16584 -40.909966 -151.0807 8683642
38.507305 -40.775402 -151.83881 9012350
38.994965 -40.714767 -151.47827 9472387
40.514965 -40.558075 -152.10701 9537667
40.838802 -40.517685 -151.86105 9537667
41.161827 -40.477386 -151.61497 9341054
42.53616 -40.33881 -152.35495 8419696
43.019196 -40.2784 -151.97746 9340286
44.410255 -40.137852 -152.71082 9537922
45.051609 -40.05743 -152.19661 12169123
46.459454 -39.914837 -152.92062 9735814
46.938427 -39.854614 -152.52666 9735812
48.362843 -39.710075 -153.24377 11051673
48.998528 -39.629898 -152.70738 7565675
50.123043 -39.523418 -153.68867 9932678
50.440304 -39.483284 -153.41519 9011320
50.756599 -39.443256 -153.14146 9932678
52.425816 -39.314056 -153.86012 10854036
52.900326 -39.255505 -153.44661 10854036
54.472782 -39.172695 -154.40997 9933193
54.945248 -39.113838 -153.98601 9867911
57.012611 -38.969643 -154.5118 8354165
59.258545 -38.803135 -154.87543 10524559
61.216373 -38.67371 -155.52206 10590347
61.680344 -38.614063 -155.06602 9932675
63.506962 -38.5019 -155.85068 11511711
63.967724 -38.44199 -155.3838 9405819
66.12384 -38.287182 -155.8394 10459273
68.303902 -38.129749 -156.28064 10130313
70.206001 -38.010185 -157.03972 9406590
70.657753 -37.949497 -156.54054 10262415
72.140205 -37.792175 -157.31166 7039331
72.834579 -37.677193 -157.16943 9472639
73.72377 -37.481533 -157.27847 11709090
74.029472 -37.094364 -157.44328 11314332
74.861366 -36.90897 -157.25478 9735044
75.685524 -36.719795 -157.04774 11314071
74.824478 -36.090668 -157.66695 9209214
75.784332 -35.840664 -157.37598 10524812
75.146881 -35.261314 -157.86252 10984848
75.90332 -34.894035 -157.7002 9669760
76.645432 -34.791004 -157.43973 10261641
76.118103 -34.019794 -157.95705 11182228
76.701492 -34.026154 -157.71796 10787728
76.892143 -33.066242 -158.01833 10064262
77.19371 -32.147724 -158.25737 9340286
-122.37132 -57.361099 -126.04646 7037274
-121.79847 -57.305138 -126.36598 9340798
-121.03383 -57.230671 -126.78866 9340798
-118.46558 -57.064869 -126.52781 8616304
-117.70628 -56.99144 -126.93602 8353645
-116.75587 -56.899879 -127.44036 8222573
-114.2457 -56.739632 -127.14939 13023917
-113.86819 -56.703609 -127.34438 9735297
-113.49062 -56.66748 -127.5384 9735297
-112.92379 -56.613483 -127.82746 8880757
-111.97812 -56.523689 -128.30426 8617584
-109.71664 -56.387188 -127.88409 7103835
-108.7778 -56.298733 -128.34383 9406078
-107.83801 -56.210487 -128.79779 10128514
-107.08538 -56.140049 -129.15642 9405304
-104.88377 -56.009361 -128.70412 8089706
-103.94906 -55.922028 -129.13545 9142393
-103.00712 -55.831699 -129.55263 6840920
-102.06395 -55.741241 -129.96333 6643541
-99.724388 -55.592216 -129.54401 7366751
-98.9758 -55.521019 -129.85921 6510930
-98.03949 -55.43227 -130.2476 9405304
-97.102715 -55.343712 -130.63052 7761250
-96.352829 -55.273098 -130.93242 9537919
-94.081299 -55.131401 -130.46944 10459793
-93.151619 -55.044525 -130.83061 9802377
-92.032616 -54.938992 -131.2527 9801862
-91.062927 -54.829449 -131.54572 9933702
-90.274132 -54.734043 -131.75629 10657425
-89.682808 -54.662617 -131.91168 9933702
-89.091805 -54.591347 -132.06474 11051928
-88.30426 -54.496521 -132.26529 14078918
-83.84285 -54.019806 -132.03329 5393730
-83.066658 -53.92725 -132.21147 6182990
-82.097176 -53.811779 -132.42953 8814454
-81.12883 -53.696762 -132.64116 8814966
-80.161346 -53.58202 -132.84721 7039322
-79.195107 -53.467747 -133.047 10327946
-78.22979 -53.353836 -133.24135 9536891
-77.265785 -53.240269 -133.42947 9536891
-76.302818 -53.127083 -133.61206 7367264
-75.341103 -53.014324 -133.78862 5920074
-74.381393 -52.902447 -133.96112 6182734
-73.431358 -52.796955 -134.1427 9801605
-72.483543 -52.692806 -134.32132 10262156
-71.915352 -52.630394 -134.4257 8485232
-71.347664 -52.568176 -134.52788 9209467
-70.402184 -52.464699 -134.6936 8287853
-69.457741 -52.361553 -134.85405 8813942
-68.514557 -52.258789 -135.00854 9077114
-67.384071 -52.135887 -135.18678 8615534
-66.443306 -52.033821 -135.32941 8615534
-65.503883 -51.932152 -135.46619 8156010
-64.378082 -51.810558 -135.62321 7959144
-63.441292 -51.709682 -135.74825 7301470
-62.879848 -51.649334 -135.82066 10590606
-62.318863 -51.58902 -135.89095 13156018
-61.385105 -51.488914 -136.00371 11774879
-60.452549 -51.389175 -136.11148 8090987
-59.521507 -51.289799 -136.21349 8090987
-58.406017 -51.170929 -136.32918 8287853
-57.477993 -51.072304 -136.41995 7630179
-56.551579 -50.974075 -136.50507 8550507
-54.406017 -50.701302 -137.81444 8089963
-53.84848 -50.642654 -137.85336 8089963
-53.291492 -50.584206 -137.89066 9142392
-52.549847 -50.506401 -137.93703 10196104
-51.624149 -50.4095 -137.99089 9999494
-50.700188 -50.313057 -138.03923 9209208
-49.573277 -50.177128 -138.03389 9537664
-46.206852 -49.717224 -139.04677 10458761
-45.555477 -49.553921 -138.75845 10458761
-44.627987 -49.447979 -138.73834 9603194
-43.71719 -49.357891 -138.75674 10656658
-42.987949 -49.284012 -138.76184 8486262
-38.553585 -48.965683 -140.34227 7893614
-37.820042 -48.886467 -140.30299 7893614
-36.722111 -48.767887 -140.23811 11774365
-35.80954 -48.669281 -140.17842 8814969
-35.26313 -48.610241 -140.14011 8814969
-34.717529 -48.551292 -140.09961 8419698
-33.023521 -48.372047 -141.18672 9537409
-31.930458 -48.253819 -141.0829 10459023
-30.840866 -48.136021 -140.97157 7828590
-29.935545 -48.038116 -140.87347 7892581
-28.75288 -47.913963 -141.96005 8353130
-27.845615 -47.81575 -141.84494 8551025
-26.940779 -47.717815 -141.72514 8617331
-26.218912 -47.639694 -141.62561 8354159
-25.678558 -47.58115 -141.54892 8814198
-24.826038 -47.492714 -142.64818 9537665
-24.102997 -47.414402 -142.53511 9735044
-23.021694 -47.297249 -142.36005 8813936
-22.12351 -47.19997 -142.20905 8090987
-20.882267 -47.069271 -143.21747 8945783
-19.983278 -46.97179 -143.04971 9208955
-18.908297 -46.855202 -142.84235 9405819
-17.283808 -46.682896 -143.74504 9142387
-16.567467 -46.605137 -143.59247 8813939
-16.031738 -46.547092 -143.47575 8813939
-15.319086 -46.4697 -143.31776 8813939
-14.028434 -46.333488 -144.26013 10853012
-13.137302 -46.236732 -144.04669 8287859
-12.249107 -46.140297 -143.82904 8485747
-10.936424 -46.001617 -144.74251 9208443
-10.048806 -45.905174 -144.50836 11775396
-9.3407688 -45.828236 -144.31828 9736836
-8.1845818 -45.706493 -145.25491 9736836
-7.2996039 -45.610279 -145.00206 8617075
-6.4178748 -45.514412 -144.74521 8879222
-5.2406287 -45.390324 -145.65842 10457995
-4.1835341 -45.275352 -145.33136 15920098
-2.4595773 -45.091717 -146.05756 8090992
-1.406637 -44.977085 -145.70834 8090992
-0.19129151 -44.848793 -146.58542 8879478
0.68475372 -44.753391 -146.2787 11905438
1.3831637 -44.677258 -146.03078 13023917
2.4429648 -44.565865 -146.95027 8616563
2.7924368 -44.527809 -146.82115 7037274
3.4894545 -44.451817 -146.56087 6643031
4.9156823 -44.300488 -147.33507 5920082
5.6106839 -44.21785 -147.04025 8221548
7.5705361 -43.98634 -147.51251 7038298
8.4356956 -43.890568 -147.15074 6511954
9.5474453 -43.768261 -148.0127 8551025
10.410957 -43.672661 -147.63675 9603458
11.711876 -43.529484 -148.41223 13024949
12.400682 -43.453201 -148.0997 12761773
13.889687 -43.289188 -148.78268 10261129
14.576382 -43.213112 -148.45847 9734782
16.423292 -43.009457 -148.95639 10261643
17.106884 -42.933701 -148.61972 11380380
18.284773 -42.804142 -149.43637 12432037
19.137312 -42.709724 -149.00185 10261386
20.331488 -42.578339 -149.80914 11644064
20.842073 -42.521698 -149.5405 10853780
21.18157 -42.484184 -149.3607 10853780
22.570421 -42.349075 -150.12599 8089963
23.253883 -42.284264 -149.79219 8089963
24.674097 -42.171524 -150.63225 9537408
25.356335 -42.106594 -150.28615 9997703
27.307121 -41.943214 -150.8472 7893608
27.986553 -41.878342 -150.48766 7564643
29.446638 -41.761654 -151.29881 10722452
30.117405 -41.686802 -150.89075 9341059
31.407751 -41.558636 -151.69168 9341059
32.071434 -41.477036 -151.24756 12104104
33.544022 -41.326435 -151.92635 9341571
34.039516 -41.265312 -151.58458 9341571
35.528057 -41.112736 -152.25189 9868171
36.021564 -41.051704 -151.90154 9604484
37.526112 -40.897175 -152.55734 9012350
38.017612 -40.836189 -152.19843 8552056
39.374447 -40.700031 -152.96472 10853012
40.027386 -40.618778 -152.47511 9537667
41.401077 -40.480583 -153.23245 10195339
42.050964 -40.399471 -152.73149 9866886
43.279491 -40.279549 -153.60779 7564643
43.765366 -40.218678 -153.22379 8419696
45.33456 -40.056206 -153.83745 9735814
45.817924 -39.99548 -153.44489 8881020
47.242558 -39.851276 -154.17995 12235946
47.724247 -39.790588 -153.77925 12235946
49.325985 -39.624146 -154.37111 12629931
49.805019 -39.563644 -153.96182 10854036
51.310749 -39.451069 -154.82146 9011320
51.789982 -39.392269 -154.41011 10393486
53.838963 -39.251408 -154.9736 9604485
56.069118 -39.088192 -155.37947 9670786
58.163731 -38.942108 -155.91261 11511193
58.634678 -38.882523 -155.46872 11182231
60.281528 -38.79351 -156.43185 9340539
60.749958 -38.733559 -155.97734 9340539
62.888519 -38.582077 -156.47195 8221549
65.051025 -38.427975 -156.9525 8814198
65.512558 -38.367508 -156.47598 9011830
67.237305 -38.271255 -157.41869 10459273
67.695885 -38.210522 -156.9313 10656654
69.751526 -38.071133 -157.53831 8682867
70.895645 -37.834877 -158.07689 10262415
71.721664 -37.647766 -157.8936 9012606
72.593147 -37.484131 -157.80403 8618105
72.143173 -37.099854 -158.32225 8618105
72.647789 -36.856705 -158.22484 8289141
73.473953 -36.834995 -157.89433 9932424
72.944855 -36.143391 -158.40862 8420470
73.773735 -36.122494 -158.08061 8749178
74.276108 -35.877457 -157.97324 8420470
73.73024 -35.099731 -158.5007 9603716
74.597504 -35.047726 -158.16939 9472128
75.243675 -34.637093 -158.06886 10655625
74.634811 -34.047417 -158.54785 10853006
75.534973 -34.013962 -158.19592 10984590
74.940292 -33.242477 -158.74068 11116176
75.697136 -32.970486 -158.54076 11379348
76.45536 -32.698879 -158.34007 11314070
75.859818 -31.924948 -158.88608 9011058
76.640854 -31.93235 -158.56635 9997960
77.260025 -31.728836 -158.39532 9340286
76.656662 -31.138119 -158.89352 8551282
77.358597 -30.802486 -158.84305 8617075
77.675507 -30.107435 -159.25493 8419696
-123.45467 -57.381176 -127.14935 11379609
-122.87563 -57.324764 -127.47066 9735557
-120.45978 -57.174862 -127.10313 7563619
-119.88522 -57.119198 -127.41494 8813936
-118.92643 -57.026569 -127.92959 9274745
-118.15863 -56.95266 -128.33723 7564643
-115.80426 -56.80859 -127.93884 9143673
-115.04205 -56.735744 -128.3329 10787726
-114.08815 -56.644798 -128.81958 10458761
-113.32426 -56.572201 -129.2049 12432037
-111.03152 -56.434071 -128.77525 7761764
-110.08361 -56.344704 -129.23965 8354158
-109.13481 -56.255615 -129.69824 8551280
-108.56503 -56.20219 -129.97047 9538171
-106.52049 -56.087326 -129.42293 9405304
-105.95522 -56.034649 -129.68706 8484461
-105.01212 -55.946976 -130.12199 9143162
-104.06316 -55.8568 -130.545 8485232
-103.49185 -55.802044 -130.7939 7892581
-101.4977 -55.687084 -130.20683 5920074
-100.93129 -55.633022 -130.44807 7366751
-100.17558 -55.561115 -130.7664 7366751
-99.230499 -55.471516 -131.15866 9537662
-98.284866 -55.38221 -131.54529 7761250
-97.7173 -55.328674 -131.77451 6511954
-95.790245 -55.220268 -131.15645 10459793
-95.22747 -55.167534 -131.37817 9539206
-94.289108 -55.07983 -131.7429 8947326
-93.350388 -54.992355 -132.10226 9539206
-92.411255 -54.905273 -132.45534 9933705
-91.659714 -54.835701 -132.73409 9933702
-87.320625 -54.378304 -132.51041 10656660
-86.337753 -54.260479 -132.74963 7038307
-85.355911 -54.14304 -132.98242 8090479
-84.374977 -54.025951 -133.20953 8616566
-83.395088 -53.909252 -133.43021 8090737
-82.416145 -53.792885 -133.6452 8617081
-81.633759 -53.700077 -133.8127 7038307
-81.047371 -53.630619 -133.93599 7038298
-80.461555 -53.561352 -134.05682 7038298
-79.485954 -53.446175 -134.25357 9144188
-78.511513 -53.331333 -134.44475 11182740
-77.538307 -53.216988 -134.62965 6512978
-76.566238 -53.102993 -134.80913 9274238
-75.595512 -52.989319 -134.98236 7367009
-74.4375 -52.857162 -135.19217 6905688
-73.480125 -52.751896 -135.37233 7761253
-72.714935 -52.667915 -135.51215 8090474
-72.141541 -52.605049 -135.61473 8485232
-71.568542 -52.542416 -135.71507 8090474
-70.614395 -52.438164 -135.8777 8551026
-69.661346 -52.334259 -136.03503 8813942
-68.709602 -52.23074 -136.18634 9077114
-67.569038 -52.106995 -136.3607 8944757
-66.61985 -52.004181 -136.50005 8352104
-65.671967 -51.901829 -136.63351 7893614
-64.536232 -51.779381 -136.78658 7038307
-63.591129 -51.677788 -136.90829 9735043
-62.647579 -51.576511 -137.02414 9340542
-61.705257 -51.47562 -137.13496 7827815
-60.764503 -51.37508 -137.24002 8090987
-59.637348 -51.254936 -137.35913 11182745
-58.699642 -51.155224 -137.45273 10853012
-57.763538 -51.05587 -137.54068 7038298
-56.642151 -50.937168 -137.63939 8681835
-55.709309 -50.83857 -137.71603 9208179
-54.964245 -50.760044 -137.77353 10523527
-52.793255 -50.485649 -139.05864 9210491
-51.859707 -50.388062 -139.10942 9210491
-50.741627 -50.271461 -139.1638 8879989
-49.811707 -50.174725 -139.20369 8682099
-48.883724 -50.078354 -139.23804 8287085
-47.772472 -49.963276 -139.27301 9998216
-46.848324 -49.867809 -139.29666 12433069
-43.913151 -49.544094 -140.52094 9933193
-42.984234 -49.443905 -140.5031 7960175
-41.872162 -49.323895 -140.47453 8222574
-40.947643 -49.224121 -140.44502 8090987
-40.025261 -49.124538 -140.40958 9011831
-39.104816 -49.025169 -140.36913 9340541
-37.799202 -48.888134 -141.55014 6511962
-37.060513 -48.808304 -141.50334 8617334
-35.955025 -48.688862 -141.42711 8223089
-35.21983 -48.609386 -141.37231 7039331
-34.669468 -48.549931 -141.3287 10261132
-33.936974 -48.470806 -141.26781 8813686
-32.224174 -48.289474 -142.35056 10459023
-31.124092 -48.170486 -142.23517 8089963
-30.027567 -48.051895 -142.11237 8682610
-29.298491 -47.973049 -142.02673 8813680
-27.918791 -47.827541 -143.09222 9406335
-27.006027 -47.728725 -142.96741 9143675
-26.09572 -47.630211 -142.83788 8090987
-25.369553 -47.551517 -142.73059 8814198
-23.96063 -47.402863 -143.75165 9537665
-23.233385 -47.324039 -143.63081 10590088
-22.14591 -47.206188 -143.44397 10261123
-21.423029 -47.127892 -143.31595 10261123
-19.986423 -46.976032 -144.29176 9340798
-19.0826 -46.878036 -144.11412 10655633
-18.181549 -46.78027 -143.93207 9405560
-16.540751 -46.606167 -144.83322 7564643
-16.00024 -46.547512 -144.71358 7564643
-15.281629 -46.469532 -144.55101 8813939
-14.564648 -46.391693 -144.38602 10063235
-13.259979 -46.253983 -145.32994 8682616
-12.184869 -46.137207 -145.0625 9078143
-11.470606 -46.059639 -144.88081 9208443
-10.322606 -45.938847 -145.84377 15130582
-9.429512 -45.841839 -145.6013 12829367
-8.717207 -45.764385 -145.40451 9736836
-7.37005 -45.621906 -146.29448 10786703
-6.3028407 -45.505867 -145.97954 11904670
-4.5810122 -45.322556 -146.73828 15065045
-3.5177038 -45.206856 -146.40089 16776175
-2.1317537 -45.060089 -147.24571 11576729
-1.4241788 -44.983047 -147.00764 9209213
-0.71862382 -44.906178 -146.76749 9734529
0.50959617 -44.776505 -147.64911 9734529
1.3904631 -44.680588 -147.33369 9537407
2.0927851 -44.604031 -147.07878 8616563
2.8126509 -44.529713 -148.13663 10261644
3.5158827 -44.453072 -147.87175 7695976
4.3918729 -44.357594 -147.53748 5920082
5.4815316 -44.239449 -148.43941 9538694
6.3539853 -44.126205 -148.03062 7893613
7.6338239 -43.980209 -148.82765 11379864
8.5060272 -43.883625 -148.45934 8551025
10.325462 -43.683002 -149.03011 10590610
11.193163 -43.586929 -148.64494 8881278
12.333931 -43.461494 -149.50389 8092019
13.199705 -43.365627 -149.10448 10459274
14.530041 -43.219166 -149.87183 9538686
15.393091 -43.123577 -149.45769 10261643
16.567127 -42.994488 -150.29608 8089963
17.256119 -42.918121 -149.95369 8090475
19.133873 -42.711021 -150.43161 8551796
19.819437 -42.635075 -150.07683 9539459
20.683447 -42.540268 -151.07381 8092019
21.36937 -42.465641 -150.7135 9013117
22.056267 -42.397888 -150.37483 11709089
23.473372 -42.285629 -151.23183 8089963
24.160458 -42.220352 -150.89006 8813685
25.597445 -42.106197 -151.73662 9537408
26.283209 -42.040852 -151.38254 8682099
28.253584 -41.875744 -151.944 9735555
28.936466 -41.810455 -151.57631 10854036
30.406027 -41.681705 -152.35469 10854036
30.907877 -41.620045 -152.02367 8090995
32.380215 -41.469875 -152.72021 13024949
33.046452 -41.38781 -152.26717 7565675
34.368748 -41.256042 -153.0657 11709860
35.03244 -41.174068 -152.60123 9868171
36.205906 -41.06086 -153.50996 8092019
36.867458 -40.97887 -153.03429 9670023
38.223587 -40.843082 -153.81802 9538694
38.718082 -40.781631 -153.45284 9012350
40.255501 -40.623466 -154.1059 7038307
40.747753 -40.562103 -153.7321 7038307
42.301495 -40.401894 -154.37328 7564643
42.791401 -40.340618 -153.99086 7564643
44.198471 -40.198776 -154.75029 9210491
44.848942 -40.117188 -154.22906 8618359
46.111084 -39.993626 -155.11234 8092019
46.597301 -39.932533 -154.71312 9538949
48.200855 -39.766209 -155.32364 12235946
48.684368 -39.705154 -154.91579 12235946
50.506886 -39.549362 -155.5049 11181975
50.989899 -39.490311 -155.09514 11181975
52.881504 -39.369839 -155.81619 9801606
54.957428 -39.227142 -156.38747 10262411
55.435558 -39.167461 -155.95615 10656913
57.056698 -39.081921 -156.94527 9209467
57.532558 -39.021877 -156.50328 9209467
59.652843 -38.873745 -157.03659 9537664
61.797249 -38.722961 -157.55627 11050644
62.26675 -38.662495 -157.09212 10590347
63.965485 -38.569618 -158.0619 7563619
64.432144 -38.508789 -157.58684 9537665
66.621567 -38.352501 -158.06746 10590346
68.600906 -38.168549 -158.51024 7827300
69.586121 -37.846386 -158.70305 6775126
70.470123 -37.578373 -158.65341 7828590
71.266876 -37.485249 -158.39877 10262415
70.628838 -36.993462 -159.0135 8814712
71.496811 -36.852295 -158.7123 9275777
70.734879 -36.268127 -159.25592 9011320
71.538017 -36.064816 -159.01018 9012605
72.450211 -36.001343 -158.66515 9077886
71.779518 -35.304279 -159.21152 9406078
72.522278 -34.979416 -159.03802 9735044
73.272392 -34.828514 -158.79315 9340801
72.606049 -34.09481 -159.35216 9208956
73.482109 -33.954754 -159.05193 9011836
74.206726 -33.793396 -158.82143 12103071
73.537636 -33.072327 -159.3766 9669505
74.420334 -32.820057 -159.11781 10195331
73.681847 -32.117378 -159.69385 10854036
74.493683 -31.913679 -159.4446 9669503
75.274178 -31.919842 -159.12566 9208435
74.611259 -31.183155 -159.6998 9209211
75.533096 -30.836409 -159.55489 9735041
76.456337 -30.625517 -159.32396 9340286
75.714447 -30.091475 -160.06532 11378324
76.531204 -29.99827 -159.80994 9997700
77.381699 -29.806421 -159.62199 8879991
78.193848 -29.407902 -160.32162 8616563
-124.55554 -57.401608 -128.27016 9208958
-121.90955 -57.230843 -128.00095 8419440
-120.94205 -57.137096 -128.52518 8682608
-120.16707 -57.062309 -128.93976 8419177
-117.77438 -56.915741 -128.53931 7564643
-117.00509 -56.841988 -128.94014 8617329
-116.04261 -56.750061 -129.436 9406588
-115.46449 -56.694962 -129.73045 10787726
-115.07889 -56.658329 -129.92546 9735296
-112.94203 -56.536064 -129.39584 10458505
-112.17697 -56.463718 -129.77446 7827300
-111.21979 -56.373528 -130.24272 7761764
-110.45323 -56.30154 -130.61264 10392454
-107.99483 -56.148972 -130.24014 9538171
-107.23407 -56.07806 -130.5965 9867907
-106.28226 -55.9897 -131.03613 9538688
-105.32817 -55.900761 -131.46837 8090987
-102.92032 -55.747379 -131.04042 8353130
-102.34854 -55.692822 -131.28482 7037274
-101.96714 -55.656437 -131.44664 7037274
-101.39499 -55.60202 -131.68724 6511954
-100.44088 -55.511543 -132.08347 7695455
-99.677231 -55.439339 -132.39651 8682867
-97.149399 -55.275295 -132.00128 8946039
-96.392029 -55.204254 -132.30043 11380380
-95.444916 -55.115749 -132.66887 10985622
-94.497452 -55.027515 -133.03177 10854036
-93.549553 -54.939545 -133.38841 10854036
-91.073441 -54.770412 -132.90782 9933702
-90.475868 -54.69828 -133.06319 8486000
-90.077667 -54.650291 -133.16533 8486000
-89.480659 -54.578457 -133.3166 9077882
-88.486336 -54.459023 -133.56377 10065033
-87.492851 -54.339935 -133.80508 8879995
-86.500381 -54.221237 -134.0399 8682616
-85.508865 -54.102886 -134.26888 9405823
-84.518448 -53.984924 -134.49133 8616566
-83.528992 -53.867355 -134.70815 7038307
-82.540787 -53.75021 -134.91847 7038307
-81.750832 -53.65675 -135.08284 7038307
-81.356308 -53.610134 -135.16339 13487042
-80.56765 -53.517033 -135.32141 14539987
-79.582809 -53.401005 -135.51419 10722705
-78.599289 -53.285423 -135.70055 8814963
-77.616974 -53.170235 -135.88138 6512978
-76.63604 -53.055466 -136.05597 7630186
-75.65654 -52.941143 -136.22539 7433064
-74.68705 -52.833344 -136.40413 8090730
-73.720688 -52.727245 -136.58121 7498594
-73.141365 -52.663765 -136.68468 6971994
-72.562569 -52.600483 -136.78587 10130313
-71.791367 -52.516232 -136.91766 9406590
-70.828537 -52.411217 -137.07712 6840919
-69.674576 -52.285694 -137.26109 8485233
-68.714294 -52.181438 -137.40837 8945271
-67.755325 -52.077587 -137.54964 9142393
-66.797668 -51.974106 -137.6857 8088931
-65.841301 -51.870995 -137.81575 9077884
-64.886261 -51.76815 -137.94064 8814713
-64.123291 -51.686214 -138.03648 8683126
-63.551556 -51.624886 -138.10603 9735043
-62.790199 -51.543427 -138.19542 8946040
-61.839642 -51.441814 -138.30273 9538950
-60.890682 -51.340561 -138.40424 8881021
-59.753796 -51.219597 -138.51912 10986136
-58.808018 -51.119213 -138.60916 8618104
-57.863941 -51.019196 -138.69345 7564127
-56.921291 -50.919552 -138.77278 9208179
-55.980389 -50.820286 -138.8465 9734523
-54.853352 -50.701672 -138.92819 9536893
-54.103199 -50.622902 -138.97871 9142392
-53.728611 -50.58363 -139.00264 9142392
-53.354294 -50.544357 -139.02571 9142392
-51.909847 -50.346603 -140.25281 9210491
-51.158092 -50.268341 -140.28645 9275003
-50.032501 -50.151379 -140.33122 8879477
-48.909565 -50.034985 -140.36867 8484464
-47.975765 -49.938393 -140.39449 10655630
-47.048222 -49.846687 -140.42741 13945276
-45.943058 -49.743172 -140.47743 13024949
-45.02219 -49.655624 -140.50928 9800830
-44.470257 -49.60305 -140.52541 9208435
-42.260494 -49.368439 -141.75232 7828332
-41.141521 -49.249001 -141.71666 9011831
-40.024292 -49.128349 -141.66885 10458505
-39.095638 -49.028091 -141.62329 9405819
-38.354343 -48.948036 -141.58267 7958890
-36.288174 -48.72879 -142.70944 6510930
-35.360332 -48.628483 -142.63707 9274748
-34.804855 -48.568516 -142.59097 10261132
-34.065655 -48.488556 -142.52631 9274237
-33.143589 -48.388908 -142.44118 10261132
-31.227055 -48.185516 -143.49915 8813686
-30.304789 -48.085781 -143.39259 6511954
-29.201405 -47.966354 -143.25816 7959144
-28.467775 -47.886993 -143.16469 10853780
-27.071701 -47.739769 -144.22914 9734788
-26.336775 -47.660217 -144.12192 9603458
-25.786678 -47.600655 -144.03952 9537665
-25.237728 -47.541183 -143.95514 10261132
-24.507288 -47.462086 -143.84 9537665
-23.081978 -47.311604 -144.85963 12432037
-22.350721 -47.232323 -144.73077 12432037
-21.257069 -47.113785 -144.53212 11050901
-20.53022 -47.034969 -144.39612 9340798
-19.442005 -46.920887 -145.44371 7696232
-18.532038 -46.822235 -145.25792 9866631
-17.444092 -46.704163 -145.02902 8681835
-16.149679 -46.567722 -146.0114 11378324
-15.424232 -46.48896 -145.84523 8813939
-14.339801 -46.371189 -145.59087 8287859
-12.660776 -46.19289 -146.45291 7828078
-11.578822 -46.075356 -146.1754 9538950
-10.860135 -45.997238 -145.98706 9538950
-9.5194359 -45.855576 -146.90572 9867139
-8.442234 -45.738476 -146.60324 9933958
-7.0818343 -45.594654 -147.50209 8089963
-6.5436206 -45.536087 -147.3412 9734273
-5.6494384 -45.438812 -147.06958 12563113
-4.2688918 -45.292698 -147.94322 11709089
-3.5543458 -45.214931 -147.71317 11972517
-2.6640527 -45.118019 -147.42221 10129798
-1.4418256 -44.989048 -148.32877 8682867
-0.73027009 -44.911549 -148.08368 8946556
-0.02072686 -44.834305 -147.83646 8089963
1.3980658 -44.683887 -148.65836 11709346
2.2833121 -44.587414 -148.33351 11051416
3.5430071 -44.454292 -149.20471 9538694
4.2500863 -44.377235 -148.93262 8288628
4.9550729 -44.300381 -148.65843 5920082
6.4064832 -44.123119 -149.3604 9340545
7.1085343 -44.038342 -149.04697 13023917
8.4022217 -43.895996 -149.86523 8880503
9.2788124 -43.798988 -149.48766 10064009
10.414066 -43.674114 -150.37016 13024949
11.114395 -43.596573 -150.05704 10788759
11.812452 -43.519302 -149.74184 9736329
13.139616 -43.373207 -150.52702 8815220
14.010172 -43.276783 -150.11879 9538686
15.179983 -43.148087 -150.97406 6840151
16.048296 -43.051914 -150.55132 8419183
17.23473 -42.921459 -151.39738 11445400
18.100615 -42.82552 -150.96036 10458762
19.303831 -42.693199 -151.79712 10263180
19.994837 -42.616592 -151.43631 8552568
21.91773 -42.433243 -151.99156 9997700
22.78371 -42.351109 -151.57106 8813428
24.043995 -42.254002 -152.52409 8024170
24.908484 -42.171776 -152.08795 8155756
26.8799 -42.006969 -152.67285 9735555
27.56834 -41.94128 -152.30983 9735555
29.042841 -41.823711 -153.1472 8617331
29.729694 -41.757935 -152.77168 9735555
31.037704 -41.635059 -153.62126 9735555
31.71059 -41.552288 -153.17163 9736836
33.199261 -41.400364 -153.87483 9736836
33.701649 -41.338425 -153.52869 7565675
35.206665 -41.184452 -154.2205 8092019
35.707134 -41.122555 -153.86562 10789015
37.228603 -40.966602 -154.54599 9538694
37.726994 -40.904789 -154.18239 8815228
39.2649 -40.746799 -154.8511 8682867
39.761055 -40.685032 -154.47887 9077371
40.985149 -40.566261 -155.38924 8682867
41.315563 -40.52504 -155.13586 7038307
41.809422 -40.463322 -154.75491 11512223
43.051586 -40.342461 -155.65926 9538433
43.544411 -40.280727 -155.27014 9538433
45.132301 -40.116615 -155.90869 9210491
45.622601 -40.055069 -155.51079 9210491
47.552441 -39.847954 -155.86624 11972775
49.045311 -39.72723 -156.7283 11181975
49.697033 -39.648056 -156.18556 11445146
51.59164 -39.528591 -156.93408 10459275
51.915649 -39.488842 -156.65535 12235684
52.238636 -39.449097 -156.37601 8682867
53.833721 -39.366833 -157.39067 8682867
54.3167 -39.306896 -156.96129 10196360
56.418152 -39.162151 -157.53323 9604992
58.702805 -38.994556 -157.94119 11247252
61.010044 -38.824207 -158.32834 8419696
61.325737 -38.783627 -158.01979 9340286
63.338974 -38.650963 -158.69417 8747893
65.378578 -38.515823 -159.36185 9143416
65.846725 -38.454475 -158.87703 10261382
66.810509 -38.236111 -159.5851 8090987
67.582245 -38.127674 -159.28334 8353900
68.465576 -37.724304 -159.45625 9340280
69.178848 -37.491238 -159.32909 8485229
68.71579 -36.882851 -159.83304 11379348
69.487015 -36.885098 -159.5193 9932162
70.288391 -36.680954 -159.27466 9011320
69.412994 -36.05542 -159.87578 10130056
70.307594 -36.017178 -159.52794 10064520
69.695625 -35.433426 -160.00583 9932678
70.473709 -35.072559 -159.83231 10261643
71.328606 -34.85804 -159.56996 10393228
70.680893 -33.980747 -160.17787 9932678
71.457039 -33.984165 -159.86169 9668992
72.264259 -33.779984 -159.61456 9537406
71.497742 -33.04562 -160.21451 12234661
72.388275 -32.945778 -159.89256 11116437
73.229172 -32.532825 -159.71402 9537406
72.348518 -31.900173 -160.32008 14011071
73.251686 -31.863361 -159.96822 10064006
72.636742 -31.273397 -160.44981 9537406
73.374306 -31.113731 -160.23994 8419952
74.283432 -30.636284 -160.19826 9735555
73.629501 -30.474575 -160.59772 8090987
74.449852 -29.950809 -160.6951 9011832
75.320663 -29.850355 -160.42372 9734782
76.235809 -29.697834 -160.1772 10654857
76.42836 -29.398251 -161.08087 10260355
77.409439 -29.403391 -160.65985 9405817
78.787506 -29.177286 -161.54117 10655889
-123.97023 -57.344646 -128.59315 13550517
-123.18918 -57.268814 -129.02036 9340798
-122.21153 -57.174152 -129.5482 9011833
-119.19716 -56.969036 -129.45186 8550763
-118.22605 -56.875927 -129.95796 9933188
-117.25364 -56.783119 -130.4572 11314582
-114.30704 -56.585148 -130.31194 9274745
-113.34135 -56.493847 -130.79002 8485229
-112.37446 -56.402832 -131.26134 9800575
-109.87796 -56.247616 -130.88757 10853004
-109.30225 -56.193878 -131.16006 10525324
-108.342 -56.104427 -131.60915 9538171
-107.38088 -56.015244 -132.0524 9867907
-106.80379 -55.961754 -132.31552 8617331
-104.36682 -55.808754 -131.88593 8222058
-103.40468 -55.716881 -132.29753 9274229
-102.44186 -55.625324 -132.70259 9142642
-101.47852 -55.533958 -133.10191 8287334
-99.295326 -55.403252 -132.55153 6840919
-98.531113 -55.331367 -132.8582 6840919
-97.575554 -55.24168 -133.23668 6709078
-96.619461 -55.152351 -133.6088 9735299
-95.663025 -55.063232 -133.97525 10854036
-95.088959 -55.009869 -134.19228 9406590
-92.601273 -54.851898 -133.73947 10656398
-91.652763 -54.764469 -134.08427 8353899
-90.879189 -54.686089 -134.3351 7367005
-90.47686 -54.637691 -134.43619 7367005
-89.672821 -54.541195 -134.6349 8089963
-88.668442 -54.420849 -134.87828 8089963
-87.66523 -54.300858 -135.11501 7564642
-86.662903 -54.181278 -135.34587 6511954
-85.661774 -54.062054 -135.57022 7301478
-84.661583 -53.943222 -135.78874 7038307
-83.862328 -53.848495 -135.95906 7038307
-82.864311 -53.730381 -136.1662 11314333
-81.86747 -53.612694 -136.36761 16775663
-81.269897 -53.542259 -136.48563 16777207
-64.855759 -51.715492 -139.15834 7893614
-64.278549 -51.653618 -139.2276 9143163
-63.701763 -51.591835 -139.29509 8617075
-62.933704 -51.509754 -139.38164 9340541
-61.974785 -51.407482 -139.48537 7565675
-61.017513 -51.305565 -139.58325 7565675
-60.061726 -51.204025 -139.67609 7565675
-59.107597 -51.102844 -139.76312 9736326
-57.964642 -50.981941 -139.8607 8419440
-57.013966 -50.881638 -139.93637 8485232
-56.065052 -50.781696 -140.0063 7892840
-54.928543 -50.662273 -140.08354 8221548
-53.983265 -50.563194 -140.14221 8616049
-53.039791 -50.46455 -140.19537 10788497
-52.286167 -50.385887 -140.23456 9210491
-50.823223 -50.186501 -141.45506 10590091
-50.255894 -50.127659 -141.47459 10590091
-49.318935 -50.036968 -141.52303 11050386
-48.200314 -49.932243 -141.58492 8681843
-47.083706 -49.827808 -141.63892 9142650
-46.154499 -49.740765 -141.67741 8682867
-45.225414 -49.652435 -141.70551 10130057
-44.112381 -49.546539 -141.73206 9537918
-43.186592 -49.458561 -141.74844 9012090
-41.325378 -49.259529 -142.96593 12037792
-40.39576 -49.170177 -142.95776 10458506
-39.272682 -49.051212 -142.90579 8419183
-38.150703 -48.93 -142.83861 7958890
-37.218235 -48.8293 -142.77689 7827814
-35.315708 -48.627682 -143.90559 8090736
-34.382336 -48.526787 -143.82198 9537666
-33.265408 -48.406021 -143.71487 8813943
-32.337315 -48.305641 -143.62003 9537665
-31.781693 -48.245556 -143.56062 9537665
-30.400497 -48.100071 -144.67163 10853780
-29.472441 -47.99966 -144.55513 7959144
-28.362162 -47.879475 -144.40886 8157039
-27.62409 -47.799526 -144.30759 8814457
-26.211473 -47.650631 -145.37096 8616822
-25.656784 -47.590508 -145.28493 8616822
-25.287544 -47.550514 -145.22662 8616822
-24.550695 -47.470684 -145.10715 9537410
-23.631886 -47.371181 -144.95393 9208435
-22.374588 -47.23888 -146.00558 10261123
-21.454939 -47.139172 -145.83519 10656658
-20.355202 -47.019936 -145.62448 7366752
-18.521833 -46.825089 -146.53004 9669509
-17.607006 -46.725826 -146.33409 9472130
-16.695152 -46.626888 -146.13382 11182228
-15.386388 -46.488861 -147.1183 11182228
-14.474627 -46.389858 -146.90097 12037284
-13.565919 -46.29121 -146.67938 7038307
-12.416018 -46.17033 -147.68166 9538950
-11.688729 -46.091305 -147.49173 9538950
-10.601632 -45.973206 -147.20192 7894381
-8.885603 -45.790764 -148.0267 12235684
-7.8017859 -45.672867 -147.71391 9932418
-6.4272208 -45.527504 -148.61659 9734782
-5.7056327 -45.449032 -148.39471 9340028
-4.8065619 -45.351177 -148.11382 10458766
-3.5914438 -45.223106 -149.04753 8682867
-2.8727281 -45.144882 -148.81032 9143161
-1.9772718 -45.047386 -148.51059 9406332
-0.74192017 -44.917004 -149.42209 10393743
0.33082801 -44.800159 -149.04309 9407106
2.1206686 -44.609364 -149.74088 7038298
3.0108092 -44.51231 -149.40703 8616563
4.2840352 -44.377773 -150.28314 9538694
4.9949918 -44.300228 -150.00363 11907240
6.0814939 -44.168079 -150.20612 8419702
7.1678052 -44.033463 -150.38983 8156530
7.87427 -43.95454 -150.09001 9340545
9.004694 -43.830231 -150.98927 9735555
9.8868561 -43.732517 -150.60342 13024949
11.210722 -43.586868 -151.41432 9736326
11.563108 -43.547859 -151.25427 11380639
12.090219 -43.489437 -151.01321 9736329
13.430849 -43.341846 -151.80981 9538686
14.132454 -43.264141 -151.47702 9012599
16.014805 -43.056572 -152.00363 9735296
16.713163 -42.979195 -151.65819 8813939
18.087038 -42.828007 -152.42334 10261641
18.783384 -42.750839 -152.06628 9537918
20.173927 -42.598316 -152.82143 10263180
20.524035 -42.565205 -152.65674 10263180
21.047915 -42.515633 -152.40849 8815739
22.826258 -42.369686 -153.12804 8089963
23.523226 -42.303535 -152.78397 8089963
24.97332 -42.18866 -153.65953 7958634
25.842434 -42.105862 -153.21321 8879221
27.139494 -42.005581 -154.16801 9537659
27.833881 -41.939297 -153.79875 9603453
28.52589 -41.873123 -153.42746 9735555
29.844751 -41.770718 -154.36719 8617331
30.530855 -41.697289 -153.95747 8617331
32.019108 -41.545784 -154.67883 9736836
32.694668 -41.462605 -154.21992 9736836
34.03104 -41.329754 -155.04491 6510930
34.704075 -41.246605 -154.5744 9143677
35.889736 -41.132526 -155.51117 8484976
36.560623 -41.049442 -155.02921 9012607
37.931744 -40.912548 -155.83971 12432045
38.599815 -40.829483 -155.34599 9735558
39.988438 -40.690521 -156.14772 13550517
40.487648 -40.628292 -155.76886 11116692
42.059612 -40.466446 -156.43521 9735046
42.556564 -40.404354 -156.04759 10525328
44.475018 -40.199116 -156.43782 13551031
45.916489 -40.053875 -157.21794 11380633
46.573475 -39.971199 -156.67812 9604999
48.389164 -39.806644 -157.269 10131086
50.777325 -39.628361 -157.62917 11642524
51.266689 -39.568439 -157.21248 10261132
52.860649 -39.487202 -158.24652 8682867
53.348133 -39.426964 -157.81902 8682867
55.453396 -39.282944 -158.41245 10854288
57.743946 -39.115974 -158.84273 10788244
58.06472 -39.075401 -158.54265 10064006
60.375225 -38.905468 -158.94447 9603458
62.550663 -38.753017 -159.48285 8419696
64.522804 -38.576553 -159.99385 10195338
65.060852 -38.554008 -159.67293 10129545
65.540047 -38.27874 -160.3053 10853012
66.39637 -37.88282 -160.20941 8617074
67.223694 -37.693066 -160.03706 8353900
67.849037 -37.497799 -159.91829 9932160
67.244736 -36.922161 -160.41423 8550511
68.137344 -36.881676 -160.06812 7761763
67.536354 -36.121101 -160.61111 7563619
68.364105 -36.09446 -160.28586 7958887
68.863052 -35.846508 -160.18114 8485229
68.316429 -35.15329 -160.67554 11378581
69.257591 -35.016609 -160.34763 8813685
69.815056 -34.602276 -160.28444 8089963
69.200531 -34.017948 -160.76369 8945272
70.098785 -33.978653 -160.41479 9340286
69.496475 -33.212795 -160.96048 9011065
70.323677 -32.996426 -160.7101 9471616
71.057228 -32.730637 -160.51712 9537663
70.454376 -31.962284 -161.06396 10261387
71.289772 -31.937298 -160.73494 14143683
71.794441 -31.688297 -160.62817 16774119
71.187828 -31.103758 -161.13281 11578015
72.220207 -31.026033 -160.75752 10525070
72.191971 -30.309731 -161.31763 10064264
73.252281 -30.077225 -161.0829 9274748
74.078285 -29.685013 -161.07184 9011832
75.054443 -29.39238 -161.66631 9142900
75.839424 -29.395565 -161.33249 9931646
77.237679 -29.180475 -162.28703 10654857
78.013306 -29.178883 -161.91563 10655889
-125.27983 -57.384083 -129.62563 8813685
-124.2931 -57.288334 -130.16335 11510943
-123.70031 -57.230995 -130.4828 13550517
-121.23267 -57.079807 -130.06999 7564135
-120.44859 -57.004402 -130.48251 9734529
-119.46736 -56.910522 -130.99202 11379350
-118.6816 -56.835457 -131.39552 9143419
-116.47488 -56.709076 -130.85246 8682867
-116.08527 -56.672031 -131.0484 10787726
-115.50044 -56.616619 -131.34021 9538686
-114.52486 -56.52449 -131.82143 7761511
-113.7437 -56.450962 -132.20238 7563619
-111.40671 -56.312004 -131.72681 9471867
-110.43783 -56.221504 -132.18544 9932161
-109.46809 -56.131226 -132.63828 9603710
-108.8858 -56.077133 -132.90701 9339769
-106.22554 -55.908047 -132.57492 8354159
-105.44945 -55.834099 -132.91179 8617331
-104.67213 -55.759933 -133.24374 8813680
-104.08896 -55.704403 -133.49025 8813680
-103.5055 -55.648975 -133.73419 8813680
-100.51458 -55.442909 -133.49477 7300955
-99.550201 -55.352192 -133.88194 7301214
-98.585342 -55.261738 -134.26259 5920074
-97.620079 -55.171543 -134.63757 7563874
-97.040764 -55.117592 -134.85963 9208955
-94.514771 -54.956715 -134.40701 10854036
-93.749054 -54.885941 -134.69 10130313
-92.791603 -54.797707 -135.03827 7038041
-91.833878 -54.709766 -135.38098 10458761
-90.869843 -54.618458 -135.7083 13748158
-89.865303 -54.50322 -135.96962 15327449
-88.850899 -54.381966 -136.2083 9143419
-88.040077 -54.285175 -136.39526 11381404
-80.67289 -53.472027 -136.6012 10262670
-79.877556 -53.378521 -136.75208 6775638
-78.88459 -53.262062 -136.93521 6512978
-77.89286 -53.145966 -137.11269 11182231
-76.902588 -53.030331 -137.28391 7564650
-75.915634 -52.916447 -137.45316 8813945
-74.938904 -52.80909 -137.63216 9209467
-73.963509 -52.702221 -137.80608 9209467
-72.989258 -52.595757 -137.97374 6972505
-72.016205 -52.489571 -138.136 6511954
-71.04438 -52.383789 -138.29213 7695714
-69.879883 -52.257385 -138.4722 8287850
-68.910866 -52.152328 -138.61613 7564643
-67.943192 -52.047771 -138.75401 8879989
-66.976814 -51.943516 -138.88661 11050899
-66.011894 -51.839649 -139.0132 9735812
-65.240898 -51.756851 -139.11092 7893614
-60.952091 -51.249474 -140.79576 7565675
-60.180943 -51.167683 -140.86642 7565675
-59.218517 -51.065868 -140.94977 11906977
-58.257717 -50.964367 -141.028 9801347
-57.298634 -50.863327 -141.10057 8222060
-56.14994 -50.742527 -141.18077 9274493
-55.385441 -50.662334 -141.23027 9734788
-55.00367 -50.622356 -141.25362 8287342
-54.241043 -50.542522 -141.29744 8945271
-53.289295 -50.443073 -141.34811 10458510
-52.339329 -50.34409 -141.39313 9406590
-51.391159 -50.245483 -141.43333 8089963
-48.433056 -49.931404 -142.80856 8681843
-47.494011 -49.843647 -142.85112 8682099
-46.368668 -49.738194 -142.89398 8682867
-45.43111 -49.649109 -142.91966 9406334
-44.49522 -49.560158 -142.93907 10458762
-43.374191 -49.453663 -142.95551 10458763
-42.255653 -49.347641 -142.96425 13024942
-40.373222 -49.146667 -144.17484 7037274
-39.625591 -49.076073 -144.16441 11642780
-38.505333 -48.969322 -144.13937 10326918
-37.378197 -48.850563 -144.07019 8881270
-36.439213 -48.749084 -143.99864 9210491
-35.877048 -48.688366 -143.95317 7367007
-34.327751 -48.52486 -145.10347 8090736
-33.57629 -48.443634 -145.02803 9406337
-32.452087 -48.322037 -144.90903 8486006
-31.517895 -48.22102 -144.80431 10459537
