# .PCD v0.7 - Point Cloud Data file format
VERSION 0.7
FIELDS x y z rgb
SIZE 4 4 4 4
TYPE F F F U
COUNT 1 1 1 1
WIDTH 1216
HEIGHT 1
VIEWPOINT 0 0 0 1 0 0 0
POINTS 1216
DATA ascii
141.66121 -66.632591 50.382568 10591376
141.37286 -66.448601 51.431828 9867909
141.14197 -66.265495 52.31086 9143931
140.90462 -66.273392 52.995045 9274748
145.30096 -65.268692 34.18829 10260614
145.15396 -65.396584 34.983437 9932939
145.00636 -65.526031 35.779011 16777215
144.84261 -65.65049 36.71661 14079186
144.65724 -65.808113 37.729263 9209472
144.52472 -65.813194 38.763863 9603971
144.43745 -65.721153 39.719498 9273979
144.30525 -65.771042 40.618019 10655626
144.1889 -65.693871 41.757469 8155756
144.05109 -65.709251 42.799427 9405564
143.89442 -65.839966 43.658363 9209211
143.71243 -66.015762 44.5867 8090987
143.55785 -65.873268 45.676758 10064262
143.19391 -65.803406 46.827797 10788500
142.87532 -65.918694 47.630493 9143418
142.62837 -65.8153 48.468475 11182745
142.32883 -65.754982 49.412064 10459022
141.98694 -65.677383 50.498787 10196107
141.63254 -65.684341 51.52663 9538689
141.33621 -65.692245 52.383057 9341054
141.03903 -65.702347 53.239498 9603457
140.68138 -65.717049 54.267296 10459022
140.38683 -65.543571 55.320667 10130056
146.04066 -64.39241 30.860607 8814454
145.91747 -64.421272 31.751904 7367012
145.70184 -64.647346 32.807274 10589579
145.52325 -64.768646 33.871647 10326408
145.40073 -64.730896 34.950638 9670023
145.27382 -64.769119 35.8451 14736084
145.14601 -64.80957 36.740658 14934752
145.05821 -64.671394 37.834053 8288371
144.9024 -64.725456 38.912064 8617335
144.77155 -64.772705 39.811584 9932678
144.57281 -65.011879 40.693527 9997698
144.47095 -64.996445 41.541245 8353134
142.88837 -65.099373 48.509228 11248538
142.5645 -64.948021 49.625885 11577760
142.25809 -64.832138 50.650658 10459279
142.01605 -64.728188 51.473289 9735556
141.71916 -64.73571 52.331688 9406334
141.36195 -64.747314 53.361809 9932422
141.00352 -64.761841 54.391987 9669250
140.64291 -64.826256 55.373016 9011832
140.38754 -64.739929 56.214844 9274748
140.0731 -64.766075 57.103863 8616562
139.78001 -64.608925 58.134743 9340285
139.50337 -64.480919 59.085388 8092011
139.32072 -64.495735 59.601875 8092011
146.49142 -63.710793 29.182184 8814454
146.36371 -63.800114 30.011253 8156524
146.24146 -63.826611 30.903103 8090733
146.18515 -63.666599 31.8102 7038307
146.0363 -63.703457 32.882668 8813944
145.88622 -63.743233 33.956242 9340286
145.73488 -63.785908 35.031075 7893613
145.60789 -63.823643 35.927681 8617336
145.47997 -63.863575 36.825352 9604229
145.32536 -63.914101 37.903877 7696236
145.22163 -63.949348 38.623714 9143678
141.97795 -63.97221 52.42754 9472383
141.6478 -63.831913 53.548004 10393229
141.33592 -63.726185 54.57653 9801604
141.0896 -63.630447 55.402561 9210491
140.78844 -63.646576 56.263752 9407102
140.42601 -63.668556 57.297501 9340541
140.06233 -63.693436 58.331657 8813685
139.75827 -63.716301 59.193806 7827046
139.45329 -63.741295 60.05637 8552305
139.13989 -63.662979 61.058762 10197134
138.82121 -63.382145 61.974182 10262929
146.92999 -62.289318 27.193144 10065294
146.84694 -62.623341 27.961336 11971746
146.8143 -62.816364 29.002028 8551029
146.69838 -62.857887 30.079933 7300961
146.57591 -62.884014 30.973846 7169635
146.51953 -62.72374 31.883018 8814460
146.37053 -62.760105 32.958031 7761773
146.21698 -62.8344 33.959187 8288880
146.00211 -63.030323 35.09539 6446425
141.04489 -62.883091 56.3666 10723217
140.70876 -62.753586 57.492348 9866373
140.44221 -62.734081 58.292244 9537408
140.13776 -62.756355 59.156376 8484720
139.77127 -62.785641 60.193851 9077883
139.46684 -62.626663 61.259949 9868172
139.01772 -62.669353 62.148132 11907239
138.71112 -62.589878 62.72707 10262929
147.18593 -61.466759 26.326334 12827826
147.11609 -61.741512 26.935097 13091257
147.14932 -61.78949 27.966669 9472386
147.22243 -61.689892 29.082706 8748408
147.06847 -61.834126 30.103186 7564135
146.91028 -61.94199 31.044559 8090735
146.72002 -62.158276 31.926693 10656661
146.62079 -62.181915 32.64418 9209217
140.57286 -62.165508 58.545067 10853012
140.32887 -62.183453 59.237366 9932166
140.02548 -62.021492 60.303757 9142906
139.84547 -61.665607 61.226189 8617333
139.48129 -61.669167 62.06881 10525844
138.87271 -61.819511 63.001808 8617592
138.43811 -61.554691 63.932129 9538178
147.58743 -60.564129 25.170689 6774102
147.52696 -60.734146 26.20472 8880247
147.53008 -60.800999 27.121159 9472640
147.47208 -60.964447 27.975571 6906720
147.50589 -60.915237 28.770206 7038307
139.60368 -60.964626 62.392132 9012349
139.22708 -60.797855 63.221237 10656145
138.77139 -60.666016 64.167953 9340286
138.31984 -60.577972 65.039108 9275520
138.08366 -60.272499 65.877365 8419952
137.72224 -60.254311 66.520073 7564643
148.35135 -59.459652 21.230215 8748916
148.65056 -59.379837 22.296392 8090987
148.24043 -59.643242 23.035809 8090987
148.01494 -59.926899 24.094927 7563618
148.13988 -59.834396 25.213814 8814197
148.01019 -60.071571 26.291561 7827046
139.21855 -59.986732 64.376366 8089963
138.87085 -59.879597 65.130165 8222062
138.43176 -59.76907 66.044716 9012089
138.04631 -59.638226 67.036865 8222573
137.87035 -59.40955 67.907898 8222573
137.48695 -59.360397 68.770813 8419438
137.02623 -59.287468 69.885246 12826026
153.1133 -58.5732 0.99595875 10523787
153.15074 -58.84866 1.6221642 8749178
153.32832 -58.78529 2.655787 7631468
153.09964 -59.015873 3.7549195 9078143
153.07118 -59.014286 4.6739659 11906725
151.91008 -59.014183 5.7301126 8289140
151.86928 -59.01263 6.6419015 9998730
151.82343 -59.011082 7.5534482 8616307
151.77174 -59.009541 8.4647331 8813685
151.70262 -59.00771 9.5578079 8813941
151.62563 -59.00589 10.650343 8420208
151.57028 -59.004681 11.378439 8090986
150.37782 -59.004738 12.374975 7563619
150.28059 -59.002964 13.457897 8879477
150.19373 -59.001499 14.359777 9340027
150.10106 -59.000038 15.261125 8879477
149.98296 -58.998302 16.341953 7169892
149.67802 -59.03738 17.491249 7169892
149.48351 -59.068317 18.397728 7959405
149.30934 -59.12809 19.250645 9538695
149.01462 -59.235748 20.232014 10787727
148.95294 -59.270546 21.318493 8748916
137.93733 -59.096764 69.518532 10457990
137.67058 -59.090805 70.008179 14075837
137.22392 -59.081707 70.822914 11642008
136.8506 -59.033649 71.886543 9142643
136.82837 -58.955051 72.718788 9208182
136.46346 -58.91703 73.793884 8813422
135.92311 -58.916115 74.774712 9340027
136.38998 -58.912647 76.324829 10129545
136.1115 -58.912209 76.815346 9012350
135.64333 -58.911469 77.63076 11313563
135.07529 -58.91061 78.605598 10129286
135.51373 -58.907146 80.18161 9404790
135.22124 -58.906731 80.66906 9734011
134.72995 -58.906044 81.478981 9340027
134.13414 -58.905231 82.447144 11181201
134.54321 -58.901768 84.048843 9010550
134.13426 -58.901241 84.693672 8024170
133.61913 -58.900612 85.497185 7958377
133.45184 -58.875271 86.376366 9603970
133.51573 -58.597004 87.488182 11116952
132.83714 -58.515663 88.328445 11115153
153.2787 -57.484943 -0.047265589 9866365
153.35771 -57.80201 0.81300777 10260871
153.55234 -57.931824 1.8751721 9340801
133.57077 -57.863472 87.831635 10457738
133.11044 -57.683228 88.471176 8287858
132.52014 -57.735538 89.133652 9405823
153.51512 -56.741425 -0.21977001 9273977
153.70912 -56.855824 0.81446308 9603713
153.78706 -57.101334 1.5541329 9340801
133.38721 -56.862251 88.603409 7564651
132.8167 -56.750191 89.334084 9208445
132.31769 -56.456799 90.081909 9866629
153.67738 -55.347996 -1.7719779 9734531
153.68529 -55.690674 -1.1808944 9734531
153.83669 -55.828827 -0.29450375 9076601
153.91714 -56.143642 0.56855625 8945787
133.05179 -55.801422 89.586266 9997445
132.36871 -55.726089 90.428413 9143163
153.84059 -54.72448 -2.0698867 8945271
154.03702 -54.832226 -1.0357528 9800324
154.18871 -54.95541 -0.17213207 9208187
133.29134 -55.17313 89.654984 10261132
132.86642 -54.80098 90.359734 9405823
132.21175 -54.669231 91.199997 9406591
131.78549 -54.300343 91.904518 11906725
154.077 -53.507015 -3.0119586 9603968
154.16043 -53.813934 -2.1486602 9143421
154.31506 -54.005356 -1.161716 9471873
132.9584 -53.755405 90.833412 8418928
132.45966 -53.731949 91.43074 9800837
131.89731 -53.640221 92.140549 9866885
154.19919 -52.566757 -4.0034232 10459019
154.28168 -52.8004 -3.2634597 11313814
154.48022 -52.903351 -2.2278342 10064267
132.75829 -53.013107 91.480652 8287342
132.25348 -52.724487 92.232491 8747892
131.6769 -52.620701 92.965652 8945527
154.39375 -51.581482 -4.751596 10261132
154.48499 -51.763321 -4.0575385 9669505
154.6317 -51.917919 -3.1649985 10919314
154.71457 -52.162601 -2.4051452 10919062
132.48424 -51.77631 92.489357 9011064
131.79454 -51.708557 93.335068 10590865
131.35147 -51.492535 93.974266 13550517
154.62376 -50.77383 -5.0565658 9472387
154.82463 -50.870811 -4.0203834 8551799
154.90826 -51.103088 -3.2775874 7565675
132.47086 -51.137096 92.860542 10261643
132.1626 -50.805721 93.405914 9933193
131.58333 -50.704407 94.140945 10459536
131.19666 -50.292664 94.822929 11709087
154.78178 -49.686722 -6.1299376 9669250
154.94128 -49.865555 -5.1418719 9406594
155.07986 -50.006374 -4.307241 8880507
132.31837 -49.934124 93.708107 8092019
131.87323 -49.718666 94.349434 8683898
131.18002 -49.655346 95.19677 10196621
154.9397 -48.835876 -6.8202758 10261641
155.17957 -48.758152 -5.8969455 10261900
155.25348 -49.017555 -5.1526732 9998217
131.9212 -49.122509 94.624779 8092019
131.64172 -48.664917 95.206703 9341314
131.02428 -48.562763 95.986763 8682611
155.10463 -47.644238 -7.7622142 9209467
155.24643 -47.885391 -7.0211234 9867140
155.40546 -48.005527 -6.1305079 10130313
131.76015 -47.788933 95.555397 9537664
131.18929 -47.705357 96.270386 10458510
130.6835 -47.691063 96.870705 8682867
155.39682 -46.691795 -8.0445766 10656398
155.62436 -46.864372 -7.0922923 9604225
155.67958 -47.168751 -6.2916064 10459278
131.56458 -46.803265 96.352226 10853012
130.98647 -46.710003 97.096527 9603457
130.49008 -46.438473 97.869621 12037284
155.61325 -45.532536 -9.663599 10985105
155.68005 -45.835861 -8.9165993 13222579
155.77216 -46.108509 -8.1706352 12630956
131.22801 -45.964825 97.522408 11708832
130.94785 -45.654743 98.215263 13747900
130.43581 -45.452095 98.981522 13484472
156.18571 -44.492973 -11.959415 11248536
156.29198 -44.602627 -10.835405 7762020
155.89394 -44.995693 -10.056591 6709589
156.15656 -45.124039 -9.1944695 9736836
130.85509 -44.856236 99.21888 12826543
130.39587 -44.626637 100.01347 12431785
130.0838 -44.350227 101.12622 11511709
129.6754 -44.201668 102.06838 8880503
158.75873 -43.451694 -23.341539 12761770
158.99544 -43.697258 -22.59594 12301219
159.22113 -43.941143 -21.847872 11511447
158.20898 -44.05143 -20.745935 9011060
158.32726 -44.049564 -19.795591 9405822
158.44017 -44.047703 -18.844604 9405822
157.15002 -44.045685 -16.595076 8419696
157.22498 -44.044231 -15.839945 7169885
157.33099 -44.042057 -14.706692 7038307
156.78139 -44.144905 -13.772032 7827821
156.71332 -44.241104 -12.755463 9077885
156.90398 -44.277035 -12.012333 11906725
130.27216 -43.964478 102.54189 9341054
129.70334 -43.940475 103.10925 10591121
129.13394 -43.916908 103.6752 10591121
129.29207 -43.871063 105.87424 8091761
128.5201 -43.870594 106.80265 7170658
128.24692 -43.865776 109.75594 8617079
127.58087 -43.865429 110.52377 10327178
127.76002 -43.51088 111.92901 10129800
127.20152 -43.374016 112.45426 9866885
158.89313 -42.860126 -23.556784 12103840
159.23834 -42.959595 -22.709162 12235426
127.93268 -42.648239 112.19055 8616307
127.30122 -42.619183 112.7256 9866886
159.04698 -41.589783 -24.297184 7564650
159.23544 -41.945103 -23.607992 12235432
159.34859 -42.322559 -23.038076 12761770
127.59612 -41.734165 112.89674 9472128
127.09692 -41.491123 113.42281 9603713
159.24876 -40.832443 -24.511267 8486007
159.56531 -40.993004 -23.723156 10262416
127.15746 -40.628906 113.77686 8682867
126.59299 -40.516838 114.29545 8682867
159.26918 -39.584229 -25.508968 11314589
159.52338 -39.946541 -24.681767 9670280
159.75142 -40.340637 -23.882164 8092019
127.32507 -39.786125 114.03334 8682867
126.76237 -39.652901 114.56034 9998212
159.32701 -38.642849 -26.173841 9537665
159.58932 -38.885468 -25.429504 9011577
159.8517 -39.129307 -24.684023 8090987
127.03849 -38.719349 114.76975 11050642
126.40454 -38.539665 115.37746 9077625
159.57674 -37.78426 -26.373062 9932423
159.88182 -37.967823 -25.589458 9932167
127.31445 -37.846779 114.95079 8089963
126.73281 -37.617397 115.53851 9011063
126.15104 -37.388977 116.12589 8682867
159.80739 -36.881538 -26.648457 9603458
160.14372 -36.928394 -25.91424 10261132
126.90254 -36.643223 115.8548 9142649
126.29153 -36.562675 116.39703 8946039
159.86984 -35.823772 -27.400686 10590607
160.1739 -36.016609 -26.611551 9275263
126.57785 -35.621334 116.60172 9275004
126.00775 -35.513618 117.12292 8682867
159.85298 -34.858562 -28.239645 8682867
160.19077 -34.901443 -27.505873 10261899
126.70784 -34.703026 116.92465 8682867
126.0674 -34.68293 117.46289 9867141
160.01759 -33.46172 -29.063469 10261641
160.18468 -33.828625 -28.412251 9538175
160.39442 -34.115223 -27.739983 9801605
126.39516 -33.710285 117.64803 10722450
125.80815 -33.529087 118.21758 11906724
160.20032 -32.808636 -29.229776 9866373
160.52409 -32.954399 -28.439123 10129545
126.4567 -32.608524 118.1136 11906724
125.81377 -32.590508 118.6528 10985878
160.22581 -31.463789 -30.297596 9144448
160.46169 -31.84329 -29.493967 9932166
160.76935 -32.029736 -28.702612 10129545
126.19394 -31.76512 118.72584 9735811
125.55009 -31.747969 119.26535 9209467
160.47699 -30.783194 -30.345531 9933193
160.74615 -31.014055 -29.596785 9011576
126.25243 -30.92959 119.06916 10262155
125.69891 -30.760506 119.62429 9472639
125.33128 -30.287819 120.2138 8090991
160.79185 -29.760628 -31.377558 10261643
160.8661 -30.171331 -30.499046 10195851
126.02918 -29.907259 120.01353 9209467
125.53725 -29.73731 120.5875 8288625
125.33549 -29.318106 121.38697 8682867
162.02155 -28.795166 -37.12825 10590860
162.17403 -28.933979 -36.262604 8551025
162.20033 -29.071203 -35.32972 11511193
161.16089 -29.230862 -33.086834 8353647
161.44266 -29.2519 -32.337193 8089963
125.09769 -29.039789 122.43207 10459534
125.00583 -28.84646 123.43079 9998983
124.40729 -28.846313 124.02964 7498597
123.90453 -28.839329 128.39958 10130313
123.28214 -28.839226 128.99306 9406590
123.16833 -28.683472 131.71397 11905701
122.76312 -28.404087 132.04362 11116697
162.15503 -27.691423 -37.980515 12433061
162.37445 -27.907396 -37.20982 10985617
162.59363 -28.124218 -36.438782 9538174
122.96004 -27.626144 132.25688 9867142
122.31809 -27.337791 132.71608 10985111
162.3367 -26.849421 -38.352982 12433061
162.65724 -26.908123 -37.481239 11445912
123.01724 -26.928587 132.5116 9209467
122.50895 -26.580256 132.92426 10261900
162.47281 -25.800537 -39.045937 8221804
162.75851 -25.947685 -38.175026 10129798
122.69167 -25.65658 133.20459 11643041
122.07527 -25.140839 133.74324 12433069
169.15291 -24.601944 -68.480034 12433069
168.98297 -24.529713 -67.470604 9670022
168.81049 -24.457941 -66.465652 7235941
162.71213 -24.877455 -39.352356 9997958
163.02971 -24.961128 -38.463417 9143161
122.77592 -24.727482 133.53955 10788247
122.26563 -24.379976 133.95296 9011839
168.63548 -24.386684 -65.465202 9538438
168.45807 -24.315887 -64.469154 11512225
168.27821 -24.245605 -63.477531 9537922
168.06418 -24.171209 -62.478649 11182489
167.82921 -24.094791 -61.47776 10261387
167.59207 -24.018837 -60.481796 5920074
167.35292 -23.943443 -59.490921 6708566
167.1118 -23.868517 -58.504913 10853012
166.86864 -23.794193 -57.523857 11379095
166.62358 -23.720337 -56.54771 8089963
166.37648 -23.646992 -55.576385 7695205
166.12755 -23.574205 -54.609924 8089963
165.87669 -23.501884 -53.64827 6182734
165.62386 -23.430021 -52.691433 9406847
162.92891 -23.59804 -41.065414 7169117
163.01001 -23.892391 -40.135799 9274237
163.08324 -24.154705 -39.304527 10590095
122.45636 -23.617632 134.1633 7893615
165.43315 -23.376495 -51.976738 10262156
163.4458 -22.383362 -43.70747 6511954
163.49399 -22.5065 -43.020523 8025449
163.52814 -22.691206 -42.121563 6840919
163.39056 -23.029215 -41.181404 7366495
163.53784 -23.126926 -40.384441 8287597
122.52467 -22.81299 134.4563 7367272
122.0332 -22.650293 134.78395 7169893
164.01735 -22.034756 -43.859177 6511954
164.14052 -22.029305 -43.259628 6511954
122.15526 -21.625698 135.13844 8025199
122.42785 -20.529337 135.44229 7038307
121.83209 -20.51227 135.76576 7038307
122.0497 -19.633429 136.00987 7893614
122.18311 -18.824123 136.27014 7697005
122.23221 -18.085022 136.54663 9538694
144.02235 -65.397179 43.924469 10984852
143.91307 -65.444496 44.649124 9011832
143.69025 -65.491669 45.719013 9406333
143.45895 -65.487534 46.40609 11906725
144.77325 -64.442726 40.750034 9998212
144.56674 -64.604538 41.914185 8550256
144.38544 -64.758858 42.899029 11445143
144.28473 -64.703239 43.853027 11379353
144.18048 -64.683235 44.732315 9077372
143.95479 -64.728767 45.803391 8682868
143.60498 -64.722313 46.83522 8485745
143.31244 -64.718948 47.694637 9538433
143.08452 -64.526939 48.576027 10788243
142.79352 -64.432426 49.532669 10788244
142.50127 -64.340149 50.489319 9735556
145.45892 -63.535568 37.938774 7564134
145.23914 -63.743954 39.077492 8485749
145.14009 -63.713039 39.950764 11708315
145.04016 -63.684067 40.825359 10064261
144.88071 -63.745174 41.911041 9932163
144.71962 -63.809124 42.998577 11182230
144.61635 -63.786289 43.878071 8616822
144.51454 -63.732067 44.836258 9011579
144.28424 -63.77512 45.908516 10459278
143.93323 -63.768578 46.942604 9077882
143.63994 -63.765205 47.803951 10262156
143.34599 -63.764019 48.665047 10525071
142.99202 -63.764961 49.698013 8419439
142.63689 -63.768738 50.730679 9209212
142.34018 -63.774017 51.591125 9801605
142.10727 -63.590633 52.47551 9209467
141.8687 -63.597874 53.164131 10854036
146.23674 -62.62418 34.408783 8092011
146.17894 -62.504501 35.212334 5985875
146.00851 -62.689838 36.026714 5525323
145.88049 -62.729099 36.926929 6510930
145.72583 -62.778851 38.008518 8682612
145.56984 -62.831505 39.09166 9077627
145.47083 -62.799885 39.966709 11050642
145.37369 -62.736244 40.919456 11905694
145.21426 -62.796555 42.007763 10459789
145.05087 -62.893467 43.02124 9012089
144.94777 -62.869999 43.902718 7038307
144.71494 -63.161625 44.89859 8485492
144.48155 -63.203079 45.971481 9867141
144.21289 -63.07003 46.906269 8880246
143.97182 -62.921379 47.777473 10262156
143.67227 -62.810738 48.776169 8419183
143.31737 -62.811592 49.81142 7761253
143.02083 -62.814415 50.673965 9998728
142.7236 -62.819351 51.536423 11840415
142.36591 -62.827774 52.571304 9867396
142.00714 -62.839085 53.606194 11314585
141.70732 -62.85059 54.468628 11249048
141.47093 -62.673374 55.356476 11117718
141.17303 -62.501369 56.418022 10723217
140.93097 -62.515411 57.109055 9734787
147.20894 -61.356361 30.369112 7037274
147.11075 -61.37698 31.086956 7037274
146.9205 -61.593021 31.970364 12104105
146.715 -61.771736 33.08197 8946811
146.55421 -61.856037 34.111961 8092011
146.44803 -61.787693 35.149597 7696998
146.34224 -61.745472 36.109196 7300960
146.21417 -61.784237 37.011543 7432288
146.10284 -61.693619 38.154003 8682355
145.95979 -61.741199 39.149513 8222060
145.77231 -61.930737 40.087421 9866627
145.62027 -62.068188 40.894474 10919313
145.41425 -62.227581 42.065758 11249562
143.57755 -62.049221 49.902092 9142906
143.30388 -61.925209 50.839291 12299940
143.04747 -61.866318 51.65374 10130311
142.7536 -61.684044 52.714951 10261897
142.39394 -61.695107 53.752693 11380122
142.09337 -61.706444 54.617538 10261898
141.79199 -61.719807 55.482552 13616825
141.42931 -61.738365 56.520782 10064776
141.06465 -61.806458 57.509491 8747892
140.84444 -61.649673 58.327339 9931910
140.51988 -61.610699 59.318298 10195338
140.21608 -61.448521 60.3862 7958632
147.74594 -60.54052 28.264753 6775130
147.7213 -60.609001 29.287235 8419700
147.59062 -60.635094 30.263466 8155754
147.46223 -60.658112 31.161694 7037274
147.33261 -60.683033 32.060505 10195334
147.1757 -60.715244 33.139862 14012095
147.01707 -60.750038 34.220139 9736578
146.74858 -60.959187 35.275162 7697253
146.61574 -60.993111 36.17683 6380369
146.48224 -61.029255 37.079548 9406334
146.37781 -61.060635 37.803066 7958632
142.71181 -60.930729 53.676979 10393229
142.41089 -60.941631 54.543495 9274748
142.10367 -60.817585 55.683975 11183255
141.78171 -60.798599 56.662266 9471871
141.52917 -60.712761 57.590668 10063752
141.27699 -60.661362 58.441071 10063752
140.90488 -60.684803 59.481655 8353134
140.52026 -60.752911 60.467651 8484976
140.2751 -60.682846 61.328987 7432032
139.97691 -60.624126 62.156296 8551284
139.61385 -60.36132 63.137547 11709089
148.81613 -59.344101 23.493721 8090987
148.76627 -59.369915 24.21944 7038298
148.68817 -59.409809 25.308729 9143162
148.43449 -59.597542 26.367943 7827046
148.26637 -59.80941 27.258102 6511698
148.25464 -59.871601 28.178518 6775126
148.23181 -59.934464 29.135695 6775130
148.07477 -59.969345 30.363829 7037274
147.94327 -59.990997 31.264502 7037274
141.23192 -60.012684 60.021927 8484976
141.04297 -60.025089 60.543457 9208699
140.72693 -60.047081 61.412788 9932678
140.41449 -59.886539 62.486927 9866630
139.96178 -59.804272 63.431519 10458767
139.75095 -59.586445 64.216362 8813942
139.35603 -59.467556 65.17556 9275262
138.95509 -59.338688 66.296661 8354161
153.659 -58.356503 3.0310845 7565675
153.73518 -58.607826 3.7722478 9670535
153.78058 -58.780704 4.8823934 9736071
153.0294 -59.012394 5.7764993 9012606
152.98836 -59.010826 6.6950765 11840933
152.93198 -59.008961 7.7969384 8880509
152.86777 -59.007099 8.8984814 8089963
152.8083 -59.005562 9.8160286 7564642
152.75662 -59.004341 10.549824 5920074
151.52608 -59.003784 11.924269 7499106
151.46426 -59.002586 12.65185 8089963
151.38185 -59.001099 13.560825 9734784
151.276 -58.999325 14.650976 9734784
151.16231 -58.997566 15.740295 6578002
151.06166 -58.996113 16.647448 5920074
150.95526 -58.994667 17.55398 7038307
150.8206 -58.992943 18.640903 7564651
150.72672 -58.991802 19.365007 7564651
149.61824 -59.044941 20.316071 9209727
149.55705 -59.079838 21.40708 7893608
149.49146 -59.116169 22.498837 9998984
149.43347 -59.147507 23.409233 8090987
149.37193 -59.179749 24.320194 6511954
149.3073 -59.212864 25.231604 6511954
139.69139 -59.145508 66.238686 9538947
139.16945 -59.12925 67.225418 9012089
138.78912 -59.06633 68.281914 9012094
138.61571 -58.994144 69.110939 7564651
138.38383 -58.920532 70.164642 11247768
137.86963 -58.919556 71.159409 11247506
137.5231 -58.918911 71.820679 9340022
138.11191 -58.915577 73.194405 9932159
137.66556 -58.914791 74.021889 9997699
137.12354 -58.91386 75.011436 9143162
136.66656 -58.913101 75.833061 8682867
137.23059 -58.909748 77.234978 10853012
136.85435 -58.909161 77.892921 9603457
136.28436 -58.908283 78.876442 9406078
135.8042 -58.90757 79.693077 9406078
135.94923 -58.903648 81.775917 8089963
135.35123 -58.902828 82.752846 10984848
134.84773 -58.902168 83.563789 9800320
135.36296 -58.898792 85.020355 8418928
134.9921 -58.692963 85.696342 8879479
134.31725 -58.608292 86.54287 10261132
153.79405 -57.538208 2.2938523 9340801
153.87111 -57.787327 3.0352063 9340801
154.05545 -57.863441 3.9650598 8881277
154.09499 -58.100189 4.5221581 10262414
135.05403 -57.959087 86.040657 9603202
134.55746 -57.657398 86.790169 10129546
133.98781 -57.54071 87.522514 9800324
153.9944 -56.315666 1.1858087 8814715
154.02904 -56.707375 1.9730897 8617592
154.2247 -56.838593 3.0418134 9341057
154.30206 -57.088284 3.7855458 8618105
134.92168 -56.74128 86.87294 10195338
134.36313 -56.639175 87.584122 9143162
133.80458 -56.538597 88.294456 8813944
154.15982 -55.687954 0.89041752 8814715
154.35468 -55.803658 1.9306073 8814715
154.50504 -55.93359 2.7992063 9209728
134.54057 -55.778893 87.854591 9603457
133.91794 -55.608578 88.678757 9931909
133.42101 -55.580807 89.276306 11378324
154.43152 -54.499096 0.14915699 9208958
154.5199 -54.787369 1.0037942 8025201
154.60768 -55.077873 1.8590798 8025201
134.65486 -54.847862 88.238449 9011576
134.34108 -54.629051 88.72773 8682867
133.69287 -54.679401 89.459122 9405823
133.27953 -54.371536 90.11451 8813686
154.53047 -53.652485 -0.79207188 8683128
154.68317 -53.775066 0.074806631 8814715
154.8356 -53.899311 0.94319767 7564651
134.39565 -54.030014 88.996864 7367263
134.01578 -53.608551 89.67627 7892840
133.39302 -53.656677 90.379105 8353135
154.72493 -52.516521 -1.7852607 9406851
154.80675 -52.754009 -1.0418162 8354677
155.00711 -52.873169 0.027977407 8157555
155.045 -53.259209 0.81998485 7564651
134.12865 -52.812767 89.986504 8353647
133.62762 -52.730484 90.619247 9800580
133.12399 -52.523643 91.324257 9800321
154.92171 -51.525642 -2.5327735 10064267
154.96632 -51.749283 -1.9746108 9406851
155.15686 -51.808895 -1.0445743 10064267
155.23894 -52.046898 -0.29888684 7565675
133.89142 -51.699463 90.883606 11313558
133.35898 -51.68898 91.513184 9274235
132.85529 -51.552425 92.179131 8089963
155.11005 -50.32655 -3.6551929 7565675
155.15117 -50.703655 -2.8632407 8879992
155.35402 -50.816345 -1.7931685 9932166
155.36696 -51.241524 -1.0463557 10064267
133.53114 -50.849262 91.778618 8089963
133.03517 -50.704094 92.440285 8879477
132.58188 -50.476376 93.097847 9011834
155.28044 -49.749897 -3.8460727 8880507
155.47296 -49.804008 -2.9162211 11576473
155.62958 -49.919064 -2.046268 12037024
133.40909 -49.692219 92.565361 9932163
132.69041 -49.709026 93.397583 8946297
155.53937 -48.471973 -4.7882514 10196107
155.5824 -48.845715 -3.9941993 9998217
155.75034 -48.978455 -3.0467219 12037024
133.36676 -48.976761 93.013069 10984849
132.93753 -48.810253 93.608292 9669761
132.41252 -48.60807 94.33564 8881020
155.62439 -47.70306 -5.6649146 9735812
155.78339 -47.81181 -4.7960486 10261899
155.97844 -47.862488 -3.8642631 10919572
133.27774 -47.841125 93.749161 9011831
132.70694 -47.753956 94.466103 9143417
132.13596 -47.668121 95.182487 7827558
155.92467 -46.412392 -6.8645091 10261641
155.94997 -46.773296 -5.8803363 10393485
156.11813 -46.916737 -4.8537536 10261899
156.14923 -47.285675 -4.0565162 10459278
132.87764 -47.001396 94.684929 7827815
132.37885 -46.749897 95.43898 7761765
132.00543 -46.4771 96.058601 8287853
156.33257 -45.637135 -7.6974196 9736836
156.45039 -45.779659 -6.7458205 9933446
156.40675 -46.12114 -5.7560611 10459278
132.7747 -45.883202 95.807808 8551281
132.30193 -45.748123 96.520164 8485232
131.89127 -45.511402 97.279442 9669762
131.41571 -45.239418 98.156174 11972003
157.23441 -44.341419 -10.708284 8682867
157.01558 -44.514336 -9.8232956 10920341
156.72258 -44.857662 -8.6598282 9736836
156.6998 -45.083908 -7.935041 9736836
132.27144 -44.89323 97.561821 9209467
131.89415 -44.679474 98.367226 11446172
131.42044 -44.553951 99.301636 12431785
131.36824 -44.277538 100.3625 12103071
130.80478 -44.251617 100.93302 13023917
159.48625 -43.740826 -21.415903 10788495
159.82587 -43.881588 -20.445757 10197129
158.50516 -44.046593 -18.273619 9340286
158.58823 -44.045113 -17.512011 9340286
158.68736 -44.043274 -16.559465 7959401
158.76242 -44.041805 -15.797033 8090471
157.42923 -44.039894 -13.572735 7038307
157.49428 -44.039749 -12.816723 9077886
157.45279 -44.168476 -11.596594 10130313
131.26569 -44.008133 101.54452 13023917
130.69823 -43.982986 102.1151 10524555
130.56375 -43.871887 104.31462 8814971
129.93044 -43.871471 105.09647 7565163
130.08772 -43.866814 107.58542 11183516
129.56535 -43.866505 108.20852 11183516
128.90863 -43.866131 108.98435 9143422
129.22957 -43.750168 110.60344 9143422
128.8127 -43.521175 111.05492 9735300
128.39545 -43.292843 111.50653 11905692
159.64949 -42.508656 -22.168211 11050896
159.80338 -42.859814 -21.48834 11972768
159.9572 -43.246815 -20.775591 16248798
129.03943 -42.701534 111.25178 8617079
128.40675 -42.67075 111.78857 7893615
159.63579 -41.550293 -23.080093 13024949
159.81142 -41.871193 -22.37743 9933707
160.16368 -41.841187 -21.586672 10262922
129.05118 -42.07859 111.53382 9011579
128.67503 -41.697002 112.0233 7630187
128.18317 -41.345535 112.5942 8090736
159.89189 -40.690479 -23.274694 10394001
160.16043 -40.873043 -22.483242 9736329
128.8999 -40.685276 112.31171 8419957
128.17789 -40.583736 112.95545 8551283
159.9579 -39.554726 -24.110056 8092019
160.20554 -39.797615 -23.360041 9736329
160.36185 -40.026375 -22.792953 9736329
128.45511 -39.805878 113.091 11313819
127.89162 -39.671066 113.61942 9143161
160.20349 -38.723232 -24.295301 11183258
160.4939 -38.920708 -23.50153 12565425
128.62779 -38.939304 113.35442 12432045
128.04695 -38.707264 113.94278 9932419
127.52168 -38.270519 114.58109 10129798
160.19083 -37.750679 -25.131748 8814198
160.5275 -37.800461 -24.394384 11117208
128.41489 -37.750633 114.08721 10787731
127.76395 -37.614239 114.68858 9274748
160.55045 -36.730858 -25.238117 9866374
160.73788 -37.081329 -24.558697 9208443
128.49557 -37.059155 114.34457 9932678
127.96826 -36.622219 114.98472 9274749
127.38459 -36.39267 115.57423 8089963
160.4669 -35.873085 -26.12562 8946556
160.86809 -35.846497 -25.318531 10328208
128.24789 -35.589699 115.23763 9011320
127.60714 -35.567028 115.77728 9274749
160.77089 -34.773003 -26.41378 7565418
161.03763 -35.012077 -25.663305 11906725
127.83009 -34.740135 115.98074 9801349
127.18855 -34.718586 116.52046 9735555
160.79759 -33.826729 -27.147047 8091761
161.166 -33.873177 -26.346966 8618105
127.99747 -34.119137 116.13364 9735555
127.4662 -33.683765 116.77625 9735555
126.87888 -33.456558 117.36758 8682867
160.88696 -32.550602 -28.025549 9011576
161.15556 -32.785751 -27.274584 8748918
161.35135 -33.21706 -26.510468 8618105
127.58321 -32.641937 117.16796 9209211
126.93932 -32.622581 117.70858 8682867
161.15674 -31.728765 -28.152802 10064008
161.36014 -31.996264 -27.509377 10919829
127.32317 -31.639683 117.85239 10722450
126.73226 -31.570528 118.37258 11380636
161.19907 -30.680996 -29.040058 9932422
161.49553 -30.851357 -28.246941 10129801
127.43786 -30.752073 118.1737 11577760
126.8988 -30.600811 118.72036 11906980
126.45438 -30.314047 119.2607 11380636
161.44756 -29.697798 -30.126913 10393229
161.5302 -30.001461 -29.419941 10985366
127.15486 -29.934036 119.05779 12169896
126.73912 -29.685184 119.64678 9209467
126.55265 -29.251797 120.51537 8749690
126.02436 -29.153603 121.1764 8092019
162.85966 -28.746586 -34.994492 8221548
162.44681 -29.06875 -34.159901 9537406
162.64557 -29.066717 -33.18354 10261645
161.6535 -29.26803 -31.773998 8089963
161.93356 -29.289902 -31.021687 8747893
162.21298 -29.312202 -30.267965 10064265
126.53288 -28.856533 121.96333 9736329
125.90343 -28.847881 122.53246 9998983
125.4479 -28.839626 126.90279 8025711
124.83276 -28.839499 127.50375 10064522
124.36958 -28.839411 127.95263 9143936
124.01001 -28.501631 131.34076 10393227
162.87207 -27.88032 -35.973492 11247765
163.15158 -27.958221 -35.228642 8550512
124.14154 -27.675615 131.60846 9801089
123.49803 -27.385939 132.06897 9209467
162.87567 -26.92083 -36.914154 11248533
163.16714 -26.938477 -36.156929 10984850
163.39668 -27.157774 -35.385044 9537406
124.39787 -26.984924 131.75441 10590347
123.75345 -26.695406 132.2155 9011831
163.08319 -25.507111 -37.787025 13023917
163.23273 -25.922939 -36.995884 10787471
163.4782 -26.209332 -36.089325 9866371
123.81075 -25.707064 132.58897 9932935
123.25889 -25.184282 133.09616 12433069
163.27254 -24.837713 -37.969276 10590348
163.54692 -24.961096 -37.150627 10919057
124.16113 -24.778261 132.78267 10656657
123.51421 -24.490467 133.24411 11446175
163.49722 -23.778095 -38.989075 10722192
163.71013 -23.966719 -37.985188 9669761
163.80568 -24.321138 -37.127293 10129798
123.55428 -23.699532 133.54652 12433069
164.00797 -22.386541 -41.755005 6510930
164.12704 -22.480398 -40.947281 8682612
164.00429 -22.821955 -40.012245 9735300
164.07904 -23.01437 -39.127365 10130570
123.86581 -22.783981 133.75571 9998732
123.26994 -22.76409 134.0804 8748923
164.26329 -22.024052 -42.660179 6511954
164.43861 -22.019144 -41.864037 9472384
164.6539 -22.01985 -41.078072 11906725
123.31518 -21.787897 134.45589 7235686
123.05876 -21.211613 134.8279 7038307
123.62248 -20.564411 134.79337 8090736
123.02475 -20.546747 135.11815 7038307
123.04549 -19.660862 135.46962 7038307
123.26561 -18.778522 135.71384 7038302
122.75131 -18.690895 136.02286 7762283
123.43112 -18.115343 135.89726 7038298
122.85551 -17.655291 136.39133 8157039
122.45088 -17.200155 136.79253 10985369
123.01595 -16.543947 136.76086 8287853
122.6153 -16.534826 136.97745 11708579
122.97493 -15.725803 137.15919 10195594
145.2804 -62.279636 42.975437 8092011
145.14551 -62.333866 43.886597 7367525
144.91522 -62.591385 44.960907 8222319
144.67888 -62.631313 46.034409 9867141
144.42699 -62.562435 46.848087 9406590
144.21587 -62.431984 47.611282 10722450
145.99855 -61.353683 39.960983 10261132
145.77641 -61.565437 41.108746 8419695
145.6142 -61.658821 42.123779 10394766
145.48032 -61.710403 43.034721 9539457
145.34546 -61.764229 43.947197 7894377
145.22542 -61.691605 45.105354 9406590
145.00748 -61.67865 46.139244 9472383
144.71335 -61.672989 47.005322 9472383
144.41829 -61.669296 47.870945 12761517
144.06342 -61.667301 48.90934 8682355
143.77255 -61.477631 49.970116 10985108
143.51659 -61.416611 50.785439 13022893
143.24168 -61.294662 51.724098 9472382
147.07332 -60.444088 35.353928 7368032
146.93475 -60.475487 36.256233 5920074
146.79471 -60.508736 37.159294 6577748
146.52165 -60.689114 38.291981 7037786
146.43758 -60.659912 39.174538 6972505
146.35065 -60.631866 40.057953 8287853
146.18097 -60.682941 41.147545 8814455
146.00954 -60.736671 42.238693 9802629
145.8653 -60.783367 43.149082 12368556
145.71979 -60.832077 44.060844 10460303
145.55824 -60.880947 45.007477 10064777
145.32445 -60.830379 46.240463 9406590
145.14157 -60.704762 47.029175 9603712
144.7892 -60.735291 47.994415 11379865
144.43369 -60.733463 49.035591 9275004
144.13623 -60.733799 49.90287 10656400
143.83777 -60.736015 50.769867 11313046
143.47833 -60.740997 51.810005 9011575
143.18886 -60.621887 52.925518 9406590
143.03966 -60.415504 53.801247 9208699
142.73457 -60.424862 54.668373 9603713
142.45726 -60.353321 55.645733 10722194
142.17822 -60.283768 56.623466 10524559
141.93068 -60.295361 57.317593 11379868
149.12444 -59.303703 27.604038 10327433
149.04868 -59.340378 28.517595 9406331
148.75026 -59.468967 29.461853 7037786
148.54549 -59.510971 30.461653 8221547
148.37238 -59.531212 31.54277 8879475
148.04776 -59.748783 32.324623 10721677
147.93436 -59.72776 33.312634 10392970
147.75903 -59.755577 34.394669 8683635
147.61087 -59.780369 35.296799 8617328
147.46107 -59.80682 36.199406 6314832
147.2887 -59.844387 37.28561 8288107
146.99422 -60.052258 38.341209 9537408
146.90146 -60.030865 39.198845 9406078
146.82892 -59.960678 40.190117 7761509
146.68277 -60.000725 41.099625 7038307
144.78395 -60.225998 49.155548 8682867
144.48601 -60.226395 50.024967 8682867
144.21671 -60.144897 51.002483 10129542
143.94576 -60.065338 51.980221 9143161
143.70358 -60.014599 52.806286 10063746
143.5305 -59.776588 53.869194 8616562
143.21231 -59.753376 54.852882 9011320
142.84404 -59.766918 55.897011 9471616
142.53564 -59.779934 56.767014 9603201
142.39879 -59.648621 57.707737 11511454
142.01775 -59.665524 58.750031 10590353
141.6982 -59.681149 59.618309 9011065
141.51176 -59.536957 60.54464 10195850
141.11842 -59.557411 61.585068 11314332
140.91684 -59.411697 62.509151 13682880
140.58072 -59.397987 63.170979 12761778
154.09978 -58.544369 5.2641644 9012606
154.16888 -58.797825 6.0089517 10393745
154.29674 -58.790005 7.066277 11841190
154.05511 -59.006805 8.0439835 8551544
154.00041 -59.005249 8.9686489 8879993
153.94048 -59.0037 9.893034 7235422
152.71558 -59.003433 11.099932 5920074
152.65744 -59.00222 11.833162 6644053
152.56401 -59.000408 12.932543 8092011
152.4803 -58.998913 13.848185 9340027
152.39069 -58.997425 14.763235 7695460
152.27612 -58.995655 15.860664 6972503
152.15359 -58.993896 16.957197 6578002
152.0457 -58.992443 17.870312 7367264
151.9783 -58.991573 18.417862 7367264
150.65369 -58.990952 19.907757 10065038
150.55348 -58.989822 20.631054 12630962
150.42313 -58.988419 21.534389 9012345
150.25966 -58.986748 22.617405 15789280
150.08844 -58.985088 23.699226 10393483
149.96768 -58.994465 24.604477 6511954
149.74391 -59.079346 25.584633 7498849
149.51619 -59.165298 26.563894 6511442
149.73416 -59.112366 27.719194 13221810
141.84541 -59.205105 61.905632 10985110
141.56126 -59.212009 62.594124 14604238
141.06528 -59.195721 63.595406 14604238
140.69582 -59.125679 64.654922 10327949
140.51666 -59.041878 65.476089 10855060
140.25816 -58.945385 66.510155 9143934
139.73392 -58.929134 67.500847 9999241
139.39085 -58.922543 68.164177 10788247
140.01575 -58.919186 69.521675 10788247
139.59146 -58.918339 70.360741 9143681
139.07584 -58.917347 71.364273 9274231
138.55298 -58.91637 72.364044 8484713
138.79312 -58.912361 74.418655 10655371
138.33934 -58.911575 75.250191 10261129
137.7885 -58.910652 76.24453 9406078
137.41745 -58.910049 76.905418 10853012
137.89151 -58.906517 78.488899 7564651
137.50917 -58.90593 79.149895 9866373
136.9301 -58.90506 80.138161 9406078
136.44228 -58.90435 80.958656 9011574
136.9855 -58.900955 82.405075 9340027
136.58426 -58.900406 83.061615 8484720
136.23798 -58.683582 84.054115 9208437
135.74101 -58.637375 84.803635 8747887
154.30704 -57.456181 4.404429 9144448
154.34752 -57.767315 5.0866799 8749947
154.53166 -57.847839 6.0228219 8683898
154.60741 -58.104271 6.7704015 9538438
136.47717 -57.99342 84.354355 9208435
136.04294 -57.759289 84.99324 8945520
135.42293 -57.580925 85.818779 8879479
154.54688 -56.706993 4.2375913 9539205
154.74016 -56.831841 5.2855954 8683898
154.81689 -57.085812 6.0335679 7565675
136.16249 -56.824745 85.37281 8550763
135.64108 -56.761913 86.018646 9011062
135.29182 -56.496689 86.575294 10392461
154.722 -55.641529 3.2742963 9341315
154.87257 -55.788677 4.1717324 8354934
154.95149 -56.113293 5.0438218 10985879
136.0325 -55.873802 86.053925 10524814
135.40958 -55.698593 86.881119 9932166
134.90947 -55.399017 87.633636 9932166
154.85126 -54.62175 2.1844373 8354165
154.96165 -54.828224 3.0024457 8946301
155.1899 -54.823505 3.9931779 7564651
135.71207 -54.710796 87.076164 8814197
135.08865 -54.672512 87.82769 8748661
134.77478 -54.453041 88.317513 8288365
155.03621 -53.684563 1.4723115 8156787
155.20575 -53.745945 2.3136125 9143680
155.3582 -53.888969 3.2124181 7959408
155.36514 -54.238712 3.8105588 7564651
135.89359 -54.117924 87.193314 7037274
135.46829 -53.739998 87.901688 7630435
134.8111 -53.601582 88.748367 7235677
155.25049 -52.475857 0.44755024 12433069
155.30156 -52.798389 1.1945901 10920345
155.52992 -52.829926 2.2432675 9867656
135.56563 -52.689934 88.371956 9209467
135.06453 -52.661968 88.974358 7235677
134.50002 -52.564724 89.689461 7367263
155.47746 -51.700527 0.1810841 8683898
155.68474 -51.769741 1.1971459 10065037
155.69572 -52.201416 1.9458928 9144449
135.36797 -51.942184 89.019447 8551537
134.8622 -51.647675 89.775658 9406334
134.28355 -51.538258 90.514114 11181976
155.62418 -50.779213 -0.67411572 9209471
155.82298 -50.822273 0.26164097 8091762
155.92923 -50.998817 1.0112405 10788759
135.0986 -50.696854 90.027908 9866373
134.40611 -50.622738 90.880051 9537151
133.96216 -50.401794 91.522827 8089963
155.83263 -49.699429 -1.5183406 9734529
156.00642 -49.751972 -0.67615467 9537152
156.09241 -50.060539 0.19891018 8748663
135.08823 -50.054375 90.397636 9537408
134.82916 -49.640842 90.931007 7695461
134.19881 -49.611965 91.685196 8484977
133.8125 -49.194923 92.369598 9537918
155.96815 -48.622234 -2.6761489 11050131
156.0636 -48.875839 -1.849031 10852751
156.2836 -48.852921 -0.92830998 8616307
134.94084 -48.844196 91.243492 7695461
134.49477 -48.623917 91.888435 8617074
133.79906 -48.554501 92.741791 8090987
156.16554 -47.704681 -3.3057361 10261386
156.32939 -47.697186 -2.6042972 10064007
156.44365 -47.920471 -1.7443004 11905437
156.49246 -48.214024 -1.0551906 8616307
134.54588 -48.025269 92.161697 8551280
134.26743 -47.56316 92.744881 8880245
133.70001 -47.510715 93.438545 8617330
156.3924 -46.522285 -4.439239 10064777
156.41962 -46.823593 -3.687469 10261898
156.64714 -46.836014 -2.6383204 10459277
134.39777 -46.686409 93.095116 9998212
133.76813 -46.68272 93.843376 9801347
133.26712 -46.515659 94.544685 9472640
156.83206 -45.413475 -6.3372207 10459278
156.84337 -45.617287 -5.5828414 10591121
156.8363 -45.87558 -4.7203555 10196363
156.89398 -46.076153 -3.773746 9933191
156.94429 -46.252987 -2.9449687 9735812
134.25475 -46.051769 93.876732 10261899
133.78542 -45.773899 94.753143 10525071
133.37724 -45.534126 95.5131 8946296
132.93604 -45.27713 96.3321 8156524
157.56053 -44.407589 -9.3998909 9736836
157.74356 -44.44598 -8.6500969 9736836
157.50485 -44.614422 -7.576179 10065288
157.16142 -44.92469 -6.6524959 9011832
157.33797 -44.962986 -5.675632 10459278
157.39014 -45.136971 -4.8445926 10459278
133.71135 -44.812302 95.998528 8748917
133.19173 -44.775391 96.665672 8091502
132.96187 -44.499149 97.58007 9932934
132.91478 -44.312511 98.536476 11577759
132.28952 -44.303226 99.312401 13551549
160.11147 -43.686928 -20.013199 8092011
160.23885 -43.816631 -19.247753 7828071
160.07048 -44.04417 -18.254074 8287084
160.15372 -44.042675 -17.484905 8419696
158.81644 -44.04071 -15.225004 6840661
158.88481 -44.039253 -14.461819 7432540
158.98085 -44.037075 -13.316631 8288368
159.05475 -44.035263 -12.361813 11906725
158.0081 -44.133217 -10.56797 11249051
158.24287 -44.180408 -9.6292 14407115
132.89143 -44.063301 99.767853 13288121
132.24811 -44.050629 100.53511 13024175
131.69067 -44.027245 101.11552 13023917
132.06477 -43.872952 102.42295 10853004
131.31767 -43.872406 103.3715 9077625
131.12274 -43.867458 106.33096 7564651
130.47729 -43.867054 107.11615 10130829
130.42766 -43.674931 109.64942 8815483
129.86729 -43.533932 110.17812 6907232
160.24675 -42.47274 -20.813768 13486007
160.34502 -42.850735 -20.238506 11446682
160.55341 -43.077225 -19.546539 8354414
130.14824 -42.75779 110.30991 7433317
129.51434 -42.72525 110.84851 7564651
160.38904 -41.878975 -21.028606 10854546
160.72046 -41.976772 -20.168949 9933701
130.25261 -41.999382 110.57906 8616821
129.77412 -41.645737 111.13984 8090737
129.27814 -41.257595 111.73122 7564651
160.44685 -40.654819 -22.018372 9736582
160.67604 -40.897415 -21.263229 9012601
160.9052 -41.141293 -20.507114 7893864
130.00987 -40.70945 111.38385 8748407
129.36148 -40.567783 111.98564 8485493
160.7204 -39.835815 -22.135048 9407617
161.00238 -40.024208 -21.307018 8617843
129.93768 -40.03904 111.75755 9011579
129.55942 -39.656872 112.24899 9340797
129.06477 -39.30508 112.82217 9209467
160.76323 -38.77634 -23.008535 11117466
161.06111 -38.954372 -22.153069 9932935
129.78563 -38.641785 112.53781 9209467
129.13464 -38.502544 113.14054 9801349
161.00444 -37.869942 -23.280514 12433581
161.33505 -37.986301 -22.405563 10853268
129.8687 -37.949711 112.79359 9209467
129.33842 -37.760365 113.32003 10261643
128.86263 -37.490639 113.8393 11314076
161.12257 -36.80534 -23.976501 9669250
161.39798 -36.984055 -23.179832 9537408
129.62071 -36.790657 113.54139 8552311
128.98232 -36.6087 114.15374 9999754
161.15881 -35.641468 -24.888453 10788244
161.41765 -35.881763 -24.134289 10130313
161.65555 -36.118732 -23.37611 9208443
129.37088 -35.631386 114.29094 9407875
128.72894 -35.60725 114.83224 9999240
161.25578 -34.428661 -25.698481 10262415
161.42276 -34.801018 -25.043152 11248795
161.66214 -35.137356 -24.250923 9077625
129.37991 -35.004288 114.57742 10065803
128.87595 -34.619812 115.17372 9670276
161.44168 -33.772373 -25.861206 9670535
161.76683 -33.923496 -25.063099 10130313
129.13138 -33.529831 115.47369 10261903
128.48523 -33.664867 115.94384 10722451
161.7074 -32.80212 -26.120373 9735812
162.0164 -32.993931 -25.321899 10064775
128.71156 -32.677597 116.21969 11117210
128.0665 -32.656918 116.76192 11906725
161.72595 -31.733528 -26.972324 10196106
161.99603 -31.969528 -26.217484 10919829
128.93636 -31.845739 116.42402 9406852
128.34613 -31.617535 117.01826 11380381
127.81138 -31.182209 117.6637 10787988
161.82414 -30.627203 -27.789581 9538176
162.07661 -30.857912 -27.031303 10656657
162.25174 -31.284838 -26.259533 10459278
128.60355 -30.681499 117.25436 10787988
128.02611 -30.457623 117.86245 10787988
162.32069 -29.561922 -28.811607 9669250
162.20535 -29.912462 -28.175652 8089705
162.47115 -30.09934 -27.297829 11510168
128.33698 -29.864443 118.15058 10787988
127.8921 -29.497347 118.98187 9142907
127.4417 -29.177889 119.90762 8092019
163.34366 -28.387577 -34.551479 7563619
163.65916 -28.623871 -33.796925 9077882
162.87645 -29.064283 -32.010616 10985622
163.09892 -29.061861 -30.835949 8353391
162.35243 -29.323523 -29.890606 10064265
162.56104 -29.340847 -29.32373 9406335
127.64191 -28.874964 120.97314 9736329
127.00848 -28.864258 121.53945 9736329
126.51738 -28.839872 125.84396 7038298
125.90755 -28.839727 126.45033 7039331
125.19341 -28.55423 130.69 10327692
163.52467 -27.718214 -34.727188 8879477
163.85745 -27.817791 -34.043983 8682867
125.26685 -27.753176 130.97838 11905692
124.87976 -27.443924 131.31061 10590347
163.83698 -26.784849 -34.862701 11050900
163.98195 -27.210413 -34.276009 8682867
125.58581 -27.034767 131.10249 10590347
125.01834 -26.571262 131.5937 10195846
163.77873 -25.81971 -35.743618 9274235
164.14967 -25.849537 -34.998959 11708316
124.93035 -25.687998 132.00177 9011575
124.54182 -25.379473 132.33438 9340539
172.21237 -24.608683 -70.431335 11905692
172.12288 -24.571703 -69.913689 11905692
171.98729 -24.516586 -69.139832 9735555
171.80444 -24.443539 -68.111794 9538177
163.8089 -24.730202 -36.714203 9866371
164.0412 -24.94869 -35.939178 8089963
164.33148 -25.176674 -35.175945 8089963
125.35301 -24.823395 132.13104 9209467
124.70438 -24.534283 132.59392 10656657
171.61908 -24.370956 -67.08844 9274230
171.43134 -24.298841 -66.069756 9932161
171.24121 -24.22718 -65.055733 8681835
171.04858 -24.156086 -64.046333 9405559
170.85373 -24.085398 -63.041435 8681835
170.64807 -24.014084 -62.03817 8089959
170.40114 -23.937862 -61.025646 5920074
170.14748 -23.861561 -60.016647 6709590
169.89189 -23.785769 -59.01276 8484205
169.63434 -23.710491 -58.014057 7037274
169.37495 -23.635824 -57.020405 8484205
169.11369 -23.561619 -56.031815 8090986
168.85049 -23.487978 -55.048283 7432545
168.58549 -23.414795 -54.069759 8813686
164.15332 -23.539383 -37.620811 10591121
164.20645 -23.888325 -36.752037 9997956
164.35629 -24.21557 -35.871075 9274235
124.80909 -23.810305 132.83459 12104103
124.29584 -23.461021 133.25021 11511967
168.31873 -23.342176 -53.096157 7959142
168.05011 -23.270067 -52.127499 6511954
167.77969 -23.198469 -51.163719 9011831
167.50761 -23.127386 -50.204857 11380895
167.23378 -23.056763 -49.250828 16777207
164.62328 -22.393236 -39.604553 9669763
164.6228 -22.644506 -38.630283 11248795
164.58208 -22.964003 -37.718739 9933191
164.69568 -23.165499 -36.913311 10261123
125.06068 -22.824814 133.10434 13551549
124.44899 -22.519537 133.55415 9341055
165.06378 -21.840111 -40.548931 9603714
165.17303 -21.901035 -39.805923 9341054
165.21407 -22.026617 -39.11705 8090987
124.71223 -21.558498 133.80762 8748921
124.08413 -21.390844 134.20988 7696235
124.82108 -20.600538 134.14185 9340801
124.22134 -20.582327 134.46786 9998217
124.31285 -19.741175 134.76352 9800838
123.89925 -19.462751 135.09715 8090736
124.46662 -18.810894 135.06258 10261132
124.02303 -18.512371 135.42038 8353648
124.19901 -17.465677 135.75528 8287853
123.59702 -17.450716 136.08119 7038298
124.16508 -16.794456 136.048 8287853
123.74966 -16.516176 136.38257 8287853
123.9767 -15.718065 136.63457 10326668
123.36298 -15.440228 137.14922 9538432
123.60059 -14.832357 137.54887 8748916
145.71571 -60.551468 45.402504 10065033
145.60445 -60.573673 45.944836 10130313
148.48555 -59.265091 35.508965 8879987
148.31223 -59.282322 36.411274 5920074
148.10056 -59.304325 37.493858 10853776
147.62518 -59.440533 38.507721 10723218
147.46153 -59.468895 39.413284 10261132
147.2955 -59.498741 40.319283 7432801
147.02211 -59.606125 41.441051 7630186
146.72244 -59.774784 42.398933 10788500
146.64088 -59.726204 43.298317 8486514
146.42241 -59.815887 44.275146 8946296
146.23807 -59.872677 45.373821 9801861
146.03102 -59.900776 46.273815 11117978
145.73653 -59.895596 47.146194 9340797
145.38159 -59.891514 48.192455 9406590
145.24773 -59.682575 49.249443 9538175
