# .PCD v0.7 - Point Cloud Data file format
VERSION 0.7
FIELDS x y z rgb
SIZE 4 4 4 4
TYPE F F F U
COUNT 1 1 1 1
WIDTH 1200
HEIGHT 1
VIEWPOINT 0 0 0 1 0 0 0
POINTS 1200
DATA ascii
-154.72624 -58.971973 39.829247 7169888
-154.96255 -58.973526 38.896946 7565674
-156.43298 -58.976799 38.066322 8814969
-156.6138 -58.978039 37.312313 7432032
-156.83534 -58.979588 36.368759 8287341
-158.26582 -58.982601 35.697334 7564651
-158.43526 -58.983833 34.934593 11774630
-158.64247 -58.985371 33.980145 12629682
-160.07986 -58.988426 33.280869 10260617
-160.23759 -58.989655 32.509354 9471100
-160.43018 -58.991184 31.544123 8089963
-161.87411 -58.994289 30.816534 10458508
-161.98404 -58.995209 30.231596 10458508
-162.12741 -58.996426 29.450998 7893353
-163.57971 -58.999577 28.69816 8288365
-163.71532 -59.000793 27.909937 7696228
-163.88017 -59.002308 26.923811 7037274
-165.30722 -59.005203 26.340803 8484718
-165.46217 -59.006718 25.345011 14406853
-165.58234 -59.007919 24.547907 8616563
-167.04793 -59.011162 23.737818 8353135
-167.18721 -59.012661 22.731661 8090218
-168.63702 -59.015652 22.101641 6511954
-168.71542 -59.016552 21.492311 6906711
-168.81671 -59.017746 20.679483 8089963
-170.30186 -59.02108 19.821039 9931910
-170.39474 -59.022274 19.000597 9076857
-170.48434 -59.023464 18.179728 5920074
-171.95564 -59.02655 17.499002 7367264
-172.03726 -59.02774 16.670641 9275261
-172.11555 -59.028923 15.841913 10262156
-173.59753 -59.032059 15.135019 9011576
-174.0285 -58.864761 14.243792 8814197
-174.56442 -58.543697 13.440928 8683383
-174.78101 -58.563049 12.55472 11775136
-126.15242 -57.356125 76.81308 10065803
-126.87459 -57.560379 76.278976 10460560
-127.75028 -57.667419 75.692917 7960432
-128.45631 -57.937237 75.139977 11313821
-174.41504 -58.324684 14.358988 10261132
-174.84911 -57.773628 13.461573 8617592
-175.08757 -57.781952 12.504915 10196362
-175.29137 -57.75246 11.741823 9736578
-126.1847 -56.591137 77.128426 9736583
-127.028 -56.703304 76.560028 10723475
-127.84412 -56.779675 76.02417 9210496
-175.35606 -56.91431 12.734949 8683638
-175.65604 -56.844261 11.651567 8092011
-175.9621 -56.51263 10.93387 10591630
-125.05097 -55.355045 78.356461 7894384
-125.6134 -55.638718 77.897484 11644063
-126.41765 -55.671879 77.387764 9539205
-127.26578 -55.927242 76.753738 9933961
-175.59384 -56.271713 12.751429 8092011
-175.90454 -55.955162 11.992914 8092011
-176.25687 -55.679974 11.007776 11644060
-176.41618 -55.764713 10.25046 10525331
-124.4394 -54.338623 79.088287 9735302
-125.06021 -54.652409 78.640137 8354421
-125.89106 -54.560715 78.19886 11380891
-126.52296 -54.806675 77.702019 11775648
-176.26508 -55.029461 11.945147 7038307
-176.53995 -54.859692 11.109529 9406849
-176.78415 -54.917164 10.056986 8025713
-177.01045 -54.737511 9.4282856 9012606
-124.4541 -53.577026 79.396347 9077630
-125.21886 -53.725685 78.948364 8617080
-125.86747 -53.717648 78.582794 8354419
-176.77888 -54.215382 11.123758 7038307
-177.10211 -53.881767 10.340937 7697261
-177.38124 -53.822357 9.324297 8157555
-177.68674 -53.493778 8.6045246 9012606
-123.73999 -52.551826 80.181854 7169888
-124.681 -52.665813 79.659225 11182488
-125.46693 -52.879719 79.173019 9472126
-177.45375 -52.970448 10.306559 9012606
-177.73047 -52.800827 9.4636936 8486519
-177.97646 -52.859276 8.4027958 8157037
-178.20433 -52.679535 7.7683349 8813936
-123.12354 -51.552402 80.907402 8090987
-123.99555 -51.63332 80.43325 7762278
-124.77179 -51.805786 79.969635 10458766
-178.05083 -51.939003 9.4796314 7565675
-178.24818 -51.985126 8.6293659 9077624
-178.59604 -51.676449 7.7120605 9603195
-178.88466 -51.432327 6.9332061 7367005
-122.56934 -50.382431 81.672096 15722454
-123.19203 -50.682053 81.233391 9538177
-124.13203 -50.788052 80.714516 8420211
-178.50958 -51.186321 8.7845478 10064262
-178.89236 -50.77504 7.8818145 11445657
-179.1669 -50.675636 6.9429793 9143417
-122.13666 -49.554115 82.233932 12959666
-122.57829 -49.743484 81.93232 14604231
-123.51466 -49.65247 81.496948 10525330
-124.13674 -50.093407 80.999947 7565675
-179.19055 -49.936111 7.9513564 14603206
-179.41336 -49.956963 7.0380721 11971745
-179.68878 -49.857758 6.0955138 9537665
-122.10738 -48.610443 82.639648 12959666
-122.90987 -48.6926 82.20015 12235432
-123.48255 -48.844231 81.847992 11379356
-179.78806 -48.937943 7.0729461 10130055
-180.00143 -48.937504 6.2288909 8814198
-180.23407 -48.689114 5.6780181 7959401
-121.4855 -47.633202 83.358757 12432551
-122.32004 -47.595222 82.952827 12761517
-122.85765 -47.859657 82.571655 10260875
-180.39789 -47.861923 6.2616897 9669506
-180.55864 -47.820587 5.6869826 9406590
-120.93215 -46.548813 84.087585 9142906
-121.70156 -46.671322 83.648079 8748148
-122.32578 -46.958939 83.213531 9734531
-180.88345 -46.951305 5.6960235 10064520
-120.17588 -45.431709 85.070175 9012091
-120.97381 -45.697296 84.486748 10590607
-121.77935 -45.816021 83.987801 10261899
-118.70313 -44.184715 87.394089 8682867
-119.16728 -44.32214 86.781425 9406080
-119.73618 -44.560284 86.116203 8485748
-120.49401 -44.797859 85.46476 8617333
-121.02895 -45.1199 84.910042 11380380
-108.23851 -43.319447 100.87006 8025193
-109.05771 -43.477867 100.3451 8551026
-109.37862 -43.775806 99.581757 9406592
-109.80993 -43.828831 98.692696 11051673
-110.51939 -43.830921 97.896706 10196623
-111.22301 -43.833008 97.095665 10458767
-111.92091 -43.835094 96.289497 9734788
-112.49821 -43.83683 95.614037 10195850
-113.07108 -43.838558 94.934853 11444888
-113.75332 -43.840641 94.115425 11378582
-114.42966 -43.842712 93.291115 9734530
-115.09995 -43.844788 92.461914 9405822
-115.7643 -43.846859 91.627907 7432800
-116.31342 -43.848576 90.929352 7958632
-116.85801 -43.8503 90.227341 8616818
-117.50623 -43.852364 89.380669 10129545
-117.99551 -43.995636 88.415169 8879989
-118.28245 -44.14473 87.744827 8682867
-107.64436 -42.333031 101.53108 9537918
-108.20503 -42.659359 101.15002 8616817
-109.20614 -42.635197 100.71045 9208700
-106.92957 -41.154842 102.32295 9011318
-107.56509 -41.545082 101.88284 9735040
-108.48075 -41.739388 101.39649 9340286
-106.98633 -40.55127 102.54004 9011318
-107.81898 -40.518673 102.18176 8879991
-108.45352 -40.771404 101.79731 9143163
-106.39007 -39.361965 103.28343 9735039
-107.02711 -39.747574 102.84453 9866626
-107.83076 -39.664173 102.51963 8814198
-105.93481 -38.494957 103.8346 9011574
-106.61821 -38.563126 103.50247 8353391
-107.36366 -38.729942 103.10308 9471616
-105.21239 -37.332195 104.62364 9210491
-105.82336 -37.650658 104.2233 9735041
-106.79315 -37.703232 103.76975 9076858
-105.18212 -36.549355 104.95151 10196874
-106.09602 -36.686417 104.48893 9537921
-106.6808 -37.107227 104.05919 8813686
-104.60002 -35.457382 105.64952 9999495
-105.36887 -35.525696 105.27927 10262923
-106.10172 -35.835136 104.82822 8618355
-103.95683 -34.312027 106.39627 9736067
-104.51093 -34.676964 106.00267 9078650
-105.44625 -34.621262 105.60796 8881527
-103.51869 -33.368378 106.97057 8618099
-104.1222 -33.553665 106.62709 7828076
-104.86115 -33.781727 106.20596 7564904
-105.42374 -34.07235 105.83842 7565667
-103.51793 -32.52129 107.31108 9143935
-104.39137 -32.575245 106.8999 7564651
-102.81364 -31.608355 107.99168 9866372
-103.58368 -31.693785 107.61405 10064267
-104.29939 -31.794334 107.2545 7564651
-102.12009 -30.29528 109.00606 8089963
-102.92554 -30.610863 108.41908 9866370
-103.78316 -30.882484 107.85796 11445401
-100.3857 -29.134432 111.23933 9472387
-101.15723 -29.243191 110.61394 9209472
-101.8092 -29.459429 109.94669 8552055
-102.40781 -29.748732 109.33745 9932421
-103.10811 -29.932465 108.87149 9932419
-91.33979 -28.417688 123.22089 9406338
-92.196678 -28.455635 122.82487 8945787
-92.841446 -28.670288 122.45248 8617080
-94.227074 -28.778748 119.43281 9669249
-95.086815 -28.780916 118.74899 9471870
-95.941582 -28.783091 118.05896 8418928
-96.650246 -28.784903 117.4794 7958377
-99.166954 -28.822554 112.85645 11182489
-99.959381 -28.857513 112.38715 7563619
-100.59386 -28.886002 112.00963 9340286
-90.729958 -27.281393 123.94658 9735046
-91.374672 -27.493349 123.57524 9077115
-92.262695 -27.654961 123.11589 9669251
-90.248352 -26.335905 124.53893 12433069
-90.893829 -26.546753 124.16769 10261131
-91.753075 -26.581429 123.77197 9208443
-90.177429 -25.538319 124.88959 10393489
-91.045692 -25.670794 124.45068 9669251
-91.705124 -26.021965 124.01707 9208443
-89.502029 -24.378508 125.65382 10459282
-90.311562 -24.481424 125.25285 7235686
-91.060936 -24.756912 124.80956 7696236
-89.035385 -23.445534 126.2345 9538688
-89.825478 -23.533882 125.84804 8091247
-90.515182 -23.557379 125.53211 7038307
-88.383446 -22.183596 127.02914 9736067
-88.992867 -22.575096 126.60168 10262668
-89.91761 -22.657909 126.15755 9144444
-88.370148 -21.436918 127.33379 10722961
-89.180138 -21.507627 126.94556 10394253
-89.844215 -21.855055 126.5114 10262667
-87.782387 -20.448977 127.99036 12565165
-88.626381 -20.589733 127.55894 11248022
-89.394173 -20.718737 127.16611 10262667
-87.148651 -19.284508 128.73831 8485747
-87.903122 -19.553513 128.29543 10787472
-88.662193 -19.667252 127.91265 10457994
-87.062309 -18.594955 129.05374 8419698
-88.05732 -18.556498 128.62759 11050130
-86.588127 -17.537359 129.68936 10919058
-87.422951 -17.71072 129.24913 8814197
-87.874092 -18.050707 128.9122 8682867
-85.90081 -16.375217 130.46153 11446173
-86.800835 -16.519377 130.00415 9669250
-87.456688 -16.722103 129.63152 9208955
-85.353096 -15.367176 131.2244 9472640
-86.15377 -15.566383 130.72795 9933449
-86.783852 -15.763712 130.31541 9012091
-84.094948 -14.247885 132.75456 10853012
-84.790375 -14.502053 132.20531 10064008
-85.599411 -14.683606 131.68735 9078141
-86.202019 -15.016023 131.14258 10065035
-75.307945 -13.12169 144.49937 11182489
-75.959862 -13.364278 144.29468 8813942
-78.898689 -13.729655 139.69708 6511954
-79.402481 -13.730782 139.41113 7235421
-80.239754 -13.732656 138.93047 7300702
-83.068344 -13.922467 134.32925 10195335
-83.929909 -13.933414 133.91429 10326924
-75.211197 -12.526364 144.73587 10261388
-76.019295 -12.546273 144.58559 7563619
-74.445747 -11.12245 145.38864 8814707
-75.184181 -11.535323 145.10588 12893616
-75.958244 -11.751615 144.88925 9340286
-74.637535 -10.49106 145.5874 8090985
-75.482506 -10.614635 145.39233 8814707
-73.982834 -9.1244984 146.20679 8814707
-74.723511 -9.5367537 145.92386 9933187
-75.464409 -9.9501562 145.6404 8814707
-74.103653 -8.4276028 146.44221 8157295
-74.75074 -8.6050491 146.2623 9933187
-73.482254 -7.3167233 146.9615 9143679
-74.199898 -7.5779028 146.73831 8223091
-73.416557 -6.5128036 147.26939 9406594
-74.149956 -6.5894847 147.11136 9340801
-72.843575 -5.0961647 147.89273 9932678
-73.505325 -5.5964522 147.59134 9406593
-72.830704 -4.4493656 148.13341 10195594
-73.556648 -4.4966149 147.98755 9932678
-72.27961 -3.2016721 148.69064 9932678
-72.893608 -3.5928586 148.43785 10853268
-72.268105 -2.4559648 148.96741 9275004
-73.049873 -2.6644175 148.75235 10655889
-71.536415 -1.3305643 149.51122 8420464
-72.311317 -1.4942552 149.31392 8552050
-71.073639 -0.20373325 150.16029 7564643
-71.728355 -0.45126152 149.86198 8223085
-70.534401 0.620318 150.89166 9012091
-71.078331 0.41369596 150.63586 8419957
-71.622063 0.20662427 150.38004 7564643
-63.863068 1.7285302 160.11789 8748917
-64.668282 1.5148014 159.89687 10262156
-69.916649 1.0383997 151.94481 8617335
-70.533035 1.0383354 151.83841 9012091
-63.146687 2.5841434 160.55975 9341054
-63.892662 2.5421915 160.41245 9143675
-63.187107 3.4861612 160.88489 9735812
-63.862556 3.2294099 160.67097 9341054
-62.57531 4.519217 161.37361 10459278
-63.284683 4.4598942 161.22646 10393485
-62.722229 5.6020093 161.74661 9998727
-62.000362 6.4676199 162.1931 9274748
-62.750195 6.4281731 162.04608 10130057
-61.364048 7.9916945 162.8671 9011576
-62.146587 7.559669 162.56961 9932166
-62.928856 7.1271758 162.272 11379356
-61.306004 8.7205229 163.10583 9274748
-62.074848 8.6542273 162.96428 9406078
-61.535027 9.5267448 163.31256 9471871
-60.782143 10.398986 163.69446 9539200
-61.541275 10.362805 163.56354 9406846
-60.846169 11.650895 164.06161 10459277
-61.514751 11.289805 163.84711 9538175
-60.169765 12.603087 164.45551 9210491
-60.930511 12.568305 164.32475 9077881
-60.130314 13.56648 164.75211 8879993
-60.903214 13.502786 164.61069 8814197
-59.593414 14.615433 165.33188 9011838
-60.296329 14.348998 165.03824 9274493
-59.081272 15.457018 166.41382 9011835
-59.618206 15.109935 166.02437 7366756
-55.492359 16.77067 171.18701 10392461
-56.151272 16.781832 171.11107 9209467
-57.761677 16.08926 167.80109 10986134
-58.414425 16.101133 167.72684 13683904
-55.353397 17.464943 171.45715 9997959
-55.020699 18.391115 171.83539 9471359
-55.598568 18.323841 171.74075 9209467
-55.154709 19.565062 172.24707 10458252
-55.541828 19.102736 172.03174 10853004
-129.39879 -58.518726 74.304939 10261391
-130.19211 -58.591686 73.73893 9471616
-130.84956 -58.690651 73.038147 8419444
-131.50798 -58.82444 72.872398 9011323
-132.36089 -58.897442 71.687607 8222063
-132.87462 -58.899441 70.729393 8813941
-133.2977 -58.901108 69.928093 8813941
-133.71547 -58.902767 69.124153 7037274
-134.21068 -58.904758 68.156189 10130314
-134.61815 -58.906406 67.346924 7300962
-136.17395 -58.909584 66.69574 9537923
-136.49295 -58.910904 66.038902 8222323
-136.96577 -58.912888 65.050972 7564386
-137.35454 -58.914528 64.225197 8090474
-137.73801 -58.916168 63.396889 9340286
-138.04161 -58.91748 62.732906 7563619
-139.51381 -58.920391 62.189209 8748403
-139.95879 -58.922356 61.179611 9275520
-140.39648 -58.924313 60.166779 8091762
-140.76851 -58.93121 59.325729 10788759
-141.01457 -58.945965 58.830528 12433069
-142.43997 -58.929886 58.220207 8090987
-142.85625 -58.931835 57.189575 9998985
-143.265 -58.933777 56.15591 9998727
-143.53372 -58.935066 55.465332 10590607
-145.00525 -58.938095 54.832718 9010806
-145.33244 -58.939709 53.958771 9668991
-145.65393 -58.941315 53.082695 9142648
-145.90773 -58.9426 52.380615 9734779
-147.38075 -58.945675 51.709949 7892580
-147.74982 -58.947601 50.643806 7170402
-148.05176 -58.9492 49.753391 7565675
-148.23032 -58.950153 49.218281 10460049
-149.70399 -58.953274 48.509132 10327948
-150.04996 -58.955189 47.426277 12103843
-150.33241 -58.956776 46.52206 9209467
-151.75406 -58.959629 45.962219 9340286
-151.97305 -58.960899 45.230656 11182489
-152.2953 -58.962799 44.131504 10459278
-153.87997 -58.966648 42.987946 8881526
-154.18594 -58.968536 41.875053 9208443
-154.38583 -58.969791 41.132019 7366239
-155.81905 -58.972744 40.510239 7169889
-156.05946 -58.974316 39.571358 8814969
-156.29456 -58.975872 38.631123 8354675
-157.73465 -58.978874 37.980362 8287341
-157.91505 -58.980122 37.220154 7432032
-158.13602 -58.981674 36.268768 7037274
-159.58325 -58.984722 35.590321 7564643
-159.75218 -58.985966 34.821239 8288109
-159.95868 -58.987507 33.858879 9997958
-161.41302 -58.990601 33.152153 8088931
-161.57018 -58.99184 32.374287 8088931
-161.7619 -58.993374 31.401045 9471871
-163.2231 -58.996513 30.665689 12432037
-163.36823 -58.997746 29.879126 9406077
-163.51025 -58.998966 29.092024 8288365
-164.94482 -59.001846 28.527918 9209467
-165.0797 -59.003075 27.733088 7761253
-165.21136 -59.004295 26.937723 7037274
-166.68851 -59.00753 26.148851 7959144
-166.84229 -59.009048 25.144861 8089963
-166.96153 -59.010258 24.341051 8089963
-168.41666 -59.013237 23.724962 9142648
-168.55626 -59.014748 22.710649 7367005
-170.10333 -59.018684 21.460512 9076856
-170.22926 -59.020184 20.436052 9010808
-171.73322 -59.023563 19.568102 8089963
-171.82487 -59.024761 18.74077 9735812
-171.91315 -59.025959 17.913095 7367264
-173.40378 -59.029083 17.224154 7564643
-173.58067 -58.873608 16.481981 8090987
-173.96735 -58.689133 15.588778 9341054
-128.6879 -57.463501 75.204979 10327952
-129.49733 -57.624962 74.635864 10326665
-130.30504 -57.709297 74.101616 8418671
-130.96384 -57.922234 73.602753 8550515
-173.95102 -58.072849 16.572107 7564643
-174.25029 -57.885799 15.665781 8617331
-174.54471 -57.737167 14.721468 9472386
-174.82767 -57.490906 13.96789 8420470
-128.25427 -56.600353 75.850189 11447201
-128.8501 -56.667458 75.453896 9538693
-129.83405 -56.714092 74.827652 9734529
-130.4187 -57.025822 74.331131 8089963
-174.59689 -56.980408 15.642572 11183001
-174.87024 -56.807419 14.818132 9012349
-175.11328 -56.859848 13.777597 7960176
-127.58714 -55.465885 76.757988 10525843
-128.24413 -55.744389 76.231476 13881285
-129.13556 -55.652206 75.723022 12039339
-129.87289 -56.135475 75.057312 8879478
-175.12698 -56.016426 14.980303 9340801
-175.4279 -55.830124 14.066469 8288883
-175.72397 -55.682362 13.114412 8354674
-176.00856 -55.436348 12.354258 8092011
-127.04173 -54.567799 77.487297 10854036
-127.86124 -54.637592 76.952164 9341313
-128.64639 -54.734657 76.426224 9539207
-129.13373 -54.825737 76.086304 10986652
-175.85529 -54.708454 14.045832 11379607
-176.05103 -54.750263 13.208414 9340542
-176.30576 -54.728821 12.231745 7038307
-126.40675 -53.55743 78.320984 9932678
-127.13022 -53.686073 77.819176 10196106
-127.93114 -53.752827 77.296806 9011320
-128.42331 -53.919395 76.920845 8092019
-176.30891 -53.957127 13.368959 10590093
-176.56433 -53.934937 12.390886 8024943
-176.88918 -53.77454 11.343721 7498857
-125.75341 -52.422668 79.211578 9340539
-126.39901 -52.742172 78.682968 8419696
-127.43605 -52.696991 78.06424 8747892
-128.03671 -53.077736 77.527557 9011320
-176.89052 -52.938885 12.583551 10590095
-177.13046 -52.897999 11.694529 7564649
-177.4751 -52.62545 10.736109 9735815
-125.32427 -51.57795 79.784866 12366244
-125.99816 -51.574203 79.434219 9932419
-126.75182 -51.750462 78.900246 7959144
-177.49753 -51.893669 11.737703 8156528
-177.75455 -51.872253 10.751848 9603970
-177.95209 -51.916458 9.9041004 8289140
-124.76556 -50.39587 80.556953 10065035
-125.2784 -50.7337 80.157845 10787985
-126.15109 -50.645538 79.740547 9603711
-126.74179 -50.936153 79.263214 7564643
-177.79623 -51.183582 11.613123 8485235
-178.08253 -50.872952 10.942408 10458505
-178.31999 -50.890068 9.9768467 8419694
-178.67097 -50.559799 9.0791264 8682866
-124.04679 -49.319901 81.365868 10065035
-124.64896 -49.696548 80.905563 8946813
-125.5517 -49.661224 80.464088 8815227
-126.00718 -50.048004 80.073662 9340539
-178.70334 -49.74939 10.158503 10458505
-178.91612 -49.842789 9.1769352 8748403
-179.18178 -49.621418 8.4550114 10656142
-124.05494 -48.564644 81.674637 8749178
-124.93919 -48.764496 81.145065 8025969
-178.99371 -49.112408 9.9578648 10458505
-179.22366 -48.928612 9.3212299 8880245
-179.43713 -49.022633 8.3362751 10656142
-179.78427 -48.584526 7.6143661 10656142
-123.32878 -47.561867 82.45697 10787219
-124.27509 -47.656666 81.939552 9142907
-124.97179 -47.774166 81.538879 8815227
-179.59541 -48.07428 9.1225758 8813686
-179.82622 -47.890263 8.4829044 8879734
-180.10739 -47.717697 7.6267943 9866374
-180.31821 -47.68663 6.8383727 10787473
-122.7011 -46.582211 83.18 7037530
-123.55025 -46.594265 82.745956 9010808
-124.35907 -46.801785 82.251297 10063496
-180.19908 -47.034367 8.2818546 9537409
-180.43079 -46.850033 7.6393294 9537409
-180.64589 -46.944653 6.6464858 10261385
-180.86407 -46.711025 6.131021 9735812
-121.68449 -45.213318 84.498466 11380380
-122.31198 -45.53944 83.920433 9406846
-122.97214 -45.757771 83.433586 6774614
-123.76799 -45.78688 82.997826 8484720
-180.67354 -46.198738 7.6486144 8813686
-180.97006 -45.982094 6.9189239 9538177
-181.32686 -45.806572 6.0204864 9932934
-121.21913 -44.286232 85.827263 9538174
-121.7932 -44.586636 85.062073 9933190
-122.59898 -44.855827 84.347054 9077625
-123.23382 -45.087208 83.826302 6511954
-181.84625 -45.051964 6.1619506 9735812
-181.94035 -45.072262 5.7265868 9735812
-110.1677 -43.503014 99.878815 9341571
-111.14779 -43.567169 99.341652 9473157
-111.70317 -43.734097 98.784279 9736328
-112.24182 -43.833401 97.984047 9734788
-112.94605 -43.835506 97.170555 10064520
-113.64444 -43.837608 96.351974 9340542
-114.22202 -43.839355 95.666092 11181204
-114.79525 -43.841103 94.976524 9932166
-115.47772 -43.843201 94.144661 10721169
-116.15421 -43.845287 93.307892 9800837
-116.71342 -43.847027 92.606964 8814715
-119.11498 -43.978298 87.917419 10721422
-119.81934 -44.045227 87.32856 10458508
-120.52432 -44.1134 86.736259 10524556
-109.64821 -42.315903 100.62979 9208700
-110.35361 -42.637405 100.1416 8288626
-111.13188 -42.796387 99.683563 8092019
-108.98489 -41.38232 101.31507 9734788
-109.68522 -41.564785 100.9164 8879735
-110.52285 -41.670959 100.45438 8222318
-108.96326 -40.591053 101.64244 9406079
-109.84776 -40.693489 101.19431 9077114
-110.54542 -40.811638 100.79696 9011321
-108.38704 -39.478073 102.34634 8748405
-109.16372 -39.560734 101.96679 8879991
-109.89784 -39.88509 101.50365 9011321
-107.87043 -38.506672 102.9667 9274493
-108.49883 -38.70216 102.60804 8682868
-109.19979 -38.8279 102.24496 8617075
-107.21967 -37.281273 103.74899 9734788
-107.95551 -37.597931 103.29371 9603202
-108.84283 -37.809402 102.81306 9734788
-107.17712 -36.605827 104.03918 8813686
-108.15072 -36.568058 103.62018 8484978
-106.54605 -35.510311 104.76048 8749429
-107.43189 -35.713692 104.28382 8419185
-108.12374 -35.778336 103.9493 6512986
-106.01127 -34.487885 105.40952 8947320
-106.70052 -34.548515 105.07781 9604993
-107.45261 -34.707142 104.67876 9538691
-105.4508 -33.344982 106.11839 7565159
-105.94141 -33.690392 105.76088 8420976
-106.87378 -33.684818 105.34738 9736580
-104.888 -32.204876 106.82716 10591644
-105.47749 -32.617023 106.39879 10920864
-106.39987 -32.744915 105.93612 8223088
-104.83949 -31.471535 107.14323 8814976
-105.72005 -31.585855 106.70467 14868701
-106.36758 -31.957613 106.26668 7564651
-104.13923 -30.432396 107.99214 11182228
-104.95161 -30.653128 107.47678 9078146
-105.62865 -30.801483 107.06045 12236458
-102.437 -29.231201 110.00232 9143417
-103.08312 -29.343866 109.50131 10327177
-103.82201 -29.523273 108.9213 9932419
-104.38535 -29.846006 108.37575 9472125
-104.96866 -30.058762 107.93728 7564651
-93.304741 -28.468943 122.32707 8156786
-94.261383 -28.550905 121.86913 8748922
-94.909103 -28.768127 121.49428 8681843
-97.073715 -28.785988 117.12955 7563619
-97.495819 -28.787071 116.77811 9340030
-98.196442 -28.788883 116.18892 7169885
-99.032661 -28.791056 115.47646 9340286
-99.863686 -28.793228 114.75801 9011577
-101.0695 -28.907631 111.72561 8092019
-101.7044 -28.937014 111.34495 8420469
-102.65707 -28.981817 110.7709 9143417
-103.29269 -29.012197 110.38612 9143417
-92.69046 -27.302137 123.06697 10195852
-93.438774 -27.582901 122.62201 8090994
-94.194412 -27.71015 122.23528 7827561
-92.269508 -26.602688 123.53392 9603458
-93.034157 -26.495144 123.23707 11643553
-93.751564 -26.727842 122.82514 9341056
-91.525826 -25.270807 124.39733 9208443
-92.186523 -25.622448 123.96303 11182746
-93.06852 -25.642431 123.563 10853782
-91.488411 -24.400097 124.76234 7367271
-92.383049 -24.557951 124.30154 9537923
-92.991814 -24.955086 123.87216 9735046
-90.989418 -23.51165 125.33958 7038307
-91.725456 -23.599928 124.97715 7169893
-92.376671 -23.81052 124.60343 8287854
-90.4142 -22.43399 126.02645 9210491
-91.065712 -22.642418 125.65349 7630442
-91.962639 -22.797859 125.19261 7103839
-89.659782 -21.101088 126.89503 11315100
-90.325081 -21.448957 126.46017 11183514
-91.258766 -21.572046 125.99596 8486258
-89.858551 -20.507317 127.0443 10460046
-90.649132 -20.56809 126.66882 10262667
-91.129463 -20.770466 126.37411 8682867
-89.166725 -19.511984 127.75116 9208186
-89.984459 -19.609558 127.34897 10130056
-90.741753 -19.881836 126.90341 12103329
-88.528946 -18.254721 128.53957 12300195
-89.184311 -18.459402 128.16644 10589580
-90.003784 -18.556007 127.76392 10590095
-88.033279 -17.30105 129.14291 10261132
-88.689461 -17.504932 128.76973 11839645
-89.560898 -17.525909 128.37451 9011575
-87.955299 -16.490124 129.50349 9340541
-88.836792 -16.61101 129.06366 9866629
-89.508041 -16.95763 128.62642 8682867
-87.402779 -15.497988 130.22209 10261132
-88.151955 -15.544509 129.86948 9603457
-88.876953 -15.807126 129.36896 9011576
-86.16584 -14.279157 131.77484 11380380
-86.769623 -14.612066 131.22908 9604485
-87.657356 -14.779701 130.69583 9077885
-77.295082 -13.371599 144.05574 8550257
-78.071388 -13.591098 143.83749 10260617
-81.240807 -13.73491 138.34729 9801347
-82.237595 -13.737168 137.75685 9537918
-82.89991 -13.738675 137.3596 10261126
-84.964394 -13.947045 133.41426 9735299
-85.826996 -13.958831 132.9958 9932934
-86.344872 -13.966082 132.7439 8815227
-76.626884 -12.561408 144.47247 7563619
-77.3507 -12.619488 144.32306 7828071
-76.064377 -11.157868 145.08916 9340286
-76.763954 -11.521727 144.83139 7169373
-77.344032 -11.983325 144.55865 5920074
-76.047234 -10.49369 145.33705 8946038
-76.781311 -10.575607 145.17691 9209979
-76.001381 -9.5110264 145.70724 9669761
-76.720802 -9.7750483 145.48267 10261899
-75.507774 -8.5512924 146.14824 11840928
-76.243256 -8.6309118 145.98878 9735555
-74.735435 -7.134057 146.80713 8617592
-75.480553 -7.5470204 146.5231 10130314
-76.225914 -7.9611301 146.23869 10788244
-74.858025 -6.4309602 147.04453 9275006
-75.509186 -6.6076469 146.86418 9275261
-74.233849 -5.3129745 147.56689 9603971
-74.956024 -5.5737996 147.34303 9735812
-74.168877 -4.5024028 147.87711 9472383
-74.907005 -4.5772076 147.71898 9538433
-73.639198 -3.2113969 148.44653 9932678
-74.325829 -3.5895658 148.1857 9603969
-73.582008 -2.4229043 148.74719 10393230
-74.312752 -2.4680111 148.60129 9604226
-73.028908 -1.1658372 149.30795 11906212
-73.646507 -1.5584974 149.05411 10656402
-72.300323 -0.20625868 149.94228 8420464
-73.052528 -0.41339037 149.65683 11379868
-73.805 -0.62105608 149.37128 11379868
-71.763016 0.61949021 150.67419 8288371
-72.513695 0.41216844 150.38165 8813685
-73.264488 0.20437947 150.0889 9734787
-65.206718 1.7718111 159.89641 9406847
-65.954948 1.7292755 159.7486 9209467
-71.150734 1.0383195 151.73186 9341055
-71.97628 1.0382445 151.58942 9537409
-64.430603 2.800523 160.41254 10262156
-65.238724 2.5869892 160.19113 8419952
-64.611061 3.4895179 160.63455 9341054
-65.360764 3.4483199 160.48691 8419952
-64.012245 4.8127022 161.22791 9669762
-64.655174 4.402894 160.96329 9604226
-63.98233 5.6080141 161.52618 9406846
-64.793915 5.3945241 161.30412 9932678
-63.290333 6.6927438 162.04819 10655889
-64.012444 6.4353914 161.82571 10327180
-63.470043 7.6234365 162.35925 10458766
-64.223732 7.3547411 162.12708 9932678
-62.860725 8.7341719 162.86261 8880246
-63.544056 8.5569115 162.68793 9537664
-62.809402 9.5391741 163.11484 8682867
-63.636173 9.3272457 162.92026 8682867
-62.080261 10.633211 163.55981 9406078
-62.907562 10.421733 163.3653 9406078
-62.264835 11.667913 163.84244 9406333
-62.855556 11.231853 163.61769 10326924
-61.470409 12.842111 164.32187 10064262
-62.299622 12.630778 164.12711 8748660
-61.693413 13.588286 164.51154 12695466
-62.246929 13.447352 164.38156 9406589
-60.882671 14.636471 165.1601 9011064
-61.581104 14.368843 164.85159 10919059
-62.471268 14.196027 164.57166 10064262
-60.364838 15.476104 166.21213 7629411
-61.158028 15.252938 165.90361 7629411
-56.811287 16.79324 171.03516 10130059
-57.472218 16.804949 170.9592 10130059
-59.286549 16.117395 167.62863 9867398
-59.942291 16.129963 167.55551 8814198
-56.260323 17.713688 171.43781 9735296
-56.884933 17.414644 171.25288 9866883
-56.20443 18.491011 171.72821 9735296
-56.921806 18.348789 171.58923 9866882
-55.623032 19.809183 172.27914 9866627
-56.358364 19.306631 172.00693 10129796
-55.648804 20.800512 172.63715 9537665
-56.258003 20.214798 172.34991 9669248
-55.54966 21.983267 173.46681 9537665
-55.649475 21.4846 173.06378 9537665
-132.03662 -58.599689 72.611305 8353651
-132.86975 -58.516514 72.168861 8879736
-133.59692 -58.70586 71.608696 8683384
-134.19254 -58.901588 70.602928 8618106
-134.69836 -58.903595 69.6315 7893096
-135.11472 -58.905266 68.819298 8879991
-135.52588 -58.906929 68.00441 9735041
-135.93245 -58.908588 67.187263 11511452
-137.42181 -58.911465 66.691826 7564651
-137.82007 -58.913128 65.863129 6840922
-138.29167 -58.915119 64.865639 7169885
-138.67921 -58.916771 64.031845 8617075
-139.06152 -58.918419 63.195599 7564643
-140.55086 -58.921364 62.650734 11182228
-140.85023 -58.922676 61.972919 8748917
-141.29367 -58.924656 60.953674 7565675
-141.72968 -58.926624 59.931206 9144449
-142.08754 -58.928261 59.076817 8090987
-143.50459 -58.930931 58.654655 7563874
-143.78476 -58.932243 57.96265 6839895
-144.19913 -58.934196 56.922287 9602943
-144.60599 -58.93615 55.878956 9602943
-146.09518 -58.939209 55.244186 8089963
-146.29343 -58.940182 54.716022 8089963
-146.61949 -58.941803 53.834194 8418927
-147.00395 -58.943745 52.773476 8616301
-148.49487 -58.94685 52.100163 8089963
-148.68164 -58.947823 51.563362 10261643
-148.98868 -58.949432 50.667221 9472900
-149.35023 -58.951359 49.589443 8486519
-150.84216 -58.954517 48.877319 13551287
-151.0751 -58.955803 48.15007 10656655
-151.36194 -58.957401 47.239632 9209467
-151.58734 -58.958675 46.510063 7563619
-153.08014 -58.961884 45.760216 10261644
-153.29837 -58.963158 45.022354 13157558
-153.56599 -58.964748 44.098553 8881526
-155.06354 -58.968002 43.317974 8092011
-155.26962 -58.969276 42.570465 8222060
-155.52289 -58.97086 41.634956 7366239
-155.672 -58.971798 41.072933 7366239
-157.17017 -58.975105 40.255428 9406848
-157.40938 -58.976673 39.30851 9735812
-157.59653 -58.977932 38.549904 9011576
-159.09877 -58.981285 37.70084 7629411
-159.27817 -58.982536 36.934086 8879478
-159.45383 -58.983788 36.166504 10854036
-160.91826 -58.98687 35.480919 8617331
-161.08658 -58.988117 34.705399 8748404
-161.29239 -58.98967 33.735027 8615276
-162.76404 -58.992805 33.020866 11379356
-162.92052 -58.994049 32.2365 10392459
-163.11145 -58.995586 31.255075 12432037
-164.59024 -58.998772 30.511877 7039331
-164.73463 -59.000008 29.718718 7959400
-164.87589 -59.00124 28.925066 9209467
-166.3624 -59.004467 28.154005 7301982
-166.49573 -59.005692 27.352427 7959144
-166.59329 -59.006611 26.750849 6511954
-168.08875 -59.009884 25.953447 8089963
-168.2413 -59.01141 24.940996 8418928
-169.86174 -59.015957 23.302614 7827298
-169.97168 -59.017174 22.484217 7367005
-171.64389 -58.863636 21.150225 9011323
-172.04819 -58.771477 20.191149 8353907
-172.67749 -58.622036 19.464121 10853780
-173.08899 -58.77528 18.540369 12103847
-173.44412 -58.696747 17.649416 9077626
-131.39714 -57.551121 73.498573 9800580
-132.22842 -57.738106 72.904816 7761772
-133.07088 -57.830364 72.345734 10326667
-172.28986 -58.291142 20.471239 8617337
-172.91776 -57.870861 19.595255 11972262
-173.38336 -57.873688 18.69726 11182745
-173.68311 -57.989357 17.757174 10459278
-174.06567 -57.515411 16.948755 8946296
-130.36272 -56.231152 74.713837 8089963
-130.77805 -56.62674 74.284729 8418671
-131.60802 -56.674282 73.752914 12365476
-132.51878 -56.897785 73.094231 7038307
-173.63066 -57.238899 18.722918 9406334
-174.03961 -56.961777 17.876673 10130057
-174.34818 -56.747059 16.975183 9341054
-174.61758 -56.640118 16.06782 9341054
-129.65192 -55.312698 75.553818 10986652
-130.23831 -55.620399 75.057976 8879478
-131.12617 -55.596863 74.521667 10524559
-131.72507 -55.792667 74.067154 12103846
-174.42345 -56.030247 17.744936 9011573
-174.64859 -55.844547 17.130404 8222061
-174.89291 -55.892262 16.091974 10985366
-175.16704 -55.717842 15.266657 9340801
-129.67969 -54.604279 75.847168 9013120
-130.41118 -54.677219 75.364845 8485491
-131.10168 -54.808697 74.88208 9932679
-174.93317 -55.213036 16.944765 8089963
-175.21576 -54.901226 16.290392 10064009
-175.45045 -54.913288 15.343279 12761518
-175.75098 -54.610043 14.605394 8090987
-128.93753 -53.577919 76.753822 8288884
-129.8358 -53.742157 76.128799 9143676
-130.67053 -53.815697 75.582642 8748661
-175.60149 -53.967754 16.154314 12038055
-175.82774 -53.782314 15.534548 10853780
-176.07346 -53.83139 14.488596 9406589
-176.34911 -53.657482 13.656389 8090987
-127.81116 -52.268208 78.021187 8089963
-128.38861 -52.677612 77.486259 9011320
-129.28578 -52.63829 76.951118 10195336
-130.07825 -52.961075 76.321777 10458251
-176.11368 -53.149464 15.345224 11379607
-176.34058 -52.964249 14.723093 8880246
-176.63396 -52.850639 13.730684 9603712
-176.97278 -52.400791 13.05987 13023917
-127.26008 -51.405807 78.738396 9340539
-127.91832 -51.627705 78.235847 8089963
-128.72301 -51.656487 77.727798 8222319
-129.31793 -51.837376 77.282265 8090734
-176.64711 -52.18129 14.676073 8221548
-177.01321 -51.71637 13.919252 7563619
-177.2605 -51.766579 12.865511 12432037
-177.53783 -51.592865 12.026217 6511962
-127.25044 -50.590691 79.101448 10458763
-128.00583 -50.764725 78.560089 9537664
-128.77264 -50.798386 78.073242 8879990
-177.30075 -51.081825 13.726198 7563619
-177.52896 -50.896648 13.098635 11445144
-177.77301 -50.900326 12.127024 9669250
-178.21472 -50.343224 11.208292 10458505
-125.91811 -49.268799 80.441605 8815227
-126.53123 -49.7085 79.925293 10129798
-127.60456 -49.596649 79.318985 11379607
-128.2542 -49.91074 78.781403 10590349
-177.83725 -50.111259 13.048418 8485235
-178.12582 -49.86084 12.278955 9142907
-178.36806 -49.833401 11.360819 11510936
-178.63406 -49.501781 10.801683 10458505
-125.47753 -48.430202 81.01162 7565675
-126.01276 -48.599125 80.671165 8815226
-126.8593 -48.665749 80.18325 9603969
-127.57709 -48.907124 79.637978 9735297
-178.57468 -48.793385 12.092371 10261130
-178.72452 -48.823559 11.454172 10524301
-178.92422 -48.864773 10.602037 11905692
-179.15421 -48.680332 9.9662571 10458505
-125.50478 -47.620636 81.333221 9078141
-126.25546 -47.726429 80.910088 8946296
-126.94141 -47.790367 80.518723 10064777
-179.03458 -48.03548 11.400682 9800837
-179.32513 -47.784565 10.624201 9866629
-179.52557 -47.826031 9.7688084 9735043
-179.83687 -47.424824 9.1338749 9537409
-124.91218 -46.564991 82.069969 9801093
-125.60757 -46.62888 81.692154 11906725
-126.31825 -46.797859 81.263062 7959400
-179.64618 -46.919556 10.642031 8617075
-179.91365 -46.694332 9.9186497 9472127
-180.12894 -46.785477 8.9303608 9340030
-180.36064 -46.600502 8.28866 9537409
-124.20264 -45.369492 83.093224 9603970
-125.02512 -45.710159 82.429321 10920342
-125.75482 -45.944782 81.901192 12696491
-180.1693 -46.093773 9.8013554 9735043
-180.48628 -45.880737 9.0774555 9208444
-180.86771 -45.681561 8.1359806 8484721
-181.29803 -45.400707 7.2365279 9997957
-122.49794 -44.309521 85.060677 9735555
-123.16065 -44.292465 84.789963 9472384
-123.58126 -44.686012 83.999084 7564642
-124.49316 -44.777439 83.459587 9275777
-125.13416 -45.012512 82.932655 8092019
-180.87346 -45.314018 9.1833363 10261132
-181.1713 -45.143391 8.5421085 9076855
-181.67021 -44.828926 7.5573668 9603198
-181.98788 -44.73233 6.6049056 9472127
-182.71964 -44.467812 5.8970351 9735299
-112.1029 -43.325119 98.976044 10261902
-112.86777 -43.474594 98.528709 10261643
-113.63485 -43.625843 98.079544 9735555
-117.04695 -43.848072 92.184837 7038307
-117.37872 -43.849113 91.76133 7038298
-117.9284 -43.850849 91.052841 9077369
-118.58248 -43.852928 90.198479 8287853
-119.23038 -43.855007 89.339409 9077368
-119.87205 -43.857079 88.475677 8682867
-120.40944 -43.861412 87.75769 9143160
-121.08908 -43.918861 87.1418 8552049
-121.93917 -44.001759 86.423767 9012343
-122.78983 -44.086304 85.701141 9669761
-123.35707 -44.143414 85.216843 9735555
-111.64735 -42.532288 99.53241 9275264
-112.46584 -42.499172 99.133293 9866117
-113.09534 -42.718773 98.725327 10063752
-110.96209 -41.347755 100.36596 7367523
-111.67291 -41.670238 99.874649 7958633
-112.58674 -41.707451 99.398369 8089962
-111.08109 -40.497223 100.6563 7762540
-111.93722 -40.632538 100.16879 7366753
-112.55907 -41.023178 99.694229 5919050
-110.33739 -39.560154 101.41741 8025455
-111.1787 -39.661633 100.9513 8157041
-111.8689 -39.83746 100.53082 9734788
-109.70718 -38.43856 102.175 9274494
-110.50463 -38.592072 101.73185 8419700
-111.23427 -38.755379 101.29655 8551542
-109.29399 -37.486652 102.7415 9734788
-110.12096 -37.508076 102.35939 9734788
-110.74 -37.783398 101.94627 9406080
-108.66263 -36.38102 103.46701 9209984
-109.30598 -36.627781 103.08104 9471873
-110.1217 -36.782265 102.65526 8419443
-108.67274 -35.523396 103.80688 8749433
-109.56262 -35.592236 103.38243 11577762
-107.96664 -34.588181 104.49731 8618104
-108.75031 -34.686871 104.10823 9209984
-109.47868 -34.800144 103.73795 14604238
-107.30224 -33.257126 105.32808 9605252
-108.04516 -33.566032 104.87271 9670789
-108.86107 -33.711422 104.45047 9736071
-106.90974 -32.551548 105.78635 10263180
-107.54523 -32.567738 105.49654 10263180
-108.27579 -32.758148 105.09431 9539203
-106.22148 -31.213329 106.63065 10459534
-106.87107 -31.585529 106.19154 8946555
-107.80298 -31.752676 105.70886 9210239
-105.64832 -30.106022 107.59502 8682867
-106.21205 -30.450773 107.06885 10854549
-107.07761 -30.658983 106.53136 8353904
-107.71395 -30.963598 106.06536 9341825
-105.14983 -29.267193 108.7479 9012089
-105.58871 -29.697309 107.96505 8748660
-106.48667 -29.73086 107.53739 9998983
-95.355667 -28.561256 121.34104 7827047
-96.188705 -28.491148 120.88785 7694948
-96.827858 -28.781895 120.03125 7234397
-97.548111 -28.783728 119.44604 9011321
-100.68957 -28.795403 114.03363 8155756
-101.37388 -28.797211 113.42554 10064009
-102.05428 -28.799019 112.81306 8484977
-102.866 -28.801189 112.07291 8814453
-103.67238 -28.80336 111.32685 9472124
-103.91535 -28.958529 110.33966 9208952
-104.56486 -29.074572 109.61076 8485488
-94.700035 -27.565716 122.06834 8156780
-95.514977 -27.678391 121.66109 8682868
-96.209694 -27.711681 121.33895 7234397
-94.159569 -26.272949 122.82581 9077626
-94.964317 -26.532202 122.36444 7893607
-95.601593 -26.810324 121.96989 8617331
-93.600647 -25.353054 123.44225 10853012
-94.252373 -25.566917 123.06706 8814199
-95.049232 -25.66312 122.67442 6840919
-93.477013 -24.553623 123.81711 9866375
-94.411865 -24.684507 123.34924 8353908
-95.076775 -25.039854 122.91146 6511954
-93.005249 -23.352289 124.50739 8551027
-93.840706 -23.537392 124.06206 9274752
-94.463005 -23.88974 123.64451 8617080
-92.393333 -22.438047 125.14523 7169627
-93.191742 -22.528517 124.75414 7827300
-93.889244 -22.553459 124.43414 8617080
-91.742783 -21.165241 125.94357 8682867
-92.356224 -21.560785 125.5127 7564385
-93.258171 -21.716486 125.04961 7827300
-91.212097 -20.397243 126.48752 8682867
-91.806328 -20.565748 126.15602 8682867
-92.638077 -20.566654 125.78651 8156264
-93.222664 -20.836742 125.41845 6511954
-91.172791 -19.517809 126.85844 10590092
-92.0765 -19.669849 126.3962 9143161
-90.511497 -18.399632 127.60138 10985365
-91.277245 -18.514614 127.21532 9932419
-92.038246 -18.787792 126.76774 9143161
-90.084648 -17.538826 128.13689 10788244
-90.784096 -17.556437 127.81932 9209211
-91.587624 -17.640261 127.42901 9143161
-89.320702 -16.195948 129.01573 9406078
-89.993088 -16.542896 128.57782 9735555
-90.878326 -16.665495 128.1356 10459279
-88.814606 -15.065392 129.94458 9011576
-89.428055 -15.341319 129.45248 9603457
-90.163361 -15.648296 128.90036 9801092
-90.804474 -15.849945 128.49625 11906725
-88.086861 -14.312976 130.89604 9472386
-88.881714 -14.512704 130.37709 10326924
-89.676285 -14.713202 129.85754 10129545
-78.552559 -13.358838 143.7312 10260617
-79.478424 -13.447001 143.28743 8616566
-83.395195 -13.739806 137.05916 10261126
-84.053902 -13.741315 136.65602 9734780
-84.87455 -13.7432 136.14742 10457993
-86.862999 -13.973536 132.49133 10722707
-87.727043 -13.986261 132.06903 10065036
-88.418678 -13.996703 131.73007 9736329
-78.085289 -12.399459 144.27182 7499618
-78.68 -12.646114 143.9612 9931653
-79.338417 -12.6123 143.68326 8616566
-78.085365 -11.552338 144.57993 6314832
-78.864082 -11.712878 144.25322 8616817
-77.392975 -10.588698 145.06389 8091754
-78.118828 -10.644189 144.90913 6512467
-76.828423 -9.1763496 145.68425 9735555
-77.532318 -9.5404778 145.42555 9407358
-78.115761 -10.003572 145.15163 8091754
-76.811943 -8.506938 145.93382 10459278
-77.550972 -8.5868969 145.77365 10261899
-76.767082 -7.5165315 146.30672 10261899
-77.491081 -7.7801352 146.0815 9735555
-76.27137 -6.5507145 146.75031 9209468
-77.011765 -6.6283259 146.59079 9735555
-75.495758 -5.124321 147.41316 9538433
-76.245323 -5.538137 147.12808 9406847
-76.995232 -5.9530101 146.84248 9735555
-75.620102 -4.4147735 147.65265 9670019
-76.275475 -4.5906844 147.47189 9538433
-74.993401 -3.2892292 148.17827 10064521
-75.719963 -3.5498233 147.9537 8880503
-75.059669 -2.4315672 148.4826 9670019
-75.71701 -2.6813939 148.27426 9537919
-74.402565 -1.3419327 149.00015 10985111
-75.184105 -1.506564 148.80133 9932935
-74.382683 -0.37544292 149.45067 10261387
-75.041214 -0.62449819 149.15141 9209467
-73.846352 0.4521783 150.1776 12037798
-74.502335 0.20263547 149.86951 9734787
-66.584778 1.7295852 159.63739 11052183
-67.345268 1.6583681 159.47679 15921634
-72.596809 1.0382738 151.48251 8089963
-73.218803 1.0382504 151.37532 8089963
-66.109276 2.8033183 160.11703 9341054
-66.699181 2.5174277 159.90746 10854548
-65.991722 3.4499278 160.37599 9341054
-66.753807 3.3798759 160.21556 9472128
-65.364937 4.9627314 161.04413 10262156
-65.980949 4.477509 160.75652 10262156
-66.717537 4.1006804 160.48756 9735812
-65.336807 5.6582689 161.30539 10261899
-66.090981 5.6186852 161.15753 10393741
-64.766029 6.7018933 161.79077 10984854
-65.447807 6.4440308 161.57527 10261387
-64.806549 7.6409831 162.12956 10261387
-65.492775 7.363699 161.90622 8814971
-64.275032 8.7465792 162.63048 9012088
-65.042213 8.6797523 162.47069 9603715
-64.178123 9.597127 162.91592 9143418
-64.942192 9.5611076 162.78427 9340799
-64.188095 10.436117 163.16718 9275004
-63.587261 11.599955 163.61288 9340797
-64.408371 11.435997 163.43365 9209467
-63.582748 12.648328 163.92957 9866884
-63.039722 13.533349 164.2821 9340541
-63.817501 13.470378 164.14017 10261387
-62.392746 14.662245 164.96039 10130056
-63.186413 14.441739 164.65985 9866885
-63.758148 14.216036 164.3743 10261387
-61.896946 15.617098 166.05661 7432545
-62.443787 15.272488 165.69461 8813942
-58.355408 16.820889 170.85788 10064009
-60.599503 16.142782 167.48331 10261132
-61.258106 16.156 167.41177 9011064
-57.583889 17.738302 171.28615 10130059
-58.346157 17.472853 171.09682 9997960
-57.682182 18.55875 171.57352 9998211
-58.304111 18.219681 171.37439 10063750
-56.922283 19.600075 172.04547 10261382
-57.686363 19.333643 171.85565 9472382
-57.049725 20.681925 172.42406 9866626
-57.736206 20.246294 172.18211 10261382
-56.398834 21.873554 173.24289 9471871
-56.966587 21.508163 172.86578 10260614
-55.988728 22.761909 174.1122 9471871
-56.550568 22.504469 173.70613 8616560
-134.17422 -58.394714 71.419044 8092019
-134.67607 -58.502045 71.06311 9276035
-135.50157 -58.676998 70.459122 7630182
-136.02974 -58.905785 69.490868 6576980
-136.52748 -58.907791 68.506241 6445653
-136.93712 -58.909466 67.68306 7564651
-137.18044 -58.910469 67.187889 7564651
-138.76457 -58.913708 66.519058 7235422
-139.16182 -58.915382 65.682274 8222573
-139.63202 -58.917381 64.675079 8617075
-140.09496 -58.919373 63.664574 9340539
-140.39986 -58.9207 62.989128 9340539
-141.90309 -58.923668 62.435455 9340539
-142.20139 -58.924999 61.751099 9144449
-142.64322 -58.926987 60.722057 7960175
-143.0775 -58.928959 59.689899 8420211
-143.36314 -58.930275 59.000141 9735812
-144.7951 -58.93298 58.57201 9735812
-145.14439 -58.934624 57.699089 9142393
-145.55684 -58.936596 56.648884 10129030
-145.89493 -58.938232 55.771564 8353135
-147.33264 -58.94099 55.30632 9012606
-147.59665 -58.942295 54.59597 7565675
-147.98659 -58.944256 53.52813 7893355
-148.30588 -58.945881 52.63625 8089963
-149.99792 -58.949997 51.413048 11380638
-150.36487 -58.951939 50.327965 9472900
-150.66479 -58.953552 49.421833 10196363
-152.1132 -58.956425 48.884121 10261391
-152.34618 -58.957714 48.150757 8090737
-152.68948 -58.959644 47.048866 7366499
-152.91429 -58.960926 46.312927 7563619
-154.36758 -58.963852 45.739819 7563619
-154.63953 -58.96545 44.809566 8092011
-154.90617 -58.967052 43.877769 8092011
-156.36729 -58.970013 43.275917 6510930
-156.57324 -58.971294 42.522213 6774102
-156.87581 -58.973206 41.389893 7366239
-158.4902 -58.977177 40.186493 9471872
-158.7758 -58.979076 39.040405 7366240
-158.96198 -58.980339 38.275337 7037274
-160.43509 -58.98341 37.609081 8879478
-160.65791 -58.984989 36.642448 9603713
-160.83246 -58.986244 35.868374 9735555
-162.31326 -58.989365 35.17366 9735555
-162.48044 -58.99062 34.39146 8615276
-162.64378 -58.991871 33.608532 8615276
-164.13329 -58.995037 32.886688 10262156
-164.28909 -58.996288 32.095798 8091760
-164.4791 -58.997841 31.106157 7565417
-165.976 -59.001057 30.354944 10591374
-166.11961 -59.0023 29.55514 8881270
-166.25998 -59.00354 28.754732 8092011
-167.76492 -59.006802 27.975451 7235421
-167.89731 -59.008041 27.167109 6511954
-168.75597 -58.79245 26.471689 8024425
-169.37451 -58.729229 25.733538 11379356
-169.71967 -58.849171 24.825342 8945015
-170.25433 -58.702221 23.898722 7761251
-170.83194 -58.620529 23.015718 7169371
-171.20435 -58.712082 22.226969 6774614
-171.56525 -58.571346 21.643755 7038307
-133.36827 -57.362514 72.367569 10984340
-134.02864 -57.715534 71.806335 8289141
-135.03761 -57.658195 71.210258 11380639
-135.55441 -57.955166 70.761909 8092019
-169.7059 -58.124104 25.573969 8092011
-170.06375 -57.979755 24.99962 9144699
-170.51534 -57.857624 24.227327 8024937
-171.008 -57.791824 23.331636 7826790
-171.48842 -57.815937 22.388315 9538178
-171.9702 -57.841728 21.441103 8617337
-172.37317 -57.75695 20.732775 8617337
-172.89929 -57.518383 19.909182 10064524
-132.64099 -56.290009 73.285316 10984340
-133.40297 -56.642002 72.661911 8682359
-134.41689 -56.700512 72.012047 8223092
-135.00661 -57.171841 71.442451 9736329
-171.29483 -56.974388 23.42544 9011320
-171.75439 -56.930637 22.575876 9603458
-172.2618 -56.767715 21.728502 8156786
-172.76758 -56.79174 20.736513 9012094
-173.14522 -56.88483 19.936518 9340801
-173.61996 -56.678413 19.186258 9209211
-174.03839 -56.564709 18.412577 9143418
-132.26308 -55.557465 73.838943 9865859
-132.92374 -55.635231 73.398087 9011323
-133.75252 -55.721283 72.850128 9208701
-134.42276 -55.855953 72.378464 7038307
-172.54053 -56.045559 21.762712 8617337
-172.99985 -55.925091 20.974237 9208702
-173.53807 -55.758102 20.070681 7564647
-174.01772 -55.70961 19.186296 6511954
-174.3533 -55.789257 18.373964 9011573
-174.58026 -55.603363 17.76021 8089963
-131.53448 -54.499664 74.751053 9011321
-132.36296 -54.658585 74.17131 7563619
-133.1898 -54.739937 73.626617 8222065
-133.69681 -54.918163 73.236275 9011323
-173.78844 -54.959717 20.219744 8813944
-174.27367 -54.891037 19.340517 7959143
-174.6683 -54.936111 18.405825 9011573
-174.94968 -54.835476 17.441881 9734788
-175.2966 -54.367466 16.765574 8089963
-130.96002 -53.349327 75.608734 8682867
-131.64134 -53.736584 75.019608 9932679
-132.53981 -53.709694 74.47818 8287342
-133.12854 -53.887108 74.037964 10459023
-174.90166 -54.17942 18.535517 9011573
-175.27658 -53.755093 17.757097 8813941
-175.53258 -53.725887 16.787203 9537665
-175.75902 -53.539772 16.168131 12038055
-130.40663 -52.495785 76.323448 12102305
-131.1523 -52.669552 75.788216 9735041
-131.99081 -52.676445 75.268936 9603457
-132.57887 -53.127983 74.709099 7563619
-175.57127 -53.048302 17.643526 8089963
-175.8335 -52.821911 16.942751 8418929
-176.09016 -52.869694 15.855425 10590094
-129.84818 -51.59499 77.061996 10852753
-130.49652 -51.579563 76.669594 12036512
-131.32384 -51.726261 76.095963 10589836
-131.98831 -51.845203 75.634743 11576217
-176.16241 -52.013683 16.844782 7038307
-176.44058 -51.770542 16.105722 9800835
-176.65897 -51.785259 15.219141 10721678
-176.94394 -51.472424 14.556734 7563619
-129.2149 -50.455757 77.951096 9537660
-129.93819 -50.707729 77.39534 9011575
-130.83046 -50.667633 76.863548 8682867
-131.26086 -50.936726 76.480721 8682867
-176.82434 -50.838055 15.975748 10589835
-177.03275 -50.800198 15.206934 9537406
-177.27698 -50.80077 14.239237 7563619
-128.53639 -49.445404 78.811523 9537918
-129.19012 -49.761398 78.270554 9406075
-130.25049 -49.711285 77.639694 9077368
-130.86491 -50.09164 77.09465 8287597
-177.34946 -49.941265 15.232866 8550512
-177.6062 -49.851303 14.350336 9932163
-177.84906 -49.713539 13.594179 9471614
-178.1358 -49.400307 12.925539 10458508
-128.01576 -48.563011 79.518723 8880246
-128.78528 -48.590096 79.033081 9406589
-129.55055 -48.761974 78.486603 9208955
