# .PCD v0.7 - Point Cloud Data file format
VERSION 0.7
FIELDS x y z rgb
SIZE 4 4 4 4
TYPE F F F U
COUNT 1 1 1 1
WIDTH 1190
HEIGHT 1
VIEWPOINT 0 0 0 1 0 0 0
POINTS 1190
DATA ascii
46.022598 -38.001915 -168.57756 8879990
46.804955 -37.981197 -168.26996 9735556
47.781658 -37.956493 -167.88553 8090986
48.757191 -37.93301 -167.50113 7564642
49.731346 -37.9109 -167.11667 9077882
50.704464 -37.889965 -166.73221 9998732
51.482121 -37.87418 -166.42456 9143681
52.475655 -37.648315 -166.1124 10261901
53.446251 -37.631042 -165.72746 9405822
54.222023 -37.618134 -165.41946 9867398
28.942789 -36.812553 -174.02859 10654857
29.78898 -37.053505 -173.96606 10327179
30.864021 -37.093765 -173.9837 11116437
31.649424 -37.19418 -173.97064 9077625
40.571033 -37.543446 -170.95767 9142651
41.361443 -37.517277 -170.64899 9011320
42.365959 -37.277008 -170.33809 10985366
43.351196 -37.246853 -169.95229 12169381
44.138218 -37.223698 -169.64381 11182486
45.139893 -36.987419 -169.33244 8748404
46.074097 -37.045361 -168.93265 7827815
46.88522 -37.149052 -168.56456 9406847
47.863567 -37.124828 -168.17931 8617331
48.840744 -37.10178 -167.79399 7959400
49.816582 -37.080063 -167.40877 8880503
50.791344 -37.059513 -167.02344 8880505
51.570309 -37.044033 -166.71519 8419701
52.543091 -37.025829 -166.32977 10129801
53.514919 -37.00877 -165.94429 9011064
54.48579 -36.993019 -165.55869 10787730
55.455826 -36.978439 -165.17293 10064006
56.2313 -36.967709 -164.8642 7564643
57.127415 -36.914921 -164.52333 7695973
58.19286 -36.737057 -164.16325 8090470
59.160629 -36.72728 -163.77658 7827299
28.133274 -35.943439 -174.32155 10654857
28.896536 -36.137993 -174.27353 10063749
29.972118 -36.067791 -174.33147 9603969
30.840641 -36.3204 -174.26537 9932678
46.357059 -36.539143 -169.01746 7038298
47.141457 -36.519341 -168.70862 8617331
48.141514 -36.287273 -168.39627 10985623
48.924381 -36.269333 -168.08736 8090987
49.901932 -36.248058 -167.70122 9735812
50.900108 -36.019745 -167.38814 9538433
51.680756 -36.004627 -167.07904 9537663
52.655609 -35.986843 -166.69267 9669250
53.62952 -35.970165 -166.30614 9274236
54.602448 -35.954784 -165.91959 10787214
55.526203 -36.024212 -165.51952 13483957
56.327595 -36.137783 -165.15149 9406333
57.297932 -36.125767 -164.76465 9142906
58.267628 -36.11483 -164.37759 8945524
59.23661 -36.105175 -163.9904 7103833
60.205128 -36.096626 -163.60287 6183246
60.979561 -36.090721 -163.29268 7103834
61.94722 -36.084435 -162.90466 9668730
62.941444 -35.871914 -162.58691 9011316
63.908848 -35.867996 -162.19809 8814454
64.682625 -35.865704 -161.88676 7037274
27.194536 -34.790443 -174.71429 9735812
27.96637 -35.096058 -174.62592 9274487
28.984867 -35.182907 -174.62482 9603969
53.721371 -35.13805 -166.59612 8353135
54.695919 -35.123005 -166.20871 10195078
55.718727 -35.246784 -165.74734 14076093
56.448227 -35.098633 -165.51114 10787473
57.420593 -35.086861 -165.12337 10589840
58.392368 -35.076191 -164.73541 9142394
59.36348 -35.066738 -164.34724 6577491
60.334049 -35.058414 -163.95883 8353130
61.110126 -35.05257 -163.64789 7103834
62.07991 -35.046432 -163.25899 8287594
63.04932 -35.04134 -162.86981 8222060
64.018379 -35.037525 -162.48022 8287854
64.987228 -35.034779 -162.09033 7827047
65.762138 -35.033466 -161.77809 10721165
66.730721 -35.032894 -161.38747 10589067
67.672134 -34.950279 -161.04005 11904668
68.697121 -34.8274 -160.67465 9471614
69.666138 -34.830227 -160.28256 9011320
70.471611 -34.625401 -160.03796 10854036
71.441261 -34.630363 -159.64467 9932421
72.217186 -34.635128 -159.32968 9340801
25.952038 -33.910034 -174.99835 10393742
26.950407 -34.010548 -174.99168 9735812
28.025927 -34.044266 -175.01173 8881019
28.660114 -34.275826 -174.94621 9209467
58.686909 -34.242035 -164.94429 8287341
59.46508 -34.234734 -164.63319 6840151
60.437359 -34.226555 -164.24399 9010547
61.297119 -34.081585 -163.95404 9010547
62.212852 -34.006596 -163.61397 8024681
63.184326 -34.001606 -163.22385 8024425
64.072296 -34.039707 -162.85054 7893096
65.01548 -33.953777 -162.50372 8156524
65.903091 -33.993752 -162.12979 9932419
66.873756 -33.993176 -161.7383 9734015
67.844406 -33.993637 -161.34642 10720910
68.62085 -33.994869 -161.03261 9668995
69.591545 -33.997406 -160.63992 8945271
70.562317 -34.001041 -160.2467 9932678
71.533279 -34.005901 -159.85295 9537406
72.504486 -34.011795 -159.45869 9208956
73.281647 -34.017349 -159.14291 8880507
74.253456 -34.025364 -158.74757 11050384
75.258049 -33.825962 -158.42055 11379348
76.231148 -33.836208 -158.02379 11576985
25.136944 -33.043793 -175.29007 10854805
26.135704 -33.142761 -175.284 12038823
27.211451 -33.174728 -175.30467 10196363
27.84609 -33.405319 -175.23955 9143936
64.04348 -33.373672 -163.12393 8353647
65.015724 -33.370804 -162.7327 8419439
65.987785 -33.368996 -162.34109 10524555
66.988396 -33.159882 -162.01949 9208441
67.960732 -33.160301 -161.62695 10260875
68.795204 -33.03632 -161.33891 8945272
69.740852 -32.955242 -160.98917 9340286
70.713753 -32.95871 -160.59518 9537663
71.686867 -32.963345 -160.20062 11905952
72.660233 -32.969028 -159.80565 9537406
73.439125 -32.974377 -159.4892 9932677
74.413109 -32.982113 -159.09311 10326660
75.387474 -32.990879 -158.69644 11839899
76.241524 -33.059353 -158.32487 11379607
77.199745 -32.957882 -157.97806 8814453
78.118599 -33.021431 -157.58228 10130313
79.054985 -32.981506 -157.22009 10327692
80.107094 -32.839294 -156.85143 11840419
80.889893 -32.851334 -156.53075 9735559
81.788994 -32.760967 -156.20341 10130059
82.885185 -32.674831 -155.79492 9670021
83.474068 -32.685642 -155.55302 10458505
24.19063 -31.893419 -175.68163 9932676
25.114883 -32.058773 -175.64906 12367788
26.134403 -32.13995 -175.65007 14539469
27.030479 -32.53561 -175.53258 9735812
71.614914 -32.126934 -160.55827 14932172
72.589928 -32.132301 -160.16272 10721679
73.651466 -31.999598 -159.78651 10196106
74.573051 -31.936836 -159.43924 9406073
75.549553 -31.945297 -159.04179 9011058
76.331184 -31.952868 -158.7234 9997960
77.308739 -31.963287 -158.32484 9866629
78.286873 -31.974762 -157.9256 11117208
79.069855 -31.984755 -157.6057 11314587
80.049316 -31.998217 -157.20517 12169640
81.029533 -32.012691 -156.80389 9078143
82.010612 -32.028381 -156.40182 9867143
82.992615 -32.045044 -155.99898 9143678
83.778938 -32.059177 -155.6761 9998469
84.76284 -32.077908 -155.2717 8419695
85.74781 -32.097618 -154.86649 8419696
86.611626 -31.693016 -154.67685 8617075
87.599739 -31.714476 -154.26959 7432544
88.62751 -31.525972 -153.92891 6510930
89.420357 -31.544718 -153.60161 8353646
90.214211 -31.56411 -153.27365 8813941
22.400387 -30.747406 -176.19757 9537918
23.249775 -30.86635 -176.13567 9011831
24.182426 -31.028782 -176.05005 8945783
25.098068 -31.078899 -176.04828 9406079
25.803883 -31.232107 -175.97159 14078918
76.429665 -31.324295 -158.93063 8879991
77.408524 -31.334496 -158.53163 9011577
78.38797 -31.345732 -158.13191 10919829
79.213623 -31.148397 -157.89539 9801604
80.193787 -31.161032 -157.4919 11051415
81.174545 -31.17465 -157.08759 8683381
81.95974 -31.186258 -156.76343 8090992
83.036263 -31.051317 -156.42244 7827820
83.985428 -31.016314 -156.06329 8880250
84.843475 -31.090698 -155.67584 9734788
85.820457 -30.997879 -155.32999 9866630
86.794739 -30.860933 -155.00648 10392718
87.58532 -30.877007 -154.67758 8092019
88.574608 -30.898064 -154.26527 6510930
89.565094 -30.920088 -153.85199 6905688
90.358437 -30.938499 -153.52051 7958120
91.351387 -30.96246 -153.10504 10591375
92.345634 -30.987392 -152.68843 16116446
93.202965 -30.802618 -152.45432 13550517
94.198051 -30.828474 -152.03072 10327949
95.315689 -30.723709 -151.66479 5590854
96.158226 -30.477137 -151.52666 5392706
96.958931 -30.499704 -151.18431 6379343
97.961479 -30.528875 -150.75499 8155755
98.965416 -30.55901 -150.32425 5919050
20.840178 -29.589996 -177.52246 10261641
21.281027 -29.941395 -176.87692 10129541
22.241928 -30.147238 -176.65358 9931904
23.227745 -30.208687 -176.6353 7301215
24.159391 -30.389366 -176.52385 8089963
87.211548 -30.267506 -155.31665 10853012
87.804985 -30.278999 -155.06725 9012350
88.794861 -30.298956 -154.65062 7827817
89.785774 -30.31982 -154.2328 6182222
90.579376 -30.337254 -153.89758 5919050
91.555817 -30.198181 -153.61694 7498081
92.54287 -30.140699 -153.26505 9472640
93.443726 -30.203068 -152.8495 10788244
94.241844 -30.22324 -152.51021 11709087
95.23214 -30.114719 -152.20599 7498852
96.305634 -29.831726 -152.00153 6971223
97.210526 -29.896763 -151.5779 7826531
98.118309 -29.963375 -151.15613 8287339
99.118996 -29.911026 -150.79445 8418926
100.02969 -29.97934 -150.37006 7168859
100.8377 -30.004391 -150.02274 10326152
101.75077 -30.074486 -149.59598 6577753
102.77491 -29.808691 -149.53244 7433064
103.8293 -29.668446 -149.24883 7038049
104.75362 -29.51313 -148.82356 9076858
105.41846 -29.498899 -148.2558 11379609
-4.9805741 -28.872379 -185.40788 8420976
-4.2368455 -29.004282 -185.28194 9210492
-3.4207788 -29.061514 -185.17595 10854036
-2.3105302 -29.040272 -185.06813 8682355
-1.2016205 -29.019958 -184.96017 9604225
-0.31498563 -29.224455 -184.79265 9736323
4.0634589 -29.3167 -182.45328 10064777
5.1554313 -29.315281 -182.42813 10590346
6.2471862 -29.313856 -182.3968 9669503
6.9021811 -29.312998 -182.37494 10261382
13.884367 -29.300177 -179.12286 10261899
14.741812 -29.299007 -179.0562 9735555
15.598822 -29.297831 -178.98544 9735043
16.669661 -29.296358 -178.89095 10458246
17.525896 -29.295174 -178.81128 9208435
18.479628 -29.558044 -177.56337 9470839
19.337374 -29.569187 -177.54915 9208183
20.195875 -29.58083 -177.53415 10261641
106.14361 -29.189959 -148.89748 13550517
106.6435 -29.179703 -148.46857 11379609
107.47491 -29.163309 -147.75284 10262411
110.02613 -28.674698 -147.5161 8814715
110.50426 -28.660652 -147.05301 9866887
111.09276 -28.861202 -146.37206 8419183
-6.1080575 -28.011688 -185.84171 8420976
-5.2117639 -28.214346 -185.67389 8618355
-4.3197351 -28.196432 -185.58759 9342078
-3.206244 -28.174995 -185.47952 9011576
-2.1678643 -28.229338 -185.35147 9405822
-1.4265503 -28.363142 -185.22507 9405822
110.7336 -27.856012 -147.23764 8353651
111.34026 -28.046442 -146.54404 8090477
111.93427 -27.678062 -146.14769 6576978
-7.9223123 -26.718801 -186.506 6511954
-7.0930085 -27.071501 -186.2899 8420720
-6.1207757 -27.125401 -186.16893 7828584
-5.2256761 -27.107557 -186.08231 9342078
-4.2360215 -27.088493 -185.98627 10986390
-3.2119279 -27.512184 -185.72382 10656913
111.56483 -26.960983 -146.8765 8353651
112.32497 -26.868551 -146.1761 7695458
113.01089 -26.633358 -145.62154 9538950
-9.0625401 -25.963778 -186.90234 8156779
-8.0685062 -26.09877 -186.74928 6906712
-7.0348878 -26.032993 -186.66589 8091247
-6.1367021 -26.015221 -186.57899 7564651
-5.3134332 -26.073528 -186.47192 9077884
111.83299 -26.225712 -146.98758 9011579
112.36066 -25.993681 -146.58702 8353906
113.1581 -25.974403 -145.81265 10525587
-10.892416 -24.997969 -187.44817 8089963
-10.073515 -25.159254 -187.30362 8682356
-8.9870625 -25.225767 -187.16609 8354415
-7.9502969 -25.159912 -187.0825 7828070
-7.0492921 -25.142113 -186.99529 8617076
-6.370955 -25.351994 -186.84744 7564651
112.66698 -25.329512 -146.6243 8419440
113.37592 -24.99968 -146.09537 10394001
114.11576 -25.00404 -145.3656 8223348
-12.972502 -23.696953 -188.14336 9735812
-11.901949 -23.973339 -187.9303 9603202
-10.855764 -24.156816 -187.75394 8616307
-9.7752361 -24.302494 -187.58791 8880247
-8.8701382 -24.284187 -187.50046 8880503
-8.0402775 -24.342379 -187.39276 8420208
113.60126 -23.991236 -146.38776 7565675
114.24063 -23.977249 -145.76619 8288626
115.02689 -23.873081 -145.04613 9274750
-14.59833 -22.830914 -188.63126 8616563
-13.831118 -22.96455 -188.50227 8748405
-12.855558 -22.97366 -188.39743 9932161
-11.758772 -23.040834 -188.25861 10524040
-10.713018 -22.974552 -188.17421 8879735
-9.7945347 -23.405773 -187.91991 9933191
-9.1097927 -23.616796 -187.77104 10261899
114.4393 -23.093227 -146.02142 7958888
115.12891 -22.859041 -145.46274 7958888
115.89133 -22.771048 -144.75786 7432800
-15.544966 -21.946632 -189.05525 8813683
-14.848795 -22.157965 -188.905 8353135
-13.79574 -22.090364 -188.82031 8813428
-12.695063 -22.158016 -188.68086 10984592
-11.720079 -22.168457 -188.57562 9208435
-10.956469 -22.303864 -188.44647 9208435
115.38323 -22.015907 -145.64241 6775126
116.1293 -21.957939 -144.93828 6840919
116.60885 -21.949438 -144.47108 6511954
-16.64509 -21.213764 -189.43939 13355967
-15.797476 -21.271389 -189.32997 9143163
-14.647528 -21.247345 -189.21919 8550512
-13.499861 -21.224024 -189.1084 9143159
-12.577387 -21.432266 -188.93576 9208435
116.22515 -21.116192 -145.27315 6709334
116.97167 -21.059174 -144.56812 8354155
117.50248 -20.829283 -144.16335 11380372
-19.326998 -19.750797 -190.25684 8091248
-18.546488 -19.886644 -190.12567 8682867
-17.684752 -20.172897 -189.93062 10328974
-16.587793 -20.093157 -189.84586 10854804
-15.470587 -20.192587 -189.69305 8155756
-14.519815 -20.412054 -189.51334 8813683
-13.748934 -20.548552 -189.3829 8089963
116.64355 -20.400063 -145.22681 5920074
117.15747 -19.947794 -144.95193 7893348
117.86716 -19.936718 -144.25969 9472378
118.39889 -19.706919 -143.85394 6511954
-20.530195 -18.858976 -190.71028 8617335
-19.587523 -19.06879 -190.53496 9406337
-18.518545 -19.001043 -190.44867 11182997
-17.400316 -19.070269 -190.3069 9340796
-16.410517 -19.081291 -190.19986 9932162
117.59099 -19.051962 -144.98235 6972503
118.12374 -18.821419 -144.57587 6446420
118.7653 -18.812346 -143.94957 8485489
119.29797 -18.582546 -143.54283 11905692
-22.210161 -17.97282 -191.21117 9734782
-21.421328 -18.110222 -191.07855 10261899
-20.421034 -18.120655 -190.97064 9341056
-19.296141 -18.190252 -190.828 8748661
-18.225965 -18.123386 -190.74124 10459275
-17.519701 -18.339405 -190.58823 10459275
118.4903 -17.924343 -144.67258 7038307
118.97216 -17.917835 -144.20198 8222321
119.72085 -17.863548 -143.49327 10590092
-23.194429 -17.0679 -191.64661 9734782
-22.476992 -17.284901 -191.49208 9669504
-21.397913 -17.217346 -191.40469 9998727
-20.268538 -17.287874 -191.26126 9538433
-19.269251 -17.299616 -191.153 8682867
119.21584 -17.095171 -144.38148 8617078
119.8226 -17.012999 -143.82669 10655885
120.42913 -16.931215 -143.27191 8880248
-25.896189 -15.741459 -192.61589 10261132
-25.008932 -15.875544 -192.42029 9668731
-24.201101 -16.073488 -192.21454 9603194
-23.247919 -16.146868 -192.07022 9274230
-22.215055 -16.279999 -191.88742 8748916
-21.184298 -16.412573 -191.69557 9867141
-20.393064 -16.551018 -191.54536 10261899
120.07716 -16.189734 -144.01671 10985107
120.82993 -15.951317 -143.48491 9472383
121.62891 -15.616041 -142.97919 8748665
-28.869711 -14.886361 -193.58322 8879478
-27.81455 -15.020221 -193.39044 8418927
-26.929468 -15.080634 -193.26282 9471101
-25.976171 -15.064311 -193.19223 9274236
-24.992529 -15.270682 -192.88058 9537401
-24.042181 -15.253671 -192.79424 9931904
121.83497 -15.004087 -143.43062 8485492
122.70376 -14.825742 -142.85255 8090994
123.61071 -14.563295 -142.38454 8090994
-33.658222 -14.570486 -195.09717 10262156
-32.929726 -14.558063 -195.05833 10064778
-31.717905 -14.537625 -194.99251 8814968
-30.508856 -14.517676 -194.92566 9735302
125.70481 -14.175696 -142.02502 8090732
126.52251 -14.170568 -141.23677 9143419
138.36224 -14.09206 -137.97186 8092019
139.00983 -13.939384 -137.5155 8749688
139.66534 -13.862672 -136.95638 11446687
140.48856 -13.635911 -136.44987 9077108
140.00317 -12.927697 -137.28857 8092011
140.67305 -12.927422 -136.63008 8090471
141.23723 -12.690952 -136.19601 8088931
140.3548 -12.21772 -137.30515 8092011
140.91963 -11.980426 -136.87097 8092011
141.59081 -11.980322 -136.21114 8944498
142.15645 -11.743275 -135.77594 7564651
141.27304 -11.268348 -136.88689 10261388
141.75085 -10.982867 -136.56282 9406337
142.47668 -10.95111 -135.86546 8879995
142.0262 -10.316231 -136.63242 8880251
142.67377 -10.029802 -136.14185 7564651
143.40114 -9.9979887 -135.44298 8879995
142.84492 -9.1217031 -136.4371 7564651
143.52524 -8.9418888 -135.86012 9011322
144.35426 -8.5225792 -135.25923 9208443
143.83655 -7.9225039 -136.07455 13880003
144.49675 -7.7299762 -135.52383 9668994
145.16307 -7.6015673 -134.93433 6314319
144.69849 -6.7986107 -135.80109 11511455
145.43079 -6.7661924 -135.09772 10261386
146.08533 -6.4763598 -134.6022 9800572
145.63445 -5.831604 -135.37471 11906725
146.27942 -5.7505064 -134.78204 10458761
146.78973 -5.7503242 -134.28049 9208435
145.96303 -5.0235624 -135.46423 9011321
146.53891 -4.7801194 -135.02246 8747888
147.22067 -4.7795887 -134.35243 10392455
147.79782 -4.5361433 -133.90941 9340286
146.90474 -4.0501456 -135.03555 9208435
147.39296 -3.757004 -134.70526 9735045
148.16577 -3.8049898 -133.92094 9077370
147.67915 -3.0731435 -134.77303 9340286
148.34007 -2.7786372 -134.27367 9142907
149.07979 -2.7449286 -133.56366 9932167
148.61513 -1.9285138 -134.43741 8419696
149.29117 -1.7962832 -133.84027 9997701
149.89587 -1.8443427 -133.22119 10984855
149.23726 -1.1078731 -134.24475 9208699
150.09683 -1.1061057 -133.40063 10918288
33.041458 -37.952591 -173.73561 10064008
33.788345 -38.009922 -173.51154 9735043
34.789188 -37.968227 -173.12405 7629411
35.803337 -37.71801 -172.81311 7037274
36.601151 -37.686817 -172.50342 8484976
37.596462 -37.649033 -172.11661 9932678
38.391441 -37.619652 -171.80728 10853012
32.233898 -37.07658 -174.03116 7893608
33.021614 -37.178261 -174.01772 8879991
34.047028 -37.160225 -173.74106 9735302
35.049255 -37.119526 -173.35262 7300960
35.84948 -37.087982 -173.0421 7037274
36.847694 -37.049747 -172.65425 8287597
37.844002 -37.012737 -172.26677 9735299
38.639595 -36.98402 -171.95697 10853012
39.632259 -36.949451 -171.56995 10129545
40.623207 -36.916039 -171.18318 9405823
41.414642 -36.890255 -170.87396 8287341
42.420448 -36.650257 -170.56235 9669250
43.406921 -36.620548 -170.17589 8881020
44.194996 -36.597771 -169.86687 9735814
31.166134 -35.734768 -174.48894 9537919
32.060989 -36.137699 -174.36877 8288109
33.043686 -36.207386 -174.37285 9077369
34.166779 -36.157478 -174.08678 11709600
35.124535 -36.067101 -173.73578 8749691
35.926399 -36.036343 -173.42426 7367010
36.926804 -35.999077 -173.03523 6708309
37.908951 -36.173172 -172.57043 8090474
38.705925 -36.145054 -172.25989 9998728
39.700279 -36.111137 -171.8719 9340286
40.692913 -36.078411 -171.48422 8089962
41.485672 -36.053158 -171.17422 8089962
42.475002 -36.022739 -170.78691 8814713
43.462749 -35.9935 -170.39981 8486519
44.251766 -35.971046 -170.09023 8092019
45.236626 -35.944111 -169.70337 12892846
46.220093 -35.918285 -169.31664 7827814
47.20203 -35.89378 -168.93001 8354158
48.203308 -35.661964 -168.61705 11906725
48.98724 -35.644238 -168.30762 9998728
49.965969 -35.623291 -167.92088 10591121
29.497713 -34.725803 -174.80708 10655889
30.132292 -34.958817 -174.74117 10458510
31.212923 -34.997124 -174.75969 9077625
32.218903 -35.104374 -174.75079 8551281
37.390511 -35.142899 -173.18449 6510930
37.974022 -35.332279 -172.87463 8090474
38.772324 -35.304813 -172.56326 9406847
39.768387 -35.271584 -172.17439 8484976
40.780174 -35.029514 -171.86118 8945272
41.574631 -35.004898 -171.55028 8945272
42.511932 -35.029148 -171.16246 9866884
43.537277 -35.156349 -170.6987 9735814
44.327644 -35.134315 -170.38841 8881020
45.314125 -35.107952 -170.00069 13156792
46.299263 -35.082649 -169.61302 8156779
47.282902 -35.058674 -169.22552 7827814
48.265236 -35.035778 -168.83807 10788502
49.050182 -35.018383 -168.5282 7565675
50.030144 -34.997711 -168.14081 11446174
51.009087 -34.978176 -167.75346 9998214
51.791393 -34.963413 -167.44357 9800577
52.768299 -34.946053 -167.05617 9668993
53.767315 -34.721516 -166.74121 8353135
54.742737 -34.706593 -166.35347 8879477
55.717384 -34.692749 -165.96556 11247763
29.192591 -34.039917 -175.04836 9012348
30.183897 -34.115372 -175.05066 9998214
31.177044 -34.192047 -175.05252 8617330
42.999096 -34.544411 -171.15633 11379607
43.671734 -34.385998 -170.94713 11905951
44.601326 -34.291111 -170.60928 11774880
45.589317 -34.265408 -170.2207 11709345
46.430004 -34.119076 -169.93896 9670018
47.38414 -34.012882 -169.59561 8222831
48.36858 -33.990623 -169.20711 7763054
49.155212 -33.973644 -168.89633 7565675
50.068893 -34.074093 -168.48814 9275520
51.096451 -34.143421 -168.0462 9734785
51.880093 -34.128952 -167.73564 9932165
52.858662 -34.111942 -167.34747 9603197
53.836308 -34.09602 -166.95917 8353135
54.813004 -34.081318 -166.5708 9340027
55.788883 -34.067699 -166.18236 10590091
56.568993 -34.057652 -165.87148 9076856
57.543476 -34.046146 -165.48276 9076857
58.460827 -33.96693 -165.14368 8287341
59.515945 -33.818214 -164.77631 7432032
60.489079 -33.810112 -164.38681 8353130
61.072758 -33.805744 -164.153 10260100
28.377579 -32.928677 -175.42961 9143936
29.286022 -33.088287 -175.39864 8223348
30.199919 -33.142273 -175.40637 9275005
30.872643 -33.503841 -175.29465 8090987
49.436184 -33.132454 -169.11348 9012606
50.284531 -33.282673 -168.71213 8288624
51.18391 -33.307316 -168.33949 9471869
52.122009 -33.081715 -168.04958 9471609
53.015167 -33.118847 -167.67453 9734787
53.951546 -33.051872 -167.32297 9340285
54.930302 -33.037529 -166.93361 10326920
55.908295 -33.024216 -166.54417 10656143
56.690086 -33.01442 -166.23253 9274748
57.666641 -33.003201 -165.84285 9866629
58.642559 -32.992996 -165.45303 7629411
59.61787 -32.984005 -165.063 7037274
60.59267 -32.976032 -164.67278 8155496
61.372108 -32.970463 -164.36037 10194821
62.34605 -32.96455 -163.96967 8879735
63.319656 -32.95966 -163.57872 8748149
64.125702 -32.748024 -163.33661 9537920
65.099258 -32.745193 -162.94485 10327177
66.072594 -32.743343 -162.55278 11182228
67.074509 -32.534054 -162.23067 9340283
68.04808 -32.53442 -161.8376 10261132
68.632278 -32.535141 -161.60158 10261132
26.644609 -31.678574 -175.83391 13683904
27.317005 -32.036404 -175.72342 10919832
28.294916 -32.029091 -175.75554 9143936
29.368414 -32.041718 -175.78314 8420727
55.220314 -32.198418 -167.14635 10590091
56.003971 -32.188091 -166.83415 9932678
56.787125 -32.178516 -166.5219 10393229
57.863369 -31.999298 -166.15794 9867141
58.76804 -31.948315 -165.81287 8484205
59.745445 -31.939522 -165.42189 8221033
60.722343 -31.931757 -165.03078 9207670
61.503483 -31.926308 -164.71768 10655886
62.479519 -31.920519 -164.32607 8616307
63.455204 -31.915707 -163.93419 9998215
64.235558 -31.912683 -163.62047 10261643
65.210747 -31.909849 -163.22803 10392970
66.185783 -31.908024 -162.83525 10195591
67.160706 -31.907351 -162.44215 9537661
68.135551 -31.907692 -162.04858 9997959
68.915504 -31.908743 -161.73341 8418928
69.890404 -31.91106 -161.33905 10129801
70.865456 -31.914356 -160.94429 13486011
71.676414 -31.708675 -160.69786 16774119
72.652306 -31.713921 -160.30199 9932421
73.433205 -31.718781 -159.98494 10854036
25.626175 -30.823055 -176.23485 10064265
26.470198 -31.047285 -176.11414 13683904
27.334488 -31.070578 -176.12689 12039338
28.299171 -31.200071 -176.08165 9143936
60.604656 -31.305595 -165.32422 9734528
61.58242 -31.298744 -164.93239 9932163
62.559738 -31.292994 -164.54025 8748149
63.627983 -31.152273 -164.18983 9537920
64.35775 -31.081732 -163.93599 9933191
65.334938 -31.078941 -163.54295 9866884
66.311859 -31.077173 -163.14943 9471869
67.202118 -31.117136 -162.76663 9931649
68.156387 -31.035852 -162.42842 9208697
69.046486 -31.07753 -162.04462 9142651
70.023048 -31.079618 -161.64899 10129801
70.999672 -31.082636 -161.25262 11906980
71.781052 -31.08581 -160.93512 10722193
72.757896 -31.090744 -160.5376 8617074
73.791283 -30.896965 -160.26257 9735555
74.643135 -30.960815 -159.87796 9406589
75.613213 -30.859655 -159.54935 9406076
76.580574 -30.715485 -159.24683 8617075
77.468002 -30.763432 -158.84848 8025194
78.434784 -30.694239 -158.51471 9274749
79.390564 -30.546408 -158.25023 9801604
80.371788 -30.558365 -157.84367 11709345
81.3536 -30.571222 -157.43613 7565667
82.139412 -30.582176 -157.10927 8090992
82.729202 -30.590879 -156.86366 8090992
21.699865 -29.602583 -177.50569 7037274
22.560247 -29.615635 -177.48743 8945011
23.680563 -29.748856 -177.25047 7563874
24.483988 -29.937016 -177.01579 8089963
25.475183 -30.220884 -176.69211 8747893
26.476774 -30.312078 -176.65161 12894132
27.183266 -30.463266 -176.55641 14605262
69.206413 -30.479963 -162.42274 10195079
70.184975 -30.481853 -162.02551 10261643
71.163506 -30.484657 -161.62758 10261643
71.946419 -30.487627 -161.30859 10261643
73.054085 -30.393894 -160.93779 9011832
74.029427 -30.102293 -160.78304 9011832
74.813957 -30.107304 -160.46167 9932162
75.794853 -30.114502 -160.05904 10720909
76.77607 -30.122583 -159.65565 9340286
77.670868 -29.998083 -159.39616 8353903
78.610146 -29.941082 -159.0631 8879991
79.593407 -29.951767 -158.65675 10261899
80.380417 -29.960995 -158.3309 12038310
81.364754 -29.973465 -157.92262 8552306
82.349686 -29.98683 -157.51335 8815223
83.242195 -30.039803 -157.10892 7827821
84.217644 -29.974813 -156.76784 7235421
85.111473 -30.029442 -156.36156 9603458
86.005608 -30.084953 -155.95435 10063753
86.999229 -29.872814 -155.81143 9735302
88.023048 -29.670015 -155.71475 9143936
88.897522 -29.719746 -155.26111 9669766
89.776466 -29.771877 -154.81427 6840152
90.778809 -29.717274 -154.4917 6248015
91.78643 -29.586105 -154.25719 7300190
92.569542 -29.59927 -153.89229 8617335
93.548141 -29.616333 -153.43404 8683898
94.527229 -29.634068 -152.97334 10788244
95.114433 -29.645084 -152.6958 8092019
101.13848 -29.460432 -150.86024 5919562
102.12507 -29.483311 -150.37914 5920074
-0.31619108 -28.784452 -184.95451 10526095
0.79071581 -28.986015 -184.7652 10196874
1.8958679 -28.968504 -184.6566 10525328
2.7790198 -28.955227 -184.56953 9341054
3.5875564 -29.016815 -184.46269 7564643
4.3214583 -29.15296 -184.33621 7564643
7.5570502 -29.312136 -182.35037 8156531
8.4299946 -29.310984 -182.31415 8814203
9.3029423 -29.309826 -182.27371 9998215
10.175467 -29.308662 -182.22906 9077625
17.953985 -29.294579 -178.76971 10458246
18.809511 -29.29339 -178.68314 9733499
19.87858 -29.291891 -178.56973 8680811
20.73432 -29.292299 -178.48412 9602428
21.381128 -29.29965 -178.46077 8484461
95.816696 -29.349413 -153.41376 8814203
96.604683 -29.364508 -153.04019 10721167
97.589783 -29.384087 -152.57086 11510682
98.574951 -29.404364 -152.09918 15327705
99.363487 -29.421099 -151.71986 15327705
100.15221 -29.438288 -151.33891 7168859
103.26893 -29.194101 -150.89442 6249042
104.26209 -29.217981 -150.40714 5919050
104.97413 -29.214756 -149.89694 5919050
105.64293 -29.200367 -149.32603 8419184
108.30594 -28.800644 -149.14337 9078394
108.90832 -28.708858 -148.59781 7432545
109.54739 -28.689095 -147.97943 7433065
-1.8733047 -27.929861 -185.43083 6511954
-1.1320556 -28.063963 -185.30443 8617842
-0.18511426 -28.077414 -185.2009 9078137
0.87885439 -28.14838 -185.06406 10065289
1.8972107 -28.088673 -184.98007 10261901
2.7812171 -28.295845 -184.81184 7564643
109.13558 -27.90292 -148.78522 8485745
109.73809 -27.812092 -148.23904 7367270
110.33999 -27.721865 -147.69312 7038307
-3.6660523 -26.634844 -186.09395 12630959
-3.0682435 -26.919413 -185.92703 11973029
-2.099833 -27.270996 -185.69684 9669762
-1.0764908 -27.209389 -185.61307 6577491
-0.0094360113 -27.280327 -185.47595 8749172
0.93755877 -27.294916 -185.37206 9801861
1.6766716 -27.430923 -185.24507 8485494
109.9291 -26.933268 -148.49915 7169634
110.72911 -26.910789 -147.72395 7038307
111.41656 -26.673758 -147.16872 10984852
-4.7177529 -25.914202 -186.46855 9209981
-3.8960862 -25.973333 -186.36131 10130569
-2.9559731 -26.089855 -186.22063 11051671
-2.01158 -26.099144 -186.11896 8683124
-0.9910835 -26.367374 -185.91409 7432545
-0.099970222 -26.57449 -185.74515 8091242
110.23298 -26.268528 -148.53918 6840154
110.76174 -26.035048 -148.13824 7169893
111.50764 -25.971607 -147.43712 10195594
-5.8355279 -25.07443 -186.89392 9011579
-4.8019509 -25.100092 -186.77695 9143166
-3.9048982 -25.084249 -186.68945 8617079
-3.0089059 -25.069 -186.60185 8682867
-2.1125131 -25.276579 -186.43216 8748916
111.0667 -25.369631 -148.17761 9011579
111.75238 -24.967989 -147.70804 8945529
112.53092 -24.747822 -147.05466 7761766
113.18295 -24.439989 -146.57047 5920074
-7.7444139 -24.038502 -187.47375 9143675
-6.8383393 -24.245028 -187.30351 9011579
-5.7120538 -24.224377 -187.19394 10458507
-4.8123574 -24.20853 -187.10617 10721683
-3.9878831 -24.268784 -186.99818 8617081
-3.2384667 -24.404945 -186.87013 8617081
111.99932 -24.028162 -147.94426 8419440
112.68969 -23.791826 -147.38591 7367008
113.45374 -23.701216 -146.68076 5920074
-9.8090153 -22.731918 -188.16945 10261899
-8.7441082 -23.011154 -187.9559 9867141
-7.7025933 -23.197493 -187.77896 9998471
-6.62995 -23.122057 -187.69511 9143419
-5.7710443 -23.196663 -187.57834 9011835
-4.8201814 -23.538589 -187.35352 11050650
112.83688 -23.127655 -147.57968 7169629
113.52776 -22.891932 -147.02049 7498597
114.29218 -22.802338 -146.31439 8879734
-11.423361 -21.861717 -188.65765 9208435
-10.659883 -21.997353 -188.52829 9537406
-9.6880512 -22.009184 -188.42288 9932678
-8.5956364 -22.079266 -188.28342 9077882
-7.5530725 -22.015713 -188.19832 10261900
-6.8698678 -22.228788 -188.04887 10064521
113.77989 -22.047665 -147.20296 7433064
114.52798 -21.98822 -146.49759 9997961
115.0589 -21.756927 -146.0934 9405822
-12.589582 -20.979637 -189.10362 9208435
-11.668554 -21.188383 -188.93098 9208435
-10.619226 -21.123583 -188.84567 9603200
-9.5230999 -21.194118 -188.7057 8946043
-8.5516911 -21.207098 -188.59984 8683125
114.6943 -20.941589 -146.86755 8353908
115.36955 -21.087255 -146.12927 10458254
115.9011 -20.856209 -145.7244 10853012
-14.384882 -19.802769 -189.72356 8813683
-13.451509 -20.23987 -189.46556 9734779
-12.607862 -20.299641 -189.35582 9405814
-11.462458 -20.278576 -189.24437 9077109
-10.319105 -20.258236 -189.13289 9011579
-9.6294041 -20.472729 -188.98221 8814457
115.13835 -19.982231 -146.91998 10261132
115.6209 -19.973465 -146.44987 10129541
116.26353 -19.962421 -145.82356 7367004
116.84673 -19.508514 -145.48149 5920074
-16.112097 -18.770744 -190.2831 8813683
-15.410707 -18.986046 -190.13086 8945269
-14.487093 -18.968863 -190.04111 9537149
-13.461695 -19.113018 -189.88138 10720906
-12.40526 -19.289394 -189.70653 9668730
-11.330103 -19.443901 -189.53781 8879992
115.98349 -19.077511 -146.55002 8090469
116.51688 -18.845963 -146.14357 6972503
117.26676 -18.789644 -145.43484 5920074
-17.221018 -18.027794 -190.67186 10064262
-16.367136 -18.088482 -190.56075 9340286
-15.302835 -18.023413 -190.47394 9274235
-14.190134 -18.095343 -190.3317 9668731
-13.123652 -18.259798 -190.16023 10523783
116.75687 -18.024054 -146.32642 8090469
117.36437 -17.940409 -145.77162 7630177
118.00797 -17.931055 -145.14345 7367264
-18.969774 -16.986732 -191.23692 8682867
-18.260672 -17.204098 -191.08319 9077625
-17.328722 -17.187279 -190.99245 10327435
-16.260614 -17.122511 -190.9052 8025194
-15.234354 -17.265593 -190.74571 8551282
-14.304487 -17.364552 -190.61258 8090987
117.60581 -17.116795 -145.95384 8419696
118.30005 -17.07732 -145.29128 8748405
118.90952 -16.800608 -144.83289 8485491
-21.87002 -15.668151 -192.25119 9143675
-21.143324 -15.880588 -192.01227 9670019
-20.097422 -16.240124 -191.66803 10524559
-19.234224 -16.301323 -191.54889 10129545
-18.161184 -16.237251 -191.47157 9274492
-17.036642 -16.309475 -191.31648 9340542
-15.956865 -16.473307 -191.11249 8419696
118.46456 -16.209393 -145.58968 7827815
119.26807 -15.960774 -145.00574 9932421
120.11101 -15.566808 -144.5265 10130313
-25.056902 -14.82605 -193.36195 9208435
-23.871099 -14.80819 -193.2912 10392457
-22.890699 -15.013864 -192.96361 10656142
-22.091311 -15.073974 -192.80621 10393225
-20.957277 -15.313556 -192.42636 9735556
-19.908213 -15.454089 -192.2095 10655889
-18.814108 -15.61643 -191.97131 9406078
-18.111616 -15.605059 -191.90652 8682867
120.2161 -15.020758 -145.00607 9471614
121.07917 -14.840672 -144.42213 7959144
121.97775 -14.576268 -143.94727 9406590
-29.543993 -14.502033 -194.87137 10524044
-28.580809 -14.486693 -194.8163 10524044
-27.619505 -14.471604 -194.76053 9142392
-26.659945 -14.456865 -194.7041 10260358
124.06596 -14.187191 -143.59978 9143937
124.88615 -14.181211 -142.81261 7038307
136.70374 -14.096171 -139.62144 9011576
137.35068 -13.942899 -139.1669 8551025
138.007 -13.865611 -138.60974 7432288
138.81627 -13.637033 -138.09352 8092019
138.32874 -12.929647 -138.9339 7629923
139.08678 -12.975835 -138.16502 8157550
139.56187 -12.69168 -137.84296 8092011
138.6781 -12.219651 -138.95276 8682867
139.2421 -11.981885 -138.51958 10920084
139.91309 -11.981107 -137.86029 9539201
140.47781 -11.743611 -137.42621 8092011
139.65446 -11.032083 -138.59892 13024943
140.15858 -11.03149 -138.10358 13157048
140.83081 -11.030884 -137.44293 9341566
140.44038 -10.158421 -138.27211 16051427
141.07829 -10.078316 -137.68585 10919318
141.71649 -9.9983416 -137.09915 8419184
141.32648 -9.1227713 -137.92949 9537665
142.00931 -8.814312 -137.41563 8682356
142.6861 -8.7625189 -136.77672 7958377
142.31425 -7.923605 -137.5706 9998732
142.96492 -7.6345916 -137.07855 8748665
143.69551 -7.6020513 -136.37689 15459035
143.10551 -6.8400779 -137.34601 8090993
143.89577 -6.6705551 -136.65565 11840421
144.55742 -6.4770255 -136.104 11511455
143.93536 -5.8330903 -137.04442 8485494
144.74942 -5.7516012 -136.28564 10853781
145.49359 -5.5089183 -135.6779 10459023
144.26118 -5.0253563 -137.13649 8813939
144.83582 -4.7818656 -136.69589 7761254
145.63199 -4.7324395 -135.93842 9866630
145.19904 -4.052248 -136.71132 9011321
145.7753 -3.8077548 -136.26965 10064265
146.45793 -3.8068979 -135.59904 8550771
146.07004 -2.9125421 -136.43704 10196107
146.71854 -2.8299866 -135.84161 9406850
147.3676 -2.747447 -135.24571 8814458
147.0154 -1.9314548 -136.00864 10064522
147.66556 -1.8483871 -135.41188 7564651
148.17989 -1.8474703 -134.90672 7564643
147.69162 -1.1112304 -135.76262 9735558
148.49464 -0.86334527 -135.1946 7762539
33.338196 -35.71122 -174.56284 10853012
33.746788 -35.700848 -174.4357 14077885
32.526669 -34.833515 -174.85892 8090987
33.164062 -35.069176 -174.79201 9669506
34.193367 -35.051395 -174.51073 12038820
35.199902 -35.012768 -174.11967 11051927
36.00351 -34.982819 -173.80716 8815483
36.929123 -34.907246 -173.46332 6971738
38.022911 -34.700794 -173.10303 8617075
38.822197 -34.673801 -172.79114 9801605
39.819523 -34.641094 -172.40146 8616818
31.713621 -33.956707 -175.15454 8090987
32.351395 -34.191395 -175.08806 8090987
33.444595 -34.010586 -175.13812 8617333
34.422432 -34.072258 -174.80302 9538948
35.260353 -34.167721 -174.42734 12499370
36.189022 -34.091877 -174.0824 9538949
37.146679 -34.142334 -173.67613 8354933
38.071804 -34.068516 -173.33177 9406847
38.872139 -34.041866 -173.01929 9867141
39.870731 -34.009743 -172.62891 9011832
40.867626 -33.97871 -172.23883 8616562
41.786644 -33.909233 -171.89523 10129543
42.733086 -33.965679 -171.49113 10721678
43.589417 -33.829983 -171.19888 11905694
44.658611 -33.661884 -170.83347 12958898
45.647873 -33.636585 -170.44411 10459278
46.240734 -33.621944 -170.21065 9209467
30.491264 -32.643097 -175.59743 9537406
31.39113 -33.044296 -175.47795 9143418
32.420925 -33.132774 -175.47662 10392970
33.402351 -33.055023 -175.49759 9406335
34.585392 -33.277565 -175.04955 8815226
35.320862 -33.321262 -174.7356 11709856
36.390598 -33.125069 -174.38095 9538692
37.350174 -33.039539 -174.02731 9604485
38.153473 -33.012901 -173.71361 9998986
39.101448 -33.035061 -173.32233 10459278
40.139011 -33.160603 -172.85428 9011832
40.937683 -33.136436 -172.54149 8222573
41.934296 -33.107288 -172.15077 9011575
42.929306 -33.079258 -171.76025 10524556
43.724026 -33.057671 -171.448 8485488
44.716019 -33.031761 -171.05791 9998467
45.70652 -33.006905 -170.66792 10459278
46.497795 -32.987873 -170.35611 9209467
47.485588 -32.965115 -169.96635 9472897
48.472172 -32.943409 -169.57681 8618105
49.20179 -32.858398 -169.31577 7565675
50.26609 -32.697861 -168.94939 7630435
51.249596 -32.679428 -168.55969 8880244
51.839184 -32.668842 -168.32593 9537403
29.674456 -31.768293 -175.89223 9537406
30.530563 -32.007599 -175.83063 9340027
31.618433 -32.042873 -175.85043 11246994
32.413181 -32.140347 -175.83875 11378324
39.479088 -32.268166 -173.4713 10196106
40.207882 -32.31636 -173.15826 9669762
41.007881 -32.292717 -172.84471 9801348
42.070961 -32.172268 -172.46306 8419695
43.021301 -32.025974 -172.13699 9998212
43.817745 -32.004951 -171.82388 9537659
44.811806 -31.97979 -171.43262 9668730
45.784798 -32.166119 -170.96671 9209467
46.577465 -32.14748 -170.65416 9472639
47.566925 -32.125259 -170.26363 9735812
48.555141 -32.10405 -169.87314 11117466
49.344757 -32.08791 -169.56084 8420725
50.330608 -32.068756 -169.17055 6906200
51.315399 -32.050587 -168.78026 7827814
52.298965 -32.033619 -168.39001 8945523
53.281601 -32.017643 -167.99976 9077370
54.066986 -32.005665 -167.68747 7959401
54.961601 -31.888371 -167.37256 8748661
56.051853 -31.769457 -166.97939 9471871
56.835655 -31.75993 -166.6667 9932678
57.423168 -31.75325 -166.43225 10854036
28.652092 -30.901846 -176.26373 8617849
29.501186 -31.131786 -176.1573 8485748
30.587954 -31.164042 -176.17169 9931906
31.659159 -31.405806 -176.08421 10851980
45.28656 -31.127117 -171.5761 10655369
45.863235 -31.323881 -171.26605 9208693
46.657215 -31.305693 -170.95274 10525328
47.648918 -31.284304 -170.56323 10788500
48.639729 -31.264179 -170.17511 12104360
49.431408 -31.248821 -169.86453 8683124
50.419846 -31.230629 -169.47621 6642516
51.445004 -31.012493 -169.21368 6906200
52.432079 -30.996576 -168.82552 8550769
53.418175 -30.981592 -168.43718 8419696
54.206303 -30.970364 -168.12631 7827815
55.19059 -30.957266 -167.73749 8814198
56.174015 -30.945099 -167.34831 8879734
56.960102 -30.936125 -167.0367 9274748
57.881844 -30.976202 -166.63441 7301214
58.878292 -31.115986 -166.12863 7169372
59.662052 -31.109135 -165.81619 10983567
60.677864 -30.897482 -165.52618 9142390
61.657413 -30.890999 -165.13553 9932163
62.636398 -30.885544 -164.7442 9405821
63.419304 -30.881802 -164.43079 8089963
25.145149 -29.657509 -177.42447 8089963
25.792639 -29.668566 -177.40659 9077114
26.702784 -29.806932 -177.20761 13026232
27.733526 -30.037085 -176.97185 9868428
28.725395 -30.303434 -176.72444 7828333
29.514227 -30.391655 -176.68007 7433831
30.222668 -30.545137 -176.58333 8288368
57.340492 -30.139256 -167.50131 8089963
58.202408 -30.229197 -167.07855 5920074
59.06329 -30.319864 -166.65562 8090475
59.849865 -30.313309 -166.343 10194566
60.8325 -30.306036 -165.95171 8747375
61.814529 -30.299662 -165.55988 9932163
62.8773 -30.210167 -165.21097 9011318
63.836441 -30.094358 -164.92897 8419952
64.622002 -30.091614 -164.61452 8748917
65.603523 -30.088995 -164.22041 9209211
66.584549 -30.087177 -163.82526 8682867
67.36898 -30.086397 -163.50836 9142904
68.349251 -30.086166 -163.11108 10128771
69.39045 -29.890232 -162.85776 9932679
70.174644 -29.891222 -162.53723 11314587
71.154518 -29.893238 -162.13528 10261643
72.134041 -29.896055 -161.73201 9603457
73.047791 -29.859877 -161.3878 9208955
74.155785 -29.70612 -161.0594 9011832
74.941055 -29.710829 -160.73596 9471611
75.923698 -29.717907 -160.33282 10129025
76.906693 -29.725849 -159.92883 8879991
77.496559 -29.731056 -159.68597 8419696
84.348747 -29.483873 -157.6458 7103835
85.327667 -29.494995 -157.20766 9011320
86.306374 -29.506817 -156.76733 9143679
86.893578 -29.51425 -156.50203 9012350
4.1037116 -28.716957 -184.51927 7564643
4.9838042 -28.924789 -184.35126 11181460
5.8648582 -28.915022 -184.2719 9537406
6.9689879 -28.918915 -184.27023 9143165
7.8500724 -29.144213 -184.20168 10064011
10.829767 -29.307787 -182.19295 10459278
11.484053 -29.306911 -182.15428 10919829
12.573984 -29.305441 -182.08449 10459278
13.66358 -29.303963 -182.00859 10064265
14.317144 -29.303074 -181.95996 8813942
22.029377 -29.309057 -178.44702 8484461
22.894354 -29.321936 -178.42746 10655626
23.976616 -29.338646 -178.40092 9405821
24.843168 -29.352451 -178.37822 8089963
77.292488 -29.424387 -160.73314 9142903
78.077568 -29.429281 -160.39572 8616563
78.862457 -29.434525 -160.05693 8616563
79.842613 -29.441744 -159.63152 8945784
80.822563 -29.449644 -159.20399 9341310
81.606422 -29.45643 -158.86031 8420720
82.585953 -29.465628 -158.42854 8683892
83.565445 -29.475491 -157.99461 8551281
86.958008 -29.210289 -157.5051 8092019
87.548958 -29.217812 -157.23839 8092019
88.336174 -29.228281 -156.88174 8552056
89.32029 -29.241951 -156.4337 9011834
90.304649 -29.256285 -155.98334 9011577
91.091934 -29.268248 -155.62131 8681843
92.076195 -29.283842 -155.16599 8418927
93.060471 -29.300089 -154.70837 10458769
93.84771 -29.313589 -154.34055 10788504
94.832291 -29.331179 -153.8782 9078143
99.120766 -29.160576 -153.34187 16775151
99.670181 -29.159447 -152.98463 16775151
100.58297 -29.157558 -152.3848 9275261
101.49557 -29.15667 -151.785 5920074
102.27627 -29.170885 -151.37917 5920074
106.70179 -28.854498 -150.69339 9866886
107.30632 -28.761126 -150.14658 8024426
107.91015 -28.668369 -149.6001 8156780
2.7826781 -27.855692 -184.97363 8485494
3.8868194 -28.060505 -184.78345 8090730
4.9906478 -28.046144 -184.6739 11576218
5.8732009 -28.036575 -184.59404 7959144
6.7553763 -28.258778 -184.50858 9735299
107.53147 -27.953709 -150.33675 9011065
108.13603 -27.861334 -149.78931 8090987
108.73997 -27.769611 -149.24217 8485745
1.2334305 -26.996237 -185.45125 8485494
1.9725891 -27.132479 -185.32416 8485494
3.0063071 -27.191507 -185.19487 8419444
4.1129394 -27.176785 -185.08516 8616306
4.9974341 -27.16573 -184.99724 10786959
5.6584029 -27.378084 -184.85034 9142905
107.79504 -27.216648 -150.45331 7563619
108.32461 -26.981167 -150.05258 7300446
109.12756 -26.956776 -149.27539 7498855
-0.77079618 -25.699118 -186.1371 7893352
0.16584551 -26.039135 -185.91452 8288109
1.0113884 -26.115124 -185.79858 7498856
2.1224608 -26.099375 -185.68881 8485494
3.1876349 -26.173458 -185.5507 9669250
4.0439124 -26.368759 -185.38974 8089963
108.62719 -26.31506 -150.09457 6510930
109.15711 -26.080126 -149.69325 6906204
109.90553 -26.014893 -148.99052 6971741
-2.3390527 -24.835594 -186.6181 8814966
-1.5927299 -24.971926 -186.49026 8156780
-0.77327192 -25.033295 -186.38239 7893352
0.11936724 -25.019955 -186.29446 8682611
1.2339073 -25.004095 -186.18431 9932677
2.3467574 -25.210829 -185.99251 8485494
109.50848 -25.192232 -149.80032 7169634
110.1475 -25.009769 -149.26492 7367271
110.92805 -24.787703 -148.61057 7696236
-3.4668794 -23.962811 -187.05664 7827566
-2.5677934 -24.171261 -186.88637 8880250
-1.6717285 -24.157291 -186.79832 8090987
-0.77655256 -24.143824 -186.71013 8814966
0.25169909 -24.17355 -186.59218 10459276
1.2341515 -24.337927 -186.42953 11905951
110.39184 -24.068499 -149.50439 7564651
111.08384 -23.830442 -148.9453 8090986
111.85021 -23.738213 -148.23874 8814454
-5.5073991 -22.654594 -187.75043 10261391
-4.6933122 -22.820425 -187.60466 10261391
-3.6977677 -23.296534 -187.32585 8353909
-2.5742517 -23.278894 -187.21547 10196108
-1.6765999 -23.265371 -187.12704 10919829
-0.85434186 -23.327829 -187.01851 9341310
-0.10732877 -23.465992 -186.89 10261641
111.36878 -23.01478 -149.08092 8222573
111.99566 -22.882139 -148.5321 8946040
112.68822 -22.836868 -147.87411 8814198
-6.5728021 -21.924009 -188.13013 9735812
-5.6071496 -21.93807 -188.02444 8945784
-4.521975 -22.01059 -187.88489 10590354
-3.4830194 -22.173834 -187.71669 9143167
-2.6267648 -22.250673 -187.59935 11183001
-1.6803077 -22.595177 -187.37411 11380380
112.17146 -22.082485 -148.76688 7762021
112.92179 -22.021582 -148.06004 8024942
113.45359 -21.789064 -147.65558 9143166
-8.2540874 -20.901115 -188.68146 9209467
-7.5684152 -21.115139 -188.53139 9604226
-6.5254045 -21.053017 -188.44574 9603969
-5.4367661 -21.12582 -188.30569 8353135
-4.3968034 -21.064932 -188.21992 9143163
-3.7167726 -21.279711 -188.07008 8089963
112.58606 -21.364569 -148.72511 5919050
113.16805 -20.908514 -148.38533 6445910
113.8124 -20.895401 -147.75833 7564393
114.34492 -20.663216 -147.35307 7038307
-9.3316288 -20.165783 -189.06421 8814457
-8.4942646 -20.227203 -188.95451 8156780
-7.4480653 -20.165043 -188.86855 9735300
-6.3559289 -20.238302 -188.72798 10392974
-5.3100305 -20.402929 -188.55853 9143163
113.527 -20.012686 -148.48897 7563618
114.06064 -19.779789 -148.08295 7301222
114.70541 -19.767733 -147.45502 8090736
115.23873 -19.535662 -147.04889 12432037
-11.960928 -18.696281 -189.8786 9208435
-11.19187 -18.835077 -189.7475 8617076
-10.344526 -19.124096 -189.55302 7565418
-9.3327274 -19.04277 -189.47766 8025196
-8.2850285 -19.220739 -189.30316 8682612
-7.2183213 -19.376987 -189.13469 9603458
-6.4573922 -19.516527 -189.00414 8813942
114.37139 -19.105766 -148.12093 8090736
114.90559 -18.873098 -147.7142 8485229
115.65745 -18.815557 -147.0042 8485229
-13.136328 -17.802971 -190.32967 9208435
-12.208559 -18.016031 -190.15474 10195334
-11.288584 -18.001055 -190.06453 9932166
-10.233366 -17.938848 -189.97765 9340285
-9.2215023 -18.082775 -189.81938 8748663
-7.8389955 -18.630453 -189.47403 9340286
115.14344 -18.050116 -147.89983 8485229
115.75237 -17.965492 -147.34412 9471867
116.36092 -17.881218 -146.78862 6511954
-14.781523 -16.913618 -190.82817 8090987
-14.005194 -17.05377 -190.69582 9077109
-13.155443 -17.116455 -190.58432 9208435
-12.232309 -17.101774 -190.49368 9077109
-11.080564 -17.084055 -190.38039 9011576
-10.155558 -17.298685 -190.20514 9932166
115.9916 -17.140858 -147.52914 7827300
116.68755 -17.100298 -146.86531 7301213
117.2977 -16.822466 -146.40686 9340286
-15.979242 -16.019543 -191.36569 8879991
-15.038607 -16.231535 -191.1505 9406076
-14.110758 -16.217049 -191.06189 10129539
-13.047571 -16.155807 -190.98698 8682866
-12.019423 -16.411118 -190.72574 9011576
116.81396 -16.157297 -147.243 8287084
117.65092 -15.981264 -146.57968 8419440
118.49198 -15.585826 -146.09987 7762022
-21.506575 -14.773878 -193.14626 9735296
-20.799158 -14.763924 -193.10179 8682867
-19.857534 -14.750956 -193.04196 8682867
-18.749151 -14.90756 -192.70702 9800836
-17.822252 -15.30027 -192.10907 10722448
-16.958811 -15.361849 -191.9718 10787984
-15.887823 -15.300614 -191.90666 9472127
-15.078051 -15.558013 -191.62547 10853004
-14.148062 -15.544275 -191.53879 9471867
118.75568 -15.037505 -146.42557 9011577
119.63602 -14.769543 -145.9341 8616566
120.50305 -14.589365 -145.35236 8485233
-25.463041 -14.438809 -194.63243 9734529
-24.268724 -14.421253 -194.55974 9471354
-23.314989 -14.407421 -194.50078 8682867
-22.600706 -14.397258 -194.45605 9735296
122.42168 -14.200357 -145.17258 8880757
123.24454 -14.193559 -144.38643 10591630
135.0255 -14.100283 -141.25102 14077894
135.76749 -13.984762 -140.67242 12564649
136.57414 -13.755164 -140.15884 8616817
137.31128 -13.639541 -139.57196 6510930
136.69014 -13.01196 -140.50294 10656652
137.49152 -12.931271 -139.7562 7761253
137.0014 -12.223182 -140.59952 9209208
137.5647 -11.984966 -140.16722 10130312
138.34848 -11.935961 -139.42168 9801090
137.91353 -11.272824 -140.18776 10853777
138.47818 -11.034055 -139.75446 9209210
139.15033 -11.032824 -139.09421 11380120
138.75723 -10.161101 -139.9256 8682867
139.39471 -10.080462 -139.33995 10853777
140.03256 -10.000023 -138.75394 15327696
139.7551 -9.0052433 -139.53452 9340283
140.37628 -8.8846197 -138.98528 12103586
140.99796 -8.7640791 -138.43564 9998215
140.72134 -7.7654457 -139.21738 6510930
141.36217 -7.6844001 -138.62878 8419183
142.00325 -7.603488 -138.03983 11051160
141.61186 -6.7214317 -138.87508 10195589
142.28967 -6.7204871 -138.20917 10656658
142.86119 -6.4787045 -137.77075 9932937
142.427 -5.802794 -138.54272 10985108
143.22061 -5.7532935 -137.78783 9209215
143.79366 -5.5106072 -137.34834 7038307
143.30429 -4.7840304 -138.2005 9669764
144.1196 -4.7019057 -137.44086 7630178
143.49495 -4.0548463 -138.38538 8813939
144.24048 -3.8101108 -137.77745 8222058
145.05768 -3.7276313 -137.01613 8879733
144.49701 -2.8338845 -138.0238 7038298
145.09898 -2.8816214 -137.40747 12036512
145.7576 -2.5871806 -136.91035 11050389
145.30319 -1.9348388 -137.69012 10590350
146.04213 -1.900646 -136.9812 9932935
146.70276 -1.604911 -136.48268 10261901
146.2814 -0.95041597 -137.29439 8222573
146.94893 -0.86685264 -136.71242 8880507
147.75157 -0.61896861 -136.14482 9735558
33.744892 -32.741795 -175.58479 8814712
34.557571 -32.714447 -175.28209 8814712
35.366287 -32.685532 -174.96703 9998727
35.972076 -32.66428 -174.73096 9933193
32.722954 -31.86689 -175.94792 10063750
33.574234 -32.100891 -175.83807 9011834
