# .PCD v0.7 - Point Cloud Data file format
VERSION 0.7
FIELDS x y z rgb
SIZE 4 4 4 4
TYPE F F F U
COUNT 1 1 1 1
WIDTH 1197
HEIGHT 1
VIEWPOINT 0 0 0 1 0 0 0
POINTS 1197
DATA ascii
-71.758499 -64.52066 90.936409 9209467
-72.652878 -64.593071 90.503105 9998725
-73.574486 -64.472351 90.136116 8353391
-74.251564 -64.136543 89.966805 8089963
-72.743408 -63.689766 90.827805 10459277
-73.597565 -63.463886 90.534187 9275005
-74.546638 -63.472691 90.102707 8946040
-75.419838 -63.17543 89.829475 11051672
-73.861832 -62.680229 90.73259 9143419
-74.628952 -62.589645 90.423386 9011833
-75.589203 -62.448212 90.047752 10327176
-74.761925 -61.770725 90.695198 8485489
-75.62191 -61.417118 90.450745 8485744
-76.230339 -61.527508 90.131683 9340539
-75.883514 -60.765877 90.602264 9340539
-76.410454 -60.605103 90.45462 8090987
-69.099937 -66.037842 91.528763 8288371
-69.35125 -66.067581 91.40329 8288371
-67.871826 -65.650764 92.239662 8683126
-68.738342 -65.531464 91.895798 7893614
-69.632195 -65.40078 91.544128 8419956
-70.319588 -65.228226 91.302673 9012091
-68.919609 -64.54892 92.208641 8354164
-69.788475 -64.558502 91.811905 8222578
-70.708107 -64.465385 91.433464 9670017
-71.426956 -64.196159 91.21666 9209467
-69.869804 -63.658955 92.136795 9275006
-70.738014 -63.505116 91.806976 11577242
-71.679642 -63.45742 91.401596 9209467
-72.410629 -63.364807 91.109512 10788242
-70.858742 -62.702267 92.077667 11577243
-71.72728 -62.54158 91.751183 9077881
-72.715714 -62.503536 91.320923 9341308
-73.536247 -62.341705 91.016525 9735812
-72.005157 -61.731487 91.954094 8486256
-72.747261 -61.462269 91.728584 8289390
-73.690453 -61.514957 91.281944 9735810
-74.633827 -61.253403 90.962593 8880246
-73.062157 -60.80492 91.852905 8092011
-73.750992 -60.586834 91.672264 9472638
-74.672806 -60.488575 91.336197 9801091
-75.611298 -60.388081 90.973877 8748660
-76.440346 -60.112522 90.821754 8682611
-74.940895 -59.8764 91.695885 10130314
-75.788895 -59.692158 91.468346 9077368
-76.707588 -59.490524 91.228279 9602943
-77.399612 -59.120872 91.513062 9865859
-65.11599 -65.531151 93.533836 9603969
-65.828842 -65.33667 93.289665 11774880
-66.788132 -65.463669 92.804855 11577501
-67.542686 -65.333069 92.516167 9077883
-66.123093 -64.638771 93.437073 9735812
-66.864716 -64.525139 93.147346 9998984
-67.837547 -64.506027 92.715149 8156013
-68.555771 -64.326393 92.462532 8090736
-67.076126 -63.791241 93.346672 9800837
-67.84404 -63.488422 93.121109 8747893
-68.814484 -63.442223 92.700859 9274493
-69.537415 -63.340279 92.415222 8551541
-68.21653 -62.672691 93.280991 9010808
-68.897675 -62.567135 93.016655 9602945
-69.838509 -62.517532 92.612511 10525070
-70.643806 -62.309311 92.333801 10656398
-69.070236 -61.800747 93.249359 10524815
-69.80793 -61.482521 93.045647 10064520
-70.789894 -61.48621 92.601402 9603968
-71.625244 -61.476612 92.228676 9275515
-72.344872 -61.035107 92.083122 8092011
-70.162231 -60.788799 93.167007 8682867
-70.900482 -60.630173 92.931053 8880246
-71.842964 -60.529499 92.58551 9143929
-72.723274 -60.411739 92.259247 8486512
-73.748535 -60.117016 92.031036 9143419
-72.1408 -59.862648 92.969009 9406844
-72.959045 -59.730667 92.711029 10590603
-73.850586 -59.555931 92.462097 9669251
-74.816376 -59.382099 92.241669 10261132
-75.806183 -59.147377 92.186958 10853780
-76.797745 -59.082546 91.917297 10195080
-76.852348 -58.926796 92.433846 10524302
-77.685341 -58.883198 92.210381 10589325
-62.367077 -65.36203 94.844818 8090995
-63.018772 -65.260902 94.590775 9867145
-63.954548 -65.366035 94.125389 8748666
-64.650612 -65.329376 93.825348 9472384
-63.176273 -64.700562 94.744728 12300710
-63.924149 -64.557358 94.464081 10064267
-64.940445 -64.560593 94.00322 10064006
-65.747635 -64.278687 93.751518 9735555
-64.193039 -63.877285 94.615761 9801093
-64.936058 -63.4753 94.441299 9406334
-65.934761 -63.490337 93.983673 9735298
-66.752823 -63.465488 93.623756 9801092
-67.452148 -63.012531 93.489525 9931910
-65.311722 -62.806431 94.540207 9735041
-65.95549 -62.553684 94.350647 9735041
-66.94017 -62.523026 93.918007 9734530
-67.816833 -62.383457 93.578491 10260875
-68.414993 -62.170681 93.394905 10853012
-66.327248 -61.860168 94.462029 10129030
-67.00618 -61.50909 94.298149 11708059
-67.916382 -61.494328 93.893738 10326667
-68.744186 -61.474152 93.528664 9932678
-69.453514 -61.026432 93.390236 9538176
-67.415535 -60.821201 94.392319 11576473
-68.030251 -60.620304 94.229797 9142650
-68.916153 -60.556713 93.888641 9011832
-69.822716 -60.404095 93.572159 9209211
-70.814835 -60.144688 93.329819 8354159
-71.382362 -60.062328 93.143242 9537918
-69.361534 -59.876793 94.209259 9538176
-70.037041 -59.767326 93.996826 9538176
-70.942139 -59.575474 93.752815 8222573
-71.882858 -59.430031 93.499382 9143160
-72.815887 -59.226654 93.399414 10524555
-73.773567 -59.090206 93.251907 9734788
-74.457809 -59.098289 92.916054 9734788
-72.765587 -59.003506 94.006927 10984849
-74.017044 -58.916737 93.744911 9734788
-74.93705 -58.90192 93.382278 9734788
-75.897308 -58.829811 93.208527 10458766
-76.96656 -58.759422 93.071449 10393485
-77.880074 -58.715893 92.985077 9866372
-78.710915 -58.716011 93.290565 7039331
-60.472893 -65.052437 95.428452 10129545
-61.030426 -65.158058 95.29026 9800580
-62.020493 -65.171432 95.063133 8222580
-56.339859 -64.310501 96.43779 8288621
-57.134609 -64.344025 96.284035 8288621
-58.124809 -64.427246 96.077164 11249307
-59.053471 -64.44828 95.904213 12301226
-60.07095 -64.55838 95.682549 10853268
-61.063557 -64.505356 95.525597 9997959
-62.053986 -64.475899 95.319214 8288114
-62.889572 -64.351074 95.014763 10524817
-58.12537 -63.894661 96.273926 8288621
-59.174015 -63.810535 96.118507 9800580
-60.080742 -63.645748 96.018135 9932166
-61.11277 -63.53701 95.874748 9274492
-62.02142 -63.522713 95.691742 8222060
-63.033539 -63.544712 95.273651 8222322
-63.95734 -63.379913 94.922188 10392971
-64.619682 -63.056278 94.752747 9735041
-62.367455 -62.869503 95.846161 7893096
-63.136597 -62.548336 95.627434 7103324
-64.02829 -62.502274 95.242752 7959405
-64.929863 -62.391163 94.879723 9077370
-65.567261 -62.205616 94.666107 9735041
-64.14257 -61.529408 95.582092 8090987
-65.066498 -61.53899 95.160881 7893614
-65.971886 -61.516041 94.761688 9208443
-66.650154 -61.16378 94.598557 13023917
-64.563843 -60.875736 95.656029 9012088
-65.168053 -60.665222 95.493904 8419698
-66.025871 -60.560253 95.187538 9405565
-66.964973 -60.465137 94.818726 12102817
-67.819817 -60.195667 94.636276 9405564
-68.485527 -60.071762 94.440498 8682867
-66.47448 -59.909023 95.482986 10129030
-67.143982 -59.793335 95.278442 9931651
-68.069435 -59.551136 95.064865 9800580
-68.980919 -59.473598 94.763191 9800580
-69.910904 -59.245697 94.668816 9735299
-70.82534 -59.107403 94.519173 8814452
-71.641724 -59.098186 94.183876 8090987
-71.187294 -58.921494 95.002098 9537918
-72.008476 -58.911907 94.665741 9274746
-72.947441 -58.836468 94.509857 9603456
-73.956825 -58.771259 94.366753 9734788
-74.935318 -58.730263 94.252953 9997960
-75.956665 -58.715572 94.319954 9537920
-76.995811 -58.715729 94.116653 10656657
-78.035133 -58.715889 93.856285 9932934
-78.984924 -58.716026 94.073608 9208699
-79.83062 -58.716145 94.386681 7039331
-55.115322 -64.104622 96.731697 9144448
-56.08683 -64.164093 96.536949 8552051
-56.808918 -64.080467 96.439392 7039322
-49.61451 -63.258041 98.023079 9932163
-50.31599 -63.298012 97.883484 8288885
-51.165794 -63.309425 97.728127 9275522
-52.234047 -63.36689 97.516869 8354165
-53.191711 -63.517689 97.290794 7894379
-54.174164 -63.488983 97.126648 8684148
-55.142487 -63.522602 96.941986 9736327
-56.114964 -63.462597 96.791206 8749173
-57.113583 -63.54332 96.583755 7631203
-58.088364 -63.36972 96.474548 8222572
-59.038345 -63.34951 96.313026 8945015
-60.059441 -63.15723 96.202484 9537152
-51.317421 -62.896404 97.853806 9275522
-52.09481 -62.783398 97.757309 10261903
-53.215977 -62.633129 97.613426 8157805
-54.208126 -62.542431 97.470505 8683891
-55.211018 -62.502335 97.306923 12169892
-56.152111 -62.508175 97.13736 9143418
-57.1884 -62.518723 96.94915 9209211
-58.091179 -62.501156 96.795082 8485232
-59.122612 -62.569439 96.586372 8681843
-60.091221 -62.445225 96.460022 8945015
-61.073837 -62.548244 96.247162 9143419
-62.040089 -62.44799 96.0998 8946296
-62.741348 -62.27816 95.91481 7893096
-55.241982 -61.969593 97.498283 10854036
-56.21545 -61.757244 97.403687 7367007
-57.170681 -61.705322 97.252968 9669506
-58.204762 -61.558201 97.123444 8944758
-59.160049 -61.49485 96.976913 8944758
-60.143867 -61.580032 96.770447 9077628
-61.11311 -61.436592 96.651054 8157040
-62.162537 -61.56517 96.404884 8682868
-63.034943 -61.460491 96.110504 8024937
-63.80687 -61.226357 95.855629 8551537
-59.159752 -60.917889 97.190262 10852752
-60.25246 -60.825085 97.030174 10525328
-61.246578 -60.711155 96.904968 8092019
-62.1982 -60.638966 96.769463 8617589
-63.184422 -60.511665 96.489975 9012088
-64.126289 -60.444466 96.116135 9472639
-64.947639 -60.241631 95.891869 9011832
-65.607193 -60.111591 95.703835 9011576
-63.604115 -59.971363 96.723938 9012088
-64.19751 -59.789089 96.609528 9406846
-65.184181 -59.59943 96.324074 9011576
-66.084496 -59.510033 96.027748 9471871
-67.051422 -59.249805 95.952484 9734529
-67.950714 -59.133156 95.723709 9800836
-68.709534 -59.107162 95.472443 10853012
-68.36277 -58.940884 96.206047 9406078
-69.226105 -58.903866 95.946045 9011576
-70.094528 -58.848934 95.746056 8945783
-71.027206 -58.799801 95.584503 8551025
-71.939507 -58.741123 95.525757 10458506
-73.089294 -58.715107 95.464653 9471869
-74.12365 -58.715271 95.286484 8747893
-75.048248 -58.715408 95.286278 9405823
-76.095123 -58.715561 95.239891 8748661
-77.144814 -58.715725 95.090218 10196106
-78.075706 -58.715874 94.829781 8945783
-79.032494 -58.716003 95.055504 9273979
-79.985748 -58.716145 95.032867 9273979
-48.29071 -63.074104 98.326454 10392712
-49.084251 -63.183556 98.14489 10853262
-50.197422 -63.037529 98.00087 9144704
-42.535751 -62.364006 99.612534 13023925
-43.336323 -62.304764 99.492043 10524561
-44.298618 -62.366535 99.298058 9736071
-45.315147 -62.38887 99.109009 9209467
-46.323673 -62.541653 98.873138 10393741
-47.269764 -62.473942 98.729904 10064518
-48.219215 -62.50676 98.548882 10655884
-49.299725 -62.582531 98.328697 9668992
-50.185005 -62.454208 98.218658 9407362
-51.235748 -62.428047 98.041443 8947069
-52.182529 -62.241386 97.942055 11578017
-53.200764 -62.162186 97.790199 9407613
-53.959877 -62.074802 97.687469 8092011
-44.326244 -61.89666 99.466866 9472641
-45.442593 -61.745502 99.324127 11380636
-46.339024 -61.649277 99.200279 13025717
-47.332851 -61.516396 99.072594 12169637
-48.348789 -61.545998 98.880966 9669762
-49.238033 -61.477055 98.748291 8551285
-50.279564 -61.561268 98.531921 9868169
-51.226776 -61.465553 98.398811 9604998
-52.254402 -61.513161 98.198441 9736325
-53.228065 -61.505535 98.028091 13222577
-54.206757 -61.501778 97.855377 9407613
-55.179878 -61.408142 97.716919 10327947
-56.152973 -61.325809 97.574272 7959144
-57.177135 -61.12886 97.464867 7367007
-57.815212 -61.156387 97.341248 10129030
-48.249168 -60.883778 99.143471 9603968
-49.352207 -60.803673 98.976875 9867655
-50.297493 -60.709839 98.853561 11381404
-51.260468 -60.67038 98.704529 9999755
-52.246262 -60.587967 98.583183 8618099
-53.222893 -60.538132 98.441376 13156791
-54.290844 -60.498627 98.285973 9407102
-55.234085 -60.490429 98.108261 10064520
-56.211136 -60.429714 97.986877 10393485
-57.179989 -60.536423 97.738861 8485233
-58.210663 -60.442093 97.624016 9537151
-59.194237 -60.483849 97.406166 10852752
-60.156452 -60.283043 97.371613 11315100
-61.178955 -60.232697 97.228699 8092019
-62.114754 -60.171131 97.109863 8092019
-62.745079 -60.181629 96.934631 9012088
-55.335396 -59.945911 98.489616 10854036
-56.381264 -59.820435 98.400719 9406590
-57.297501 -59.830723 98.229767 8221805
-58.348499 -59.717197 98.130646 8287598
-59.294441 -59.743465 97.942108 8551285
-60.290607 -59.631584 97.851486 11841443
-61.240364 -59.591763 97.717232 9670791
-62.20388 -59.602989 97.533325 8223091
-63.188496 -59.527763 97.31134 9604738
-64.164146 -59.2808 97.203903 9538432
-65.134781 -59.159805 96.919205 9800836
-66.272438 -59.077457 96.672623 9011576
-66.886086 -59.027954 96.568321 8090987
-65.298233 -58.965511 97.499832 9471871
-66.280128 -58.928879 97.185219 9274748
-67.320885 -58.831882 97.053749 9143418
-68.230492 -58.79578 96.84034 9998215
-69.130829 -58.730728 96.792625 8682867
-70.209038 -58.714638 96.816383 9143419
-71.241829 -58.71479 96.664665 7037274
-72.27774 -58.714958 96.456902 8616818
-73.131363 -58.715076 96.575165 6116429
-74.152992 -58.715233 96.373016 5919050
-75.179893 -58.715389 96.356224 8813941
-76.116341 -58.71553 96.212334 9012088
-77.174751 -58.715698 96.068474 11840929
-78.190765 -58.715851 95.953888 11379866
-79.077644 -58.715981 96.046379 9931907
-80.156746 -58.716141 95.983421 9931907
-81.120499 -58.71629 95.911278 9406335
-39.438049 -62.043198 100.28211 9736328
-40.338959 -62.132099 100.08899 8486261
-41.371101 -62.238438 99.866142 9275776
-42.243908 -62.108742 99.75882 13023925
-42.838379 -62.099583 99.656479 13023925
-34.453232 -61.618637 101.32565 9406338
-35.537762 -61.505802 101.17447 8090736
-36.490204 -61.511341 101.00301 9078906
-37.410885 -61.482334 100.84998 10066057
-38.340519 -61.497856 100.6789 12763830
-39.352955 -61.489697 100.50183 13092283
-40.420273 -61.548111 100.29041 9012347
-41.413952 -61.543545 100.11536 9998986
-42.314175 -61.420879 100.00057 12365995
-43.35257 -61.516006 99.780708 10129801
-44.325985 -61.374657 99.659828 8946555
-45.220989 -61.280624 99.535385 12104359
-46.312119 -61.163506 99.384583 12169895
-46.995544 -61.098614 99.287048 12432551
-36.729519 -60.91703 101.1801 9210491
-37.380089 -60.89843 101.0713 10460559
-38.523067 -60.72163 100.93838 14868953
-39.488422 -60.72131 100.76514 12499890
-40.374397 -60.641388 100.66517 7564643
-41.366703 -60.555702 100.53804 8287853
-42.435501 -60.547558 100.35268 9077625
-43.362553 -60.530037 100.20961 8880247
-44.394306 -60.412956 100.0923 8618362
-45.342491 -60.508289 99.866356 12499118
-46.284599 -60.532097 99.687172 11841186
-47.335007 -60.428837 99.560509 11840415
-48.285439 -60.39827 99.400444 9341053
-49.329506 -60.283474 99.296661 9603715
-50.285778 -60.216732 99.178207 11117976
-51.396877 -60.171577 99.015526 10920599
-52.329895 -60.089375 98.913162 10788756
-53.893745 -60.022655 98.686699 11906981
-43.796135 -59.939804 100.54644 9341571
-44.185696 -59.97641 100.44886 8683899
-45.306221 -59.830303 100.36259 9341571
-46.442215 -59.834572 100.15731 11643036
-47.364838 -59.741013 100.06567 13484981
-48.391792 -59.687794 99.924271 9275261
-49.358837 -59.664925 99.769997 8222580
-50.338902 -59.570984 99.668457 11774367
-51.310204 -59.590019 99.489555 11643807
-52.322655 -59.507557 99.380714 9867910
-53.307762 -59.564449 99.167946 11315100
-54.325268 -59.431686 99.127083 13748153
-55.265461 -59.431587 98.964622 11708830
-56.234898 -59.34296 98.886444 9603713
-57.260174 -59.245773 98.853416 9208700
-58.224766 -59.258846 98.62352 9340286
-59.294506 -59.158714 98.610558 8946556
-60.223896 -59.166325 98.404579 12433322
-61.226505 -59.090408 98.439194 11709600
-62.414925 -59.106701 98.176041 9012605
-63.340012 -59.043102 98.111778 9867911
-58.618042 -58.986546 99.234535 10590609
-58.875957 -59.006088 99.126038 10590609
-60.399059 -58.974049 98.958061 11709600
-61.543148 -58.91354 98.948395 12433322
-62.193066 -58.966324 98.664169 7828077
-63.332695 -58.894184 98.620399 9538947
-64.317085 -58.855946 98.322182 9275518
-65.374748 -58.772911 98.234344 9011833
-66.224655 -58.740314 97.911659 9340541
-67.131256 -58.717144 98.128563 8617074
-68.230484 -58.714302 97.903549 10130314
-69.264069 -58.714478 97.722961 9011576
-70.107628 -58.714588 97.861 9209212
-71.221146 -58.714764 97.616837 8419696
-72.265594 -58.714928 97.414185 7629924
-73.194199 -58.715057 97.679619 8484976
-74.250107 -58.715214 97.465385 6116429
-75.308296 -58.715385 97.291046 7498850
-76.254829 -58.715523 97.298592 9275003
-77.181114 -58.71566 97.173378 10459276
-78.1586 -58.715813 97.053406 12300964
-79.120377 -58.715954 97.046318 9077113
-80.208344 -58.716114 96.990227 10458250
-81.296707 -58.716286 96.826241 8484977
-81.909782 -58.716377 96.844177 11380380
64.213463 -73.694237 110.77607 10985878
-24.980568 -61.126522 103.19227 13551549
-25.609251 -61.146496 103.07315 11116694
-26.61561 -61.181976 102.88111 8353908
-27.622824 -61.222179 102.6871 7959151
-28.630926 -61.267136 102.49119 7563619
-29.528643 -61.165722 102.369 9208441
-30.413012 -61.212608 102.19437 10458507
-31.425001 -61.270596 101.99293 9867397
-32.438499 -61.333385 101.78947 10458511
-33.453613 -61.401031 101.5839 8485494
-34.504944 -61.183357 101.47736 8879995
-35.414875 -61.105328 101.34437 7893615
-26.0123 -60.87048 103.10359 10787729
-26.723001 -60.83849 102.98898 8485494
-27.607943 -60.807423 102.84303 7367272
-28.53348 -60.720951 102.72453 8024685
-29.419024 -60.638287 102.60618 8418927
-30.501528 -60.515591 102.49123 12235431
-31.559427 -60.468323 102.34075 9538432
-32.553024 -60.497749 102.14814 10919573
-33.53828 -60.583508 101.92317 9143423
-34.480843 -60.48082 101.80823 8551031
-35.431026 -60.38961 101.70464 8222579
-36.399658 -60.456009 101.48734 9867399
-37.437954 -60.400417 101.3299 11513506
-38.504509 -60.311077 101.20039 13421249
-39.416 -60.175728 101.14294 9670534
-40.418381 -60.148605 100.98565 7564643
-41.484913 -60.112251 100.82407 8616306
-42.295792 -60.056572 100.72295 8682867
-33.451237 -59.917278 102.40438 11314590
-34.549732 -59.874874 102.24184 10063754
-35.656563 -59.718887 102.16586 8025456
-36.545246 -59.7533 101.98109 8091504
-37.482582 -59.675198 101.87491 9275520
-38.46595 -59.621006 101.74196 9801863
-39.529388 -59.576176 101.58753 7762279
-40.53582 -59.572872 101.42994 7827302
-41.438549 -59.569695 101.25607 9274237
-42.46022 -59.479961 101.18235 9011064
-43.405716 -59.516762 100.9746 9341056
-44.438404 -59.369122 100.95668 9473157
-45.476646 -59.346634 100.79387 8354934
-46.395702 -59.24828 100.77484 10721422
-47.382038 -59.257153 100.53931 13418931
-48.404057 -59.152828 100.58667 9670020
-49.377304 -59.148354 100.36188 8090995
-50.529621 -59.100388 100.30721 9077374
-51.371765 -59.096031 100.17159 11116435
-52.446796 -59.088531 100.00465 9012601
-53.475582 -59.060509 99.911453 9012601
-54.835594 -59.007759 99.838562 12432551
-55.220741 -59.034473 99.684708 10788241
-47.728382 -58.992867 101.14857 12102816
-49.571869 -58.957981 100.93262 9143423
-50.402519 -58.960304 100.77762 8617081
-51.42709 -58.928375 100.69763 9077625
-52.455219 -58.935955 100.49079 8749428
-53.423435 -58.91259 100.39355 7960169
-54.367699 -58.892639 100.28988 9669761
-55.503777 -58.859169 100.19533 9472382
-56.442253 -58.900726 99.89534 9800834
-57.436813 -58.824516 99.963028 9668992
-58.460854 -58.830051 99.789429 10722451
-59.419704 -58.811954 99.650558 10722708
-60.414623 -58.79076 99.597885 10262414
-61.243725 -58.798027 99.370773 11183257
-62.319157 -58.767841 99.394295 9736326
-63.443733 -58.733822 99.318214 8025456
-64.402 -58.713703 99.231659 9538178
-65.301956 -58.713837 99.304581 9735555
-66.345421 -58.713993 99.011589 9735043
-67.369957 -58.714149 99.038712 9275004
-68.268372 -58.714279 98.970665 11643553
-69.336411 -58.714447 98.778954 9011832
-70.376877 -58.7146 98.787758 8813942
-71.287056 -58.714737 98.702095 9669763
-72.366325 -58.714905 98.487511 9472127
-73.422783 -58.715065 98.47744 10985622
-74.368439 -58.715202 98.503212 7760997
-75.317337 -58.715355 98.276283 8617333
-76.27137 -58.715496 98.290337 12235428
-77.232445 -58.715637 98.301765 10459276
-78.250275 -58.715797 98.008652 9209467
-79.396317 -58.715973 97.864632 10458763
-80.476044 -58.552883 98.190514 8748661
-81.287735 -58.463455 97.846832 7826791
-82.180191 -58.433716 97.543922 10327436
-81.533585 -57.667564 98.142349 8024426
-82.358994 -57.586933 97.803452 8748149
-82.405487 -56.880844 98.066032 8222060
-82.917419 -56.385223 98.034729 7959144
64.90184 -73.694099 111.65414 9012345
63.953461 -73.694252 111.56174 9670275
63.009945 -73.694397 111.46454 8354158
62.338444 -73.694481 111.8419 10590348
-18.893906 -61.247173 104.6942 8089963
-19.640387 -61.21999 104.5079 8484720
-20.634497 -61.187592 104.25835 9735296
-21.627308 -61.159977 104.00745 11313813
-22.618956 -61.137005 103.75501 10524814
-23.609549 -61.118755 103.50112 11709346
-24.478401 -61.113541 103.28951 11577759
-19.738537 -60.870701 104.61319 8090478
-20.711802 -60.710026 104.42802 8682869
-21.675785 -60.598515 104.24003 9340795
-22.688997 -60.453274 104.0756 10919573
-23.683475 -60.437347 103.82455 13354683
-24.681297 -60.435955 103.58892 12235689
-25.633574 -60.458813 103.39847 11445401
-26.542347 -60.330379 103.31479 11576987
-27.493935 -60.262897 103.19623 8222322
-28.427429 -60.255592 103.03577 8879995
-29.538689 -60.218132 102.86713 8682356
-30.729876 -60.024857 102.80513 11314844
-31.236538 -60.048565 102.6966 11314844
-23.658091 -59.822289 104.29115 12367788
-24.631527 -59.736515 104.11971 11775651
-25.565371 -59.716362 103.96329 10789011
-26.600597 -59.623165 103.85139 10985107
-27.613968 -59.655418 103.64608 8879994
-28.653727 -59.572281 103.53188 9537667
-29.637094 -59.633224 103.30334 9274495
-30.586439 -59.53286 103.22922 10064777
-31.573252 -59.46627 103.13407 10064776
-32.557049 -59.48558 102.93011 11380637
-33.585018 -59.363312 102.89751 10459538
-34.55368 -59.310551 102.77293 11314333
-35.57476 -59.228733 102.7373 8946556
-36.555107 -59.186668 102.61866 8749433
-37.497864 -59.17701 102.42926 8025967
-38.396042 -59.12746 102.37592 8222573
-39.57872 -59.089951 102.28584 7959401
-40.516689 -59.078823 102.15467 7432544
-41.50922 -59.094753 101.92754 10261132
-42.544067 -59.050941 101.88366 9142651
-43.569649 -59.053783 101.69243 9143419
-45.515705 -59.013176 101.47662 9341571
-35.539288 -59.000492 103.29206 10591380
-37.833336 -58.946835 103.05698 7893608
-38.594727 -58.975136 102.82984 7433057
-39.557381 -58.945599 102.75393 9275261
-40.521698 -58.917675 102.67239 8484976
-41.675945 -58.921696 102.45387 9668995
-42.472965 -58.920883 102.31458 9142651
-43.605137 -58.860245 102.30888 9011832
-44.582455 -58.897449 102.01475 11314588
-45.573902 -58.838631 102.02834 10327436
-46.542004 -58.859016 101.78986 8418927
-47.518631 -58.825676 101.7322 8681842
-48.51392 -58.826706 101.54311 9997960
-49.494591 -58.77655 101.6236 9800838
-50.457348 -58.787937 101.32231 8617080
-51.565014 -58.745197 101.4407 9669504
-52.531761 -58.751125 101.17876 10459019
-53.512627 -58.742485 101.14834 8880757
-54.469555 -58.712162 101.12347 9472639
-55.338696 -58.720181 101.04169 9998726
-56.531235 -58.712479 100.90095 10392710
-57.492229 -58.71262 100.90057 10260867
-58.507652 -58.712772 100.81224 9998470
-59.548645 -58.71294 100.53335 9144448
-60.353256 -58.713051 100.72725 9539205
-61.498699 -58.71323 100.48705 10261902
-62.479721 -58.713375 100.4535 9735815
-63.46616 -58.713524 100.41531 7959407
-64.619759 -58.713703 100.14677 8222316
-65.450851 -58.713821 100.31776 8682867
-66.501854 -58.713989 100.07621 10130312
-67.553207 -58.714153 99.823708 11972517
-68.462006 -58.714279 100.12469 9932934
-69.412811 -58.714432 99.70208 10525072
-70.343269 -58.714569 99.752975 9735044
-71.399162 -58.714725 99.764137 9537921
-72.467651 -58.714893 99.425591 10261643
-73.413574 -58.715031 99.460495 11380380
-74.366585 -58.715176 99.492897 10064522
-75.444206 -58.715332 99.329559 7564651
-76.523918 -58.715508 99.107162 11248536
-77.556282 -58.666069 99.401253 9538432
-78.368408 -58.482658 99.091278 9669761
-79.365349 -58.473309 98.794121 9603968
-80.162727 -58.147743 98.566185 9275004
-78.643639 -57.677017 99.438438 9209467
-79.459816 -57.588676 99.106781 8880246
-80.385376 -57.45903 98.742531 9143419
-81.17347 -57.315475 98.445717 9867398
-79.607422 -56.843258 99.339668 7958633
-80.465874 -56.476749 99.100693 8024426
-81.368797 -56.506966 98.682426 9603970
-82.273682 -56.453159 98.296989 8617331
-80.72303 -55.805332 99.254562 8419440
-81.417 -55.583149 99.031647 9209212
-82.405495 -55.539486 98.60453 8090987
-83.105049 -55.32423 98.376297 9932934
-81.739464 -54.811619 99.196396 9341054
-82.497025 -54.507866 98.977585 8814710
-83.252357 -54.425934 98.670708 10393486
-83.416534 -53.557968 98.945358 10919829
-83.793983 -52.824394 99.070099 10854036
65.598946 -73.69397 112.5418 9866372
64.96312 -73.694061 112.69405 9471871
63.906776 -73.694221 112.48177 7367520
62.966263 -73.694366 112.3321 8682866
61.995293 -73.694511 112.3678 10590348
61.12352 -73.694633 112.51009 12432037
-12.254877 -61.605637 106.30709 11381404
-12.944685 -61.434986 106.18957 9209723
-13.772964 -61.361053 105.99931 7564130
-14.652534 -61.308147 105.78767 7959918
-15.655803 -61.252075 105.54466 9670278
-16.657053 -61.20079 105.30038 11117209
-17.60166 -61.177277 105.06053 9735300
-18.395687 -61.266891 104.81789 8089963
-13.793535 -60.926266 106.15717 6510930
-14.681881 -60.729599 105.99859 7828590
-15.732439 -60.571762 105.82063 9209985
-16.719809 -60.466026 105.63229 9604485
-17.734907 -60.504124 105.34217 11709602
-18.699438 -60.561771 105.06189 8089963
-19.680794 -60.372086 104.91099 9340799
-20.677382 -60.226234 104.757 8683128
-21.746023 -60.097847 104.57701 8682867
-17.139742 -59.993374 105.87147 10459535
-17.851116 -59.918461 105.74338 12828595
-18.791618 -59.81353 105.57861 9077114
-19.814085 -59.661232 105.42995 8880506
-20.818636 -59.634472 105.18661 8683128
-21.751753 -59.512062 105.06994 9012092
-22.691525 -59.480251 104.85449 9866631
-23.663939 -59.333206 104.76463 13157560
-24.64324 -59.227764 104.7036 11249562
-25.710022 -59.184902 104.55093 9999239
-26.762287 -59.116024 104.48175 8024427
-27.712801 -59.140663 104.23307 7367015
-28.58614 -59.083298 104.26264 7630187
-29.598394 -59.103359 104.01752 10524560
-30.638716 -59.093842 103.86307 8881020
-31.738422 -59.023083 103.89587 9407105
-32.751453 -59.049236 103.63092 10196366
-27.039839 -58.928272 105.03915 10063750
-27.67614 -58.938671 104.89236 8419443
-28.693142 -58.956753 104.65269 8287859
-29.831354 -58.936249 104.51635 9669765
-30.65501 -58.93251 104.38171 8354934
-31.603071 -58.889793 104.35091 9012605
-32.681648 -58.851688 104.28211 9867402
-33.699715 -58.879417 104.01116 8748923
-34.756077 -58.870754 103.851 12630705
-35.627777 -58.821915 103.85365 9144449
-36.631828 -58.838341 103.6217 9670277
-37.644939 -58.802773 103.61271 8946297
-38.625034 -58.769096 103.50549 7104092
-39.591866 -58.789639 103.30706 8814710
-40.644756 -58.749619 103.34848 9011320
-41.55365 -58.747238 103.10046 9668995
-42.615456 -58.723755 103.21915 9406335
-43.535503 -58.721626 103.04785 9867141
-44.657085 -58.710651 103.00526 11117208
-45.53154 -58.7131 102.90099 11182744
-46.692688 -58.71096 102.77262 8418927
-47.54266 -58.711086 102.7329 7563619
-48.710896 -58.711266 102.58935 9011577
-49.650227 -58.711407 102.64801 9077370
-50.715405 -58.711571 102.45843 8551284
-51.685654 -58.711716 102.41747 9998469
-52.707462 -58.711868 102.29053 12235172
-53.607586 -58.712006 102.21804 10525067
-54.51123 -58.712139 102.1409 9604223
-55.539135 -58.712296 101.9891 10788241
-56.505398 -58.712444 102.00288 9208435
-57.698196 -58.712624 101.77342 9734779
-58.599178 -58.712761 101.7581 10195589
-59.650745 -58.712917 101.65193 12629930
-60.534286 -58.713051 101.63814 9933706
-61.569271 -58.713207 101.53239 9998987
-62.625832 -58.713375 101.23072 10261902
-63.507374 -58.713493 101.55956 8090737
-64.571449 -58.713661 101.24368 7367007
-65.618988 -58.713825 101.10613 8682867
-66.53952 -58.713963 101.18589 9275003
-67.605003 -58.714119 100.89062 9275002
-68.652901 -58.714283 100.92415 8945782
-69.571548 -58.714417 100.85925 10722195
-70.548668 -58.714577 100.55708 11182746
-71.485252 -58.714706 100.85581 9735044
-72.448265 -58.714859 100.41069 11051416
-73.401443 -58.715004 100.45228 11314588
-74.559151 -58.680973 100.50454 10525073
-75.480797 -58.481007 100.41517 9603972
-76.53035 -58.447384 100.07967 9340801
-77.42308 -58.209187 99.773735 9341056
-75.850327 -57.831463 100.63288 10854036
-76.526718 -57.459747 100.47785 9406850
-77.505554 -57.481316 100.02891 10327693
-78.284676 -57.330811 99.738914 8946299
-76.767349 -56.716396 100.668 10854036
-77.525131 -56.528458 100.40267 10459279
-78.472336 -56.525703 99.97776 8617335
-79.367432 -56.463387 99.600113 8287598
-80.080475 -56.067024 99.438591 7563619
-77.828178 -55.834858 100.54483 8288371
-78.541885 -55.650494 100.29784 8090993
-79.488869 -55.509342 99.928543 9142910
-80.439545 -55.370636 99.55661 8616563
-78.89621 -54.954422 100.41793 9340289
-79.61956 -54.492344 100.27806 9668997
-80.512474 -54.493568 99.875969 9011581
-81.338646 -54.453098 99.520584 9340798
-81.964546 -54.28371 99.307014 9341054
-80.593086 -53.602577 100.1974 9274495
-81.499428 -53.539513 99.815071 10656402
-82.446373 -53.507469 99.401993 9077882
-83.208107 -53.203064 99.181602 8090987
-81.625175 -52.735992 100.08111 10064008
-82.48793 -52.485626 99.793556 8748405
-83.456604 -52.389671 99.396378 8879990
-82.602036 -51.648602 100.07833 7827307
-83.483788 -51.431572 99.769394 8024684
-84.112823 -51.531162 99.446686 9274749
-83.712143 -50.743656 99.944412 8550773
-84.25235 -50.485252 99.806084 8353135
-84.512657 -49.915874 99.91893 8287859
66.361298 -73.693825 113.85004 13024949
65.803398 -73.693916 113.6462 10787473
64.792374 -73.694061 113.65882 13418933
63.830296 -73.694206 113.55338 8682099
62.965324 -73.694336 113.35186 8551023
61.923759 -73.694496 113.33236 8814195
60.812805 -73.694664 113.2341 9143422
59.90152 -73.694801 113.16512 7564651
59.3563 -73.694862 113.45228 7564651
-5.248343 -62.203945 107.92605 8815227
-5.8914018 -62.139977 107.78114 7039331
-6.7894921 -62.053635 107.57743 7365464
-6.0260372 -61.83506 107.8604 7039331
-6.8543019 -61.631313 107.71893 8418666
-7.8246288 -61.522118 107.50455 8945527
-8.8079062 -61.498852 107.25446 8288884
-9.8600445 -61.495071 106.97894 10789269
-10.875344 -61.416107 106.74136 9604997
-11.854603 -61.318043 106.52042 11249821
-12.525877 -61.15287 106.40574 11381404
-8.2288246 -60.760292 107.68419 6509898
-8.950695 -60.795891 107.48089 7960432
-9.8918571 -60.636528 107.32217 9802376
-10.95318 -60.490768 107.13685 10789270
-11.898242 -60.430195 106.92722 12630706
-12.905303 -60.584473 106.57043 11578016
-13.740156 -60.369865 106.47501 7827817
-14.727668 -60.219288 106.32807 7433832
-15.670813 -60.103043 106.17155 10262415
-16.509468 -60.018578 106.01747 10328207
-12.27382 -59.903446 107.2238 14077894
-12.872228 -59.829659 107.12479 12828085
-13.821337 -59.70676 106.97231 9406593
-14.792236 -59.610378 106.79305 8749434
-15.842479 -59.531349 106.59517 10130829
-16.841488 -59.422665 106.46294 9538177
-17.833778 -59.367302 106.26277 10920342
-18.848082 -59.265625 106.09712 8353649
-19.801184 -59.137234 106.06422 8880506
-20.749548 -59.115128 105.88738 9735814
-21.743826 -59.04953 105.84151 8946556
-22.75762 -59.039291 105.60841 11578530
-23.643379 -59.031887 105.39957 14013125
-20.040483 -58.94558 106.63187 9670021
-20.805939 -58.935104 106.46486 8880506
-21.825212 -58.922813 106.23705 8617592
-22.95635 -58.869301 106.11533 11512736
-23.842371 -58.850037 105.94548 12170666
-24.79307 -58.836807 105.7483 9012089
-25.748066 -58.836487 105.56603 8617075
-26.738966 -58.797749 105.58997 10590350
-27.837587 -58.759777 105.5043 10787473
-28.793995 -58.777565 105.2333 7695980
-29.724314 -58.75206 105.21299 7959920
-30.783356 -58.723507 105.28675 8881020
-31.801821 -58.735405 105.00629 8881020
-32.767246 -58.70882 104.99787 8552311
-33.751011 -58.708969 105.03054 11380638
-34.711254 -58.70911 104.83234 10394002
-35.747398 -58.709274 104.715 9341571
-36.737881 -58.709419 104.7227 11051674
-37.736835 -58.709572 104.57822 10262156
-38.881245 -58.70974 104.58549 8814710
-39.69754 -58.709869 104.40082 8617331
-40.733353 -58.710026 104.30904 9143162
-41.736046 -58.710178 104.27557 8945783
-42.741199 -58.710331 104.23294 9208955
-43.705723 -58.710476 104.07864 9998727
-44.556442 -58.710598 104.06345 10261899
-45.716492 -58.710777 103.85851 8683380
-46.571686 -58.710911 103.83011 9603969
-47.748177 -58.711082 103.70006 10063749
-48.608452 -58.711216 103.65804 7827815
-49.790375 -58.711391 103.50848 8419696
-50.671944 -58.711525 103.54883 10459019
-51.860069 -58.711708 103.38048 8551024
-52.615253 -58.711823 103.3298 9077625
-53.656399 -58.711979 103.15392 9670016
-54.551151 -58.712109 103.16956 9341307
-55.749306 -58.712299 102.96405 10721677
-56.72377 -58.712448 102.98078 9274486
-57.682697 -58.712585 102.78188 12103071
-58.566376 -58.712723 102.78511 12103586
-59.553455 -58.712872 102.7849 11643035
-60.766235 -58.713051 102.53158 10459278
-61.568314 -58.713181 102.53021 10261902
-62.657867 -58.713341 102.38045 8748923
-63.660336 -58.713493 102.35106 8353650
-64.567459 -58.713627 102.32107 8418927
-65.650185 -58.713795 102.17383 9274748
-66.588898 -58.713932 102.11493 9209210
-67.678665 -58.714096 101.95331 9077624
-68.599762 -58.714241 101.89703 9472124
-69.54306 -58.714382 101.96827 9603457
-70.626122 -58.714546 101.65256 9537921
-71.783005 -58.688023 101.74191 8814197
-72.684959 -58.472656 101.65224 10261900
-73.605202 -58.413868 101.39524 10525072
-74.51046 -58.281807 101.05468 9538690
-72.842339 -57.827824 101.9873 10788244
-73.668129 -57.440269 101.77146 10459534
-74.604706 -57.495064 101.32819 9342077
-75.410484 -57.529442 100.95193 10327948
-73.915596 -56.779232 101.92548 10657166
-74.665428 -56.584839 101.66634 11051667
-75.604073 -56.572765 101.24894 10130823
-76.491341 -56.398018 100.92004 10327693
-77.193779 -56.101158 100.72332 10854036
-74.96077 -55.892395 101.81142 12103841
-75.666725 -55.702164 101.57032 9276028
-76.595413 -55.417919 101.26672 9275005
-77.54435 -55.405697 100.8448 7762027
-78.25779 -55.219818 100.59849 7038307
-76.012756 -55.006958 101.69376 8682867
-76.787506 -54.532772 101.53571 9208955
-77.610298 -54.53352 101.16531 8222319
-78.562668 -54.526939 100.73956 7959152
-79.366768 -54.178791 100.51768 9340289
-77.760742 -53.625355 101.46225 9209468
-78.580544 -53.57637 101.11317 8091248
-79.511612 -53.436604 100.75048 9669253
-80.268913 -53.226421 100.49422 9340289
-78.699333 -52.776951 101.38071 9012345
-79.592613 -52.422909 101.12103 8748921
-80.586983 -52.456997 100.66009 8747636
-81.354912 -52.346886 100.35889 10459022
-79.860947 -51.652374 101.30966 8881018
-80.578468 -51.501976 101.04733 8682100
-81.535988 -51.625854 100.56693 9932422
-82.417686 -51.1894 100.34592 7827307
-80.911591 -50.712021 101.21485 9143164
-81.619263 -50.583031 100.94902 8945272
-82.568245 -50.44569 100.57831 8090480
-83.411209 -50.35442 100.23661 9537667
-81.752785 -49.860992 101.18045 8945272
-82.583794 -49.524162 100.94322 8287859
-83.573013 -49.489723 100.51292 8748409
-84.37616 -49.460361 100.16411 9143166
-83.002869 -48.773712 101.05786 8287859
-83.663765 -48.507915 100.86836 9603460
-84.539993 -48.594349 100.44003 10656399
-83.82103 -47.862934 101.05803 10788241
-84.616402 -47.675793 100.77637 12103586
-85.152565 -47.331146 100.67478 10788241
-84.938263 -46.979404 100.91286 10788241
-85.272545 -46.84631 100.8165 9998726
66.78553 -73.693726 114.78928 11116694
65.823654 -73.693871 114.82514 8089963
64.746132 -73.694038 114.60096 10326922
63.786987 -73.694183 114.4416 9077112
62.797127 -73.694336 114.47211 7563874
61.731075 -73.694489 114.2837 7629666
60.72908 -73.694649 114.39586 7564651
59.833645 -73.694786 114.03076 8617080
58.889221 -73.694923 114.02573 12563881
57.849186 -73.695076 114.22727 10261130
-0.31346422 -62.947868 109.34757 11313559
-1.0685787 -62.547623 109.19177 8353390
-1.9211826 -62.398075 108.9399 8551282
-2.9250741 -62.356033 108.58909 9143675
-3.9602013 -62.198971 108.28194 8946556
-4.7328529 -62.256607 108.04169 8815227
-2.086412 -61.686737 109.15381 9340798
-2.9336448 -61.54203 108.89987 8814454
-3.9704282 -61.468426 108.55704 9736070
-5.0032859 -61.499275 108.2555 8881276
-5.8683314 -61.47578 108.03687 7630438
-6.7316456 -61.243675 107.8968 6509898
-3.3312745 -60.835522 109.02699 8288366
-4.0346284 -60.656052 108.87016 9998728
-5.0232482 -60.504608 108.68303 12038568
-6.0021782 -60.518444 108.43181 11446174
-6.8849692 -60.51675 108.1956 9932163
-7.8066216 -60.405399 108.02269 7957858
-8.8891525 -60.320236 107.78512 7696487
-9.923461 -60.128624 107.66428 8092019
-10.691795 -60.079117 107.50111 10262926
-6.081284 -59.920486 108.84261 15657954
-6.9896121 -59.849949 108.65927 14473680
-7.9432311 -59.698025 108.52874 8484974
-8.9701357 -59.638447 108.30894 7564643
-9.9688492 -59.526737 108.15374 8288623
-10.998874 -59.469559 107.94863 9670792
-11.936504 -59.427761 107.74739 12828084
-12.847103 -59.245823 107.7103 11117725
-13.793054 -59.193092 107.56544 10919062
-14.88414 -59.107994 107.45465 10721940
-15.860782 -59.07634 107.30174 8946556
-16.711943 -59.004269 107.3149 9011577
-14.968031 -58.917507 108.05897 10129289
-16.000914 -58.893642 107.86565 8946041
-17.096506 -58.912464 107.51546 9011577
-17.899626 -58.917915 107.2862 10196363
-18.832819 -58.838371 107.30324 9736072
-19.82469 -58.802208 107.18658 9341058
-20.927876 -58.757393 107.08811 7827821
-21.955378 -58.75132 106.87021 7893871
-22.812376 -58.739388 106.73371 8814971
-23.910831 -58.707447 106.82948 10394256
-24.905127 -58.7076 106.80248 9604482
-25.865938 -58.707748 106.52588 7827047
-26.779947 -58.707882 106.68313 11182229
-27.805635 -58.708042 106.42023 13024431
-28.9149 -58.708206 106.46445 9011320
-29.810642 -58.708344 106.2171 8683641
-30.795692 -58.708488 106.27742 11379865
-31.881172 -58.708656 106.09526 9144190
-32.806484 -58.708801 106.02073 7697259
-33.799454 -58.708942 106.05633 10263180
-34.886303 -58.70911 105.84464 9012863
-35.815109 -58.709251 105.74573 8223605
-36.815022 -58.7094 105.75618 9802121
-37.907505 -58.709568 105.60877 11183260
-38.746616 -58.709694 105.54362 9077885
-39.840408 -58.709862 105.37615 9209211
-40.849564 -58.710011 105.35476 9997959
-41.861969 -58.710167 105.32364 9011576
-42.960777 -58.710335 105.1282 8485749
-43.817265 -58.710461 105.12221 9604227
-44.912106 -58.710629 104.99808 10591120
-45.675198 -58.710747 104.85787 9736068
-46.698299 -58.710899 104.78664 9341310
-47.673416 -58.711044 104.78739 9670019
-48.753422 -58.711212 104.62113 10392973
-49.735107 -58.711357 104.6067 8024938
-50.819263 -58.711525 104.4221 11182738
-51.78389 -58.711666 104.48004 9208697
-52.769894 -58.711819 104.25294 9077623
-53.686817 -58.71196 104.19042 11445656
-54.730797 -58.712116 104.0541 9341307
-55.710392 -58.712261 104.08537 10065031
-56.826614 -58.712437 103.75744 8682866
-57.636311 -58.712543 103.98489 10459019
-58.78104 -58.712723 103.68284 12629673
-59.800671 -58.712879 103.78625 9998469
-60.775322 -58.713024 103.56774 9538175
-61.678127 -58.713165 103.55803 8748918
-62.735477 -58.713322 103.45486 10985624
-63.813847 -58.713493 103.1504 8089963
-64.716904 -58.713615 103.49303 8945271
-65.690689 -58.713776 103.10782 9274493
-66.625389 -58.713905 103.1992 9932937
-67.701447 -58.714069 103.05983 11182483
-68.841431 -58.703594 102.84275 10261129
-69.775032 -58.453125 103.10559 9406078
-70.675148 -58.409649 102.66943 9208955
-71.605255 -58.375031 102.32402 8682868
-72.18837 -58.260975 102.10757 9735555
-70.062866 -57.764523 103.26295 8682867
-70.754402 -57.565594 103.03172 9143162
-71.682564 -57.538074 102.6253 8749173
-72.593338 -57.521252 102.2224 10393485
-73.292297 -57.051235 102.09668 10788244
-71.087242 -56.870079 103.16125 9209467
-71.782417 -56.672642 102.92783 8880758
-72.705803 -56.51313 102.57653 8881015
-73.632095 -56.356113 102.22291 10854289
-74.333839 -56.163292 101.98473 13550517
-72.11792 -55.977531 103.05598 8617843
-72.809021 -55.569267 102.90905 8683636
-73.689629 -55.488873 102.54523 10525069
-74.628448 -55.471523 102.12994 11511961
-75.382179 -55.276855 101.86909 9210491
-73.919792 -54.607838 102.79545 9077882
-74.686699 -54.563908 102.46812 9407358
-75.614357 -54.585285 102.04227 9012088
-76.424568 -54.194469 101.83475 10130058
-74.921349 -53.715542 102.70318 8880759
-75.716537 -53.457653 102.44905 9735299
-76.654076 -53.431065 102.03805 11182233
-77.306213 -53.408043 101.75394 10261387
-75.742172 -52.69968 102.74181 9537664
-76.684494 -52.484341 102.40444 9077625
-77.669525 -52.509174 101.95141 8289134
-78.429016 -52.392811 101.6565 8618099
-76.944794 -51.716133 102.59581 9077625
-77.703712 -51.597343 102.30211 8552306
-78.714516 -51.573387 101.85708 8946808
-79.589493 -51.267647 101.58626 9209725
-78.013672 -50.829762 102.47084 8223597
-78.764297 -50.514523 102.2598 8815222
-79.658897 -50.431271 101.89101 8881020
-80.447777 -50.457146 101.52604 8749691
-78.948517 -49.713665 102.4991 9012606
-79.724907 -49.520718 102.22837 9144192
-80.696335 -49.510292 101.79636 7960432
-81.614326 -49.440723 101.41222 8485748
-82.344429 -49.040005 101.24608 9537667
-80.03318 -48.828129 102.36944 7565675
-80.711777 -48.601948 102.15598 8420726
-81.645264 -48.586109 101.74319 7432032
-82.604767 -48.369942 101.39959 8813943
-83.158913 -48.129429 101.24776 8287859
-81.125572 -47.942398 102.23638 9537408
-81.800926 -47.592808 102.07413 7958376
-82.681007 -47.393616 101.75934 8747892
-83.580643 -47.468979 101.32494 9603714
-84.271515 -47.245796 101.10472 10788241
-82.74334 -46.555058 102.06978 9274236
-83.64888 -46.557755 101.66202 8485235
-84.643326 -46.54726 101.2197 10196362
-85.432594 -46.199722 101.00556 9209467
-83.797997 -45.751579 101.9249 6906463
-84.669662 -45.557564 101.67223 9011579
-85.457031 -45.440571 101.40485 12366245
-85.9282 -44.735157 101.75646 10063494
67.312012 -73.240372 115.48168 9735814
66.62809 -73.333656 115.71194 10261386
65.75399 -73.578178 115.8856 8156270
64.669724 -73.694016 115.69817 8090219
63.741096 -73.69416 115.33647 9143675
62.72546 -73.694313 115.45975 8090474
61.761227 -73.694458 115.33347 6906200
60.802296 -73.694595 115.20258 7301470
59.721741 -73.694771 115.09331 11445659
58.625504 -73.694923 115.07256 13551031
57.627365 -73.695076 115.16111 9734786
56.747032 -73.695221 114.77862 9471870
55.917072 -73.695335 115.1855 10853521
67.403183 -72.343552 115.79839 9998728
66.699821 -72.546844 116.03024 10787729
67.444717 -71.553726 116.09465 9669765
66.987473 -71.781601 116.20717 9932679
67.77211 -70.744385 116.27185 8092019
2.6901641 -63.520481 110.5637 5327173
1.9399981 -63.315403 110.28504 5590602
1.0871968 -63.206577 109.91804 6248274
0.21320623 -63.066181 109.55352 9734528
1.7532029 -62.622402 110.47551 6577496
0.94308084 -62.549236 110.11458 6117203
-0.050355963 -62.423622 109.68653 7234653
-0.8402186 -62.255592 109.38825 7893096
0.77231973 -61.731796 110.36309 6972511
-0.020091586 -61.511814 110.07016 6774875
-1.0790873 -61.51543 109.59106 8945784
-1.971643 -61.310932 109.34069 7893096
-2.547884 -61.102806 109.21033 7893096
-0.23690945 -60.811687 110.24895 8550770
-1.1404858 -60.52755 110.01424 14866637
-2.0722013 -60.455997 109.72204 9603714
-2.9041786 -60.431641 109.4246 8156524
-3.907835 -60.196274 109.23197 8288366
-4.7796021 -60.026485 109.10146 12630448
-2.1720176 -59.848415 110.14725 11643038
-3.1271887 -59.695583 109.92383 8288366
-4.011517 -59.616074 109.66702 8025194
-5.0929923 -59.581165 109.37301 10656657
-6.1123657 -59.345795 109.39433 14407371
-7.0272284 -59.292576 109.24082 15131609
-7.9121261 -59.15696 109.19321 9735556
-8.8964357 -59.142105 108.93179 8485745
-10.037214 -59.058624 108.89266 9340798
-11.078671 -59.025082 108.72874 7828079
-11.728693 -59.005085 108.62343 8684155
-8.3726702 -58.989761 109.55665 11906725
-9.0279579 -58.966503 109.46046 9735556
-10.075081 -58.93092 109.30193 10130315
-11.120357 -58.897354 109.13722 8354166
-12.067497 -58.919193 108.8164 9867659
-12.945415 -58.843422 108.83487 11051675
-13.987259 -58.821625 108.66452 12365995
-15.058321 -58.747841 108.70947 9668738
-16.038965 -58.740196 108.50733 9537919
-16.943249 -58.723507 108.43208 9669249
-17.921101 -58.717613 108.21592 9011577
-19.014706 -58.706676 108.33841 8617594
-20.056688 -58.706837 108.15019 7564651
-20.966961 -58.706974 107.97743 7696749
-21.941046 -58.707115 108.11859 8157299
-22.980776 -58.707275 107.90217 9472900
-23.973276 -58.707432 107.73396 10262671
-24.998781 -58.707581 107.78967 10065289
-25.905737 -58.707722 107.57493 7893607
-26.953608 -58.707874 107.61005 9932165
-27.926111 -58.708027 107.41042 10063750
-28.916464 -58.708172 107.49137 10261641
-29.949757 -58.708336 107.20785 8880246
-30.944107 -58.708477 107.27323 11511194
-31.878866 -58.708626 107.11561 10328204
-32.974159 -58.70879 107.0167 9144702
-34.035515 -58.70895 106.98773 8683640
-34.912251 -58.70908 106.87402 9734788
-36.011459 -58.709248 106.74612 10064779
-37.021149 -58.7094 106.76127 8551800
-37.872025 -58.709534 106.58273 9998987
-38.93148 -58.70969 106.44247 7630443
-39.87532 -58.709831 106.40748 9077885
-40.838398 -58.70998 106.46296 9274750
-41.938091 -58.710144 106.18401 8617076
-42.799374 -58.710274 106.18963 7038307
-43.908302 -58.710449 105.98654 7959663
-44.883095 -58.710587 106.01315 10262414
-45.967033 -58.710758 105.87549 9736068
-47.001301 -58.710915 105.80849 9341310
-47.910305 -58.711052 105.78912 9538432
-48.899921 -58.711201 105.59813 10327949
-49.864708 -58.711342 105.67368 7038042
-50.984718 -58.711517 105.40562 8484975
-51.957371 -58.711658 105.46687 9011318
-52.926033 -58.711811 105.18865 9668994
-53.715408 -58.711922 105.23848 9931910
-54.93269 -58.712112 105.05051 9407358
-55.920616 -58.712261 105.08495 15526108
-56.895409 -58.712406 104.89952 9143675
-57.791565 -58.712543 104.91863 9669761
-58.85775 -58.712708 104.75614 10787726
-59.924984 -58.712868 104.58273 8682867
-60.839725 -58.713005 104.71328 8682867
-61.919853 -58.713169 104.47742 10261642
-62.739719 -58.713295 104.48026 14734793
-63.823887 -58.713455 104.2284 13879226
-64.877525 -58.713615 104.30724 10787215
-65.838531 -58.713764 104.16761 10524559
-66.882736 -58.531239 104.23874 11775140
-67.804672 -58.447136 103.95426 10262159
-68.827026 -58.374947 103.57368 9866629
-69.449509 -58.042625 103.42715 9735043
-67.268127 -57.889565 104.46978 11183004
-67.903297 -57.64959 104.28043 9472388
-68.785995 -57.562798 103.91822 8879993
-69.73201 -57.350845 103.57781 8814453
-70.470642 -57.146881 103.32744 9208955
-68.279381 -56.988815 104.37656 9011323
-68.958885 -56.57439 104.23729 8879738
-69.828339 -56.483913 103.88254 9406078
-70.755424 -56.455616 103.47692 9209211
-71.497887 -56.253235 103.22418 9209467
-70.047951 -55.605141 104.13657 9866629
-70.805046 -55.552578 103.81714 9406590
-71.740021 -55.594078 103.37991 8946552
-72.582863 -55.121975 103.19038 8749429
-71.020683 -54.792118 104.02544 8419699
-71.84137 -54.524368 103.7638 8157293
-72.785652 -54.44062 103.37268 8880503
-73.557449 -54.274864 103.09208 8814710
-71.900063 -53.692795 104.07127 8024687
-72.802986 -53.437279 103.76774 7827559
-73.779488 -53.513584 103.29786 8156780
-74.464378 -53.504044 102.99365 8419952
-73.008781 -52.697304 103.97226 8682611
-73.802773 -52.571938 103.66546 8156780
-74.779533 -52.587589 103.21983 8814453
-75.672585 -52.259918 102.94968 10129545
-74.055275 -51.805664 103.85951 9143418
-74.84063 -51.621452 103.58023 9603457
-75.769562 -51.430393 103.23913 9734787
-76.673096 -51.336182 102.87053 9800580
-75.073143 -50.857994 103.78214 9011576
-75.911934 -50.478035 103.55742 9077369
-76.785324 -50.540958 103.13933 10589840
-77.608673 -50.484241 102.79173 10063752
-78.230225 -50.304455 102.58435 8092011
-76.839668 -49.609165 103.48904 10064008
-77.755608 -49.579453 103.0892 7959401
-78.656906 -49.459953 102.73254 8223086
-79.383499 -49.098228 102.55218 11906725
-77.093864 -48.907051 103.65748 8617075
-77.85199 -48.643158 103.42352 9537664
-78.767807 -48.422661 103.10125 9867140
-79.7407 -48.403046 102.67231 10130571
-80.471649 -48.212193 102.4211 9012606
-78.961823 -47.539524 103.37054 9538175
-79.75518 -47.496708 103.03156 9406846
-80.680122 -47.575806 102.58427 9603972
-81.42247 -47.313087 102.35699 8879478
-80.001595 -46.64632 103.26408 9932677
-80.797386 -46.571346 102.93698 10129546
-81.742096 -46.476612 102.55101 8287341
-82.528114 -46.207268 102.30675 9537408
-80.795853 -45.818756 103.24138 9735302
-81.796112 -45.526165 102.97852 8551798
-82.796616 -45.482811 102.55515 9471616
