# .PCD v0.7 - Point Cloud Data file format
VERSION 0.7
FIELDS x y z rgb
SIZE 4 4 4 4
TYPE F F F U
COUNT 1 1 1 1
WIDTH 1222
HEIGHT 1
VIEWPOINT 0 0 0 1 0 0 0
POINTS 1222
DATA ascii
89.856674 -58.863758 115.30986 11643808
89.798409 -58.860901 116.68247 9932934
89.092537 -58.860725 117.21889 9077625
88.525658 -58.8606 117.64537 8419952
88.464211 -58.689079 119.15477 9998726
87.626656 -58.60471 119.72473 9209467
151.60965 -57.878056 -6.6084757 9734531
151.83327 -57.736431 -5.8872271 9405566
151.84593 -58.158524 -5.1564226 10129289
87.925301 -57.796364 119.90686 9801347
87.218452 -57.628101 120.31969 10327692
151.98409 -56.828182 -6.626092 10129289
152.17902 -56.796703 -5.9019556 10129289
87.94709 -56.875153 120.26663 11840671
87.319389 -56.547661 120.7048 10196107
86.680046 -56.171215 121.16836 9340027
152.19786 -55.550964 -7.3705111 10458510
152.29472 -55.882351 -6.7630739 9471359
87.501366 -55.6973 120.95786 8484977
86.740997 -55.576313 121.37779 8945270
152.3455 -54.831787 -7.6845102 9735043
152.62617 -54.848587 -7.0244226 9735043
87.563171 -55.101791 121.16714 7563619
86.92128 -54.726688 121.63135 8945270
86.28997 -54.40369 122.06954 9340027
152.5687 -53.375065 -8.4948435 9735043
152.70602 -53.830856 -7.7652597 9340541
87.018494 -53.6478 122.01769 10787215
86.347664 -53.535366 122.39047 9866114
152.82646 -52.787518 -8.4360781 9208954
153.06598 -52.898651 -7.7850046 8681843
86.514015 -52.744267 122.62733 9406590
85.817596 -52.480453 123.07343 8222576
152.93166 -51.619633 -9.2552385 10261641
153.10719 -51.926937 -8.5727282 9472126
86.699356 -51.936119 122.86176 11380124
85.990562 -51.650085 123.32289 12169894
85.377403 -51.432571 123.70971 10525072
153.31801 -50.696838 -9.2055826 9932676
153.43068 -51.002472 -8.6691637 10261641
86.116844 -50.590603 123.68716 12827823
85.366829 -50.68676 124.0148 10525072
153.49693 -49.87759 -9.5384684 9603712
85.557243 -49.764217 124.2926 9998471
84.978874 -49.364624 124.73563 10261641
153.64897 -48.73378 -10.229646 12432295
153.8629 -48.891365 -9.5936899 11576988
85.737389 -48.728798 124.62074 10261641
84.966148 -48.619202 125.04147 9275260
84.386055 -48.221546 125.48457 9341054
153.96593 -47.822109 -10.331487 11116438
85.154533 -47.696228 125.32033 9209467
84.401237 -47.601902 125.72617 9341054
154.11977 -46.67865 -11.132436 9274492
154.24791 -47.006546 -10.458016 9932421
85.183189 -47.014267 125.58041 9209467
84.588181 -46.701794 126.00601 9538433
84.11924 -46.358551 126.40205 9933193
154.62183 -45.573326 -11.979119 10589838
154.58771 -45.962814 -11.303563 8419693
84.741158 -45.928333 126.45589 10064521
84.163322 -45.680824 126.94366 8617849
83.517509 -45.403801 127.48921 8092019
155.64601 -44.420013 -13.9409 8288371
155.20364 -44.687988 -13.075677 9997960
155.10075 -44.915756 -12.26658 13089200
84.347565 -45.006065 127.41451 9012606
83.760002 -44.816116 127.8615 8092019
83.251755 -44.559967 128.54619 9932935
82.859528 -44.25816 129.53445 9143935
82.55204 -44.138821 130.08875 8092019
159.37764 -43.592121 -21.829462 10525066
159.54675 -43.868301 -21.188288 10789009
158.30927 -44.056763 -19.172125 9405822
158.39813 -44.055008 -18.411161 9340286
157.04622 -44.053276 -16.729666 7104092
157.14186 -44.051128 -15.786 8616819
156.16533 -44.170181 -14.74326 7959149
82.238029 -44.056999 130.51976 9603973
81.76844 -43.896805 131.29156 9538434
81.638939 -43.837536 132.86751 11907749
80.996544 -43.837585 133.2574 9999242
80.352356 -43.83765 133.64491 9538694
80.305763 -43.833923 135.41557 8418928
79.487106 -43.83403 135.89465 8616307
78.925957 -43.830353 137.97795 8682867
78.25882 -43.830463 138.35477 9340541
77.985512 -43.415455 139.44003 9143418
77.190346 -43.34016 139.85861 8682867
159.70232 -42.722717 -21.875113 11511704
159.82025 -43.051136 -21.304155 16248798
77.948174 -42.639969 139.77002 9406334
77.158615 -42.591053 140.17523 8682867
159.87233 -41.621994 -22.487768 9736329
159.96747 -41.883602 -22.030188 9933959
77.466545 -41.750645 140.36255 8946039
76.763214 -41.462429 140.82195 9603969
160.07318 -40.77552 -22.797544 9736329
160.31284 -40.871811 -22.158018 9736836
77.522369 -40.759529 140.73317 9143162
76.722542 -40.686081 141.15349 10787987
160.36992 -39.855732 -22.953463 9144449
77.046181 -39.815464 141.34477 11906468
76.272034 -39.581387 141.81706 9670277
160.502 -38.852142 -23.564829 11710116
160.73109 -38.885746 -23.006773 9998986
77.055031 -38.746075 141.76973 13156536
76.425255 -38.594406 142.13835 9801864
75.851463 -38.281765 142.54424 10065035
160.86293 -37.881641 -23.619253 12301739
76.660492 -37.639175 142.40686 13353396
76.029884 -37.569256 142.74306 12038052
161.14755 -36.898861 -23.860495 9800580
76.65406 -36.989346 142.67087 10065035
76.194084 -36.595692 143.0536 8946813
76.182732 -35.61948 143.45103 9537920
132.59184 -78.385559 33.11771 8090987
132.43155 -78.609627 33.75515 8682867
132.28838 -78.670799 34.736626 9603457
132.14041 -78.768105 35.650276 9932419
110.19253 -78.246368 79.036987 8617331
132.99438 -77.591164 32.200523 5392706
132.85643 -77.735725 32.892769 8222061
132.75867 -77.684685 33.837841 9997959
132.58492 -77.847969 34.765144 9406078
132.38841 -78.157562 35.443741 9932166
109.7643 -77.842056 79.582169 9406847
109.06824 -77.686012 80.233353 9932935
108.49815 -77.523415 80.78302 9077625
133.54909 -76.425804 31.146965 6841181
133.31287 -76.792122 31.980413 5655878
133.18402 -76.84095 32.882179 9932160
133.0816 -76.794502 33.851307 9471870
109.78197 -77.030479 79.948212 7563619
109.34178 -76.772346 80.434906 9472128
108.5414 -76.73494 81.117012 9735555
107.92335 -76.627617 81.680588 9209211
134.366 -75.336906 29.470055 4867385
134.16338 -75.487755 30.169859 5064765
133.90013 -75.719856 31.058918 6182993
133.7513 -75.763863 32.042572 7433314
133.49352 -76.006561 32.932365 8419436
133.32825 -76.189209 33.640755 9537659
109.25773 -76.187927 80.778862 9142907
108.82235 -75.86261 81.327606 10130314
108.17728 -75.67984 82.009834 8748660
107.53469 -75.502289 82.692436 8617333
107.15057 -75.220901 83.279556 7564651
135.46925 -74.382347 27.50176 8288366
135.2285 -74.506966 28.469509 7893352
134.89207 -74.722725 29.359503 4867385
134.66817 -74.824249 30.300789 4867385
134.32153 -75.095345 31.327091 5393730
108.42196 -75.041954 82.402046 8814453
107.91528 -74.817848 83.04541 9077370
107.27979 -74.664444 83.795929 8814458
106.71801 -74.465332 84.544868 8683129
106.23292 -74.264816 85.476524 7564651
105.66948 -74.23246 86.075211 7563618
142.22791 -73.463699 14.249473 8090730
142.13033 -73.65905 15.160487 8551281
141.86197 -73.933578 15.982509 10788244
141.52538 -74.002586 17.047159 10261643
140.59058 -74.002663 17.618124 12433581
140.45735 -74.000679 18.630621 12236202
139.97133 -73.999153 19.661196 8486262
139.32991 -73.998184 20.526728 8486262
139.17575 -73.996246 21.530058 11840677
138.44681 -73.99604 22.097292 12629936
138.07407 -73.994492 23.059031 7564651
137.68205 -73.992813 24.099203 8288116
137.12318 -73.991982 24.850077 9471873
136.71759 -73.990334 25.880663 9012089
136.29857 -74.10733 26.723063 8748917
135.96211 -74.229668 27.773235 8288366
135.8887 -74.262695 28.439371 8089963
106.63071 -74.104744 85.798546 9735046
105.99713 -74.024895 86.663574 7431775
105.49067 -73.964905 87.420578 9668478
105.00901 -73.92643 88.200958 10654859
104.43111 -73.899658 89.118095 8550513
104.07277 -73.898201 90.032326 9734530
103.96086 -73.896484 90.904633 9142651
103.18854 -73.895699 91.774498 9274237
102.56182 -73.894417 92.777054 12037286
102.56799 -73.892456 93.686859 9208443
101.88657 -73.89183 94.422897 10460047
101.29318 -73.890656 95.358078 9012603
101.01611 -73.889122 96.252167 9539201
100.40708 -73.88797 97.181976 10262414
99.987663 -73.775215 98.106857 9604484
99.515236 -73.457718 98.803413 8814198
142.51915 -72.532318 13.35567 6511954
142.48407 -72.742294 14.142787 7104091
142.48987 -72.872513 15.152011 8748914
100.34041 -73.033455 98.534058 8616563
99.727867 -72.703346 98.9981 8748405
98.917213 -72.537743 99.50119 9012089
142.83478 -71.637444 13.297763 7433060
142.789 -71.925774 14.304152 7762021
142.70622 -72.268913 15.104877 9341051
99.735695 -71.797485 99.364792 8813942
99.135902 -71.7118 99.721909 8946296
98.501587 -71.36927 100.20274 8814710
143.07706 -70.716934 12.5969 10261903
143.16269 -70.775543 13.463794 7893615
143.15311 -70.894669 14.10778 7038307
99.327278 -70.652267 100.05295 7301218
98.547768 -70.64225 100.47568 7696235
143.37206 -69.363777 11.695571 8617337
143.38757 -69.782928 12.435145 8419958
143.43825 -69.982986 13.230403 9275009
99.319664 -69.83799 100.39036 7038307
98.717979 -69.756462 100.74686 7104100
98.065926 -69.575111 101.1713 8814713
143.58365 -68.734268 11.596324 8618105
143.74298 -68.820747 12.421458 9538693
143.73254 -69.156029 13.117282 8617337
98.872803 -68.769196 101.06793 8354163
98.12735 -68.593132 101.54034 9012091
97.50013 -68.465729 101.92928 9735812
143.87367 -67.391441 10.690314 9209214
143.92699 -67.79351 11.565207 9078399
143.96063 -68.13929 12.265204 8618105
98.274765 -67.704636 101.82491 9340285
97.518562 -67.591774 102.27721 9011835
144.16563 -66.66468 10.781077 8683898
144.24959 -66.870865 11.473701 8618105
98.479774 -67.086075 101.96814 9537664
97.818657 -66.628883 102.51025 8550772
97.110741 -66.355812 103.00224 8288371
144.36661 -65.655472 10.027205 8682867
144.43979 -65.870415 10.687243 8880504
144.56407 -66.005371 11.439391 8618105
97.986382 -65.775345 102.76968 8681843
97.171402 -65.662697 103.25344 9012091
144.66556 -64.710236 9.797473 9209211
144.77994 -64.869034 10.544909 9603970
98.040977 -65.158493 102.99287 8681843
97.478271 -64.765663 103.45587 9209470
96.719093 -64.578674 103.94008 8551798
144.85735 -63.704971 9.0097761 8682867
144.95343 -63.856037 9.66611 9406590
145.05859 -64.045967 10.424041 11906725
97.541115 -63.856701 103.79427 9407106
96.920815 -63.585266 104.2385 7368295
96.242668 -63.649597 104.57637 8486262
145.19624 -62.698917 8.8548002 8550514
145.23506 -63.142574 9.7340918 9472128
96.991089 -62.742058 104.54597 9933193
96.214729 -62.673222 104.98972 8354418
145.38815 -61.717136 8.105361 9011065
145.52846 -61.835194 8.8991804 8089963
96.955391 -62.058132 104.84518 9933193
96.498123 -61.63932 105.26175 10722196
95.820518 -61.564205 105.64017 10853780
145.73323 -60.57563 7.1866179 9669507
145.73322 -60.873379 8.00669 9669251
145.75517 -61.109516 8.7110891 8418928
96.618034 -60.912205 105.49554 11905701
95.9347 -60.625919 106.04643 9735300
95.231667 -60.428616 106.5281 10130057
146.44156 -59.527554 6.1398497 8814710
146.28038 -59.861931 7.0962896 9341054
146.17618 -60.208916 7.8545675 9735812
96.17347 -59.864368 106.54677 10130057
95.560287 -59.803379 106.89729 10919573
94.986351 -59.372681 107.73927 10722452
94.457893 -59.176704 108.52547 9736073
151.82323 -58.676754 -4.4243898 9077369
151.93889 -58.862473 -3.6235211 9209467
150.8429 -59.032089 -2.7659047 9735811
150.85454 -59.030132 -1.8599331 10854036
150.31496 -59.028934 -0.95236319 10130825
149.76955 -59.02776 -0.050065219 11379356
149.76515 -59.025841 0.84947473 10787219
148.67654 -59.025455 1.7336566 8354421
148.65755 -59.023186 2.8050792 8156526
147.5761 -59.023212 3.4914882 8485488
147.4558 -59.068436 4.4101286 11972260
147.18457 -59.202141 5.2513723 10196104
147.10463 -59.288414 6.133399 7564642
94.568596 -59.049675 108.91822 8814972
93.971581 -58.950249 109.55698 7038307
93.843407 -58.867992 110.75389 7893871
93.038643 -58.867661 111.4267 8747891
92.499763 -58.867458 111.87201 7563619
92.477432 -58.864574 113.23131 8354166
91.517494 -58.86425 114.00424 9670790
91.757362 -58.861446 115.15764 8815739
90.920692 -58.861202 115.81483 9999755
90.220467 -58.861004 116.35863 12433069
90.303589 -58.858158 117.63678 8288109
89.616508 -58.619156 118.5807 9011831
88.982925 -58.38559 119.15355 10788241
152.0538 -57.594349 -5.1642809 10129289
152.13556 -57.829865 -4.4345903 9669507
152.14742 -58.254986 -3.702554 9209467
89.912712 -57.887089 118.90002 9537918
89.14547 -57.644653 119.37206 9603968
88.37841 -57.404095 119.84338 10788241
152.29295 -56.830704 -5.3565454 10129289
152.44472 -56.87706 -4.6282625 9997959
89.375252 -56.845539 119.58116 8880503
88.589668 -56.620258 120.05534 12432551
152.58658 -55.459511 -6.2868967 8681843
152.61629 -55.883972 -5.4792604 10063496
152.61478 -56.30093 -4.8178453 10129289
89.348557 -55.966427 119.94765 8090736
88.780373 -55.553379 120.39117 7827565
88.091965 -55.69672 120.66969 8090736
152.85535 -54.757767 -6.2527819 9537664
153.00092 -54.850903 -5.4762201 10129545
88.859589 -54.682724 120.70258 7696235
88.092598 -54.67651 121.07959 7695978
152.98386 -53.91441 -7.0420732 9866629
153.16789 -53.846214 -6.3655252 9866629
88.347832 -53.744881 121.32954 7893101
87.63472 -53.483921 121.78271 9603199
153.37886 -52.689507 -7.1849222 9274236
153.43617 -53.072647 -6.4481325 10129801
88.403412 -52.7178 121.71538 8090479
87.751213 -52.679886 122.04904 11906468
87.138641 -52.45826 122.43736 13024949
153.47488 -51.703964 -7.9306383 9735043
153.70441 -51.879074 -7.1519861 9406078
87.925697 -51.861263 122.29303 10853780
87.188522 -51.553371 122.77681 11577503
153.82338 -50.733246 -8.0115366 10129545
153.93642 -51.143951 -7.3368654 9735043
87.402992 -50.686817 123.02032 11709089
86.750183 -50.382751 123.46139 12564398
153.86215 -49.609726 -8.9429255 10261641
154.07616 -49.873585 -8.2115793 10261131
87.493034 -49.736122 123.35839 12433324
86.741066 -49.635509 123.76613 11446429
154.18523 -48.821804 -8.9160852 10919058
154.36433 -49.126499 -8.2281427 12432037
87.513466 -49.114147 123.59835 11381404
86.965584 -48.759655 124.00843 10920853
86.308144 -48.531792 124.42112 11314328
154.29343 -47.67078 -9.7152185 10984852
154.53969 -47.85051 -8.9844522 9603714
87.08857 -47.971809 124.26492 11381404
86.434052 -47.60471 124.7322 10524812
85.790489 -47.289322 125.17324 9538175
154.62236 -46.799583 -9.7990808 9471872
154.7249 -47.097008 -9.2451105 10590095
86.534309 -46.638645 125.0717 10261641
85.786957 -46.569805 125.47146 9077881
155.10315 -45.671547 -10.6773 7301470
155.10432 -46.043144 -9.9549036 10985105
86.117256 -45.899361 125.80801 8748660
85.421623 -45.629147 126.37225 9932422
84.865288 -45.365322 126.86319 10854036
156.03171 -44.490685 -12.464475 10854035
155.5881 -44.763046 -11.677606 8945780
155.52628 -45.040955 -10.921369 5920074
85.700172 -44.969082 126.7867 10195594
85.018776 -44.705502 127.42714 10525072
84.5513 -44.350323 128.39784 8552312
84.178886 -44.171432 129.18571 7564651
83.528473 -44.157925 129.54829 8092019
159.89041 -43.81757 -20.400259 8092011
159.99519 -43.851273 -19.762949 8486257
159.89749 -44.054134 -18.971289 7563619
158.46205 -44.053696 -17.84009 9340286
158.56395 -44.051514 -16.887827 8090987
157.21416 -44.049408 -15.03058 7038307
157.28275 -44.047695 -14.274976 7038307
156.50746 -44.230656 -13.448113 8551543
83.896057 -43.936954 130.12157 8814715
83.078484 -43.920799 130.57368 10392718
82.917809 -43.837452 132.07756 10064009
82.119415 -43.837494 132.57269 8617075
81.609322 -43.833782 134.63869 7038298
80.958519 -43.833847 135.02864 8813686
80.254128 -43.830147 137.21388 9603201
79.660667 -43.637775 138.18164 9077625
79.022545 -43.431316 138.92722 8880246
160.19476 -42.909828 -20.570772 11644317
79.321831 -42.725292 139.06474 8288365
78.594368 -42.584564 139.47667 8551281
160.25439 -41.889858 -21.363775 10854546
160.5407 -41.81422 -20.773821 8814965
79.401619 -41.788372 139.40189 8748916
78.638008 -41.679874 139.81856 9406334
78.011612 -41.283176 140.28387 10129801
160.61687 -40.920773 -21.413343 8749429
78.877937 -40.647392 140.11577 7827558
78.216209 -40.444256 140.52066 9603713
160.67461 -39.902435 -22.209459 9736836
160.9623 -39.823967 -21.618601 8091243
78.979378 -39.741329 140.42986 7563619
78.251945 -39.620792 140.83372 8879222
77.618996 -39.530003 141.17949 10261387
161.03601 -38.880062 -22.310011 10130314
161.04485 -39.343544 -21.867048 9012601
78.45858 -38.722408 141.09334 8681843
77.751762 -38.509918 141.52411 11314076
77.154953 -38.163086 141.95491 12235434
161.09288 -37.914474 -23.060003 10985366
161.39848 -37.890465 -22.378267 9735046
77.955132 -37.586536 141.7953 10458510
77.14933 -37.513565 142.21837 10984853
161.45421 -36.890106 -23.162527 9603202
161.46402 -37.352783 -22.717932 9537667
77.961815 -36.871269 142.07919 8681843
77.386421 -36.556622 142.48665 9143421
76.753296 -36.404861 142.85696 9801349
161.58182 -35.7304 -23.926477 9735555
161.77736 -35.858826 -23.359282 9932678
77.511986 -35.668922 142.7816 8749176
76.710014 -35.623257 143.19182 9537920
161.94701 -34.857224 -23.882326 10525071
162.02684 -34.970081 -23.595644 10788244
77.6894 -35.044525 142.94551 8092019
76.974678 -34.686405 143.43852 8617330
76.379921 -34.447304 143.82515 8880502
162.31035 -33.879791 -23.937464 11314588
77.041313 -33.668056 143.81473 9537920
76.51162 -33.664486 144.07498 8288621
76.804832 -32.763741 144.29329 9341053
76.808716 -31.899014 144.6385 9209467
132.1608 -78.572128 36.064957 9208443
132.00267 -78.708786 36.944408 9405822
131.86617 -78.714272 38.036804 9998215
131.64819 -79.00827 38.935993 9669762
113.00845 -78.518143 75.822426 9341571
112.59267 -78.484398 76.3312 9998728
111.96884 -78.436401 77.09317 9076594
111.34476 -78.391838 77.853531 10721423
110.68504 -78.325813 78.587021 8617331
132.698 -77.396309 35.184448 10392971
132.43187 -77.826996 36.070091 9801605
132.3199 -77.79084 37.086395 9669250
132.20409 -77.832138 37.904198 9406078
112.59965 -78.106644 76.533859 11181975
112.1281 -77.801422 77.259796 9339767
111.56398 -77.653961 78.006935 9931905
110.85422 -77.667992 78.751678 9077367
110.29072 -77.493607 79.308578 9735812
133.07892 -76.606468 34.430141 9932166
132.9352 -76.73745 35.209038 12169123
132.81361 -76.722107 36.241867 11972000
132.58147 -77.061386 37.122269 10064520
111.67835 -76.910004 78.287247 9931905
111.12431 -76.747215 78.956711 9603198
110.33844 -76.734772 79.624962 8550770
109.75365 -76.262436 80.332123 10195851
133.85765 -75.469795 32.749344 5920074
133.64966 -75.627579 33.448418 6972504
133.39726 -75.878761 34.341103 8879989
133.2991 -75.831993 35.293964 10064777
133.09842 -75.973007 36.147175 12892844
111.23129 -76.109772 79.176872 12432037
110.6846 -75.768059 79.852356 9603458
109.93491 -75.595863 80.612946 11643553
109.3762 -75.379333 81.274666 10985366
135.65231 -74.28598 29.753759 5920073
135.25421 -74.370956 30.758003 6512211
134.86131 -74.534058 31.624426 6906712
134.37387 -74.832672 32.533737 5985610
134.19458 -74.914505 33.473679 6775126
133.89726 -75.154762 34.384125 6578005
110.30094 -74.945435 80.938446 9932679
109.61794 -74.858665 81.591614 10195592
109.05603 -74.612816 82.389755 9011576
108.57838 -74.331573 83.260818 9274493
108.31649 -74.207924 83.9813 9340286
142.28221 -73.643898 16.515497 9077113
142.29402 -73.752861 17.488337 9471871
141.60799 -73.99881 18.094027 11512223
141.25978 -73.998604 19.084715 9406078
141.11594 -73.996613 20.102037 7499625
140.14342 -73.996429 20.820856 9538692
139.96049 -73.994156 21.998121 15721438
139.4054 -73.993279 22.768656 11972007
138.84566 -73.992416 23.533232 8025201
138.66982 -73.990517 24.532942 7629929
138.10471 -73.989693 25.288321 7432032
137.50316 -73.988556 26.20281 8880246
137.27509 -73.986397 27.357716 8748917
136.72781 -74.034721 28.000122 8156012
136.12468 -74.171478 28.899302 7629668
136.15927 -74.121201 29.866182 6972762
136.03674 -74.133125 30.525412 8090987
108.32574 -74.084007 84.477394 9208956
107.64046 -74.085754 85.038429 8419958
107.25688 -73.956924 85.880081 9537667
106.881 -73.90889 86.853973 8682359
106.55201 -73.899399 87.872986 7563361
105.91244 -73.898643 88.637901 9668478
105.3698 -73.897339 89.595749 8484721
105.13866 -73.895729 90.496353 8879479
104.58013 -73.894463 91.449608 8418928
103.91482 -73.893784 92.200249 9668995
103.66522 -73.892189 93.10128 10392717
103.4083 -73.890625 94.002441 8485745
102.60986 -73.889885 94.867538 10393742
102.22579 -73.888206 95.892548 9144445
101.97253 -73.835213 96.93425 7696493
101.43076 -73.612289 97.646423 8748921
100.70765 -73.601013 98.104408 9538690
142.58943 -72.690208 15.786429 8551536
142.60858 -72.738869 16.482981 9341051
142.60358 -72.873978 17.316641 9208955
101.49226 -72.82476 98.000893 9669253
100.86233 -72.6437 98.4133 9538177
100.23794 -72.252502 98.908691 8616563
142.96918 -71.49852 14.78456 9341051
142.89162 -71.811287 15.471488 9341051
142.93448 -71.835045 16.450048 12169890
101.07605 -71.755325 98.662216 9143163
100.35537 -71.582062 99.120178 8616563
143.27061 -70.647705 14.640906 9275776
143.25 -70.846321 15.625484 9143672
143.14507 -71.21727 16.194803 9341051
101.23617 -70.870651 98.93837 9143419
100.44913 -70.722038 99.421898 8090474
99.776558 -70.470695 99.886032 6511954
143.5845 -69.662231 13.800632 8486007
143.56932 -69.84005 14.745372 10394255
143.53436 -70.050629 15.539134 9868169
100.72573 -69.730057 99.679489 7169627
99.97551 -69.591377 100.13919 6511955
143.9537 -68.529182 13.020537 8091505
143.89001 -68.824928 13.82912 8223349
143.87311 -69.005325 14.758834 10460048
100.12936 -68.748901 100.40147 9471354
99.43972 -68.592743 100.83575 9735041
144.20193 -67.798019 12.879176 7631467
144.27859 -67.753593 13.821521 8551539
100.23818 -67.943459 100.67276 11904668
99.5951 -67.606262 101.15616 10063750
98.941956 -67.709465 101.46464 8748150
144.43599 -66.724495 12.041751 10262415
144.52124 -66.902084 12.836753 10262157
144.55684 -66.946785 13.54061 8682867
99.764435 -66.723602 101.42662 10458763
98.92672 -66.719925 101.87796 9208443
144.82372 -65.714584 12.09077 9670020
144.85361 -66.049179 12.982257 10261899
99.67424 -66.109657 101.72638 11380380
99.222191 -65.677261 102.14618 9735043
98.451363 -65.507332 102.62966 9735043
144.97282 -64.745956 11.178195 8485745
145.09081 -64.87986 11.901454 10327949
99.280685 -64.809326 102.47012 9801092
98.660568 -64.578468 102.89763 10129801
97.92379 -64.397751 103.36722 9735555
145.26678 -63.496243 10.438415 10591121
145.3327 -63.76046 11.146373 10591121
145.39819 -64.026276 11.85509 11906725
98.792587 -63.806652 103.14279 10525071
98.068306 -63.529205 103.64525 9406848
145.50365 -62.695477 10.173377 9011577
145.64641 -62.823307 10.993209 9603970
98.9058 -63.02002 103.40414 10854036
98.388084 -62.588058 103.85899 8288623
97.645454 -62.628502 104.24108 7960175
145.75462 -61.549706 9.4151373 8090474
145.8362 -61.817066 10.195842 7235421
145.82062 -62.253639 10.829341 8616819
98.400398 -61.721458 104.20734 7564643
97.656593 -61.763412 104.58942 8486263
97.137451 -61.336655 105.04278 10261391
146.19643 -60.62595 9.3255873 9011321
146.14819 -60.991898 10.146091 6511954
98.452415 -61.107944 104.43068 11906725
97.911621 -60.739819 104.92718 9801353
97.118622 -60.576775 105.46817 10261391
96.617195 -60.237507 106.00711 10261391
147.14494 -59.31311 6.6666517 8617331
147.09822 -59.395573 7.5856314 7959400
146.55539 -59.901493 8.4492636 8156523
146.66058 -60.016701 9.2959166 10984849
97.42437 -59.899166 105.86594 7432808
96.81588 -59.606422 106.48415 9603718
96.326508 -59.285709 107.23687 10130059
95.752213 -59.251419 107.63559 10130057
152.05229 -58.856548 -2.9682972 9735811
152.20207 -58.74715 -2.2853901 10459534
151.96526 -59.027443 -1.3233235 11378324
150.86206 -59.027409 -0.59139365 10787219
150.86047 -59.025471 0.3146351 10260875
150.30788 -59.024303 1.2143238 10260875
149.74947 -59.023167 2.1086719 7893355
149.7321 -59.021267 3.0080097 10327437
148.63081 -59.020931 3.8763645 9143418
148.59636 -59.018684 4.947402 9801350
147.97316 -59.06488 5.7556295 6840925
147.7431 -59.129799 6.694869 8288365
96.57296 -59.09874 107.77442 7564651
95.948769 -59.011326 108.38403 7564651
95.594879 -58.907333 109.03899 10262416
94.90863 -58.868454 109.84795 8814972
94.736626 -58.866425 110.90611 11512738
94.243179 -58.865246 111.77519 8814972
93.431122 -58.864922 112.45077 9142907
93.553062 -58.862053 113.7123 11314590
92.726997 -58.861763 114.38283 8090994
92.366249 -58.860188 115.35426 9473411
91.997948 -58.858616 116.3244 9605253
91.287041 -58.837795 117.15656 8683382
90.984642 -58.559612 118.10612 8814452
90.315552 -58.293556 118.5398 10524555
152.41792 -57.827782 -3.220876 9340797
152.55022 -57.966408 -2.4288456 9472639
91.080025 -57.671268 118.41671 11511449
90.411232 -57.54644 118.79352 10656141
152.68604 -56.65855 -3.9380429 9472383
152.78256 -56.879223 -3.1686146 9275261
91.132965 -56.844875 118.7231 9537918
90.460609 -56.688557 119.1143 8354158
89.780815 -56.497265 119.52313 8090987
152.89223 -55.548359 -4.8275728 9538176
152.93459 -55.860344 -4.1450815 9538176
153.12752 -55.830544 -3.3613789 9538176
90.784019 -55.940018 119.2574 8485488
90.014671 -55.635601 119.75543 8616820
89.510628 -55.225632 120.16637 7038307
153.20305 -54.666744 -4.899888 9538176
153.28294 -54.949192 -4.1031351 9998215
90.243141 -54.647949 120.04095 7827047
89.469391 -54.659435 120.41417 7301222
153.43172 -53.623135 -5.5855761 10854036
153.48448 -53.875729 -4.9537668 10130311
90.120743 -53.950424 120.38125 8419440
89.581932 -53.690319 120.74889 8222065
88.896324 -53.497154 121.16132 9143166
153.67329 -52.802113 -5.8595858 10129801
153.78917 -52.976223 -5.0812807 10195847
89.718369 -52.76022 121.0562 8287600
89.065796 -52.52317 121.47018 9669507
88.522606 -52.16293 121.88031 9142907
153.89117 -51.680817 -6.7162066 9735043
154.04176 -51.811958 -5.8571672 9669506
89.296806 -51.646358 121.70976 10590864
88.545883 -51.539955 122.11925 10261643
154.19466 -50.884369 -6.6840525 9735043
154.39282 -50.780682 -5.9958925 9735043
89.292763 -50.89608 122.01324 10788243
88.585945 -50.630905 122.46498 10590609
87.935371 -50.25819 122.93262 13024949
154.42807 -49.659645 -7.5793238 10261131
154.55536 -49.845001 -6.7941065 9735043
88.778221 -49.68018 122.75317 10327437
88.160225 -49.459553 123.14366 11051927
154.73227 -48.781849 -7.6085482 10064519
154.85913 -49.047573 -6.7619257 10261641
88.908104 -48.813011 123.03819 10458511
88.224922 -48.669918 123.4294 9275004
87.630348 -48.559227 123.7643 8090730
154.91713 -47.556366 -8.3841143 9209467
155.02136 -47.959763 -7.7038965 9603968
88.403915 -47.787945 123.69643 6905944
87.622704 -47.541035 124.17719 8617330
155.23766 -46.738579 -8.4378252 11380120
155.30281 -47.106911 -7.9062815 9209467
87.844994 -46.676998 124.43322 8222317
87.247795 -46.491581 124.8139 10328718
155.55386 -45.815216 -9.358037 12696492
155.47734 -46.199493 -8.7906008 13354422
87.272743 -45.856564 125.27943 10920088
86.80201 -45.524067 125.78559 9406591
156.36465 -44.554417 -11.168138 8419693
156.13815 -44.81908 -10.272779 7959399
156.03853 -45.124893 -9.5756197 10131080
86.974808 -44.966629 126.16815 9603714
86.451508 -44.624023 126.86272 10195338
86.032951 -44.270065 127.94814 10655889
85.315727 -44.196293 128.5477 9472899
160.56575 -43.554882 -19.128244 8089962
160.19553 -43.975544 -18.486341 8813684
160.06868 -44.050602 -17.43355 7827815
158.67892 -44.048908 -15.744401 8287592
158.76865 -44.046745 -14.790898 7761248
157.33195 -44.046417 -13.707948 7038307
157.41051 -44.04932 -12.952985 9538179
157.02687 -44.238605 -12.162705 11051416
157.03716 -44.329391 -11.404737 8682867
85.69207 -43.975449 129.11786 10787731
84.876091 -43.957466 129.57564 9011581
84.822128 -43.837399 130.87029 11905953
84.030602 -43.83741 131.37627 9669766
83.550606 -43.833637 133.44972 5920074
82.743767 -43.833687 133.94833 5524548
82.096306 -43.833736 134.34413 5392706
82.06855 -43.829922 136.14299 7235166
81.245491 -43.830013 136.63264 8813686
81.080322 -43.565876 137.8681 10261132
80.423454 -43.358967 138.27208 9340541
160.64294 -42.575066 -19.844408 8092011
160.77324 -42.87413 -19.271532 9537661
81.20385 -42.888676 138.07951 10261132
80.545921 -42.681858 138.48404 9209211
79.88755 -42.475864 138.88844 8288365
160.85841 -41.785583 -20.068441 10985362
161.08817 -41.928673 -19.40914 11510679
80.639778 -41.841713 138.77544 8814709
79.991768 -41.571369 139.20062 9209467
161.17986 -40.83667 -20.194071 9800833
80.182709 -40.586178 139.50275 8748916
79.46888 -40.429096 139.91463 6709333
161.2818 -39.792118 -20.912161 8617843
161.51315 -39.93251 -20.251509 9603711
80.199692 -39.759228 139.82635 9866372
79.548195 -39.489864 140.25285 7892584
161.60297 -38.841854 -21.039671 9406334
79.774033 -38.639511 140.48387 11511195
79.058495 -38.49612 140.89107 9340029
161.77611 -37.60334 -21.770803 9537667
161.87589 -37.988659 -21.189631 10326669
79.671913 -37.802219 140.86987 9866372
79.110725 -37.571999 141.23647 10195337
161.99055 -36.811974 -21.998991 7630187
162.22647 -37.051849 -21.237001 9537667
79.303238 -36.703945 141.49083 10985367
78.58448 -36.561646 141.8992 11906213
162.19591 -35.607815 -22.624674 10261899
162.29695 -35.991581 -22.041883 7235428
79.313324 -35.843758 141.8311 10985369
78.707634 -35.680542 142.19264 10656661
78.1502 -35.440151 142.56157 8092019
162.41002 -34.815311 -22.854654 11314843
162.64774 -35.052597 -22.090982 7037274
78.884888 -34.762146 142.47466 9538694
78.161308 -34.608181 142.89006 8092019
162.61256 -33.541862 -23.54991 12959925
162.70042 -33.963379 -22.963301 14539725
78.341316 -33.717819 143.15947 10656661
77.699959 -33.607681 143.5172 9998472
162.82814 -32.816532 -23.715345 10855061
163.06763 -33.05125 -22.949926 13486781
78.412407 -32.893677 143.45561 12432556
77.738258 -32.691689 143.86604 12169125
77.096779 -32.294052 144.33913 10656398
163.12772 -31.885288 -23.874853 9473664
77.91256 -31.670162 144.19099 10853777
77.29995 -31.442785 144.58156 10656398
163.40607 -30.833117 -24.203856 10065543
163.48587 -31.047117 -23.813864 9736836
77.336067 -30.60964 144.911 10196104
163.7708 -30.268272 -24.258303 10788753
77.569763 -29.959984 145.23088 10656398
77.278221 -29.772305 145.52896 9538434
131.38408 -79.269539 40.305283 8617331
131.2822 -79.32579 40.965908 8222573
131.12511 -79.411133 41.957367 8090474
130.90927 -79.434402 42.757179 10260870
131.8022 -78.518257 39.136322 10130825
131.58829 -78.82029 39.978607 8157036
131.47838 -78.767288 41.026791 7564643
131.33696 -78.896393 41.792747 7892840
115.68581 -78.677963 72.577919 9867399
115.14298 -78.525688 73.30262 9867398
114.51947 -78.46402 74.071877 12762034
113.9262 -78.446518 74.780762 9341571
113.32016 -78.544685 75.440208 9341571
132.18153 -77.741402 38.356651 9340541
132.10854 -77.67688 39.1404 9736323
131.95747 -77.755714 40.133408 8092011
131.71979 -78.109612 41.014786 7828327
115.20948 -77.959999 73.539886 9867398
114.74545 -77.724442 74.218163 9867398
114.06669 -77.743141 75.00769 9341571
113.43954 -77.79689 75.716789 9472643
112.876 -77.642769 76.466927 11708833
112.40386 -77.337051 77.193886 10524044
132.73529 -76.572815 37.319931 9933191
132.51881 -76.861237 38.223831 8683380
132.43436 -76.750885 39.236374 8092011
132.24355 -77.000748 40.046223 8092011
114.70607 -77.150848 74.584648 8090987
114.33881 -76.84716 75.186905 9208956
113.7738 -76.690636 75.940094 9734787
113.14682 -76.640129 76.707222 10985110
112.51955 -76.593018 77.472694 10063492
111.91702 -76.644699 78.154007 9931905
133.6646 -75.287262 35.439934 9341056
133.33371 -75.569138 36.432499 10788241
133.12192 -75.718773 37.359283 9933191
132.9095 -75.871986 38.286438 9932422
132.71039 -76.058441 39.086327 8814965
113.89156 -75.945824 76.216919 8879479
113.39491 -75.770622 76.955452 8747892
112.84081 -75.628555 77.751701 9734529
112.13711 -75.832161 78.40831 8945270
111.56664 -75.687592 79.156487 9076856
111.06902 -75.379372 79.869583 10985109
135.08621 -74.344734 32.707317 6709333
134.76323 -74.4132 33.865967 8090729
134.34821 -74.61319 34.759018 8748921
134.07925 -74.762077 35.550186 8946300
133.84882 -74.872795 36.524227 10130314
133.59477 -75.075317 37.318985 9472127
112.49155 -75.110458 78.758087 8418927
111.96628 -74.924202 79.557129 8484720
111.34269 -74.749901 80.270744 11576988
110.77203 -74.539276 81.080978 9801092
110.20567 -74.335991 81.894119 9603709
109.76325 -74.304771 82.38797 9208435
142.34564 -73.704361 18.653448 8156267
142.31804 -73.730896 19.534765 7103835
141.92186 -73.994499 20.567034 8090730
141.17857 -73.994278 21.150812 11709091
140.80629 -73.992691 22.133333 14997715
140.43738 -73.990662 23.321211 11379356
139.62364 -73.990303 24.01259 7564651
139.44426 -73.988396 25.017946 7300446
139.04929 -73.986877 25.982489 6774102
138.29637 -73.986763 26.52849 9405822
138.09889 -73.984901 27.524187 9143419
137.67128 -73.983276 28.557627 9142907
137.08427 -73.982513 29.294722 9142907
136.64339 -73.980942 30.318087 8551282
136.16811 -74.06398 31.24367 9472640
135.93732 -74.098236 32.154987 7235677
135.52582 -74.187393 33.160027 8156779
135.39322 -74.202477 33.818264 7695970
110.61993 -74.175323 82.203751 9537659
110.00035 -74.08448 83.086716 8945781
109.48846 -74.002762 83.843414 9143163
108.99971 -73.940483 84.619843 9340286
108.43739 -73.901749 85.550888 7170405
108.11339 -73.900192 86.484444 8024687
108.03595 -73.898422 87.366684 8287859
107.2933 -73.897514 88.271034 7827049
106.5434 -73.896622 89.169342 8089963
106.31992 -73.894989 90.077225 8353651
106.08914 -73.893364 90.985435 8550772
105.42709 -73.892654 91.746933 8418928
104.8604 -73.891388 92.706383 10195083
104.61108 -73.889778 93.615112 10853268
104.02845 -73.888542 94.569717 8485745
103.34055 -73.887901 95.316223 8880503
103.34267 -73.80764 96.338951 8288366
102.69793 -73.592285 97.039223 9209725
102.14497 -73.311188 97.451248 9143166
142.67741 -72.73996 17.795446 9734784
142.69308 -72.826424 18.686682 8748148
142.68872 -72.975441 19.628824 7761509
103.4566 -73.134422 96.819244 7038307
102.90216 -72.708038 97.291489 7827565
102.20635 -72.627586 97.69812 8288115
143.03265 -71.652184 17.053621 12235427
143.04027 -71.747971 17.857367 10656140
142.98561 -72.026649 18.73564 9932419
102.90357 -71.697144 97.704643 7564393
102.22153 -71.736366 98.054871 8748408
101.60744 -71.435768 98.50769 9143166
143.41791 -70.470016 16.224813 11709340
143.30074 -70.8918 16.910212 12235170
143.38179 -70.811966 17.898893 8090986
102.44731 -70.722908 98.348503 7761772
101.7248 -70.560577 98.802994 7301220
143.69881 -69.656906 15.949794 9670534
143.70995 -69.771164 16.957319 9208697
143.59253 -70.193451 17.644178 7564643
102.44495 -69.902328 98.68573 6642517
101.82209 -69.702141 99.102188 7497825
101.17883 -69.623199 99.47995 7827300
144.01949 -68.654686 15.123328 13551541
144.03334 -68.748787 16.04244 11775134
143.97769 -69.012985 16.812677 8682099
101.9672 -68.942528 99.335266 8089963
101.34135 -68.565895 99.825539 8024423
100.61436 -68.499321 100.24321 10063235
144.44887 -67.368927 14.406997 8682867
144.33458 -67.783081 15.097316 8092019
144.30627 -67.986862 15.971606 12037791
101.61943 -67.68998 100.03493 8024423
100.76965 -67.621231 100.51929 10063491
144.69221 -66.575775 13.552787 10261641
144.64667 -66.801651 14.250632 8682867
144.66339 -66.897423 15.236041 8682867
101.61398 -67.120583 100.27101 8287594
101.03053 -66.701355 100.75597 7959143
100.3872 -66.3899 101.22882 9866624
145.00018 -65.6978 13.346366 9472126
144.98517 -65.874023 14.283019 8682867
144.93947 -66.100578 14.982524 13550517
101.12408 -65.794907 101.07701 7038298
100.36322 -65.714127 101.51849 9537916
99.865112 -65.382057 101.92183 11380380
145.25348 -64.845993 12.547687 10064265
145.37248 -64.670471 13.332732 7958894
145.29337 -64.995613 14.077281 8551027
100.61723 -64.772552 101.76772 8617072
99.851273 -64.57618 102.25936 10787728
145.59807 -63.825085 12.458903 10458768
145.67564 -63.846256 13.40655 7432808
100.60069 -63.784485 102.18127 7038298
100.05213 -63.637001 102.53619 7959144
99.37616 -63.635647 102.89963 10261899
145.87306 -62.643318 11.680663 8814710
145.94838 -62.883133 12.487906 8814201
100.08348 -62.860092 102.83755 8288108
99.428467 -62.625038 103.28542 9340797
146.0983 -61.521008 10.84925 6511954
146.12625 -61.856464 11.508281 7695972
146.30269 -61.864311 12.280826 7564642
99.668419 -61.69957 103.53564 9011832
98.991585 -61.465202 103.9949 8617331
146.46861 -60.678905 10.640002 6840919
146.47087 -60.987061 11.466872 7564386
99.774323 -60.883331 103.81315 8090987
99.135536 -60.665119 104.31432 9604226
98.565536 -60.418934 104.80423 10591121
147.29514 -59.41573 8.8035688 8551281
147.0912 -59.674042 9.7674551 9537919
146.92468 -60.050842 10.554889 8090474
99.186256 -60.147636 104.70518 9341054
98.694962 -59.810658 105.26027 9998985
98.071754 -59.542053 105.9117 7695980
97.820854 -59.235874 106.64314 7564394
152.56084 -58.395916 -1.6949589 10524299
152.56201 -58.715809 -0.86950034 10720906
151.96774 -59.024704 -0.045529544 10983822
151.96336 -59.022758 0.86718637 10260875
150.84967 -59.022762 1.5830867 10260875
150.83131 -59.020466 2.6701839 9077886
150.26497 -59.019341 3.5617397 9867143
149.69824 -59.018612 4.2668028 8485488
149.66098 -59.016357 5.3455725 8946044
148.54659 -59.016075 6.1966085 8485494
148.50432 -59.014229 7.0886221 8551540
148.07603 -59.113403 7.8522825 7630435
147.89503 -59.232391 8.8405485 9011831
97.611427 -59.090542 107.27732 9341058
97.299721 -58.989498 107.8018 9209985
96.675529 -58.902122 108.4155 7564651
96.649727 -58.866329 109.7136 11183517
95.852493 -58.865948 110.40659 13486782
95.525276 -58.864319 111.38048 13025973
95.190437 -58.862698 112.35339 9078397
94.374168 -58.862362 113.03578 10459793
94.365616 -58.859402 114.42377 10788247
93.673256 -58.859158 114.9877 9670024
92.977592 -58.858921 115.54782 8354678
92.931458 -58.711258 117.0459 12433069
92.128456 -58.583893 117.53783 9275004
152.7619 -57.784164 -1.8081524 9932159
152.92099 -57.882877 -0.96442145 9734779
92.411942 -57.773609 117.7252 8880246
91.64959 -57.487659 118.2124 10261898
153.0007 -56.633636 -2.6217473 9669763
153.08223 -56.873119 -1.8866704 9866371
153.0934 -57.302811 -1.1502697 9734779
92.477058 -56.756947 118.10217 11446173
91.897552 -56.571331 118.45978 10459277
91.215988 -56.473728 118.83183 9537918
153.3204 -55.802174 -2.5754673 9471871
153.43159 -55.929428 -1.8922856 9734531
91.939796 -55.709042 118.78587 10261644
91.192352 -55.592194 119.19778 8616562
153.49126 -54.788334 -3.4630368 10261387
153.60652 -54.929611 -2.7397854 9208955
91.874954 -55.012344 119.09764 9340798
91.404144 -54.643845 119.47569 8419440
90.814674 -54.310135 119.89772 8419440
153.84575 -53.70153 -3.6757023 9669761
153.90269 -54.040436 -2.8872654 9077883
91.606415 -53.736607 119.74168 8682868
90.856194 -53.623032 120.15367 8222061
153.9996 -52.814148 -4.4338236 9603968
154.20293 -52.803684 -3.5742543 10787727
91.634987 -53.11039 119.97935 8419440
91.009964 -52.739449 120.43371 8156268
90.290703 -52.57082 120.85277 8353647
154.27132 -51.574795 -5.2475672 9340801
154.35722 -51.805935 -4.5072641 9867141
154.4427 -52.038284 -3.7665913 11708572
91.060951 -51.943176 120.72882 8682867
90.485558 -51.530876 121.17553 9406591
154.50984 -50.811306 -5.4425211 9340801
154.6752 -50.897205 -4.5922251 9340801
90.565475 -50.709 121.4668 9603713
89.90712 -50.61948 121.82429 11183001
154.80537 -49.581844 -6.1376886 9472129
154.83887 -49.956757 -5.3929949 9340801
154.91321 -50.29821 -4.5255747 8420470
90.645393 -50.037376 121.69765 9735555
90.066902 -49.627861 122.14481 8682100
89.345528 -49.493 122.55132 11248283
155.07942 -48.759323 -6.273984 10195850
155.21869 -48.828159 -5.5635614 9998472
90.144531 -48.756283 122.45707 8484721
89.455833 -48.593006 122.85912 11379869
155.314 -47.654255 -7.0329561 9867140
155.35355 -47.936523 -6.4107447 9998983
89.679237 -47.813309 123.06332 9800581
89.020065 -47.507526 123.50815 7563619
155.68764 -46.385616 -7.926465 10261641
155.63928 -46.777401 -7.1736994 9998470
155.70094 -46.994137 -6.4265032 10459278
89.772606 -46.859402 123.40108 7563619
89.067627 -46.580097 123.88979 7168861
88.36718 -46.305046 124.3851 6840666
156.15903 -45.690544 -8.138833 9999751
156.0634 -46.068977 -7.3817148 9736836
89.325356 -45.888836 124.25042 8092011
88.671837 -45.592796 124.81606 8157553
88.063568 -45.319077 125.34111 9736071
157.17989 -44.357147 -10.845452 10261900
157.05424 -44.512077 -9.8898745 10262924
156.52792 -44.973202 -8.9131632 9736836
156.66866 -45.003872 -8.3545427 9736836
88.185707 -44.814865 125.73093 9472900
87.717491 -44.499084 126.46458 8223091
87.423149 -44.247009 127.34907 8880505
86.775414 -44.230743 127.71974 10458510
161.03581 -43.683472 -17.928812 7760998
161.26579 -43.935478 -17.169668 7892581
160.18761 -44.047966 -16.279184 7432540
160.26253 -44.046211 -15.50916 7761248
158.81969 -44.045448 -14.218568 6840661
158.88411 -44.04372 -13.455079 9143675
158.94539 -44.042004 -12.691426 11906725
157.7151 -44.102856 -11.643224 10261899
157.90668 -44.139645 -10.89433 9735555
86.995766 -44.006176 128.37978 10655892
86.444923 -43.912045 129.23868 7827566
86.081718 -43.83741 130.04976 8288116
85.295448 -43.837399 130.56403 12958639
85.314949 -43.833576 132.3354 9735302
84.674889 -43.833591 132.74312 9932681
84.033272 -43.833614 133.14816 7893352
83.86866 -43.829773 135.04816 5919306
83.215584 -43.829823 135.44882 5919306
82.560936 -43.829872 135.84688 5919306
82.378822 -43.524441 137.25012 7235166
81.652687 -43.286415 137.70055 9997959
161.0984 -42.655933 -18.722097 10458249
161.28416 -42.939129 -18.036097 7563619
82.439812 -42.603573 137.58994 7630436
81.720482 -42.510471 137.97884 9274748
161.42871 -41.832939 -18.712355 9405563
161.62309 -42.127197 -17.996561 7563619
81.949104 -41.672344 138.20355 9274748
81.277428 -41.529461 138.58919 8682867
161.52513 -40.658035 -19.562063 10260614
161.71265 -40.938465 -18.874613 8945268
82.045898 -40.668251 138.55934 9997959
81.279747 -40.556438 138.97859 9143162
80.652992 -40.156013 139.4456 9209467
161.85989 -39.767563 -19.60375 9734527
161.97598 -40.18129 -18.95907 9142647
81.630707 -39.588543 139.19562 9143675
80.834732 -39.535759 139.60577 9735042
161.94989 -38.659962 -20.406988 8616048
162.13907 -38.937866 -19.717943 9602941
81.597328 -38.807579 139.52538 8419952
80.932991 -38.601341 139.93283 11182486
80.268196 -38.395931 140.34013 13418933
162.26585 -37.745171 -20.513983 9076600
162.40092 -38.110336 -19.869879 8616048
81.213379 -37.694672 140.15977 9472127
80.407166 -37.617352 140.58473 10655631
162.37283 -36.661087 -21.256742 9537667
162.5636 -36.936584 -20.566107 9602944
81.213562 -37.043148 140.42122 9866372
80.581123 -36.642601 140.89099 9142650
79.808098 -36.534332 141.31221 9603201
162.68869 -35.744465 -21.365583 6906461
162.82533 -36.107712 -20.71974 9734014
80.755356 -35.666367 141.19774 9011321
80.051399 -35.657101 141.54544 9077114
79.381912 -35.453194 141.95445 9538694
162.95447 -34.888477 -21.534536 8551025
80.171577 -34.72781 141.85973 8353647
79.391609 -34.591213 142.29567 10656661
163.054 -33.789654 -22.30768 11512479
163.27646 -33.983551 -21.618498 10261899
80.362846 -33.896122 142.10005 7564643
79.690605 -33.692032 142.51047 10327182
78.983925 -33.684616 142.85883 12432045
163.37555 -32.884216 -22.392881 12236200
79.780685 -32.841347 142.80795 11577760
78.994324 -32.604065 143.28748 11972518
163.47356 -31.785255 -23.169226 9736836
163.69746 -31.976744 -22.478533 12563623
79.306267 -31.573399 143.54875 11183258
78.520744 -31.438498 143.98674 10656914
163.79543 -30.877176 -23.256239 9736836
79.318245 -30.735308 143.87927 10788500
78.646156 -30.534288 144.30122 10919828
78.152008 -30.335451 144.63744 10656398
164.20711 -29.83379 -24.081205 9341310
164.22029 -30.183079 -23.38439 9736836
78.816475 -29.968225 144.61607 10262156
78.240425 -29.593552 145.22226 10130057
77.675301 -29.224007 145.85478 10656658
77.889397 -28.945723 146.6873 9932937
130.75081 -79.432266 43.227695 11379348
130.53905 -79.430946 43.854874 8813683
130.22046 -79.431648 44.795364 8616049
129.84721 -79.436859 45.892185 10261132
129.4724 -79.44651 46.988754 10063753
129.14973 -79.458618 47.928493 8287085
128.82578 -79.474144 48.868217 8879989
128.60915 -79.486214 49.494621 11511449
131.40952 -78.549744 42.163857 8418927
131.10527 -78.648514 43.06501 9866369
130.74239 -78.683304 44.09779 8353134
130.37817 -78.722198 45.12981 8221549
130.04887 -78.690208 46.138962 9405823
129.72446 -78.745049 47.035698 9668995
129.34912 -78.934029 47.931431 7695205
129.06075 -79.094292 48.602509 7564643
118.92982 -79.169464 68.480705 9405816
118.46432 -78.830276 69.218445 9143162
117.90343 -78.647751 69.981224 8946041
117.27597 -78.680595 70.702415 9209215
116.49379 -78.67141 71.62928 9603972
115.92765 -78.416656 72.438683 9867399
131.86627 -77.604538 41.321243 8288109
131.64407 -77.770454 42.371799 8945270
131.32832 -77.7519 43.41761 8945269
131.00914 -77.750298 44.362526 7695205
130.69743 -77.789108 45.239723 7366240
130.35727 -77.942406 46.07164 8879479
118.03284 -77.89267 70.250099 10129545
117.50004 -77.780205 70.940758 9077886
116.88615 -77.756973 71.67717 9209471
116.17468 -77.713333 72.53997 8946296
115.5788 -77.507378 73.357201 9604226
132.34288 -76.571327 40.510841 10131082
132.1418 -76.784607 41.511856 9670019
131.95259 -76.865852 42.526711 9143161
131.59286 -77.044388 43.434464 9537405
131.25409 -77.191429 44.269405 7563618
117.53439 -77.064758 71.299385 8617331
117.12071 -76.864746 71.898598 9275261
116.60132 -76.688087 72.609261 9077882
115.78709 -76.780678 73.517212 8946296
115.12214 -76.726425 74.33107 9340797
114.61726 -76.385223 75.116493 9208699
133.11015 -75.476067 38.74086 9866629
132.78989 -75.771011 39.688801 10262155
132.72768 -75.71273 40.599342 14802902
132.49026 -75.872017 41.620689 11380895
116.61666 -76.072929 72.934433 8946296
116.1572 -75.890121 73.612785 8288366
115.55947 -75.773903 74.430092 9998470
114.89108 -75.682045 75.296104 9669505
114.31319 -75.51181 76.15184 8747892
113.73801 -75.347717 77.009346 8089963
113.21926 -75.233765 77.755142 9603202
134.53026 -74.376602 36.248318 9340801
134.36301 -74.425323 37.062286 10195595
133.85545 -74.707069 37.912907 9405822
133.5737 -74.851578 38.876129 9668994
133.28625 -75.070473 39.837517 12564655
115.37863 -75.058929 75.418648 9208954
114.79816 -74.885796 76.306702 8616562
114.16585 -74.833084 77.113892 8287342
113.63827 -74.629707 78.043839 8945272
113.05564 -74.564674 78.850433 9339772
112.62542 -74.41246 79.643097 9208186
112.05527 -74.281502 80.582176 10984593
111.39453 -74.231583 81.332909 9208435
142.51935 -73.524284 20.188162 6511954
142.51488 -73.655373 21.003843 6446680
142.20224 -73.869965 21.796068 8090478
141.60541 -73.990562 22.609999 12102823
141.4361 -73.988617 23.629667 9537663
140.7606 -73.987709 24.489779 9011318
140.22516 -73.986275 25.508287 6510930
140.0349 -73.984375 26.517939 6510930
139.27391 -73.984261 27.066011 8879222
138.86269 -73.982773 28.025846 9010808
138.65434 -73.980919 29.025555 9011321
138.12192 -73.97982 29.884882 8222063
137.42593 -73.979111 30.667364 7827819
137.16019 -73.977005 31.821463 9801605
136.73453 -73.983253 32.762733 8354158
136.21593 -74.009949 33.330563 9012088
135.61661 -74.112709 34.290428 8354933
135.37463 -74.152153 35.200378 9340801
135.12808 -74.199745 35.946167 8946300
112.58794 -74.128586 80.761932 9537150
111.92473 -74.078461 81.515671 9274487
111.49566 -73.966629 82.442032 9603452
110.86036 -73.942566 83.216454 9537916
110.52321 -73.901711 84.218857 8814195
109.90993 -73.900864 85.012466 9603972
109.40211 -73.899452 85.996765 8289140
109.20571 -73.897766 86.911972 8682873
108.68171 -73.896393 87.892288 8287859
108.04195 -73.895615 88.6726 8287859
107.55767 -73.894341 89.583229 9011323
107.4444 -73.892799 90.36998 9011323
106.94614 -73.891548 91.278175 9405824
106.17057 -73.890717 92.173141 8484978
105.94884 -73.888824 93.196594 9800582
105.56864 -73.887344 94.133286 10392719
104.88393 -73.886665 94.89093 9998472
104.54777 -73.658279 95.877182 8683124
103.86018 -73.393753 96.496323 8090987
142.78102 -72.783951 20.061171 6248784
142.84039 -72.757835 21.007021 5920338
142.73666 -73.150261 21.737597 5393738
104.77614 -72.963051 96.180847 9341054
104.06683 -72.65332 96.688538 7038307
103.35812 -72.346153 97.194885 7038307
143.13123 -71.678619 19.104376 8485488
143.10847 -71.876953 20.0362 5985615
143.12514 -71.933556 20.740534 5393738
104.25853 -71.883484 96.900787 9472387
103.53724 -71.555527 97.422333 8288115
143.47485 -70.618034 18.330805 9011574
143.49591 -70.679459 19.1523 7169885
143.43549 -70.971146 20.010714 4342073
104.37758 -70.965195 97.213028 11380380
103.70886 -70.750893 97.659744 9406594
103.05524 -70.568268 98.085358 8616823
143.77036 -69.782928 18.192179 8551280
143.76613 -69.922081 19.070284 7038556
103.81747 -69.821175 97.982231 9340543
103.15525 -69.625557 98.417816 7234654
