# .PCD v0.7 - Point Cloud Data file format
VERSION 0.7
FIELDS x y z rgb
SIZE 4 4 4 4
TYPE F F F U
COUNT 1 1 1 1
WIDTH 1181
HEIGHT 1
VIEWPOINT 0 0 0 1 0 0 0
POINTS 1181
DATA ascii
-150.88736 -55.007191 -106.66751 8748660
-150.373 -54.909782 -107.30254 6511954
-175.85867 -53.605202 15.683459 9735297
-175.97989 -53.859406 14.840369 10787727
-176.18671 -53.978924 13.861341 8814455
-151.08476 -54.184464 -106.8987 7696228
-150.46826 -54.128601 -107.62621 6840919
-150.19641 -53.845951 -108.08936 10261644
-175.9729 -52.709877 16.547091 10064009
-176.09499 -52.962421 15.703372 10261384
-176.3831 -52.881016 14.701829 9603455
-176.41699 -53.256832 14.020766 8090987
-151.21085 -53.4338 -107.17066 6511954
-150.83722 -53.191853 -107.72636 5919050
-150.17494 -53.120773 -108.5141 8287856
-176.24347 -51.387634 17.427334 7038307
-176.23744 -51.843441 16.784645 9339515
-176.45689 -51.941532 15.787646 10261128
-150.95482 -52.288765 -108.08566 8090219
-150.57962 -52.047653 -108.64178 9537665
-150.04941 -51.938549 -109.3064 10261645
-176.35544 -50.495495 18.295322 8287600
-176.42879 -50.735733 17.659191 9536894
-176.68161 -50.780334 16.610531 10720907
-150.74916 -50.915741 -109.04111 10261644
-150.18648 -51.034321 -109.62822 12235431
-149.79785 -50.810482 -110.19476 8683898
-176.54037 -49.843819 18.528372 10194824
-176.74335 -49.877689 17.689312 9865601
-176.90305 -49.98135 16.916796 7169635
-150.49171 -50.072895 -109.77795 10656656
-149.83101 -49.977692 -110.59068 7828846
-176.67856 -48.730862 19.617472 7367005
-176.85205 -48.887817 18.713257 9011064
-177.07216 -48.907402 17.82848 8616306
-150.60222 -49.317307 -110.04434 7039331
-150.22563 -49.078762 -110.60356 8617847
-149.56511 -49.015396 -111.39947 9012607
-176.86171 -47.390545 20.498598 7367005
-176.99196 -47.872215 19.650805 7958886
-177.2224 -47.907848 18.704752 8089962
-150.3278 -48.171059 -110.95881 7039331
-149.78801 -48.202351 -111.56597 9012090
-149.36389 -47.918854 -112.20353 8813936
-177.14381 -46.641151 20.529907 7695460
-177.34598 -46.905701 19.68858 8090216
-150.09375 -47.140335 -111.76657 10064261
-149.4023 -47.237534 -112.51442 9537402
-177.08542 -45.753822 21.531134 8089963
-177.41479 -45.937546 20.646914 7892584
-149.83795 -46.210236 -112.61742 8813936
-149.25642 -46.11079 -113.37342 6906711
-148.95447 -45.678345 -114.15716 8354932
-177.69569 -44.39592 23.415863 9471871
-177.59335 -44.718437 22.489326 10459278
-177.62408 -45.031437 21.667946 8418928
-177.74419 -45.278618 21.031624 8418928
-149.64745 -45.272469 -113.83313 7039331
-149.22064 -45.097004 -114.53213 8091761
-148.87257 -44.839756 -115.23607 7038302
-179.87781 -43.450706 35.053837 10853004
-180.20224 -43.729549 34.217087 8682610
-179.09299 -44.030937 30.442087 9735557
-179.27429 -44.033089 29.363111 9341054
-179.38 -44.034378 28.715143 9341054
-177.90833 -44.040249 25.408648 9931910
-178.19719 -44.083199 24.57448 9143166
-149.38991 -44.543774 -115.92338 7039331
-148.95459 -44.539581 -116.4495 7037274
-148.37303 -44.534458 -117.14999 8354159
-148.6291 -44.28635 -118.51652 9275261
-147.9144 -44.287476 -119.40943 8814710
-147.55492 -44.294441 -123.27813 7827817
-146.81192 -44.295536 -124.16475 7894124
-146.83696 -44.301891 -127.55376 7039331
-146.37614 -44.302532 -128.0834 8683635
-145.91354 -44.303177 -128.61168 8683635
-180.08353 -42.709343 35.242744 9406591
-180.42961 -42.835758 34.484062 9341055
-180.12663 -41.637024 36.000767 11906725
-180.42839 -41.863312 35.248436 9275005
-180.57457 -42.161526 34.736225 10459279
-180.34018 -40.834442 36.222694 9538433
-180.66936 -40.901634 35.542671 8288110
-180.36281 -39.70689 37.062302 11972519
-180.69304 -39.772236 36.382332 8419696
-180.45349 -38.450665 37.872265 9341059
-180.67993 -38.708916 37.239098 10261903
-180.9884 -38.747303 36.621635 9011573
-180.65752 -37.707386 38.065231 11775140
-181.00786 -37.826164 37.305244 12103848
-180.69572 -36.63715 38.829674 9341059
-180.92326 -36.893635 38.195702 9341059
-181.23294 -36.929806 37.577793 9341059
-180.89934 -35.892746 39.024197 7169890
-181.27969 -35.873817 38.31488 9143680
-180.9761 -34.520199 39.95179 6511954
-181.17918 -34.914364 39.256741 6906716
-181.19547 -33.653198 40.21228 9405822
-181.5529 -33.736053 39.466759 9405822
-181.21481 -32.704071 40.917839 6511954
-181.56888 -32.815804 40.156204 8682355
-181.43385 -31.835531 41.180191 9274493
-181.79266 -31.915876 40.433949 8287342
-181.64015 -30.666182 41.961967 12564654
-181.83234 -30.999577 41.131142 10459023
-181.87834 -29.445835 43.911858 10261899
-182.00708 -29.671129 43.01638 12696241
-181.8199 -30.098362 42.510216 12696240
-184.33041 -28.523775 54.506996 10459537
-184.54544 -28.780622 54.088207 7565158
-183.35881 -28.994499 51.587418 8287853
-183.54453 -28.99588 50.924561 9997955
-183.7886 -28.997717 50.039825 9208435
-182.25145 -29.087799 45.63187 10590091
-182.52324 -29.106136 44.999676 7300958
-184.41797 -27.740692 54.853813 12695726
-184.39778 -26.552401 55.571598 8682612
-184.63521 -26.888731 55.078331 11380380
-184.61488 -25.699492 55.797123 8551283
-184.44164 -24.498726 56.714005 7565675
-184.81041 -24.764206 56.097755 8222832
-184.78008 -23.76343 56.719162 9012602
-184.52721 -22.604424 57.711277 10985361
-184.97116 -22.920683 56.971397 10393481
-184.93994 -21.918703 57.594704 10985361
-185.3107 -22.181984 56.977173 12432037
-185.11327 -20.897675 57.973068 10590604
-185.1115 -19.784887 58.624039 10853521
-185.57091 -19.812605 58.032936 10129798
-185.17404 -18.35689 59.378414 8682867
-185.35019 -18.724913 58.943409 8682867
-185.28195 -17.645998 59.657814 10854036
-185.74292 -17.670502 59.066719 9275004
-185.16956 -16.684099 60.359257 9932934
-185.63087 -16.707129 59.768585 9538176
-185.66241 -15.634198 60.517975 10261899
-185.73892 -15.993857 60.04924 9735555
-185.75435 -14.691059 61.538109 9801347
-185.94341 -15.054952 60.856705 11906725
-185.80492 -14.128264 63.548107 14603206
-186.22887 -14.144265 62.942429 8288108
-170.17769 -67.613037 -16.667648 8089963
-170.04305 -67.84613 -17.688646 9010550
-170.00682 -67.876511 -18.720247 8550513
-170.03125 -67.88092 -19.677053 8879732
-169.69102 -67.960236 -20.549423 7564390
-169.22726 -67.949394 -21.528248 8813936
-168.88513 -67.867012 -22.519371 8222573
-169.2878 -67.668121 -24.859554 9011065
-168.99861 -67.602524 -25.6497 9011065
-168.63258 -67.520821 -26.634272 8024170
-168.33658 -67.455643 -27.419716 7563619
-170.42433 -66.665779 -14.830123 7564643
-170.44456 -66.901329 -15.741988 8945268
-170.51546 -67.014191 -16.701426 9470843
-170.62793 -66.993324 -17.690937 9010550
-170.54907 -67.358101 -18.780472 8616307
-168.18723 -67.423141 -27.811581 7761512
-167.92696 -67.360649 -28.392477 8484973
-167.57056 -67.274666 -29.163631 9537918
-167.86887 -67.070862 -31.511751 9932416
-167.45618 -66.984573 -32.479843 9932416
-167.03831 -66.898521 -33.444031 8879477
-166.61594 -66.812691 -34.404724 8418927
-166.27443 -66.744263 -35.170467 9668991
-166.86516 -66.617287 -36.766907 8485229
-166.60005 -66.565964 -37.340343 8485229
-166.15443 -66.480515 -38.292973 8551023
-170.66304 -65.758636 -14.024257 7761512
-170.70059 -65.895126 -14.772676 7761512
-170.80112 -65.93158 -15.74528 9405562
-170.87558 -66.032158 -16.696495 9076600
-165.70441 -66.395348 -39.241962 9209211
-165.24939 -66.310516 -40.186848 8617331
-165.60353 -66.147514 -42.178452 10129030
-165.13065 -66.062859 -43.118759 11050130
-164.6535 -65.978401 -44.055336 8354163
-164.26834 -65.911064 -44.801586 9208438
-164.76581 -65.780083 -46.432163 10262156
-164.3685 -65.712807 -47.176128 9735298
-163.86832 -65.628937 -48.102787 9997699
-163.46065 -65.56041 -48.83992 9471867
-170.95988 -64.628578 -13.014531 8682353
-170.95879 -64.895615 -13.842607 8484973
-171.07011 -64.909561 -14.837106 7432806
-171.13199 -65.024277 -15.72491 9208435
-163.93846 -65.410744 -50.274834 7893615
-163.47037 -65.322548 -50.994389 8288371
-162.88177 -65.2127 -51.889389 9735812
-163.4187 -65.094521 -53.363129 8814715
-163.08899 -65.041298 -53.908432 8156787
-162.53609 -64.952774 -54.813606 8946296
-162.09091 -64.882095 -55.534927 9209985
-162.51785 -64.758095 -57.215179 7039331
-162.06018 -64.687347 -57.933189 13551549
-161.48413 -64.599182 -58.826477 7960176
-171.17596 -63.451588 -11.168136 8616307
-171.18942 -63.635254 -11.858987 9142651
-171.21559 -63.854031 -12.768649 8748404
-171.35249 -63.834404 -13.876014 8879728
-171.39743 -63.956085 -14.641412 7761512
-161.64441 -64.437927 -60.87619 11380380
-161.0507 -64.349838 -61.762501 10262415
-160.57301 -64.279503 -62.468552 10262415
-161.05608 -64.169121 -63.998768 8681843
-160.56648 -64.098763 -64.701561 9602943
-160.07478 -64.028503 -65.401772 11576473
-160.53517 -63.916443 -66.946068 9011321
-160.03156 -63.846195 -67.642776 8813686
-159.39896 -63.758556 -68.509895 11379612
-159.96326 -63.662228 -69.895027 10459017
-159.44565 -63.591957 -70.585426 12828593
-158.92578 -63.521816 -71.273071 10459017
-171.395 -62.754284 -10.851874 9471616
-171.4706 -62.854107 -11.810489 8747893
-171.56924 -62.91877 -12.855626 8946040
-171.56911 -63.184093 -13.686492 7893608
-158.66484 -63.486862 -71.6157 10459017
-159.33948 -63.405964 -72.844444 9012344
-158.80791 -63.335876 -73.528252 9932163
-158.14043 -63.248432 -74.379112 9932163
-158.6647 -63.148373 -75.794083 10261641
-158.11942 -63.078362 -76.471169 7959402
-157.57227 -63.008575 -77.145592 6512986
-158.07819 -62.906826 -78.574928 8157037
-157.38011 -62.819504 -79.413269 9538688
-157.30505 -62.646408 -81.52462 10262155
-156.73349 -62.576717 -82.188667 10459284
-171.60236 -61.638683 -9.1247797 9143419
-171.61723 -61.818398 -9.8163481 8945272
-171.68462 -61.94474 -10.788409 9011065
-171.78413 -62.006363 -11.833343 9405823
-171.8306 -62.123653 -12.598891 9735300
-156.62674 -62.402115 -84.307579 7564651
-156.0426 -62.332638 -84.965286 8090987
-156.35097 -62.208633 -86.601799 8617075
-155.75526 -62.139172 -87.254753 9341054
-155.59358 -61.961575 -89.391624 15196110
-154.98546 -61.892376 -90.037903 13420214
-155.41084 -61.782551 -91.539017 7564643
-154.75504 -61.698689 -92.159554 9340537
-154.73172 -61.548965 -94.174774 7169629
-171.99269 -60.642239 -8.1778708 8616563
-171.98158 -60.811943 -8.938386 8616563
-172.03381 -60.910713 -9.9280329 8353647
-172.03084 -61.11425 -11.019338 8879991
-171.99902 -61.35799 -11.640931 9142651
-154.41327 -61.51302 -94.491356 8090736
-154.16624 -61.400078 -95.19268 9143166
-154.25893 -61.121273 -96.278091 8616823
-153.78734 -61.020756 -96.929649 8090992
-153.40335 -60.805546 -97.722954 10262415
-172.5979 -59.532349 -5.0160213 8814710
-172.55428 -59.690151 -6.123796 7103836
-172.4489 -59.888107 -6.9240947 8485233
-172.44943 -59.998138 -7.8037848 9077370
-172.54326 -60.052006 -8.9682398 8089963
-154.16437 -60.420437 -97.167389 7630443
-153.71513 -60.127125 -98.095253 9472643
-153.35136 -59.770851 -98.992699 8618105
-152.94942 -59.551998 -99.77993 10262415
-175.6013 -58.663071 9.2912493 5393730
-175.57434 -58.88554 8.6541204 6709846
-175.69247 -58.912983 7.8116212 7827817
-175.48544 -59.07254 6.7438645 7169891
-175.52405 -59.074543 5.6869245 8090479
-175.54419 -59.075741 5.0526586 8616822
-174.16356 -59.079098 2.702744 9011065
-174.17538 -59.080673 1.8636289 8813683
-174.18419 -59.082638 0.81453377 8221545
-174.18724 -59.084606 -0.23438781 8353130
-174.18492 -59.086166 -1.0735717 9076855
-173.06598 -59.19566 -2.9441791 8879735
-173.20747 -59.252441 -3.9897075 7958889
-173.33813 -59.307808 -5.0372138 9077882
-153.60507 -59.259499 -99.943771 10262415
-152.9912 -59.256748 -100.86009 9077884
-152.94308 -59.051537 -101.8875 9012091
-152.36179 -58.940907 -102.8296 9735555
-175.82816 -57.858501 9.5850325 7827819
-176.06766 -57.842384 8.6768217 8354420
-176.05504 -58.311848 8.039422 10789268
-153.08084 -58.526508 -102.2458 8814456
-152.69763 -58.049324 -102.9423 9012348
-152.15932 -57.906178 -103.62968 7170661
-175.90475 -56.393097 11.429545 15722454
-175.97997 -56.722931 10.654708 9670021
-176.1407 -56.919155 9.7423506 7564651
-176.33786 -56.969448 8.9017649 7564651
-152.90552 -56.99839 -103.28747 6841696
-152.39291 -56.895321 -103.92373 6709854
-151.88033 -56.793358 -104.55938 6841696
-176.13641 -55.66991 11.585515 12301990
-176.34119 -55.796288 10.604066 10196366
-176.45955 -56.059433 9.7588129 7564651
-152.66536 -55.999676 -104.11031 6249303
-152.08031 -55.970253 -104.7877 6249303
-151.70932 -55.725159 -105.34219 8617075
-176.25511 -54.766029 12.444964 8353651
-176.41112 -54.878819 11.673406 9998728
-176.56683 -54.99268 10.901095 8880765
-152.72337 -55.320202 -104.41993 5393738
-152.35179 -55.074505 -104.97541 6182480
-151.76585 -55.046707 -105.65299 7563874
-176.40881 -53.717422 13.379642 8024943
-176.48354 -54.011597 12.659076 7827564
-176.77197 -53.951714 11.624646 7433064
-152.55183 -54.250603 -105.20423 7169116
-152.0363 -54.150806 -105.84194 7300702
-151.52072 -54.05204 -106.47904 7695716
-176.63307 -52.378067 14.464818 9735297
-176.70779 -52.797215 13.561399 11182229
-176.88425 -52.984901 12.600764 9011579
-152.31151 -53.116127 -106.08883 8814454
-151.71809 -53.228165 -106.7093 7564386
-151.34511 -52.985775 -107.26624 8090219
-176.74777 -51.480129 15.330283 9537406
-176.86598 -51.687038 14.568448 7563619
-177.07587 -51.82132 13.555867 11445143
-152.0377 -52.101109 -106.93498 7563874
-151.41084 -52.012527 -107.70512 8287598
-176.9343 -50.826595 15.560132 9011063
-177.18684 -50.874653 14.507703 8484720
-177.30946 -51.12928 13.6587 10458508
-152.14482 -51.19241 -107.28507 8617075
-151.77022 -50.950649 -107.84369 8748405
-151.18672 -50.930313 -108.52824 9669507
-177.09085 -49.862099 16.360813 8221548
-177.25038 -49.967278 15.586576 8024169
-177.40968 -50.073498 14.811631 7563619
-151.95265 -50.120693 -108.06578 9341054
-151.33763 -50.069427 -108.80284 9406591
-150.91591 -49.782417 -109.4395 10262155
-177.31767 -48.606422 17.313471 7826790
-177.39803 -48.913807 16.551704 6577748
-177.60994 -49.038635 15.544915 8419440
-151.68909 -49.123291 -108.89024 9736325
-151.02823 -49.056858 -109.68805 9209726
-177.45653 -47.490112 18.404697 8089962
-177.58209 -47.738049 17.553785 9142651
-177.79407 -47.849434 16.566578 7959657
-151.73097 -48.440277 -109.19791 7762277
-151.35391 -48.200539 -109.75838 9735812
-150.76756 -48.183304 -110.44459 9735812
-177.56657 -46.598457 19.279716 9142651
-177.69287 -46.844933 18.428143 9142651
-177.94904 -46.88554 17.372398 9405823
-151.53465 -47.369656 -109.98287 11380121
-150.95374 -47.106064 -110.79122 11314329
-150.52582 -46.733799 -111.47953 9472383
-177.74989 -45.726936 20.165283 7563619
-177.98433 -45.69957 19.447599 8747893
-178.03572 -45.990891 18.462372 8813686
-178.13483 -46.231216 17.606136 10261132
-151.33099 -46.147621 -110.85876 11775139
-150.76195 -45.966236 -111.72965 9932934
-150.41817 -45.707172 -112.43146 9932934
-178.26627 -44.595032 21.419474 7958377
-178.31564 -44.933609 20.445976 7826791
-178.50571 -44.958923 19.597099 10261132
-151.11336 -45.302731 -112.10307 11183001
-150.68803 -45.125156 -112.80276 9669761
-150.13155 -44.966827 -113.63165 7696745
-180.69765 -43.801891 33.185444 7037274
-180.89998 -43.929691 32.210453 10590092
-180.98698 -44.030914 31.214725 8089963
-179.48303 -44.035568 28.066858 9010808
-179.61702 -44.037384 27.201902 9471359
-179.74689 -44.039101 26.336258 9931910
-179.84157 -44.040386 25.686657 9143166
-178.62856 -44.14893 23.320118 10261132
-178.98647 -44.204884 22.271774 9406335
-150.4028 -44.554989 -114.69243 8354932
-149.82433 -44.548367 -115.39645 7039331
-150.04207 -44.28405 -116.71761 8485229
-149.33813 -44.285206 -117.619 8814710
-149.31697 -44.291759 -121.13268 7762027
-148.87935 -44.292435 -121.6714 8090991
-148.29294 -44.293331 -122.38729 7038307
-148.35875 -44.299713 -125.77564 15722454
-147.7523 -44.300591 -126.48885 13880510
-147.14307 -44.301464 -127.19955 7039331
-180.73564 -42.879925 33.866394 6972250
-181.08687 -42.977932 33.120277 7761509
-181.03386 -41.855278 34.101028 8354159
-181.31161 -42.111797 33.370701 7696228
-181.02013 -40.740696 35.000435 8090987
-181.32571 -40.875126 34.31274 7433057
-181.07082 -39.682583 35.73283 9011833
-181.37929 -39.723045 35.113419 9735556
-181.60526 -39.985081 34.477512 8090986
-181.29732 -38.786293 36.002865 10984849
-181.64786 -38.908352 35.239792 7695971
-181.31712 -37.863728 36.686779 9998211
-181.627 -37.90192 36.066883 9011573
-181.85446 -38.162083 35.430168 7038298
-181.54306 -36.966465 36.9585 10130058
-181.94664 -36.899029 36.242714 10984849
-181.63319 -35.706013 37.772865 10854037
-181.90129 -35.944805 37.075443 9340800
-181.72217 -34.445976 38.588978 8814715
-181.87296 -34.739498 38.072296 9340801
-182.18127 -34.958702 37.313717 7564651
-181.86488 -33.7687 38.847046 9406851
-182.21933 -33.883362 38.082466 9209472
-181.96349 -32.624752 39.554222 7564651
-182.11517 -32.917171 39.036572 8353906
-182.4249 -33.134186 38.277142 8814715
-182.10588 -31.946421 39.813683 8551026
-182.46167 -32.05867 39.048328 8222573
-182.33563 -30.479914 40.898277 9735044
-182.43524 -30.980368 40.03751 9735299
-182.66704 -31.307957 39.244453 8617331
-182.56305 -29.671198 41.896187 9275007
-182.87532 -29.815601 40.980053 8024941
-185.12993 -28.477022 53.533436 7959144
-185.302 -28.849737 53.1008 10853012
-183.96904 -28.999094 49.375557 9208435
-184.14673 -29.000471 48.710575 9208435
-184.38017 -29.002306 47.822903 10261132
-182.97348 -29.137033 43.943596 7104091
-183.33235 -29.162254 43.096985 8288365
-184.91573 -27.387846 54.436306 11380380
-185.2838 -27.657654 53.818493 7827046
-185.22108 -26.581133 54.524635 8550769
-185.54619 -26.965883 53.893536 8089963
-185.44844 -25.814034 54.687355 7498082
-185.39757 -24.729904 55.383133 8682612
-185.63673 -25.066441 54.887573 8353647
-185.61632 -23.872593 55.609188 8484719
-185.5948 -22.678507 56.332279 9340539
-185.83525 -23.013617 55.836075 10589322
-185.7829 -21.927769 56.53466 8617330
-185.76906 -20.541462 57.360146 11971743
-186.02162 -20.915829 56.825932 9998981
-186.04478 -19.55423 57.590763 11839901
-185.93506 -18.558664 58.308529 9603711
-186.31662 -18.660103 57.771946 10129798
-186.20523 -17.695257 58.473888 9406332
-186.58043 -17.955601 57.852615 10129798
-186.09325 -16.730356 59.176548 9801348
-186.47594 -16.829882 58.639652 9669511
-186.35069 -15.785137 59.503895 9209211
-186.66626 -16.038675 58.862873 8617081
-186.53676 -14.764469 60.470978 10788244
-186.70485 -15.08883 59.863983 8682867
-186.65317 -14.160371 62.335564 7038298
-187.07805 -14.176727 61.727039 9603968
-170.59564 -67.433334 -20.033905 8287856
-170.47153 -67.590767 -20.921358 8353391
-170.43092 -67.65184 -21.80621 8419695
-170.21837 -67.718002 -22.779758 8682868
-170.11009 -67.678284 -23.725111 9011577
-170.09674 -67.634514 -24.489862 8353391
-170.10851 -67.566566 -26.026669 9011065
-169.81195 -67.500816 -26.819315 8353393
-169.51266 -67.435165 -27.610069 7038307
-170.86562 -66.469704 -17.983753 8089963
-170.86102 -66.747406 -18.815409 8813941
-170.8969 -66.91011 -19.801834 10326921
-170.98024 -66.967941 -20.845268 8287856
-170.94646 -67.162544 -21.746899 8287342
-169.34923 -67.397476 -28.002487 8484973
-169.08452 -67.333984 -28.586956 8090474
-168.6796 -67.244232 -29.564735 7958889
-168.27684 -67.157425 -30.540165 9274491
-168.67143 -66.97963 -32.714214 10261125
-168.24898 -66.892975 -33.685055 9340027
-167.82195 -66.806519 -34.652344 11905692
-167.47668 -66.737595 -35.423382 9340027
-167.12836 -66.668808 -36.191998 8485229
-167.44801 -66.489143 -38.377388 7564642
-171.0882 -65.539673 -16.967648 8616307
-171.08459 -65.814804 -17.799528 8944757
-171.17851 -65.894455 -18.851559 9143163
-171.24858 -66.012558 -19.81974 10392970
-167.17619 -66.437607 -38.951626 8682867
-166.90257 -66.386177 -39.524315 10985620
-166.44264 -66.300705 -40.475639 11577756
-165.97842 -66.215538 -41.423275 9077112
-166.32501 -66.051247 -43.429195 10589580
-165.84288 -65.966202 -44.372128 9209467
-165.35582 -65.881447 -45.31076 9208953
-164.9633 -65.813843 -46.05909 9208438
-165.55768 -65.6987 -47.516132 9537662
-165.15334 -65.631104 -48.262447 8682867
-164.63351 -65.542534 -49.188835 8682867
-164.28818 -65.477097 -49.733257 9011574
-171.2628 -64.760414 -16.014675 9734788
-171.32555 -64.901306 -16.992147 9340030
-171.42052 -64.978302 -18.044271 8616307
-171.46327 -65.107338 -18.814346 8748150
-171.47305 -65.303215 -19.511909 8287856
-164.63876 -65.300301 -51.357445 8617076
-164.07292 -65.201218 -52.267357 8419957
-163.63765 -65.130005 -52.998695 10064779
-163.76213 -64.953423 -55.225464 8486006
-163.19922 -64.864487 -56.132759 9209985
-162.85939 -64.811203 -56.674889 9209985
-163.28456 -64.68602 -58.369232 8947327
-162.81929 -64.614967 -59.089241 8092019
-162.23386 -64.526306 -59.984879 10394000
-171.50166 -63.852177 -15.2054 7235684
-171.54608 -63.975845 -15.972854 7300446
-171.67592 -63.958717 -17.028238 9076858
-171.70474 -64.191971 -18.005531 8945272
-162.74829 -64.416954 -61.514217 11906725
-162.38832 -64.36364 -62.04961 8618105
-161.78505 -64.275124 -62.938202 11314845
-161.29977 -64.204445 -63.646118 10262415
-161.90622 -64.110703 -65.013206 9537918
-161.2852 -64.02224 -65.894409 8681843
-160.78592 -63.951679 -66.596413 10129030
-161.24564 -63.838436 -68.154366 9011321
-160.73434 -63.767788 -68.852722 9932679
-160.22105 -63.697369 -69.548477 8681843
-160.65742 -63.582237 -71.120262 10459017
-160.2636 -63.529259 -71.639473 9537658
-171.70004 -62.919197 -13.974782 7893608
-171.82866 -62.89835 -15.010003 7498596
-171.94046 -62.912468 -16.011087 7300446
-171.91957 -63.16877 -16.635401 7563618
-159.86844 -63.476379 -72.157188 8681835
-159.60434 -63.441124 -72.501198 8681835
-160.01712 -63.3242 -74.086472 9933702
-159.47766 -63.253708 -74.771683 8682867
-158.93633 -63.183441 -75.454185 8682867
-159.32558 -63.06472 -77.052856 10261641
-158.77248 -62.994408 -77.73111 11774622
-158.72414 -62.821396 -79.850014 9143931
-158.15813 -62.751232 -80.522324 9670531
-157.7323 -62.698742 -81.024559 9143931
-158.07819 -62.576748 -82.649208 10327182
-172.02692 -61.725288 -13.030425 8814710
-172.06009 -61.92374 -13.93608 8025194
-172.17126 -61.911617 -14.849826 8682868
-172.23619 -62.047302 -15.830621 8089963
-157.35429 -62.489254 -83.481194 7564651
-157.83049 -62.383163 -84.953804 9537918
-157.38799 -62.330658 -85.450279 10984849
-156.79616 -62.260845 -86.109505 9537918
-157.10515 -62.135666 -87.760696 8617843
-156.50203 -62.065838 -88.415634 11183766
-156.04852 -62.013607 -88.904671 9210491
-156.48882 -61.904247 -90.405876 8749172
-155.87358 -61.834644 -91.054665 7893608
-156.05244 -61.669163 -92.676178 8617072
-155.4836 -61.622204 -93.354134 9143159
-155.04971 -61.584816 -93.857384 7169629
-172.36627 -60.499378 -10.416282 9143163
-172.41542 -60.531036 -11.044526 8879991
-172.30557 -60.860584 -12.079415 8419440
-172.43588 -60.83173 -13.132302 7893608
-172.45761 -60.941483 -13.899833 7893608
-172.43341 -61.114235 -14.594554 9735812
-155.94612 -61.348846 -93.886917 8419440
-155.66475 -61.122322 -94.485153 6183246
-155.13771 -61.095524 -95.190613 7235425
-154.7231 -60.864353 -95.964981 8090736
-173.24551 -59.481892 -8.2380285 8353903
-173.23895 -59.528206 -9.1305723 8353903
-172.77426 -59.914032 -10.023997 8419696
-172.8571 -59.965996 -11.07339 8617075
-172.85677 -60.108784 -12.013932 9077369
-155.52928 -60.347015 -95.517288 8419440
-155.04201 -60.186207 -96.335426 8090736
-154.68181 -59.826946 -97.233727 7433064
-154.28195 -59.605118 -98.022133 10854036
-176.0909 -58.796162 7.191998 7564392
-176.31786 -58.62236 6.5629849 8353650
-176.52689 -58.730404 5.5918622 8616820
-175.56175 -59.076946 4.418366 7432031
-175.5818 -59.078541 3.5724263 7432031
-175.59782 -59.080132 2.7263646 8418927
-175.61186 -59.082119 1.6688428 8813679
-175.62 -59.084103 0.61119515 9208435
-174.17609 -59.088127 -2.1226802 9997960
-174.16141 -59.090076 -3.1715369 8089963
-174.14 -59.092026 -4.2203956 8485745
-174.11574 -59.095013 -5.2690845 9735812
-173.76978 -59.227654 -6.0967994 8156779
-173.44008 -59.370605 -7.1312461 9209468
-154.78625 -59.299061 -98.341988 7433064
-154.13025 -59.276314 -99.232437 7038819
-154.39713 -58.910458 -100.54631 8222577
-153.88591 -58.802502 -101.18362 7696235
-176.34549 -57.85791 7.5731854 8682614
-176.63895 -57.760807 6.5736279 8682870
-176.70583 -58.017868 5.9373021 9734788
-154.2361 -57.956303 -101.25504 8814713
-153.56641 -58.007645 -101.9835 8617334
-153.20952 -57.622467 -102.59949 9734788
-176.55208 -56.742184 8.4006014 10985880
-176.76295 -56.845268 7.4296231 8814710
-176.83058 -57.100861 6.7929845 8814710
-154.22353 -57.224895 -101.67302 7893614
-153.95549 -56.935417 -102.13577 8222320
-153.34079 -56.870365 -102.86633 8485235
-176.63193 -55.789215 9.4834909 8222580
-176.83632 -55.919327 8.4981585 10130571
-177.03419 -55.970604 7.6532598 8090987
-154.05757 -56.150394 -102.45377 6709594
-153.54358 -56.045982 -103.09225 5657419
-153.10439 -56.022457 -103.60162 5393738
-176.75244 -54.880764 10.34271 7565163
-177.01102 -54.865097 9.3596468 9341315
-177.11627 -55.165764 8.5104723 6775385
-154.18938 -55.397324 -102.72057 4342073
-153.81802 -55.149113 -103.27729 4736831
-153.23132 -55.118416 -103.95728 6643546
-152.85959 -54.871971 -104.51344 6510930
-177.03093 -53.544247 11.212815 8025712
-177.10786 -53.873089 10.43319 7565675
-177.26544 -54.004002 9.628911 8420726
-153.93642 -54.24073 -103.62659 6314322
-153.5002 -54.219807 -104.1404 8879991
-152.98767 -54.119537 -104.78187 7893096
-177.13503 -52.481876 12.360501 7038307
-177.2561 -52.740692 11.511514 9932937
-177.50659 -52.796947 10.455007 9012606
-177.57692 -53.046967 9.8159685 9012606
-153.7164 -53.200123 -104.42322 11906980
-153.15855 -53.126106 -105.10607 11117721
-152.79051 -52.740299 -105.73232 8617075
-177.3734 -51.836796 12.376031 8288113
-177.62477 -51.890789 11.319402 11182487
-177.69574 -52.139542 10.679948 9012606
-153.48869 -52.007927 -105.30781 12762546
-152.87527 -51.951763 -106.04558 7563874
-152.60161 -51.666607 -106.51032 6510930
-177.48244 -50.856052 13.38495 11774108
-177.69148 -50.975979 12.396897 7498598
-177.81346 -51.23381 11.545491 10458505
-153.60446 -51.250305 -105.56921 11906980
-153.2301 -51.006245 -106.12876 7564130
-152.57106 -50.934685 -106.92718 7761253
-177.67535 -49.72496 14.287549 11248023
-177.89409 -49.802002 13.324414 9208700
-177.96999 -50.222225 12.415174 10919058
-153.33861 -50.095901 -106.47801 6182222
-152.79933 -50.120991 -107.08774 7300703
-152.37802 -49.831463 -107.72533 8090474
-177.87004 -48.626667 15.135427 9735812
-178.03012 -48.732758 14.357629 8879991
-178.19011 -48.839855 13.579053 10326923
-153.08363 -49.247986 -107.21459 6839895
-152.42123 -49.148048 -108.03173 8946552
-177.96762 -47.574039 16.294064 5920074
-178.09267 -47.824932 15.441079 8420208
-178.34775 -47.870808 14.381902 8879991
-153.19756 -48.490067 -107.47829 7563874
-152.82076 -48.248158 -108.03958 8354670
-152.1584 -48.18026 -108.83987 8749428
-178.20508 -46.927864 16.31472 7170141
-178.46101 -46.971703 15.255223 8748917
-178.53506 -47.214512 14.61239 8089963
-152.92699 -47.33741 -108.39167 7762277
-152.46815 -47.159164 -109.01452 8091242
-151.94823 -46.803841 -109.80024 9209722
-178.49565 -45.395649 18.29216 9537409
-178.53851 -45.697102 17.283424 8616050
-178.59343 -45.982544 16.348808 7629666
-178.64789 -46.315662 15.48692 8420208
-152.65427 -46.185574 -109.30726 7762277
-152.22527 -46.003468 -110.00078 9209469
-151.73439 -45.7379 -110.87394 10525329
-178.77478 -44.55991 19.84404 10261132
-178.82439 -44.711197 19.123383 9274237
-178.95403 -44.802784 18.338459 8945272
-178.99734 -45.029713 17.472248 8550256
-152.57823 -45.338394 -110.36771 9341057
-152.05687 -45.219643 -111.10959 11643293
-151.59912 -44.997936 -111.89859 9932934
-151.98653 -44.576099 -112.74982 11183001
-181.40677 -43.67794 31.962307 7563618
-181.56487 -43.837959 31.014446 8089963
-181.17253 -44.033096 30.124249 10524560
-181.35144 -44.035275 29.032703 11314329
-179.93373 -44.041676 25.036694 9143166
-180.0531 -44.043289 24.169609 8090736
-180.19621 -44.045452 23.084839 8222063
-179.33076 -44.259129 21.21883 9274493
-179.5744 -44.290138 20.152111 10261132
-151.69933 -44.571846 -113.10369 9341316
-151.12375 -44.564064 -113.81068 9472900
-151.43326 -44.281704 -114.90182 9538693
-150.74026 -44.282883 -115.81165 7894638
-150.33018 -44.290161 -119.86924 8813683
-149.75249 -44.291077 -120.59219 9734014
-149.26131 -44.298382 -124.69997 12039591
-148.66057 -44.299274 -125.41798 12959666
-181.43199 -42.749683 32.641487 6972762
-181.78357 -42.802097 31.930477 6906201
-181.88068 -43.283707 31.368229 8089963
-181.51949 -41.366638 33.558453 6972762
-181.71544 -41.766708 32.871655 7827814
-182.09407 -41.75956 32.155659 8945782
-181.72743 -40.620983 33.746487 5920074
-182.07744 -40.747234 32.98069 5920074
-181.77086 -39.542942 34.508213 8090986
-181.99744 -39.805588 33.870857 7499106
-182.30717 -39.84766 33.247665 6511699
-181.97839 -38.796547 34.697723 8616562
-182.32991 -38.919998 33.931274 9076858
-182.26869 -37.827667 34.902973 7432544
-182.55904 -38.019566 34.20002 9076858
-182.30121 -36.733261 35.697155 8616815
-182.61098 -36.863873 35.005077 7367007
-182.32814 -35.438442 36.65873 9734527
-182.58279 -35.74617 35.933174 11576728
-182.53046 -34.720024 36.835415 7563620
-182.88953 -34.806942 36.083744 10458249
-182.57294 -33.612774 37.620777 7564651
-182.82887 -33.918556 36.894192 7827048
-182.77504 -32.893044 37.798893 8617334
-183.13547 -32.977375 37.046566 7826791
-182.89897 -31.562202 38.603928 8617331
-183.11066 -31.969606 37.882092 8946296
-183.07738 -30.434473 39.562073 10854036
-183.13667 -30.778286 38.883228 9143675
-183.46303 -30.922426 38.030205 10854036
-183.32852 -29.554279 40.540573 8814971
-183.38741 -29.898224 39.859554 10656402
-185.80775 -28.655678 52.51976 8287853
-186.13834 -28.678581 51.887779 9011320
-184.66571 -29.004602 46.711781 12433071
-184.94495 -29.006891 45.599087 8092011
-183.51149 -29.174978 42.672878 10064267
-183.86899 -29.200974 41.823284 8814971
-185.73993 -27.697784 53.224331 9734529
-186.14677 -27.730932 52.613983 9274235
-186.12781 -26.657145 53.333515 8484720
-186.28822 -27.028461 52.895142 8089963
-185.91954 -25.566063 54.242516 8089963
-186.29041 -25.83503 53.621647 8089963
-186.22713 -24.754652 54.330681 7629668
-186.40131 -25.12697 53.895565 8089963
-186.45619 -23.983395 54.493668 8418927
-186.51501 -22.743324 55.14312 11049616
-186.64604 -23.231812 54.69437 9142392
-186.27394 -21.291292 56.29129 8089963
-186.62564 -21.79353 55.558434 10523530
-186.69208 -20.60008 56.171131 9208435
-187.06673 -20.86418 55.548309 10261123
-186.8112 -19.696417 56.548927 11050641
-186.77988 -18.686665 57.176804 9406332
-187.24419 -18.713531 56.580173 9208435
-187.05791 -17.693508 57.407986 9866628
-186.94762 -16.693861 58.128815 11905701
-187.33202 -16.793755 57.589512 7827566
-186.95656 -15.575423 58.953831 8617081
-187.27325 -15.829262 58.310993 7827566
-187.06367 -14.628986 59.978481 8682867
-187.34323 -14.879323 59.322922 7827819
-187.62239 -15.130361 58.666874 7038307
-187.50352 -14.193187 61.117271 11906725
-187.92976 -14.20995 60.506062 7564651
-170.30916 -67.596008 -25.218433 9734788
-170.25204 -67.598122 -25.628799 9734788
-171.14418 -66.71891 -21.144373 8287856
-171.15501 -66.892456 -22.087753 8024426
-171.24565 -66.853821 -23.043526 9471616
-171.21829 -67.036797 -24.029907 9076858
-171.12727 -67.246819 -25.058395 8024170
-170.91002 -67.37896 -25.938292 8616307
-170.7635 -67.385445 -26.968882 8485489
-170.59494 -67.385559 -27.99618 8090730
-170.23099 -67.311302 -28.990416 8484973
-169.82771 -67.22364 -29.975639 7038307
-169.50133 -67.153717 -30.76103 7038307
-169.08871 -67.066574 -31.739363 9142652
-169.38908 -66.869858 -34.124298 8089963
-169.04308 -66.800316 -34.903099 10590091
-168.69402 -66.730843 -35.679478 9340030
-168.25317 -66.644287 -36.64637 8155756
-167.80786 -66.557968 -37.609631 9471867
-171.38876 -65.796295 -20.338322 10064006
-171.41632 -65.935883 -21.011551 7629670
-171.53691 -65.933403 -22.033428 8353135
-171.67598 -65.873253 -23.03253 8484721
-168.39247 -66.428658 -39.233555 8682867
-168.1158 -66.376869 -39.810154 9801347
-167.74443 -66.307983 -40.576889 13353909
-167.27588 -66.222145 -41.531567 10196107
-166.80293 -66.136536 -42.482464 12300195
-167.34035 -66.005203 -44.123901 10985366
-167.04726 -65.953857 -44.692902 10064520
-166.65399 -65.885559 -45.449318 9209467
-166.15817 -65.800491 -46.391052 9209467
-165.75861 -65.732559 -47.14183 10457993
-166.25066 -65.599373 -48.799171 9077368
-165.81714 -65.522934 -49.541008 8814452
-171.71277 -64.570587 -19.261139 9011065
-171.68021 -64.918602 -20.074774 8748149
-171.79115 -64.903397 -20.974974 6906205
-171.88445 -64.912048 -21.79891 8747893
-165.22968 -65.411385 -50.451462 9274745
-165.75319 -65.275597 -51.922752 8090987
-165.42534 -65.221695 -52.477226 9472386
-164.87524 -65.132019 -53.397728 9669766
-164.32108 -65.042595 -54.313999 9406851
-164.5497 -64.882408 -56.373882 7564131
-163.97731 -64.792976 -57.28371 11380639
-163.63177 -64.739426 -57.827412 13551549
-164.05515 -64.613045 -59.536037 9868171
-163.58223 -64.541534 -60.257973 9868171
-163.22586 -64.488075 -60.797485 11709860
-171.91747 -63.441132 -17.470955 9734788
-171.9285 -63.633976 -18.169357 9734788
-171.95143 -63.864693 -19.089405 8879479
-172.08531 -63.85788 -20.213612 7892584
-172.12779 -63.989334 -20.989166 7563619
-162.98741 -64.452469 -61.156235 11906725
-163.50151 -64.341942 -62.699127 7039331
-163.1358 -64.288467 -63.235977 10262415
-162.5229 -64.199463 -64.126801 8222316
-162.63791 -64.033615 -66.216972 11511449
-162.00728 -63.944775 -67.100334 9932679
-161.50024 -63.873871 -67.803886 9011321
-161.95944 -63.759453 -69.375923 9340027
-161.4404 -63.688477 -70.075798 10129541
-160.91924 -63.617687 -70.773018 10459017
-172.13934 -62.735817 -17.159595 8945272
-172.21196 -62.847279 -18.130537 9340030
-172.30756 -62.924408 -19.19017 8155756
-172.30438 -63.201004 -20.029951 7563619
-161.35458 -63.501278 -72.358803 9012344
-160.82124 -63.430305 -73.052055 9275772
-160.28578 -63.359558 -73.742592 9012344
-160.834 -63.25909 -75.169685 8946555
-160.28757 -63.188213 -75.857292 8682867
-159.73872 -63.117584 -76.541649 11905951
-160.12914 -62.997787 -78.154655 10721678
-159.56882 -62.92709 -78.835304 9537662
-159.14716 -62.874176 -79.343712 9143931
-159.51605 -62.752689 -80.970116 9143931
-158.94244 -62.682148 -81.644081 7368039
-159.00443 -62.523754 -83.620049 7039331
-172.3546 -61.594032 -15.423663 8089963
-172.36719 -61.782543 -16.122162 8089963
-172.43156 -61.920677 -17.10607 8879477
-172.52824 -61.994583 -18.165051 8155756
-172.52602 -62.2687 -19.005022 7892584
-158.71175 -62.48856 -83.95475 7039331
-158.27173 -62.435818 -84.455116 8551284
-158.15529 -62.258335 -86.606125 9537918
-157.55609 -62.188084 -87.267303 8090987
-157.88907 -62.028908 -88.696648 8617843
-157.22881 -61.981388 -89.574905 9210491
-157.46306 -61.744255 -90.714935 7366751
-156.85031 -61.720043 -91.623985 7366751
-156.45383 -61.695183 -92.151123 7366751
-172.67145 -60.711113 -14.405871 9735812
-172.61305 -60.957001 -15.238219 11576727
-172.81865 -60.816246 -16.095732 10129541
-172.76956 -61.076569 -17.14085 9471613
-172.74606 -61.340092 -17.978519 8616563
-157.30141 -61.352848 -91.633507 6774358
-157.02237 -61.029202 -92.656334 7959145
-156.57364 -60.960651 -93.495903 9011577
-156.17357 -60.937569 -94.023964 7169629
-173.53545 -59.461296 -10.278008 8617075
-173.56058 -59.493641 -11.328708 9011577
-173.34254 -59.684544 -12.362882 9208956
-173.21202 -59.901768 -13.192185 8551281
-173.17119 -60.053303 -14.178086 9340284
-173.12196 -60.251179 -15.213716 10063492
-156.93748 -60.144142 -93.970131 8419440
-156.36742 -60.252407 -94.568932 7367008
-156.09036 -59.852905 -95.41391 7367008
-155.61258 -59.665218 -96.257782 7367263
-176.74089 -58.506088 5.08709 8813680
-176.80713 -58.765621 4.4501195 8353130
-177.01218 -58.876324 3.4744153 8418923
-177.05704 -59.081585 2.5370564 7038307
-175.62126 -59.086082 -0.44649452 8747891
-175.61662 -59.088058 -1.5041862 8813686
-175.60529 -59.090027 -2.5617728 8287342
-175.58795 -59.091988 -3.6193061 9340030
-175.56923 -59.093559 -4.4651961 9537409
-174.16118 -59.129555 -6.7405181 8288366
-174.18352 -59.146748 -7.3715911 9012089
-174.21162 -59.170193 -8.2136431 8288366
-174.24374 -59.200466 -9.2670755 7761770
-174.27283 -59.231731 -10.321303 8682614
-156.61349 -59.368984 -95.836967 7169629
-156.09277 -59.348068 -96.554436 7038298
-155.44055 -59.322922 -97.44944 7630443
-155.85774 -59.159584 -98.758156 8288371
-155.4456 -58.856613 -99.39122 8946044
-154.83218 -58.785797 -100.12345 9735301
-176.86664 -57.586781 5.9420514 9734788
-176.93355 -57.844727 5.30481 8813680
-177.17889 -57.916939 4.2445951 8484716
-155.6235 -57.997971 -99.664192 8156787
-155.03876 -57.960255 -100.34579 8748409
-154.66978 -57.708591 -100.90169 7893614
-177.04515 -56.874947 6.2884603 8814710
-177.25569 -56.981747 5.313149 8090474
-177.40933 -57.105782 4.5340734 9208435
-155.68675 -57.314915 -99.969795 8419702
-155.31714 -57.062679 -100.52676 7959408
-154.73155 -57.026783 -101.20829 7367271
-177.13312 -55.996765 7.2302136 8814710
-177.4113 -55.834415 6.3853536 8880245
-177.53468 -56.185745 5.3916745 8682351
-155.52254 -56.236107 -100.74905 8419702
-155.00891 -56.129211 -101.39046 7433316
-154.49434 -56.023037 -102.03057 6117714
-177.40941 -54.572159 8.2382326 7367005
-177.54207 -54.861813 7.2985616 7498850
-177.81342 -54.755432 6.3983388 8814710
-155.20547 -55.299976 -101.60868 8683124
-154.69431 -55.195831 -102.25236 5657419
-154.32397 -54.947392 -102.81059 4342073
-177.53035 -53.661106 9.0996485 8946297
-177.6866 -53.777668 8.3212938 8419435
-177.89992 -53.878452 7.3440251 6775125
-155.3253 -54.540985 -101.86598 8090987
-154.96376 -54.154652 -102.48501 7498851
-154.43697 -54.036175 -103.15517 5262661
-154.12946 -53.562912 -103.75703 6510930
-177.79295 -52.816738 9.3120928 8354160
-178.00728 -52.915035 8.335 8813936
-178.07704 -53.167709 7.6940885 5920074
-155.13235 -53.153606 -102.81224 9011832
-154.75974 -52.905796 -103.37174 6510930
-154.17683 -52.878021 -104.05943 9866885
-177.91212 -51.908161 10.176534 7828589
-178.18536 -51.877151 9.1590776 9209468
-178.19769 -52.255589 8.5579844 8813936
-154.87212 -51.993946 -103.71738 6510930
-154.33374 -52.014851 -104.32825 8616818
-153.91449 -51.72131 -104.96552 9208955
-178.06534 -50.72963 11.302686 9866625
-178.2756 -50.868587 10.281804 8485487
-178.39725 -51.129562 9.4273844 9011574
-154.62134 -51.14188 -104.4513 7366495
-154.03186 -50.993874 -105.20921 8090730
-178.26309 -49.625313 12.147218 11116180
-178.47298 -49.746239 11.154279 10919055
-178.59555 -50.005325 10.299085 10458505
-154.73824 -50.383057 -104.71185 6510930
-154.36327 -50.137718 -105.2729 6313808
-153.77765 -50.113441 -105.96184 6708822
-178.37868 -48.722313 13.01719 10195338
-178.53851 -48.831039 12.236669 10129801
-178.74184 -48.872231 11.385911 11905692
-154.54962 -49.305473 -105.49157 6972250
-153.88664 -49.202404 -106.311 6708822
-153.36389 -48.95348 -107.04458 7563874
-178.58034 -47.683353 13.751241 8089963
-178.60722 -47.965366 13.234403 8879479
-178.87225 -48.016815 12.128449 9866629
-154.29797 -48.165035 -106.37679 6906200
-153.67093 -47.992599 -107.19086 6116429
-153.15758 -47.573914 -108.00193 7762277
-178.82565 -46.80666 14.078153 8089963
-179.05235 -46.848278 13.135659 9734788
-179.04611 -47.309574 12.485841 10064009
-154.08388 -46.920048 -107.27318 6510930
-153.4194 -46.850967 -108.07664 8090474
-179.0331 -45.478077 15.953794 9536635
-179.02998 -45.776016 15.157228 8616304
-179.12537 -45.941578 14.311166 8418927
-179.32018 -45.974224 13.371152 10064009
-154.12784 -46.234352 -107.58 6510930
-153.69359 -46.048088 -108.27013 8419183
-153.13423 -45.881653 -109.09419 8683635
-179.25478 -44.626354 17.714916 8089963
-179.51317 -44.675419 17.086178 8878962
-179.50485 -44.841755 16.082108 9799550
-179.535 -45.11417 15.126672 8155496
-153.5218 -45.258621 -109.37034 8353907
-153.06567 -45.034573 -110.16015 8880507
-153.03143 -44.702847 -111.06929 11182999
-152.55995 -44.584877 -112.0406 8946043
-182.2077 -43.568089 30.522038 9734787
-182.5162 -43.616657 29.896271 12169640
-181.52428 -44.037445 27.940128 8681835
-181.69008 -44.039612 26.846478 8484459
-181.84972 -44.041779 25.751957 8089963
-180.33331 -44.047653 21.999321 8156012
-180.46339 -44.049782 20.912918 8551028
-180.58736 -44.051857 19.825848 9143678
-179.78011 -44.31353 19.07967 9997960
-179.98346 -44.337761 18.005829 9866115
-152.8569 -44.295033 -113.1096 8814458
-152.13513 -44.284775 -113.99863 9341316
-151.75929 -44.287834 -118.04974 7498591
-151.0473 -44.289001 -118.96151 7630178
-150.74855 -44.296127 -122.89301 8221804
-150.00781 -44.29726 -123.79887 10065801
-182.21458 -42.399849 31.424366 6510930
-182.36902 -42.797237 30.818714 7563617
-182.74893 -42.715118 30.159016 8484461
-182.42448 -41.652328 31.610165 8484461
-182.71263 -41.850861 30.905506 8484461
-182.47029 -40.569572 32.371281 5920074
-182.61812 -40.87067 31.853622 6774357
-182.92322 -41.101906 31.091011 6510930
-182.61739 -39.890381 32.623039 5919562
-182.96928 -40.017315 31.853172 8419182
-182.72397 -38.739479 33.321873 8419184
-182.94508 -38.924313 32.755539 6116429
-183.17937 -39.267624 32.040051 10262156
-182.93326 -37.768501 33.683632 8221805
-183.26613 -37.878227 32.963512 6708566
-183.01682 -36.603954 34.435516 9274237
-183.30891 -36.795528 33.729504 9274237
-183.18336 -35.771034 34.769951 8024686
-183.51785 -36.044456 33.919113 7564651
-183.20311 -34.842991 35.458427 8616305
-183.55905 -34.962055 34.687443 8090737
-183.43164 -33.938957 35.730293 8024169
-183.76765 -34.209854 34.878471 9143422
-183.53354 -32.787533 36.43705 9011063
-183.85968 -32.939144 35.697365 9142649
-183.61255 -31.401724 37.370625 8353647
-183.78975 -31.807013 36.716129 8089963
-183.58598 -30.481508 38.516628 8617331
-183.90791 -30.693565 37.5681 11248536
-184.09573 -30.98535 36.776318 8089963
-183.83937 -29.599472 39.494034 7563618
-184.08278 -29.848003 38.619827 7629923
-184.32542 -30.097609 37.745262 12037537
-186.46281 -28.701017 51.252907 9603458
-186.83188 -28.806145 50.468323 9866372
-185.21709 -29.009178 44.4846 7696228
-185.48299 -29.011465 43.368565 8551540
-184.40388 -29.240763 40.545803 11181977
-184.75951 -29.267895 39.692181 7563618
-186.47168 -27.752262 51.979099 8090736
-186.79701 -27.774019 51.34314 8879994
-187.03873 -28.028263 50.684013 9143166
-186.69716 -26.816988 52.282726 10919058
-187.06764 -26.920128 51.496914 9143166
-186.70529 -25.866806 53.011562 10524044
-187.03171 -25.886766 52.37479 13023917
-187.27455 -26.140011 51.714321 8090736
-186.91811 -24.927101 53.313702 8353133
-187.30261 -25.030069 52.530365 7037274
-186.93083 -23.731888 54.046337 7892581
-187.36455 -23.920992 53.276665 8353130
-187.32935 -22.664547 54.159508 9142133
-187.40799 -23.287506 53.694832 8813680
-187.19884 -21.352921 55.098106 10261123
-187.5743 -21.618523 54.473488 8681840
-187.5446 -20.607096 55.100327 10918797
-187.28842 -19.437309 56.102913 9208435
-187.66502 -19.700788 55.478065 10787468
-187.7099 -18.740725 55.981621 9208435
-188.08746 -19.004107 55.355732 9208435
-187.83008 -17.832331 56.36084 9405817
-187.79887 -16.818079 56.991299 11577246
-188.17744 -17.079384 56.365211 12038050
-187.87422 -15.618757 57.754353 7038307
-187.97774 -15.983425 57.291378 11314332
-187.98407 -14.669421 58.779354 7038307
-188.26436 -14.920763 58.121498 7038307
-188.5442 -15.172906 57.463173 8617081
-188.35655 -14.226917 59.893436 7564651
-188.64134 -14.238198 59.484119 7038298
-171.57823 -66.560242 -24.351841 8484976
-171.54439 -66.762138 -25.260485 8024170
-171.51868 -66.879013 -26.030825 7892584
-171.54515 -66.952881 -27.092478 8551281
-171.46658 -66.988243 -28.138988 9209467
-171.17574 -67.059738 -29.04443 9209467
-170.8009 -67.114586 -30.146397 7038307
-170.60812 -67.097763 -30.960991 7827308
-170.31354 -67.058052 -31.968019 10786703
-169.90213 -66.974602 -32.951481 11576986
-169.64658 -66.92215 -33.538658 7564643
-170.19197 -66.776459 -35.352856 10261132
-169.92691 -66.724014 -35.938869 9800581
-169.48117 -66.636841 -36.912445 9603202
-169.03099 -66.549858 -37.882362 8418928
-168.66718 -66.480591 -38.655373 8879991
-171.80714 -65.611504 -23.331312 9011065
-171.80029 -65.898598 -24.173378 8682610
-171.89134 -65.991516 -25.242172 8551025
-171.95845 -66.122208 -26.22562 8024169
-168.96912 -66.298103 -40.871708 9735298
-168.49542 -66.211601 -41.832901 9143934
-168.0175 -66.12542 -42.790394 9933191
-167.63159 -66.05661 -43.553341 10853779
-168.16786 -65.924156 -45.208431 9209467
-167.86943 -65.872559 -45.779339 11906212
-167.36842 -65.786896 -46.727501 15196896
-166.8631 -65.701431 -47.671738 11710119
-166.55789 -65.650307 -48.236328 9209467
-167.01277 -65.502007 -49.896797 8945524
-171.98703 -64.815414 -22.373405 9208444
-172.02827 -64.951065 -23.151405 9011065
-172.15974 -64.953995 -24.285744 8156263
-172.17894 -65.198006 -25.214851 8156007
-172.18623 -65.40374 -25.921923 8287850
-166.53819 -65.412071 -50.630478 10392454
-166.07933 -65.329605 -51.366493 9011574
-166.2413 -65.152122 -53.617455 10130057
-165.68175 -65.061966 -54.540764 8814715
-165.1181 -64.972031 -55.459743 7893096
-165.34131 -64.810471 -57.535065 10590863
-164.75934 -64.720535 -58.447479 11117208
-164.40808 -64.666794 -58.992699 9868171
-164.82956 -64.539131 -60.715748 10524815
-172.25877 -63.726318 -21.286282 7563619
-172.25414 -64.007805 -22.128222 8813686
-172.427 -63.879833 -23.206528 8221804
-172.42136 -64.164803 -24.051374 8156264
-164.34898 -64.46727 -61.439621 10260871
-163.86569 -64.395607 -62.160477 9340027
-164.25853 -64.266045 -63.897179 8618105
-163.88699 -64.212273 -64.435432 8551280
-163.26439 -64.122833 -65.32843 12827051
-163.37335 -63.955639 -67.434044 9209727
-162.73285 -63.866302 -68.319466 9801607
-162.21791 -63.794991 -69.024612 11906725
-162.80791 -63.69738 -70.434807 10590091
-162.28174 -63.625946 -71.137245 11247763
-161.75285 -63.554657 -71.836418 11380377
-172.43541 -62.937683 -20.326122 8024170
-172.56158 -62.928699 -21.37772 7892584
-172.67094 -62.954464 -22.394493 8221549
-172.72723 -63.005543 -23.03635 8089963
-162.18982 -63.437126 -73.43647 8551537
-161.64931 -63.365768 -74.13221 10855060
-161.2424 -63.312378 -74.65197 10855060
-161.51976 -63.175381 -76.438591 8945015
-160.96526 -63.104195 -77.12748 11905951
-160.54796 -63.050846 -77.642166 11905951
-160.93965 -62.929882 -79.269745 9537662
-160.37172 -62.858864 -79.952065 8088931
-159.80186 -62.787968 -80.631638 9143931
-160.31459 -62.68306 -82.103256 8091248
-159.58798 -62.594437 -82.947815 9143422
-172.74278 -61.796555 -19.380566 8024170
-172.79941 -61.935413 -20.300169 8616307
-172.90852 -61.933598 -21.228251 7892584
-160.03429 -62.427246 -84.160088 11380121
-159.5294 -62.389977 -84.877754 9933191
-159.21216 -62.217556 -85.942467 9275004
-159.25169 -61.896004 -86.956505 9998212
-158.70915 -61.924061 -87.804619 9011832
-158.47589 -61.716198 -88.775131 8682867
-157.97485 -61.731037 -89.747749 13157042
-173.13596 -60.46751 -16.756662 10590091
-173.1813 -60.505684 -17.392735 10721935
-173.03157 -60.871502 -18.261593 8156012
-173.1196 -60.898029 -19.22319 8748405
-173.20229 -60.946705 -20.278252 8089962
-173.17441 -61.128029 -20.979759 8089963
-159.20479 -61.291363 -87.929016 9011832
-158.81564 -61.130898 -88.865303 9340797
-158.37244 -61.059807 -89.82296 8814709
-157.90274 -61.122185 -90.715523 7366751
-157.61343 -60.93055 -91.561607 6510930
-157.35881 -60.546562 -92.684891 6510930
-173.61664 -59.59687 -14.485759 9011063
-173.53391 -59.756683 -15.390744 9537149
-173.55043 -59.874569 -16.375605 8484720
-173.62662 -59.937126 -17.437901 9735299
-173.61954 -60.090015 -18.387785 8616563
-158.71989 -60.476418 -89.91935 7498849
-158.36684 -60.299942 -90.982658 7037786
-158.11047 -60.120201 -91.850677 7366751
-157.79124 -60.059849 -92.633186 7630438
-157.39896 -59.916073 -93.629791 8420468
-156.9416 -59.732307 -94.486763 7169629
-177.23033 -58.654617 2.966042 7037274
-177.27235 -58.828018 2.2552419 7038307
-177.34657 -58.931767 1.2593732 7629927
-177.07721 -59.085987 0.19110543 8353648
-177.0769 -59.087582 -0.66208214 8879735
-177.0705 -59.089569 -1.7284427 9011065
-175.53998 -59.095512 -5.5223308 9208700
-175.50478 -59.097458 -6.5793719 9341054
-175.46286 -59.099403 -7.6361995 9012089
-175.41499 -59.101345 -8.6928759 8551027
