# .PCD v0.7 - Point Cloud Data file format
VERSION 0.7
FIELDS x y z rgb
SIZE 4 4 4 4
TYPE F F F U
COUNT 1 1 1 1
WIDTH 1213
HEIGHT 1
VIEWPOINT 0 0 0 1 0 0 0
POINTS 1213
DATA ascii
141.2851 -58.955944 74.729385 9537665
140.82831 -58.955509 75.575783 9538175
141.40468 -58.69619 76.638313 9669249
140.92009 -58.606979 77.520653 9735043
137.32352 -57.510864 -42.154827 9603452
137.49725 -57.759472 -41.368084 10721420
137.82637 -57.774582 -40.388496 8945524
138.1255 -57.836273 -39.444538 7761509
138.24814 -58.163704 -38.718956 10261132
141.55742 -57.925919 76.928284 9735043
141.24864 -57.653744 77.643791 9800837
140.93895 -57.382618 78.35997 9866630
137.31857 -56.667004 -43.115395 7038307
137.53271 -56.854488 -42.278889 9274746
137.8633 -56.867241 -41.297768 10853261
138.10703 -56.969215 -40.470543 7959142
138.29536 -57.070065 -39.80674 6511954
141.54242 -56.726395 77.807114 9208955
141.10339 -56.653252 78.601021 9208954
140.77144 -56.449818 79.306801 9735296
137.31155 -55.825565 -44.079205 7893615
137.56616 -55.951874 -43.192978 7038307
137.89819 -55.962288 -42.210262 8485229
138.1512 -56.092884 -41.323849 10129539
141.68668 -56.062813 78.035622 8682867
141.42635 -55.709663 78.726761 9472125
141.0305 -55.522179 79.529007 10064004
137.16873 -54.506889 -45.975155 9143166
137.32039 -54.764549 -45.242924 8683126
137.60376 -54.871662 -44.294022 10525330
137.93748 -54.879383 -43.309303 8354164
138.11388 -55.125416 -42.517677 8485229
141.66843 -54.864548 78.918968 10261382
141.33482 -54.66127 79.627419 9866882
140.9381 -54.65778 80.30027 9209467
137.14407 -53.434185 -47.249908 8090736
137.33173 -53.747192 -46.35022 8879994
137.63861 -53.794472 -45.399784 8419698
137.94463 -53.843979 -44.449211 9669763
138.12938 -54.163071 -43.551334 9472383
141.57309 -53.799408 79.838036 10721419
141.16646 -53.613419 80.65744 9932934
140.97694 -53.263748 81.226501 8682867
137.14154 -52.839554 -47.924 8419696
137.38422 -52.898262 -47.148418 8616823
137.72176 -52.899258 -46.160179 8222322
138.02376 -52.938019 -45.233444 6906715
141.51024 -52.708885 80.720055 9932934
141.064 -52.666721 81.504128 11051416
137.13147 -51.742035 -49.183876 9077370
137.35159 -52.00655 -48.243591 9340286
137.69069 -52.005104 -47.253456 9866631
137.95047 -52.124886 -46.359406 8748665
138.13101 -52.365162 -45.561993 7038307
141.65033 -52.07177 80.936699 10261899
141.4088 -51.67205 81.629303 11380381
141.03741 -51.471935 82.399261 9472131
137.11452 -50.824646 -50.261986 10064007
137.37759 -50.938457 -49.364853 9142650
137.71846 -50.934669 -48.372318 9603457
137.97986 -51.052341 -47.475864 9405823
141.63278 -50.742729 81.912041 9472131
141.18561 -50.675598 82.715408 9077373
137.00699 -49.528122 -52.029926 9209467
137.20697 -49.775501 -51.167637 10590862
137.47733 -49.870838 -50.270138 11182487
137.78542 -49.910225 -49.324913 9011064
137.90622 -50.220367 -48.623863 9011064
141.62206 -49.736572 82.646042 7893358
141.16258 -49.620663 83.488419 9340288
136.98734 -48.579487 -53.089314 9932934
137.19208 -48.814743 -52.288353 9209467
137.53694 -48.805023 -51.290607 10524813
137.82977 -48.900017 -50.32777 11511708
137.98775 -49.151306 -49.583912 9405822
141.80714 -48.682762 83.083115 7038307
141.3895 -48.678398 83.75547 8288113
140.96555 -48.452309 84.423859 9734788
137.13852 -47.879765 -53.324364 12892588
137.49542 -47.920395 -52.403866 9471870
137.80586 -47.947147 -51.466045 10129542
141.73357 -47.785393 83.845947 8090987
141.26355 -47.60815 84.546173 8617075
137.0995 -46.757347 -54.067589 9275003
137.51717 -47.064606 -53.243877 9866884
137.79594 -47.20285 -52.329334 8682867
137.90826 -47.376972 -51.805676 8682867
141.54271 -46.663795 84.772919 8222573
141.0331 -46.631851 85.39257 8353903
137.05807 -45.781036 -55.142315 8353647
137.54074 -46.012722 -54.364346 9472126
137.80746 -46.358849 -53.659698 8682867
141.85931 -46.106812 84.964645 8617075
141.52438 -45.817787 85.693123 8156780
141.26498 -45.413074 86.469582 8683124
137.14302 -44.585388 -57.22123 8089963
137.25246 -44.823956 -56.266598 8221805
137.5022 -45.138676 -55.383289 10064263
141.64276 -44.872948 86.703323 8683124
141.31194 -44.681618 87.439827 8814456
141.5603 -44.341595 88.544113 8222578
141.07565 -44.32478 89.188751 7564651
136.89243 -43.789448 -66.178108 7695719
137.45644 -43.867691 -65.639015 7564651
136.79797 -44.115532 -64.12587 8682873
137.2516 -44.113926 -63.139233 7498083
137.55029 -44.112858 -62.479832 7037274
136.73428 -44.112041 -60.933174 10261644
137.02187 -44.110992 -60.275913 7367776
137.27771 -44.154797 -59.21521 6315856
137.16647 -44.328529 -58.390606 8880503
137.66376 -44.376133 -57.629978 8089963
141.72218 -44.083332 89.602127 11840933
141.23392 -44.067024 90.248207 7564651
141.80946 -43.936588 91.588364 9143678
141.36343 -43.936325 92.26825 14076861
136.6512 -42.804497 -66.872734 6774359
137.16422 -42.921017 -66.360321 7563875
136.76498 -41.982647 -67.172569 6510930
137.32883 -42.005798 -66.660576 6971481
136.57405 -40.515064 -68.057953 6510930
137.05576 -40.993355 -67.396889 6510930
136.91124 -39.797256 -68.108696 6510930
137.33362 -40.039028 -67.615677 6510930
136.58241 -38.809776 -68.882393 7103323
137.01311 -38.986912 -68.413475 7103323
136.79126 -37.791706 -69.193459 8682611
137.19579 -38.185795 -68.642059 8551026
136.42976 -36.710537 -70.041847 6510930
137.00401 -36.881359 -69.448593 9340797
136.73531 -35.939186 -70.146782 7103579
137.25485 -36.041866 -69.635284 9406591
136.54079 -34.639858 -70.928986 8024941
137.00615 -34.924995 -70.389694 8683125
136.73631 -33.863113 -71.113815 8617080
137.15514 -34.132931 -70.622536 8617080
136.62515 -32.563091 -71.807846 9735046
136.91496 -33.045967 -71.331993 8617080
136.7209 -31.813744 -72.06765 9669765
137.19841 -31.952831 -71.584923 8617080
136.35614 -30.644535 -72.924095 8090995
136.80933 -30.955002 -72.384056 9011835
135.62975 -29.540165 -100.0968 9866374
135.80165 -29.473801 -99.223557 10261132
136.70854 -29.856663 -73.252121 8419185
137.02184 -30.337837 -72.646606 8089963
135.97012 -29.407791 -98.352203 8616822
136.17558 -29.325855 -97.265793 8485494
136.37602 -29.244476 -96.182159 8485494
136.53233 -29.17984 -95.317513 14075837
136.63782 -29.105621 -94.422287 12760235
136.69968 -29.02338 -93.502182 10260359
136.52022 -28.618984 -74.985374 9932678
136.89102 -29.010517 -74.478249 10393229
137.22607 -29.288857 -73.811501 9011320
136.46071 -27.484821 -77.236343 9669250
136.82712 -27.663525 -76.365494 9932678
136.86577 -28.023029 -75.40213 10327180
136.89296 -27.227642 -78.129585 9603200
136.9814 -27.189674 -77.529366 9931910
139.63237 -73.336922 2.0565662 11380380
139.68842 -73.593018 2.7288489 10130313
139.8748 -73.704842 3.7414575 8682867
140.05782 -73.818825 4.7570844 9209211
140.25835 -73.725296 5.7765322 10787471
140.3228 -73.838387 6.7501431 9735040
140.2001 -74.012001 7.7309079 8946039
140.26329 -74.030693 8.646987 8748664
140.41382 -74.029572 9.5041828 8485749
140.54541 -74.028275 10.531686 12959152
140.46019 -74.027252 11.543189 8814457
140.36763 -74.026222 12.554003 8222577
140.26785 -74.025208 13.564194 9866882
140.16071 -74.0242 14.573632 8684155
140.46767 -74.022675 15.631595 10525587
140.5665 -74.021515 16.584633 11775652
140.63686 -74.02018 17.707756 11314844
140.49979 -74.019196 18.719698 12762546
140.35539 -74.018234 19.730684 10393743
140.41548 -74.017006 20.773163 8091761
140.94461 -74.015556 21.547533 11840677
140.77982 -74.01461 22.561649 14997715
140.6077 -74.013672 23.574547 12102823
140.42827 -74.012749 24.586182 9537663
140.76416 -74.011223 25.625269 8551024
140.89621 -74.009789 26.771744 7300446
140.69373 -74.008888 27.785322 7958120
140.48395 -74.007988 28.797472 9405566
141.19339 -74.006248 29.655758 8682612
140.97 -74.005371 30.671478 10262668
140.73936 -74.004494 31.685505 8420982
140.81422 -74.003334 32.653767 9012861
141.19513 -74.001877 33.58073 9407615
140.9435 -74.00103 34.596336 9407615
140.68452 -74.000183 35.610119 8748660
141.36838 -73.998413 36.512501 9209467
141.09549 -73.997589 37.529255 9801603
141.22696 -73.89521 38.711586 8486518
141.28539 -73.846657 39.652596 8486263
141.23776 -73.815735 40.679962 9209985
141.17375 -73.635971 41.629169 9538180
141.11884 -73.591042 42.676922 8222580
140.95207 -73.66861 43.739475 9273980
140.87935 -73.543648 44.648094 8746861
139.52866 -72.397781 0.04405272 9735296
139.6127 -72.618294 0.78197539 10787984
139.74559 -72.830467 1.7229 9933450
140.00096 -72.786072 2.783906 9867142
140.21848 -72.786873 3.7515717 8682867
140.40521 -72.901062 4.7698641 8879989
140.59145 -73.018738 5.791419 11774364
141.62402 -73.20929 39.871555 9209985
141.55859 -73.106148 40.663315 8749179
141.55389 -72.750839 41.696808 10064522
141.38855 -72.824387 42.759579 8682874
141.28581 -72.756897 43.737816 8813943
141.18684 -72.717995 44.606541 8418669
140.99994 -72.670906 45.497562 8549739
139.52831 -71.637917 -1.2123898 9405822
139.66907 -71.81739 -0.29083335 9800834
139.92686 -71.734467 0.71738589 10064004
140.1162 -71.837334 1.7284652 9735296
140.31424 -71.893341 2.700624 8814200
140.51173 -71.952469 3.6757183 8222575
141.70105 -72.200706 42.11171 9932937
141.65401 -72.11393 42.7169 9275009
141.63661 -71.853622 43.581287 8353393
141.51366 -71.804108 44.66436 8550514
141.24861 -71.83709 45.703899 8879476
140.9626 -71.736084 46.643372 8549998
139.59079 -70.772758 -2.1904936 9405822
139.81674 -70.810661 -1.2980245 9932422
140.00806 -70.90593 -0.29067028 9866883
140.26677 -70.822098 0.72000706 9998211
140.43076 -70.953499 1.6656758 9275260
140.51537 -71.17627 2.4094882 9011323
141.68729 -71.24276 44.907494 9537665
141.54175 -70.98671 45.800018 8353391
141.28891 -70.87252 46.658188 7760740
141.03508 -70.760452 47.516766 9536635
140.89528 -70.485901 48.225842 7037274
139.55972 -69.710892 -3.2601552 9142649
139.85815 -69.920555 -2.3479967 9537406
140.21306 -69.768936 -1.2586068 11050386
140.34668 -69.995575 -0.29053915 10129797
140.43864 -70.258713 0.55258 9998211
141.66013 -69.849907 46.719585 8155755
141.39241 -69.719582 47.638706 11181713
141.07179 -69.671616 48.61932 8156783
140.93671 -69.337967 49.380405 8092019
139.50929 -68.820938 -4.2013803 9471872
139.9213 -68.780632 -3.2735782 9932164
140.21651 -68.986374 -2.3591986 10392457
140.35974 -69.144249 -1.6388825 9340027
141.68456 -68.800102 47.814426 10261382
141.36868 -68.761925 48.770473 9472642
141.05179 -68.726379 49.726578 8552313
139.49637 -67.765999 -5.2072554 9274748
139.84148 -67.848595 -4.322484 8550770
140.18733 -67.933861 -3.433619 9340027
141.73117 -67.932449 48.642754 8880246
141.46014 -67.8069 49.566113 13682363
141.13612 -67.76384 50.551029 11117464
140.99805 -67.434235 51.316566 10262667
139.28973 -66.364182 -6.987896 8092019
139.48012 -66.719185 -6.2134924 8420725
139.75908 -66.92424 -5.3704295 10064518
140.17281 -66.877739 -4.444335 9669761
140.36314 -67.240997 -3.6625676 7563619
141.76918 -66.787712 49.803627 10656401
141.4962 -66.664917 50.729595 10459790
141.17017 -66.624672 51.717243 10262667
141.02988 -66.29731 52.485428 9143931
139.41261 -65.756348 -7.2621779 9868169
139.80775 -65.753479 -6.339314 11709598
140.14018 -65.944099 -5.3842301 9932932
141.83981 -65.772797 50.725891 9932935
141.58321 -65.714745 51.532185 9801605
141.22414 -65.724312 52.558617 9275261
141.04878 -65.541206 53.267544 10129801
139.40863 -64.656517 -8.2886562 10130570
139.71761 -64.894897 -7.3445377 10065034
140.11406 -64.890381 -6.4199514 12827051
141.8244 -64.888329 51.750145 9472384
141.54767 -64.769676 52.680508 9472127
141.21783 -64.733719 53.672707 9932422
141.0742 -64.409973 54.445511 9405822
139.34496 -63.801304 -9.2289171 10064777
139.74005 -63.796936 -8.3074484 9143418
140.0721 -63.925716 -7.4105682 9932934
140.2365 -64.282616 -6.6954613 9932934
141.83873 -63.910919 52.790104 9406590
141.61876 -63.786087 53.5634 10196106
141.2674 -63.837555 54.521027 10064264
141.13461 -63.405159 55.382763 9210491
139.36183 -62.666599 -10.238769 9143675
139.66603 -62.844585 -9.3615847 8354159
139.99898 -62.968662 -8.466958 8090987
141.86929 -62.998375 53.711552 11051413
141.58932 -62.883785 54.646721 11183256
141.28909 -62.709789 55.706154 11906977
139.28569 -61.773983 -11.242687 8485232
139.58936 -61.899452 -10.415337 8024681
140.0163 -61.880737 -9.4325743 7695972
140.18327 -62.229126 -8.7191238 8090987
141.87886 -62.02578 54.759838 10459277
141.69131 -61.752575 55.603676 12762030
141.4025 -61.659985 56.540237 11643806
141.24916 -61.40123 57.269268 8089963
139.33047 -60.357895 -13.043121 6511954
139.39961 -60.652195 -12.326661 7104091
139.66261 -60.84874 -11.384452 7695716
139.93471 -61.052582 -10.440393 7761509
141.97348 -60.874779 55.84753 11512476
141.76709 -60.756775 56.687832 9998215
141.54625 -60.631535 57.589935 9932166
141.36888 -60.43364 58.512329 11379868
139.39319 -59.458004 -15.244456 9143677
139.51025 -59.621563 -14.368575 7366755
139.54271 -59.921146 -13.474969 6445905
139.87177 -59.995571 -12.482625 6511954
140.07257 -60.212444 -11.58558 7761509
142.03838 -59.886837 57.859653 11906212
141.78455 -59.846397 58.686768 12103591
141.66644 -59.674816 59.639763 9142651
141.528 -59.497223 60.587776 10064008
141.34131 -59.433926 61.314953 9932678
138.52945 -58.697491 -37.297695 8090218
138.82074 -58.757698 -36.378269 8287597
139.04863 -58.828468 -35.320999 14209224
139.00256 -58.975273 -34.416618 13814980
138.86584 -59.07888 -33.20892 9473414
139.09637 -59.077503 -32.20826 15064533
139.3196 -59.076145 -31.205992 13353915
139.50031 -59.075012 -30.369555 9537663
138.70595 -59.074738 -29.331873 9997186
138.90846 -59.073399 -28.332539 9931394
139.10374 -59.072067 -27.331755 9603200
139.29181 -59.070736 -26.329428 10984852
139.47266 -59.069424 -25.325958 11116694
139.64622 -59.068111 -24.321108 9670278
139.07457 -59.067585 -23.281898 9407363
139.00456 -59.066414 -22.158691 7499111
139.13086 -59.065346 -21.324306 5920074
139.25175 -59.064281 -20.489168 6512978
139.39043 -59.063011 -19.486073 6840663
139.52182 -59.061741 -18.482035 7037274
139.39909 -59.159542 -17.447235 7629668
139.58374 -59.230923 -16.518764 8814713
139.54701 -59.343086 -15.768628 9012091
142.18713 -59.225574 60.874348 10260875
141.91335 -59.235474 61.566917 9669250
141.7562 -59.170074 62.638313 14209480
141.75981 -59.048779 63.541332 14604238
141.96112 -58.988945 64.595261 14603470
141.83615 -58.965458 65.641937 12367020
141.51505 -58.965054 66.322182 7038307
142.25357 -58.962906 67.512405 8288371
141.75676 -58.962318 68.534897 7958632
142.40787 -58.960056 69.917213 7234653
141.97972 -58.959583 70.770325 9998215
141.63397 -58.959209 71.451088 9932422
142.3607 -58.957024 72.687065 10656401
141.82654 -58.956474 73.710152 9998216
142.47957 -58.750191 74.783638 9734788
142.04414 -58.671291 75.5755 9734787
141.71573 -58.462841 76.278694 9932419
138.38937 -57.440594 -39.116352 9011320
138.5119 -57.768829 -38.390118 8221804
138.80972 -57.835709 -37.444206 6116684
139.1362 -57.861332 -36.460621 8156009
139.34003 -58.15609 -35.533916 8485491
142.62669 -58.08564 75.007866 9734788
142.32538 -57.79105 75.726646 9735301
141.97852 -57.534794 76.495079 9867400
138.3654 -56.70916 -40.006474 6511954
138.57715 -56.903667 -39.169247 8156267
138.96829 -56.745571 -38.20248 6380368
139.21788 -56.885715 -37.315464 5393730
139.3885 -57.14439 -36.526524 11906716
142.6156 -56.882275 75.882668 9933193
142.28561 -56.674294 76.588417 9933193
141.8472 -56.598564 77.383141 9406591
138.38605 -55.73996 -41.032784 8945523
138.56006 -55.990761 -40.242569 7695715
138.89001 -56.008842 -39.257423 7564386
139.24756 -55.884804 -38.350861 6248782
142.48682 -55.918072 76.786545 10196364
142.1246 -55.6208 77.610039 9604227
141.93848 -55.26778 78.175659 9538176
138.34879 -54.771721 -42.227131 9208694
138.60277 -54.902344 -41.337891 10853261
138.93439 -54.917561 -40.350975 7761507
139.18689 -55.052456 -39.461323 7498594
142.47108 -54.717339 77.667427 9669763
141.98157 -54.62933 78.557266 9801090
138.20923 -53.44437 -44.123318 8485488
138.36003 -53.705467 -43.389751 8748660
138.64275 -53.817139 -42.437649 10918289
138.97601 -53.829655 -41.448925 11575705
139.18739 -54.111496 -40.514797 10260871
142.61375 -54.079906 77.879913 9538176
142.32741 -53.725483 78.615929 9603968
142.0088 -53.471516 79.33506 10392969
138.23232 -52.725574 -44.861832 6511954
138.3945 -52.908436 -44.182323 8485488
138.77232 -52.840553 -43.153618 8813940
139.07501 -52.850178 -42.257462 9076343
139.22485 -53.114445 -41.522999 9339515
142.60384 -52.746933 78.845131 9538176
142.1604 -52.674786 79.645805 10327693
141.82462 -52.471878 80.357597 9735555
138.18607 -51.768303 -46.07016 7696236
138.39598 -51.96487 -45.235897 6643542
138.70331 -52.015057 -44.280743 9340797
139.00743 -52.022263 -43.383282 9998470
142.74742 -52.08268 79.075188 9538176
142.46567 -51.812836 79.743225 9866885
142.11075 -51.562252 80.521324 9998471
138.2157 -50.694916 -47.186752 9340286
138.39771 -50.934105 -46.386387 9274493
138.73619 -50.937309 -45.39286 7893613
138.99529 -51.061283 -44.496243 8288627
139.175 -51.305225 -43.697044 9736836
142.72548 -50.883411 79.965538 10261387
142.38806 -50.680546 80.680023 10787475
141.94159 -50.611061 81.483978 10787988
138.09386 -49.505997 -48.875988 9405822
138.2341 -49.759689 -48.181438 9340029
138.50204 -49.861111 -47.284225 9143163
138.84201 -49.862446 -46.288364 9208700
139.01349 -50.133121 -45.483425 9078139
142.68465 -49.950611 80.698235 11379356
142.3 -49.681786 81.539497 11906467
141.96065 -49.480816 82.255974 8287859
138.06021 -48.438881 -50.170837 10854036
138.25368 -48.747429 -49.258995 8813685
138.56645 -48.78936 -48.297127 9340029
138.87846 -48.833298 -47.335327 9274493
139.01242 -49.146835 -46.592121 9340286
142.55984 -48.724735 81.781357 11512223
142.10934 -48.683147 82.572189 7301479
138.01691 -47.729156 -51.093128 8682867
138.18571 -47.903435 -50.403942 9471868
138.5296 -47.898239 -49.403912 9274745
138.8727 -47.895294 -48.403709 8879989
139.03963 -48.073357 -47.715717 8617075
142.80034 -48.086555 81.829048 10261902
142.48114 -47.735783 82.617973 8683129
142.06227 -47.605507 83.418526 8288111
138.04369 -46.756069 -52.139763 9603455
138.26675 -46.970905 -51.232555 9735041
138.57271 -47.009396 -50.29417 9800576
138.81641 -47.123749 -49.443569 9274745
138.94206 -47.359276 -48.801559 9011574
142.67055 -46.887104 82.901489 9932419
142.33812 -46.690269 83.628113 10655886
142.10605 -46.493904 84.184189 8090987
138.16956 -45.702015 -53.99036 12695466
138.18579 -46.030544 -53.316704 9669248
138.5042 -46.021988 -52.407295 10984338
138.69431 -46.209129 -51.418568 10129542
138.9169 -46.333179 -50.481316 10853004
142.6489 -46.13052 83.812744 11182228
142.46223 -45.760983 84.629982 8946039
142.21414 -45.373066 85.412926 8683124
138.06068 -44.414963 -57.019455 9076600
138.39932 -44.514206 -56.190903 8221549
138.18475 -44.810314 -55.259094 10523787
138.46074 -45.139889 -54.349262 12168354
138.75317 -45.298958 -53.357208 11050130
142.83755 -45.031292 85.088936 10262156
142.483 -44.86068 85.716484 9341054
142.41379 -44.548969 86.551682 9735812
142.28542 -44.367901 87.574463 8880503
138.05884 -43.823303 -65.114471 8748665
138.2197 -44.114235 -64.383003 9340289
138.52443 -44.113155 -63.718857 8616563
137.69836 -44.112328 -62.149494 10261644
137.99185 -44.111263 -61.48764 11182489
138.42636 -44.109669 -60.492451 8880503
138.71234 -44.108612 -59.827374 5921098
137.98761 -44.146336 -58.347118 12563112
138.58743 -44.204178 -57.428989 11378840
142.93835 -44.12635 87.981094 9341054
142.45271 -44.108742 88.630463 9933192
142.91121 -43.937267 89.879875 9341057
142.47278 -43.936993 90.564804 8090994
143.03915 -43.933784 92.882225 10591121
142.7 -43.933582 93.39669 10591121
137.77011 -42.573383 -65.991814 8024169
138.08481 -43.046444 -65.481598 8089963
137.94003 -41.784256 -66.225853 8682356
138.39209 -42.083393 -65.678467 8089963
137.64386 -40.839539 -66.949684 6510930
138.14342 -40.941795 -66.456161 9998471
137.8576 -39.818199 -67.258034 8287853
138.26173 -40.218452 -66.703949 10656657
137.64218 -38.744831 -67.972923 7564643
138.13402 -38.857979 -67.480927 8683380
137.80901 -37.955887 -68.209557 10920342
138.39453 -37.881176 -67.726067 15723486
137.57091 -36.835602 -68.967514 10262156
138.09216 -36.941532 -68.452919 9998727
137.84766 -35.877899 -69.188843 9143674
138.25868 -36.150902 -68.690659 8156780
137.62076 -34.687923 -69.959503 8486513
138.03673 -35.080338 -69.408195 7894120
137.79457 -33.817238 -70.206429 8223086
138.23204 -34.052425 -69.714729 8815478
137.49501 -32.64603 -71.006676 8617080
137.94864 -32.961937 -70.463669 8157038
137.77261 -31.802769 -71.149971 7827820
138.14272 -32.200508 -70.642776 8617078
137.51865 -30.746956 -71.857185 7564643
137.94576 -30.882961 -71.449173 8485745
137.04355 -29.622272 -103.17329 7629411
137.22086 -29.554379 -102.28173 7037274
137.39461 -29.486847 -101.39212 12434352
137.70499 -29.978638 -72.322044 8551026
138.26114 -30.077587 -71.822319 10854036
136.78844 -28.924713 -92.367592 6971738
136.89066 -28.830559 -91.249504 8089962
136.96889 -28.755829 -90.358429 8353134
137.04414 -28.681553 -89.470284 7037274
137.1338 -28.589504 -88.364304 9143163
137.21924 -28.49815 -87.262497 11380380
137.26834 -28.443764 -86.6036 11380380
137.54796 -28.70715 -74.124138 10196106
137.88431 -29.099594 -73.454605 10064264
138.25319 -29.355633 -72.661369 9932678
137.29996 -28.407639 -86.165184 10064777
137.36111 -28.335762 -85.290924 7564131
137.43378 -28.246601 -84.201561 7563619
137.48865 -28.175774 -83.333427 7563619
137.54074 -28.105503 -82.468048 7827303
137.58995 -28.035637 -81.605499 13156018
137.45769 -27.535316 -76.069489 9209467
137.80084 -27.682373 -75.313416 9932422
137.87202 -28.117279 -74.368996 10129801
137.35599 -27.208019 -77.090385 9997958
137.85551 -27.232956 -76.503769 9735043
140.69995 -73.549873 7.1511512 8813683
140.79228 -73.612747 7.6649575 9142389
141.01375 -73.580452 8.5956802 7630183
141.19933 -73.666176 9.5615454 7367270
141.38106 -73.800209 10.598924 8157297
141.53944 -73.757668 11.594956 8419956
141.44257 -73.96402 12.587629 9011579
141.11186 -74.02417 13.650677 9734787
141.42978 -74.022636 14.712937 10130316
141.73967 -74.021095 15.780503 11840932
141.63768 -74.020264 16.630608 10788244
141.53033 -74.01944 17.480003 9735043
141.39494 -74.018463 18.49843 12762546
141.45377 -74.017136 19.631968 8682355
141.62527 -74.015915 20.542206 7104093
141.79861 -74.014458 21.683144 9735043
141.63281 -74.013504 22.703392 11379356
141.45964 -74.012558 23.722456 9931910
141.49402 -74.011345 24.779121 10788240
142.01311 -74.00988 25.57766 9538175
141.81923 -74.008957 26.599415 8090987
141.61797 -74.008049 27.619696 7432032
141.62512 -74.006851 28.683531 8287085
142.12825 -74.005379 29.500965 7037786
141.90599 -74.004486 30.523458 10986135
141.8497 -73.990799 31.673725 12433325
142.02774 -73.925339 32.642624 9538178
142.18051 -73.815987 33.640236 9867141
142.09308 -73.66497 34.626492 7761510
141.91698 -73.694176 35.566257 9932934
141.90138 -73.597137 36.653217 9801604
141.74286 -73.655937 37.705265 9801604
141.67717 -73.516151 38.601727 11380124
140.72955 -72.65094 5.7974882 9997955
140.8846 -72.751343 6.6521277 12103072
141.03932 -72.854355 7.5092788 9734526
141.25539 -72.869553 8.4943609 9668218
141.54858 -72.742073 9.5862017 8616044
141.66304 -73.06057 10.620912 7564904
142.41087 -73.257698 33.69574 9932678
142.39635 -73.008385 34.507397 8616049
142.32887 -72.778343 35.671288 11511710
142.17162 -72.833344 36.724041 10196362
142.07629 -72.749573 37.690613 10327948
141.98401 -72.696159 38.548931 11774882
141.8364 -72.754486 39.518154 11446174
141.76509 -72.579376 40.557346 9143680
140.71785 -71.58947 3.9917817 8879992
140.81821 -71.799751 4.7850437 9011062
140.96808 -71.957275 5.7109709 8024168
141.1994 -71.811691 6.4979234 9405819
141.45537 -71.74968 7.5326142 8682093
141.59314 -71.974113 8.5155306 11115152
142.47922 -72.224068 36.074081 10459278
142.43658 -72.127617 36.67165 9998983
142.4257 -71.854202 37.522919 9538176
142.31096 -71.786827 38.59301 8880503
142.17097 -71.771049 39.711563 12630191
142.05466 -71.725075 40.733746 9472388
141.91814 -71.782616 41.619926 9011838
141.87242 -71.608124 42.460964 8814459
141.80453 -71.509315 43.259995 9537665
140.64317 -70.476265 1.8207489 9077627
140.74004 -70.805115 2.7944236 7761772
140.91368 -70.904396 3.7297521 9471617
141.17427 -70.81601 4.7414517 11116184
141.38141 -70.735413 5.5283942 9011581
141.49625 -70.992775 6.4636974 8287598
141.66989 -70.973442 7.2031426 8813683
142.53328 -71.124489 38.746323 8090987
142.47301 -70.955811 39.682648 10722451
142.44809 -70.7146 40.551342 9867145
142.28189 -70.81591 41.542206 8025201
142.18414 -70.695732 42.630127 9143423
142.01772 -70.769653 43.700024 10853525
141.89098 -70.774261 44.659851 9208444
141.87805 -70.492958 45.344933 9537665
140.54961 -69.449966 -0.29042709 9538177
140.65408 -69.811745 0.77118695 9735297
140.86551 -69.829422 1.739689 9669248
141.12456 -69.750832 2.7607284 8090736
141.31509 -69.857811 3.7838593 8353651
141.45767 -69.940178 4.5532522 10853013
141.59993 -70.024551 5.3245926 10261391
142.62004 -70.18721 40.712414 9011838
142.57172 -69.97422 41.681282 8354165
142.52005 -69.741142 42.732212 10590865
142.3815 -69.801743 43.625805 12367276
142.28516 -69.72464 44.581692 10261388
142.08846 -69.726837 45.601658 9011062
141.90877 -69.46817 46.424068 8353133
140.46188 -68.5541 -2.1458397 12102816
140.58537 -68.781624 -1.2357715 10458507
140.81113 -68.772537 -0.2479943 9538177
141.01291 -68.81929 0.72574437 9538177
141.20532 -68.918686 1.7447444 9143420
141.43895 -68.868591 2.6996546 9274749
141.55672 -69.109344 3.6207795 9011323
142.7215 -69.168716 42.793285 11183001
142.65318 -69.069122 43.597569 10656657
142.59967 -68.846115 44.634495 9209210
142.4205 -68.769852 45.709568 9405819
142.07262 -68.764977 46.730862 8353133
141.90422 -68.57106 47.433201 10063747
140.53595 -67.529358 -2.9910736 13023917
140.6846 -67.808578 -2.3175869 11774108
140.89569 -67.905128 -1.3053688 7695717
141.11935 -67.888924 -0.33852994 9077882
141.35146 -67.910622 0.72836316 9538177
141.44485 -68.174004 1.578344 9603969
142.65295 -68.100639 45.785164 8419439
142.5209 -67.761902 46.54768 8550512
142.16711 -67.805908 47.522186 8616562
141.98015 -67.549828 48.347412 9143418
140.43384 -66.573532 -4.1143441 9209467
140.66473 -66.835243 -3.3313828 8484721
141.08662 -66.775764 -2.2807965 9734787
141.27428 -66.859909 -1.350408 7892840
141.37732 -67.173225 -0.37499225 9143419
142.74808 -66.916527 46.829033 11905695
142.49554 -66.85006 47.63335 8682867
142.14174 -66.849045 48.657841 9406334
141.97682 -66.468315 49.557632 10130057
140.43332 -65.601021 -5.0148578 10656398
140.67563 -65.756287 -4.3038182 10261898
141.04474 -65.864243 -3.3393764 9076858
141.27017 -66.103386 -2.5520515 8616307
142.72131 -66.123978 47.786266 9143675
142.50848 -65.894051 48.657078 10656401
142.25584 -65.767799 49.52803 11116952
142.04196 -65.643135 50.285213 9472384
140.41248 -64.559021 -6.0275245 11905696
140.58833 -64.837624 -5.3579922 9867140
140.97833 -64.882271 -4.4030848 10656399
141.28911 -64.994759 -3.5711031 10458254
142.81381 -65.00325 48.762848 10919829
142.62383 -64.749931 49.593605 11380380
142.26637 -64.753677 50.622787 10261900
142.07393 -64.503998 51.454777 10459279
140.32712 -63.500729 -7.2062559 9472383
140.536 -63.875347 -6.3705769 9669251
141.00348 -63.770176 -5.3727822 8682100
141.23822 -64.176544 -4.4470577 9866117
142.84857 -63.860294 49.929985 9603970
142.59128 -63.799847 50.739838 8748661
142.24278 -63.843891 51.697533 10196107
142.11627 -63.619797 52.310833 9209467
140.29335 -62.674557 -8.0495281 8090987
140.53957 -62.768501 -7.3857818 8485488
140.9095 -62.912022 -6.3865857 8616307
141.24364 -62.907551 -5.6080351 8550514
142.86943 -63.100174 50.710842 8485745
142.67586 -62.850548 51.545921 12103587
142.31477 -62.858772 52.579487 9341053
142.11923 -62.612885 53.416157 11314328
140.26988 -61.455853 -9.2315931 7629667
140.47511 -61.883286 -8.3555822 7761509
140.94855 -61.756535 -7.3638244 8024938
141.1478 -62.052452 -6.6234274 8089963
142.89801 -61.962692 51.886745 10788241
142.70161 -61.762554 52.675274 9406589
142.37999 -61.724926 53.645733 12300966
142.19345 -61.449177 54.489449 9669506
140.36812 -60.566803 -10.196957 8156267
140.55859 -60.762779 -9.4190931 9405822
140.90231 -60.884071 -8.4221954 7629412
141.09532 -61.085983 -7.640274 7168861
142.9612 -60.953281 52.821144 9209467
142.77805 -60.82206 53.61451 10064264
142.57089 -60.628811 54.635944 9472127
142.31587 -60.526817 55.588505 10393229
142.17912 -60.312801 56.457771 11379868
140.15608 -59.492546 -13.286602 5919050
140.55894 -59.511845 -12.424476 6182221
140.60138 -59.749325 -11.457538 6643284
140.72328 -59.99184 -10.49005 7432544
141.07205 -60.06028 -9.5366755 8156012
143.03764 -59.953678 54.817425 9011320
142.8606 -59.828838 55.619179 9142906
142.614 -59.748135 56.633022 9471616
142.55099 -59.577011 57.471249 9734787
142.42046 -59.398338 58.552063 10787475
139.56334 -58.765137 -34.198196 10460052
139.79395 -58.851791 -33.426498 8091248
140.11537 -58.887714 -32.439346 12498606
140.38672 -58.847321 -31.557804 11708833
140.28857 -59.074028 -30.273817 8814711
139.74438 -59.073429 -29.196753 9932675
139.94591 -59.072086 -28.18985 8814197
140.10843 -59.070969 -27.349751 8682099
140.26556 -59.069859 -26.50856 11774108
140.44765 -59.068531 -25.49799 11051158
140.62242 -59.067207 -24.486107 7565675
140.1382 -59.066502 -23.368469 7960176
139.97153 -59.065506 -22.307846 6116943
140.12332 -59.064213 -21.299463 5392706
140.26779 -59.062927 -20.29007 6248786
140.40498 -59.061649 -19.279629 8289138
140.53491 -59.060379 -18.268242 8485489
140.65747 -59.059116 -17.255943 9472641
140.58606 -59.081772 -16.222181 9538433
140.54292 -59.127068 -15.36397 8288113
140.59258 -59.213333 -14.517247 7103582
140.68336 -59.312538 -13.504018 5919050
143.0634 -59.197815 58.619007 9405823
142.83957 -59.158852 59.635426 9668995
142.67989 -59.118664 60.478592 9668995
142.62665 -59.030647 61.472687 8550769
142.89407 -58.99173 62.545834 12695210
142.78056 -58.966686 63.592564 14604238
142.46936 -58.966267 64.277298 14604238
143.14523 -58.964012 65.628723 14603214
142.7429 -58.963501 66.486351 10788244
143.33136 -58.961128 68.031242 8089963
142.99812 -58.960739 68.718369 6510930
142.66226 -58.960346 69.404152 6510930
143.32094 -58.958054 70.801506 10787473
142.88741 -58.957581 71.660065 11116437
143.54427 -58.920513 72.863243 10787473
143.21777 -58.707294 73.566765 12366761
142.78285 -58.625656 74.359665 9734788
139.60072 -57.655476 -35.332836 9209212
139.82356 -57.924129 -34.379974 11380640
140.14827 -57.958012 -33.39233 9406851
140.33826 -58.203342 -32.561665 13156536
143.37613 -57.908401 73.86763 11050902
143.0641 -57.64719 74.58065 9800581
142.78325 -57.287727 75.311028 9734788
139.45302 -56.53574 -37.020138 5393730
139.65302 -56.751431 -36.193405 11314580
139.95041 -56.823772 -35.24255 8089962
140.24719 -56.898502 -34.290783 8155755
140.42084 -57.241909 -33.397831 11247764
143.4135 -56.744301 74.63279 10261388
142.92787 -56.650002 75.520409 11248538
139.45453 -55.678738 -37.976437 5393730
139.61086 -55.873596 -37.3008 5393730
139.93915 -55.899261 -36.311954 11182994
140.27835 -55.849323 -35.375935 10260869
140.42162 -56.126953 -34.645607 7563619
143.52425 -55.904255 75.043343 10984852
143.20264 -55.744961 75.700127 10459280
142.89465 -55.386589 76.475502 9538692
139.42224 -54.70097 -39.166985 10261132
139.59569 -54.955582 -38.374405 6643541
139.92543 -54.978363 -37.384541 5393730
140.22508 -55.047337 -36.430801 9143670
143.55658 -54.768192 75.796913 7499113
143.11673 -54.690586 76.595528 8486262
142.7845 -54.483212 77.30452 8682867
139.40564 -53.631073 -40.415115 9669504
139.64062 -53.86198 -39.468945 12498087
139.97198 -53.881893 -38.477539 10327433
140.22412 -54.020981 -37.584278 7565157
143.42471 -53.829437 76.687798 7893868
143.07373 -53.574055 77.462654 9538176
142.76707 -53.282543 78.188217 10459278
139.30638 -52.39304 -42.093235 8418671
139.48993 -52.717548 -41.192638 8418671
139.79396 -52.777081 -40.236847 9340795
140.0972 -52.838913 -39.280548 10524811
140.27814 -53.169579 -38.380661 9604224
143.68794 -52.900158 76.904289 9209467
143.35405 -52.692955 77.615944 11117208
142.91112 -52.618336 78.417397 9867141
139.2753 -51.668831 -42.99625 11181204
139.43687 -51.854858 -42.314953 9339515
139.77176 -51.867664 -41.321129 8747379
140.106 -51.882874 -40.326454 8551280
140.26601 -52.073101 -39.645248 7038298
143.51984 -51.961781 77.855896 10919829
143.26299 -51.640442 78.518616 9011832
142.89075 -51.418339 79.305664 8814453
139.23128 -50.7061 -44.204052 9012603
139.44048 -50.906494 -43.367615 10459533
139.7473 -50.96104 -42.408947 9866371
140.05344 -51.017746 -41.449867 8945271
140.18179 -51.340981 -40.712292 9340795
143.53529 -50.734161 78.703224 9603970
143.04086 -50.647236 79.600662 10261387
139.31546 -49.652435 -45.13895 9144188
139.50098 -49.871609 -44.350639 8354420
139.82011 -49.8792 -43.408695 9998983
140.05777 -50.067043 -42.502918 9274235
140.21999 -50.253769 -41.819012 8089963
143.46252 -49.742355 79.531876 11248026
143.01067 -49.553917 80.429581 11314074
139.14461 -48.431252 -47.007557 9340286
139.27843 -48.745548 -46.263863 9537409
139.58894 -48.793934 -45.301342 8881274
139.92836 -48.799946 -44.301811 8288627
140.10922 -49.044632 -43.498463 8814456
143.6637 -48.760723 79.89016 11511455
143.21591 -48.689373 80.697754 10393488
142.8765 -48.486732 81.415627 14604230
139.25006 -47.85878 -47.340778 9011833
139.55656 -47.896011 -46.402481 9340541
139.89745 -47.899719 -45.40126 11380381
140.06256 -48.082176 -44.713856 10459279
143.58537 -47.772209 80.725517 9932681
143.16785 -47.638905 81.526154 10788245
142.84874 -47.287365 82.315628 8090995
139.1472 -46.649929 -49.060841 9011574
139.25826 -46.958031 -48.350792 9208697
139.56604 -47.002056 -47.398087 8222573
139.83167 -47.104527 -46.493793 10524559
140.04797 -47.242657 -45.697536 15261912
143.78145 -46.892971 81.019524 6511962
143.47588 -46.732868 81.668762 8090995
143.08212 -46.593029 82.451477 8682871
139.05528 -45.77095 -51.381084 10524043
139.28577 -45.916046 -50.371948 9537404
139.55151 -46.004997 -49.390194 9077367
139.81538 -46.095722 -48.409203 9735042
139.9537 -46.326462 -47.46677 8617075
143.76285 -46.133381 81.925888 8090995
143.55244 -45.889084 82.648491 8682867
143.26158 -45.662594 83.480148 10261384
143.02605 -45.402191 84.269348 9932419
139.14749 -44.524693 -55.331264 8221034
139.37637 -44.640083 -54.342274 8813171
139.29451 -44.823093 -53.404171 9668994
139.34407 -45.056866 -52.341743 11773857
139.59305 -45.136875 -51.347908 9931910
139.80742 -45.277813 -50.329456 8747892
140.01135 -45.356422 -49.551834 7563618
143.57201 -45.036903 83.895302 9932419
143.36955 -44.817299 84.567024 9998212
143.43221 -44.501686 85.604042 10262156
143.12827 -44.400158 86.439293 11248795
139.0069 -43.70327 -64.342384 11050902
139.00418 -44.064339 -63.401443 6643284
139.12337 -44.111008 -62.385963 7564128
139.49159 -44.109665 -61.550091 11181972
138.92451 -44.107822 -59.32753 9537920
139.27393 -44.106503 -58.492794 13352371
139.61865 -44.105183 -57.656086 10063238
139.28435 -44.273232 -56.352428 7563618
139.78082 -44.323597 -55.580475 7037274
143.78542 -44.15868 86.84079 11051672
143.30167 -44.139999 87.492912 11248795
143.77721 -43.937836 88.503365 9341057
143.23752 -43.937477 89.36467 10262156
143.82314 -43.934254 91.677185 8617331
143.37639 -43.933979 92.366562 8683124
144.06245 -43.930786 94.547188 10130825
138.7 -42.891804 -65.01075 9537665
139.2455 -42.903717 -64.520508 9998215
138.96278 -41.883377 -65.269226 9208444
139.18303 -42.382568 -64.830238 9537665
138.79857 -40.669308 -66.007332 10459023
139.14084 -40.969357 -65.556923 9735044
138.86305 -39.930187 -66.310547 10722451
139.46556 -39.924511 -65.778267 9669507
138.64354 -38.865047 -67.025024 8420208
139.166 -38.976818 -66.506561 8288110
139.03876 -37.875023 -67.156967 8683380
139.48048 -38.201214 -66.605621 8813941
138.70961 -36.709351 -68.017799 10591633
139.07117 -37.059601 -67.525917 7433313
138.8727 -35.789379 -68.321747 10065545
139.33327 -36.078976 -67.771523 12697265
138.56641 -34.850662 -69.051086 7038298
139.07426 -34.942741 -68.55574 9604481
138.83101 -33.885136 -69.266006 8618099
139.33864 -34.359203 -68.603149 8617843
138.59979 -32.944572 -69.900345 9736836
139.14572 -32.862461 -69.459076 8222829
138.71515 -31.946484 -70.257103 8419952
139.26205 -31.862438 -69.815849 9143418
138.61551 -30.596706 -71.024506 9340797
138.95407 -30.987228 -70.497841 8814709
138.40326 -29.710815 -71.896088 10854036
138.96915 -29.870785 -71.345154 8617331
137.56485 -29.419765 -100.50458 13882053
137.77235 -29.336452 -99.398003 7828076
137.97476 -29.2537 -98.294456 7366239
138.13261 -29.187943 -97.413872 6905688
138.24835 -29.11451 -96.508492 7301470
138.32367 -29.010151 -95.336502 9868164
138.40233 -28.908188 -94.174866 7301986
138.48325 -28.83173 -93.263916 7564392
138.56102 -28.755733 -92.356026 7564392
138.63593 -28.68029 -91.451157 8156526
138.70767 -28.605358 -90.54937 11707804
138.79309 -28.512413 -89.426445 8682867
138.85841 -28.438541 -88.531113 8090995
138.66258 -28.833279 -73.21431 9143163
138.93294 -29.152512 -72.4869 9143677
139.02977 -29.408508 -71.797707 8617331
138.45741 -27.588303 -74.897186 9931910
138.83847 -27.69175 -74.245125 9931910
138.86993 -28.172497 -73.493965 8418928
138.93332 -27.058563 -77.314735 9735043
138.63586 -27.03027 -76.284508 9735043
138.73004 -27.277775 -75.473213 10129546
139.23056 -27.304226 -74.882553 9931910
141.83755 -73.430008 12.006719 8814457
141.93951 -73.629761 12.789218 6907486
142.02849 -73.833946 13.744468 7827558
142.21222 -73.529312 14.625655 7695972
142.23116 -73.587372 15.491773 8287853
142.25294 -73.659988 16.532866 8880503
142.27359 -73.73597 17.57589 9471615
142.28876 -73.813126 18.620478 8748404
142.3494 -73.694221 19.673807 7564130
142.46608 -73.607986 20.738461 6578005
142.47974 -73.682053 21.61574 6249303
142.49257 -73.758705 22.494886 6906718
142.51125 -73.764069 23.603062 8879734
142.55121 -73.683693 24.573128 10261897
142.67053 -73.676155 25.699806 10985619
142.66716 -73.812019 26.692331 8288366
142.70102 -73.721291 27.599781 8156523
142.72195 -73.690544 28.510307 6906456
142.78802 -73.670204 29.641666 7565154
142.63864 -73.707321 30.6852 10262668
142.51144 -73.706665 31.663094 13288378
142.45427 -73.585442 32.442123 9011320
141.87306 -72.505714 10.637284 8682867
141.98727 -72.827553 11.676305 9734787
142.24152 -72.782776 12.731273 8222318
142.36472 -72.954475 13.679383 6709333
142.4814 -72.769577 14.481205 6774870
142.50429 -72.838112 15.522378 8617329
142.59464 -72.722885 16.573603 9341051
142.61568 -72.798042 17.619238 9406588
142.63557 -72.876572 18.666973 9011319
142.6927 -72.847214 19.672438 8090474
142.73787 -72.841316 20.603651 6183248
142.82057 -72.726471 21.493038 5920338
142.83661 -72.817078 22.550329 6841696
142.86807 -72.85997 23.568882 7038815
142.9341 -72.819954 24.684757 10064773
142.99498 -72.776154 25.657806 10327690
143.0415 -72.758057 26.523376 10525072
143.05156 -72.855423 27.505384 9932935
143.11382 -72.827705 28.634817 6511954
143.12645 -72.718231 29.713072 7563618
142.97212 -72.805809 30.655291 9209468
142.88742 -72.735458 31.504528 11907237
142.72491 -72.82341 32.504765 9801092
142.61772 -72.757568 33.512726 10459022
142.55238 -72.535995 34.636494 8484463
141.81187 -71.527451 8.7491579 10457478
141.89737 -71.819183 9.6108389 9076593
142.15289 -71.766632 10.659071 11248534
142.33829 -71.902184 11.706217 12498087
142.56287 -71.832634 12.588212 12695725
142.70354 -71.944115 13.465809 7433059
142.7542 -72.021996 14.509751 6774870
142.77721 -72.089859 15.55292 9341051
142.86769 -71.97403 16.606171 10919825
142.88904 -72.048569 17.653843 12827563
142.90933 -72.12648 18.703655 11379605
142.92534 -72.193855 19.580103 9011320
142.99661 -72.119194 20.536633 6051406
143.09511 -71.974785 21.535217 5920338
143.11148 -72.064629 22.59462 8092019
143.12669 -72.157814 23.65657 6512471
143.14088 -72.254478 24.721188 6511954
143.3248 -72.296974 29.036415 7037274
143.29741 -71.981476 30.468891 8089962
143.21465 -71.830032 31.532734 10919573
143.10718 -71.730919 32.638515 8616563
142.97705 -71.726273 33.650276 8484720
142.82234 -71.774208 34.703091 8024169
142.68124 -71.820312 35.656677 9996928
142.66272 -71.575386 36.486797 9537662
142.591 -71.517296 37.200195 9209467
141.7141 -70.546204 6.6936035 7038307
141.82796 -70.801804 7.6217904 9668731
142.05847 -70.770332 8.5938444 9076337
142.2457 -70.897522 9.635478 9274229
142.54124 -70.771049 10.738593 13024173
142.689 -70.977928 11.736094 12300708
142.77383 -71.277336 12.607456 11906725
143.36662 -71.273109 31.928448 10853780
143.35524 -71.047844 32.650726 7761509
143.31111 -70.810501 33.65731 8089963
143.21445 -70.771965 34.508011 8550256
143.07698 -70.777237 35.548191 9076085
142.96584 -70.718758 36.565491 8287341
142.80739 -70.774582 37.62484 9670019
142.73907 -70.600876 38.637066 8090987
142.67487 -70.493408 39.431328 9735555
141.64233 -69.602226 4.8151631 8617081
141.79419 -69.692795 5.6395626 8288116
141.9584 -69.793236 6.5349922 8419702
142.14743 -69.9123 7.5714211 10787474
142.44408 -69.778267 8.6674461 9077373
142.61458 -69.892128 9.6122656 8288110
142.68071 -70.268661 10.527677 8090987
143.41341 -70.236687 34.483685 8681841
143.36978 -69.969154 35.569775 9207671
143.30229 -69.767853 36.652851 7893352
143.14381 -69.823044 37.714756 9735812
143.07788 -69.681084 38.619202 7433057
142.94373 -69.731705 39.506802 9209213
142.82765 -69.683258 40.533661 9209216
142.77962 -69.469292 41.503036 10459281
141.59743 -68.691574 3.1114035 9735553
141.76154 -68.562202 3.6265798 9077371
141.85269 -68.834778 4.4818411 9011838
142.0528 -68.895538 5.4711552 9208961
142.36237 -68.745049 6.597578 11905698
142.53674 -68.852898 7.5502505 11379609
142.61742 -69.150421 8.3998013 9340545
143.47777 -69.206657 36.882305 6643541
143.43919 -69.053169 37.609127 8419952
143.41928 -68.799301 38.474812 7827815
143.27957 -68.780235 39.600922 9405565
143.13826 -68.764572 40.72945 10327438
143.0172 -68.766617 41.653034 11840932
142.9491 -68.655342 42.487755 11183001
142.85925 -68.543289 43.492233 8946039
142.7675 -68.502876 44.310318 8682867
141.5544 -67.365913 0.72992671 9538177
141.66061 -67.728004 1.8001095 9669761
141.78065 -67.969696 2.7326293 9735553
142.02878 -67.786224 3.5317121 8419699
142.26303 -67.739937 4.4959054 8551025
142.43001 -67.890701 5.4866138 8682871
142.55847 -68.05912 6.3353882 8617081
143.58838 -68.169846 38.944321 8089963
143.52376 -68.061783 39.743774 8747635
143.47986 -67.881195 40.587955 11378583
143.41069 -67.744705 41.501915 11839903
143.24606 -67.811874 42.577209 9472383
143.14697 -67.691681 43.675125 8682867
142.97635 -67.812363 44.645794 8419952
142.94681 -67.57592 45.425678 8880245
141.49905 -66.486038 -0.9697932 8484464
141.58859 -66.697746 -0.22199476 10261387
141.75717 -66.821587 0.73149598 11446174
142.01947 -66.736977 1.7569181 10064516
142.18137 -66.82 2.6132669 9735553
142.34293 -66.905396 3.4719849 8419955
142.53632 -67.010818 4.5052905 7695460
143.63155 -67.084496 41.660473 9866113
143.55739 -66.910721 42.718071 8287598
143.50969 -66.727562 43.5984 8682867
143.37035 -66.787369 44.5 9077624
143.22015 -66.710587 45.637089 9538175
142.9971 -66.53627 46.5308 12432551
141.48582 -65.74292 -2.2438998 8089963
141.7023 -65.732979 -1.3108271 7958120
141.89886 -65.822464 -0.28983533 10853012
142.09489 -65.915115 0.73408616 11313819
142.32552 -65.813263 1.5904595 10261129
142.43816 -65.977585 2.3619776 9735296
142.55035 -66.1436 3.1348104 9735553
143.71048 -66.156654 43.660213 8550768
143.65871 -65.947525 44.644947 8090987
143.56097 -65.786606 45.645164 8880502
143.25343 -65.746613 46.666023 11248794
143.04012 -65.609642 47.435131 10262156
141.55196 -64.690506 -3.2367964 9866117
141.7726 -64.924416 -2.332828 8484721
142.03783 -64.829376 -1.313105 7497825
142.27748 -64.778519 -0.33241928 10655633
142.38219 -65.092239 0.65076363 9997702
142.4958 -65.253357 1.4216491 10853012
143.79353 -65.142212 45.774487 8090987
143.65843 -64.803284 46.541607 8946295
143.33537 -64.751007 47.534302 8617331
143.0632 -64.621895 48.464756 10327949
141.48143 -63.718502 -4.3010416 9735040
141.88168 -63.771557 -3.3143988 10064259
142.17412 -63.842373 -2.3384457 9800834
142.30606 -64.107155 -1.3149427 8484464
143.8345 -63.990868 46.934361 9341054
143.66322 -63.797462 47.644402 9341054
143.30716 -63.795502 48.676594 10459278
143.05113 -63.732231 49.486774 9537920
141.52026 -62.662025 -5.1870952 9208444
141.7903 -62.853291 -4.3777809 9866625
142.14485 -62.929882 -3.4765229 9800830
142.37477 -63.094166 -2.6833448 9208435
143.80057 -63.225002 47.882771 9933191
143.65535 -62.918728 48.642124 9735299
143.39496 -62.842564 49.478336 7432032
143.11919 -62.717621 50.412907 8287597
141.40926 -61.745766 -6.2946854 8287342
141.71649 -61.88435 -5.4468188 8353135
142.14943 -61.879845 -4.4368467 9866624
142.31743 -62.241871 -3.7085896 10656398
143.7023 -61.826523 49.714912 9077369
143.42569 -61.70192 50.651535 11576988
143.14803 -61.579498 51.588776 10787215
141.53448 -60.648159 -7.3217659 8156012
141.80197 -60.813221 -6.4246349 7958377
142.07208 -61.030514 -5.4597201 8419184
143.92603 -60.937992 50.052029 10854036
143.79797 -60.824909 50.654968 11313559
143.55237 -60.770966 51.475971 11050130
143.26404 -60.664074 52.54295 9340540
143.1389 -60.36142 53.575024 9011576
141.20642 -59.447117 -11.162969 5392706
141.35214 -59.487171 -10.491639 6511954
141.65782 -59.585579 -9.4885731 7103323
141.61826 -59.954105 -8.4622545 8221549
141.9547 -60.006451 -7.5695467 8484977
142.22568 -60.169968 -6.613327 8156012
143.83995 -60.264523 51.776337 10129542
143.71602 -60.100742 52.51466 9406076
143.64912 -59.771397 53.472916 9405817
143.49734 -59.637852 54.486877 8748147
143.48701 -59.43301 55.389286 8484721
143.27527 -59.376713 56.30069 8813686
140.66125 -58.517548 -31.264769 9208443
140.89087 -58.610378 -30.48922 8946296
141.05081 -58.794189 -29.463427 7499624
141.28629 -58.861164 -28.497421 10195847
141.12473 -59.069859 -27.367517 8879477
141.31302 -59.06852 -26.350626 8089963
141.4939 -59.067184 -25.33255 7630178
141.66748 -59.065857 -24.313129 9932163
141.138 -59.065437 -23.41367 8354419
140.95006 -59.064587 -22.458706 5853514
141.10289 -59.063286 -21.443317 5392706
141.24843 -59.061993 -20.426815 6117714
141.38651 -59.060703 -19.409264 9209982
141.51733 -59.059422 -18.390804 12762286
141.64079 -59.058147 -17.371428 9011832
141.75687 -59.056881 -16.351168 7761770
141.86552 -59.055626 -15.330028 9735558
141.63475 -59.077808 -14.208064 7563874
141.69458 -59.10638 -13.25319 6708566
141.51765 -59.207283 -12.382201 5392706
141.70416 -59.255848 -11.541808 5655878
141.92458 -59.315441 -10.531282 5655878
144.04994 -59.174023 56.009422 8813686
143.78928 -59.179565 56.706158 8813686
143.75198 -59.087425 57.694805 8813686
143.5984 -59.04528 58.538979 10392717
143.37497 -59.005871 59.557793 9142651
144.06778 -58.968517 60.666477 8089963
143.69527 -58.967968 61.529789 8353646
143.39394 -58.967537 62.218964 11511449
144.08929 -58.965267 63.560429 10524555
143.69939 -58.964737 64.423759 12432555
143.84711 -58.963337 65.536507 14603214
143.98683 -58.961941 66.651855 13484989
143.5787 -58.96143 67.514687 10260876
144.33963 -58.959229 68.730133 8089963
143.91862 -58.958736 69.594971 8945527
143.57854 -58.958344 70.28511 11905695
144.33475 -58.791088 71.612793 10524302
143.85576 -58.691128 72.500191 10589838
140.64024 -57.73354 -32.205158 13551294
140.87819 -57.856277 -31.371655 11379868
141.25226 -57.824245 -30.313589 8354160
141.43852 -58.025108 -29.543495 8814711
141.62137 -58.145981 -28.873306 11379348
144.4525 -57.949593 72.019402 10261130
144.134 -57.785419 72.674446 8551030
143.78529 -57.56078 73.423492 13089967
140.51244 -56.507183 -33.953918 8813683
140.65425 -56.788063 -33.224148 10326664
140.92763 -56.925423 -32.270634 9668736
141.2524 -56.964561 -31.276947 10787471
141.4585 -57.178883 -30.433895 8551280
144.44733 -56.739929 72.888779 9208958
144.05479 -56.725464 73.562492 9932423
143.726 -56.513046 74.269226 9208958
140.51132 -55.39473 -35.204189 10721419
140.68694 -55.735554 -34.308487 8287341
140.98431 -55.812332 -33.352688 8024170
141.2811 -55.891537 -32.395809 8089963
141.47888 -56.11731 -31.564264 9011063
