# .PCD v0.7 - Point Cloud Data file format
VERSION 0.7
FIELDS x y z rgb
SIZE 4 4 4 4
TYPE F F F U
COUNT 1 1 1 1
WIDTH 1229
HEIGHT 1
VIEWPOINT 0 0 0 1 0 0 0
POINTS 1229
DATA ascii
-62.963444 14.618679 164.90346 9866885
-63.971478 14.402207 164.56627 9603713
-64.949692 14.372349 164.38254 10129801
-66.049988 14.202284 164.04041 9866371
-66.698654 14.213675 163.94081 9866371
-55.087399 15.98361 168.13855 10787726
-58.615398 15.512293 166.62137 9209467
-59.25452 15.521589 166.51521 9209467
-60.354179 15.349467 166.17912 6774359
-61.327782 15.318074 165.99031 7629411
-62.259373 15.215108 165.74577 8682356
-63.19215 15.112391 165.50114 9209467
-45.855503 16.565508 172.33569 9210491
-46.717403 16.576283 172.23436 9210491
-47.580643 16.58745 172.1329 10328202
-48.445229 16.599018 172.03156 8682867
-55.73457 15.99456 168.06065 9735296
-56.59938 16.009626 167.95796 8946039
-57.683792 16.029278 167.83162 10393741
-44.046856 17.925392 173.0535 8681843
-44.750607 17.780279 172.91461 9932167
-45.72784 17.485195 172.68752 10919825
-46.807156 17.499426 172.56087 9999494
-47.569412 17.201736 172.35898 9999493
-48.275227 17.057583 172.22003 8682867
-43.269157 18.84169 173.483 9931907
-43.894756 18.617826 173.32491 8681843
-44.757515 18.628948 173.22359 8551025
-45.837685 18.643518 173.09711 9276027
-46.68063 18.42314 172.91368 11709084
-41.863831 19.763607 174.07648 9997957
-42.997181 19.584927 173.81355 11445144
-43.979939 19.548523 173.65666 10195079
-44.843758 19.560015 173.55302 7433313
-45.470932 19.335699 173.39452 8420208
-39.471584 20.727587 175.2155 7433058
-40.370243 20.569738 174.94572 8946296
-41.140385 20.493389 174.76009 8880246
-42.210854 20.501793 174.59076 9405307
-43.236713 20.264578 174.23862 9273977
-43.879612 20.270374 174.13753 9931907
-31.976711 21.415451 178.71083 9931910
-32.97242 21.362972 178.08853 9274492
-33.772144 21.325939 177.62762 8090986
-34.600151 21.308552 177.32655 7564642
-35.690151 21.472527 177.22905 8222316
-36.468014 21.277046 176.69731 6840919
-37.50407 21.26083 176.35025 7564642
-38.332012 21.248503 176.07382 7433058
-39.377785 21.240479 175.78284 7367010
-40.434399 21.239103 175.5416 7827302
-41.06731 21.238136 175.39201 7564642
-81.946869 2.8053918 157.33336 10130825
-82.562759 2.5871415 157.12909 9801604
-83.364273 2.5876758 156.81662 11248536
-84.344353 2.5876462 156.38251 10656655
-85.325294 2.5877149 155.94815 9209467
-86.110817 2.5878494 155.60025 10130568
-87.093681 2.5880828 155.16505 9998983
-88.077644 2.5884311 154.7294 9341053
-88.86573 2.5887873 154.38051 9735811
-89.852013 2.5893414 153.94388 8617331
-90.839554 2.589936 153.50679 9275261
-91.630684 2.5904882 153.15665 9340541
-92.620934 2.5912876 152.71837 10064009
-93.612663 2.5922019 152.27946 9932423
-94.407234 2.5929754 151.92789 9998215
-95.402092 2.5940359 151.4877 9472383
-96.398613 2.5952027 151.04681 9406845
-97.197182 2.5962207 150.69351 10787727
-97.996994 2.5973132 150.33971 12629416
-98.998619 2.5987318 149.89668 11379864
-100.00216 2.6002481 149.45284 8419696
-100.80656 2.6015596 149.09709 10853268
-101.72398 2.5583036 148.67348 9406590
-102.7122 2.6496058 148.27237 6906456
-103.63346 2.606585 147.84711 7432801
-104.44454 2.6081879 147.48848 7104098
-105.36945 2.5651031 147.06161 9012603
-106.36692 2.657094 146.65665 8485238
-107.29626 2.6142335 146.22798 8418928
-108.11489 2.6161273 145.86609 7892840
-108.95763 2.3282871 145.37755 9208442
-109.97623 2.4513328 144.97574 8682357
-110.94238 2.39711 144.52609 8551799
-111.76899 2.398994 144.16074 8748920
-112.5976 2.4009924 143.79456 9800836
-113.57085 2.3466189 143.34174 9011064
-114.60415 2.4709439 142.93393 7958636
-115.51408 2.4084082 142.50584 9273979
-116.35223 2.4106781 142.13554 9077116
-117.19265 2.413029 141.76427 8946044
-118.1097 2.3502679 141.33295 10526354
-119.09197 2.4183443 140.92522 9209470
-120.07778 2.4869025 140.5161 9274493
-121.00362 2.4243121 140.08095 8418928
-121.85728 2.4269965 139.70395 9142907
-122.71351 2.4297442 139.32579 8879991
-123.57247 2.4325552 138.94662 9209210
-124.50947 2.3696749 138.50658 11972000
-125.51506 2.4390235 138.08931 10590864
-126.5392 2.2107501 137.54431 10065291
-127.41032 2.2134798 137.16003 7828079
-128.28441 2.2163062 136.77455 8551285
-129.15251 2.2190335 136.37834 9537921
-129.99954 2.2214193 135.95575 9143163
-130.91216 2.457619 135.59682 8089963
-131.76472 2.4604986 135.17155 8814457
-132.62001 2.4634244 134.74498 8814715
-133.47801 2.4663978 134.31708 7893615
-80.780731 3.6820326 157.8642 8682867
-81.623192 3.46573 157.63477 9143674
-82.717651 3.4707699 157.42159 9275004
-83.517647 3.4716282 157.10283 9932934
-84.49958 3.4720209 156.66811 12169380
-85.482399 3.4725375 156.23299 10393484
-86.269386 3.4730701 155.88469 9077625
-87.254211 3.473768 155.44882 10064776
-88.240074 3.4746478 155.01251 9735555
-89.029655 3.4754522 154.66312 12564654
-90.017868 3.4765372 154.22589 9603969
-91.007332 3.4777961 153.78815 8617331
-91.79995 3.4788971 153.43752 9208955
-92.792213 3.4803607 152.9987 9998215
-93.785881 3.4819808 152.5592 9800581
-94.582039 3.4833522 152.20714 9537665
-95.379356 3.4847975 151.85466 9077369
-96.377609 3.4867709 151.41325 9735810
-97.377586 3.4888415 150.97128 9603455
-98.179008 3.4906068 150.617 10195591
-99.182701 3.4929228 150.17343 9669505
-100.18826 3.4953871 149.72905 8551025
-100.99435 3.4974217 149.37285 8879990
-101.80183 3.4996042 149.01608 8090730
-102.81335 3.5024114 148.56923 7301214
-103.82705 3.5053658 148.12143 6511443
-104.63985 3.5077918 147.76244 6314066
-105.45425 3.510366 147.4028 8880507
-106.47468 3.5136786 146.95213 9142910
-107.49757 3.5171051 146.50047 8879995
-108.31797 3.5199721 146.13831 8879478
-109.14013 3.5229115 145.77531 8089963
-110.07761 3.4809864 145.34334 8089963
-111.09016 3.5756195 144.9328 8222062
-112.03265 3.5339577 144.49869 9340285
-112.86356 3.5373118 144.13203 9208955
-113.69649 3.5407381 143.76448 9143163
-114.64611 3.4991329 143.32722 7498600
-115.67322 3.5949686 142.91078 9273979
-116.62859 3.553561 142.47102 8747635
-117.47135 3.557426 142.09933 7959919
-118.31646 3.5614376 141.72664 9144704
-119.16387 3.5655215 141.35292 9407875
-120.13004 3.5241556 140.90855 9143931
-121.17687 3.6216073 140.48427 9801093
-122.14982 3.5805287 140.03726 9669251
-123.00885 3.5850484 139.65907 7433063
-123.87049 3.5896654 139.27975 8682867
-124.73489 3.5943534 138.89926 9077625
-125.602 3.5991888 138.51759 9143418
-126.48643 3.3051496 138.00801 8551543
-127.42853 3.3765767 137.61996 7959408
-128.3774 3.3816831 137.20229 8748666
-129.38919 3.4539878 136.76741 8748150
-130.31316 3.391685 136.28178 8550770
-131.16521 3.3958988 135.85742 9537405
-132.01988 3.4002094 135.43173 9340542
-132.87724 3.4046001 135.00476 8814715
-133.73729 3.4090538 134.57646 7104099
-134.60008 3.4136543 134.14682 8946555
-135.39597 3.3232837 133.71149 10788760
-136.26778 3.185807 133.21873 9736073
-137.13872 3.1902387 132.78499 7169634
-138.08017 3.432653 132.41415 5197382
-138.95761 3.4377019 131.97737 4342073
-140.05913 3.4442027 131.42917 5196612
-140.94347 3.4495592 130.98909 7037274
-79.882858 4.4130511 158.29361 9011835
-80.676392 4.3443866 158.12737 9933190
-81.779419 4.3513775 157.93414 9012088
-82.873131 4.357873 157.71521 9735555
-83.671616 4.3590298 157.39017 9735555
-84.655403 4.359828 156.95476 11445915
-85.640099 4.3607845 156.51901 10919829
-86.42865 4.3616405 156.17012 10196106
-87.415337 4.3628869 155.73366 9669762
-88.403099 4.3642888 155.29671 9209211
-89.194206 4.3655162 154.94687 9867141
-90.184326 4.3672328 154.50899 9341054
-91.175743 4.3691058 154.07068 9011833
-91.969948 4.3706794 153.71956 9472127
-92.765114 4.3723769 153.36803 9998215
-93.760582 4.3747201 152.92809 9011833
-94.757576 4.3771291 152.48752 8617075
-95.556404 4.3792472 152.13457 8419696
-96.556694 4.3820014 151.69264 10787728
-97.558693 4.3849359 151.25003 9603455
-98.361717 4.3873744 150.89536 10195591
-99.1661 4.3899612 150.54016 9603454
-100.17344 4.3933229 150.09538 8879990
-101.18284 4.3968334 149.64972 7958888
-101.99199 4.3997893 149.29253 7564386
-102.91472 4.3581362 148.86719 7366495
-103.90911 4.452332 148.46449 7432545
-104.83591 4.4109445 148.03745 6182480
-105.65206 4.4144168 147.6774 7959151
-106.46983 4.4179616 147.31659 7038307
-107.49455 4.4225774 146.86462 8879993
-108.52186 4.4273915 146.41153 10853007
-109.3458 4.4313288 146.04822 12432039
-110.08538 4.3591142 145.69174 9537151
-111.15416 4.2125397 145.15959 8550514
-112.19151 4.217566 144.70221 8945783
-113.02372 4.2217927 144.33528 9471871
-113.85805 4.226068 143.96758 9669251
-114.69447 4.2304907 143.5988 7564135
-115.74314 4.2362022 143.13667 8682101
-116.79509 4.2420602 142.67313 9340286
-117.63923 4.2468729 142.30115 8683384
-118.48582 4.2517829 141.92828 8092019
-119.33501 4.2568402 141.55461 8157808
-120.18657 4.2619944 141.17999 8749684
-121.04063 4.2672949 140.80426 9142907
-122.11199 4.2740803 140.3331 9801093
-123.18711 4.2810097 139.86026 8024943
-124.05031 4.2867002 139.48067 7827819
-124.91619 4.2925367 139.09999 9603968
-125.78491 4.2984695 138.71806 8814710
-126.65638 4.3045001 138.33495 10262156
-127.53075 4.3107262 137.95059 8880508
-128.4081 4.316999 137.56503 9735559
-129.2845 4.3233199 137.17404 10459281
-130.35216 4.3303337 136.64969 8287083
-131.41919 4.3372946 136.11891 8681835
-132.22421 4.6259389 135.83534 9734523
-133.20003 4.585856 135.33078 8419957
-134.06261 4.5922236 134.90201 9538433
-134.92807 4.5987372 134.47182 8748917
-135.80006 4.4630356 133.97969 10920344
-136.60086 4.3740258 133.54247 9078144
-137.47447 4.3805304 133.10822 9538434
-138.35112 4.3871465 132.67255 8683897
-139.23082 4.3938766 132.23531 7631467
-140.11369 4.4007683 131.79665 5393220
-140.93016 4.1673651 131.29193 6708566
-141.81883 4.1740994 130.85023 10260871
-142.71089 4.1809053 130.40692 9142648
-143.60625 4.1878576 129.96201 7433828
-144.50505 4.1949291 129.51541 9144449
-145.47961 4.4445028 129.13092 11578018
-146.38602 4.4523163 128.68083 10327179
-147.29607 4.4602742 128.229 8616823
-148.20976 4.4683781 127.77532 7564393
-148.89742 4.4745655 127.43404 8090736
-77.86895 5.8734303 159.19043 8090991
-78.953667 5.4946656 158.858 10131087
-79.987877 5.4475141 158.65698 12959412
-80.869576 5.454607 158.50305 13749185
-81.83976 5.1953425 158.23514 10262411
-135.34279 5.3146548 134.55981 7564643
-135.99559 5.3205862 134.23579 7301475
-136.86839 5.3285403 133.80254 6643547
-137.74422 5.3366427 133.36789 9538434
-138.623 5.3449407 132.93176 10262156
-139.57368 5.5940685 132.5591 10130571
-140.4593 5.6031084 132.11987 6708566
-141.27837 5.3710599 131.61452 6050636
-142.16991 5.3799586 131.1723 9010806
-143.06479 5.3890696 130.72852 9011576
-143.89148 5.1555362 130.21867 6512978
-144.7926 5.1644802 129.77168 8354934
-145.69719 5.1735964 129.32297 9341055
-146.60545 5.1828561 128.87259 9537918
-147.51721 5.1922636 128.42044 8879994
-148.43288 5.2018404 127.96664 8551286
-149.35243 5.2116122 127.51109 9932937
-150.27602 5.2215533 127.05393 9275261
-151.20349 5.2316413 126.59477 6511954
-152.1349 5.2418737 126.13381 8683128
-152.83603 5.2497201 125.7868 9867142
-153.6178 5.5053377 125.50204 7893096
-154.56013 5.5166059 125.03602 9340543
-155.50667 5.5280199 124.56792 10656405
-156.4575 5.5396271 124.09769 8814203
-76.486992 6.7482085 159.75888 7563619
-77.105438 6.5321131 159.56918 9998471
-77.980652 6.5402722 159.41687 7826791
-79.078278 6.5507274 159.22588 9406336
-80.093193 6.4862108 159.02185 13354171
-80.803551 6.3443675 158.84341 16776175
-143.57381 6.3624177 130.87566 10261132
-144.17787 6.1272893 130.47646 7433568
-145.08134 6.1381564 130.02902 8091502
-145.98836 6.1491432 129.57999 10985106
-146.89908 6.1603527 129.12932 8551280
-147.71249 6.0889664 128.69345 10392971
-148.50209 6.1803174 128.33679 9011838
-149.42336 6.1920624 127.88146 8748923
-150.21927 6.2843218 127.52209 9735558
-151.0448 6.2132301 127.08022 8025195
-151.97679 6.225512 126.61979 7564651
-152.91278 6.2379894 126.15741 9472386
-153.85289 6.250711 125.69304 10064522
-154.7972 6.2636271 125.22672 9538438
-155.74574 6.2767639 124.75834 9866890
-156.37953 6.0363717 124.34223 8814203
-75.324257 7.625246 160.28917 11181972
-76.160217 7.4116521 160.06189 8090219
-77.252983 7.4231048 159.87209 9143163
-78.130066 7.4324861 159.71985 8089963
-79.1008 7.3313208 159.51016 7565161
-147.57848 6.9025917 129.09709 10130054
-148.49677 6.9155917 128.64369 9472387
-149.41891 6.9287863 128.18854 8551288
-150.34492 6.9422259 127.73158 9011838
-151.40387 7.122664 127.27728 7564651
-152.28624 7.218616 126.87621 8617336
-153.22478 7.2332902 126.41344 9275264
-154.1675 7.2481842 125.94874 9538438
-155.11443 7.2633228 125.48197 8354166
-155.74727 7.0239568 125.0668 7564651
-73.580742 8.94205 161.08498 7563619
-74.436981 8.5954943 160.80501 8221548
-75.192329 8.4258518 160.60825 11181972
-76.306023 8.3048449 160.36584 9997957
-77.401146 8.3178463 160.17624 8353135
-78.022507 8.1014452 159.98599 7563619
-72.418587 9.8209877 161.61589 10063749
-73.469078 9.6109915 161.35188 8155755
-74.557457 9.6252146 161.16385 7958377
-75.452774 9.5027094 160.95972 8945014
-76.357422 9.1557083 160.67099 10984593
-71.039932 10.698114 162.18457 11710114
-71.65522 10.482522 161.99567 9341310
-72.522606 10.494439 161.84612 9996929
-73.610016 10.509689 161.65874 9142135
-74.615822 10.449051 161.45779 8813171
-75.320564 10.309215 161.28108 8089963
-70.782463 11.409798 162.4446 10129801
-71.78093 11.380749 162.27719 8748147
-72.655869 11.394666 162.14095 9996929
-73.62294 11.297235 161.94342 8352876
-68.978035 12.754968 163.1378 11182230
-69.739128 12.468727 162.9304 11050644
-70.829353 12.48719 162.76279 9800836
-71.922867 12.506104 162.59474 9537664
-72.68869 12.219157 162.38635 10457479
-68.217445 13.640661 163.52635 9867397
-69.00544 13.579706 163.38268 10328203
-69.876945 13.595477 163.24904 10326924
-70.876297 13.568803 163.08217 9208699
-65.571106 14.668118 164.56186 9537921
-66.226364 14.681008 164.47681 10262156
-67.111977 14.539606 164.20047 9274235
-68.100037 14.479327 163.98183 10327692
-69.087349 14.25751 163.57451 10656913
-69.959976 14.274158 163.44095 10524816
-70.615746 14.28689 163.34056 8814198
-62.678417 15.574775 165.94926 8353646
-63.566402 15.432558 165.68195 8222316
-64.333946 15.367019 165.49525 9735299
-65.413094 15.385751 165.31839 9801093
-66.425797 15.167536 164.97037 9867142
-67.075691 15.179321 164.86418 10262156
-49.094456 16.608021 171.95547 8682867
-49.744595 16.61722 171.87947 9472126
-50.82999 16.633085 171.75272 8682867
-51.9175 16.64958 171.62585 9011576
-58.771633 16.04974 167.70728 12762802
-59.863335 16.070999 167.58446 9274493
-60.958729 16.09314 167.46347 9603202
-61.61792 16.106882 167.39191 9011064
-47.923103 17.861574 172.55696 9341052
-48.879078 17.528524 172.31845 9275003
-49.81633 17.310913 172.12436 9472126
-50.811321 17.279821 171.99146 8945783
-46.999393 18.737381 172.98953 9604992
-48.003788 18.674852 172.84409 9603967
-49.089901 18.691584 172.71764 9998211
-49.912312 18.239565 172.45216 10195592
-50.541119 18.017099 172.29411 9406078
-45.514843 19.802631 173.55963 8420208
-46.142681 19.578541 173.40123 8748917
-47.010181 19.591534 173.30006 9867395
-48.0965 19.608479 173.17368 9866882
-48.943119 19.388359 172.98996 9209467
-43.328236 20.757357 174.60503 7826533
-44.227711 20.601778 174.33684 7170141
-45.214695 20.529682 174.11887 8157036
-46.290134 20.541172 173.95107 9406591
-47.10146 20.303944 173.63351 9734788
-47.74725 20.311436 173.5325 10853004
-35.216602 21.87838 178.19965 8617331
-35.811241 21.84795 177.83031 9537664
-36.833271 21.818848 177.3848 10195338
-37.665424 21.805616 177.10565 9208699
-38.705921 21.790756 176.76479 7827048
-39.760883 21.785187 176.49324 6644058
-40.60984 21.784178 176.29959 6249814
-41.625015 21.64686 175.86351 7234910
-42.389103 21.378279 175.32347 8221290
-43.420071 21.252583 174.97314 7037274
-44.496609 21.26309 174.80447 8617330
-38.87188 22.339275 177.51877 8089963
-110.43038 4.6643143 145.66118 8089963
-111.05172 4.6676512 145.38734 9537409
-112.08981 4.6734095 144.92987 9142906
-113.13085 4.679347 144.47118 9208955
-113.96606 4.6841717 144.10321 11380380
-114.80343 4.6891923 143.73438 8089963
-115.6429 4.6943612 143.36458 8945015
-116.69558 4.7009182 142.90109 11050388
-117.75176 4.7076716 142.43639 9340286
-118.59953 4.7132802 142.06369 8092019
-119.44971 4.7189364 141.68982 7828326
-120.30228 4.7248397 141.315 8749684
-121.15733 4.7307897 140.93915 9143931
-122.01493 4.7368865 140.56223 9077115
-123.09076 4.7446661 140.08943 9011579
-124.17045 4.7526407 139.61499 7827819
-125.03743 4.7592258 139.2341 8814710
-125.90709 4.7659574 138.85208 9538433
-126.77969 4.772737 138.46881 9143675
-127.65511 4.7797127 138.08432 8157043
-128.53354 4.7868338 137.69861 10459281
-129.4102 4.7939043 137.30663 11183003
-130.26494 4.8001842 136.88716 9537662
-131.11873 4.8064132 136.46274 8681835
-82.145447 5.7992139 158.40384 9406590
-83.068436 5.4719133 158.08397 9406590
-83.864937 5.4733429 157.75098 9669762
-84.851097 5.474658 157.31473 10722194
-85.838158 5.4761515 156.87817 11051415
-86.628586 5.4775133 156.52866 9406590
-87.557961 5.4232764 156.09531 9275004
-88.534561 5.5452418 155.71167 9077625
-89.400864 5.4832397 155.30313 9209211
-90.19474 5.4851804 154.95232 9274747
-91.188393 5.4877925 154.51326 10655888
-92.183388 5.4906192 154.0737 10393230
-92.980576 5.4929729 153.72163 9669507
-93.934753 5.2712913 153.21016 8683126
-94.933769 5.2745309 152.76901 9800581
-95.734215 5.2772222 152.41557 9077370
-96.647194 5.2354465 151.99451 12563113
-97.629013 5.3291178 151.59718 10590093
-98.545174 5.2876935 151.17484 10195591
-99.351181 5.2910032 150.81918 8485486
-100.36061 5.2952957 150.37387 9143161
-101.37205 5.2997952 149.92767 8879990
-102.18288 5.3035493 149.57005 9734787
-102.99522 5.3074512 149.21185 6642772
-104.01284 5.3124924 148.76315 6511443
-105.03275 5.3177476 148.31352 6709340
-105.85059 5.3220687 147.95311 7827822
-106.67012 5.3265867 147.5919 7038307
-107.60455 5.286305 147.1619 8945785
-108.61308 5.3833032 146.75409 8814452
-109.55228 5.3433714 146.32217 13024431
-110.37984 5.3484797 145.95767 10063495
-111.20937 5.3537107 145.59241 9537409
-112.24915 5.3604918 145.1346 9208700
-113.29189 5.3674536 144.67555 8748149
-114.12856 5.3732009 144.3074 8879735
-114.96741 5.3790956 143.93848 8616307
-115.80856 5.385138 143.56865 9668737
-116.65197 5.3912764 143.19806 11182489
-117.70956 5.3992543 142.73335 9603458
-118.77058 5.4073768 142.26729 8946809
-119.62219 5.4140801 141.89322 6906968
-120.47625 5.420907 141.5182 8289133
-121.3328 5.4279308 141.14206 9341564
-122.1919 5.4350762 140.76483 9998215
-123.05366 5.442318 140.38657 9472129
-124.03593 5.404129 139.93661 9340285
-125.10146 5.5068779 139.50662 9538175
-126.09098 5.4690647 139.05363 8814710
-126.9651 5.4770417 138.67015 8354160
-127.84214 5.4851651 138.28543 8354164
-128.72215 5.4934602 137.89949 10064524
-129.59918 5.5016799 137.50597 10064524
-130.4543 5.5089841 137.08501 9603714
-131.30957 5.516335 136.66023 9208179
-132.16754 5.523859 136.23425 11313555
-133.1445 5.4850893 135.72961 9603453
-134.10771 5.5412507 135.27107 12433069
-135.00761 5.6686444 134.87354 8748917
-136.12872 5.7986112 134.3665 7564131
-137.00266 5.8074651 133.93306 6643547
-137.87956 5.8163648 133.49814 8814712
-138.75945 5.8255115 133.06186 10262156
-80.438873 6.7870474 159.07166 11709089
-81.150444 6.645503 158.89305 11709089
-82.172752 6.5814114 158.68785 9866630
-83.26461 6.5912442 158.45442 10919829
-84.059196 6.5928721 158.11343 9867141
-84.960678 6.5496011 157.69688 10392974
-85.926331 6.6414113 157.306 10459022
-86.82943 6.5985179 156.88881 9143418
-87.622459 6.6005177 156.53839 9209211
-88.614891 6.6032319 156.09991 9275004
-89.608482 6.6061778 155.66104 9209211
-90.404305 6.6086745 155.30965 10523786
-91.400391 6.6120925 154.86981 9340283
-92.397842 6.6157503 154.42947 9735042
-93.196938 6.6188431 154.0768 9341057
-94.092468 6.3405895 153.56873 9538435
-95.081734 6.4655943 153.18066 9998216
-95.957481 6.4049006 152.76854 7892840
-96.761116 6.4085631 152.41403 9866116
-97.767448 6.4133658 151.97025 10655630
-98.775589 6.4183884 151.52579 11182228
-99.583649 6.422596 151.1696 8813938
-100.39299 6.4269681 150.81284 7498591
-101.40679 6.432662 150.36617 8353390
-102.42265 6.438592 149.91859 9734531
-103.23709 6.4434924 149.55988 8616306
-104.05306 6.4486222 149.20055 8156269
-105.07533 6.4552341 148.75041 8946301
-106.09998 6.4620595 148.29933 7564650
-106.86032 6.375885 147.92804 7630699
-107.69423 6.2444749 147.5061 8682867
-108.72553 6.2517085 147.05219 9077624
-109.75957 6.2591639 146.59721 8222317
-110.58895 6.2652693 146.23241 8418928
-111.42041 6.2716236 145.86684 8945272
-112.25385 6.2781005 145.50058 8945272
-113.29874 6.286459 145.04164 9011579
-114.3467 6.2950554 144.58147 8089963
-115.1876 6.3021483 144.21234 8879479
-116.03063 6.3093891 143.8423 9537923
-116.87595 6.3168268 143.47131 7958633
-117.72355 6.3243856 143.0994 7563619
-118.78649 6.334106 142.63312 9142908
-119.85298 6.3440719 142.16533 7565154
-120.70901 6.3522964 141.78992 8486512
-121.56755 6.3606424 141.41348 9340537
-122.42869 6.3691859 141.03595 11905694
-123.29246 6.3778753 140.65735 9472129
-124.15887 6.3867879 140.27762 10063747
-125.02803 6.3958955 139.89679 8090470
-126.01876 6.3593912 139.44383 8485745
-127.09409 6.4650888 139.01067 8748918
-128.09239 6.4290857 138.55452 7893613
-128.9745 6.4390025 138.16832 9011838
-129.8521 6.4486961 137.77277 8288116
-130.70763 6.4573483 137.34961 9011838
-131.56497 6.4661231 136.92447 8747887
-132.42496 6.4751439 136.49805 8681837
-133.28761 6.4842873 136.07037 8945271
-134.15308 6.4936271 135.64139 10327437
-135.02132 6.5031886 135.21109 9143675
-135.89244 6.5128961 134.7794 9406591
-136.76645 6.5228 134.34634 7103582
-137.7618 6.4862227 133.83351 8222576
-138.74393 6.5456705 133.36678 10130572
-139.62785 6.5561872 132.92905 11577760
-140.51488 6.5668998 132.48985 9998727
-141.40517 6.5778337 132.0491 6708566
-142.29872 6.5889382 131.60677 7432032
-143.0696 6.6795454 131.25861 9800837
-143.94215 6.8527503 130.89366 9011576
-144.84563 6.8648672 130.44684 7630696
-145.52562 6.8740649 130.11073 11511449
-79.488503 7.6710005 159.56679 9736326
-80.333763 7.4568796 159.33765 9800836
-81.219818 7.4670014 159.18416 10590609
-82.331276 7.4799423 158.99158 10985367
-83.382843 7.2656031 158.67769 10261643
-84.176247 7.2672801 158.33188 10261643
-84.968048 7.2689571 157.98177 12433069
-85.958763 7.2712903 157.54396 9011321
-86.9505 7.2738709 157.10577 9340797
-87.744659 7.2761445 156.75494 10262156
-88.73848 7.279273 156.31601 9011832
-89.733559 7.2826509 155.87669 9209211
-90.530518 7.2855711 155.52487 10786958
-91.528114 7.2894464 155.08461 9011575
-92.527069 7.293519 154.6438 9998470
-93.327332 7.2970858 154.29079 9801606
-94.12867 7.3007512 153.93738 9341057
-95.131935 7.3056178 153.49495 8945787
-96.136826 7.3107839 153.05197 9866116
-96.942085 7.3150444 152.69704 7563619
-97.748512 7.3195539 152.34166 12234149
-98.758469 7.3254628 151.89673 10919056
-99.770325 7.3316207 151.45103 10458505
-100.58141 7.3366747 151.09393 6511954
-101.59725 7.3433766 150.6467 9537150
-102.61524 7.3503261 150.19859 8879478
-103.43138 7.3561239 149.83945 9734531
-104.24904 7.3620706 149.47964 9998726
-105.06835 7.3682137 149.11928 9735557
-106.09483 7.3761873 148.66783 9143680
-107.15865 7.2319179 148.13889 8091761
-107.89796 7.1614709 147.78331 8617590
-108.72462 7.1682057 147.42009 9011575
-109.70844 6.9466295 146.89555 8419440
-110.74677 6.9552555 146.43971 9603458
-111.57967 6.9624333 146.07407 9537409
-112.41467 6.969708 145.70763 9340289
-113.25163 6.9772305 145.34039 9208703
-114.30089 6.9869256 144.88011 9866885
-115.3533 6.9968009 144.41853 9537666
-116.1978 7.0049644 144.04822 8552056
-117.04456 7.0133252 143.67699 8748150
-117.89364 7.0218825 143.30478 7038302
-118.74505 7.0305877 142.93164 8354162
-119.81283 7.0417609 142.46382 8156525
-120.88424 7.0532126 141.99446 9077878
-121.74422 7.0626078 141.61777 9866624
-122.60688 7.0722494 141.24002 7893349
-123.47216 7.0820379 140.86118 6446422
-124.34011 7.0920725 140.48119 8090470
-125.21085 7.1022539 140.1001 6643539
-126.08435 7.1126323 139.71783 8814195
-126.96069 7.1232071 139.33447 8485747
-128.06041 7.1367416 138.85339 8222576
-129.16447 7.1506033 138.37057 8025199
-130.04201 7.1614208 137.97305 7564651
-130.89827 7.1710968 137.5488 9011838
-131.75714 7.1810198 137.12334 8090475
-132.61867 7.1910896 136.69664 8681843
-133.54823 7.4411206 136.33485 9274236
-134.41579 7.4519825 135.90549 9603201
-135.28613 7.4630666 135.47475 8682612
-136.15938 7.4743724 135.04265 9340798
-137.03557 7.485898 134.60921 9011577
-137.91475 7.4976454 134.17435 7695977
-138.79695 7.5095901 133.73804 9209473
-139.68233 7.52178 133.30031 9670023
-140.57082 7.5341668 132.86104 9867143
-141.46252 7.546824 132.42026 8484976
-142.35756 7.5597014 131.97794 6510930
-143.25591 7.5727758 131.53406 8813685
-144.15784 7.5860953 131.08867 11050902
-145.06342 7.5996361 130.64186 7564651
-145.97408 7.4668164 130.13199 10327434
-146.73619 7.2824435 129.67496 9143160
-147.72734 7.3950014 129.22652 9932676
-148.64682 7.4090486 128.77298 9538177
-149.57021 7.4232917 128.31763 9932937
-150.49742 7.4377804 127.86044 8550772
-151.1953 7.4487557 127.51641 8089962
-78.365952 8.4042187 160.03685 8091246
-79.382469 8.3421841 159.8335 9275776
-80.488594 8.356163 159.64233 9867399
-81.376534 8.3676348 159.48894 10261388
-82.004585 8.1504526 159.29726 9537665
-137.45799 8.2140589 134.69836 9735812
-138.11897 8.2237806 134.37186 8024944
-139.00287 8.2370224 133.93526 8814715
-139.88983 8.2505102 133.49721 7893615
-140.78003 8.264246 133.05768 8090479
-141.74402 8.5227098 132.68225 8747892
-142.64153 8.5373859 132.23975 7366239
-143.54265 8.552331 131.79581 8287598
-144.4471 8.5675211 131.35025 11512220
-145.3551 8.5829859 130.90309 9998985
-146.26668 8.5987425 130.45427 9998985
-147.18314 8.4672937 129.94205 9275003
-147.94998 8.2836332 129.483 7827815
-148.87254 8.1513834 128.96744 9143419
-149.79776 8.1671762 128.51181 10196108
-150.72688 8.1832113 128.05435 8353134
-151.65996 8.199542 127.59499 7564134
-152.49275 8.1313915 127.15081 8222579
-153.30251 8.2286358 126.78654 9472642
-154.11533 8.3264589 126.42103 9209726
-154.85205 8.1734705 125.98969 10196367
-76.653976 9.7659225 160.84367 10260871
-77.587288 9.4418755 160.5583 10853522
-78.468605 9.4541368 160.40643 10591634
-79.508926 9.4124422 160.20634 9736326
-80.556969 9.182765 159.93547 11380381
-145.80257 9.3274927 130.98769 11512220
-146.48807 9.3404846 130.65065 9801091
-147.40511 9.3579845 130.19977 9143417
-148.35255 9.2115345 129.66591 7564643
-149.07222 9.060401 129.2439 8617073
-149.87004 9.1581516 128.8858 10392718
-150.67076 9.2564983 128.52647 8418927
-151.50127 9.1900845 128.08414 7037274
-152.43893 9.2087097 127.62353 7169632
-153.3806 9.227581 127.16096 9209726
-154.22099 9.1611881 126.71367 9209726
-74.95517 10.754096 161.51016 8089963
-75.661011 10.614523 161.33336 9537150
-76.673401 10.554679 161.13156 9997700
-77.774376 10.571622 160.94232 10985623
-78.571587 10.508622 160.77757 8946556
-79.284073 10.368844 160.59952 7039331
-150.09879 9.9073095 129.0816 9537408
-150.79793 9.9220839 128.73846 8616306
-151.73344 9.9419622 128.27936 7563618
-152.67299 9.9621868 127.81841 8353904
-153.61661 9.9827557 127.3556 9209726
-74.003624 11.641649 162.0029 9997702
-74.844551 11.429435 161.77927 8616307
-75.721596 11.443542 161.62878 10129286
-76.821457 11.461588 161.44022 9735043
-77.887115 11.25244 161.17383 7039331
-73.019928 12.525304 162.42618 10851980
-73.871353 12.315222 162.22751 10129288
-74.97477 12.335233 162.05814 8879479
-75.860245 12.351614 161.9221 9668995
-76.712196 12.140392 161.7103 7564647
-71.435616 13.850429 163.07837 8090987
-72.065361 13.636533 162.91373 8090987
-72.915863 13.426894 162.71524 9668994
-74.018158 13.448382 162.5466 10063753
-75.067657 13.378438 162.35869 10918805
-75.728958 13.028403 162.14786 9142651
-69.302246 14.744728 164.08151 10656913
-70.186745 14.763922 163.96906 9209463
-71.283127 14.592222 163.58443 8419694
-72.26899 14.563213 163.37123 8090987
-73.031807 14.335397 162.97142 8420212
-73.914772 14.35378 162.83661 9012862
-66.564285 15.642604 165.31262 10262156
-67.458611 15.501647 165.0452 9735557
-68.450653 15.441578 164.82292 9670786
-69.541557 15.462749 164.64581 9736323
-70.343079 15.241383 164.33282 9209463
-71.000145 15.254511 164.22639 9208435
-52.789326 16.663292 171.52438 8682867
-53.881462 16.681032 171.39735 9931910
-54.97599 16.699387 171.27042 10853012
-62.058289 16.116211 167.34462 7761509
-62.94136 16.135298 167.25122 9406078
-64.04866 16.159929 167.13618 6511954
-64.715263 16.175163 167.06813 9011579
-51.363262 17.566336 172.02873 9406078
-51.992496 17.344818 171.87091 8814453
-52.865643 17.359127 171.76947 8814453
-53.959415 17.377665 171.64265 10195082
-54.809582 17.160145 171.45921 9010808
-49.984543 18.938807 172.69864 10064262
-51.086727 18.549625 172.42201 9932166
-52.118042 18.509048 172.28122 9011576
-52.939312 18.430101 172.15207 9208699
-53.599014 18.068708 171.93933 9405822
-49.265247 19.705399 173.06638 9341052
-50.192944 19.690022 172.94751 9932934
-51.232044 19.614628 172.79317 10195594
-52.2188 19.444881 172.61067 8682355
-47.417324 20.800608 173.96667 9734788
-48.445427 20.566561 173.61569 9735041
-49.309826 20.577864 173.48346 8945782
-50.264214 20.470388 173.26849 9932934
-51.223766 20.365063 173.06808 9932934
-42.945873 21.784592 175.77121 8616048
-43.583508 21.785576 175.6283 7958631
-44.646549 21.787941 175.39098 8880502
-45.639553 21.531471 174.88507 9275260
-46.490421 21.534866 174.69917 10919316
-47.472012 21.495447 174.49551 9734788
-48.600208 21.310711 174.16724 9734788
-39.294582 22.336391 177.40556 8089963
-39.934109 22.33532 177.25919 6249814
-40.999958 22.334198 177.01616 4473660
-42.066395 22.334059 176.77451 3749937
-42.919643 22.33465 176.58211 7037274
-43.77335 22.335835 176.39064 7366751
-83.461891 7.7164421 158.82686 9537665
-84.254402 7.7181187 158.47783 10985367
-85.047058 7.719944 158.12755 10261388
-86.038704 7.7225089 157.68933 8550514
-87.031334 7.7253556 157.25085 8616819
-87.826378 7.727879 156.89978 10262156
-88.821129 7.7312565 156.46051 9209211
-89.817162 7.7348328 156.02086 8814197
-90.614929 7.7380028 155.66876 10260871
-91.613464 7.7422256 155.2282 9734784
-92.61338 7.7466474 154.78714 9340798
-93.41449 7.750463 154.43385 9341057
-94.216705 7.754427 154.08018 8880507
-95.220879 7.7597275 153.6375 8485492
-96.226807 7.7652087 153.19423 10326668
-97.032906 7.7698679 152.8391 7563619
-97.840157 7.7746763 152.48344 11708060
-98.851151 7.7810349 152.03825 10326920
-99.864014 7.78759 151.59225 10458505
-100.67587 7.7931433 151.23491 10194820
-101.4892 7.7988949 150.877 10260873
-102.50794 7.8062778 150.42879 9340286
-103.52883 7.8139901 149.97966 11050645
-104.34738 7.820385 149.61975 9998726
-105.16756 7.8269777 149.25914 9735557
-106.19514 7.8354836 148.80748 8617593
-107.2254 7.8443017 148.35522 7039331
-108.05175 7.8516369 147.9926 11906725
-108.87987 7.85917 147.62924 9340539
-109.77174 7.591073 147.12688 8945783
-110.79102 7.6926999 146.71683 9011577
-111.73972 7.6556664 146.28223 9997703
-112.57606 7.663815 145.9155 9208703
-113.41441 7.6721864 145.54802 10261133
-114.25491 7.6807041 145.17961 8813944
-115.2532 7.4591112 144.6488 9669252
-116.30955 7.4700146 144.18588 9012350
-117.1573 7.4789748 143.81447 8748150
-118.00736 7.4881315 143.44214 7104866
-118.85966 7.4975357 143.06882 8354162
-119.7145 7.5071363 142.69455 9603459
-120.7866 7.5193877 142.22522 8748400
-121.86236 7.5319514 141.75436 9866624
-122.72603 7.5422912 141.37642 7893349
-123.59236 7.5527782 140.99738 5920074
-124.4613 7.5635123 140.61729 7367005
-125.33304 7.5744929 140.2361 5920074
-126.20757 7.5856199 139.85371 9011573
-127.08501 7.596993 139.47006 7367271
-127.96534 7.6086135 139.08533 7762027
-128.84862 7.6203799 138.69931 7300963
-129.94995 7.6351075 138.20731 8025201
-131.02574 7.6483283 137.68198 8288116
-131.88564 7.6589007 137.25629 7564135
-132.74823 7.6697698 136.82935 9274236
-82.354744 8.455617 159.34776 9011321
-83.364922 8.3923054 159.10512 8353647
-84.372093 8.3962517 158.6974 9077370
-85.165825 8.3983259 158.34669 9142907
-86.158951 8.4012394 157.90799 8089963
-87.153038 8.4044085 157.46904 8813941
-87.949165 8.4072056 157.11752 9867141
-88.945412 8.4110155 156.6778 9472127
-89.942879 8.4151058 156.23767 9011320
-90.741852 8.4185991 155.88521 10063493
-91.54171 8.4222908 155.53242 9471869
-92.542915 8.427228 155.09096 9143163
-93.545601 8.432456 154.64899 9077371
-94.34893 8.4368687 154.29494 9077886
-95.354706 8.4426756 153.85187 8879992
-96.362099 8.4487963 153.40814 9077113
-97.169434 8.4539785 153.05264 9866116
-97.977966 8.4593353 152.6967 11445144
-98.990471 8.4662933 152.25105 9340539
-100.00492 8.4736471 151.80472 8748401
-100.81809 8.4796972 151.44701 9406077
-101.63261 8.4859972 151.08876 11049874
-102.65296 8.4941778 150.64018 9800837
-103.67555 8.5026894 150.19083 11577500
-104.49549 8.5097828 149.83067 9603968
-105.31713 8.517024 149.47011 9209467
-106.25404 8.4795256 149.04053 8880507
-107.26487 8.5811825 148.6342 8618105
-108.20631 8.5442276 148.2029 11051674
-109.03573 8.5525103 147.83923 9932421
-109.86709 8.5610142 147.47495 9998471
-110.8149 8.5246077 147.04097 8353391
-111.83898 8.6282482 146.62967 9274237
-112.79198 8.5924749 146.19363 9208703
-113.63224 8.6019936 145.82571 10655634
-114.4746 8.6117105 145.45703 7893099
-115.33835 8.3228273 144.95868 9537923
-116.38888 8.4598293 144.54912 9801095
-117.38349 8.4135904 144.09048 10458764
-118.23545 8.4240618 143.71782 8419954
-119.08982 8.4347296 143.34413 9011579
-119.88842 8.2105293 142.90063 10656146
-120.7472 8.2213268 142.52507 8946037
-121.72607 8.1868925 142.07811 10655883
-122.78728 8.2947874 141.65211 7103833
-123.77306 8.2609406 141.20236 7235418
-124.64362 8.2727728 140.82207 7367005
-125.51693 8.2848768 140.44058 6249038
-126.39301 8.2971764 140.05792 7432801
-127.27204 8.3096972 139.67415 6709596
-128.15396 8.3224669 139.28914 7169893
-129.03888 8.3355312 138.90288 7826791
-129.92439 8.3486433 138.51279 8616821
-130.78775 8.3603916 138.09486 10459281
-131.76433 8.3257132 137.59216 7563620
-132.82634 8.43606 137.10652 8945015
-133.80995 8.402029 136.60052 8681843
-134.67964 8.4144373 136.17068 9208956
-135.55209 8.4271183 135.73955 9011833
-136.42752 8.4400225 135.30704 7892840
-137.25517 8.5329084 134.93146 10130315
-138.25552 8.7093496 134.50392 9011582
-139.1405 8.723443 134.06718 8814715
-140.02861 8.7377291 133.62888 7893615
-140.91992 8.7523632 133.18915 5920082
-80.094208 9.9288712 160.29314 9736326
-80.809166 9.7890244 160.11459 11380124
-81.573456 9.4991121 159.87181 10130058
-82.426552 9.2852316 159.64143 9537665
-83.522469 9.2993174 159.40353 9209211
-84.529518 9.3035526 158.99117 9275004
-85.324806 9.305975 158.63995 9866630
-86.319817 9.3093624 158.20059 9471871
-87.315826 9.3130293 157.76088 9932678
-88.113533 9.3161983 157.40895 9801348
-89.023422 9.2745972 156.98921 8353646
-89.999565 9.3702154 156.59525 8484976
-90.911697 9.3291616 156.17484 8616562
-91.71312 9.3333778 155.82156 9275004
-92.71637 9.3389864 155.37952 9472384
-93.721016 9.3449106 154.93687 9143163
-94.525978 9.3499212 154.58237 9209211
-95.332047 9.3552065 154.22751 9471871
-96.34124 9.3620834 153.78329 9471871
-97.352165 9.3692999 153.33841 9866884
-98.162361 9.3753319 152.98204 9340539
-99.086327 9.3365974 152.55731 9340539
-100.08083 9.4364338 152.15685 8814709
-101.00843 9.3983355 151.731 10260873
-101.82479 9.4054594 151.37251 9011834
-102.64277 9.4128294 151.01363 8617075
-103.66741 9.4223709 150.56418 10261897
-104.6943 9.4322376 150.11385 11972257
-105.51775 9.4404259 149.75284 9932677
-106.34282 9.4488888 149.39125 10392717
-107.37667 9.4597702 148.93826 9407364
-108.41315 9.4709969 148.48428 9340543
-109.24441 9.4803028 148.12025 10984852
-110.07754 9.4898052 147.75557 9998471
-110.91257 9.4996061 147.39011 8353134
-111.95922 9.5121965 146.93208 7826790
-113.00886 9.5251341 146.47298 9011323
-113.85103 9.5358019 146.10472 9932424
-114.69524 9.5467157 145.73564 10130825
-115.54166 9.5578537 145.36571 8288112
-116.39027 9.5692863 144.99489 8289141
-117.35767 9.535676 144.55338 9866881
-118.40511 9.644268 144.13371 9208695
-119.37873 9.6112947 143.68973 9669508
-120.1796 9.3879194 143.24554 10525072
-121.04086 9.4004297 142.86958 9341054
-121.90467 9.4132376 142.4926 10985105
-122.77103 9.4262409 142.11455 9208693
-123.69813 9.1564693 141.5959 9997952
-124.76874 9.2673759 141.16687 8813936
-125.76295 9.2354517 140.7142 6511955
-126.64117 9.2493 140.33127 6183246
-127.52229 9.2634449 139.94717 6775129
-128.40642 9.2778358 139.56184 7958635
-129.29343 9.2924986 139.17535 8879479
-130.1795 9.3071346 138.78317 10260875
-131.04332 9.3202286 138.36313 11314332
-131.90552 9.3332996 137.93729 9800836
-132.77042 9.3466406 137.51024 8879735
-133.63797 9.3602295 137.08194 12037798
-134.62596 9.3277321 136.57443 10853525
-135.60023 9.391695 136.11351 10524816
-136.47713 9.4061213 135.68092 8024682
-137.35689 9.4208689 135.24698 10984857
-138.34193 9.4862137 134.78131 9011582
-139.34752 9.4551506 134.26553 7959151
-140.2375 9.4707594 133.82709 6446424
-141.13072 9.4866905 133.38728 6446423
-142.0274 9.502944 132.94604 7695461
-142.92741 9.5194664 132.50334 8090219
-143.83086 9.5362854 132.05902 8880507
-144.73772 9.5533733 131.61307 8025201
-145.42007 9.56637 131.27762 8551543
-146.17836 9.8272686 131.00677 10787986
-147.09474 9.8456707 130.55664 10063750
-148.01482 9.8642683 130.10469 9143417
-78.917419 10.816026 160.82973 8486262
-79.862869 10.650111 160.6006 9078139
-80.878532 10.621449 160.4097 9735555
-81.771339 10.636314 160.25673 9735555
-82.565849 10.331288 160.00304 9537920
-83.55574 10.095078 159.69875 10854036
-84.648003 9.9864597 159.21225 8682867
-85.44445 9.9890814 158.86064 11182745
-86.440865 9.9928055 158.42081 9274748
-87.438354 9.9968815 157.98062 9932678
-88.237244 10.00035 157.62822 9537664
-89.036842 10.004118 157.27557 9011320
-90.03759 10.009155 156.83437 8156267
-91.039528 10.014558 156.39278 7103835
-91.842209 10.019172 156.03917 9341054
-92.846863 10.025237 155.5966 9340798
-93.85302 10.031701 155.15356 8681843
-94.65918 10.037161 154.79871 8814453
-95.466507 10.042919 154.44348 9471871
-96.477219 10.050379 153.99881 9274748
-97.489723 10.058236 153.55354 9801347
-98.301125 10.064791 153.19678 9340539
-99.113968 10.071641 152.83983 12103072
-100.13204 10.080524 152.39296 10656656
-101.15217 10.089789 151.94543 10525073
-101.96992 10.097535 151.58681 7828332
-102.78915 10.10553 151.22757 7038298
-103.8154 10.115871 150.77776 9801346
-104.84397 10.126608 150.327 12432551
-105.66875 10.135497 149.96574 9010808
-123.76096 9.9147167 141.87317 10260867
-124.63374 9.9290457 141.49283 10260867
-125.7288 9.9473372 141.01578 9274493
-126.82793 9.9661045 140.53702 6511955
-127.48963 9.9775438 140.24893 7169629
-131.23573 10.042777 138.56506 10524561
-132.0995 10.056896 138.13892 10261387
-132.96588 10.07136 137.71156 7563619
-133.83505 10.08612 137.28294 13550781
-134.70703 10.101129 136.85301 13024438
-135.64876 10.359895 136.48883 11511455
-136.52705 10.375946 136.05614 8880248
-137.40828 10.392242 135.62219 11445408
-138.29253 10.408883 135.18683 10984857
-139.1801 10.425823 134.75023 9011582
-140.07097 10.443108 134.31239 7564643
-140.96504 10.460663 133.87309 7235936
-141.86238 10.478539 133.43219 6972765
-142.76308 10.496761 132.98985 7564133
-143.6671 10.515256 132.54593 9867143
-144.5746 10.534093 132.10045 9538435
-145.48558 10.553253 131.65334 8814458
-146.40016 10.572759 131.2045 11576730
-147.31841 10.592585 130.75403 10063750
-148.24033 10.612755 130.30185 11182229
-149.01442 10.133015 129.71664 9076857
-149.89067 10.234633 129.32098 9932166
-150.95186 10.423839 128.86919 8616306
-151.88869 10.444766 128.40994 7826790
-152.82953 10.466087 127.94882 8813942
-153.53772 10.482302 127.60169 11380121
-77.962502 11.707686 161.32854 7762796
-78.810417 11.495236 161.09955 8815226
-79.824341 11.467396 160.90923 8814710
-80.909676 11.577875 160.75745 9406590
-81.890617 11.321726 160.48863 9735555
-139.61131 11.167025 134.84164 7695978
-140.28117 11.180986 134.51276 7630182
-141.1769 11.199914 134.07312 7564643
-142.076 11.21909 133.63203 6445908
-142.97838 11.238709 133.18939 6774618
-144.00832 11.426085 132.75246 8683128
-144.86665 11.527944 132.36578 8551285
-145.78004 11.549026 131.9183 10195591
-146.69704 11.570504 131.46913 8550513
-147.61772 11.592302 131.01828 9076856
-148.54208 11.614522 130.56567 10589837
-149.31801 11.134554 129.97946 8287341
-150.24883 11.156439 129.52356 9866117
-151.18355 11.178694 129.06586 9142651
-152.12224 11.201269 128.60632 8484977
-152.96001 11.137888 128.16159 10064265
-77.094978 12.487926 161.76134 7631211
-78.075943 12.392604 161.56139 8486262
-78.963463 12.409077 161.40988 9078141
-79.853577 12.42592 161.25806 8880246
-80.483528 12.209137 161.06621 9735555
-149.00137 12.374667 130.65091 10260358
-149.51985 12.054654 130.25946 9537408
-150.32259 12.158541 129.90143 8879478
-151.12828 12.263173 129.54228 8681843
-151.85919 12.114827 129.11575 8879478
-75.405594 13.930285 162.47177 11379356
-76.0681 13.58043 162.26077 9998217
-77.043472 13.379668 162.04517 7433319
-78.210609 13.306371 161.83757 9209727
-79.02166 13.247457 161.69092 9669763
-73.266907 14.827001 163.4944 9012862
-74.422585 14.729493 163.1712 10262413
-75.36142 14.628026 162.88737 11379612
-76.143745 14.565033 162.69121 10261901
-77.327858 14.247778 162.29543 8419956
-78.30455 13.992713 162.03011 10656658
-70.490433 15.718991 164.67546 9734779
-71.617401 15.552357 164.34831 9603451
-72.626617 15.528247 164.1765 8814456
-73.413551 15.466201 163.99612 9276289
-74.526917 15.328539 163.65823 9276033
-55.853661 16.714544 171.16869 9537920
-56.953285 16.73419 171.04155 9801349
-58.055576 16.754421 170.91431 10130059
-58.718369 16.766857 170.83794 9931910
-65.160652 16.185488 167.02325 10984852
-66.053886 16.2066 166.93457 9735043
-67.174393 16.233784 166.82536 9670022
-67.84906 16.250515 166.76077 12433069
-55.137611 17.475779 171.53456 9602945
-56.072163 17.461872 171.41528 9735298
-57.118633 17.388271 171.26056 10129797
-58.11174 17.220739 171.07791 9998216
-54.156704 18.358595 171.97725 9997959
-55.162251 18.33061 171.84415 9340285
-56.263538 18.351711 171.71732 9603967
-57.118683 18.134518 171.53343 10261382
-52.269421 19.914711 172.77609 10129289
-53.376942 19.525398 172.49873 9011064
-54.414795 19.486835 172.35797 9866629
-55.241203 19.409246 172.22874 10458506
-55.903835 19.046787 172.01547 9735296
-50.661873 20.843225 173.46632 9932934
-51.573681 20.694881 173.2276 10853780
-52.359402 20.627304 173.0705 9603201
-53.452988 20.646652 172.92401 9735043
-54.299927 20.424953 172.71448 9405822
-48.053036 21.80134 174.63681 9734788
-48.703869 21.809875 174.53658 10787475
-49.661018 21.623928 174.23535 8946040
-50.682896 21.538958 174.00177 9143418
-51.639664 21.353886 173.70129 9537920
-52.510906 21.367483 173.56868 9208443
-44.400539 22.707113 176.79195 7103323
-45.048931 22.52379 176.37685 8288109
-45.90955 22.341633 175.91534 10459021
-46.978901 22.346024 175.67964 10919060
-48.049046 22.351322 175.44507 9734788
-48.691555 22.355 175.30489 10261132
-82.931511 10.883901 160.14227 9011576
-83.85215 10.713638 159.84196 11183001
-84.766891 10.671768 159.43419 8946039
-85.564476 10.674687 159.08212 11051928
-86.562416 10.678703 158.64175 10064264
-87.56134 10.683109 158.20113 10393229
-88.361351 10.686953 157.8483 10195850
-89.162163 10.691043 157.49529 8550770
-90.16436 10.696513 157.05363 8156267
-91.167801 10.702354 156.61148 7565154
-91.971672 10.707367 156.25748 9406846
-92.888512 10.667427 155.83542 9142906
-93.94133 10.49093 155.29845 8682355
-94.748306 10.496638 154.94331 8682867
-95.556343 10.502697 154.58786 9932166
-96.56813 10.510553 154.1429 10129545
-97.581749 10.518861 153.69753 8682867
-98.394241 10.525812 153.3409 9011575
-99.208008 10.533012 152.98381 13023917
-100.22714 10.542397 152.53668 10459534
-101.24828 10.552159 152.08887 10525073
-102.06696 10.560303 151.73 7828332
-102.88704 10.568696 151.37064 8156778
-103.91439 10.579571 150.92052 9340795
-104.94404 10.590824 150.46951 11971489
-105.76966 10.600159 150.10803 9471359
-106.54605 10.377188 149.67485 9931910
-107.37466 10.386847 149.31223 8222577
-108.41293 10.399274 148.85789 8813943
-109.4539 10.412096 148.40256 9603201
-110.28884 10.422697 148.03741 9800579
-111.12574 10.43352 147.67154 10195336
-111.96461 10.444666 147.30492 10787215
-112.92095 10.410853 146.86829 9274236
-113.95496 10.518864 146.45427 9274748
-114.91682 10.485769 146.01547 8550769
-115.76514 10.49818 145.64516 8089963
-116.61569 10.510837 145.27399 9735813
-117.46856 10.523766 144.9019 10919571
-118.44075 10.491665 144.45888 9208436
-119.49369 10.602672 144.03775 8551796
-120.47225 10.571356 143.59225 9933191
-121.33604 10.585598 143.21588 8090987
-122.20235 10.600136 142.83852 8552049
-123.0713 10.614971 142.46002 9142643
-123.94292 10.630076 142.08052 9668987
-124.81728 10.645555 141.69991 9537917
-125.60058 10.58008 141.32707 9735042
-126.51205 10.437384 140.86639 7169629
-127.69463 10.339335 140.30382 6708822
-128.65993 10.237405 139.83582 7958376
-129.54918 10.253716 139.44896 8879479
-130.43578 10.269876 139.05479 9471617
-131.36433 10.52586 138.70006 9801095
-132.22914 10.540775 138.27368 10261387
-133.09657 10.555989 137.8461 7563619
-133.96681 10.571499 137.41731 13682105
-134.83983 10.587256 136.98721 13024438
-81.970406 11.779968 160.64375 8090987
-82.828056 11.567483 160.41304 9471871
-83.919296 11.583915 160.15504 10590352
-84.92601 11.588793 159.73111 10327949
-85.725113 11.592061 159.37851 11051672
-86.524925 11.595605 159.02571 9999752
-87.525642 11.600458 158.58443 9340285
-88.527458 11.605694 158.14279 10788243
-89.329849 11.610208 157.78926 8353135
-90.334023 11.616307 157.34694 7367263
-91.339478 11.622766 156.90425 7565410
-92.14492 11.628277 156.54976 9406846
-92.95137 11.634088 156.19498 10525328
-93.916687 11.411029 155.67827 9603969
-94.927383 11.418924 155.23407 9077625
-95.737251 11.425596 154.87839 10985366
-96.622154 11.367191 154.46338 12959152
-97.626274 11.499938 154.07257 9538175
-98.581337 11.451123 153.63046 9406333
-99.396797 11.459105 153.2729 9932933
-100.28751 11.401893 152.85583 9604481
-101.27982 11.292789 152.37299 11248794
-102.2129 11.256406 151.94556 9472640
-103.03431 11.265449 151.5858 7564642
-103.85724 11.274737 151.22549 7564642
-104.88819 11.28679 150.77429 10261385
-105.92157 11.299253 150.32216 10129289
-106.75015 11.309612 149.95975 10589840
-107.58055 11.320193 149.59666 9143418
-108.41269 11.331099 149.23291 11840160
-109.45552 11.345154 148.77721 10392715
-110.50112 11.359612 148.32051 9603455
-111.33986 11.371583 147.95424 9274235
-112.18058 11.383801 147.58723 9142649
-113.02332 11.396369 147.21947 8616563
-113.98405 11.363907 146.78143 8287599
-115.02325 11.474231 146.36613 9143418
-115.98967 11.442607 145.92586 8090731
-116.84217 11.456486 145.55431 8090987
-117.69696 11.470738 145.1819 9998211
-118.5541 11.485288 144.80852 9208694
-119.41363 11.50011 144.43427 8354160
-120.39344 11.469908 143.98866 10064521
-121.45522 11.583984 143.56482 8683636
-122.44175 11.554621 143.11661 8881014
-123.31274 11.570902 142.73785 10524555
-124.18642 11.587533 142.358 12168864
-125.06287 11.604484 141.9771 9275003
-125.94891 11.478361 141.53439 8879989
-126.76173 11.398658 141.14278 7301215
-127.57655 11.31877 140.75012 7300445
-128.59059 11.146752 140.2323 7366239
-129.58284 11.214581 139.82066 9997445
-130.57327 11.282677 139.40121 8156530
-131.55785 11.252682 138.90318 8814202
-132.42421 11.268721 138.47656 11182489
-133.29327 11.285033 138.04861 8747893
-134.16504 11.301691 137.61948 11379610
-135.03969 11.318697 137.18904 9801092
-135.91722 11.336046 136.75732 8354160
-136.79773 11.353669 136.32442 9340545
-137.68144 11.371663 135.89027 7696236
-138.56828 11.390002 135.45485 7498857
-139.40727 11.489208 135.07686 8090736
-140.42168 11.674405 134.64682 7301475
