# .PCD v0.7 - Point Cloud Data file format
VERSION 0.7
FIELDS x y z rgb
SIZE 4 4 4 4
TYPE F F F U
COUNT 1 1 1 1
WIDTH 1178
HEIGHT 1
VIEWPOINT 0 0 0 1 0 0 0
POINTS 1178
DATA ascii
-185.55035 -44.078789 7.7135062 8617080
-185.59453 -44.080811 6.5959525 7893868
-185.62546 -44.082424 5.7018104 8090987
-184.20416 -44.218613 3.4366395 10261124
-184.30528 -44.241112 2.7724435 8813936
-184.4718 -44.279377 1.6640565 5920074
-161.04523 -44.472557 -102.68803 6182734
-160.34505 -44.451668 -103.60394 10525328
-160.46335 -44.264462 -105.88203 8486003
-159.95256 -44.265503 -106.65376 8618105
-159.30945 -44.266785 -107.6154 6972509
-159.16466 -44.274052 -111.7501 10129545
-158.76093 -44.274807 -112.32442 10129545
-158.08334 -44.276058 -113.27848 10458505
-187.59734 -42.748592 18.017962 6512978
-187.67729 -42.998173 17.34189 8222316
-187.91048 -43.080738 16.314245 8156267
-187.79478 -41.58802 18.948687 13157559
-187.87537 -41.836506 18.271719 11117720
-188.04924 -41.956207 17.420481 9670274
-188.09029 -42.343678 16.694036 8486256
-187.99139 -40.42783 19.882162 11183513
-188.07256 -40.675419 19.204206 9209467
-188.29149 -40.704472 18.310537 10327948
-188.37221 -40.95359 17.631964 8486256
-188.16946 -39.691864 20.266588 9210491
-188.40535 -39.768829 19.236868 9933956
-188.48657 -40.017014 18.557718 10657422
-188.34441 -38.734192 20.988001 10196873
-188.51854 -38.833847 20.165125 9539455
-188.6925 -38.934357 19.341585 10657422
-188.49329 -37.647537 21.999491 10854036
-188.58122 -37.94112 21.227732 11314841
-188.80553 -37.998741 20.271311 11578267
-188.72612 -36.916489 22.163843 11380382
-188.96407 -36.989799 21.131285 11314842
-188.89078 -35.878204 23.043085 11249052
-189.11469 -35.916992 22.115736 10854295
-189.15875 -36.300629 21.382841 10459022
-189.11389 -34.593754 24.05538 10065547
-189.23315 -34.888439 23.160402 10394001
-189.43718 -34.908909 22.336935 9341571
-189.2993 -33.476063 24.865366 9933191
-189.41382 -33.771648 24.092196 9604738
-189.5481 -33.973312 23.275049 9736580
-189.45908 -32.779301 25.117296 9933191
-189.75136 -32.888557 24.072069 11184026
-189.50031 -31.749447 25.895712 7564643
-189.76907 -31.980953 25.157309 10393486
-189.52025 -30.642687 26.98274 8616048
-189.79999 -30.911247 26.090582 7564643
-190.09811 -31.184145 25.199949 7564643
-190.40718 -29.352449 28.513338 7037274
-190.18764 -29.551994 28.012152 7826533
-190.03981 -29.996466 27.055841 9274233
-190.28568 -30.259665 26.156969 7564643
-192.63968 -28.632513 39.544247 8945523
-192.9514 -28.82221 38.802067 8551023
-190.93222 -29.03759 32.839638 7564642
-191.08897 -29.039333 31.919455 7826787
-191.27925 -29.041508 30.768251 6642515
-190.14488 -29.327143 29.176668 8616048
-192.67805 -27.502159 40.357101 8485229
-192.92406 -27.765799 39.68198 8485229
-193.17009 -28.030289 39.006294 9932160
-192.82959 -26.785547 40.630157 8879472
-193.20883 -26.897566 39.820126 9997439
-192.84573 -25.814631 41.360382 8615786
-193.18047 -25.840572 40.702629 8286565
-193.42758 -26.103542 40.025963 8286565
-193.08472 -24.860044 41.653347 8023393
-193.46542 -24.969612 40.842545 7036242
-193.09999 -23.88797 42.385941 7299930
-193.43594 -23.911713 41.727631 7168344
-193.68414 -24.173386 41.05003 7036242
-193.33905 -22.930653 42.680939 7826532
-193.72115 -23.037853 41.869293 7366238
-193.35359 -21.95715 43.415909 8615791
-193.69067 -21.978773 42.757156 8352619
-193.67789 -20.953226 43.584999 8681840
-193.84232 -21.256254 43.034492 9142134
-193.60672 -20.021679 44.450493 11379348
-193.74406 -20.273781 43.99136 10657425
-193.64505 -19.291512 44.949432 9143934
-173.95221 -59.637775 -46.391869 7038307
-173.88612 -59.67355 -47.047459 9734014
-173.77124 -59.733532 -48.140846 8616048
-173.78772 -59.745377 -49.318478 8419184
-173.5762 -59.850697 -50.117733 7761772
-173.29465 -59.859985 -51.168743 7564650
-173.0007 -59.867085 -52.216259 8091249
-172.94185 -59.68774 -53.108738 7893871
-172.6234 -59.730949 -54.058781 8222062
-172.42065 -59.671852 -55.091438 9011833
-172.09933 -59.717709 -56.041172 8814454
-171.8555 -59.728382 -56.87862 9011833
-171.54845 -59.74295 -57.925259 8156268
-171.42093 -59.574108 -59.034241 8550513
-171.1637 -59.585129 -59.869221 9011320
-170.90437 -59.596741 -60.703735 11445401
-170.58038 -59.613422 -61.747482 11313816
-170.27126 -59.637299 -62.797291 9735812
-170.08681 -59.653152 -63.427982 9735812
-168.99092 -59.503555 -69.116859 10853012
-168.77846 -59.517685 -69.742661 9012088
-168.49352 -59.537079 -70.576599 9999239
-180.02919 -58.647095 -19.974274 8221803
-180.0378 -58.762497 -20.780239 8946040
-180.08586 -58.82135 -21.885191 8353903
-180.10315 -58.951744 -22.914652 8287342
-180.05017 -59.131096 -23.642538 8089963
-177.28967 -59.143425 -31.590761 8617331
-177.09772 -59.145191 -32.657963 9340286
-176.93939 -59.14661 -33.510834 8419696
-176.77693 -59.148022 -34.362976 7959401
-176.56793 -59.149776 -35.426971 8616817
-176.35291 -59.151527 -36.489758 9471867
-176.1761 -59.152924 -37.339077 8485229
-175.95941 -59.158073 -38.401585 6708309
-175.79404 -59.182377 -39.475647 7958120
-175.66727 -59.205376 -40.336838 7498085
-175.50566 -59.235069 -41.413662 6906712
-175.3409 -59.265743 -42.490654 9012600
-175.20654 -59.291142 -43.352493 7762277
-175.06883 -59.316788 -44.21423 7301470
-174.88956 -59.348534 -45.290699 9076855
-174.70683 -59.38118 -46.367325 9734014
-174.55801 -59.408115 -47.228764 8616048
-174.36871 -59.442684 -48.305782 8945012
-171.58182 -59.359833 -61.176418 9340545
-171.31494 -59.371109 -62.012733 9340545
-170.98067 -59.386688 -63.058449 9735812
-170.71286 -59.400703 -63.895142 9933708
-170.44299 -59.415356 -64.731567 10788759
-170.10251 -59.434711 -65.776588 8091762
-169.75885 -59.455025 -66.821091 9077884
-169.48148 -59.472084 -67.656235 9932166
-169.20195 -59.489788 -68.49099 9471871
-169.5811 -59.26936 -69.834679 8683380
-169.22351 -59.293301 -70.881714 9341820
-168.93532 -59.313408 -71.719124 10920597
-168.64502 -59.334209 -72.556114 9341055
-168.21523 -59.33881 -73.574165 8025200
-167.7513 -59.333458 -74.577461 7565163
-167.4716 -59.330742 -75.17868 9537923
-168.02466 -59.217953 -76.888351 9010550
-167.74658 -59.218853 -77.495003 7103841
-167.27818 -59.220341 -78.503853 8419441
-167.03177 -59.050343 -79.618416 7762278
-166.63673 -59.047699 -80.417107 6183246
-166.34093 -58.986115 -81.181656 7170141
-165.93742 -58.862492 -82.307915 8353646
-180.29411 -57.739632 -18.921427 7761512
-180.3235 -57.833878 -19.934778 7761512
-180.38486 -57.841591 -20.953632 9801605
-180.32982 -58.158146 -21.915705 8880503
-167.30659 -58.425816 -79.997009 5920074
-167.07573 -58.19556 -80.629509 6512211
-166.66844 -58.190434 -81.424744 5919306
-166.18491 -58.23119 -82.331459 7432033
-165.78769 -58.070492 -83.231445 6643284
-180.59825 -56.594124 -17.109859 10064262
-180.55792 -56.855122 -17.983671 8945265
-180.6084 -56.90728 -19.087437 7169635
-180.64835 -56.950459 -19.971832 8156269
-180.65752 -57.064838 -20.780367 9341054
-166.90604 -57.362587 -81.62458 5919050
-166.58031 -57.148182 -82.428551 5919050
-166.12634 -57.111526 -83.339668 6248271
-165.67242 -56.989174 -84.31913 6446162
-165.32967 -56.752823 -85.17379 6511954
-165.03658 -56.603359 -85.862587 7959144
-180.87025 -55.663998 -16.038746 14669000
-180.83086 -55.922775 -16.913128 10064262
-180.88222 -55.972515 -18.017105 8484716
-180.93304 -56.023983 -19.122845 7826789
-180.88208 -56.276768 -19.778101 8089960
-166.51646 -56.152206 -83.348198 6051151
-166.07755 -55.924759 -84.382576 5985616
-165.56429 -55.924892 -85.379402 6511954
-165.15329 -55.926342 -86.176628 8288109
-164.81482 -55.703053 -87.012428 8288365
-181.10146 -54.895424 -15.254633 9735554
-181.11314 -55.002522 -16.06114 10064262
-181.15494 -55.040352 -16.944586 8156266
-181.18636 -55.12957 -17.960302 7563619
-166.2982 -55.246857 -84.495338 5393738
-165.96056 -55.020939 -85.331779 5854286
-165.44598 -55.022507 -86.330185 7630179
-165.03381 -55.025127 -87.128639 8288365
-164.67992 -54.953163 -87.873512 9538432
-181.36086 -53.96122 -13.958828 8945784
-181.44739 -53.911835 -15.046808 8682612
-181.51817 -53.899315 -16.098484 8617075
-181.4487 -54.227852 -16.899569 7893095
-181.42944 -54.407001 -17.632338 8616301
-165.97481 -54.343044 -85.845619 6248789
-165.7388 -54.118126 -86.483765 7630435
-165.32294 -54.119698 -87.282051 10788499
-164.82417 -54.16642 -88.189125 10525327
-164.40578 -54.008957 -89.088646 8551541
-181.75842 -52.574108 -12.231138 9011576
-181.69106 -52.896839 -13.032343 9143163
-181.74562 -52.937897 -14.136644 8748661
-181.85007 -52.83057 -15.173367 9340286
-181.83173 -53.007198 -15.90679 8617075
-165.53998 -53.285137 -87.482384 12893620
-165.17421 -53.209648 -88.223915 9538433
-164.64377 -53.211853 -89.21833 9209473
-164.17087 -53.139397 -90.158806 7959152
-163.99702 -52.535175 -90.922157 10064011
-182.01576 -51.684872 -11.163868 11379608
-182.05113 -51.763149 -12.178537 8682867
-182.09549 -51.794136 -13.062798 8682867
-182.10449 -51.940758 -14.055449 9142907
-165.38907 -52.374214 -88.424812 8222578
-165.04184 -52.163033 -89.229546 8748923
-164.55844 -52.075253 -90.200729 8946046
-164.09366 -51.852417 -91.234703 10590092
-163.72516 -51.781269 -91.978188 9143158
-182.30804 -50.568607 -9.3332424 8617080
-182.3134 -50.705803 -10.214142 9406591
-182.30676 -50.891056 -11.182854 9735298
-182.37469 -50.88068 -12.201336 8682867
-182.38861 -50.982212 -13.011221 9735297
-164.94647 -51.010391 -90.242332 9209470
-164.47121 -50.938934 -91.186455 8814194
-163.93721 -50.945324 -92.184563 7695970
-163.56767 -50.875065 -92.929329 9143158
-182.58475 -49.66114 -8.4670582 8617080
-182.53871 -49.900684 -9.1256123 9143167
-182.59627 -49.9338 -10.231016 9340288
-182.65327 -49.968452 -11.337709 9143162
-182.60619 -50.210945 -11.99679 10261641
-164.67456 -50.254288 -91.299782 7958886
-164.28534 -49.985863 -92.224998 8419436
-163.77924 -50.038593 -93.137169 9406331
-163.35052 -50.045937 -93.936974 8288365
-163.09581 -49.823681 -94.57592 7564642
-182.79921 -48.897942 -7.4487348 8814966
-182.81534 -48.993324 -8.258049 9735046
-182.86194 -49.018181 -9.1429367 8879995
-182.89894 -49.092281 -10.160658 7827822
-182.88467 -49.298889 -11.131836 9142651
-164.41975 -49.195271 -92.544319 6511954
-164.04909 -49.124851 -93.291405 9604226
-163.61964 -49.132065 -94.092522 6906712
-163.18985 -49.140381 -94.893661 7564642
-162.93416 -48.918678 -95.534096 8617331
-183.20541 -47.623096 -6.5096211 10262156
-183.14406 -47.92675 -7.2959332 9406590
-183.21945 -47.889458 -8.2777634 9735044
-183.18547 -48.13485 -9.1602707 8617080
-183.13937 -48.374821 -9.8210106 7564651
-164.26077 -48.287228 -93.499779 6511954
-163.88902 -48.217564 -94.248207 6511954
-163.45851 -48.225712 -95.050682 9472640
-163.09464 -48.006042 -95.892876 8618099
-162.72997 -47.787357 -96.735855 8092011
-183.50055 -46.473137 -4.5309701 10591121
-183.41023 -46.842056 -5.2355161 10064777
-183.47858 -46.827446 -6.2360902 9670019
-183.57651 -46.761459 -7.4094815 9932678
-183.53125 -46.99966 -8.0715427 8682867
-163.98349 -47.533146 -94.565926 6511954
-163.74623 -47.173389 -95.271675 8880247
-163.43007 -46.86137 -96.091034 7301471
-162.9046 -46.914505 -96.999596 9802631
-162.51906 -46.62101 -97.673508 12170404
-183.79118 -45.569889 -2.7679236 7564651
-183.80357 -45.737713 -3.5058043 9933195
-183.79732 -45.82198 -4.3176064 12498604
-183.8786 -45.802044 -5.3389249 8551282
-183.75923 -46.071171 -6.3098359 9341054
-183.80736 -46.092487 -7.197947 9208955
-163.63152 -46.173988 -96.210045 5919050
-163.24854 -46.043297 -97.13427 7697000
-162.78871 -45.953003 -97.835899 11578016
-162.33624 -45.711639 -98.631157 8551543
-184.6861 -44.495663 -1.5959876 6906719
-184.22792 -44.903603 -2.4200728 8222580
-184.36896 -44.991394 -3.4432585 9341059
-184.25674 -45.21138 -4.3289666 11445660
-184.28931 -45.22438 -4.995894 8089963
-163.05493 -45.315914 -98.263451 7038307
-162.63751 -45.12072 -98.975044 7630443
-162.15707 -44.836765 -99.863525 6840669
-187.96996 -43.759705 15.089434 9010806
-188.18675 -43.794991 14.194876 8287084
-188.34932 -43.821995 13.523066 7563619
-187.38371 -44.071896 12.319166 10261132
-187.45546 -44.073887 11.190443 9735043
-187.5209 -44.075912 10.061403 7564647
-185.63913 -44.083225 5.2546287 8090987
-185.65758 -44.084431 4.5837913 9340539
-185.68289 -44.086437 3.4656961 9274487
-185.70183 -44.088444 2.3474786 8090470
-185.7121 -44.090042 1.452852 6182734
-184.63582 -44.318527 0.55393761 6510930
-184.76508 -44.350552 -0.33563071 4867385
-184.86098 -44.374954 -1.0036147 7038307
-162.30124 -44.512608 -101.03263 8419183
-161.60425 -44.489971 -101.95327 7958632
-161.72285 -44.261841 -103.94137 9735297
-161.09605 -44.263157 -104.91365 9209211
-160.71709 -44.263939 -105.49512 8486003
-160.36311 -44.271759 -110.01792 5392706
-159.83275 -44.272785 -110.78934 8682355
-159.43266 -44.273552 -111.3663 9406078
-188.21605 -42.52179 15.944204 8486256
-188.30409 -42.854412 15.114954 7169116
-188.47723 -42.977928 14.261297 7234910
-188.33191 -41.583599 16.866747 8486256
-188.50415 -41.688408 16.043566 8486256
-188.67632 -41.794151 15.21958 6578002
-188.60364 -40.699821 17.103491 8880758
-188.83865 -40.781075 16.070742 7696483
-188.71838 -39.762173 18.029524 8814965
-188.95415 -39.841728 16.996416 8354158
-189.035 -40.091972 16.31579 10459534
-188.93216 -38.647522 18.829313 10327947
-189.01918 -38.944294 18.056993 8748660
-189.23392 -38.924934 17.250074 8287853
-188.99036 -37.704205 19.983801 9210491
-189.12764 -37.958427 19.077806 10920082
-189.35727 -38.066536 18.026777 8879990
-189.24077 -37.021393 20.009211 10525326
-189.55664 -36.916031 18.935217 10327948
-189.3815 -35.376812 21.868746 8092019
-189.48454 -35.726337 20.956598 10459022
-189.6216 -36.035549 19.97109 9801348
-189.62285 -34.611912 22.04978 9341571
-189.855 -34.715092 20.996088 10656401
-189.73392 -33.675545 22.988245 11184026
-189.96675 -33.777264 21.933897 9670533
-190.10634 -34.028889 21.022993 9209467
-189.93748 -32.589954 23.785425 11907749
-190.07228 -32.79171 22.965899 10986903
-190.23672 -32.933792 22.11867 7565667
-190.04752 -31.653254 24.728251 9143675
-190.1324 -31.897108 24.041361 10262924
-190.3739 -31.966082 23.001284 9736580
-190.34082 -30.893036 24.920843 8090987
-190.51324 -31.032045 23.948458 9604740
-190.75629 -29.386658 27.626928 11904668
-191.10461 -29.421438 26.738081 9669246
-190.74702 -29.957714 25.752039 7564643
-190.79095 -30.312641 24.82332 8420209
-193.32819 -28.531281 38.312485 10064003
-193.48978 -28.909071 37.619122 9077367
-193.65126 -29.032545 36.683376 10064003
-191.42621 -29.043247 29.846441 7103834
-191.60356 -29.04542 28.693232 8550253
-193.5433 -27.77034 38.499252 8485487
-193.83928 -28.088984 37.685982 8814195
-193.56519 -26.764587 39.245846 8286565
-193.87904 -26.953327 38.500217 6249039
-193.80179 -25.84083 39.51918 7497050
-194.09912 -26.157738 38.704693 8090986
-193.82289 -24.834076 40.268089 7036242
-194.138 -25.020876 39.52161 6971220
-193.8605 -23.698137 41.086632 7037274
-194.04233 -24.036749 40.475037 7036500
-194.07971 -22.899712 41.294727 7037274
-194.26205 -23.238224 40.682434 7037274
-194.02826 -22.000647 42.097202 7563361
-194.16524 -22.254055 41.637966 7037274
-194.0677 -21.270388 42.594368 10260100
-180.22429 -58.673176 -23.224455 8089963
-180.16605 -58.851166 -23.952253 8089963
-180.08739 -58.954178 -24.972448 9142135
-180.03438 -58.988182 -26.07077 9207923
-179.85573 -59.05172 -26.855955 9142387
-179.43324 -59.138397 -27.972626 8748403
-179.26302 -59.140213 -29.052774 8616815
-179.12206 -59.141655 -29.91613 9208435
-178.9769 -59.143097 -30.778788 10457990
-178.78937 -59.144886 -31.856142 9932164
-178.59583 -59.146675 -32.932346 10261132
-178.43617 -59.148102 -33.792454 8879991
-178.2305 -59.149879 -34.866444 8288109
-178.01886 -59.151649 -35.939255 7301214
-177.84471 -59.153061 -36.796555 8222316
-177.66643 -59.154472 -37.652966 7629670
-177.43762 -59.156223 -38.722229 8155499
-177.20277 -59.157967 -39.79023 7958120
-177.01015 -59.159359 -40.643559 6511954
-176.76321 -59.161091 -41.708832 7762277
-176.51048 -59.162819 -42.77269 10263180
-176.30345 -59.164196 -43.622616 11380380
-176.09233 -59.165569 -44.471615 6511954
-175.82248 -59.167274 -45.5313 7564642
-175.54672 -59.16898 -46.589401 7300958
-175.33495 -59.174904 -47.43845 8089705
-175.1438 -59.209019 -48.520023 8418927
-174.95203 -59.245056 -49.602444 9142651
-174.78267 -59.270172 -50.465244 11379356
-174.5515 -59.275826 -51.31068 9208703
-174.24974 -59.28064 -52.363792 9210238
-173.94485 -59.286373 -53.415955 8617847
-173.69844 -59.291714 -54.257084 7893871
-173.38725 -59.299278 -55.307697 7827560
-173.07277 -59.307735 -56.35759 7893096
-172.8187 -59.315315 -57.196926 8353647
-172.56241 -59.323486 -58.035725 8091761
-172.23891 -59.334606 -59.083176 8485747
-171.91208 -59.346687 -60.130291 9011320
-172.13255 -59.274029 -61.13924 7564651
-172.32796 -59.194546 -62.143673 7564651
-171.95189 -59.196144 -63.180332 8880508
-171.57001 -59.197735 -64.21489 9933708
-171.25983 -59.199001 -65.040756 9144449
-170.94574 -59.20026 -65.865227 8354934
-170.57733 -59.212234 -66.905586 10129542
-170.22438 -59.231544 -67.952049 9011576
-169.93927 -59.247704 -68.788681 9471871
-170.08263 -59.210976 -72.204338 15459798
-169.73401 -59.2122 -73.022964 11578016
-169.38145 -59.213421 -73.839973 8551543
-169.02495 -59.214638 -74.655281 10064780
-168.85924 -59.101368 -75.701897 9932934
-168.63794 -58.989689 -76.678154 9800321
-168.27432 -58.900242 -77.738411 6511962
-167.86855 -58.890785 -78.534111 6840667
-167.56407 -58.884441 -79.130608 8419696
-180.50232 -57.7276 -22.157698 9341054
-180.4592 -57.996941 -23.034834 8353389
-180.51907 -58.009647 -24.059439 8747378
-180.53139 -58.159561 -25.123583 8616049
-180.4993 -58.384148 -25.916698 8681835
-168.95087 -58.280483 -76.919151 9932677
-168.5739 -57.997196 -77.877708 7629668
-168.1674 -57.98793 -78.674805 8419696
-167.71703 -57.979057 -79.556725 8946296
-167.50229 -57.5215 -80.339302 7169373
-180.7379 -56.947685 -21.378038 9341054
-180.74657 -57.063847 -22.188526 9604226
-180.86665 -56.889923 -23.088238 9997442
-180.85374 -57.090523 -24.045931 10260101
-168.77184 -57.091415 -78.216721 7169373
-168.48228 -56.933384 -78.90554 8814710
-168.13342 -56.850819 -79.649071 7761766
-167.56245 -56.938988 -80.687859 6445649
-167.17172 -56.76123 -81.588905 6708566
-166.88043 -56.607288 -82.277649 5919050
-181.00372 -55.996521 -20.0858 8682353
-181.10443 -55.900379 -21.128048 8156266
-181.15379 -55.957027 -22.239916 9538175
-181.18301 -55.991932 -22.908003 9734014
-168.3573 -56.173077 -79.755676 7169373
-168.02316 -55.940441 -80.590599 7564385
-167.51178 -55.933849 -81.589203 8419436
-167 -55.928898 -82.587265 6511187
-166.66403 -55.700386 -83.422493 6051151
-181.40982 -54.587193 -18.365538 8418923
-181.33916 -54.919128 -19.167183 8221545
-181.37978 -54.961006 -20.055233 8353130
-181.49112 -54.833656 -21.085892 8813679
-181.46983 -55.059612 -22.058079 9208435
-168.14412 -55.260876 -80.898438 8682608
-167.75282 -55.074593 -81.807381 8222058
-167.29599 -55.02496 -82.734459 5919564
-166.88548 -55.022427 -83.533936 6906461
-166.53339 -54.945759 -84.279106 6577496
-181.67236 -53.684799 -17.303699 9011057
-181.70415 -53.773468 -18.322783 8353132
-181.74554 -53.813427 -19.211533 9011057
-181.75087 -53.970604 -20.208284 8747886
-167.63896 -54.166203 -82.754234 6051403
-167.18089 -54.117943 -83.682625 7169376
-166.76926 -54.116592 -84.483208 6709082
-166.31018 -54.071236 -85.411247 6380374
-181.97246 -52.547829 -15.478191 9734788
-181.95413 -52.724651 -16.212196 9340286
-181.97659 -52.841206 -17.245398 8155755
-182.02917 -52.888767 -18.356628 8418925
-182.04025 -52.99868 -19.169796 8945523
-167.41748 -53.288139 -83.885902 7038042
-167.08746 -53.075565 -84.695961 5919824
-166.72171 -52.983845 -85.471397 7959657
-166.1272 -53.210144 -86.432968 9341565
-165.77252 -52.981438 -87.265495 14604238
-182.24239 -51.621834 -14.397732 9011323
-182.20491 -51.8764 -15.277884 9208957
-182.24803 -51.911308 -16.16576 8813938
-182.30148 -51.956566 -17.277332 8353133
-182.26251 -52.215294 -18.159346 8418925
-167.0116 -51.921108 -85.705681 7959656
-166.51192 -52.136044 -86.488564 8683379
-166.03706 -52.012821 -87.469353 9933191
-165.64194 -51.766121 -88.389717 7564651
-165.33305 -51.615273 -89.079018 7564651
-182.52252 -50.705982 -13.536741 8814199
-182.46277 -50.998344 -14.283388 8222064
-182.52939 -50.992283 -15.306202 9274495
-182.5728 -51.026623 -16.19573 9405820
-182.53462 -51.283489 -17.078465 9208435
-166.74568 -51.158474 -86.75663 7038298
-166.41795 -50.975212 -87.5047 7827822
-165.93459 -50.884224 -88.478157 8156787
-165.43102 -50.931488 -89.389534 11512225
-165.17938 -50.705158 -90.025871 11512225
-182.7292 -49.926266 -12.299946 9735297
-182.75452 -50.03524 -13.333632 10392716
-182.86098 -49.943462 -14.493137 8748151
-182.82338 -50.178421 -15.257959 8551029
-182.80569 -50.354099 -15.995399 7037274
-166.59477 -50.244854 -87.700844 8090995
-166.23708 -50.016865 -88.537483 10327182
-165.70377 -50.018581 -89.537712 11512225
-165.2767 -50.021175 -90.33773 9208695
-164.91716 -49.796581 -91.175339 9735039
-183.0237 -48.843204 -10.698536 8089962
-183.09277 -48.776844 -11.410786 8287341
-183.10365 -48.892292 -12.252718 8418928
-183.13696 -48.982819 -13.307428 8025450
-183.12366 -49.181541 -14.2486 8353650
-166.0271 -49.150543 -89.558434 8617077
-165.54887 -49.107677 -90.487328 12432037
-165.12083 -49.111317 -91.288567 7564385
-164.75075 -49.039318 -92.035675 6511954
-183.4053 -47.591751 -9.5041199 8353908
-183.33617 -47.952335 -10.49655 8616306
-183.46336 -47.758057 -11.390898 8089962
-183.49988 -47.83456 -12.413801 7892839
-166.07451 -48.420097 -89.997864 10853262
-165.82137 -48.193512 -90.637039 9208695
-165.39262 -48.19706 -91.439613 7038041
-164.96347 -48.201653 -92.242058 6183506
-164.59233 -48.130516 -92.990479 6511954
-183.655 -46.712578 -8.3728523 9735043
-183.68297 -46.814426 -9.4087257 9471871
-183.74149 -46.845989 -10.521175 8813685
-183.75699 -46.944027 -11.33609 10261132
-165.91856 -47.50819 -90.950256 8682608
-165.60606 -47.358727 -91.645172 6380626
-165.30263 -47.057724 -92.432732 8420211
-164.87227 -47.063229 -93.236794 6183506
-164.37758 -47.013866 -94.201454 6643540
-164.03723 -46.621273 -95.124527 9537920
-184.05142 -45.663029 -6.5421777 9341054
-184.00577 -45.823097 -7.5018659 9208955
-184.03314 -45.873631 -8.4504623 9603457
-184.03326 -45.984749 -9.5166531 9800837
-183.98497 -46.181499 -10.535995 9011320
-165.46643 -46.143059 -92.786652 9538691
-165.14313 -46.147213 -93.390778 7828330
-164.84642 -45.942944 -94.273277 5787978
-164.30495 -45.95203 -95.280266 7695717
-163.89378 -45.750938 -96.364372 6774615
-163.56676 -45.757545 -96.968468 7695717
-185.08081 -44.433331 -2.5649283 11183004
-185.16472 -44.459553 -3.6811011 10722195
-184.82588 -44.674988 -4.6545739 10919058
-184.62448 -44.924229 -5.6281228 9471614
-184.52043 -45.053143 -6.5593209 9209211
-184.50653 -45.13903 -7.3745275 9537664
-184.4467 -45.297085 -8.3362751 9208955
-164.82504 -45.319187 -95.317192 7695717
-164.34972 -45.22369 -96.366547 9077369
-163.96619 -45.086044 -97.312019 9011579
-163.43745 -45.046371 -98.136719 7038307
-163.69037 -44.560707 -99.183632 7038307
-188.58008 -43.572212 12.991488 7563875
-188.81285 -43.660587 11.957136 7959401
-188.89137 -43.916248 11.277582 8419696
-187.56821 -44.077549 9.1580105 8617080
-187.6111 -44.079185 8.2542667 10261133
-187.65849 -44.08123 7.1242537 9866632
-187.69943 -44.083267 5.9940696 8486006
-185.71851 -44.092033 0.33446664 7300446
-185.7356 -44.098042 -0.78404456 7760997
-185.84766 -44.127209 -1.679724 9275004
-162.99678 -44.53611 -100.10946 8090992
-163.44724 -44.258099 -101.1995 9801348
-162.8369 -44.259441 -102.1822 10854036
-162.34416 -44.260513 -102.96557 9406334
-162.06123 -44.268391 -107.49352 6840664
-161.67279 -44.269173 -108.07829 5393218
-161.15175 -44.270214 -108.85604 5392706
-160.75856 -44.270988 -109.43777 6248271
-188.76021 -42.60741 13.703161 7169371
-188.93172 -42.715931 12.877378 7564643
-189.09494 -42.743435 12.202448 8419696
-188.8607 -41.502728 14.928865 5920074
-188.99521 -41.76376 14.023996 7301467
-189.2218 -41.880352 12.972288 7563874
-189.11224 -40.821571 14.947626 6972503
-189.38586 -40.863422 13.822466 7235418
-189.27048 -39.766609 15.876425 9274488
-189.45323 -39.960884 14.881506 7367260
-189.5835 -40.172539 14.065561 6972503
-189.34398 -38.939812 16.800409 8287853
-189.56416 -38.970181 15.899912 8880506
-189.7002 -39.229172 14.992006 6512986
-189.54257 -37.772274 17.73691 6511954
-189.67955 -38.028934 16.828768 10064009
-189.90906 -38.139645 15.774256 8880503
-189.82425 -36.376575 18.684114 9735814
-189.87051 -36.79089 17.897913 7367778
-190.02518 -37.03804 16.934927 9669250
-189.93753 -35.437187 19.618216 9209467
-190.02046 -35.684883 18.933504 9472640
-190.25929 -35.760983 17.893545 9735814
-190.13362 -34.745113 19.868876 9209467
-190.37306 -34.819736 18.828489 11248279
-190.29268 -33.731297 20.733942 8419957
-190.51994 -33.787079 19.768621 8749175
-190.60889 -34.082939 18.989862 8092019
-190.41402 -32.871956 21.519674 10985625
-190.58208 -32.888783 20.841619 9143681
-190.75929 -32.986389 20.009222 9012095
-190.60931 -31.702847 22.47056 7565667
-190.69386 -31.948378 21.782602 12433069
-190.93532 -32.019482 20.739428 9538182
-190.78777 -30.773867 23.422762 8618105
-190.93741 -30.882042 22.69459 8289136
-191.13687 -30.899967 21.878523 11248795
-191.11493 -31.274664 21.13051 12433069
-191.51294 -29.461582 25.620741 9406331
-191.45029 -29.678925 24.674135 8618105
-191.35999 -29.990837 23.773119 8946813
-191.3979 -30.130671 23.0292 8618105
-193.88577 -28.581463 37.211369 8814195
-194.06062 -28.752619 36.438107 9669245
-193.86986 -29.034769 35.516621 7367005
-194.0397 -29.036543 34.582325 5920074
-191.92331 -29.069946 27.56048 9537918
-192.27435 -29.10457 26.666395 10261383
-194.19574 -27.754162 37.269432 8814195
-194.28658 -28.129051 36.802734 8814195
-194.14627 -26.650217 38.228909 6972762
-194.32709 -26.991398 37.617249 6972762
-194.2998 -25.929686 38.50124 8090986
-180.49345 -58.604282 -27.099575 9405560
-180.40121 -58.708866 -28.123095 9866114
-180.26353 -58.721512 -29.214443 9011319
-180.15285 -58.733047 -30.087742 9340023
-180.01376 -58.749249 -31.179762 9668990
-179.87399 -58.767223 -32.272202 8551542
-179.76166 -58.783005 -33.146503 8814457
-179.64877 -58.800045 -34.021168 8091247
-179.427 -59.046089 -35.099213 8024937
-179.31303 -59.065769 -35.974438 5920074
-175.92599 -59.177128 -51.02346 10260875
-175.74121 -59.178131 -51.658867 11049875
-175.49144 -59.179478 -52.504978 8354159
-175.17329 -59.181145 -53.560886 7564651
-174.84923 -59.182808 -54.615051 6840926
-174.58521 -59.184135 -55.456821 5722702
-174.24934 -59.185783 -56.507214 6445652
-173.90747 -59.187424 -57.555744 7827561
-173.62936 -59.188728 -58.392948 8091761
-173.34718 -59.190025 -59.228874 9144191
-172.98862 -59.191647 -60.271778 9077629
-172.6978 -59.19294 -61.104717 7564651
-172.41199 -59.202229 -66.427971 11576217
-172.09111 -59.203495 -67.257927 8682867
-171.76631 -59.204758 -68.086288 8682867
-171.49965 -59.066296 -69.274216 10261643
-171.18889 -59.042835 -70.253731 9933957
-170.88112 -59.054821 -71.090752 8092011
-170.70491 -59.019653 -71.903084 8618355
-170.5387 -58.956253 -73.125366 9736579
-170.27399 -58.735748 -73.984535 13025458
-169.69243 -58.942902 -74.949394 13025202
-180.79832 -57.457581 -25.294655 7826791
-180.70657 -57.86755 -26.213583 8681835
-180.79054 -57.785294 -27.071093 9537147
-180.72223 -57.817978 -28.174219 8682095
-180.58443 -57.830494 -29.267542 9406079
-180.47356 -57.841873 -30.142387 7564386
-180.32951 -57.901131 -31.145971 8156524
-180.11427 -58.098583 -32.316109 8814457
-171.5246 -58.431934 -70.633125 10591630
-171.31667 -58.449036 -71.272209 10591630
-171.0666 -58.324322 -72.217407 8815477
-170.83675 -58.271988 -73.010422 9013112
-170.45935 -57.979897 -74.228592 12038820
-169.99489 -58.039246 -75.083847 12433067
-169.58916 -58.025745 -75.882759 8354159
-169.24521 -57.673233 -76.832458 8946296
-181.036 -56.671867 -24.514456 10062978
-181.04346 -56.791962 -25.32979 8484461
-181.08099 -56.843582 -26.224756 9076595
-181.11162 -56.905003 -27.34326 9142388
-180.93562 -57.151814 -28.431564 7564386
-180.82515 -57.162003 -29.307379 9142907
-170.60222 -57.14592 -74.617683 10854036
-170.31396 -56.983356 -75.307526 8025194
-169.96635 -56.895847 -76.05265 8090987
-169.55945 -56.883778 -76.852715 9406847
-169.10619 -56.826218 -77.779152 7565418
-168.71793 -56.635017 -78.686203 8419696
-181.30476 -55.712246 -23.219538 9734014
-181.32271 -55.842201 -24.258095 10654601
-181.3705 -55.904034 -25.376635 9273978
-181.37794 -56.024712 -26.194387 10063752
-181.35458 -56.216221 -26.934202 8681835
-170.19276 -56.217579 -76.154617 8090987
-169.86058 -55.979496 -76.990074 9736070
-169.37645 -56.012554 -77.904144 7433832
-168.91661 -55.910984 -78.878471 7301988
-168.50648 -55.721104 -79.826851 9011317
-181.61288 -54.594151 -21.632378 9208435
-181.59178 -54.779312 -22.369091 10129541
-181.60068 -54.895351 -23.184423 10063751
-181.64949 -54.954559 -24.302946 9734015
-181.66728 -55.085495 -25.344774 9866372
-169.98448 -55.298168 -77.293686 10985881
-169.69412 -55.138741 -77.985207 8354677
-169.24203 -55.052677 -78.932076 8683641
-168.73055 -55.042847 -79.933601 6774870
-168.37993 -54.961403 -80.679573 8682608
-168.08797 -54.805973 -81.370796 8682608
-181.88829 -53.654167 -20.556608 8353130
-181.84732 -53.918537 -21.439142 8616301
-181.8875 -53.96265 -22.332504 11247767
-181.94954 -53.970493 -23.363832 10787473
-181.88495 -54.276543 -24.112303 9734788
-169.46684 -54.373962 -79.037544 10459023
-169.1058 -54.093781 -79.962669 7366495
-168.61903 -54.13155 -80.87809 7038041
-168.20848 -54.126255 -81.679787 8090728
-167.97464 -53.896786 -82.317436 6511954
-182.16263 -52.716778 -19.478849 9209467
-182.12245 -52.979156 -20.361942 8024425
-182.17349 -53.031769 -21.47868 8484719
-182.21393 -53.075314 -22.373697 10787473
-182.16231 -53.330711 -23.035246 11510938
-169.26917 -53.307404 -80.273582 10918801
-168.94147 -53.090012 -81.083748 9669248
-168.58037 -52.994537 -81.861427 11182227
-168.10333 -53.054802 -82.740013 8024935
-167.78351 -52.715538 -83.632286 6774869
-167.38878 -52.532459 -84.54538 5393730
-182.38504 -51.932858 -18.467655 8287340
-182.39645 -52.042305 -19.282604 7761253
-182.51212 -51.928684 -20.462513 8748660
-182.46925 -52.214909 -21.440319 9340798
-182.44879 -52.398479 -22.180433 9734788
-168.87816 -52.088478 -82.006828 12695210
-168.53995 -51.8578 -82.848061 11839900
-168.04907 -51.899651 -83.765282 6314575
-167.57132 -51.803703 -84.73954 6380372
-167.24481 -51.618046 -85.486855 8486000
-182.68643 -50.831779 -16.871386 8813680
-182.72403 -50.863316 -17.65173 8813680
-182.76138 -50.895752 -18.433041 8682352
-182.80371 -50.933899 -19.327076 7498081
-182.78784 -51.117805 -20.141611 7761253
-168.65561 -51.175632 -83.157784 12432037
-168.407 -50.943119 -83.792809 6906714
-167.87653 -50.937237 -84.793213 8090736
-167.34569 -50.932934 -85.793129 7893608
-166.97908 -50.854836 -86.538155 7038298
-183.04735 -49.593601 -15.425364 9011323
-183.01309 -49.875172 -16.513914 8550509
-183.07468 -49.881847 -17.531166 8813680
-183.13795 -49.857925 -18.398041 9142649
-183.11923 -50.0369 -19.138647 7761253
-168.11871 -50.138279 -84.91629 8616823
-167.69923 -49.974716 -85.82235 8682870
-167.19588 -50.017811 -86.736328 8485745
-166.82831 -49.940681 -87.482399 8090995
-183.34489 -48.501781 -13.822544 7039322
-183.32809 -48.675388 -14.561306 8353904
-183.34177 -48.778591 -15.377192 9142648
-183.39694 -48.820171 -16.494308 8484716
-183.42078 -48.934349 -17.535721 8484716
-167.94783 -49.152489 -85.950371 8880251
-167.47125 -49.104244 -86.880058 9538181
-167.04462 -49.103195 -87.681992 8090995
-166.61768 -49.103161 -88.483749 10064011
-166.36566 -48.875332 -89.121742 8090995
-183.62462 -47.586025 -12.955721 9341819
-183.57745 -47.8297 -13.618698 8157802
-183.62247 -47.860172 -14.511646 8157802
-183.67836 -47.899788 -15.629366 8682093
-183.6413 -48.154476 -16.517048 7892581
-167.68832 -48.266098 -87.078827 8946557
-167.31952 -48.189007 -87.827126 9077375
-166.89185 -48.188999 -88.63015 9538180
-166.46388 -48.190018 -89.432991 8091760
-166.21094 -47.962822 -90.072266 8091760
-183.88065 -46.657547 -11.640488 9142651
-183.84552 -46.906925 -12.527382 10656654
-183.90266 -46.942959 -13.643982 11709852
-183.94803 -46.9729 -14.53849 9341819
-183.91151 -47.226009 -15.426962 9273972
-167.53596 -47.350319 -88.027321 8748923
-167.18599 -47.136852 -88.838943 8157297
-166.80603 -47.046265 -89.617867 9144190
-166.3309 -47.048611 -90.5084 8880504
-165.94214 -46.708923 -91.484108 6314834
-184.23294 -45.759293 -10.550749 8353646
-184.18117 -45.95665 -11.571474 9077371
-184.18484 -46.073288 -12.640738 9736067
-184.21642 -46.131546 -13.59391 13288370
-184.18103 -46.299343 -14.334675 11709852
-167.07997 -46.130497 -89.765808 11380380
-166.78894 -45.922569 -90.647003 7630952
-166.26595 -45.968018 -91.558739 5788491
-165.8875 -45.825294 -92.498672 6117970
-165.41486 -45.726322 -93.544563 6117970
-185.22095 -44.489941 -5.9143109 9866371
-185.23549 -44.49984 -6.5848107 8945783
-185.05031 -44.66193 -7.7833295 8945783
-184.9183 -44.836681 -8.8487377 9472128
-184.78854 -45.009895 -9.6454773 9208700
-184.70363 -45.148552 -10.578053 8353646
-184.66879 -45.277256 -11.580135 7564388
-184.63322 -45.407124 -12.582666 7894126
-166.66962 -45.296448 -91.885963 5392706
-166.40292 -45.159523 -92.611336 6117970
-165.9436 -45.094963 -93.580254 5722442
-165.40015 -45.102047 -94.590096 5392706
-165.41766 -44.733944 -95.659508 7893095
-165.11583 -44.684635 -96.459801 11116952
-164.83766 -44.581051 -97.453514 10261388
-164.37257 -44.583412 -98.249367 8089963
-189.12265 -43.667477 10.742529 8551027
-189.35539 -43.758759 9.7039165 8353651
-189.43358 -44.016827 9.022337 7038307
-187.7272 -44.0849 5.0897918 8486006
-187.75543 -44.086929 3.9592454 9011320
-187.7774 -44.088963 2.8285158 9471871
-187.78981 -44.09058 1.9238679 8287341
-185.99234 -44.166267 -2.8010046 11380383
-186.04807 -44.185837 -3.9222434 9866371
-186.07175 -44.197697 -4.8196244 8945271
-186.09361 -44.210167 -5.7173142 8089963
-165.03668 -44.294384 -98.915451 8089963
-164.61922 -44.279152 -99.474869 8287858
-164.06647 -44.260616 -100.22221 8354676
-163.46687 -44.265484 -105.33669 7893358
-162.95898 -44.266544 -106.12315 8486003
-162.44736 -44.267597 -106.90707 7762539
-189.20378 -42.762112 11.752001 7564643
-189.42145 -42.800255 10.84976 8551027
-189.63916 -42.839211 9.9461727 8353651
-189.40681 -41.589195 12.679071 8090474
-189.54091 -41.852985 11.77149 8090474
-189.76746 -41.972496 10.7157 7761512
-189.65454 -40.857708 12.786207 7892839
-189.83629 -41.056393 11.788748 7432032
-189.76884 -39.880054 13.772505 8419433
-189.99704 -39.995686 12.716173 7893095
-190.13205 -40.258728 11.806093 8090474
-189.88579 -38.935978 14.69945 7696744
-190.1095 -39.000877 13.734476 9011319
-190.19531 -39.30302 12.958639 7563874
-190.17038 -37.536186 15.641401 10064262
-190.30852 -37.806614 14.708437 8486003
-190.39723 -38.128563 13.892408 7893353
-190.29466 -36.674068 16.419672 11905692
-190.461 -36.695885 15.741034 11905692
-190.63611 -36.799465 14.908491 8288624
-190.49376 -35.50267 17.359945 11379865
-190.57628 -35.752174 16.673849 10393227
-190.81514 -35.830681 15.630251 11905694
-190.60794 -34.56028 18.295275 13023917
-190.69092 -34.808956 17.6085 10525071
-190.91385 -34.835846 16.702108 8683125
-190.99655 -35.085899 16.014608 9340539
-190.85153 -33.791767 18.472208 8092019
-191.02832 -33.891609 17.638365 8486519
-191.20502 -33.99226 16.803736 8420468
-190.96484 -32.849064 19.410776 8288117
-191.1422 -32.947731 18.576494 7564651
-191.31938 -33.047203 17.741541 9603460
-191.17128 -31.75695 20.205858 8090995
-191.2554 -32.004108 19.516592 7827823
-191.48012 -32.027676 18.608076 8617080
-191.52144 -30.528944 21.3304 10459277
-191.53877 -30.843628 20.476702 8354163
-191.61272 -31.085957 19.551809 8879995
-191.6777 -31.330681 18.859381 9340289
-192.01486 -29.496981 23.337523 8618105
-191.96951 -29.719027 22.394327 9275004
-192.08464 -29.804762 21.548639 9537918
-192.11499 -29.960865 20.771547 9537918
-194.16426 -29.037876 33.881069 5919050
-194.28606 -29.039204 33.179367 6182479
-194.44475 -29.040976 32.243027 6182479
-194.56087 -29.042305 31.540361 5919050
-192.51958 -29.128235 25.992022 9537918
-192.66899 -29.137959 25.303679 7301987
-192.86716 -29.151276 24.385252 11051674
-179.58696 -58.600048 -35.131065 8024937
-179.38161 -58.775276 -36.288143 7104091
-179.24979 -58.869183 -37.085976 7169888
-179.13463 -58.891724 -37.96273 8879994
-178.98996 -58.921654 -39.059494 8945788
-178.81827 -58.944782 -40.151287 8222058
-178.66257 -58.958855 -41.021187 8814451
-178.4646 -58.977345 -42.108406 9998467
-178.2632 -58.996731 -43.195435 10524047
-178.09938 -59.012947 -44.064938 7498593
-177.93315 -59.029839 -44.934296 7367007
-177.32011 -59.168957 -45.917118 6840919
-177.04198 -59.170673 -46.984264 8354159
-176.81473 -59.172035 -47.836746 8814710
-176.58327 -59.173401 -48.688076 9406335
-176.28812 -59.175098 -49.750629 8747893
-176.04787 -59.176453 -50.599491 8089963
-175.64044 -59.129738 -56.722958 6117202
-175.31033 -59.022091 -57.90134 8353647
-175.04666 -58.915215 -58.868023 9736070
-174.7771 -58.921494 -59.715843 10130313
-174.50713 -58.929028 -60.563641 8090987
-174.16888 -58.940224 -61.623505 8288110
-173.82994 -58.953175 -62.683437 9011837
-173.55818 -58.964958 -63.531567 8092019
-173.27975 -58.975933 -64.377602 8092019
-172.91443 -58.985722 -65.429115 11840673
-172.67976 -58.79055 -66.531403 10852752
-172.40546 -58.807774 -67.380974 9406076
-172.13062 -58.826252 -68.230827 9406076
-171.92413 -58.840862 -68.868439 8682867
-180.35864 -57.641823 -31.688438 8814457
-180.27451 -57.652691 -32.345379 8354163
-180.08188 -57.891273 -33.206627 7894126
-179.96895 -57.908035 -34.08289 8485489
-179.82698 -57.930809 -35.178818 12300195
-179.68433 -57.955322 -36.275375 8419695
-179.56961 -57.976364 -37.153206 8616823
-179.45435 -57.998627 -38.031532 8353651
-179.30956 -58.028172 -39.130299 7630185
-179.164 -58.059528 -40.229927 8024677
-179.04695 -58.086014 -41.110374 9077107
-178.87463 -58.229198 -42.092159 10458763
-178.67213 -58.381485 -43.295006 10195338
-174.94264 -58.247971 -60.008408 8090987
-174.73982 -58.253769 -60.645115 8090987
-174.46904 -58.262459 -61.494114 8090987
-174.20711 -58.049843 -62.583515 8749174
-173.86696 -58.064117 -63.645584 9867657
-173.59428 -58.076996 -64.495377 8092019
-173.26469 -58.138382 -65.467056 9209727
-172.96683 -58.066902 -66.499275 9406589
-172.63576 -58.131458 -67.471619 9011575
-172.36058 -58.149746 -68.322609 9208956
-172.08487 -58.169228 -69.173958 11313822
-171.85222 -57.911888 -70.224907 11313822
-171.54565 -57.771679 -71.368111 10525583
-171.31625 -57.717987 -72.161446 8815477
-171.06516 -57.594135 -73.108719 8355182
-170.85574 -57.613434 -73.749962 7039322
-181.09621 -56.706062 -28.457327 7038042
-180.98572 -56.716156 -29.333952 9734788
-180.79443 -56.95034 -30.197094 9406079
-180.65506 -56.96616 -31.293005 7498593
-180.51497 -56.983711 -32.389355 8024940
-180.40234 -56.999069 -33.2668 7236453
-180.28923 -57.015678 -34.144646 10129798
-180.14717 -57.038155 -35.242523 10327177
-180.00438 -57.062405 -36.341045 9340539
-179.88954 -57.083149 -37.22047 10195334
-179.77417 -57.105114 -38.100384 7301222
-179.54936 -57.357815 -39.183414 6840925
-179.43298 -57.382427 -40.064175 6511954
-174.03049 -57.391277 -63.943821 13550517
-173.82571 -57.400982 -64.582077 10788500
-173.58075 -57.265793 -65.523766 9406847
-173.28644 -57.208557 -66.527313 7104865
-173.01964 -57.003712 -67.62278 9406334
-172.74399 -57.021709 -68.475739 8353909
-172.46779 -57.040901 -69.329048 10261391
-172.21065 -56.88382 -70.335991 9801098
-171.90808 -56.819649 -71.374214 9538178
-171.57269 -56.891449 -72.351295 9736579
-171.2937 -56.915894 -73.207077 9736579
-170.98267 -56.931156 -74.049774 8157035
-170.6521 -56.690071 -74.884911 7959144
-181.49968 -55.745564 -26.50979 9734529
-181.45377 -55.974583 -27.485415 8616560
-181.33723 -56.037212 -28.49605 6709333
-181.22658 -56.047153 -29.373819 7301214
-181.11548 -56.05835 -30.25182 8879735
-180.97591 -56.073952 -31.34968 6511955
-180.83566 -56.091248 -32.447971 9077113
-180.72292 -56.106483 -33.32703 7761765
-180.60971 -56.122871 -34.206394 8222572
-180.44171 -56.25444 -35.188217 10129798
-180.24448 -56.392376 -36.390354 9274747
-172.77428 -56.137703 -69.453194 8090995
-172.4971 -56.157841 -70.308357 8090995
-172.22623 -55.958607 -71.410042 8880246
-171.87796 -55.987076 -72.480896 8946295
-171.59859 -56.011223 -73.338203 9275772
-171.2868 -56.026192 -74.182343 9406590
-170.77768 -56.007973 -75.185951 8880246
-170.34381 -55.765202 -76.222633 8748660
-181.78918 -54.805641 -25.659773 9734529
-181.73596 -55.065781 -26.321795 10129289
-181.84456 -54.901443 -27.456388 7498334
-181.7392 -54.921806 -28.560583 6051660
-181.62831 -54.931618 -29.440296 6840918
-181.43666 -55.165836 -30.306524 7169884
-181.2921 -55.224606 -31.315516 7301471
-181.07629 -55.421688 -32.491966 10458510
-180.99174 -55.432854 -33.152035 11379356
-172.03719 -55.314312 -72.792717 9932934
-171.82733 -55.332378 -73.436684 8946039
-171.53156 -55.194885 -74.370972 8880246
-171.10652 -55.149303 -75.233101 7630179
-170.64682 -55.043015 -76.210915 7761765
-170.22108 -55.000233 -77.072166 8354677
-169.93065 -54.840374 -77.764008 9012606
-182.01678 -54.008099 -24.650587 10063753
-182.1071 -53.90406 -25.482214 9405566
-182.14575 -53.953377 -26.382524 9537151
-182.21271 -53.89402 -27.400959 8090472
-182.08852 -54.026703 -28.391932 5920074
-171.41052 -54.42672 -75.219818 7959144
-170.97502 -54.183884 -76.259644 9341565
-170.46344 -54.169285 -77.265068 7038556
-170.05397 -54.158943 -78.068794 8025968
-169.7193 -53.923367 -78.907143 11182488
-182.36868 -52.856495 -23.564051 10326924
-182.39548 -52.96674 -24.628714 8484721
-182.5168 -52.791653 -25.540909 8879479
-182.47382 -53.062862 -26.431124 8879479
-171.09961 -53.501202 -76.563004 11381404
-170.84972 -53.113125 -77.358513 8486000
-170.43024 -53.026482 -78.242577 8354416
-170.01955 -53.017445 -79.047554 10326922
-169.62428 -52.857948 -79.94281 11313558
-169.24403 -52.548149 -80.928856 11708316
-182.69382 -51.629936 -21.616125 8418928
-182.6571 -51.878441 -22.474234 8813686
-182.75481 -51.797855 -23.559402 9997959
-182.7744 -51.92474 -24.606409 8418928
-182.75287 -52.111919 -25.35041 8418928
-170.73145 -52.11985 -78.381737 11183001
-170.39519 -51.884197 -79.223206 10261643
-169.98326 -51.876415 -80.029442 8155754
-169.46815 -51.86832 -81.036613 9997956
-169.02713 -51.635159 -82.079597 13024175
-182.99844 -50.519382 -20.016846 7761253
-182.97899 -50.700558 -20.757935 9209467
-182.9899 -50.811962 -21.577755 8221549
-183.03119 -50.853889 -22.476837 8616307
-183.06187 -50.948044 -23.510368 9011065
-170.51756 -51.201603 -79.53054 8814709
-170.22383 -51.044147 -80.226997 7037274
-169.79355 -51.007088 -81.092491 8814196
-169.32703 -50.909904 -82.074738 10392971
-168.88922 -50.873352 -82.936607 9537917
-183.26102 -49.574329 -18.70804 9340030
-183.24268 -49.793434 -19.687359 8484976
-183.27499 -49.882587 -20.718092 9011577
-183.31694 -49.922771 -21.617449 8484721
-183.32782 -50.034756 -22.439556 8221549
-170.10832 -50.129162 -81.176735 10853521
-169.64043 -50.044556 -82.126656 9406333
-169.1096 -50.035725 -83.129799 9208954
-168.68472 -50.029896 -83.931847 7104097
-168.43529 -49.797791 -84.568184 10261132
-183.54396 -48.650074 -17.845236 7892581
-183.49496 -48.899055 -18.509562 9340030
-183.54874 -48.945309 -19.631945 9142651
-183.60202 -48.993149 -20.756216 11313818
-183.55191 -49.245255 -21.421873 8089963
-169.85013 -49.358967 -82.228836 8682867
-169.49463 -49.123402 -83.066711 9471871
-168.96265 -49.116055 -84.070976 8616564
-168.53683 -49.111378 -84.87397 9932424
-168.28656 -48.880077 -85.511345 7038307
-183.76471 -47.869747 -16.825928 7892581
-183.77779 -47.975048 -17.645554 8353133
-183.8215 -48.010281 -18.543606 8418928
-183.85495 -48.096588 -19.576155 7563619
-183.83682 -48.315903 -20.559423 13024175
-169.59741 -48.435879 -83.371048 9340030
-169.24083 -48.201557 -84.210213 8089963
-168.81422 -48.196957 -85.014488 8090736
-168.38748 -48.193432 -85.818459 7301479
-168.01904 -48.114841 -86.567101 8354421
-184.05063 -46.904854 -15.773834 9602937
-184.06009 -47.052395 -16.779587 9273972
-184.15561 -46.954151 -17.727949 7958891
-184.13853 -47.170429 -18.711061 8221549
-169.34274 -47.514 -84.51609 8089963
-169.11212 -47.14431 -85.21656 7958893
-168.7336 -47.04948 -85.995918 8157043
-168.24019 -47.112251 -86.877159 9473156
-167.89598 -46.770832 -87.770439 9801863
-167.47939 -46.587387 -88.685364 6512986
-184.65199 -45.419838 -13.03068 7894126
-184.5779 -45.577438 -13.770134 11840671
-184.53026 -45.746979 -14.735106 11116689
-184.45285 -45.972473 -15.753702 9931902
-184.39696 -46.165398 -16.811445 9931902
-184.42644 -46.189068 -17.486044 7564392
-168.90364 -46.132854 -86.339668 10065291
-168.63965 -45.990929 -87.060074 10065291
-168.20079 -45.961658 -87.930305 10327948
-167.7415 -45.877495 -88.927963 9406590
-167.35851 -45.710697 -89.915611 9736070
-185.29266 -44.55405 -9.9406796 10261132
-185.30336 -44.569889 -10.836641 8156267
-185.11671 -44.785408 -11.944414 8288369
-185.13908 -44.806469 -12.841484 9274494
-185.16028 -44.828259 -13.7395 9471873
-185.03154 -45.05772 -14.626131 9208435
-168.28769 -45.289673 -88.854912 8288365
-167.89183 -45.080528 -89.942055 10261900
-167.35201 -45.08271 -90.953171 6708822
-167.15385 -44.899551 -91.890923 5392706
-167.0977 -44.662632 -92.822289 5392706
-166.8387 -44.558403 -93.819923 5392706
-166.39697 -44.562405 -94.628754 6643029
-166.06467 -44.565811 -95.23484 5392706
-189.6188 -43.727478 8.7256374 7038307
-189.83003 -43.849316 7.6666732 7762027
-189.80969 -44.083725 6.5216537 7762027
-187.798 -44.092194 1.0191476 9011064
-187.80177 -44.094212 -0.11178428 10129802
-187.79918 -44.096222 -1.2427008 11183001
-187.79213 -44.097832 -2.1474669 8682867
-187.78401 -44.099033 -2.8258841 8682867
-186.10886 -44.219872 -6.3910031 8617075
-186.12294 -44.22998 -7.0646253 9143163
-186.1402 -44.243942 -7.9633775 9406079
-186.15559 -44.258453 -8.8625259 10590353
-186.16914 -44.273567 -9.7622356 9537665
-166.74767 -44.278687 -95.892372 5985099
-166.30049 -44.283882 -96.703491 8353392
-165.85161 -44.289631 -97.513924 8089963
-165.40109 -44.295971 -98.323463 8089963
-165.21451 -44.2617 -102.56525 9143934
-164.59549 -44.263062 -103.55832 8683127
-163.9709 -44.264408 -104.54789 8814201
-189.74805 -42.859146 9.4937687 8813945
-189.96582 -42.899681 8.5874958 8090735
-190.09872 -43.169064 7.6766562 8485747
-189.95303 -41.68158 10.419836 7037274
-190.03226 -41.938301 9.7360287 8024684
-190.26657 -42.029507 8.6917439 8682358
-190.07263 -40.732716 11.343573 7563874
-190.15233 -40.988384 10.659403 7037274
-190.38731 -41.077652 9.6151104 7761253
-190.31805 -39.966511 11.510496 7695716
-190.59967 -39.8512 10.584173 7958632
-190.57121 -40.331844 9.9915257 7761253
-190.47835 -38.381359 13.20714 8813683
-190.51947 -38.773575 12.473017 7563618
-190.69511 -38.897583 11.608564 7563618
-190.86057 -38.923973 10.926825 8485232
-190.72345 -37.613949 13.376913 7958376
-190.89813 -37.72007 12.542482 7563619
-191.07277 -37.827091 11.707102 7563619
-190.84039 -36.667168 14.30784 10064262
-191.01559 -36.771969 13.473192 8813683
-191.19067 -36.877579 12.63764 7563619
-191.05006 -35.573074 15.093477 9340539
-191.13232 -35.824501 14.405672 8024937
-191.35481 -35.854851 13.495825 8221546
-191.23177 -34.827553 15.477503 9340539
-191.47134 -34.906536 14.429907 7300958
-191.55373 -35.158524 13.74077 7037274
-191.41049 -33.856976 16.202391 9340539
-191.58731 -33.958717 15.365728 8879989
-191.75508 -33.979771 14.682268 7564643
-191.56302 -32.755325 17.220922 10524816
-191.65204 -33.053493 16.438478 9932677
-191.87985 -33.112659 15.465578 8748660
-191.83879 -31.886753 17.419016 9011579
-192.05658 -31.971148 16.448545 9735555
-192.10771 -30.428425 19.367819 10261132
-192.06032 -30.894909 18.296076 8419702
-192.26089 -30.913725 17.281107 8880250
-192.44977 -29.529886 21.276426 9537918
-192.49637 -29.717566 20.249914 7235680
-192.60973 -29.851608 19.26193 8748665
-192.66367 -30.012897 18.48657 9143166
