# .PCD v0.7 - Point Cloud Data file format
VERSION 0.7
FIELDS x y z rgb
SIZE 4 4 4 4
TYPE F F F U
COUNT 1 1 1 1
WIDTH 1170
HEIGHT 1
VIEWPOINT 0 0 0 1 0 0 0
POINTS 1170
DATA ascii
-131.89496 -58.577354 -117.20408 8484976
-130.97528 -58.481808 -117.80622 8550509
-130.23813 -58.405518 -118.28313 8879479
-129.31514 -58.310432 -118.8735 8616307
-128.39047 -58.21563 -119.45795 8747885
-127.64954 -58.140018 -119.92093 9208435
-125.90173 -57.855247 -122.62375 10985620
-125.11422 -57.764267 -123.03658 9801350
-124.32643 -57.673508 -123.44599 8485494
-163.20103 -56.929951 -89.256599 8353905
-162.71732 -56.983978 -90.166298 8616819
-162.31622 -57.066586 -90.882835 6643029
-123.93241 -57.628246 -123.649 8485494
-123.3411 -57.560497 -123.95137 8813944
-122.56104 -57.474384 -124.35987 9142651
-121.15659 -57.253418 -126.83398 9340798
-120.5818 -57.197609 -127.14832 9340798
-119.81461 -57.123425 -127.56399 7826787
-118.85441 -57.030888 -128.07762 9274745
-117.89299 -56.938526 -128.58525 8551280
-117.31548 -56.883247 -128.8867 7564643
-116.00739 -56.677219 -131.19528 8682867
-163.89062 -56.0168 -88.610207 9011835
-163.40245 -56.067982 -89.519356 8616819
-163.00087 -56.149429 -90.237114 6774615
-115.22634 -56.603401 -131.58273 9932932
-114.24922 -56.511368 -132.06207 7893353
-113.46665 -56.437901 -132.44073 7563619
-111.49192 -56.173851 -134.98027 9340027
-110.50002 -56.082241 -135.43094 7827303
-109.70594 -56.009064 -135.78668 8879475
-109.11004 -55.954395 -136.05103 10260100
-107.84774 -55.756557 -138.17213 13023917
-107.03659 -55.680016 -138.50209 10985364
-164.63904 -55.034611 -87.890076 9143422
-164.13669 -55.197796 -88.742599 10064011
-163.68655 -55.2332 -89.588783 9077371
-106.42812 -55.622746 -138.74704 6445650
-105.81937 -55.565617 -138.98932 6445650
-104.6972 -55.3797 -140.9901 7827302
-103.87669 -55.303467 -141.30066 7366751
-102.85072 -55.208504 -141.68274 8090992
-101.6805 -55.020229 -143.66158 7564643
-100.85102 -54.944347 -143.95316 7564643
-99.814079 -54.849762 -144.31248 9011833
-98.805855 -54.678047 -146.19888 7564643
-165.36087 -54.007931 -87.253777 9538432
-164.87875 -54.237949 -88.017319 7959152
-164.36145 -54.242367 -89.01664 7564651
-163.98267 -54.473541 -89.579124 10064011
-98.386871 -54.640236 -146.33649 10458505
-97.758415 -54.583565 -146.54086 9735039
-96.920631 -54.508293 -146.80997 8090987
-95.658028 -54.315578 -148.74361 7761764
-94.600761 -54.221592 -149.06189 9340286
-93.299797 -54.02681 -150.98082 7761509
-92.659599 -53.970539 -151.16133 7761509
-91.806236 -53.895782 -151.39876 9076857
-90.46328 -53.698902 -153.29677 11313555
-166.04955 -53.095795 -86.596535 9538432
-165.56691 -53.324791 -87.361839 9538437
-165.04921 -53.327759 -88.362968 7827823
-164.66995 -53.558208 -88.926819 7564651
-89.387344 -53.605709 -153.57513 9011576
-88.006493 -53.407024 -155.45743 10063744
-87.138695 -53.332653 -155.66527 9800316
-86.436722 -53.108616 -157.04684 9208435
-85.82711 -53.080719 -157.27722 8024935
-84.786903 -53.020477 -157.61581 9669246
-84.315758 -52.717377 -158.55399 8288371
-83.47921 -52.669411 -158.81699 7038307
-166.90057 -51.880379 -85.8498 9933702
-166.36821 -52.127312 -86.698189 7762029
-165.83009 -52.337578 -87.584969 8551544
-165.3584 -52.643486 -88.271912 9538438
-83.515343 -52.210632 -159.19107 9209215
-82.676392 -52.043221 -159.60492 8485494
-81.787651 -51.905796 -159.99977 11444634
-167.56912 -50.817013 -85.343971 7038298
-167.14024 -50.998623 -86.04026 7827822
-166.61444 -51.089951 -86.991463 8025202
-83.433388 -51.437286 -159.65179 9932937
-82.857521 -51.196224 -159.95024 10656658
-81.909889 -51.203384 -160.28285 9800325
-81.037254 -51.018661 -160.66425 9011323
-168.26189 -49.906071 -84.677864 9143166
-167.83252 -50.086952 -85.375755 8551287
-167.30614 -50.177113 -86.328911 8090995
-166.8768 -50.35981 -87.025444 14075837
-82.765625 -50.538231 -160.24088 9932937
-82.188896 -50.298244 -160.5392 8024687
-81.166008 -50.26099 -160.91586 7038307
-80.224411 -50.155499 -161.29056 9340289
-168.95599 -48.995422 -84.008888 8090736
-168.57452 -49.221607 -84.580284 9077629
-168.05463 -49.219074 -85.589874 9077631
-167.56918 -49.446468 -86.361794 8090995
-82.095711 -49.640373 -160.83022 10261902
-81.329018 -49.301445 -161.23456 9735816
-80.424141 -49.083633 -161.64035 11116951
-79.562698 -49.030521 -161.96609 10919315
-78.965332 -48.663464 -162.32152 10459019
-169.26947 -48.310661 -83.910072 7169893
-168.74901 -48.306908 -84.921577 8551800
-168.26288 -48.533524 -85.695419 8090995
-80.623589 -48.106171 -161.95317 11116951
-79.687378 -48.032463 -162.31348 12235172
-78.751869 -47.960251 -162.67294 10327433
-170.48907 -46.716812 -82.730263 8089963
-170.04315 -47.079159 -83.325294 8090221
-169.55817 -47.109066 -84.24308 8222579
-168.99283 -47.506451 -85.043633 9078399
-80.411568 -47.401119 -162.3049 8682867
-79.831505 -47.164799 -162.60284 10459019
-78.880119 -47.179768 -162.93376 10327433
-78.002342 -47.002041 -163.31424 9341053
-171.32491 -45.842342 -82.11705 10590353
-170.87344 -46.049248 -82.661751 8550771
-170.36588 -46.086025 -83.584061 9208702
-169.79431 -46.250225 -84.423409 8814971
-79.734108 -46.507355 -162.89563 10459019
-79.084465 -46.349125 -163.21864 10459019
-78.14518 -46.254238 -163.60912 10129541
-77.207916 -46.161762 -164.00284 9932419
-173.8889 -44.687466 -80.016373 6510930
-173.22101 -44.764828 -80.977379 8221804
-172.29846 -45.149731 -81.393639 7629411
-171.83421 -45.171326 -82.25724 10327694
-171.19987 -45.417858 -83.07225 7564392
-78.333946 -45.650631 -163.99927 8092016
-77.481079 -45.467136 -164.44034 7631466
-76.71685 -45.14716 -164.9527 9274487
-75.850189 -44.98262 -165.38202 9931902
-75.105888 -44.77356 -165.85406 9931902
-178.97971 -44.348175 -75.646889 7564646
-178.61734 -44.349186 -76.510086 7959661
-175.8398 -44.416508 -78.103172 6510930
-175.43517 -44.409889 -78.937737 6905944
-175.02931 -44.403828 -79.771263 7958888
-75.258949 -44.503899 -166.71478 9931902
-74.440262 -44.492146 -167.03484 9011060
-73.416351 -44.478176 -167.43242 9537406
-72.801628 -44.470139 -167.66956 8682867
-71.607719 -44.370632 -169.90138 9997699
-70.792976 -44.370155 -170.2467 10720651
-69.772087 -44.369564 -170.67253 11378324
-68.953789 -44.36908 -171.00938 9405822
-68.504051 -43.983662 -172.49951 9472128
-67.5271 -43.918407 -172.81448 9537920
-66.754166 -43.828945 -173.07889 10064006
-67.775726 -43.08131 -173.07788 10129801
-66.797478 -43.017403 -173.39264 10064006
-66.023338 -42.92902 -173.65704 10655629
-67.534164 -42.366306 -173.43698 10064006
-66.922501 -42.132488 -173.71185 10524043
-66.065269 -42.116692 -173.97151 10524043
-65.453209 -41.884186 -174.24594 8089963
-66.80172 -41.463955 -174.0166 10984337
-66.188896 -41.230705 -174.29156 10392459
-65.330528 -41.216152 -174.55109 9932423
-64.717194 -40.98423 -174.82559 9537409
-66.097649 -40.339725 -174.67702 9866630
-65.452736 -40.329113 -174.87192 9538176
-64.46949 -40.268925 -175.18423 8682867
-65.490791 -39.51228 -175.18207 10459278
-64.739082 -39.202114 -175.52002 11314588
-63.79221 -39.12392 -175.82483 9735300
-64.639755 -38.306564 -175.89496 12235690
-64.020523 -38.073677 -176.16464 10327181
-63.032455 -38.015255 -176.47374 9340287
-64.054192 -37.253368 -176.47198 9734787
-63.134853 -37.211086 -176.75496 9142909
-62.202747 -37.042675 -177.09036 8222574
-63.30257 -36.346764 -177.04047 9341053
-62.300873 -36.259716 -177.36458 9274491
-61.462143 -36.026035 -177.69821 8813939
-62.535694 -35.252506 -177.68585 9603199
-61.573002 -35.129608 -178.01259 10654858
-60.596661 -34.82037 -178.41522 10128771
-61.847435 -34.083473 -178.33743 8813939
-60.841805 -33.998482 -178.66193 10194307
-59.999111 -33.765965 -178.9962 9010550
-60.937698 -33.211308 -178.93837 9273721
-59.998596 -33.045338 -179.2749 8484464
-59.235924 -32.859047 -179.56808 6511962
-61.033779 -32.422886 -179.2153 8090987
-60.188538 -32.189945 -179.55054 8090987
-59.097935 -32.181568 -179.87001 8354159
-60.269855 -31.512976 -179.78864 8090987
-59.431553 -31.284874 -180.1499 9077882
-58.423946 -31.204407 -180.48497 8682867
-58.722195 -30.524429 -180.90417 8682867
-57.794697 -30.369474 -181.29745 9275260
-57.051487 -29.953726 -181.97192 8946806
-56.104038 -29.790112 -182.46739 8815220
-55.526924 -29.463701 -183.70961 9734529
-54.643742 -29.461796 -183.96948 8089963
-53.981224 -29.460617 -184.16345 8089963
-51.151226 -29.374704 -187.74799 9734787
-50.250843 -29.373957 -187.99411 8353390
-49.349613 -29.373198 -188.23668 9011574
-48.135036 -29.099077 -190.07179 10984335
-47.390209 -29.061588 -190.00385 10063235
-47.954922 -28.387062 -190.31436 8813939
-47.299877 -28.276987 -190.28293 11378324
-47.322186 -27.183628 -190.68829 10063235
-46.598858 -26.91552 -190.70758 8156523
-47.185581 -26.002224 -191.10861 12432037
-46.43903 -25.969107 -191.03874 7432288
-46.527546 -25.031731 -191.39389 8617076
-45.781223 -25.000113 -191.32353 8288627
-46.36668 -24.081818 -191.72621 10195339
-45.709759 -23.976572 -191.69281 9998217
-45.70657 -23.110922 -192.01144 7302503
-44.980999 -22.846834 -192.02907 7039331
-45.771885 -22.403946 -192.27911 7631211
-45.05621 -22.022217 -192.34111 8683127
-45.027241 -21.239521 -192.62636 9735557
-44.1553 -20.924618 -192.64664 7367264
-44.945942 -20.477333 -192.89824 8814200
-44.391872 -20.141836 -192.96097 7564651
-44.198795 -19.311569 -193.24573 10326920
-44.213612 -18.390816 -193.58667 7564651
-43.561192 -18.212252 -193.58093 7893358
-43.470921 -17.334692 -193.89467 7433064
-43.558514 -16.381746 -194.27692 7827308
-42.808826 -16.362072 -194.20552 8221809
-42.860256 -15.504466 -194.79703 10656661
-42.018002 -15.17907 -195.05005 9866375
-41.166103 -14.713722 -195.63745 8617592
-150.17053 -60.726849 -101.68276 8682608
-149.57726 -60.684849 -102.33553 6775642
-149.12393 -60.650692 -102.81842 9144190
-152.56047 -60.009159 -99.589226 9735555
-151.756 -60.146667 -100.47755 7235676
-151.12968 -60.168663 -101.27149 10261382
-150.60638 -60.154346 -101.97514 12432037
-149.98099 -60.179764 -102.76751 8880246
-148.90227 -60.462029 -103.45971 7565417
-147.95224 -60.527214 -103.86263 7828331
-147.2803 -60.456905 -104.45425 8682867
-146.60657 -60.386841 -105.04214 8681843
-145.76201 -60.2995 -105.77158 7958632
-144.9149 -60.21244 -106.49561 7564386
-144.23526 -60.143101 -107.07048 6840919
-143.55408 -60.073891 -107.64172 6906711
-142.70013 -59.98772 -108.35027 7038297
-141.84389 -59.901798 -109.05341 7563619
-141.15698 -59.833359 -109.61163 7563619
-140.46857 -59.765121 -110.1661 7037786
-139.77866 -59.697021 -110.71696 6906712
-160.66177 -59.061676 -92.601967 8617845
-160.21375 -59.060867 -93.374397 8157297
-159.45546 -59.128887 -94.051964 7828333
-158.85004 -59.117527 -94.799072 8222316
-158.17886 -59.172565 -95.643196 6643540
-157.48224 -59.311302 -96.417831 8288368
-157.05104 -59.279884 -96.935966 8288371
-155.56038 -59.394688 -97.060448 7038307
-154.91594 -59.371761 -97.959084 7039331
-154.18454 -59.453598 -98.627434 10065035
-153.63846 -59.49403 -99.237297 8420210
-152.6913 -59.608471 -99.935371 8617330
-152.03503 -59.58709 -100.81828 7301470
-151.50958 -59.571266 -101.52366 8682608
-151.11516 -59.56007 -102.05215 13023917
-139.24446 -59.639412 -111.11527 7367263
-137.66144 -59.279289 -113.6964 8681835
-137.05557 -59.195076 -114.03211 7826786
-136.24753 -59.083145 -114.47607 7366238
-135.4415 -58.972504 -114.91743 9208435
-134.48593 -58.857407 -115.50712 8814451
-133.54614 -58.75008 -116.1053 6511954
-161.32852 -58.029648 -92.081856 9670531
-160.93291 -58.15263 -92.757317 8880760
-160.48422 -58.151928 -93.53112 8683128
-159.84674 -58.181885 -94.281059 7828333
-159.06494 -58.509293 -95.029846 9143162
-130.97971 -58.37767 -119.52275 7826791
-130.23322 -58.300964 -119.9964 8353135
-129.48561 -58.224499 -120.46596 7892837
-128.54947 -58.129147 -121.04709 7958884
-127.61182 -58.0341 -121.62225 7827298
-126.86053 -57.958206 -122.07767 9537663
-126.2952 -57.900902 -122.41552 10985620
-125.38548 -57.678387 -124.48633 7038307
-162.16519 -56.768108 -91.397263 6972250
-161.73227 -57.048866 -92.027794 8814710
-161.26936 -57.015167 -92.950081 8880503
-160.8911 -57.251183 -93.507851 7564642
-124.98721 -57.632717 -124.69025 7038307
-124.21317 -57.552113 -125.11719 7827563
-123.2597 -57.458534 -125.66092 8616306
-122.4957 -57.383778 -126.091 7037274
-121.73086 -57.309269 -126.51704 8156268
-119.70689 -57.029869 -129.29628 8419177
-118.92947 -56.955311 -129.70377 8419177
-117.95663 -56.862389 -130.20712 9340537
-116.9826 -56.769691 -130.70441 10788239
-116.39756 -56.714188 -130.99974 12433061
-162.95349 -55.848274 -90.552704 5919050
-162.47168 -56.083496 -91.311806 8287596
-161.95364 -56.094547 -92.307648 8354158
-161.57507 -56.329769 -92.866676 7564642
-115.2531 -56.52446 -133.21017 7631209
-114.46242 -56.450329 -133.59061 7892584
-113.47313 -56.357952 -134.06012 8287342
-112.48297 -56.265759 -134.52364 10129543
-111.26988 -56.073025 -136.69743 9537665
-110.66805 -56.01775 -136.96484 8681835
-109.66446 -55.925785 -137.40547 10787211
-108.65849 -55.833237 -137.83792 11905436
-107.77284 -55.667194 -139.78922 7039331
-163.63936 -54.931553 -89.904274 8616819
-163.1571 -55.165588 -90.665169 8353390
-162.63882 -55.175129 -91.662651 9602937
-162.25998 -55.409351 -92.222939 7564642
-107.36292 -55.628738 -139.95262 7039331
-106.74798 -55.571056 -140.19585 6971994
-105.92783 -55.494339 -140.51662 7564130
-105.31263 -55.436947 -140.75473 8682867
-103.9612 -55.229973 -142.83754 8155755
-102.9246 -55.134411 -143.21568 8617331
-102.09521 -55.058212 -143.51418 7564643
-100.90073 -54.867966 -145.49516 8485745
-99.853226 -54.772865 -145.85031 11906725
-99.224754 -54.715958 -146.06024 7564643
-163.87756 -54.134789 -90.034492 9340545
-163.37361 -54.301155 -90.88768 8879474
-162.92166 -54.339569 -91.735023 9076593
-98.40802 -54.561436 -147.8857 10260873
-97.773293 -54.504459 -148.08743 11050386
-96.715546 -54.409843 -148.4185 11379349
-95.434761 -54.215229 -150.36192 7564898
-94.580605 -54.139751 -150.61224 8617075
-93.726685 -54.064362 -150.85913 6511954
-92.616852 -53.886566 -152.72067 9406079
-91.53978 -53.792549 -153.01173 8681835
-164.62653 -53.013599 -89.415657 8617079
-164.14099 -53.167099 -90.242622 8551025
-163.60854 -53.420883 -91.086174 9076593
-90.907753 -53.587292 -154.46089 8681835
-90.299736 -53.556355 -154.70102 8682351
-89.284386 -53.504234 -155.09462 10063753
-88.596466 -53.291004 -155.91055 10129542
-87.871368 -53.058731 -156.66798 10326918
-87.17878 -52.975842 -157.04907 9077109
-86.339981 -52.797962 -157.76024 9406334
-85.346672 -52.768471 -158.19293 9143163
-165.84041 -51.730564 -88.015892 9538438
-165.39844 -52.097435 -88.600044 8814460
-164.94115 -52.06263 -89.512184 9998214
-164.45659 -52.198086 -90.350777 9735038
-87.264244 -52.418423 -157.64336 9932678
-86.512833 -52.300632 -158.07208 9998471
-85.682335 -52.134003 -158.53682 9735299
-84.728699 -52.133545 -158.86497 7300963
-84.175529 -51.904388 -159.20589 7038307
-166.15044 -51.045868 -87.92363 11512225
-165.63054 -51.049202 -88.928841 9603969
-165.21423 -51.052963 -89.732857 8879987
-85.644753 -51.384628 -158.88979 7563619
-84.905464 -51.279888 -159.19255 8551027
-83.970352 -51.197224 -159.55594 8156786
-166.83011 -50.055763 -87.341797 11050904
-166.32143 -50.133732 -88.269753 11116951
-165.81248 -50.213062 -89.197273 9406074
-84.9786 -50.481205 -159.48 8616563
-84.276878 -50.160824 -159.85405 8485236
-83.311562 -50.068138 -160.23207 8287856
-167.52267 -49.141888 -86.678146 8090995
-167.069 -49.172935 -87.534515 9800838
-166.56216 -49.334564 -88.396812 9406333
-84.224274 -49.284187 -160.21658 7037274
-83.439873 -49.03532 -160.59181 7760997
-82.431343 -49.128853 -160.91214 8946045
-81.834023 -48.758186 -161.26897 9143680
-168.21663 -48.22834 -86.011879 10064267
-167.81122 -48.304039 -86.74144 9537925
-167.3175 -48.350346 -87.663933 8486005
-83.553276 -48.383633 -160.80742 8484976
-82.76786 -48.136227 -161.18245 9143422
-81.739784 -48.099991 -161.56052 8880508
-81.16024 -47.862026 -161.85904 10261902
-169.05115 -46.857334 -85.412804 10065291
-168.57544 -47.16103 -86.109177 9538692
-168.06192 -47.217697 -87.062408 7302245
-167.49669 -47.61866 -87.860031 8091760
-82.63044 -47.32967 -161.5475 9867145
-81.887764 -47.231236 -161.84897 8880508
-80.948624 -47.156521 -162.21068 9801607
-170.28407 -45.831303 -84.154716 9208702
-169.84256 -45.968948 -84.786858 9736070
-169.3781 -45.994671 -85.645142 10328206
-168.74886 -46.245224 -86.453346 10459791
-81.961823 -46.435776 -162.15271 9472644
-81.220154 -46.218643 -162.55443 9801607
-80.325089 -46.058823 -162.98296 10722192
-79.382164 -45.811031 -163.49513 10787986
-172.86906 -44.676006 -82.084137 6774614
-172.45828 -44.67244 -82.909523 6511954
-171.71683 -44.833 -83.575623 8748408
-170.82376 -45.202614 -84.163628 7564392
-170.40536 -45.199554 -84.980049 10524816
-169.84149 -45.407375 -85.723503 9802116
-80.523247 -45.304726 -163.50221 10985366
-79.658432 -45.112583 -163.92445 9800836
-78.729454 -45.170876 -164.21463 9605251
-77.992821 -44.962646 -164.6328 8092016
-178.25089 -44.350193 -77.371407 7235167
-177.78673 -44.35144 -78.445625 9736324
-174.8257 -44.400982 -80.187721 7958888
-174.5195 -44.397064 -80.81179 9406846
-174.00716 -44.391281 -81.850761 7169372
-78.129646 -44.553913 -165.59552 9144702
-77.514595 -44.542522 -165.83687 9143672
-76.489197 -44.524242 -166.23674 9405814
-75.668617 -44.510159 -166.55475 9931902
-74.446159 -44.372192 -168.66214 9537406
-73.637306 -44.371758 -169.02109 9077368
-72.623779 -44.371197 -169.46411 9471869
-70.644356 -44.033649 -171.84686 11708313
-69.66584 -43.965649 -172.16341 9603453
-69.05616 -43.729874 -172.43848 10261132
-69.918571 -43.128101 -172.42577 9142901
-68.938881 -43.061523 -172.74207 9603457
-68.328011 -42.826427 -173.01727 9735043
-69.712326 -42.189808 -172.86432 10261132
-69.068016 -42.17577 -173.06035 9077369
-68.209373 -42.157768 -173.32135 9603457
-67.597366 -41.92337 -173.59653 10984337
-69.114807 -41.361191 -173.37434 8419184
-68.337105 -41.27103 -173.6405 8879991
-67.35479 -41.207512 -173.9563 10524046
-68.382446 -40.455608 -173.95518 8945784
-67.635231 -40.144268 -174.3013 9735044
-66.690666 -40.063683 -174.61276 9734788
-67.546021 -39.250973 -174.68721 8090987
-66.92791 -39.015739 -174.95737 8616819
-65.93998 -38.953724 -175.26779 8748917
-66.966377 -38.195541 -175.26328 8090987
-66.047157 -38.149944 -175.54747 8748917
-65.116005 -37.978226 -175.88388 11314588
-66.220009 -37.286285 -175.83127 8089963
-65.218773 -37.195759 -176.15657 9735300
-64.381432 -36.959263 -176.49078 10261387
-65.471199 -36.376991 -176.39993 9011321
-64.468544 -36.287624 -176.7252 9801093
-63.629749 -36.051861 -177.0596 9735299
-65.424706 -35.627487 -176.70319 9537665
-64.666962 -35.316929 -177.04295 10327181
-63.697468 -35.098076 -177.40871 9866629
-62.903896 -34.919785 -177.70772 10261387
-63.873814 -34.144047 -177.72641 9472383
-62.935997 -33.975239 -178.0636 8485231
-62.174744 -33.786697 -178.35722 7564643
-63.974552 -33.356426 -178.00168 10130825
-63.130894 -33.12101 -178.33731 9275005
-62.040878 -33.109291 -178.65791 8682612
-61.414768 -32.877693 -178.92899 10261132
-63.216167 -32.444725 -178.57405 10261132
-62.371094 -32.209888 -178.90988 10064010
-61.361469 -32.124847 -179.2356 9537665
-62.236744 -31.530399 -179.21153 10261132
-61.536354 -31.256981 -179.55254 9472386
-60.608616 -31.219643 -179.84183 8880503
-61.760891 -30.653446 -179.92014 9341054
-60.840321 -30.474596 -180.33061 10327949
-59.912876 -30.218489 -180.86658 9209211
-59.196163 -29.9368 -181.36786 8682867
-58.298016 -29.798044 -181.81149 14078923
-57.954281 -29.471304 -182.98773 11906977
-56.85125 -29.4674 -183.31718 8486000
-56.189171 -29.465374 -183.51392 10985361
-53.396816 -29.376537 -187.11276 7563874
-52.499435 -29.375813 -187.36972 8813941
-51.601078 -29.375076 -187.62312 11379868
-49.562923 -29.015331 -190.25951 9471868
-48.881718 -29.136969 -190.13992 9011574
-49.474941 -28.227432 -190.54018 10458505
-48.62521 -28.118288 -190.48703 9143160
-48.750591 -27.094166 -190.87817 8681835
-48.092129 -26.984703 -190.84618 8156523
-48.661175 -26.304537 -191.15927 9143417
-47.934116 -26.035719 -191.17844 8748659
-48.025608 -25.096127 -191.5347 9143417
-47.275532 -25.063751 -191.46423 10787727
-47.866535 -24.143671 -191.86819 9143417
-47.115765 -24.112568 -191.79715 8748659
-47.205647 -23.169727 -192.1545 9998214
-46.455074 -23.140146 -192.08295 9537923
-47.044857 -22.214916 -192.48862 12433069
-46.384281 -22.110994 -192.45432 8419957
-46.381954 -21.240345 -192.77487 9998732
-45.652569 -20.976822 -192.79181 10788247
-46.448399 -20.529045 -193.04428 7564651
-45.729023 -20.147188 -193.10593 7564651
-45.70068 -19.359901 -193.3929 7564651
-44.824108 -19.04561 -193.41245 10064006
-45.619724 -18.593336 -193.66649 8354166
-45.06287 -18.257401 -193.72913 7959151
-44.86964 -17.422607 -194.01579 7433321
-44.787434 -16.653423 -194.2905 9012606
-44.202175 -16.006487 -194.58702 7762285
-44.2533 -15.226479 -195.16214 7038307
-43.499722 -15.208178 -195.09302 13551549
-149.80525 -59.92918 -103.28359 7039331
-149.41055 -59.92033 -103.80949 7499109
-148.77188 -60.113041 -104.432 7564386
-148.11597 -60.101971 -105.30792 7103067
-147.44981 -60.088627 -106.17581 6839895
-146.87569 -60.128212 -106.75018 7958376
-146.08482 -60.198025 -107.34583 7564386
-145.22641 -60.110691 -108.06827 7959144
-144.36563 -60.023571 -108.78513 9997961
-143.67511 -59.954205 -109.35432 7564392
-142.98302 -59.885025 -109.91973 7563877
-142.11562 -59.798767 -110.62101 7563619
-141.24594 -59.712917 -111.31683 7563619
-140.72296 -59.661503 -111.73154 9209467
-157.62476 -58.861992 -96.504494 8288365
-156.95403 -58.966991 -97.224129 7827821
-156.33142 -58.954365 -97.953911 9209215
-155.61411 -58.997841 -98.762138 8485237
-154.96826 -58.910324 -99.560959 7038307
-154.20776 -59.053352 -100.12612 9012091
-153.45099 -59.176334 -100.84872 10393485
-152.717 -59.274403 -101.52972 8485744
-152.00197 -59.359184 -102.37932 6511954
-151.02512 -59.486294 -102.69657 9538175
-150.19391 -59.536533 -103.28338 9406075
-149.66687 -59.524559 -103.98591 7959144
-149.00833 -59.511528 -104.8636 6709333
-148.34814 -59.499767 -105.73959 6510930
-140.37381 -59.627316 -112.00671 9209467
-139.84189 -59.572975 -112.41174 8288365
-138.88116 -59.451923 -113.02362 7433061
-138.06526 -59.335533 -113.47115 8681835
-136.81543 -59.0158 -115.78926 8484714
-136.21039 -58.93504 -116.12491 9208435
-135.44109 -58.843857 -116.60101 8551021
-134.51028 -58.744156 -117.2174 9273976
-133.76929 -58.666637 -117.7107 7038298
-159.05975 -58.04641 -95.28656 8419697
-158.41548 -58.22995 -95.941269 7104091
-157.83856 -58.187866 -96.634529 8419951
-157.18985 -58.09618 -97.438942 7696235
-156.47049 -58.138836 -98.250069 8551288
-155.82288 -58.050407 -99.05143 8814458
-155.27249 -58.09164 -99.667183 8485749
-154.53406 -58.426666 -100.3363 8814713
-154.03424 -58.624722 -100.80531 9735555
-133.39827 -58.627975 -117.95554 7761248
-132.84123 -58.57003 -118.32098 8221541
-132.0975 -58.492939 -118.80474 7761248
-131.53902 -58.435238 -119.16503 6840661
-129.46231 -58.118095 -122.19025 9470843
-128.70415 -58.041401 -122.65224 11378324
-127.94505 -57.964901 -123.11018 7827303
-126.97733 -57.861668 -123.65995 10985620
-125.98266 -57.746986 -124.17836 11906467
-160.63962 -56.956337 -93.983681 7630953
-159.90207 -57.180843 -94.745995 8288627
-159.32962 -57.139462 -95.447182 7959661
-158.75935 -57.19194 -96.095978 7367263
-158.04654 -57.235867 -96.91777 9011574
-157.32974 -57.279522 -97.734627 8353907
-156.60983 -57.414799 -98.494514 7959408
-156.17755 -57.386623 -99.012077 7564651
-124.16032 -57.461197 -126.87254 7038307
-123.38789 -57.385834 -127.3037 11379609
-122.42119 -57.29184 -127.83731 9735557
-121.64671 -57.216812 -128.25937 8419440
-120.87148 -57.141926 -128.67723 8879991
-120.28949 -57.0858 -128.98801 8089955
-118.80267 -56.859848 -131.44676 10524299
-118.01518 -56.785061 -131.84587 8616818
-117.22684 -56.710358 -132.24089 8616818
-161.40678 -56.063217 -93.390968 6906712
-160.81549 -56.087826 -94.241821 7301986
-160.24097 -56.04599 -94.945595 7630955
-159.66705 -56.005379 -95.648056 8353651
-159.02643 -56.19265 -96.308815 7762023
-158.28188 -56.48951 -97.034805 9011574
-116.24044 -56.617294 -132.72853 7828587
-114.2744 -56.351074 -135.32433 9734788
-113.47388 -56.276718 -135.69614 9537402
-112.6729 -56.202511 -136.06383 9537665
-111.87133 -56.128445 -136.42734 11709090
-110.63152 -55.933781 -138.60461 9734523
-109.81914 -55.859352 -138.95291 11905436
-108.79723 -55.763721 -139.37572 11971744
-108.18262 -55.705742 -139.62457 9012347
-162.15353 -55.072651 -92.679344 8353900
-161.64896 -55.243553 -93.530312 7762021
-161.08786 -55.178871 -94.40049 9669761
-160.51218 -55.137669 -95.105293 8353651
-159.86963 -55.324642 -95.768631 7433064
-106.86271 -55.499176 -141.74361 9998729
-105.82669 -55.40274 -142.13994 9077370
-104.79037 -55.306625 -142.53021 7563619
-103.62417 -55.116875 -144.54239 10261899
-102.7862 -55.040051 -144.8403 9735555
-101.9482 -54.963413 -145.134 7564643
-100.73584 -54.771358 -147.12564 8814971
-99.88929 -54.694794 -147.40556 8617334
-162.87337 -54.038654 -92.052208 8681835
-162.38977 -54.27557 -92.81353 8814193
-161.86923 -54.288509 -93.812874 7301213
-161.29224 -54.496895 -94.519554 11905693
-99.042793 -54.618515 -147.68143 7039331
-97.784767 -54.424217 -149.6515 10458249
-96.716423 -54.329041 -149.97803 8484719
-95.861916 -54.253162 -150.23508 7564898
-95.34095 -54.0886 -151.80997 8089963
-94.735008 -54.054493 -152.05963 9537409
-93.694405 -53.980946 -152.42287 9143163
-93.3396 -53.71468 -153.4863 9143163
-92.529182 -53.671791 -153.81445 9734523
-163.72034 -52.814404 -91.319984 9405815
-163.18709 -53.069809 -92.163857 9273972
-162.64764 -53.288998 -93.04657 7761249
-162.17545 -53.602135 -93.729057 6511954
-92.259598 -53.487602 -154.20154 9734523
-91.686852 -53.353607 -154.58911 8879214
-90.921585 -53.088848 -155.32944 9208437
-89.951485 -53.066048 -155.81105 9735043
-89.11396 -52.947506 -156.30457 10722194
-88.280739 -52.832909 -156.80571 10854036
-164.40872 -51.896069 -90.667953 9735038
-163.95517 -51.933403 -91.519295 11247763
-163.44893 -52.101444 -92.375626 10590090
-90.922066 -52.47369 -155.75552 9406332
-90.195618 -52.244503 -156.22903 9341054
-89.42852 -52.233925 -156.63297 11183001
-88.468933 -52.221844 -157.13586 10195850
-87.584564 -52.138378 -157.62439 9603713
-86.97477 -51.989677 -158.01245 10854036
-165.00594 -51.055283 -90.134895 8879987
-164.69325 -51.059315 -90.737938 8090728
-164.17169 -51.067352 -91.742973 9669246
-163.68622 -51.303001 -92.508911 9735812
-89.511574 -51.435413 -156.92114 10525328
-88.645462 -51.258945 -157.44545 9472127
-87.800957 -51.063377 -157.96651 9142906
-86.938614 -51.118095 -158.39291 8484720
-86.221169 -51.02422 -158.7989 7760998
-165.76489 -49.909851 -89.514748 8682608
-165.3835 -50.141308 -90.082054 7038041
-164.86157 -50.147938 -91.088692 8945779
-164.37564 -50.382576 -91.856331 8288365
-87.98037 -50.146107 -158.25378 9011319
-87.133385 -50.029724 -158.74321 8747891
-86.132889 -50.161278 -159.17873 8353134
-85.362419 -49.877258 -159.58104 10260872
-166.45673 -48.993111 -88.854881 13023917
-166.07486 -49.223873 -89.423485 10261382
-165.5526 -49.229118 -90.431885 6511954
-165.06618 -49.462746 -91.201088 11379348
-87.250412 -49.37616 -158.95354 9734527
-86.516823 -49.152344 -159.42651 8879478
-85.498207 -49.116436 -159.83147 10524044
-84.549637 -49.005306 -160.21083 8484976
-167.14975 -48.076778 -88.192284 8091760
-166.76747 -48.306908 -88.762291 10261382
-166.30029 -48.264641 -89.699043 7367006
-165.86244 -48.5424 -90.341393 6511954
-85.563049 -48.286415 -160.13414 10063237
-84.621605 -48.205372 -160.49918 7760997
-83.878426 -48.104088 -160.80186 8484976
-167.98245 -46.702934 -87.598869 11380380
-167.537 -47.069954 -88.189499 10064778
-167.08649 -47.098217 -89.041786 8617589
-166.54752 -47.441357 -89.831543 6314834
-84.856659 -47.265015 -160.78488 7695204
-83.949036 -47.304012 -161.09079 9208699
-83.205116 -47.204082 -161.39336 9143420
-168.92596 -45.825237 -86.799797 8288365
-168.36623 -46.035091 -87.540276 11380380
-167.94693 -46.035992 -88.352303 10525329
-167.38733 -46.247681 -89.090431 8091760
-84.104935 -46.435276 -161.38596 9735044
-83.239555 -46.25967 -161.81815 8353907
-82.465157 -45.92469 -162.30473 9735556
-81.617386 -45.738468 -162.75854 10262156
-171.73567 -44.667629 -84.351723 5920082
-171.42448 -44.666138 -84.968925 6709341
-170.75082 -44.772331 -85.748756 10788245
-170.01628 -45.010788 -86.323708 9604226
-169.35696 -45.195629 -87.019112 7367263
-168.92375 -45.265606 -87.741386 9275260
-82.760674 -45.23098 -162.7514 9406591
-81.816307 -45.132748 -163.14998 10262156
-80.86837 -45.033676 -163.54015 10985366
-80.212051 -44.873039 -163.8593 9011320
-177.31654 -44.352673 -79.517212 7037274
-176.83951 -44.353893 -80.585655 7300702
-173.49246 -44.386406 -82.88813 6511954
-173.07893 -44.383141 -83.716835 7367007
-172.66374 -44.380478 -84.544823 7893354
-80.998192 -44.611588 -164.45506 7037274
-80.38369 -44.59866 -164.70129 9011320
-79.564232 -44.581902 -165.02815 11644064
-78.74456 -44.565697 -165.35304 9671045
-77.463593 -44.373749 -167.28139 9406330
-76.460617 -44.373241 -167.74783 9208435
-75.454643 -44.372726 -168.20776 9668734
-72.881615 -44.047585 -171.18008 8288619
-71.808571 -44.018761 -171.50879 9340536
-71.198624 -43.780941 -171.7847 10984590
-72.769127 -43.377171 -171.48315 10853518
-72.079071 -43.091961 -171.80182 10590089
-71.084038 -43.111393 -172.08803 9603193
-70.473 -42.874393 -172.36409 10063744
-71.99514 -42.318024 -172.13809 10458246
-71.217285 -42.224712 -172.40553 10984590
-70.357079 -42.204441 -172.66788 10261123
-71.267693 -41.409069 -172.71886 10851980
-70.488876 -41.31683 -172.98613 9734270
-69.710243 -41.225395 -173.25302 8419184
-70.529381 -40.314209 -173.37762 8879475
-69.689003 -40.248386 -173.65247 8748405
-68.837257 -39.899837 -174.0444 9735812
-69.870903 -39.146534 -174.04214 9143419
-68.953239 -39.098522 -174.33264 9472640
-68.024147 -38.924202 -174.67419 8485745
-69.133102 -38.236366 -174.61919 9274748
-68.131805 -38.142155 -174.94597 9340798
-67.29554 -37.90258 -175.2811 8090987
-68.389183 -37.324203 -175.18756 10591124
-67.386658 -37.231277 -175.51419 7630443
-66.548996 -36.99258 -175.84941 8089963
-68.347107 -36.574501 -175.48959 8814715
-67.589119 -36.381241 -175.78409 8090993
-66.558228 -36.274158 -176.12444 8484978
-65.800087 -36.082584 -176.41833 9537665
-67.599541 -35.661613 -176.05933 7038307
-66.772163 -35.326588 -176.42876 9274751
-65.86602 -35.034058 -176.8046 10722195
-65.107277 -34.723129 -177.14491 10985367
-66.067368 -34.06076 -177.12253 11445918
-64.977409 -34.045551 -177.44446 11248026
-64.352669 -33.812031 -177.71585 9735299
-66.156624 -33.384964 -177.35788 12235690
-65.312874 -33.147625 -177.69431 10196618
-64.303864 -33.059525 -178.02097 10130825
-65.182518 -32.46809 -177.9948 10855060
-64.474327 -32.187931 -178.30849 9933702
-63.545521 -32.14706 -178.59363 9932934
-64.375046 -31.404312 -178.65479 9143674
-63.658123 -31.191767 -178.99365 9669763
-62.794601 -31.238949 -179.19568 9340801
-63.513233 -30.669436 -179.39966 9340801
-62.911545 -30.449207 -179.75095 8420470
-62.172894 -30.150185 -180.26836 8551540
-61.388386 -29.949949 -180.70628 10196107
-60.709667 -29.809977 -181.07974 11906725
-60.599941 -29.48344 -182.18825 8682867
-59.938488 -29.480026 -182.38936 8682608
-59.056789 -29.475887 -182.6563 8682608
-55.41119 -29.378138 -186.51788 8618105
-54.516754 -29.377434 -186.78493 9735299
-53.844826 -29.376898 -186.98247 7563874
-50.731426 -29.075438 -190.36578 9274748
-50.178471 -28.73336 -190.43103 9735039
-50.104771 -27.976271 -190.70192 10260099
-50.083363 -27.197021 -190.98669 9997183
-49.366055 -26.809017 -191.05084 8681835
-50.167004 -26.374241 -191.29907 11378324
-49.290966 -26.050137 -191.32222 9800062
-49.439533 -25.236975 -191.63815 10128769
-48.777409 -25.128855 -191.60526 9143417
-49.350399 -24.443342 -191.92081 8681835
-48.619381 -24.175173 -191.9393 7959144
-48.620594 -23.305511 -192.25983 7564651
-47.958012 -23.199705 -192.2261 9472641
-48.553288 -22.272635 -192.633 8683130
-47.798222 -22.243622 -192.56079 9867401
-47.889591 -21.295061 -192.92033 11643551
-47.134769 -21.267504 -192.84756 12433069
-47.728916 -20.335032 -193.25644 8354166
-47.064548 -20.232536 -193.22121 7564651
-47.063145 -19.356659 -193.54379 8354166
-46.329861 -19.093729 -193.56006 7564651
-46.878262 -18.632839 -193.79021 7564651
-46.519733 -18.142294 -193.93158 8617333
-46.255161 -17.174751 -194.25934 8157038
-45.520695 -16.913805 -194.2749 7039331
-45.487469 -16.077105 -194.64972 9473156
-146.91048 -59.880451 -107.13478 6510930
-146.38269 -59.875362 -107.83321 7564386
-145.72319 -59.870804 -108.70589 8748660
-145.19609 -59.868919 -109.40438 7037533
-144.53085 -59.865925 -110.27247 8090479
-143.78073 -59.829861 -111.07558 5920082
-143.0872 -59.76368 -111.64482 12629930
-142.38426 -59.694481 -112.20432 10064006
-152.75064 -59.006355 -102.08132 6511954
-152.32159 -58.982922 -102.59245 7104868
-151.62912 -59.088455 -103.28069 7565417
-150.9588 -59.136696 -104.07071 8486003
-150.25336 -59.105675 -104.92438 7038042
-149.68242 -59.079666 -105.60168 7564386
-149.11162 -59.054939 -106.27813 7037530
-148.12639 -59.345669 -106.82043 8353133
-147.15623 -59.482506 -107.31247 8024425
-146.49348 -59.47546 -108.18534 8288109
-145.96265 -59.471119 -108.88289 7827302
-145.43115 -59.467823 -109.5799 7037533
-141.85612 -59.642712 -112.62156 10064006
-141.32706 -59.591034 -113.03652 9471359
-140.62033 -59.522415 -113.58648 9931910
-139.87785 -59.439438 -114.10497 8353131
-139.06299 -59.326607 -114.56144 8681835
-138.04153 -59.184982 -115.12348 9208179
-137.22414 -59.072052 -115.56854 8484714
-135.30153 -58.718548 -118.47099 11378324
-134.92682 -58.679485 -118.71843 7038298
-155.17392 -57.780849 -99.955849 8814713
-154.56435 -57.85817 -100.62013 8814713
-153.80414 -58.155594 -101.33571 8749177
-153.16907 -58.119785 -102.09299 7433832
-152.52724 -58.312328 -102.73 6644317
-151.88217 -58.233418 -103.52305 7959918
-151.16797 -58.288719 -104.32107 7959918
-150.52345 -58.21299 -105.11166 7761765
-149.88417 -58.410526 -105.74295 7564386
-134.55188 -58.640518 -118.96471 7038298
-133.80096 -58.562618 -119.45412 8616043
-132.86093 -58.465454 -120.06056 8221541
-132.1076 -58.387951 -120.54099 7169372
-131.35313 -58.310635 -121.01728 7826791
-130.40851 -58.214203 -121.60678 7038298
-127.86893 -57.844994 -124.81758 13880253
-127.06448 -57.752514 -125.23345 13880253
-126.47158 -57.688137 -125.55319 8682867
-156.75098 -56.965786 -98.582695 7959408
-156.07921 -57.07526 -99.301003 7827822
-155.45512 -57.067101 -100.03001 7367270
-154.73633 -57.115429 -100.83728 8616821
-154.08856 -57.0326 -101.63567 7499112
-153.5135 -57.000931 -102.32101 6446682
-152.87015 -57.194149 -102.95937 6380889
-152.12793 -57.428783 -103.68925 7039331
-151.44254 -57.576645 -104.40188 8617590
-125.89459 -57.631313 -125.88647 8682867
-125.12442 -57.555618 -126.32737 8682867
-124.54612 -57.498928 -126.65536 8682867
-122.72888 -57.236317 -129.38829 9340798
-121.74917 -57.14183 -129.91251 9011833
-120.76832 -57.047607 -130.4306 7564135
-119.98266 -56.972393 -130.84019 9734529
-119.39293 -56.916046 -131.14478 9734529
-118.06839 -56.706581 -133.50131 9143419
-117.66972 -56.6689 -133.69775 9143419
-158.87407 -55.720078 -96.740105 8288108
-158.23422 -55.909153 -97.398979 9735039
-157.59744 -56.191479 -98.004845 8748406
-156.95734 -56.290024 -98.711601 9077374
-156.38354 -56.254845 -99.405388 8090992
-155.66316 -56.211269 -100.26872 7038558
-154.94202 -56.168991 -101.12959 6512472
-154.39041 -56.213871 -101.74464 5525835
-153.86417 -56.336952 -102.28638 5393738
-117.07137 -56.612625 -133.99013 8288880
-116.27303 -56.537701 -134.37657 8288880
-115.47404 -56.462917 -134.7588 8288880
-114.87437 -56.406971 -135.04288 9011065
-113.67136 -56.212921 -137.25688 7695204
-112.65881 -56.119617 -137.71243 8089963
-111.64558 -56.026539 -138.16188 9405819
-111.0373 -55.970806 -138.42838 10787211
-109.76204 -55.770931 -140.59857 9209467
-108.93393 -55.693024 -140.93095 8090986
-159.86087 -54.860977 -96.024757 7564650
-159.14801 -55.091003 -96.748573 7498853
-158.50143 -55.002907 -97.562401 9340538
-157.85941 -55.101147 -98.272011 10327176
-157.24619 -55.090504 -99.005241 9998472
-156.53561 -55.246296 -99.765701 9406590
-155.81844 -55.380959 -100.54478 6775386
-155.2951 -55.50436 -101.09265 6117714
-107.8985 -55.595932 -141.34036 9735811
-105.92817 -55.329227 -143.70149 7563876
-104.88097 -55.232475 -144.08777 9471355
-104.25254 -55.174603 -144.31642 8813683
-103.48745 -55.021538 -146.18719 9735297
-102.85246 -54.963634 -146.40753 8880246
-102.00576 -54.886532 -146.69786 11381404
-101.37079 -54.828823 -146.91304 8814971
-161.42854 -54.042114 -94.598907 8682608
-160.71066 -54.177555 -95.378883 9603457
-159.9922 -54.221497 -96.207947 7498857
-159.34384 -54.132656 -97.0243 7367269
-158.76875 -54.09621 -97.725899 8288109
-158.19417 -54.060944 -98.426353 10130313
-157.5537 -54.253288 -99.084267 9472383
-100.54471 -54.663002 -148.74359 10260873
-99.922211 -54.615646 -148.97859 10260873
-98.853378 -54.519787 -149.31808 9208956
-98.370842 -54.263809 -150.53947 8090987
-97.563805 -54.216702 -150.8829 7564643
-96.637413 -54.083672 -151.43677 8682612
-96.021568 -53.903793 -152.07584 8221549
-95.144249 -53.802647 -152.70929 8089963
-94.351234 -53.768436 -153.07144 8617075
-162.65384 -52.685135 -93.483086 6511954
-162.21196 -53.058296 -94.06237 6906712
-161.63931 -53.127819 -94.833534 6775126
-160.83932 -53.351509 -95.66407 8090734
-160.1891 -53.261963 -96.483009 7893358
-159.6124 -53.224934 -97.186867 7037790
-158.9693 -53.415909 -97.848633 8090987
-96.082802 -53.435432 -152.57513 8813686
-95.287354 -53.272743 -153.07236 9011065
-94.602005 -53.185055 -153.47324 8485489
-93.636993 -53.159809 -153.97034 8617075
-92.758919 -53.070019 -154.47021 9340283
-92.163834 -52.921848 -154.88005 9734523
-163.34181 -51.763515 -92.83419 7564642
-162.96085 -51.998543 -93.398048 6511954
-162.42429 -52.007061 -94.393654 6511954
-161.68263 -52.108837 -95.322296 6511954
-161.03732 -52.390762 -95.938446 10524299
-160.39148 -52.580414 -96.604164 8747892
-94.759483 -52.548546 -153.72572 9143163
-93.910141 -52.354736 -154.24858 9011575
-93.005318 -52.24876 -154.76381 9471611
-92.114067 -52.275661 -155.21689 9537403
-91.271065 -52.152084 -155.70726 9471867
-163.63727 -51.00156 -92.82769 7893608
-163.18187 -51.041683 -93.68042 6906712
-162.66435 -51.209709 -94.532318 7301213
-93.15554 -51.464828 -155.01093 9537403
-92.320831 -51.186977 -155.561 9603197
-91.457527 -51.234833 -155.99083 9537660
-90.552391 -51.104073 -156.51656 9341054
-89.746773 -50.856613 -157.03886 10525328
-89.132362 -50.703579 -157.42233 9341054
-164.32689 -50.080566 -92.175102 8288365
-163.92062 -50.163834 -92.900749 7959401
-163.42529 -50.219742 -93.819283 7564642
-92.293678 -50.312038 -155.93823 9866371
-91.678841 -50.15617 -156.3232 10129545
-90.793297 -50.070091 -156.82019 9603970
-89.830032 -50.057125 -157.32733 9341054
-89.059509 -50.048 -157.73244 7827303
-88.328499 -49.822083 -158.20695 9076855
-165.01765 -49.160168 -91.519966 10064777
-164.61104 -49.242432 -92.246895 6906712
-164.11545 -49.297054 -93.166946 7696228
-90.915245 -49.41605 -157.02817 9537663
-90.114731 -49.143055 -157.55841 9011315
-89.218918 -49.176205 -158.01123 8287339
-88.254128 -49.166447 -158.51778 9603197
-87.328407 -48.940205 -159.09386 10063747
-165.7095 -48.240326 -90.862213 6117970
-165.30258 -48.321598 -91.59053 6511954
-164.88324 -48.328091 -92.398567 6511954
-164.50056 -48.562252 -92.966423 6511954
-89.918251 -48.528347 -157.91588 14075829
-89.378502 -48.303619 -158.29025 8287339
-88.605278 -48.295784 -158.69624 7826791
-87.638794 -48.287437 -159.20309 8550512
-86.67234 -48.280579 -159.70932 10524044
-86.105606 -48.045132 -160.03668 11379095
-166.53976 -46.863205 -90.275963 6117970
-166.06378 -47.172394 -90.968925 10722452
-165.64395 -47.177753 -91.778557 6249298
-165.16794 -47.488796 -92.470177 6511954
-88.685814 -47.49472 -158.98679 7958376
-87.812233 -47.320686 -159.51402 8221548
-86.960152 -47.127239 -160.0381 10984594
-86.054802 -47.16523 -160.39993 10524044
-85.34742 -46.845047 -160.77592 7695205
-167.77209 -45.827339 -89.034737 8091760
-167.32858 -45.969311 -89.662209 5392706
-166.89658 -46.04229 -90.381554 6117970
-166.46478 -46.116161 -91.100395 7236194
-166.02243 -46.260498 -91.726379 9538691
-87.215134 -46.316326 -160.24194 9142651
-86.281967 -46.091457 -160.81786 8879479
-85.316711 -46.097168 -161.1497 7564135
-84.497536 -45.827202 -161.66072 9340545
-170.38054 -44.663471 -87.022377 9143675
-169.96001 -44.663479 -87.842422 7367263
-168.9653 -45.010468 -88.364845 11643552
-168.30519 -45.197269 -89.056129 7367265
-167.88342 -45.199448 -89.870422 5655878
-167.42418 -45.411743 -90.404709 5392706
-85.67524 -45.461311 -161.54016 7564134
-84.78392 -45.269539 -162.01407 8814459
-83.819481 -45.156681 -162.44305 7762029
-83.494286 -44.822529 -163.0546 8156270
-176.35646 -44.355099 -81.651512 7498081
-175.96524 -44.356056 -82.501976 7037274
-175.56989 -44.357006 -83.350578 9208699
-172.35129 -44.378834 -85.165138 5920082
-172.03786 -44.377499 -85.784851 10261903
-171.61859 -44.376328 -86.610466 9341059
-83.250374 -44.661903 -163.54247 8353646
-82.43158 -44.643063 -163.87605 10262156
-81.612595 -44.624908 -164.20758 8616819
-81.249275 -44.375538 -165.455 7037274
-80.257034 -44.375084 -165.94385 9670020
-79.262047 -44.374619 -166.42712 9144702
-78.463959 -44.374241 -166.80923 9144702
-75.641693 -44.351028 -170.24229 9734784
-74.952324 -44.062569 -170.5621 10129285
-73.955788 -44.077778 -170.85051 8946036
-74.872993 -43.287609 -170.89743 10063492
-74.094688 -43.190903 -171.16637 8683120
-73.31665 -43.095032 -171.43486 10130052
-74.150154 -42.374825 -171.47841 8682865
-73.370895 -42.279331 -171.74709 10261126
-72.591965 -42.18462 -172.01538 12299938
-74.122002 -41.629856 -171.78644 8682867
-73.485863 -41.255627 -172.12505 9931649
-72.576683 -41.206963 -172.41335 10851980
-71.849113 -40.902382 -172.75095 10851980
-72.76548 -40.10524 -172.8009 10128771
-71.745224 -40.155529 -173.08215 9865856
-71.058083 -39.916542 -173.38141 8945268
-72.034981 -39.193153 -173.38382 7893351
-71.035683 -39.096439 -173.71805 9865856
-70.20298 -38.855167 -174.06126 9143419
-71.30201 -38.281269 -173.96738 10654858
-70.300636 -38.185417 -174.29932 9932163
-69.464058 -37.94379 -174.63635 9537918
-71.266144 -37.532112 -174.27289 11378324
-70.508636 -37.336037 -174.56841 9537918
-69.477554 -37.225216 -174.91022 8485487
-68.719978 -37.030899 -175.20506 10591124
-70.523216 -36.616329 -174.84247 9537918
-69.652771 -36.205036 -175.25381 8880245
-68.682243 -36.040569 -175.59885 8814715
-68.999352 -35.009956 -175.90532 11906468
-67.93409 -35.12672 -176.16908 8090993
-67.285378 -34.755562 -176.5007 8814715
-68.874184 -34.330818 -176.20413 12433069
-68.168625 -34.047962 -176.51813 11709604
-67.15815 -34.076958 -176.79991 8551027
-68.070869 -33.263016 -176.84991 13090999
-67.279213 -33.175377 -177.11334 9998727
-66.487709 -33.088501 -177.37645 9867141
-67.400581 -32.272186 -177.42735 11775139
-66.524712 -32.259689 -177.68617 11775139
-65.732132 -32.173565 -177.94928 10591120
-67.272377 -31.590555 -177.72803 10459278
-66.649879 -31.357492 -178.015 10459278
-65.824081 -31.129395 -178.41034 10591120
-65.008705 -31.031569 -178.70459 8946039
-64.390106 -30.678429 -179.13837 10130825
-65.162811 -30.257484 -179.25365 9406846
-64.359001 -30.041666 -179.72128 9735300
-63.580364 -29.966225 -180.0376 9274749
-62.900578 -29.823872 -180.40514 8814454
-62.803261 -29.496752 -181.51224 8814454
-62.142231 -29.492437 -181.71588 9867141
-61.260746 -29.487154 -181.98639 12169636
-57.641586 -29.379866 -185.83151 8486000
-56.750397 -29.379181 -186.10934 9341311
-56.081242 -29.378664 -186.31493 10262415
-52.240826 -29.154476 -190.50249 8090730
-51.58543 -28.962816 -190.50108 8419951
-51.508068 -28.093603 -190.81284 7169372
-51.43008 -27.222857 -191.12509 7695973
-50.874195 -26.880676 -191.19006 9340281
-50.800762 -26.119747 -191.46243 9536888
-50.615597 -25.289331 -191.74803 9997698
-50.058895 -24.948435 -191.8125 10457478
-50.864925 -24.508766 -192.06313 9209467
-49.984119 -24.185555 -192.08539 7367263
-49.961971 -23.399923 -192.37244 6775128
-49.239834 -23.013638 -192.43541 7564651
-50.045498 -22.569471 -192.68759 6511954
-49.310543 -22.302044 -192.70538 7564651
-49.312649 -21.427334 -193.02789 7564651
-48.646244 -21.322924 -192.99323 14604230
-49.222401 -20.627075 -193.3129 7564651
-48.486568 -20.361647 -193.32986 8683130
-48.48724 -19.483936 -193.65332 7564651
-47.820217 -19.381723 -193.61774 9143678
-47.621929 -18.272457 -194.00468 7367263
-47.013142 -17.197052 -194.33429 9209467
-148.75038 -58.814224 -106.8326 6511954
-148.32213 -58.797291 -107.3391 10458505
-147.68506 -58.99844 -107.96574 7959142
-147.11464 -58.977978 -108.63947 7366751
-146.40152 -58.954193 -109.48046 7498337
-145.55725 -59.038952 -110.27685 7498340
-144.95628 -59.09898 -110.86923 7827306
-144.38403 -59.171562 -111.48191 7169633
-143.62448 -59.322994 -112.22599 13879741
-142.76407 -59.467697 -113.05627 9735296
-142.22913 -59.471142 -113.7504 9340284
-139.86833 -59.288811 -115.78141 10457478
-139.04163 -59.174664 -116.23145 11378324
-138.21481 -59.06086 -116.67702 8747376
-137.19122 -58.92355 -117.23602 7037274
-136.23686 -58.816444 -117.8479 8090215
-135.67589 -58.75771 -118.22254 8484973
-150.01868 -57.964268 -105.83722 7103579
-149.23654 -58.157101 -106.63692 6840407
-148.52177 -58.12862 -107.48254 8945780
-147.95013 -58.107246 -108.15807 8945780
-147.30597 -58.039635 -108.94379 7629666
-146.59381 -58.10635 -109.73302 8814709
-145.8844 -58.2645 -110.46773 8288109
-145.45592 -58.252357 -110.97192 9011321
-133.25305 -58.398426 -121.57513 7893090
-132.2997 -58.300941 -122.1731 8024679
-131.3448 -58.203735 -122.76501 9143163
-130.57971 -58.126198 -123.23367 9537151
-129.81355 -58.048851 -123.69827 7563619
-128.85443 -57.952442 -124.27305 10918801
-152.57625 -56.724674 -103.564 6249303
-152.05194 -56.85009 -104.10218 8091503
-151.43349 -57.032196 -104.71784 8880761
-150.79376 -57.319916 -105.29906 8814711
-150.14799 -57.246357 -106.08988 8288109
-149.4335 -57.307106 -106.88515 7037274
-148.78815 -57.236698 -107.67384 6511954
-148.21536 -57.215668 -108.35059 6972504
-147.53809 -57.304844 -109.08663 7367263
-126.82808 -57.635494 -127.11395 10656142
-126.24398 -57.578197 -127.44585 13616312
-125.46455 -57.501991 -127.88493 12629674
-124.48874 -57.406872 -128.42754 8485237
-123.5116 -57.312004 -128.96402 13550517
-121.64846 -57.046623 -131.68678 7038307
-121.0528 -56.989777 -131.99498 8879478
-120.05913 -56.895096 -132.50342 8616306
-119.06433 -56.800674 -133.00569 8090218
-118.46692 -56.74416 -133.30394 8090218
-154.2905 -55.904572 -102.03423 4342073
-153.67963 -55.985748 -102.69772 5788752
-152.99802 -56.109818 -103.41936 6578524
-152.34985 -56.032379 -104.21515 8025452
-151.77451 -56.00531 -104.89822 10064777
-151.08946 -56.136383 -105.61987 8025450
-150.36075 -56.226437 -106.4152 9144187
-149.6286 -56.366322 -107.18665 7563874
-148.9879 -56.567524 -107.8174 6511954
-117.10766 -56.532246 -135.65837 8813171
-116.50203 -56.475704 -135.94588 8155499
-115.49179 -56.381657 -136.41982 7432031
-114.48083 -56.287788 -136.88759 7366237
-112.63887 -56.03548 -139.37823 8090736
-111.8192 -55.960575 -139.73436 7037274
-110.79372 -55.866997 -140.17313 8683635
-155.71545 -55.06926 -100.83257 4342073
-155.19336 -55.193691 -101.38112 4342073
-154.64249 -55.239914 -101.9985 5657419
-153.92078 -55.201691 -102.85777 6182738
-153.19951 -55.165169 -103.71549 7037274
-152.6228 -55.137302 -104.40062 7893351
-152.04631 -55.11063 -105.08475 10064777
-151.40236 -55.308712 -105.72108 6511954
-108.85931 -55.601768 -142.58574 6643540
-107.81268 -55.504108 -142.99037 8354163
-106.97521 -55.426224 -143.30914 7564648
-105.81564 -55.235043 -145.35826 8353130
-104.96906 -55.157211 -145.66327 8353130
-104.12238 -55.079632 -145.96413 8880246
-103.36589 -54.84375 -147.50481 11379607
-102.7618 -54.804676 -147.77367 10064521
-101.95576 -54.752628 -148.12837 8814971
-101.14896 -54.701134 -148.48093 10065291
-157.8298 -53.808746 -98.992332 9932934
