# .PCD v0.7 - Point Cloud Data file format
VERSION 0.7
FIELDS x y z rgb
SIZE 4 4 4 4
TYPE F F F U
COUNT 1 1 1 1
WIDTH 1171
HEIGHT 1
VIEWPOINT 0 0 0 1 0 0 0
POINTS 1171
DATA ascii
-46.860596 -43.278008 -176.53203 11906463
-46.02029 -43.138321 -176.49414 9735552
-44.964622 -43.012104 -176.42851 6511954
-111.89248 -41.914505 -156.72397 8354159
-110.99618 -42.108318 -157.06056 8353647
-110.15163 -42.073509 -157.46609 11905954
-109.2366 -42.175343 -157.84877 8287340
-108.34093 -42.166702 -158.26732 9274748
-107.36639 -42.195568 -158.70723 9735042
-106.38573 -42.435646 -159.06409 8485230
-105.48588 -42.433861 -159.4818 8814710
-104.75717 -42.561512 -159.76759 9735812
-46.02372 -42.337299 -176.78899 16248798
-44.953995 -42.182392 -176.73239 9011575
-43.887527 -42.029228 -176.67549 9866373
-113.79437 -41.06778 -156.1868 7498591
-112.89291 -41.261116 -156.52592 7761763
-112.04415 -41.225182 -156.93388 8485229
-111.19667 -41.190121 -157.34088 9340540
-110.35041 -41.156036 -157.74687 13353398
-109.38859 -41.072163 -158.22676 9142905
-108.40197 -41.311886 -158.58652 9143419
-44.94302 -41.351894 -177.03656 9537663
-43.887577 -41.230129 -176.96931 8682355
-43.052372 -41.096653 -176.9297 7630178
-116.67097 -39.796127 -155.37065 8024943
-115.76131 -39.989059 -155.71375 7564642
-114.87589 -40.276577 -156.00719 8222316
-113.94884 -40.376213 -156.39627 8551280
-113.0971 -40.340096 -156.80571 7761763
-112.24664 -40.304886 -157.21408 8485229
-111.28026 -40.219585 -157.69661 9208954
-110.28812 -40.458904 -158.05917 10459020
-44.641777 -40.630413 -177.26988 7958888
-43.937454 -40.229939 -177.3423 7038298
-43.10918 -40.170971 -177.27603 8748915
-42.216515 -40.166409 -177.18292 13814459
-118.60509 -38.947029 -154.81941 7564651
-117.68974 -39.139759 -155.16528 9011579
-116.82964 -39.101192 -155.57951 7038307
-115.97111 -39.063503 -155.99272 7696230
-115.04 -39.163654 -156.38348 7762021
-114.20669 -39.221962 -156.74599 11577243
-113.37504 -39.280861 -157.10744 9932160
-112.50353 -39.462894 -157.4373 8945523
-111.76074 -39.588348 -157.73051 8682867
-43.038067 -39.206039 -177.62318 9274491
-42.004303 -39.135395 -177.53943 10656143
-40.859531 -39.058422 -177.4462 9801349
-120.26176 -38.063099 -154.27277 9735302
-119.62386 -38.286667 -154.60109 8090737
-118.76676 -38.249619 -155.02797 7564651
-117.90339 -38.211006 -155.44377 7038307
-117.04158 -38.173332 -155.85854 7169635
-116.18128 -38.136494 -156.27216 6775128
-115.27029 -38.332325 -156.61473 7564642
-42.007896 -38.088985 -177.92455 7629923
-40.936977 -38.192997 -177.77261 7565416
-40.075775 -38.05019 -177.73369 7762795
-39.375713 -37.657906 -177.80365 9736070
-121.22807 -37.133492 -153.97778 9208435
-120.6092 -37.363377 -154.33344 8814455
-119.83804 -37.3536 -154.87473 8090995
-118.98257 -37.318493 -155.3065 8090995
-118.1174 -37.280777 -155.72272 6510930
-117.20069 -37.476471 -156.06799 7760997
-41.703388 -37.370472 -178.15633 6512978
-40.950943 -37.176849 -178.14767 7169887
-40.11734 -37.051613 -178.10519 7302245
-39.070339 -36.943249 -178.03389 9867398
-122.30508 -35.734039 -153.81465 9735812
-121.57713 -36.432667 -154.03772 9077626
-120.82166 -36.427509 -154.60228 8288368
-120.05246 -36.41901 -155.14885 8090995
-119.14465 -36.619083 -155.51569 6972767
-40.110451 -36.251961 -178.39848 8090730
-39.277554 -36.128731 -178.35535 8551281
-38.231522 -36.022785 -178.28326 8222058
-123.27848 -34.801437 -153.51582 10853012
-122.65604 -35.03149 -153.87404 9274748
-121.77905 -35.192776 -154.45314 7498594
-121.03446 -35.490078 -154.87157 7169373
-120.41387 -35.721256 -155.22795 6972767
-39.269287 -35.328972 -178.64851 8748405
-38.208908 -35.19445 -178.58539 9603712
-37.151493 -35.061401 -178.52205 9208953
-124.25509 -33.867535 -153.21504 9011576
-123.63113 -34.097641 -153.57446 8551281
-122.76905 -34.043407 -154.24071 8419696
-122.05949 -34.320904 -154.64217 9077626
-38.185955 -34.365055 -178.88786 10459022
-37.139832 -34.262981 -178.81427 10195849
-36.311264 -34.144981 -178.76973 11905694
-125.23516 -32.932339 -152.91261 10854036
-124.6095 -33.162518 -153.27304 10590096
-123.74581 -33.107529 -153.94084 9340285
-123.03443 -33.385151 -154.34352 8222573
-37.87746 -33.649712 -179.118 8089963
-37.174709 -33.26236 -179.18581 9143677
-36.315308 -33.129341 -179.14343 9998983
-35.519238 -33.087555 -179.07425 10064264
-125.34547 -32.460289 -153.04594 10854036
-124.5838 -32.453033 -153.61597 10065289
-123.82233 -32.446404 -154.18553 8090730
-36.319069 -32.111919 -179.51785 9406848
-35.192451 -32.145454 -179.38589 9142907
-34.207039 -31.860624 -179.38593 8418928
-35.325165 -31.229626 -179.76472 8682356
-34.344589 -31.036953 -179.78062 8813686
-33.381683 -30.965595 -179.7265 8945272
-32.648056 -30.795746 -179.77229 9143166
-34.29393 -30.457041 -180.2074 8616307
-33.417236 -30.212362 -180.30099 8222064
-32.511421 -30.173456 -180.23427 8879994
-31.509302 -30.028397 -180.2384 8880250
-30.670221 -29.574322 -181.17226 9341057
-29.551521 -29.540443 -181.1557 8419958
-28.435072 -29.507401 -181.13693 9274750
-21.0497 -29.342854 -184.13194 9209215
-20.167318 -29.341782 -184.23372 7695977
-19.063753 -29.340437 -184.35471 7827047
-17.959929 -29.339077 -184.46954 8419440
-17.076262 -29.337982 -184.55652 8946039
-16.192217 -29.336882 -184.63916 9209211
-13.273072 -28.925922 -186.28261 9012091
-12.290998 -29.047533 -186.13356 5919050
-11.615033 -29.029497 -186.06836 6643029
-12.986569 -28.399071 -186.44617 8617331
-12.314954 -28.158714 -186.46321 7630180
-11.412293 -28.135496 -186.37584 6972250
-10.592942 -27.818686 -186.40543 8089963
-12.112668 -27.262653 -186.77153 8288365
-11.440293 -27.023018 -186.78831 7958888
-10.311425 -26.995958 -186.67833 8418927
-9.4143991 -26.752459 -186.67267 10064006
-11.230786 -26.34869 -187.01425 8813686
-10.421281 -26.151251 -187.00093 8945272
-9.3393908 -26.037596 -186.92784 9472127
-8.5309114 -25.841595 -186.91417 8618099
-10.347127 -25.434734 -187.25694 8813686
-9.4475451 -25.191509 -187.25102 8682612
-8.3182726 -25.167616 -187.13989 7959400
-7.6455812 -24.930634 -187.15578 7564898
-9.2353601 -24.515978 -187.47739 9143675
-8.4717836 -24.231682 -187.50104 8946039
-7.4316454 -24.255878 -187.3817 8617586
-6.7582712 -24.019369 -187.39737 9011579
-8.2752314 -23.451065 -187.76781 9472640
-7.4508333 -23.136229 -187.79628 10130057
-6.5465326 -23.119606 -187.70636 9472383
-5.7226801 -22.806273 -187.73434 9209467
-7.2396364 -22.234304 -188.10614 10985111
-6.5637751 -21.997616 -188.1216 10261900
-5.5224695 -22.0249 -188.00098 9143418
-4.7573404 -21.742889 -188.02367 9143163
-6.3473825 -21.319035 -188.34865 9209467
-5.6708193 -21.082718 -188.36391 9208956
-4.5390978 -21.064877 -188.25031 9143163
-3.63696 -20.826212 -188.24243 8089963
-5.4531641 -20.403162 -188.5912 9537921
-4.6394625 -20.210226 -188.57582 9537921
-3.6445589 -20.037863 -188.53371 10393485
-4.5594339 -19.260363 -188.9173 8813942
-3.6521235 -19.247732 -188.82562 10261642
-2.5952959 -19.158161 -188.74641 10196106
-3.8113451 -18.420092 -189.14745 10129800
-2.7546167 -18.104149 -189.15167 9867142
-1.6663637 -18.000174 -189.07448 9275006
-0.94286829 -17.629223 -189.13426 7038307
-2.5343065 -17.193979 -189.46365 10787985
-1.7635508 -16.912291 -189.48558 8946044
-0.71881205 -16.94603 -189.36224 7038307
-0.038952887 -16.711637 -189.3764 8485494
-1.6307039 -16.273945 -189.70668 8945015
-0.72274882 -16.042532 -189.77147 10129801
0.18632406 -16.033306 -189.67987 8222317
1.0946875 -15.803275 -189.74854 9012085
0.18455023 -15.36934 -190.17888 8090216
1.0953627 -15.139045 -190.25827 10262151
2.0059462 -15.131019 -190.1673 13419956
2.9175329 -14.901648 -190.24602 11905692
3.8459082 -14.505879 -191.24841 6510930
4.9891233 -14.49837 -191.14624 8288621
5.9028578 -14.492643 -191.06369 10789268
15.597327 -14.308067 -194.74506 8485494
16.530039 -14.306661 -194.67017 10392974
17.462248 -14.305246 -194.59081 8682867
25.894522 -14.095831 -197.81541 11774882
26.870626 -13.862917 -197.90874 8420726
27.97978 -13.920021 -197.89738 10524814
29.053225 -13.760347 -197.96477 8617847
27.146498 -13.142535 -198.17406 9341313
27.884394 -12.906651 -198.2664 7828331
28.853914 -12.91404 -198.27205 10919829
29.824839 -12.921726 -198.27748 9143933
28.162558 -12.183569 -198.53276 8090987
28.890799 -12.188766 -198.53708 12169640
-101.56269 -43.829647 -160.73248 9209726
-100.71001 -43.917233 -161.09206 9142645
-99.766563 -44.048462 -161.47597 9405046
-98.823128 -43.975456 -161.94286 8090475
-97.995705 -43.952473 -162.33563 7564651
-97.12542 -44.156853 -162.65585 7564651
-96.29969 -44.135651 -163.0471 9537920
-95.264549 -44.264263 -163.08243 10195850
-94.079048 -44.412651 -163.29933 8221291
-93.100334 -44.41214 -163.86594 8089963
-92.314758 -44.411736 -164.31483 7827303
-86.185486 -44.404724 -165.29823 7827308
-85.393135 -44.404251 -165.7139 6906204
-84.598839 -44.403774 -166.12566 6839893
-83.603065 -44.40316 -166.63487 10195332
-82.604439 -44.402534 -167.1384 15196110
-82.003792 -44.402157 -167.43764 9208443
-74.898178 -44.393974 -168.54135 9537406
-73.888008 -44.39325 -168.99203 9340284
-72.875397 -44.392521 -169.43712 9932163
-72.063278 -44.39193 -169.7886 9997699
-71.249512 -44.391319 -170.13622 11378324
-70.229866 -44.390556 -170.56503 10720652
-69.207848 -44.389778 -170.98805 8682355
-68.38829 -44.389145 -171.32187 7235421
-67.772667 -44.388668 -171.56984 7958888
-50.073112 -43.980556 -176.61475 8222060
-48.967628 -44.034515 -176.47755 10590612
-48.036831 -43.957314 -176.40712 8814971
-103.41119 -42.974636 -160.22348 9209467
-102.68594 -43.103397 -160.50722 9208700
-101.79186 -43.105373 -160.92076 9208956
-100.77599 -43.165577 -161.367 8945781
-99.830055 -43.091934 -161.83537 9208955
-99.000359 -43.068432 -162.22937 8091503
-98.171394 -43.045929 -162.62271 7565675
-97.255997 -43.477505 -162.87146 7565163
-96.385918 -43.683083 -163.19119 9735039
-48.997284 -43.213203 -176.78264 9538178
-47.873425 -43.286434 -176.63641 8814971
-47.199493 -43.013142 -176.66534 9735552
-105.26989 -42.119835 -159.70953 9735812
-104.54114 -42.247959 -159.99515 9735812
-103.75939 -42.298264 -160.33701 10722451
-102.80857 -42.221584 -160.80881 10392973
-101.7897 -42.281448 -161.25671 9603201
-100.84103 -42.207218 -161.72647 9603457
-100.06348 -42.260975 -162.06493 9208955
-99.341103 -42.393105 -162.34605 9208955
-48.687809 -42.253963 -177.10239 7762277
-47.988037 -42.19849 -177.04855 6775643
-47.057606 -42.125584 -176.97659 11314585
-46.361649 -42.071667 -176.92258 16248798
-108.28872 -40.845745 -158.82848 9143419
-107.39774 -41.04393 -159.16078 9208956
-106.50874 -41.242657 -159.492 7696229
-105.66899 -41.213451 -159.89301 9669251
-104.83028 -41.185135 -160.29326 9735812
-103.82958 -41.33643 -160.69545 12893620
-102.80752 -41.395988 -161.14487 12828083
-101.91064 -41.399239 -161.55925 11182745
-101.18502 -41.530598 -161.84206 9208443
-47.846394 -41.308788 -177.36058 6511962
-47.170067 -41.037491 -177.38853 7301220
-46.218323 -41.184772 -177.23334 9143418
-45.39793 -40.831738 -177.27603 8551024
-110.17567 -39.991062 -158.30141 8682867
-109.27992 -40.188774 -158.63617 8616818
-108.43494 -40.157661 -159.04034 9143419
-107.5911 -40.127434 -159.44377 9011577
-106.7483 -40.098064 -159.84624 8156780
-105.78985 -40.019623 -160.32233 9011833
-104.80872 -40.264126 -160.6776 9735812
-103.87635 -40.694523 -160.93474 13683136
-103.03883 -40.6684 -161.3334 15197142
-47.004475 -40.366207 -177.61774 7564392
-46.328564 -40.096714 -177.64508 8090479
-45.168556 -40.012356 -177.55299 9011832
-44.264603 -39.728825 -177.5612 6511954
-112.07436 -39.135834 -157.76915 9274745
-111.17365 -39.333202 -158.1064 8682867
-110.32465 -39.300938 -158.51291 8682867
-109.47684 -39.269577 -158.91853 7563618
-108.63023 -39.239086 -159.3233 7563618
-107.78471 -39.209476 -159.72714 8682354
-106.99464 -39.259605 -160.07286 8682867
-106.25991 -39.389095 -160.36078 8419696
-46.161983 -39.426029 -177.87402 8616822
-45.254604 -39.141968 -177.88206 8288622
-44.096622 -39.06081 -177.78894 7827815
-43.424629 -38.795742 -177.81509 7762277
-115.1601 -37.860043 -156.8578 7039322
-114.15495 -38.099747 -157.22615 8880502
-113.13041 -38.245628 -157.64166 10458762
-112.27676 -38.212517 -158.05067 9669247
-111.44696 -38.274174 -158.41013 9011575
-110.52355 -38.379536 -158.79527 10458505
-109.6741 -38.3489 -159.20139 7761509
-108.88018 -38.398266 -159.54922 6511954
-108.14165 -38.527313 -159.839 9011320
-45.023605 -38.321445 -178.15915 8814710
-44.180489 -38.190624 -178.11777 9143675
-43.255692 -38.128178 -178.04256 9011576
-42.584087 -37.864857 -178.06808 9011576
-117.09126 -37.002357 -156.31142 8155755
-116.07991 -37.242046 -156.68271 6907224
-115.10146 -37.155529 -157.17131 8289133
-114.24303 -37.121662 -157.58292 12762286
-113.38593 -37.088642 -157.99348 9866627
-112.53017 -37.056526 -158.40315 9406077
-111.5209 -37.407913 -158.72803 9866625
-110.67294 -37.687569 -159.00728 10918798
-44.180122 -37.386597 -178.41336 9340798
-43.337845 -37.257862 -178.37123 9932167
-42.279922 -37.145409 -178.30032 7499105
-41.283039 -36.906876 -178.2822 7037274
-119.03588 -36.14312 -155.75951 6840667
-118.01807 -36.382824 -156.13374 7234653
-117.03442 -36.295185 -156.62526 8682099
-116.17133 -36.260468 -157.03932 8289133
-115.30972 -36.22657 -157.45241 9538944
-114.44956 -36.193501 -157.86446 10591118
-113.53953 -36.39328 -158.20497 9866627
-43.336018 -36.453873 -178.66663 8156779
-42.460419 -36.193573 -178.66937 9011576
-41.341885 -36.255062 -178.52803 7959400
-40.441582 -35.98119 -178.53314 8090730
-120.71694 -34.939911 -155.3589 6248785
-119.9047 -35.235439 -155.72586 6446421
-119.05665 -35.294609 -156.09482 5262144
-118.11285 -35.397621 -156.49034 8024169
-117.24653 -35.36293 -156.90585 9603202
-116.38172 -35.329006 -157.32045 12103592
-115.46616 -35.528778 -157.66351 10788755
-41.377182 -35.217682 -178.91316 9407359
-40.326767 -35.187534 -178.81273 8946551
-39.599522 -35.057297 -178.78345 10263180
-121.68848 -34.004345 -155.06268 8024682
-120.97501 -34.07869 -155.55972 6446423
-120.17713 -34.063934 -156.07578 6710365
-119.25103 -34.26313 -156.42407 6447192
-118.38175 -34.543583 -156.71288 8945271
-117.40584 -34.66264 -157.11678 10261132
-41.056122 -34.267193 -179.22842 9144187
-40.326172 -34.137115 -179.19882 9144187
-39.444847 -34.174187 -179.09164 9866885
-38.628403 -33.836842 -179.12898 10590864
-122.66319 -33.067612 -154.76472 8748919
-121.94827 -33.141491 -155.26299 9143678
-121.18812 -33.137093 -155.83064 7564905
-120.55955 -33.368397 -156.18137 7039331
-40.210163 -33.341595 -179.47893 9144187
-39.538094 -33.084976 -179.50191 8879735
-38.389591 -33.02219 -179.40303 8616307
-37.491108 -32.755413 -179.40573 7038307
-123.49596 -32.207237 -154.53755 8090730
-122.92472 -32.203068 -154.96451 9406847
-122.16309 -32.198097 -155.53348 8617335
-121.53851 -32.43082 -155.8922 7038307
-39.363655 -32.417702 -179.72862 9142907
-38.462067 -32.150421 -179.7312 9208699
-37.315269 -32.090389 -179.6315 8354163
-36.646416 -31.837414 -179.65344 7038307
-38.286404 -31.483551 -179.95758 10524812
-37.535614 -31.188658 -180.02873 8616821
-36.478622 -31.180016 -179.92325 8354163
-35.821247 -30.937996 -180.00084 8089963
-37.258339 -30.591526 -180.42033 6510930
-36.518044 -30.419281 -180.47314 7235167
-35.691662 -30.312744 -180.46651 8879479
-34.618057 -30.008066 -180.71893 8682100
-33.588783 -29.665823 -181.20522 7038307
-32.689205 -29.63706 -181.19667 9143166
-31.791101 -29.608898 -181.18677 9669253
-27.867687 -29.350904 -183.19954 9932678
-27.209486 -29.350143 -183.30074 10655885
-26.11158 -29.348869 -183.46417 10129797
-25.012648 -29.34758 -183.62143 9077624
-24.133053 -29.346542 -183.74225 7894382
-23.032574 -29.345238 -183.88719 8814969
-21.931301 -29.343916 -184.02591 9209215
-16.136911 -29.156328 -186.50218 10261899
-15.463693 -28.913622 -186.51993 7564905
-14.419831 -28.928257 -186.40364 8946809
-13.884645 -28.646122 -186.45061 7762283
-15.266072 -28.015614 -186.82948 7762283
-14.585046 -27.996771 -186.76407 7564905
-13.543714 -27.92396 -186.68019 8617332
-14.535012 -27.176487 -187.06059 7762283
-13.567407 -27.121223 -186.97816 7170143
-12.574471 -26.939571 -186.93956 7367263
-13.653268 -26.258896 -187.30472 6643543
-12.595967 -26.158083 -187.22949 7827814
-11.540093 -26.058201 -187.15402 8617074
-12.528295 -25.305744 -187.53607 8090986
-11.485261 -25.236656 -187.45071 9537664
-10.655911 -25.143377 -187.39705 8550514
-11.585443 -24.267435 -187.8185 9406079
-10.60489 -24.096447 -187.77734 8813686
-9.8110552 -24.07976 -187.69922 8353391
-10.553597 -23.047087 -188.15857 9011065
-9.673707 -23.089239 -188.04961 9077626
-8.7369547 -23.011055 -187.97897 10393742
-9.6639185 -22.129019 -188.40239 9669763
-8.8319025 -22.038233 -188.34749 9670019
-7.7883997 -21.974201 -188.26024 9472384
-8.7724047 -21.210518 -188.64612 8551284
-7.7127314 -21.116714 -188.56813 9012088
-6.6542902 -21.023672 -188.49007 9735812
-7.8789225 -20.291513 -188.88985 8419696
-6.8187494 -20.198826 -188.81143 10129802
-5.7597132 -20.106871 -188.73291 9208956
-6.8312464 -19.407299 -189.10442 9340286
-5.8324709 -19.233643 -189.06233 8879735
-5.0135889 -19.266912 -188.96309 8089963
-5.8074198 -18.20969 -189.4369 8682867
-4.7998667 -18.130867 -189.35901 9208955
-3.9689493 -17.817406 -189.38629 9669506
-4.9495707 -17.041975 -189.77608 10130313
-3.9015322 -16.983189 -189.68648 7958632
-3.0673571 -16.897251 -189.62961 7827046
-4.592927 -16.308212 -190.00854 9537920
-3.8348017 -16.150797 -190.03308 7432032
-2.9996881 -16.067038 -190.00012 7958632
-2.164834 -15.983782 -189.96834 9735041
-1.4070826 -15.827772 -189.9969 8616560
-2.7812815 -15.399 -190.4727 7037274
-2.0214205 -15.242904 -190.5112 7564643
-1.0476274 -15.203561 -190.43745 8813939
-0.044877112 -14.927508 -190.54216 8616817
0.86916631 -14.527205 -191.50833 10590606
1.7856512 -14.520378 -191.42912 13747899
2.9306784 -14.51212 -191.32924 8287338
12.563865 -14.3126 -194.95735 8486262
13.264194 -14.311561 -194.91243 8024940
14.197749 -14.310166 -194.84885 7038307
14.897696 -14.309119 -194.79826 8485494
22.287455 -14.070204 -197.79396 9012606
23.094114 -13.915547 -197.85722 8880505
23.978773 -13.841554 -197.89183 8353647
24.94153 -13.848377 -197.89755 11972262
25.916418 -13.615165 -197.991 9341313
23.036608 -13.354869 -198.06143 8090989
24.096148 -12.960764 -198.21432 7498080
24.983633 -12.886251 -198.2491 11840675
25.949266 -12.892743 -198.25496 9801606
26.839411 -12.81857 -198.28966 9341313
25.015245 -12.162908 -198.51347 14142656
25.850225 -11.877956 -198.62453 9340285
26.961878 -11.933381 -198.61382 7565675
27.689199 -11.938205 -198.61829 8090987
25.783922 -11.199784 -198.87152 10590094
26.511114 -11.20403 -198.87617 8089963
-94.856018 -44.100777 -163.73036 9537920
-94.237862 -44.086807 -164.02251 8089963
-93.41404 -44.068913 -164.41158 9208435
-92.590675 -44.051956 -164.80002 8616303
-91.548088 -44.183826 -165.07483 8156011
-90.537399 -44.251999 -165.49417 9077370
-89.629158 -44.204517 -166.00336 9406080
-88.792923 -44.184296 -166.36055 10261132
-87.921516 -44.147228 -166.65019 11378840
-87.045647 -44.108261 -166.92807 10195081
-85.912125 -44.284523 -167.19647 8616306
-84.821678 -44.23848 -167.54144 8221285
-83.950737 -44.202736 -167.81653 8681835
-83.081078 -44.167995 -168.09087 9208443
-82.009285 -44.223473 -168.12161 10524301
-81.077232 -44.216686 -168.39575 12432555
-80.014656 -44.262165 -168.66937 11512479
-79.122063 -44.277187 -169.01663 9867910
-78.174744 -44.399635 -169.28149 9997702
-77.363319 -44.399086 -169.65845 9471355
-76.306328 -44.375381 -170.0356 9734784
-75.231621 -44.342251 -170.37061 9734784
-74.372879 -44.316917 -170.63792 7565153
-73.514885 -44.29253 -170.90457 6512978
-72.443504 -44.263458 -171.23709 9603450
-71.373192 -44.235664 -171.56865 11445141
-70.517769 -44.21463 -171.83325 10063744
-67.156006 -44.388184 -171.81516 9406590
-66.332542 -44.387535 -172.13913 9406590
-65.507515 -44.386871 -172.45915 9669250
-64.680893 -44.386204 -172.77513 9931910
-63.645531 -44.385357 -173.16435 9997960
-62.607956 -44.384499 -173.54767 9735043
-61.776161 -44.383801 -173.84982 9471871
-60.942993 -44.383099 -174.1478 10854036
-59.899403 -44.382206 -174.51447 9341569
-58.853733 -44.381302 -174.87535 10261901
-58.015633 -44.380566 -175.15923 9142907
-57.176159 -44.379826 -175.43915 8353135
-56.124866 -44.378887 -175.78311 7564651
-55.071697 -44.377941 -176.12128 9143681
-54.227566 -44.377171 -176.38696 9143166
-53.382221 -44.376392 -176.64867 8616823
-52.275253 -44.094887 -176.80641 8945530
-51.097546 -43.993809 -176.7186 9537409
-50.417652 -43.715931 -176.74861 10261132
-97.179596 -42.792377 -163.18536 9406848
-96.142113 -43.146229 -163.52235 9735039
-95.23243 -43.200584 -163.92178 8748402
-94.40657 -43.182152 -164.31204 8879728
-93.605812 -43.255917 -164.65315 9603450
-92.599815 -43.326626 -165.09128 9340024
-91.59565 -43.398853 -165.5298 8616305
-90.617546 -43.563412 -165.91908 8945271
-52.052246 -43.265015 -177.08784 6840152
-51.195877 -43.119423 -177.05051 9537409
-50.255661 -43.041409 -176.97934 9537921
-49.576263 -42.765461 -177.00864 9012600
-99.845863 -41.950123 -162.2921 9208955
-99.123451 -42.082611 -162.57309 9209213
-98.231544 -42.089489 -162.98361 9341313
-97.218437 -42.155151 -163.42642 9670277
-96.273842 -42.086815 -163.89191 10064004
-95.445854 -42.068012 -164.28406 9011574
-94.619423 -42.05056 -164.67728 9077108
-93.653694 -42.409595 -164.97939 10130052
-92.841438 -42.696621 -165.23991 9932416
-51.207424 -42.310337 -177.34918 5919050
-50.352207 -42.167141 -177.31102 6906201
-49.277515 -42.036922 -177.24481 7235933
-101.69317 -41.08712 -161.7869 9208443
-100.96754 -41.218906 -162.06956 9537664
-100.18833 -41.273346 -162.40852 9997959
-99.239555 -41.202003 -162.87721 9866631
-98.223602 -41.267212 -163.32152 8617848
-97.277237 -41.198524 -163.78949 9341313
-96.502625 -41.256767 -164.12714 9932418
-95.576767 -41.388649 -164.50635 9735039
-50.362206 -41.358391 -177.60945 6314319
-49.273529 -41.199291 -177.55232 8552050
-48.188354 -41.041939 -177.49501 6511956
-104.69267 -39.799767 -160.92012 9735812
-103.8064 -40.002254 -161.24852 9735812
-102.89848 -40.112659 -161.62437 10787731
-102.0847 -40.180676 -161.97386 11314588
-101.20305 -40.385113 -162.29936 9734787
-100.25169 -40.313225 -162.76955 9406078
-99.233574 -40.378387 -163.21657 9143419
-98.340416 -40.387024 -163.63049 9143934
-97.61853 -40.522385 -163.91243 9341313
-49.269077 -40.360779 -177.86009 9473408
-48.194885 -40.235245 -177.79221 7367267
-47.345409 -40.098522 -177.75233 7564392
-106.56628 -38.937279 -160.40242 9998467
-105.67559 -39.139244 -160.73312 9669505
-104.83367 -39.112709 -161.13406 10130825
-103.99271 -39.086994 -161.53421 10130825
-103.15267 -39.062141 -161.93364 9012606
-102.31441 -39.038502 -162.33359 8749691
-101.3466 -39.318455 -162.67 9932680
-100.29551 -39.673035 -163.01318 10261132
-99.462425 -39.65239 -163.41304 10261132
-48.968128 -39.631561 -178.09628 7762277
-48.253944 -39.225681 -178.16963 8222319
-47.350445 -39.292019 -178.04939 7564392
-46.501976 -39.157505 -178.00874 7564392
-108.6627 -38.081539 -159.77875 9011320
-107.79127 -38.168022 -160.14743 9406333
-106.82708 -38.298355 -160.54129 10129797
-105.8654 -38.22142 -161.01825 9472124
-105.022 -38.195457 -161.41985 9012088
-104.18053 -38.170727 -161.82225 10130825
-103.39517 -38.225353 -162.16737 8092019
-102.66491 -38.358875 -162.45409 9012606
-47.407532 -38.282455 -178.42654 8485233
-46.527664 -38.132446 -178.38829 8288113
-45.657944 -38.218822 -178.26427 6380625
-111.72607 -36.793888 -158.88255 9537918
-110.82255 -36.994671 -159.2196 9800832
-109.82999 -37.192734 -159.59911 9734785
-108.71473 -37.433697 -160.01801 9734788
-107.74889 -37.355366 -160.49745 9406334
-106.90195 -37.328377 -160.90141 9998211
-106.0572 -37.302647 -161.30635 9735296
-105.16593 -37.507511 -161.63821 9012088
-104.53484 -37.489494 -161.94209 10130825
-46.553059 -37.105896 -178.76842 9669503
-45.448727 -37.178246 -178.62459 7827559
-44.538807 -36.897869 -178.63109 8090987
-113.64199 -35.929176 -158.34612 9866627
-112.73333 -36.129833 -158.68567 8484977
-111.7589 -36.048439 -159.1703 9011575
-110.71341 -36.105568 -159.63164 8814453
-109.67057 -36.163692 -160.09218 7498337
-108.8431 -36.230015 -160.45107 9011320
-107.94474 -36.433975 -160.78557 9735299
-107.04902 -36.638535 -161.11998 9735296
-45.238117 -36.136864 -178.98509 7563619
-44.331665 -36.136841 -178.88887 7893351
-43.54554 -35.881748 -178.89917 7762277
-42.786385 -35.687778 -178.88991 7762277
-115.5706 -35.063038 -157.80446 10788755
-114.65648 -35.263634 -158.14653 9604480
-113.67727 -35.181107 -158.63388 9275262
-112.62624 -35.237473 -159.09801 8551283
-111.65134 -35.157299 -159.58408 8814197
-110.79752 -35.129311 -159.9955 7038298
-109.8946 -35.333542 -160.3335 9077889
-44.390373 -35.2015 -179.23897 8024170
-43.543861 -35.075466 -179.19545 7892840
-42.615601 -35.018562 -179.11781 8354158
-41.940975 -34.758289 -179.14192 8090730
-119.14112 -33.785973 -156.66887 7039331
-118.37991 -33.913837 -156.96967 10064009
-117.62009 -34.041969 -157.2697 8747893
-116.59251 -34.39587 -157.6021 8814196
-115.60823 -34.312229 -158.09219 11512217
-114.55148 -34.36797 -158.55931 11183512
-113.57202 -34.286701 -159.0484 8354934
-112.76826 -34.337669 -159.40349 9144449
-112.02002 -34.468979 -159.69955 9011320
-43.542011 -34.268177 -179.49207 9011065
-42.696434 -34.144131 -179.44785 8287342
-41.634331 -34.037697 -179.37425 8814710
-120.34101 -33.043388 -156.4147 7039331
-119.4016 -33.03857 -156.85201 8091505
-118.33369 -33.092644 -157.32486 13222585
-117.35551 -33.150761 -157.7549 8089963
-116.50147 -33.281662 -158.09895 8748659
-115.50542 -33.414509 -158.50758 11512217
-114.69738 -33.465027 -158.86513 10459533
-113.94494 -33.596237 -159.16325 9144449
-42.693058 -33.336639 -179.74429 8550513
-41.616638 -33.201504 -179.67972 8682099
-40.543358 -33.067696 -179.61494 8616819
-121.23791 -32.074841 -156.27823 7696492
-120.29664 -32.21883 -156.76988 8091505
-119.30183 -32.134026 -157.26646 8354677
-118.4302 -32.102455 -157.68648 11050904
-117.61547 -32.152508 -158.04773 8089963
-116.85627 -32.283649 -158.349 7564643
-115.88248 -32.721706 -158.6217 7564643
-41.598557 -32.364056 -179.98561 9932422
-40.536594 -32.261658 -179.91052 8682099
-39.695904 -32.142971 -179.86487 7958376
-121.18078 -31.483334 -156.59065 8814459
-120.34095 -31.460226 -157.05959 12432045
-119.46775 -31.428905 -157.48273 10590612
-118.8138 -31.405828 -157.79947 8089963
-41.28973 -31.641916 -180.21822 10853524
-40.614769 -31.386471 -180.24725 12432812
-39.722958 -31.129959 -180.31635 9735043
-38.858757 -31.001966 -180.30084 8682099
-38.936348 -30.254663 -180.85651 8682099
-37.861969 -30.159578 -180.86685 7234654
-36.788719 -29.89963 -181.05145 6510930
-35.844082 -29.739674 -181.21947 5920074
-35.166676 -29.71723 -181.21635 7761253
-34.908306 -29.395359 -182.19875 7761253
-34.004223 -29.36801 -182.20261 8287856
-32.901016 -29.35659 -182.34351 9143166
-32.027443 -29.355619 -182.50237 9669765
-31.152962 -29.354641 -182.657 10262156
-30.058954 -29.353409 -182.84419 7827822
-28.963791 -29.35216 -183.02513 9932678
-28.306097 -29.351406 -183.1306 9932678
-18.570642 -29.082005 -186.78809 8682868
-17.737337 -28.981556 -186.73648 11906724
-16.691801 -28.905228 -186.65347 11906724
-17.692209 -28.160393 -187.03398 11314587
-16.631067 -28.054573 -186.96016 10788243
-15.720616 -28.028412 -186.87306 7038307
-16.812201 -27.239038 -187.27956 9538178
-15.750939 -27.134855 -187.20518 7959917
-14.8476 -26.886595 -187.20055 8486259
-16.686628 -26.488165 -187.54262 8090992
-15.781144 -26.239305 -187.53804 8420981
-14.641328 -26.209406 -187.42792 7564905
-13.965375 -25.968142 -187.44493 8288365
-15.575307 -25.560411 -187.76601 8552312
-14.826509 -25.166855 -187.83139 8946556
-13.757867 -25.2903 -187.67233 8485744
-13.081418 -25.049686 -187.68907 8288365
-14.469323 -24.408689 -188.07265 9801606
-13.791249 -24.167545 -188.08948 8682612
-12.879033 -24.14654 -188.00038 9341054
-12.05198 -23.82847 -188.02972 9406076
-13.589322 -23.262066 -188.4017 9143419
-12.910424 -23.021626 -188.41818 9275005
-11.859792 -23.044189 -188.29834 10918797
-11.091775 -22.75798 -188.32224 10458246
-12.70057 -22.340303 -188.64693 9208435
-12.021211 -22.100311 -188.66322 11708313
-10.880284 -22.077465 -188.55049 9208435
-9.9739885 -21.834364 -188.54379 9734788
-11.810155 -21.418139 -188.89214 9208435
-10.992143 -21.221344 -188.87782 9274230
-9.898797 -21.110432 -188.80261 9734788
-9.0819941 -20.914997 -188.78792 8814457
-10.917874 -20.495672 -189.13736 9208435
-10.008954 -20.252666 -189.13034 8814457
-8.867692 -20.232769 -189.01646 8814457
-8.1881037 -19.995026 -189.03192 7564643
-9.7951784 -19.5688 -189.3596 8354163
-8.9881449 -19.101278 -189.44615 7893868
-7.9766588 -19.085037 -189.34477 8748405
-7.2923479 -19.074553 -189.27597 9340286
-8.6792307 -18.187193 -189.75018 9340286
-7.997117 -17.949247 -189.7654 9340286
-7.0791788 -18.163012 -189.5892 9143163
-6.3979349 -17.926006 -189.60419 8682867
-7.7803736 -17.262716 -189.99538 9340286
-7.0976763 -17.02499 -190.01044 9603458
-6.1830034 -17.012556 -189.91791 9932934
-5.5007181 -16.775761 -189.93277 12433069
-7.1087999 -16.34034 -190.26389 8682867
-6.1984529 -16.105085 -190.31927 9866885
-5.2831469 -16.093779 -190.22818 10854036
-4.3731432 -15.860131 -190.28868 8287597
-5.299058 -15.426869 -190.72008 9538176
-4.2489862 -15.236903 -190.75357 9537920
-3.2439661 -15.070324 -190.77394 7629667
-2.329999 -14.949623 -190.76891 7564643
-1.4261484 -14.545618 -191.70261 9339769
-0.27787882 -14.536243 -191.60603 8879732
0.41054434 -14.5308 -191.54747 8090987
9.2938375 -14.317403 -195.13275 13550517
9.9946966 -14.316381 -195.09962 11379863
11.162734 -14.314667 -195.03886 9670020
12.096812 -14.313292 -194.98572 8486262
18.695379 -14.048855 -197.77098 9406334
19.65196 -14.054135 -197.7773 7958632
20.609446 -14.059667 -197.7834 7038302
21.567934 -14.065545 -197.78943 9012606
18.949999 -13.571468 -197.94749 9406334
19.753492 -13.415784 -198.01117 8419183
20.643717 -13.100466 -198.13387 8551798
21.603899 -13.105843 -198.14008 10656916
22.520872 -13.015084 -198.18106 8880763
23.547228 -12.636313 -198.32803 5392706
20.918447 -12.140052 -198.48671 9012606
21.649046 -11.902654 -198.57964 9012606
22.612444 -11.907651 -198.58606 9866628
23.576971 -11.912897 -198.59235 7761252
24.465532 -11.837442 -198.62753 12958382
22.72777 -11.022249 -198.91023 9668991
23.616632 -10.945927 -198.94566 9405819
24.584028 -10.950845 -198.95215 10853265
25.475458 -10.874785 -198.98752 12300454
23.646502 -10.218813 -199.21132 10260871
24.615171 -10.22333 -199.21797 9603199
-86.430428 -43.855965 -167.21381 10853012
-85.774834 -43.828072 -167.42136 8945527
-84.901794 -43.791721 -167.69728 8616818
-84.030022 -43.756336 -167.97256 8681835
-83.159477 -43.721889 -168.24706 9208443
-78.965446 -44.016293 -169.38408 10261132
-78.31781 -43.99435 -169.58678 9997702
-77.455055 -43.965916 -169.85657 9471355
-76.378021 -43.931694 -170.19273 11510167
-75.302315 -43.898941 -170.52792 9734784
-74.442711 -43.873802 -170.79546 8683120
-73.58387 -43.849617 -171.06223 9735551
-72.511505 -43.820789 -171.39494 9603450
-71.440163 -43.793297 -171.72675 11445141
-70.583855 -43.772411 -171.99153 10063744
-69.695602 -43.973461 -172.17644 9603457
-68.719238 -43.907448 -172.49532 9603458
-67.681786 -43.974277 -172.77902 9603712
-66.706886 -43.910679 -173.09645 10984337
-65.823257 -44.115505 -173.27849 9800579
-64.971352 -44.100521 -173.53961 8813686
-63.907036 -44.083157 -173.8652 10063752
-62.843246 -44.067154 -174.19017 9800835
-61.992596 -44.055367 -174.44952 10261132
-61.142296 -44.044575 -174.7085 10854036
-60.079742 -44.032406 -175.03143 10459535
-59.017487 -44.021606 -175.35376 9406592
-58.167831 -44.014015 -175.61118 9142907
-57.318405 -44.007427 -175.86815 8353135
-56.256687 -44.000393 -176.18881 7564651
-55.195076 -43.994801 -176.50888 7564651
-54.345345 -43.991005 -176.76303 7038307
-53.476955 -43.972946 -176.95572 7564393
-90.700989 -43.112804 -166.06973 8813683
-89.835419 -43.324299 -166.38007 9142651
-88.967232 -43.289894 -166.68236 7563618
-87.964714 -43.200031 -167.01862 8024169
-86.895378 -43.244083 -167.32103 9800324
-85.896477 -43.156792 -167.65523 8616562
-85.022095 -43.120941 -167.93137 8616818
-84.149055 -43.086056 -168.20683 9406079
-83.277153 -43.052132 -168.48146 9736323
-82.214317 -43.180416 -168.74802 9801860
-81.146515 -43.261429 -169.03511 12827826
-80.197014 -43.163551 -169.35873 8881015
-79.293282 -43.356373 -169.55164 9209207
-78.428322 -43.327408 -169.82224 9734529
-77.348579 -43.292522 -170.15955 9734270
-76.270157 -43.259007 -170.49588 10786958
-75.408417 -43.233295 -170.76422 10260871
-74.547546 -43.208504 -171.03192 8683120
-73.687492 -43.184639 -171.29901 10261638
-72.613564 -43.156185 -171.63197 10063745
-71.540672 -43.129097 -171.96408 9603193
-70.683189 -43.108486 -172.2291 9208435
-69.826324 -43.088795 -172.49348 9208955
-68.756126 -43.065506 -172.82327 10129546
-67.686745 -43.043606 -173.15225 10064006
-66.831902 -43.027088 -173.41479 11444374
-65.946678 -43.232391 -173.59718 9800579
-64.940712 -43.159863 -173.92754 9340030
-63.89637 -43.261787 -174.1991 8748151
-62.96106 -43.184849 -174.51012 10919056
-62.108829 -43.173325 -174.76988 8748408
-61.173752 -43.098621 -175.0799 10721418
-60.132027 -43.205318 -175.34882 10656139
-59.12812 -43.140118 -175.6756 10129797
-58.276855 -43.132607 -175.9332 9734784
-57.341583 -43.061974 -176.23917 9405819
-56.34618 -43.244514 -176.46286 7564136
-55.270859 -43.33271 -176.7457 7564651
-54.419209 -43.328312 -176.99762 8090736
-53.551983 -43.312412 -177.19826 7301222
-52.699802 -43.172302 -177.1907 6643290
-93.631203 -41.804504 -165.24475 10130052
-92.5979 -42.163578 -165.57878 9734781
-91.691391 -42.223625 -165.9792 8682097
-90.868103 -42.210522 -166.37129 8089963
-90.0448 -42.198154 -166.76225 8747893
-89.083595 -42.162212 -167.10153 7892584
-87.938698 -42.384468 -167.35481 7497825
-86.936295 -42.29673 -167.6902 8287341
-86.058884 -42.260635 -167.96739 7629923
-85.182747 -42.225468 -168.24385 8616818
-84.30793 -42.191246 -168.51953 10261132
-83.216148 -42.149815 -168.86305 9736323
-82.126122 -42.10973 -169.20554 10263180
-81.25544 -42.078739 -169.47865 12038567
-80.385826 -42.048721 -169.7511 8090987
-79.479935 -42.242535 -169.94421 8353390
-78.530479 -42.147606 -170.26674 7892327
-77.467186 -42.234123 -170.55019 8616047
-76.449318 -42.147381 -170.88983 10326149
-75.550095 -42.344688 -171.07964 10523784
-74.687553 -42.320354 -171.34763 8814451
-73.610565 -42.291271 -171.68172 10852750
-72.534714 -42.26355 -172.01495 9208435
-71.674873 -42.242386 -172.2809 10984590
-70.815727 -42.222172 -172.54628 10129542
-69.957237 -42.202805 -172.81107 9471871
-68.885002 -42.179993 -173.14125 9603458
-67.813622 -42.158455 -173.47064 10524043
-66.957115 -42.142235 -173.73358 11444374
-66.101135 -42.126976 -173.99602 8814197
-65.031799 -42.109142 -174.32332 9274237
-63.963058 -42.092648 -174.64986 8156272
-63.108498 -42.080479 -174.91063 8288115
-62.254295 -42.069195 -175.17093 9011579
-61.18692 -42.056396 -175.49556 9208435
-60.119381 -42.044487 -175.81799 10261123
-59.265076 -42.035641 -176.07384 9076854
-58.38414 -42.248886 -176.25015 8813683
-57.316795 -42.239803 -176.56726 8353133
-56.161621 -42.379093 -176.85287 7563619
-55.370956 -42.448147 -177.05844 7563619
-54.517773 -42.443821 -177.31082 7564651
-53.523357 -42.200672 -177.60712 8222323
-52.487755 -42.246986 -177.50835 7037788
-51.555023 -42.043827 -177.48405 5919050
-96.285797 -40.948612 -164.35883 10458505
-95.664833 -40.935604 -164.65581 11905692
-94.678413 -41.097725 -165.05074 10721675
-93.669273 -41.16954 -165.49434 9932416
-92.728043 -41.107479 -165.96249 9734779
-91.902496 -41.093777 -166.35593 8747890
-91.077263 -41.081005 -166.74878 8353131
-89.996567 -41.288582 -167.14812 9142651
-88.803688 -41.393978 -167.4946 9142651
-87.939705 -41.659859 -167.64626 8287341
-87.059563 -41.623314 -167.92445 7629411
-86.180809 -41.587662 -168.20186 7037786
-85.303406 -41.552963 -168.47855 8616818
-84.427208 -41.519268 -168.75436 10261132
-83.333809 -41.47842 -169.09816 9868166
-82.24218 -41.438972 -169.44089 8682867
-81.37014 -41.408432 -169.71419 9077882
-75.656456 -41.677425 -171.31645 10260611
-74.792671 -41.653439 -171.58469 9011575
-73.714134 -41.624779 -171.91911 10128771
-72.636742 -41.597404 -172.25266 10851980
-71.990837 -41.581661 -172.45238 10851980
-53.07872 -41.280811 -177.9263 9538686
-52.328274 -41.131252 -177.90158 9932675
-51.417694 -41.147144 -177.7991 7564130
-50.708748 -41.091045 -177.74446 8813686
-98.123817 -40.077705 -163.8625 9735555
-97.401787 -40.213467 -164.14432 9603970
-96.626221 -40.272549 -164.48363 10392969
-95.681511 -40.207497 -164.9547 11905693
-94.669746 -40.278805 -165.39975 10129029
-93.726295 -40.215973 -165.86919 8089963
-92.953522 -40.278385 -166.20575 8484719
-92.029366 -40.414875 -166.58231 10129286
-52.228455 -40.324226 -178.1877 10985361
-51.541218 -40.048534 -178.21608 9144185
-50.569931 -40.195061 -178.05913 8880246
-49.885929 -39.921566 -178.08705 8551793
-101.107 -38.777256 -163.00938 8880507
-100.22569 -38.984379 -163.33598 9998217
-99.322563 -39.099926 -163.7114 9340542
-98.536484 -39.264648 -164.01118 10130313
-97.635681 -39.381721 -164.38489 9735555
-96.804337 -39.363972 -164.7827 11050900
-95.765999 -39.343052 -165.27908 12432294
-94.783081 -39.400288 -165.71654 8747891
-94.062904 -39.539207 -165.99626 8089963
-51.377914 -39.370239 -178.44812 8092011
-50.691246 -39.096531 -178.47589 7696228
-49.499653 -39.102749 -178.34706 8617586
-48.591171 -38.720387 -178.3912 6511954
-103.17915 -37.912807 -162.4005 8092019
-102.21917 -38.071278 -162.7845 9538692
-101.24699 -38.092411 -163.23216 9340801
-100.41062 -38.07196 -163.63347 9998217
-99.575035 -38.052303 -164.03415 8551540
-98.671135 -38.169296 -164.40927 9735555
-97.884399 -38.335358 -164.70876 10327693
-96.856483 -38.565647 -165.09447 11445657
-50.526966 -38.41885 -178.70752 6511954
-49.592705 -38.239853 -178.67418 6511954
-48.57164 -38.011692 -178.64969 6511954
-47.743378 -37.776493 -178.64821 6511954
-105.26307 -37.048717 -161.7858 9012088
-104.18668 -37.134037 -162.25536 9209982
-103.22852 -37.269577 -162.64818 8420727
-102.27261 -37.198753 -163.12692 10393486
-101.43386 -37.177921 -163.52953 9998217
-100.59591 -37.157917 -163.93144 9800838
-99.712715 -37.367317 -164.25801 8091503
-99.085495 -37.353298 -164.55841 9735555
-48.655087 -37.220875 -178.9493 7959399
-47.576775 -37.102043 -178.87849 10854288
-46.895004 -36.834805 -178.90433 11512217
-108.09473 -35.742867 -161.00621 9735299
-107.25172 -36.026833 -161.28246 9538176
-106.25336 -36.383659 -161.60094 10261382
-105.29232 -36.310303 -162.08315 10130825
-104.26125 -36.374645 -162.54016 9341054
-103.30257 -36.303371 -163.02039 8749691
-102.46143 -36.282185 -163.42426 11183002
-101.57427 -36.491077 -163.75287 10261132
-48.351566 -36.491058 -179.18538 14077885
-47.667595 -36.223419 -179.21117 11512217
-46.727493 -36.16087 -179.13435 8879988
-45.87569 -36.031342 -179.09152 8353133
-109.99654 -34.871109 -160.48035 9077889
-109.09472 -35.076065 -160.81747 10591127
-108.24496 -35.050663 -161.22722 7959664
-107.23837 -35.098812 -161.67958 10261132
-106.22242 -35.282883 -162.0791 9340801
-105.25303 -35.291203 -162.53081 12234916
-104.33707 -35.406071 -162.91255 11182487
-103.44567 -35.614502 -163.24326 9012606
-47.500031 -35.547958 -179.44171 9012085
-46.816563 -35.281998 -179.4669 11379348
-45.643608 -35.206997 -179.37001 8353133
-44.729534 -34.928711 -179.37523 7563619
-112.55227 -34.01873 -159.63921 9144449
-111.80421 -34.15044 -159.93498 8551025
-111.0033 -34.202965 -160.289 7103835
-110.1496 -34.176609 -160.70096 12104365
-109.17933 -34.10104 -161.18842 13683139
-108.13779 -34.164013 -161.65099 8617336
-107.22462 -34.16943 -162.0775 9340801
-106.48433 -34.304146 -162.36836 9340801
-46.648041 -34.60696 -179.6972 7563619
-45.739777 -34.233891 -179.73792 8089961
-44.559673 -34.256252 -179.60442 7695205
-43.880245 -33.994518 -179.62857 9734788
-114.48136 -33.144794 -159.10147 10788759
-113.72904 -33.276302 -159.39935 9670536
-112.9239 -33.328369 -159.75548 9538950
-112.06606 -33.301205 -160.16975 9011320
-111.20943 -33.274799 -160.5831 7761509
-110.236 -33.198929 -161.07216 8156787
-109.26106 -33.334038 -161.47305 9801612
-108.38319 -33.425789 -161.84663 9340801
-44.836056 -33.222961 -180.01361 8616307
-43.76857 -33.193207 -179.91127 9405823
-43.030388 -33.062222 -179.88104 8287342
-117.39915 -31.830101 -158.28502 8089963
-116.6401 -31.961639 -158.58612 7564643
-115.75281 -32.151905 -158.92265 9143672
-114.91047 -32.218407 -159.29016 10393998
-114.06976 -32.2854 -159.65668 11117467
-113.13396 -32.396935 -160.04919 9538950
-112.15593 -32.320007 -160.54082 9011320
-111.15011 -32.571171 -160.90736 7761509
-110.29356 -32.546139 -161.32008 7564651
-44.515717 -32.263268 -180.33238 9734788
-43.774708 -32.132393 -180.30176 9406080
-42.878834 -32.170448 -180.19272 8747893
-42.051414 -31.830389 -180.22984 9405822
-119.64964 -30.976316 -157.71997 9209215
-118.64829 -31.095463 -158.10425 8879478
-117.82204 -31.144245 -158.4537 9273978
-116.9558 -31.116083 -158.87831 8682354
-115.9817 -31.040293 -159.39316 12433324
-115.12455 -31.283213 -159.58351 10919571
-114.02151 -31.367476 -160.07335 10524299
-113.07644 -31.690599 -160.37364 8946554
-43.661865 -31.32896 -180.58508 10263180
-42.996174 -31.081347 -180.67281 9340284
-41.83194 -31.0207 -180.58286 9011064
-40.710518 -30.756332 -180.66203 13024949
-118.56272 -30.488914 -158.6474 9010806
-117.6964 -30.461763 -159.0775 10458249
-41.946384 -30.399412 -181.06645 11379865
-40.954624 -30.183704 -181.12566 7234653
-39.89621 -30.091291 -181.08362 10261387
-39.017391 -29.848133 -181.2235 8221548
-38.321529 -29.509321 -182.21548 7103067
-37.181381 -29.470566 -182.21201 7300446
-36.043816 -29.432545 -182.2065 7300958
-35.362244 -29.410091 -182.20215 7761253
-21.616983 -29.33082 -187.02019 10591121
-20.938398 -29.083805 -187.03897 7893352
-19.792784 -29.046352 -186.93105 8353647
-18.88698 -28.793688 -186.9278 8419440
-20.738314 -28.404274 -187.26781 7761509
-19.830309 -28.151041 -187.2646 9011320
-18.685221 -28.115654 -187.15596 8814199
-18.008017 -27.871244 -187.17406 7038307
-19.858328 -27.478327 -187.5152 9011320
-18.950041 -27.226261 -187.51146 8090733
-17.805025 -27.192707 -187.40213 7038307
-17.127451 -26.949091 -187.41982 7038307
-18.676847 -26.394068 -187.78879 7630184
-17.838968 -26.295355 -187.73604 7301478
-17.002207 -26.19735 -187.68321 8419957
-17.762377 -25.280354 -188.10149 9143678
-16.963778 -25.146492 -188.06593 9078142
-16.096506 -25.034023 -188.01518 9341314
-15.37639 -24.655857 -188.07791 9012606
-16.925035 -24.093304 -188.4496 9670021
-16.086195 -23.997198 -188.3959 9012606
-15.033826 -23.926716 -188.31015 9341313
-16.037928 -23.167879 -188.6964 9933193
-15.198934 -23.072914 -188.64229 9275264
-14.146401 -23.003813 -188.556 8682612
-15.149179 -22.242384 -188.94302 9274749
-14.080785 -22.143551 -188.86595 8155756
-13.013932 -22.045521 -188.78882 9274234
-14.104684 -21.351332 -189.1604 8418927
-13.099782 -21.172052 -189.11977 9406076
-12.123006 -21.122522 -189.03429 9208435
-13.122666 -20.355824 -189.42291 9471353
-12.068437 -20.290218 -189.33514 9405814
-11.230275 -20.199121 -189.27975 9077109
-12.775247 -19.621838 -189.65643 10063488
-12.049722 -19.244423 -189.71848 9734523
-11.179784 -19.138037 -189.66533 9077109
-10.310716 -19.03227 -189.61205 8091248
-9.5856943 -18.656534 -189.67345 7039331
-11.128911 -18.074215 -190.05183 10524047
-10.288484 -17.984549 -189.99565 9208955
-9.2343531 -17.922482 -189.9066 8946041
-10.230596 -17.146574 -190.29829 9932166
-9.3898325 -17.057749 -190.24173 9274748
-8.3352556 -16.996763 -190.15222 8682867
-9.3324671 -16.221292 -190.58292 8682867
-8.3529558 -16.177881 -190.50401 8682867
-7.3507547 -15.896104 -190.5789 9340796
-8.2858515 -15.463156 -191.01117 10656654
-7.3692522 -15.340103 -191.00748 9143417
-6.3623896 -15.171892 -191.02881 9274748
-5.3102388 -14.981554 -191.06233 9275004
-4.4176645 -14.572005 -191.94814 11248795
-3.4964037 -14.563563 -191.87347 10591121
-2.5757608 -14.555422 -191.79802 8616560
6.9564009 -14.320786 -195.22388 8880245
8.1252584 -14.3191 -195.1819 10064004
8.8263617 -14.318085 -195.15329 12103329
15.592639 -14.033994 -197.74997 12038052
16.784979 -14.039335 -197.75816 9801605
17.739748 -14.04397 -197.76462 10129545
15.605227 -13.555975 -197.92453 10262156
16.56666 -13.320566 -198.01868 10262156
17.768892 -13.086126 -198.11455 9275260
18.681517 -12.994455 -198.15581 7630179
19.615484 -12.775059 -198.24385 9998471
16.58695 -12.601552 -198.28136 10262156
17.311956 -12.364237 -198.37418 9538432
18.427481 -11.935989 -198.53999 9275260
19.58283 -11.844672 -198.58315 10525071
20.609465 -11.817223 -198.60201 10920088
18.547915 -11.16535 -198.82228 11183001
19.276949 -10.926654 -198.91565 9143675
20.38228 -10.97949 -198.90581 9275777
21.542406 -10.887746 -198.94919 10262415
22.418406 -10.698086 -199.02591 13550517
20.350908 -10.043491 -199.24718 7039331
21.238623 -9.966013 -199.283 7828590
22.348085 -10.019 -199.27321 10984594
23.182123 -9.7311201 -199.38541 8089963
21.265265 -9.2377291 -199.54915 10262415
21.990896 -9.2402792 -199.55437 9866371
-58.436928 -41.805843 -176.40602 8813683
-57.368618 -41.796841 -176.7234 9471614
-56.300495 -41.789143 -177.04021 8682099
-55.446114 -41.783989 -177.29321 7563619
-54.591755 -41.779781 -177.54593 7564651
-53.951027 -41.77713 -177.73521 7564651
-90.080162 -40.836891 -167.30118 9011320
-88.989418 -40.796524 -167.67961 9011320
-88.064476 -40.984913 -167.88068 8879478
-87.183022 -40.948891 -168.159 7629411
-86.262215 -41.138561 -168.35838 8682356
-85.38385 -41.104214 -168.63513 8616818
-84.287811 -41.06266 -168.97995 8419951
-83.193596 -41.022366 -169.32375 9999751
-82.319618 -40.991264 -169.59792 8682867
-81.446747 -40.961025 -169.8714 9077882
-80.537132 -41.155277 -170.06555 8090987
-79.666893 -41.126682 -170.33754 8945526
-78.580582 -41.092316 -170.67659 8550256
-77.495682 -41.059223 -171.01466 8681839
-76.628883 -41.033825 -171.28442 9537144
-75.762993 -41.009285 -171.55354 10260355
-74.897926 -40.985664 -171.82204 10128771
-73.817833 -40.957397 -172.15677 10326150
-72.738853 -40.930458 -172.49065 10851980
-71.84301 -41.132122 -172.67758 10851980
-70.948471 -41.334538 -172.86391 9142648
-69.965897 -41.268459 -173.18465 8353391
-68.921654 -41.335785 -173.47017 8945783
-67.940697 -41.272041 -173.78952 10589838
-67.082558 -41.256126 -174.05284 10589838
-66.22493 -41.241135 -174.31561 10195338
-65.153549 -41.223656 -174.6434 9011065
-64.082817 -41.207451 -174.97046 8550771
-63.226559 -41.195454 -175.23132 7564651
-62.370098 -41.183937 -175.49013 8617079
-61.299183 -41.170311 -175.81085 9208435
-60.22847 -41.15781 -176.13028 10063744
-59.372238 -41.148834 -176.38535 8484719
-58.516182 -41.140682 -176.64 8155755
-57.446415 -41.131836 -176.95773 9471614
-56.376846 -41.124199 -177.27495 9273979
-55.521317 -41.119148 -177.52829 10655632
-54.665859 -41.114941 -177.78128 10721681
-53.668121 -41.052677 -178.02557 9932424
-92.734596 -39.971729 -166.43782 9405560
-92.113998 -39.961819 -166.73341 10129286
-91.12928 -40.128765 -167.12546 9405563
-90.11351 -40.202271 -167.5527 9340541
-89.115723 -40.119946 -167.91418 9471871
-88.231041 -40.083767 -168.19357 9735043
-87.347816 -40.048512 -168.47221 8814197
-86.425209 -40.239113 -168.67169 8682352
-85.462364 -40.137711 -169.00073 8682094
-84.424133 -40.29306 -169.24901 8814451
-83.311195 -40.349739 -169.55937 9209467
-82.435875 -40.319061 -169.83377 9209467
-81.561745 -40.289314 -170.10747 10064777
-80.688713 -40.260391 -170.38042 10064777
-79.598961 -40.225578 -170.7207 9866114
-78.510727 -40.192074 -171.05992 8813171
-77.641273 -40.166275 -171.33069 9207927
-76.772774 -40.141376 -171.60071 9931646
-75.905205 -40.11731 -171.87013 9931646
-74.821968 -40.088482 -172.20596 9865856
-73.739937 -40.060966 -172.54099 10457479
-72.875214 -40.039974 -172.80833 9997185
-71.947929 -40.15237 -173.04065 9471355
-71.114708 -40.223019 -173.2617 8616305
-70.037102 -40.200066 -173.59351 8945784
-68.960403 -40.178368 -173.92459 9340798
-68.099716 -40.16201 -174.18884 9735044
-67.239578 -40.146481 -174.45259 9735044
