# .PCD v0.7 - Point Cloud Data file format
VERSION 0.7
FIELDS x y z rgb
SIZE 4 4 4 4
TYPE F F F U
COUNT 1 1 1 1
WIDTH 1213
HEIGHT 1
VIEWPOINT 0 0 0 1 0 0 0
POINTS 1213
DATA ascii
17.41427 -59.009262 120.69271 5920074
75.72374 -58.693436 125.20029 9538694
75.004051 -58.693542 125.02732 8815228
73.985672 -58.693691 125.02859 10393486
72.864799 -58.693859 124.49752 11381404
71.963966 -58.693974 125.01982 9078399
70.859924 -58.694149 124.4837 8814971
70.109581 -58.694241 124.90753 8814971
69.021515 -58.694412 124.36723 9209728
68.121834 -58.694527 124.86217 10920086
67.050087 -58.694695 124.31716 9669762
66.106209 -58.701862 124.47165 10655889
64.87664 -58.740486 124.26598 9998725
64.009987 -58.828651 124.35166 10196104
63.189423 -58.86414 124.59386 10722706
18.089319 -58.94434 121.23767 9735812
17.095663 -58.887554 120.9506 7762539
16.167131 -58.790596 120.85239 7697004
15.140735 -58.732815 120.7537 6249557
14.233856 -58.702301 120.77808 8551544
13.124416 -58.702465 120.59426 8156787
12.10821 -58.70261 120.70063 8354164
11.048363 -58.702755 120.64928 8222578
10.119833 -58.702896 120.44725 8551027
9.2298632 -58.703026 120.38261 7827565
8.129941 -58.703186 120.27107 8288116
7.1165957 -58.703327 120.33535 11380124
6.1027837 -58.703468 120.39065 9997957
5.0727062 -58.703629 120.06194 11576986
4.1248097 -58.703758 120.15175 11380377
3.1907821 -58.703896 120.00086 8682867
2.1753778 -58.704044 119.77266 8682867
1.1664373 -58.704189 119.7864 8682867
0.061280821 -58.556973 119.99136 9538433
-0.81211698 -58.385056 119.81744 8353905
-1.8537086 -58.313873 119.3529 8551024
-2.4250607 -58.05352 119.18264 7564643
-1.0338334 -57.592121 120.03918 8551029
-1.8585614 -57.550552 119.65816 8879736
-2.746711 -57.351204 119.30972 10523785
-1.9001263 -56.666485 119.99346 9472131
-2.898185 -56.492279 119.58189 10590351
-3.7379742 -56.424076 119.20406 10721678
-2.985357 -55.586853 119.90372 11709349
-3.8972452 -55.468025 119.51149 9669765
-4.7514453 -55.449394 119.11984 8485494
-5.5729227 -55.104973 118.94138 9011582
-3.3102584 -54.855522 120.04092 7038307
-3.924336 -54.5327 119.87434 7367271
-4.8357706 -54.511684 119.4581 8024686
-5.8668356 -54.463615 119.0827 9669254
-6.6481771 -54.142479 118.92124 8748409
-5.0339031 -53.52401 119.76022 8090474
-5.8840442 -53.55452 119.42847 10392461
-6.8745217 -53.437134 119.11235 9340284
-7.8259959 -53.262669 118.8888 8813683
-8.4335814 -53.152683 118.7702 8089963
-5.9402781 -52.72789 119.7281 8287854
-6.8944454 -52.529675 119.45435 9011061
-7.886683 -52.438026 119.18352 9405818
-8.7593012 -52.484417 118.93617 8090218
-9.5844793 -52.31715 118.78181 7893864
-10.430587 -52.260269 118.58043 9735812
-7.0535326 -51.736431 119.70168 8681842
-7.9090953 -51.530727 119.51945 8747891
-8.761405 -51.469906 119.31786 7893094
-9.7908468 -51.485615 119.04073 7762278
-10.737256 -51.488232 118.79045 9406847
-11.620522 -51.358002 118.60685 9933704
-12.432189 -51.234459 118.43962 10065801
-8.2089968 -50.905727 119.67588 8813683
-8.8381138 -50.741341 119.57211 8157036
-9.7806206 -50.497414 119.41576 7433313
-10.772528 -50.433743 119.17844 7762024
-11.785584 -50.492161 118.88956 9340801
-12.71556 -50.509083 118.63824 8749942
-13.635464 -50.36763 118.4492 10657428
-14.435309 -50.225853 118.29189 8617592
-10.225211 -49.86702 119.53615 7170141
-10.853465 -49.707691 119.43065 9143166
-11.794715 -49.471264 119.27179 9077374
-12.810201 -49.47345 119.00343 8683129
-13.765197 -49.511848 118.73685 8090993
-14.722346 -49.50349 118.48679 8091250
-15.641122 -49.368408 118.29429 8814715
-12.100251 -48.853687 119.42399 9011582
-12.869468 -48.690876 119.28193 9077628
-13.809712 -48.461155 119.11926 8485747
-14.822829 -48.470093 118.84777 8486006
-15.775668 -48.514877 118.57877 9538178
-16.758818 -48.471275 118.33492 9603196
-17.64941 -48.384727 118.13168 9340023
-14.118187 -47.846531 119.26811 8485747
-14.831427 -47.661987 119.14853 7367271
-15.826372 -47.466457 118.95853 8945265
-16.812645 -47.423645 118.71357 9734782
-17.788797 -47.533535 118.41399 8880246
-18.747896 -47.456821 118.18893 7763054
-19.585606 -47.234131 118.05073 10328466
-16.137897 -46.855072 119.10538 9734782
-16.894733 -46.609924 118.99703 10129798
-17.845715 -46.487118 118.79139 10196108
-18.830986 -46.45089 118.54416 8815227
-19.844099 -46.462662 118.27164 11183260
-20.764883 -46.447983 118.03343 10986396
-21.728579 -46.191387 117.87463 8815741
-22.497398 -46.044212 117.72636 8092019
-18.094168 -45.806976 118.98177 10788502
-18.874573 -45.706051 118.81785 9012606
-19.870092 -45.593662 118.62705 10525330
-20.808897 -45.486111 118.45049 11446174
-21.805437 -45.512482 118.16718 9604744
-22.777615 -45.439194 117.96038 8815225
-23.689495 -45.311504 117.80143 7827815
-24.69261 -45.163803 117.65337 8419952
-21.070234 -44.973877 118.76278 10525071
-21.856052 -44.889622 118.62179 9735813
-22.836143 -44.759171 118.4661 8946553
-23.789516 -44.653347 118.29794 8222573
-24.832211 -44.568054 118.11503 9209468
-25.790758 -44.504452 117.93439 9340798
-26.717812 -44.429092 117.75266 12038056
-27.712301 -44.280014 117.69701 8091250
-28.757919 -44.277168 117.48797 7762029
-29.834192 -44.097847 117.67111 9275265
-30.781199 -44.09901 117.49889 9077372
-31.5991 -44.071014 117.44349 9866374
-32.703636 -44.048649 117.31894 9142394
-33.703857 -44.06599 117.08517 9997960
-34.417946 -44.07933 116.91531 8089963
-28.267954 -43.98912 118.29961 10591124
-28.840868 -43.995205 118.17808 9406851
-29.413599 -44.00169 118.05527 8814715
-31.977966 -43.876205 118.00299 8814201
-32.839226 -43.890007 117.8053 9076601
-33.843666 -43.907368 117.57072 8089963
-34.819607 -43.86071 117.54726 8945272
-35.709801 -43.87392 117.34634 9603202
-36.716122 -43.872192 117.1729 8945015
-37.616447 -43.863483 117.04073 8813429
-38.750652 -43.78978 117.13983 9208443
-39.754467 -43.783417 116.92928 9208443
-40.772594 -43.738174 116.88244 9340542
-41.779057 -43.749584 116.8203 10262155
-42.634552 -43.749321 116.77031 14077632
-43.749905 -43.710663 116.76244 9275262
-44.731911 -43.710812 116.38986 7893614
-45.773613 -43.710945 116.78477 8880250
-46.777706 -43.711094 116.65375 9011321
-47.758511 -43.711243 116.25526 8287342
-48.792233 -43.711391 116.37209 8090475
-49.688526 -43.71151 116.53995 10787728
-50.668274 -43.711662 116.11695 12169124
-51.6908 -43.711807 116.0388 8288115
-52.762074 -43.711952 116.30393 9867145
-53.739868 -43.712105 115.85542 10459279
-54.657692 -43.712234 115.99891 10854036
-55.71748 -43.712379 116.06859 9998985
-56.693253 -43.712532 115.59523 9932934
-57.622955 -43.712662 115.7228 9011832
-58.69413 -43.712814 115.77289 8156524
-59.667313 -43.712963 115.27442 9077368
-60.856571 -43.71312 115.85881 14603206
-61.691254 -43.713253 115.41595 9669509
-62.782635 -43.713406 115.44348 8090736
-63.737244 -43.713535 115.53828 8090736
-64.708023 -43.713692 114.99698 6972249
-65.944366 -43.713852 115.56137 6511954
-66.638168 -43.713963 115.16201 8813684
-67.468056 -43.714092 114.67813 10654859
-68.728859 -43.714256 115.22897 7038307
-69.696892 -43.714409 114.64563 8354165
-70.980614 -43.714577 115.1898 8814715
-71.67205 -43.714687 114.76015 9077887
-72.361504 -43.714798 114.32715 9142651
-73.669418 -43.714966 114.85829 8747893
-74.634384 -43.715126 114.23379 9142907
-75.965912 -43.715294 114.75757 7367263
-76.762375 -43.55267 114.55793 8419951
-77.537346 -43.421062 114.41931 9736322
-78.508965 -43.422684 114.07072 11511195
-79.156441 -43.289276 113.83437 8090736
-77.846863 -42.649082 114.67744 10656910
-78.686638 -42.581436 114.32866 10985874
-79.577484 -42.589054 113.92686 7959404
-80.484238 -42.172272 113.68816 8616307
-78.737938 -41.708454 114.65592 9342077
-79.668961 -41.61351 114.27727 8288365
-80.592239 -41.56831 113.88208 8813942
-81.281776 -41.135914 113.74686 9866886
-79.80954 -40.71088 114.57639 8617331
-80.657494 -40.643963 114.22366 8617075
-81.68969 -40.403297 113.85814 8748408
-82.434387 -40.175354 113.61627 7564651
-80.821312 -39.883392 114.45548 8419952
-81.592964 -39.583931 114.23018 8682869
-82.6082 -39.384533 113.85568 8946302
-83.321922 -39.254326 113.58845 9143681
-81.796867 -38.766502 114.4668 9274748
-82.757698 -38.405117 114.18166 9143422
-83.666893 -38.414165 113.77106 9472131
-84.449623 -38.230305 113.49445 9603457
-82.683273 -37.842308 114.44073 9471871
-83.667351 -37.45742 114.15468 10063752
-84.627647 -37.435669 113.73349 9472128
-85.451675 -37.276627 113.42844 8814197
-83.965088 -36.592846 114.36819 9340801
-84.751686 -36.40649 114.09086 8814454
-85.700333 -36.460712 113.64445 8090991
-86.49192 -36.276039 113.36417 8090993
-84.904373 -35.723579 114.29642 8420470
-85.645294 -35.461857 114.07005 7827821
-86.568619 -35.471039 113.6534 9143680
-87.444702 -35.406357 113.28761 10261903
-86.127083 -34.578564 114.21004 8617337
-86.754173 -34.483215 113.96798 8222579
-87.656128 -34.491005 113.5615 8946045
-88.463776 -34.276466 113.28666 9537667
-86.961021 -33.755878 114.1682 8617337
-87.71093 -33.492558 113.93881 8090737
-88.644409 -33.50156 113.51773 8814202
-89.530548 -33.436192 113.14777 7104100
-88.643791 -32.503155 113.91986 8419445
-89.588249 -32.540993 113.48228 9340542
-90.487625 -32.346786 113.1582 10130573
-89.046631 -31.775482 114.03261 8287859
-89.752235 -31.563501 113.80237 10656657
-90.641533 -31.512482 113.42517 10788244
-91.483414 -31.442719 113.07678 8419955
-92.137779 -31.245253 112.86359 8420208
-90.699997 -30.675123 113.75974 9932934
-91.63369 -30.564753 113.42504 8814458
-92.29586 -30.473766 113.19607 7499107
-91.996658 -29.873608 113.80421 8617080
-92.592056 -29.792965 113.60546 9340545
42.201923 -72.036064 123.28593 7563618
40.854954 -72.177208 123.20867 9011576
39.963299 -72.182243 123.19296 7498081
38.943264 -72.325859 123.11977 7827814
37.995152 -72.349098 123.09589 8157035
37.103676 -72.419449 123.05403 10197130
36.110359 -72.468376 122.98418 10526095
49.143345 -71.066063 123.78127 9012606
47.910961 -71.20977 123.70473 8617590
46.941853 -71.259003 123.67017 9207415
45.842133 -71.306412 123.63434 9733502
44.966057 -71.327324 123.61251 8615537
44.12516 -71.467293 123.5435 9537409
43.053688 -71.438614 123.53857 8813686
42.052338 -71.566902 123.47177 8288112
41.047619 -71.479393 123.4915 6314324
40.121597 -71.475182 123.47899 7300960
39.06057 -71.53273 123.4397 7959656
37.994267 -71.415306 123.47042 7959656
36.942886 -71.574043 123.39064 9999751
36.088058 -71.528526 123.35994 7169884
35.148228 -71.486191 122.98499 7498849
34.390617 -71.272491 122.70626 7563619
50.785252 -70.329903 123.98573 9078399
49.987793 -70.505188 124.01923 9538692
49.014435 -70.515991 123.99995 9341570
48.017845 -70.525124 123.98101 8222833
46.993469 -70.473236 123.98611 9142648
45.956902 -70.538528 123.94405 11115666
44.994644 -70.42878 123.97331 7168859
43.917263 -70.564636 123.90234 8353135
42.928837 -70.412529 123.94817 7169118
41.898026 -70.603203 123.85592 6380374
40.918236 -70.457825 123.89922 4603965
39.912952 -70.54142 123.8503 7104095
38.926697 -70.515427 123.84561 8748916
37.937775 -70.54882 123.81709 6511954
36.93306 -70.753723 123.71951 10986646
35.896282 -70.645363 123.64983 7893607
34.974476 -70.449745 123.31982 6314576
34.12257 -70.505249 122.88699 5525323
33.419655 -70.271721 122.64264 7564642
51.685795 -69.172043 124.05177 9208443
50.955833 -69.53463 124.23203 9209470
49.927986 -69.437561 124.44653 8091761
48.869781 -69.512543 124.40022 9999243
47.952911 -69.46241 124.40625 8024940
46.973167 -69.478867 124.38464 9340027
46.095108 -69.613075 124.31734 9340027
45.025509 -69.594238 124.30852 6643541
44.038597 -69.714737 124.24505 6708565
43.023525 -69.733681 124.2219 7563875
42.083969 -69.852631 124.15984 9011836
41.335052 -69.828461 124.15798 9735558
39.985809 -69.977852 124.07745 6511954
34.847233 -69.672386 123.57245 5722700
33.995823 -69.44928 123.2524 5393738
33.150936 -69.510109 122.82082 6709594
32.452675 -69.282364 122.5764 9735812
52.576073 -68.104965 124.08094 8287597
51.932911 -68.46386 124.224 8156011
51.073898 -68.518532 124.5843 7893095
50.038845 -68.752182 124.72312 7301470
48.962669 -68.925995 124.6369 9933451
48.284561 -68.815361 124.67088 9012606
33.866768 -68.676643 123.50225 5393738
32.960106 -68.482445 123.14392 6775131
32.125324 -68.507675 122.73159 9537664
31.489788 -68.304207 122.50754 7564648
52.942471 -67.353638 124.2172 10722195
52.021915 -67.406067 124.6058 8550769
51.288898 -67.766792 124.7881 8287597
32.890511 -67.692276 123.42947 5130308
31.951534 -67.45108 123.07455 9405821
31.077126 -67.461327 122.64915 10327436
30.530689 -67.336952 122.43623 9209214
53.802437 -66.453987 124.19312 7037274
52.905346 -66.41291 124.6085 7892839
52.204998 -66.524597 124.87555 8287597
31.973778 -66.658676 123.40527 7037789
30.985903 -66.485008 122.9995 10721422
30.043402 -66.41478 122.57384 9472386
54.768314 -65.27935 124.23141 8090995
53.970741 -65.633263 124.44519 7827564
53.14978 -65.637894 124.80849 7301477
31.005098 -65.696251 123.3273 8879478
30.065804 -65.476357 122.96358 13483959
29.129339 -65.399864 122.54337 11840418
28.319016 -65.016167 122.30796 8089963
55.52158 -64.225739 124.31615 12038564
54.931114 -64.577148 124.43877 9670022
54.004688 -64.623756 124.83225 8090995
53.324764 -64.93454 125.01089 8485494
29.916721 -64.575943 123.25539 13615288
29.078032 -64.479103 122.8905 9866372
28.154388 -64.368942 122.49003 8616819
27.37225 -64.084503 122.2281 9209467
56.578087 -63.175991 124.26492 8684155
55.894562 -63.481064 124.44712 9736585
54.965649 -63.525036 124.84259 9077887
54.374657 -63.876884 124.9652 8090995
28.883474 -63.549759 123.17207 8287853
28.08589 -63.534218 122.79414 9867141
27.195738 -63.384117 122.42595 9275004
26.429136 -63.162933 122.146 8681843
56.901878 -62.359905 124.44643 7959408
55.977669 -62.442268 124.82444 8683128
55.278824 -62.823952 124.98286 10064779
27.819681 -62.53616 123.06894 10590864
27.055792 -62.493618 122.71816 9406591
26.201607 -62.412407 122.33947 8681843
57.786594 -61.168579 124.52821 9406339
56.946827 -61.458481 124.78592 9340546
56.150597 -61.511875 125.11854 8682616
27.595482 -61.877438 123.22697 10854036
26.811924 -61.602951 122.96033 9998473
25.911753 -61.405293 122.60653 8551285
25.078001 -61.449108 122.18719 7432289
58.830891 -60.225357 124.57358 8024687
57.93486 -60.411423 124.84843 9537668
57.037319 -60.59623 125.11467 10064011
26.643208 -60.964275 123.13699 10261132
25.919861 -60.644608 122.93887 8617592
24.980038 -60.528805 122.56606 8945530
24.112261 -60.391521 122.25025 7301220
23.191965 -60.105049 122.02489 8616822
61.583115 -59.028156 124.75745 9144448
60.918587 -59.068077 124.92233 11051673
59.976028 -59.2911 124.93362 10854039
59.013866 -59.525055 125.06544 8485494
58.268417 -59.790276 125.17221 10064011
24.908915 -59.952328 122.97394 9340802
23.992151 -59.695232 122.74249 8879994
23.061327 -59.505203 122.46147 8945529
22.060198 -59.336643 122.20675 8813429
21.107433 -59.119972 122.07375 9208187
20.142092 -59.037285 121.90142 9405566
76.477829 -58.316208 126.10441 10854036
75.882942 -58.500221 126.29549 10327695
74.817871 -58.693546 125.74362 9078656
74.059937 -58.693645 126.19123 10919317
72.930107 -58.693817 125.64742 10525327
72.173027 -58.693916 126.08392 9406590
70.908546 -58.694107 125.62157 9604741
69.93692 -58.694241 125.77859 8354421
68.904045 -58.694397 125.57648 9670022
67.909592 -58.694534 125.54781 10459278
66.916679 -58.694679 125.51203 9801348
65.904007 -58.694828 125.30154 10327436
64.946434 -58.694962 125.4287 9209467
63.94482 -58.69511 125.21049 9209467
62.928383 -58.736252 125.19772 9933706
62.057098 -58.820698 125.26147 9341826
61.213123 -58.84549 125.5266 10262414
20.838594 -58.974075 122.44946 9405566
19.97406 -58.908421 122.25339 8287601
19.031027 -58.824055 122.08139 9012092
18.05612 -58.754311 122.02439 9998984
17.143177 -58.707767 121.92523 8618104
16.079679 -58.702015 121.79388 11906725
15.053243 -58.702152 121.92463 9998987
13.932 -58.702316 121.7456 7564651
13.102798 -58.702435 121.7594 7564651
12.038558 -58.702599 121.47909 8946299
11.014952 -58.70274 121.57626 8485749
9.9904928 -58.702881 121.66435 8222320
8.9372845 -58.703045 121.36132 7695719
8.0608253 -58.703163 121.42257 7564134
7.161397 -58.7033 121.09415 11051159
6.1411605 -58.703445 121.1498 9537407
5.1205263 -58.70359 121.19732 8681843
4.0994859 -58.703732 121.23579 9012603
3.0008993 -58.703896 121.0779 8881017
2.1010566 -58.488464 121.03268 9999241
1.0877992 -58.434124 120.66592 12433840
0.35128459 -58.382988 120.38759 9538433
76.617699 -57.580715 126.33532 10196108
76.194725 -57.65361 126.49427 10196110
1.7649533 -57.790089 121.30835 11775911
1.0331584 -57.492256 121.07596 13091770
0.18492612 -57.522919 120.65475 11117723
-0.65288579 -57.289913 120.34468 8419444
76.757584 -56.845356 126.56613 9011838
0.84004366 -56.737564 121.28715 9999758
0.094071954 -56.492722 121.0256 9472387
-0.85705888 -56.51749 120.55669 7564392
-1.6760091 -56.161846 120.30447 9208702
-0.35148612 -55.694443 121.13143 8485234
-0.9761976 -55.517906 120.90096 7630185
-1.9006089 -55.471184 120.47369 7695979
-2.5195549 -55.298901 120.24426 8156787
-1.2012833 -54.826092 121.0704 8090736
-1.8780669 -54.501686 120.8742 8617337
-2.8371379 -54.483994 120.41853 7367272
-3.7460408 -54.174629 120.1043 7038307
-2.0758581 -53.757412 121.07791 9866631
-2.9355602 -53.492683 120.76952 9011838
-3.8965328 -53.544586 120.28492 6840412
-4.5655522 -53.230797 120.08822 6840151
-3.2390049 -52.648048 120.96256 7038307
-3.883673 -52.530891 120.69855 6116430
-4.9089608 -52.473705 120.23305 6050636
-5.8534689 -52.168659 119.97622 6642773
-4.1358452 -51.693756 120.91335 5919050
-4.9236183 -51.56749 120.58731 6643029
-5.9241467 -51.436104 120.23415 7103067
-6.7443185 -51.303997 119.98367 8287085
-5.1754942 -50.724747 120.80242 7629667
-5.9413404 -50.529194 120.57909 7432032
-6.9727893 -50.458744 120.22585 7760741
-7.910327 -50.433704 119.93243 8286827
-8.7211895 -50.34272 119.75312 8485230
-6.0259714 -49.841259 120.81451 6839895
-6.999362 -49.534218 120.57361 6708053
-7.9613185 -49.416119 120.30239 9602428
-8.8150082 -49.508232 120.04282 8615275
-9.739212 -49.522541 119.79395 6972249
-10.739356 -49.309235 119.61085 9669251
-7.2605944 -48.876759 120.73103 6839895
-8.0225935 -48.594101 120.59592 9075569
-8.8438396 -48.452911 120.4328 9602427
-9.8695679 -48.507149 120.14217 9405562
-10.837981 -48.477547 119.8982 10655633
-11.773118 -48.512634 119.63849 8682874
-12.758011 -48.292358 119.46091 8880249
-9.0037842 -47.840714 120.62128 11576732
-9.9168816 -47.582802 120.4779 11708573
-10.873145 -47.424812 120.28503 9142649
-11.865894 -47.517494 119.9876 8353652
-12.833842 -47.504971 119.73613 7827820
-13.793799 -47.503883 119.48243 8485747
-14.851844 -47.212456 119.31174 7235426
-11.036278 -46.814804 120.47068 8353134
-11.959101 -46.522709 120.33598 7695718
-12.928714 -46.470505 120.09896 7104098
-13.892343 -46.511257 119.82865 8025198
-14.885825 -46.463329 119.58367 7235167
-15.816239 -46.510826 119.3196 7695203
-16.732887 -46.232704 119.18134 10853521
-13.068983 -45.804352 120.31166 7104094
-13.932734 -45.619106 120.17542 7630440
-14.974519 -45.472393 119.99966 7037274
-15.897283 -45.570534 119.70964 9273977
-16.880756 -45.473541 119.51138 11905950
-17.750185 -45.388832 119.32604 10854293
-18.790205 -45.16798 119.2118 9144192
-19.598007 -45.100368 119.05176 9209727
-16.133677 -44.862644 120.15744 9010805
-16.846569 -44.837097 119.98905 10721934
-17.858242 -44.671024 119.85341 9867139
-18.905798 -44.53051 119.68795 9209727
-19.88686 -44.532146 119.43118 9275261
-20.809477 -44.533504 119.19673 9340797
-21.885382 -44.330685 119.18114 9340539
-22.822296 -44.200104 119.11325 9735295
-23.866442 -44.076229 119.10392 8814452
-24.588482 -44.10638 118.81435 9604226
-25.071062 -43.944878 119.21591 8288366
-25.828133 -43.923683 119.08528 8683124
-26.821445 -43.894192 118.91931 10722451
-27.75206 -43.904266 118.66467 8616821
-28.873415 -43.809708 118.8076 12038312
-29.820436 -43.767727 118.81718 8551287
-30.825329 -43.794952 118.49765 10064008
-31.767908 -43.744316 118.46832 8090736
-32.831741 -43.727901 118.32819 9142907
-33.916695 -43.737965 118.25143 9208444
-34.735435 -43.721558 118.519 8945272
-35.792389 -43.70948 118.42012 8945015
-36.788612 -43.709633 118.1145 9010808
-37.782108 -43.709782 117.80013 9208187
-38.795158 -43.709908 118.50179 9800579
-39.791817 -43.710056 118.17043 9603457
-40.785816 -43.710209 117.83117 9208443
-41.635487 -43.710339 117.53355 9208443
-42.82156 -43.710491 118.16385 8484979
-43.815254 -43.71064 117.79863 8090992
-44.806007 -43.710793 117.42545 7564650
-45.897495 -43.710941 117.72443 7894126
-46.869778 -43.711079 117.70225 10196106
-47.718319 -43.711208 117.36072 10919574
-48.733334 -43.711357 117.21954 11050900
-49.806713 -43.711502 117.60053 10787728
-50.79541 -43.711655 117.17648 11445403
-51.64016 -43.711781 116.8069 9209216
-52.767151 -43.711926 117.43992 6511962
-53.754398 -43.712078 116.99094 7959402
-54.597733 -43.712212 116.60006 7564643
-55.750347 -43.712357 117.21954 9537919
-56.735577 -43.712513 116.74545 10261642
-57.782143 -43.712662 116.62872 9275004
-58.755489 -43.712791 116.93847 8222060
-59.738304 -43.712944 116.4391 8287597
-60.829041 -43.7131 116.48502 11906725
-61.781933 -43.71323 116.59587 9143421
-62.622101 -43.713364 116.14663 8419700
-63.988194 -43.713543 116.65588 9143419
-64.828758 -43.713676 116.19071 6643540
-65.526703 -43.713783 115.79865 6709590
-66.778061 -43.713947 116.37064 8156013
-67.75576 -43.714104 115.80369 8090479
-69.03006 -43.714264 116.36946 7038307
-69.728706 -43.714378 115.9515 10919830
-70.564224 -43.714508 115.44527 8814715
-71.863922 -43.714684 115.99707 9669254
-72.699509 -43.714813 115.47509 10787220
-74.068481 -43.59016 115.99132 9142651
-74.809021 -43.393452 115.7132 9405823
-75.677345 -43.38652 115.29845 9209212
-76.486908 -43.256931 115.04238 8288365
-74.989098 -42.562225 115.99155 10261132
-75.685837 -42.460007 115.72068 9471872
-76.698921 -42.476181 115.26068 9209467
-77.514915 -42.263336 114.9808 9210491
-75.99427 -41.649975 115.90754 9932167
-76.753418 -41.460514 115.64373 9538943
-77.672302 -41.506588 115.21394 10722703
-78.435196 -41.319244 114.94756 9210491
-77.044853 -40.795479 115.78003 11380375
-77.771965 -40.529034 115.56145 12103585
-78.750946 -40.506889 115.13212 9473151
-79.572578 -40.356739 114.82455 8485745
-78.022324 -39.822762 115.73275 9210491
-78.709549 -39.516182 115.54807 9275260
-79.691467 -39.600567 115.07471 8683124
-80.547371 -39.406574 114.76937 9012089
-79.081001 -38.738617 115.69371 6511954
-79.804016 -38.589851 115.42975 8222573
-80.728691 -38.560658 115.02753 8485745
-81.558685 -38.410599 114.71623 10195338
-79.995262 -37.872849 115.63183 9406590
-80.71994 -37.609703 115.41295 8748661
-81.681015 -37.650986 114.96617 9932166
-82.545906 -37.456715 114.65693 10458254
-83.340279 -37.018158 114.47722 10261132
-81.183609 -36.73312 115.55701 8090987
-81.797806 -36.635513 115.32124 8156780
-82.731651 -36.606724 114.91479 9143421
-83.648003 -36.34557 114.60936 9537923
-84.196243 -36.030273 114.49042 8420470
-81.993103 -35.915035 115.52284 9011576
-82.725754 -35.65097 115.30082 8420213
-83.610786 -35.610661 114.92081 9077886
-84.664505 -35.364609 114.54796 9077886
-85.375 -35.057251 114.35373 11379609
-83.159538 -34.940601 115.39162 7565675
-83.845192 -34.729019 115.16994 8551799
-84.657799 -34.573784 114.869 8749178
-85.578789 -34.332001 114.55446 10985109
-86.243935 -34.06427 114.36471 8617337
-84.017853 -33.947929 115.40707 8420470
-84.759186 -33.682613 115.18232 8090995
-85.784767 -33.444546 114.8195 10195595
-86.689507 -33.349758 114.45307 10064010
-87.43898 -33.085548 114.22416 10853012
-85.200287 -32.968395 115.27251 8090995
-85.772728 -32.719521 115.11669 11050645
-86.657707 -32.446995 114.83064 10655889
-87.597328 -32.396706 114.43067 8287859
-88.280708 -32.258713 114.18058 7038307
-86.79071 -31.657429 115.08894 10326926
-87.812347 -31.460304 114.71137 7630443
-88.652138 -31.360491 114.37599 7696235
-89.37011 -31.091925 114.16306 9735555
-87.732117 -30.730707 115.06441 7959408
-88.740417 -30.470274 114.77461 8090220
-89.642776 -30.420424 114.41676 9801092
-90.50238 -30.212561 114.18684 9735555
-91.187897 -30.164188 113.92113 9735046
-89.999413 -29.664629 114.87154 8814197
-90.78019 -29.647015 114.53734 9537922
-91.707161 -29.48913 114.28752 8485494
-92.608559 -29.322338 113.99854 8090737
-93.432526 -29.021894 114.44859 9142651
-93.120186 -29.010445 114.62801 7564651
38.000118 -70.042969 124.0209 6511954
36.993755 -70.24839 123.92308 11381404
36.019222 -70.094765 123.91501 8617842
45.658772 -69.096245 124.51795 9077370
45.158005 -69.01841 124.54143 10656657
43.945637 -69.180161 124.45805 7104091
43.023621 -69.249062 124.4163 8616563
41.998474 -69.37352 124.35068 10788245
40.954163 -69.351875 124.34333 8419955
39.995819 -69.537048 124.2544 6446163
38.994114 -69.460312 124.26984 9669762
37.992069 -69.442482 124.26164 7695972
36.967266 -69.561066 124.19839 10196362
36.054893 -69.463852 124.17779 9538432
35.123184 -69.226311 123.88551 5920078
50.574177 -68.238564 124.89703 8024937
49.950848 -68.21022 124.93913 8354159
49.043903 -68.413086 124.84384 8880504
47.96365 -68.370193 124.84448 7761255
46.898941 -68.550346 124.75589 7563619
45.926888 -68.441963 124.78448 9866629
44.890675 -68.514267 124.73957 11709089
43.8759 -68.476524 124.73917 8551281
42.858334 -68.498352 124.71484 10130058
41.845448 -68.523224 124.68934 10787988
40.859879 -68.382271 124.7308 8353903
39.834564 -68.581924 124.635 7104091
38.857265 -68.447395 124.67397 9209211
37.856144 -68.540413 124.62132 7695460
36.872936 -68.524376 124.61269 7826790
35.87011 -68.465462 124.51968 9537920
34.951172 -68.408112 124.13306 7959914
34.138885 -68.231026 123.81327 6051922
51.535347 -67.059692 124.96017 8287597
50.860008 -67.377083 125.13414 7367007
49.890152 -67.498093 125.22383 8683124
48.838234 -67.504204 125.20526 8485745
47.85434 -67.392166 125.23511 9866886
46.864223 -67.543022 125.15941 8287342
45.903622 -67.438881 125.18645 11314074
44.860588 -67.541573 125.12929 11511966
43.908775 -67.44352 125.154 8946039
42.939674 -67.603928 125.0748 8813941
42.018024 -67.557541 125.07928 7432288
41.032467 -67.581612 125.05453 7300447
39.942902 -67.739365 124.97456 7498593
38.941696 -67.774345 124.94524 8880246
37.938332 -67.868164 124.89218 8484976
37.114449 -67.873901 124.87728 7760997
35.597443 -67.769318 124.70236 10064009
34.83382 -67.525436 124.43301 10261644
33.96524 -67.418007 124.05795 6446168
33.158825 -67.247047 123.73851 6182995
51.853157 -66.302666 125.12041 7629923
50.930134 -66.331329 125.51398 6775126
49.862335 -66.573357 125.59431 8551538
48.972382 -66.650993 125.5495 9077882
47.923443 -66.661552 125.52919 11116952
46.942394 -66.719467 125.49093 9537921
45.825348 -66.804893 125.43953 9997700
44.784931 -66.880775 125.39314 10656657
34.603943 -66.778168 124.62404 9143163
33.845638 -66.540405 124.35474 7103837
32.983601 -66.439133 123.9804 7037789
32.182983 -66.2742 123.66133 4340793
52.759815 -65.406952 125.07394 7038307
51.904442 -65.474472 125.42752 7038307
51.04879 -65.544273 125.7803 7038563
33.614922 -65.798256 124.54333 9867401
32.861805 -65.566574 124.27406 10525071
31.931355 -65.448471 123.87353 6248274
31.121231 -65.312599 123.53815 9011064
53.574745 -64.231544 125.17973 8288116
52.835678 -64.587883 125.3665 7564650
51.955437 -64.647087 125.73447 7827821
32.630283 -64.829491 124.46021 12235687
31.902458 -64.5103 124.2385 8748663
30.907351 -64.435516 123.78932 9076600
30.320988 -64.4664 123.49442 8813428
54.476379 -63.175861 125.19926 10064779
53.825237 -63.529316 125.34805 11380379
52.955662 -63.579433 125.71491 9735558
52.274387 -63.892456 125.89323 8485494
31.668653 -63.711624 124.44836 7564648
30.968777 -63.504997 124.19467 7893098
29.891567 -63.517353 123.67078 7563619
29.219797 -63.157204 123.49257 6511954
54.847843 -62.431026 125.33113 10196108
53.915833 -62.478748 125.72643 12433065
53.173611 -62.833672 125.91501 10656658
30.691891 -62.764969 124.36019 7564648
29.996714 -62.563698 124.10655 7563876
28.939148 -62.477058 123.6321 7104091
28.259867 -62.228386 123.40527 9406590
55.766804 -61.354271 125.35201 10261643
54.881451 -61.425671 125.71712 10195850
54.101765 -61.603539 125.99284 10919573
29.892939 -61.87833 124.33331 7827817
29.001717 -61.516293 124.05024 8222316
28.027451 -61.458553 123.60421 9538176
27.196177 -61.225754 123.29774 10130059
56.713516 -60.214436 125.5232 9274753
55.869896 -60.43671 125.74727 9076601
55.057343 -60.617088 125.98243 10459022
28.598158 -60.702816 124.19727 9011576
27.838051 -60.512905 123.96085 9340798
27.009449 -60.485561 123.5702 9406594
26.19149 -60.250072 123.3448 10063753
25.400723 -60.066456 123.11736 8420470
59.610046 -59.014568 125.67562 7038307
58.793076 -59.055752 125.90372 7959402
57.875267 -59.377686 125.74888 8551285
56.972633 -59.567581 125.93577 8616823
56.145035 -59.783646 126.12107 8681843
26.755701 -59.757683 124.01859 9340801
25.877525 -59.588459 123.73438 8946300
24.956907 -59.425053 123.46634 8222580
23.997801 -59.186161 123.3744 10656660
22.936663 -59.076069 123.10412 9340030
22.316275 -59.002495 123.05969 8681843
74.825134 -58.425838 126.7952 10130317
73.836647 -58.469093 127.09185 9472383
72.84169 -58.693798 126.89819 9603969
71.786942 -58.693954 126.70232 10722450
70.803299 -58.694088 126.85781 11248795
69.760056 -58.694244 126.65382 8090736
68.782318 -58.694378 126.79802 9143677
67.691994 -58.69455 126.23374 9867141
66.77887 -58.694668 126.71909 9143675
65.705414 -58.694836 126.15022 8748917
64.792961 -58.69495 126.62117 11775138
63.736004 -58.695114 126.04795 10656657
62.824333 -58.695232 126.5047 10591378
61.783844 -58.695396 125.92717 9144448
60.826286 -58.754169 126.11755 9932938
59.840591 -58.836399 126.1615 7827822
23.030775 -58.938908 123.60861 9603974
21.910156 -58.853691 123.35483 8879222
20.969711 -58.7798 123.22259 10853012
19.98641 -58.719776 123.19853 9406081
18.953535 -58.701572 122.97513 8353909
17.917051 -58.701717 123.13007 9537924
16.852488 -58.70187 123.08051 8618105
16.068899 -58.701988 122.8522 10788502
15.001565 -58.702137 122.72105 10261902
13.967349 -58.702286 122.84269 8879995
12.838199 -58.70245 122.76884 8090737
12.006005 -58.702568 122.65596 8551027
11.084846 -58.702713 122.34895 7893614
10.053901 -58.702854 122.4376 7630185
9.0222912 -58.702999 122.51801 6839895
7.9900084 -58.703144 122.58932 6774102
7.0159011 -58.703285 122.20479 9406335
6.1075964 -58.703415 122.2314 9340285
4.9037151 -58.558281 122.27476 10656400
3.9822903 -58.386139 122.11964 7828078
3.0896797 -58.365231 121.71447 9078652
2.4997139 -58.091053 121.54089 9736836
75.721443 -57.415764 126.79929 9538694
74.833977 -57.500546 127.1599 10459025
74.118599 -57.840557 127.34237 9472642
3.89393 -57.546547 122.43266 8617847
3.1279426 -57.536652 122.06751 9210238
2.1771684 -57.374851 121.67467 9736585
76.646172 -56.3951 126.79501 9867401
75.851364 -56.433556 127.13289 10393743
75.102882 -56.493858 127.44147 9208443
2.8422394 -56.648113 122.28861 8025713
1.8907648 -56.489349 121.89382 8618363
1.16249 -56.419018 121.57074 9276292
0.45090541 -56.151447 121.33501 8092019
76.804092 -55.364304 127.13551 10459280
76.006554 -55.606934 127.39323 10854036
2.5173888 -55.932125 122.42033 8092019
1.8889929 -55.541405 122.2741 8420984
1.0397078 -55.495342 121.8828 8947071
0.12668094 -55.409557 121.47669 9866629
76.861755 -54.563862 127.42876 9209215
76.127258 -54.964016 127.59572 10854036
0.9160229 -54.573032 122.19381 9604486
0.046939466 -54.497215 121.80491 10064007
-0.92621076 -54.367527 121.38748 11905692
77.35186 -53.720638 127.54692 9143936
76.989174 -53.889988 127.64054 9143936
-0.10147038 -53.633785 122.08034 9143164
-1.0415009 -53.493198 121.68327 10392714
-1.7606944 -53.436333 121.35906 10195338
-0.42871276 -52.930351 122.2052 7564651
-1.052307 -52.554455 122.05536 8945529
-1.9174336 -52.477661 121.66876 7958888
-2.7925704 -52.454491 121.25581 6511954
-1.3112425 -51.862679 122.20843 10853012
-2.1563826 -51.483582 121.95302 7629923
-2.9792306 -51.554523 121.52744 6643544
-3.8294892 -51.341553 121.20274 7893615
-4.50348 -51.031464 121.00214 6840151
-2.4855978 -50.754845 122.08707 6511954
-3.1269238 -50.49884 121.88049 7498856
-3.9359121 -50.519608 121.48177 9209472
-4.7645011 -50.350426 121.14994 8419699
-3.9834552 -49.64489 121.81041 8354165
-4.9902234 -49.496788 121.38414 8354677
-5.8820877 -49.329655 121.06504 8288110
-6.5383177 -49.25676 120.85198 6510930
-4.2456269 -48.963303 121.95783 7038307
-5.0115533 -48.572773 121.74523 9276033
-6.0089741 -48.471687 121.35081 10657425
-6.8886652 -48.46611 121.02787 7761255
-7.8474798 -48.218693 120.7835 10128771
-5.4158096 -47.883774 121.82704 11381404
-6.0339627 -47.542599 121.70161 9013118
-7.0466051 -47.48251 121.34975 8025968
-7.9826179 -47.498299 121.02124 9997443
-8.8299141 -47.465347 120.80853 11313816
-9.7380457 -47.19315 120.67187 12629674
-7.1331472 -46.598461 121.65961 8354420
-8.063364 -46.458912 121.39359 9537409
-8.8973532 -46.494171 121.15652 10458250
-9.8677607 -46.537979 120.88373 11642522
-10.865188 -46.438923 120.65692 8221548
-11.629153 -46.180992 120.55151 9142649
-8.0510225 -45.798019 121.64776 8025712
-8.9237251 -45.598755 121.51275 9012091
-9.9976912 -45.545033 121.28466 10129542
-10.944269 -45.494534 121.06718 8484719
-11.949913 -45.442848 120.83266 9537665
-12.880982 -45.394917 120.60763 7103835
-13.96506 -45.21225 120.45332 7235423
-14.679883 -45.18243 120.2878 7037274
-11.277362 -44.805916 121.4877 7563619
-11.998705 -44.771671 121.32404 9603458
-13.045519 -44.690746 121.11138 7432544
-13.971261 -44.707981 120.85265 7103835
-14.954908 -44.486366 120.81371 9471614
-15.872136 -44.456635 120.60805 10063492
-16.913179 -44.331772 120.46252 9669504
-17.936602 -44.184757 120.37798 9275003
-18.876148 -44.113068 120.31799 10196104
-19.982309 -44.06052 120.18188 9012344
-20.84317 -44.047245 119.99788 9143675
-21.559767 -44.036972 119.84209 9735555
-18.91115 -43.921082 120.92142 13880250
-19.92119 -43.904064 120.71028 10525325
-20.929688 -43.888481 120.49499 10788243
-21.983807 -43.841984 120.36852 9406073
-22.915648 -43.773788 120.36082 9932416
-23.93099 -43.789326 120.06779 10064003
-24.88443 -43.75259 120.0005 8156268
-25.935144 -43.708038 119.9752 8288366
-26.944714 -43.708187 119.75219 8551538
-27.952478 -43.70834 119.52105 9537665
-28.928671 -43.708473 119.78546 9866630
-29.908997 -43.708603 120.04209 10853265
-30.918959 -43.708755 119.78563 9735044
-31.926859 -43.708904 119.521 8222065
-32.932419 -43.709057 119.2475 9340023
-33.792603 -43.709183 119.00687 9537406
-34.925331 -43.709324 119.69974 9471359
-35.932377 -43.709476 119.40141 9010808
-36.936707 -43.709625 119.09415 9866117
-37.938568 -43.709778 118.77888 8682867
-39.104424 -43.709923 119.44601 10129798
-39.965725 -43.71006 119.16039 14209216
-40.824963 -43.710186 118.86867 10655630
-41.824669 -43.710339 118.52024 9537407
-42.878281 -43.710468 119.21485 8683384
-43.880833 -43.710621 118.84916 7499369
-44.880409 -43.710773 118.4754 7564650
-45.858414 -43.710911 118.46564 10261899
-46.962383 -43.71106 118.76541 9143934
-47.818653 -43.711197 118.42313 10393228
-48.672356 -43.711327 118.07469 12432294
-49.925873 -43.711487 118.67612 9735297
-50.781353 -43.71162 118.31244 9668993
-51.776016 -43.711773 117.88017 7563618
-53.056114 -43.711937 118.4639 7892582
-53.909874 -43.71207 118.0773 8354159
-54.902592 -43.712223 117.61911 7893608
-56.066936 -43.712372 118.25157 11379607
-56.777351 -43.712482 117.91187 12432037
-57.627167 -43.712616 117.49879 10393227
-58.95834 -43.712788 118.04915 9471871
-59.809067 -43.712921 117.62032 6510930
-60.656681 -43.713051 117.18535 10064265
-62.014023 -43.713234 117.71751 10063492
-62.862267 -43.713364 117.26657 9866373
-63.834164 -43.713497 117.37649 9735299
-64.808281 -43.713634 117.47932 8814709
-65.795418 -43.713795 116.92892 7499106
-67.060059 -43.713951 117.51599 12431013
-67.765617 -43.714066 117.10993 11904668
-68.60952 -43.714203 116.61781 8484979
-69.899696 -43.714367 117.19146 8090992
-70.839485 -43.680164 116.84115 6906719
-71.69632 -43.474213 116.9802 8551538
-72.749329 -43.499363 116.61825 8813942
-73.669655 -43.290585 116.29002 8353135
-74.280853 -43.03672 116.11829 7563619
-72.08149 -42.829521 117.18589 8814707
-72.831169 -42.635616 116.9281 6577748
-73.773933 -42.507202 116.5576 7563619
-74.641434 -42.328686 116.24088 8550514
-73.186333 -41.863007 117.07904 5393730
-73.909958 -41.626179 116.85013 7169373
-74.866089 -41.338287 116.53762 8155755
-75.75705 -41.299751 116.15425 9471616
-74.072357 -40.999268 117.02893 8288365
-74.894257 -40.405918 116.89904 8222060
-75.734398 -40.394688 116.52746 8946040
-76.62413 -40.3932 116.1298 9736578
-77.337021 -40.129761 115.91632 13550517
-75.25692 -39.695538 117.02164 8288365
-75.968193 -39.429668 116.80993 9473151
-76.860451 -39.427414 116.41144 12564135
-77.754402 -39.426826 116.0115 10788752
-76.838745 -38.519718 116.78527 10657166
-77.739456 -38.481262 116.39751 9670273
-78.632385 -38.3918 116.03367 8353902
-79.30265 -38.180443 115.81841 6511954
-77.973663 -37.549034 116.66663 9801604
-78.823875 -37.474461 116.31595 9538176
-79.726074 -37.474754 115.91196 8090986
-80.450478 -37.210812 115.6936 9405822
-78.872223 -36.598232 116.64584 8353902
-79.762726 -36.492851 116.2895 7761765
-80.643005 -36.492073 115.89574 8682355
-81.292892 -36.223732 115.71246 9405822
-79.953392 -35.588196 116.56704 8156267
-80.811836 -35.513897 116.21257 6775126
-81.722679 -35.514767 115.80448 9142906
-82.454926 -35.249901 115.58295 8420470
-80.974663 -34.748817 116.4466 6511954
-81.762802 -34.527794 116.1825 8288112
-82.716515 -34.535446 115.75267 7959920
-83.467461 -34.265896 115.52525 7565675
-81.958771 -33.618538 116.46044 8090992
-82.826111 -33.544205 116.10251 8419957
-83.746193 -33.545422 115.69058 9801351
-84.487129 -33.279293 115.46635 11379609
-82.993622 -32.775055 116.33714 9275009
-83.790596 -32.553009 116.0701 11051159
-84.688721 -32.552792 115.66856 10130058
-85.434853 -32.401493 115.39578 9735302
-84.130821 -31.615896 116.2951 10853520
-84.868141 -31.563599 115.98643 9998212
-85.828148 -31.609728 115.53856 9932681
-86.547318 -31.296791 115.34288 10853012
-84.945175 -30.758005 116.28721 9011573
-85.79406 -30.614552 116.0018 8485491
-86.729103 -30.615601 115.58469 8617080
-87.552795 -30.428432 115.32764 8222579
-88.450165 -30.031965 115.25663 8089963
-86.951408 -29.854692 116.07475 7893615
-87.822029 -29.715145 115.80241 8419443
-88.897873 -29.493319 115.55165 8418928
-89.735641 -29.338661 115.39059 8484721
-90.781395 -29.172766 115.10658 10326924
-91.090355 -28.938625 115.7846 9734528
-91.87088 -28.965746 115.34167 9011581
-92.733116 -28.872374 115.28181 7827566
-93.600128 -28.779364 115.21852 9142651
41.697399 -67.124985 125.24787 7037274
41.023087 -67.145317 125.22938 8155755
40.0079 -67.234291 125.17815 9866372
39.004944 -67.26992 125.14851 9209211
37.999863 -67.364388 125.09522 8484976
36.886368 -67.376335 125.07337 7366239
36.063484 -67.443748 125.00427 8024169
35.301464 -67.167107 124.80295 10064009
48.710709 -66.086037 125.77211 10262156
47.805408 -66.294762 125.6745 11380380
46.859119 -66.237427 125.68303 8813942
45.900269 -66.29583 125.64487 10062978
44.85804 -66.372551 125.59813 9997957
43.829548 -66.39563 125.57308 10195850
42.783051 -66.590492 125.47887 9208699
41.787933 -66.450531 125.51976 8616562
40.767372 -66.538429 125.46885 11181974
39.76601 -66.517052 125.4621 10129287
38.783016 -66.38678 125.49928 7169629
37.762848 -66.595139 125.4001 8485233
36.787792 -66.471031 125.43494 7629667
35.81041 -66.47216 125.30517 8287853
35.018036 -66.470032 124.94796 9340285
34.308197 -66.180847 124.72273 8287853
50.665665 -65.433319 125.99491 7697260
49.847389 -65.564346 125.9988 8946296
48.817081 -65.404526 126.04707 10591121
47.788391 -65.552353 125.97202 10393229
46.832272 -65.452072 125.99757 8550513
45.847603 -65.479561 125.97144 10260101
44.867584 -65.509827 125.94432 8747377
43.924213 -65.417679 125.96677 9537920
42.922089 -65.577652 125.88725 10919830
41.923447 -65.439384 125.92739 10129801
40.899384 -65.528702 125.87589 11708317
39.894608 -65.508835 125.86845 10655631
38.943241 -65.48201 125.86465 7564130
37.920479 -65.636719 125.78693 8880503
36.886513 -65.634293 125.77205 9406847
35.746532 -65.665718 125.60685 8287853
34.81868 -65.441994 125.26706 8485232
34.024525 -65.488976 124.86552 6709335
33.319405 -65.205788 124.64023 7564651
51.601067 -64.426147 125.98008 7038307
50.869072 -64.576385 126.23528 8749433
49.780357 -64.505363 126.4225 9604484
48.901474 -64.487602 126.41614 8748660
47.895142 -64.568413 126.36832 9208956
46.9076 -64.465614 126.39441 10590351
45.766251 -64.559273 126.33932 9602428
44.764198 -64.63176 126.29491 8089705
43.635754 -64.731232 126.23768 9143675
42.775684 -64.783958 126.20332 8090474
41.847168 -64.743141 126.20545 8155755
40.80685 -64.946037 126.10815 8682099
34.731598 -64.630829 125.55272 9340286
33.823044 -64.467194 125.1811 7762030
32.984138 -64.436989 124.78918 9077887
52.522614 -63.189671 126.06275 8485494
51.78212 -63.54845 126.24918 8682872
50.850506 -63.604786 126.63878 9144190
49.773354 -63.80582 126.70295 9473154
48.7033 -63.877239 126.65792 8682867
47.998791 -63.888538 126.64256 8682867
33.764389 -63.613853 125.49742 8683130
32.845043 -63.438011 125.12557 9275265
31.999607 -63.478664 124.70191 6972770
53.42347 -62.132187 126.08344 11380380
52.739773 -62.444252 126.26314 9143421
51.866943 -62.49791 126.62997 8748920
51.216019 -62.856487 126.77673 9144190
32.770695 -62.654438 125.40621 10656659
31.818577 -62.432549 125.03717 9011835
30.93302 -62.459099 124.59984 7038561
53.745758 -61.381203 126.23968 11248538
52.858162 -61.438496 126.6114 9538176
52.114513 -61.795753 126.79955 8682867
31.799965 -61.546101 125.38617 10525072
30.836096 -61.490837 124.94418 7169891
29.8444 -61.34082 124.52702 8551283
54.770576 -60.271309 126.35094 10459022
53.832146 -60.474087 126.62414 10064520
52.938183 -60.629799 126.91779 9538176
30.854378 -60.711437 125.27859 7564648
29.878355 -60.523224 124.9346 9800837
28.938377 -60.343842 124.59624 9668994
27.997486 -60.118851 124.32161 10129801
57.629658 -59.007374 126.57622 8222573
56.637691 -59.144226 126.68092 8485233
55.759724 -59.444187 126.58576 8747893
54.887558 -59.568615 126.85999 9274493
54.169987 -59.78896 126.99451 8682867
29.634932 -59.943695 125.24996 9932166
28.850195 -59.71104 125.06206 10195338
27.938803 -59.544815 124.76133 10985366
26.925581 -59.287502 124.60535 9472385
25.985645 -59.110733 124.43941 7960176
25.169716 -59.049557 124.26326 9341059
73.566284 -58.18808 127.44935 8682867
72.799667 -58.316856 127.73875 9143418
71.780388 -58.527496 127.88477 9866629
70.847885 -58.694054 128.02199 10524560
69.732346 -58.694225 127.44966 10064009
68.964157 -58.694321 127.86665 10129801
67.865105 -58.6945 127.29116 9275004
66.94429 -58.694614 127.7777 9472383
65.862267 -58.694786 127.19777 9341054
65.095886 -58.694881 127.59177 11183001
63.87706 -58.695072 127.08559 12367016
63.11142 -58.695164 127.46763 9078392
61.756489 -58.695374 127.02899 8880764
60.837921 -58.695488 127.47187 7038307
59.806461 -58.69566 126.8777 7038307
58.81797 -58.777077 126.9125 7564642
57.851719 -58.828396 127.06423 8617331
25.590284 -58.94878 124.79485 7565163
24.772421 -58.885975 124.61161 8880509
23.884066 -58.826832 124.38602 11972262
22.873007 -58.731094 124.42569 10985368
21.891773 -58.701122 124.12115 9274238
20.845507 -58.701263 124.3008 9010808
19.797791 -58.701408 124.47202 9208960
18.96714 -58.701542 124.05558 8156531
17.883097 -58.701694 123.94397 9472388
16.987806 -58.70182 124.06979 8683385
15.892099 -58.701973 124.05318 9472643
14.980958 -58.702114 123.79016 10327182
13.907979 -58.702271 123.64677 8946044
12.865996 -58.702412 123.75919 10392718
11.823163 -58.702564 123.86322 10985622
10.973567 -58.702694 123.48671 7761257
10.060271 -58.702827 123.42253 8090478
8.9313631 -58.702988 123.31046 8353134
7.8247962 -58.660591 123.49377 6774102
6.9698563 -58.422176 123.53439 7170141
5.8802929 -58.407249 123.02615 9472383
5.1880064 -58.175087 122.80247 12959409
73.668587 -57.406544 127.71527 8682867
72.762177 -57.464462 128.09502 9406590
72.017754 -57.760681 128.30789 9208443
6.5181084 -57.566555 123.68924 7170141
5.8668332 -57.566811 123.37524 7630692
4.8975997 -57.491692 122.93851 9275777
4.1972294 -57.297283 122.67949 9012603
74.628067 -56.258537 127.74623 10853780
73.780457 -56.506836 128.02399 10458254
73.024391 -56.689388 128.28726 9932166
5.6180434 -56.755558 123.583 7893865
4.8839631 -56.461533 123.34797 8749691
4.0072675 -56.534714 122.89594 9078399
3.2607651 -56.231991 122.65829 7959665
75.492058 -55.430771 127.69212 9866629
74.720673 -55.461071 128.02277 9866373
73.892693 -55.687595 128.30051 10063752
4.7736979 -55.755074 123.58008 9341571
4.0194864 -55.606266 123.27607 9341571
2.9582992 -55.447216 122.82794 10327950
2.2249436 -55.258663 122.54983 8092019
76.59227 -54.243252 127.67625 9405822
75.775856 -54.496929 127.93799 10327436
74.870651 -54.648346 128.27994 8616306
3.6283994 -54.703609 123.4502 10722194
2.8292189 -54.447876 123.1673 14339779
1.9622055 -54.531002 122.71555 12433068
1.240863 -54.253006 122.47918 13683651
77.456772 -53.169224 127.71995 9734788
76.698669 -53.46085 127.9407 9537665
75.78035 -53.515556 128.32698 9537408
75.025436 -53.809341 128.54544 9405822
2.6356988 -53.691181 123.37811 13879228
1.9387585 -53.510635 123.11436 11116180
1.0461122 -53.50095 122.68752 8288115
0.30720767 -53.214165 122.44619 7564651
77.478935 -52.354813 128.03462 9734788
76.765739 -52.445316 128.31548 9471871
76.048683 -52.740051 128.51669 9997959
1.7435471 -52.808414 123.3024 7168859
0.94124186 -52.534046 123.02555 6050380
-0.08127299 -52.464188 122.56018 7037792
-0.72365177 -52.26849 122.32881 7564651
77.606544 -51.507755 128.31535 9274494
76.990707 -51.544071 128.57457 9208955
0.65481961 -51.694084 123.22495 5458499
-0.13554564 -51.454826 122.9397 6313551
-0.96081388 -51.465904 122.53704 8550513
-1.7040676 -51.289402 122.24931 9866373
77.800156 -50.663292 128.56575 8814457
-0.21010342 -50.75502 123.185 6774102
-1.0525225 -50.445446 122.90295 7366239
-2.0099101 -50.502426 122.41803 8616562
-2.7824638 -50.100582 122.20673 8814715
78.086235 -49.859398 128.75885 8814457
-1.2228774 -49.64624 123.14195 7037274
-2.0144234 -49.531979 122.80595 10590352
-3.0796168 -49.447903 122.32572 9998988
-3.7609072 -49.13916 122.12104 7038307
-2.3853025 -48.710068 122.95732 12103847
-3.088866 -48.539085 122.68654 11314589
-3.9634423 -48.403847 122.31888 8222579
-4.5462103 -48.164333 122.13393 9671047
-3.1948752 -47.716343 122.96609 10130057
-3.9752419 -47.497189 122.6776 9275262
-4.9569216 -47.466457 122.21627 10723732
-5.715126 -47.23951 121.94164 9144704
-4.0571613 -46.806301 122.91575 9603971
-5.0396266 -46.482796 122.57172 8815228
-5.9880109 -46.547455 122.10961 8289397
-6.8159723 -46.292969 121.89545 8420213
-5.2231569 -45.69302 122.81433 8090995
-6.0966067 -45.56068 122.51049 8091506
-7.0549269 -45.468864 122.21091 8880250
-8.0673532 -45.374397 121.89257 8157041
-8.9448175 -45.191032 121.79868 8946554
-9.5244675 -45.159863 121.67016 9341054
-7.2299294 -44.782375 122.67202 9011579
-8.1022348 -44.709583 122.4174 8485748
-8.9754848 -44.658131 122.2144 8617331
-10.031504 -44.509361 122.10004 8288366
-10.998411 -44.407745 121.95938 8090732
-12.048928 -44.273109 121.83053 9405822
-13.081803 -44.126179 121.7901 7958888
-13.953753 -44.104256 121.63154 7958888
-14.710004 -44.00745 121.74874 9537664
-15.241773 -43.900043 121.95923 9537664
-16.05007 -43.897964 121.75258 8551026
-16.999252 -43.889416 121.52988 9538175
-18.004063 -43.847076 121.40292 11446169
-18.989756 -43.76115 121.42342 13682615
-20.003895 -43.744114 121.21128 12564136
-21.0166 -43.728481 120.9949 11248793
-21.968437 -43.712837 121.2715 10919312
-23.075769 -43.707588 121.54147 9208435
-24.098728 -43.707741 121.3429 10458506
-24.974157 -43.70787 121.16563 9602945
-25.993784 -43.708019 120.9506 8090219
-27.011686 -43.708172 120.72745 9077370
-27.882576 -43.708302 120.52918 11445918
-28.828756 -43.708435 120.64206 8089963
-30.000275 -43.708588 121.02871 10326921
-31.018677 -43.708736 120.77177 10655887
-31.889814 -43.70887 120.54456 9142908
-32.903957 -43.709023 120.27133 9668991
