# .PCD v0.7 - Point Cloud Data file format
VERSION 0.7
FIELDS x y z rgb
SIZE 4 4 4 4
TYPE F F F U
COUNT 1 1 1 1
WIDTH 1211
HEIGHT 1
VIEWPOINT 0 0 0 1 0 0 0
POINTS 1211
DATA ascii
-19.243942 -22.599445 143.95229 9537667
-20.222198 -22.482389 143.73703 8353908
-21.134422 -22.218855 143.59444 9800580
-21.644373 -22.210493 143.46233 10458251
80.970894 -21.342314 156.34715 9142910
80.073235 -21.378344 156.73219 9932169
-15.510383 -21.982235 145.1907 8682867
-16.28566 -21.875893 145.00896 9010808
-17.285374 -21.693163 144.81271 8484464
-18.268818 -21.574245 144.5968 9142652
-19.295019 -21.555244 144.33192 9274752
-20.319397 -21.537342 144.06708 9735045
-21.171719 -21.523249 143.84644 9931908
-22.022877 -21.509943 143.62582 12037281
-23.000128 -21.396309 143.40939 10458251
-23.992191 -21.221399 143.21114 11643293
81.841408 -20.473175 156.30528 9472640
81.09803 -20.580864 156.59322 8551030
80.371796 -20.745411 156.85092 8485238
-18.644157 -20.869553 144.76263 9340289
-19.404524 -20.716492 144.6187 9143166
-20.413841 -20.533772 144.41992 8748151
-21.227839 -20.477324 144.2254 8550257
-22.081152 -20.464613 144.00375 10458251
-23.103617 -20.450197 143.73708 8681843
-24.124575 -20.436771 143.47026 9603201
-25.144173 -20.424393 143.20341 7893356
-26.173923 -20.238981 142.99876 9406337
-27.033806 -20.056189 142.83832 9011579
82.794098 -19.063225 156.44186 10261387
82.080437 -19.536758 156.57117 9669762
81.245232 -19.584011 156.92392 8551287
-21.436411 -19.775776 144.43405 8089963
-22.210339 -19.677258 144.26489 8681843
-23.20472 -19.445309 144.08714 9208186
-24.188135 -19.389353 143.84627 12300709
-25.210342 -19.377586 143.57851 8682357
-26.231298 -19.366791 143.31068 10261133
-27.25103 -19.356977 143.0428 8222320
-28.087711 -19.524038 142.75737 4868159
-28.948265 -19.342922 142.59616 7301214
83.027084 -18.382517 156.60875 10261387
82.122688 -18.418835 156.99663 9472383
-24.401386 -18.687347 144.05284 10853265
-25.331749 -18.537058 143.86151 9537153
-26.288828 -18.492418 143.6234 9997961
-27.240238 -18.518629 143.36024 9011579
-28.079834 -18.601368 143.10562 5854540
-28.998978 -18.644243 142.84479 6774870
-29.978725 -18.593861 142.60278 6511954
-30.984331 -18.421976 142.39952 8287852
-31.91161 -18.277514 142.2068 8222060
83.82972 -17.576229 156.57217 9143419
83.047874 -17.570633 156.9222 9735299
82.425674 -17.780275 157.11566 9209467
-26.323395 -17.966614 143.81145 9735046
-27.188129 -17.783451 143.64986 8682615
-28.0924 -17.644552 143.46123 6511955
-29.075216 -17.593548 143.21864 7432800
-30.09671 -17.586943 142.94911 7893094
-31.117401 -17.581242 142.67947 9274230
-32.138508 -17.57704 142.41463 8551024
-33.173183 -17.581179 142.20992 7695461
-34.039223 -17.587091 142.05379 6774359
-34.92115 -17.418304 141.9594 6774359
-35.962341 -17.426912 141.77121 7762024
-37.020802 -17.260752 141.64452 7696232
-38.064503 -17.271029 141.4552 8551282
83.940178 -16.44383 156.97357 9472127
83.246666 -16.786634 157.14555 9538176
-29.126179 -16.891214 143.46858 9011320
-30.162624 -16.709021 143.26091 9668991
-31.199177 -16.527639 143.05295 10721425
-32.223061 -16.523748 142.78783 9208438
-33.157272 -16.577394 142.58369 7629412
-34.002441 -16.488535 142.46629 7234910
-34.997986 -16.539593 142.27054 7563875
-36.041489 -16.547791 142.08208 7169628
-37.085987 -16.556822 141.8931 8090988
-38.131546 -16.566687 141.70363 10393485
-39.073563 -16.626728 141.51405 9472127
-39.924889 -16.54142 141.39429 7563618
-40.886646 -16.552486 141.21927 5787464
-41.994766 -16.433479 141.06641 5919050
-42.980907 -16.410795 140.89952 6314064
-43.945023 -16.282187 140.77574 7761765
-44.82502 -16.294655 140.61472 8353646
84.488838 -15.22824 157.34924 9735043
84.161285 -15.646982 157.19226 9997959
-31.595455 -15.821716 143.21222 10853012
-32.279602 -15.819634 143.03731 9142647
-33.145256 -15.822531 142.86478 8089963
-34.034996 -15.653643 142.79156 7300703
-35.079811 -15.660502 142.60199 9274237
-36.125443 -15.668159 142.41185 8024937
-37.171986 -15.676604 142.22116 8024938
-38.142029 -15.562567 142.13126 9472128
-38.998688 -15.477335 142.02637 9537920
-39.99884 -15.53067 141.81798 8221804
-41.050327 -15.541792 141.62415 6708566
-42.103188 -15.553692 141.42957 6642516
-43.105392 -15.609036 141.21588 6314576
-43.97123 -15.527144 141.11502 6511954
-44.918419 -15.589213 140.90691 7038298
-45.977535 -15.604081 140.71027 7038042
-47.038868 -15.619829 140.51384 7761765
-47.95253 -15.457419 140.43044 8156267
-48.840302 -15.471521 140.26477 8221549
-49.83873 -15.401014 140.13794 13288376
-51.017105 -15.33389 139.97424 9734781
-51.909973 -15.349359 139.80373 8813680
-52.851936 -15.192582 139.75745 7695459
-53.977058 -15.039321 139.67596 7367271
-54.877182 -15.056175 139.50308 6511954
-55.779312 -15.073632 139.32938 9011064
-56.683201 -15.091603 139.15494 8879479
-42.242088 -14.866086 141.89546 8089962
-42.946922 -14.874004 141.76402 6117199
-44.005432 -14.886518 141.56622 8156523
-45.065491 -14.899766 141.36758 6116940
-46.147945 -14.827613 141.23114 7958889
-46.957508 -14.717661 141.17252 8682868
-47.944149 -14.766201 140.95953 7892840
-49.012131 -14.781983 140.75748 8221549
-50.082207 -14.798549 140.55447 11775139
-50.957783 -14.588871 140.56146 9275002
-51.917393 -14.654338 140.34016 8813680
-53.042408 -14.499198 140.26051 8419440
-54.041264 -14.551681 140.0423 8485493
-54.927418 -14.497691 139.92671 8353651
-55.930565 -14.551378 139.70677 9668738
-56.935631 -14.605845 139.48593 9734531
-57.828945 -14.553259 139.36795 9734531
-58.86161 -14.483269 139.31628 7564905
-59.901348 -14.461792 139.16188 7827821
-60.864361 -14.366045 139.08792 8354421
-61.917305 -14.328005 138.90694 7960176
-62.926193 -14.38323 138.65057 6774873
-63.839474 -14.33305 138.53079 7169888
-64.79525 -14.2998 138.36368 8354159
-65.837532 -14.232723 138.20074 7433057
-66.76889 -14.254519 138.01083 7563618
-67.893906 -14.282251 137.78937 8879735
-70.138214 -14.018162 138.12651 14604238
-70.882462 -14.034262 137.94302 12170152
-71.814499 -14.05471 137.71223 10787215
-72.748634 -14.075628 137.47957 11840418
-73.872612 -14.101331 137.19794 9406079
-74.811493 -14.123216 136.96127 7826790
-67.913551 -13.971799 138.6696 6839895
-68.839111 -13.990815 138.44458 8090986
-69.580978 -14.006363 138.26324 9209467
-75.857796 -13.835499 137.69237 7366239
-76.91848 -13.848127 137.26335 11181461
-77.777634 -13.854569 136.85916 10854036
-78.465012 -13.860015 136.53471 7564651
-84.098267 -13.724077 136.64954 9208435
-84.754814 -13.724268 136.2429 10655371
-85.573074 -13.724508 135.73055 9340796
-94.927444 -13.726894 135.28377 9537921
-95.577263 -13.727087 134.82501 9012089
-96.225243 -13.727283 134.3636 10262156
-98.16037 -13.449029 134.99542 8813686
-98.766411 -13.257718 134.80281 7826791
-99.619987 -13.314054 134.40089 9340029
-100.54041 -13.250352 134.01749 9406078
-101.25538 -13.101488 133.75949 12432045
-99.088326 -12.655368 134.90126 8813686
-99.697128 -12.462885 134.70784 9405566
-100.63882 -12.479616 134.28271 8090731
-101.58273 -12.49679 133.85643 8090731
-102.19678 -12.304232 133.66083 5920074
-100.0214 -11.858009 134.80626 9209467
-100.68081 -11.733158 134.56331 8419952
-101.62495 -11.476671 134.2466 8814198
-102.57334 -11.492866 133.81873 7696229
-103.42909 -11.371119 133.48732 10261387
-101.81026 -10.660881 134.49132 10261388
-102.61742 -10.468319 134.20985 9209211
-103.57038 -10.48347 133.78035 8880246
-104.45924 -10.456719 133.39615 9932167
-102.75805 -9.8537264 134.39381 10458510
-103.65254 -9.5059433 134.13571 10064008
-104.57415 -9.4678583 133.74149 10064009
-105.49876 -9.4299583 133.34586 8353135
-106.40277 -9.0809298 133.08409 8089963
-104.68961 -8.4759111 134.08794 10261644
-105.58482 -8.4463825 133.70222 9011321
-106.55048 -8.4595718 133.2683 10064008
-107.37466 -8.2627811 132.98181 9143166
-105.65471 -7.657063 133.98898 7629668
-106.5542 -7.6265101 133.60208 11116440
-107.52431 -7.6386905 133.16666 8090736
-108.59837 -7.2335978 132.85313 7564393
-106.62578 -6.8338146 133.8895 9340541
-107.57951 -6.5929961 133.56322 8419953
-108.44308 -6.6025662 133.17612 8814201
-109.41347 -6.2981277 132.86813 7038307
-107.97499 -5.7574849 133.72418 8288621
-108.61199 -5.5529833 133.52383 8813940
-109.50352 -5.6036701 133.10777 8616566
-110.4679 -5.5285587 132.71004 8945273
-111.21935 -5.3665853 132.44179 9012091
-108.9601 -4.9233398 133.62289 6511954
-109.67076 -4.5905299 133.44153 10589324
-110.50983 -4.5730515 133.07616 8156273
-111.49085 -4.467226 132.68347 8288371
-112.42403 -4.2441278 132.35916 8288371
-110.74793 -3.5226386 133.39351 7762029
-111.49174 -3.4562874 133.09012 8090993
-112.48548 -3.462508 132.64661 8814713
-113.43378 -3.3972225 132.25208 8288623
-111.75051 -2.6747644 133.29001 8485750
-112.49816 -2.6070476 132.98547 10130313
-113.49695 -2.611903 132.54025 10853521
-114.45017 -2.5449522 132.14423 7893608
-112.75957 -1.8215253 133.18571 10590607
-113.56489 -1.5371273 132.94286 11511194
-114.50543 -1.5939592 132.50259 9340798
-115.47924 -1.3988445 132.149 9143163
-116.29428 -1.1124989 131.90265 7563619
-114.58517 -0.67605805 132.83681 9866629
-115.4973 -0.46052837 132.59818 10261387
-116.4085 -0.50497133 132.15994 8813942
-117.43106 -0.24501877 131.90576 8156521
-116.64442 0.1914589 132.62042 9340540
-117.57705 0.41063398 132.3902 9011573
-118.49574 0.36720884 131.94623 6972505
-119.32621 0.48478866 131.67628 12629674
44.035492 -43.153252 152.53502 10655630
43.135078 -43.184532 152.50887 10063491
42.237114 -43.216808 152.48235 10655630
41.223789 -43.396503 152.38063 11707289
40.234543 -43.45932 152.35475 11444631
39.258564 -43.394653 152.36584 9998471
38.285137 -43.33149 152.3764 10195338
37.289803 -43.330372 152.2854 8813941
36.239052 -43.363064 152.2171 9340797
35.221027 -43.502342 152.04718 9143418
34.257401 -43.307346 151.70161 9537919
33.478119 -43.234722 151.35503 10459278
47.161938 -42.23304 152.95126 9736836
46.148956 -42.254719 152.92715 10262924
45.202637 -42.473438 152.82518 10130570
44.178402 -42.352898 152.85794 9997697
43.225422 -42.562759 152.75938 10458251
42.206795 -42.416698 152.80247 10984595
41.203342 -42.576923 152.72302 10786958
40.192123 -42.462795 152.75343 10392200
39.277435 -42.576973 152.69377 9537666
38.240185 -42.611824 152.66406 9866374
37.17548 -42.696381 152.61401 10853012
35.105625 -42.768185 152.32826 8682867
34.332195 -42.57378 152.03398 9406332
33.268887 -42.473339 151.56203 9538176
32.42915 -42.345364 151.20898 10919829
49.932125 -41.283913 153.37479 9209467
49.182178 -41.382187 153.32358 9209467
48.206913 -41.589169 153.22531 9998983
47.176781 -41.410755 153.28099 9736836
46.196728 -41.443348 153.25302 10789012
45.229671 -41.518734 153.20813 11051927
44.233131 -41.449577 153.22073 9802115
43.139221 -41.511421 153.17935 10261383
42.207394 -41.693897 153.09207 10392457
41.279816 -41.695976 153.07716 9011575
40.413868 -41.766434 153.03581 10260871
33.905869 -41.817604 152.13361 9340795
33.156013 -41.444721 151.92271 9208953
32.298965 -41.489479 151.49161 9275004
31.390593 -41.402298 151.08897 8551545
50.777618 -40.310097 153.45967 8683124
50.137802 -40.456631 153.64842 9340797
49.162575 -40.501949 153.67641 9209467
48.206173 -40.38446 153.70859 9275260
47.172928 -40.503723 153.64455 9868422
46.167004 -40.433346 153.65729 11315100
45.119823 -40.744984 153.51649 11183513
44.099735 -40.866978 153.45212 9736579
32.246513 -40.553566 151.84401 10064519
31.33252 -40.512775 151.41994 8617080
30.363922 -40.376099 151.00832 8551545
29.688339 -40.146584 150.77527 9143419
51.158279 -39.486729 153.61841 9538433
50.13562 -39.540051 154.00122 9866370
49.199051 -39.553654 154.05743 10392456
48.076439 -39.796345 153.94249 9801859
47.243473 -39.930958 153.8755 9736836
31.826843 -39.744465 151.96826 12104103
31.166092 -39.566788 151.72148 9801606
30.370951 -39.51696 151.35834 9801352
29.458324 -39.375713 150.97549 9011576
52.011818 -38.302601 153.71062 10854037
51.15242 -38.603737 153.97266 10393742
50.394566 -38.961941 154.16684 9998212
30.159039 -38.599003 151.62666 11248280
29.163071 -38.522007 151.17775 7629667
28.37904 -38.477657 150.81776 7168860
27.782795 -38.205727 150.64014 8090995
52.912785 -37.350643 153.68938 11380380
52.128639 -37.478134 153.98709 11248794
51.322777 -37.644203 154.27907 11117208
29.878933 -37.96627 151.74698 10984852
29.201809 -37.743126 151.51062 10392971
28.381884 -37.377808 151.26294 9406335
27.3578 -37.534088 150.7063 8354167
26.437428 -37.097126 150.4391 9867403
53.772667 -36.166019 153.77904 9405566
53.05619 -36.520588 153.95619 9406334
52.275333 -36.663063 154.24648 10459278
28.017677 -36.591084 151.40485 10130316
27.304005 -36.489906 151.10175 9538439
26.421354 -36.426422 150.702 9932939
25.673616 -36.443024 150.33493 10064267
54.047031 -35.381165 153.9696 9273980
53.183884 -35.446018 154.32738 9077369
26.968731 -35.527985 151.32834 12630448
26.231083 -35.60936 150.93999 10064524
25.339077 -35.487377 150.5593 10261132
24.58367 -35.312363 150.26587 9800838
54.835743 -34.326393 154.03914 8090995
54.077316 -34.488205 154.31175 9274238
53.23748 -34.615101 154.63452 9209467
26.140865 -34.744816 151.24539 7038307
25.373056 -34.472275 150.98526 8748408
24.340679 -34.523006 150.46732 8814457
23.477894 -34.272091 150.15273 9801604
22.825993 -34.067062 149.92123 10985878
55.961109 -33.004745 154.06506 9405566
55.188702 -33.408016 154.24799 8288373
54.310131 -33.500622 154.60155 9537667
24.854584 -33.784889 151.0128 8090736
24.266245 -33.527184 150.83324 8419955
23.38689 -33.363518 150.47551 10722706
22.547844 -33.453808 150.0347 12367532
56.034195 -32.415779 154.26683 9668738
55.127708 -32.429287 154.66457 10261132
24.116282 -32.780571 151.06229 9209467
23.248352 -32.527573 150.74606 10262155
22.326973 -32.558868 150.28937 9209467
21.405571 -32.343376 149.93227 9208960
56.985504 -31.323147 154.27817 8419701
56.156204 -31.432528 154.60353 9406080
55.381306 -31.836645 154.78741 10261132
22.968155 -31.912468 150.85916 9209467
22.26413 -31.465572 150.70023 9143165
21.402885 -31.466856 150.28465 9340545
20.451262 -31.54001 149.79648 9274751
19.844244 -31.181635 149.64859 9406590
57.73534 -30.43013 154.30656 7564651
57.007645 -30.438757 154.62508 8419702
56.279472 -30.44791 154.94353 9143167
21.158173 -30.613247 150.51503 10392719
20.393005 -30.477703 150.2191 8748410
19.447929 -30.467314 149.76973 8419956
18.737614 -30.170168 149.58434 10263180
59.038857 -29.258818 154.60921 7893358
58.124409 -29.535204 154.77994 8551287
57.310284 -29.8687 154.87202 8617080
19.953213 -29.792955 150.47289 8617080
19.318827 -29.616192 150.31219 7893615
18.362198 -29.588556 149.87411 9736069
17.491379 -29.476137 149.54749 8419700
16.615784 -29.211941 149.37619 8156787
15.409369 -29.044754 149.13573 10459536
14.666084 -28.995186 148.95274 11380380
74.547943 -28.258106 156.45432 7762027
74.052025 -28.505081 156.57629 7433575
73.235603 -28.52994 156.9292 8091248
69.658012 -28.684086 155.73463 9735812
68.907677 -28.684254 156.06766 10130314
68.155884 -28.684422 156.39766 9011320
64.163681 -28.685493 155.33475 9275261
63.228024 -28.685705 155.71809 9537921
61.110699 -28.823002 154.76021 9603971
60.188499 -28.828112 155.15103 9735558
15.867252 -28.84201 150.0417 11380380
15.305214 -28.803814 149.89847 10788243
14.352539 -28.798307 149.45937 9669507
13.271109 -28.698698 149.53706 8418928
12.551208 -28.698875 149.59935 9341059
7.049757 -28.700369 147.97205 8089963
6.5155935 -28.7005 147.99648 9142392
5.62502 -28.700726 148.03258 9142392
4.5561829 -28.700991 148.06918 9471612
3.4869871 -28.701258 148.09808 8748403
2.4176998 -28.701527 148.11922 9077882
1.3483173 -28.701797 148.13268 8222060
0.45703995 -28.702019 148.13812 8814454
-5.6352215 -28.444273 147.34201 7564651
-6.44872 -28.322033 146.99901 7564651
-7.4884338 -28.241678 146.52998 7235170
-8.1785297 -28.18902 146.21841 6249303
75.506813 -27.015358 156.52287 9209467
74.950447 -27.428896 156.6057 8880503
74.020355 -27.563839 156.9653 8354418
-6.6922064 -27.661854 147.14842 7564651
-7.4621058 -27.4144 146.87708 6182997
-8.3984108 -27.580488 146.35831 5854545
-9.142168 -27.334772 146.09889 5393738
75.796524 -26.391756 156.64194 8814456
74.910309 -26.429518 157.02109 8288114
-7.7809124 -26.647821 147.03316 7828331
-8.516716 -26.551523 146.71716 7697003
-9.3446407 -26.586452 146.30367 6643803
-10.165432 -26.363619 145.99783 7037274
76.728195 -25.352594 156.64061 10590867
76.036652 -25.599844 156.84987 9537665
75.215034 -25.624058 157.20569 9998215
-8.8083448 -25.759102 146.89685 10657682
-9.4463367 -25.482508 146.7009 8419956
-10.305267 -25.425163 146.30974 7037274
-11.219149 -25.307123 145.91664 7760997
77.505295 -24.100336 156.79263 9537665
76.944038 -24.516445 156.87689 9998474
76.118744 -24.596159 157.21227 9537665
-9.6367474 -24.770346 146.89687 7564651
-10.380836 -24.472418 146.65842 7564134
-11.40414 -24.557096 146.13057 7169115
-12.265188 -24.486828 145.74364 8353901
77.799095 -23.472082 156.91168 9537665
76.906883 -23.509455 157.29364 8024943
-11.42598 -23.651833 146.48598 8616816
-12.409389 -23.549074 146.05315 7761764
-13.384176 -23.392296 145.64633 9406333
-14.119161 -23.101572 145.40926 10854036
78.774864 -22.214779 156.97739 10591124
78.041534 -22.481504 157.19756 9341059
77.216301 -22.697968 157.47862 8090995
-11.748986 -22.889091 146.63846 9011574
-12.489847 -22.596369 146.3994 9011574
-13.46668 -22.44138 145.99088 9274747
-14.31478 -22.394455 145.60075 9603969
-14.82881 -22.192497 145.43445 9406590
79.527245 -21.163408 157.06053 9932169
79.0214 -21.414112 157.18596 11248796
78.191719 -21.437683 157.54562 9735817
-13.613962 -21.501286 146.29987 8682867
-14.318236 -21.417261 145.99409 8814453
-15.191339 -21.551262 145.5188 8682611
-16.150406 -21.407272 145.22124 8418928
-17.084293 -21.248491 145.03346 8089963
79.948586 -20.488501 157.14134 9340289
78.926842 -20.567331 157.56459 9538438
-14.619532 -20.632288 146.16608 8946039
-15.324535 -20.646948 145.82005 8550770
-16.253736 -20.565315 145.51086 8089963
-17.286575 -20.545082 145.24463 8221549
-18.27655 -20.482994 145.00562 8814202
-19.273403 -20.247004 144.83023 8879995
-20.048903 -20.146715 144.66238 10261132
80.752167 -19.38953 157.22061 8551544
79.916321 -19.469622 157.56071 8024944
79.347481 -19.891317 157.64624 8090995
-15.489108 -19.772373 146.09424 10787215
-16.297092 -19.511696 145.8961 8945271
-17.332611 -19.492498 145.62877 9208442
-18.366131 -19.474287 145.36168 8485237
-19.397659 -19.457062 145.0947 7827822
-20.42733 -19.440842 144.8278 8682100
-21.253571 -19.358459 144.63924 8089963
-22.082764 -19.206699 144.47543 8287342
-22.843122 -19.056438 144.32933 8681843
81.537964 -18.415039 157.25833 10261903
80.843636 -18.368162 157.58592 9932938
80.139305 -18.620008 157.79916 9406852
-17.453676 -18.699377 145.89534 9011320
-18.459673 -18.519033 145.69656 8353391
-19.4492 -18.402796 145.47781 7959150
-20.436207 -18.43194 145.20447 8616307
-21.269352 -18.325897 145.02242 8089963
-22.197916 -18.363594 144.76102 8484721
-23.170876 -18.451485 144.46896 9076600
-24.161175 -18.427305 144.21437 9734786
-24.935373 -18.331087 144.04433 8681843
82.497818 -17.353048 157.25337 9209467
81.875923 -17.562967 157.44666 11379868
80.971024 -17.600397 157.83441 10261903
-19.828499 -17.692892 145.64352 9142907
-20.345421 -17.685535 145.5087 8089963
-21.215271 -17.497364 145.34761 8945528
-22.246796 -17.484056 145.07796 9734786
-23.311916 -17.603106 144.74969 10063493
-24.294527 -17.635963 144.47571 8945014
-25.321152 -17.62524 144.20634 8945788
-26.358038 -17.439812 143.99982 8946044
-27.223866 -17.256725 143.83798 8617080
-27.736145 -17.252512 143.70312 7039331
82.813789 -16.411934 157.4872 9932422
81.899681 -16.545937 157.84045 10392975
-21.587856 -16.963652 145.44865 10261643
-22.367172 -16.865858 145.27785 8157297
-23.371273 -16.690437 145.07625 10063750
-24.358643 -16.579098 144.85513 10457738
-25.387953 -16.569006 144.58484 8814202
-26.370182 -16.604181 144.31009 7695980
-27.201717 -16.502907 144.12669 7236198
-28.126657 -16.5462 143.86412 6973281
-29.164505 -16.363176 143.65645 9274750
-30.202299 -16.180983 143.44841 10458252
83.790596 -15.364168 157.56133 9537664
82.852867 -15.428749 157.93092 9800836
82.003304 -15.634115 158.15717 10261132
-24.573519 -15.870927 145.06361 9208443
-25.525436 -15.774531 144.85439 8748151
-26.305267 -15.680313 144.69107 8353908
-27.221466 -15.599716 144.50165 8946557
-28.213966 -15.49474 144.30899 7368295
-29.242493 -15.488359 144.03935 8551798
-30.270107 -15.482725 143.76942 9997957
-31.259581 -15.434861 143.53516 10063748
-32.271812 -15.33572 143.32368 9668736
-33.115219 -15.269981 143.20422 8550257
-34.115253 -15.139492 143.1277 7695205
-35.162296 -15.146002 142.93657 9537664
-36.210056 -15.153244 142.74472 8682611
-37.258701 -15.161287 142.55217 8287855
84.738228 -14.397933 158.04181 9340285
83.887451 -14.700623 158.04962 9208955
-29.684031 -14.802257 144.42928 8484464
-30.37133 -14.798775 144.24913 8879220
-31.415592 -14.708718 144.0423 9997955
-32.190903 -14.58612 143.93266 10392200
-33.157104 -14.621861 143.6994 9339515
-34.206264 -14.627472 143.50856 8352878
-35.256035 -14.633801 143.31711 9800579
-36.306675 -14.640878 143.12492 9077369
-37.246708 -14.547892 143.06795 8090991
-38.107796 -14.487807 142.98329 8025200
-39.160957 -14.496197 142.78394 8156270
-40.215057 -14.505231 142.58344 8616306
-41.214489 -14.55666 142.34988 7826790
-42.06295 -14.40943 142.33646 8484977
-43.073902 -14.361993 142.18253 5525323
-44.13242 -14.373057 141.97409 9406334
-45.192104 -14.384789 141.76427 7695717
-46.031723 -14.336925 141.64417 5392706
-47.004852 -14.233276 141.54117 8814454
-48.073296 -14.247725 141.33865 7563619
-49.144264 -14.263008 141.13647 7563619
-50.038334 -14.276312 140.96724 11511711
-52.998112 -14.016244 141.16879 9011321
-54.072746 -14.031231 140.93025 8814201
-55.149002 -14.046818 140.68958 9340801
-56.047195 -14.060308 140.48724 8420470
-56.946671 -14.074197 140.28331 11905444
-58.027679 -14.091387 140.03654 7827305
-49.071198 -13.966401 142.02592 7563619
-50.140244 -13.979185 141.79495 8090730
-51.210732 -13.992602 141.56175 7367263
-52.103825 -14.004207 141.366 8288365
-58.390652 -13.799521 140.91223 7367525
-59.117149 -13.811147 140.74582 6643287
-60.026382 -13.826056 140.53645 7697004
-60.937366 -13.841368 140.32545 7630438
-62.032402 -13.860294 140.0701 6116686
-62.946445 -13.876487 139.85555 8092019
-63.862499 -13.893215 139.6396 8617081
-64.963852 -13.913811 139.37836 8682872
-65.883743 -13.931422 139.15878 8682612
-66.80526 -13.949502 138.93742 9340030
-69.921043 -13.720327 139.35585 9867654
-70.962257 -13.727719 138.91936 9406590
-71.898048 -13.74727 138.68546 8945271
-72.837944 -13.76769 138.45294 10458507
-73.968819 -13.792825 138.17198 8221546
-74.913597 -13.814178 137.93582 9208443
-81.950417 -13.723453 137.94859 9537918
-82.778786 -13.723691 137.4528 9406074
-83.604347 -13.723932 136.9523 9208435
-93.128433 -13.726361 136.52859 8419184
-93.784462 -13.726556 136.07866 8813942
-94.685577 -13.616897 135.86383 9208957
-95.737335 -13.406548 136.08905 7038307
-96.782707 -13.323515 135.65785 7959401
-97.644096 -13.237578 135.30954 9340542
-98.249222 -13.046043 135.11749 7563619
-95.914696 -12.871516 136.2247 7564393
-96.735893 -12.615421 135.96249 7235683
-97.717598 -12.388677 135.61719 9011065
-98.691978 -12.404911 135.17775 8024170
-97.017853 -11.809865 136.16011 7563619
-97.810989 -11.618981 135.88423 9208444
-98.794205 -11.430703 135.52283 10261132
-99.627724 -11.443916 135.14722 9340284
-100.55863 -11.152743 134.8503 10787727
-97.943962 -11.010904 136.06891 7563619
-98.87986 -10.616533 135.81116 8550770
-99.773468 -10.425303 135.49074 9801347
-100.71904 -10.439253 135.06506 11313814
-101.61909 -10.38442 134.68704 9538176
-100.00327 -9.6776152 135.68839 10459019
-100.71312 -9.618947 135.39651 10130055
-101.66263 -9.6320972 134.96931 8090986
-102.64209 -9.3575201 134.6442 9735299
-103.3286 -9.0370646 134.46756 10458510
-100.94511 -8.8680582 135.59439 11248278
-101.77288 -8.6625767 135.30899 8288365
-102.70555 -8.4089251 134.99628 9077882
-103.66246 -8.4210415 134.56619 8682867
-104.28576 -8.2219114 134.36913 11906725
-102.08177 -7.780983 135.52519 7038298
-102.70258 -7.580852 135.3298 7038298
-103.66143 -7.5918384 134.89981 8748405
-104.62281 -7.6030669 134.46863 9801093
-105.24963 -7.4024625 134.27126 7037274
-103.03639 -6.9619298 135.43082 7038298
-103.7664 -6.8031507 135.17078 9997960
-104.7324 -6.510757 134.85985 10459023
-105.63828 -6.5722337 134.43311 7958632
-106.58469 -6.2683582 134.13547 9537920
-104.86591 -5.7286119 135.11548 12630192
-105.68958 -5.5264039 134.83142 9406845
-106.66071 -5.5350347 134.39699 8551793
-107.56693 -5.5011835 134.00844 8288621
-105.83674 -4.8979621 135.0192 10656654
-106.75059 -4.536447 134.75922 7696740
-107.69031 -4.4907222 134.36061 9209467
-108.55756 -4.4972725 133.97308 8156779
-109.36073 -4.08003 133.78468 6511954
-107.81433 -3.4766605 134.71387 7762277
-108.72721 -3.4395857 134.3237 7235677
-109.62249 -3.4874685 133.9071 7498594
-110.35555 -3.2365375 133.68282 7366754
-108.80276 -2.6324563 134.61514 11117720
-109.72002 -2.5940676 134.22354 8024425
-110.61963 -2.6409264 133.80551 7958634
-111.35668 -2.3878465 133.58028 8288371
-109.80176 -1.8472458 134.48796 10524560
-110.77138 -1.5290427 134.18584 7892584
-111.63711 -1.5928758 133.77591 9538178
-112.54807 -1.2761518 133.49919 9472641
-111.17941 -0.67125201 134.35014 8616307
-111.9117 -0.52858388 134.13571 9868171
-112.67898 -0.45753729 133.85033 8617847
-113.58131 -0.50173765 133.41611 8814969
-114.59137 -0.24305502 133.1673 9208187
-113.60712 0.19107796 133.96765 7762282
-114.63055 0.45263821 133.73264 7563618
-115.63873 0.36591059 133.21271 9208187
-116.46842 0.62858188 133.06458 9077112
-117.08041 0.62916011 132.79359 9011573
-118.68276 1.0749896 133.31116 6511954
-119.72014 1.0768988 132.85825 8089963
-120.34464 1.0780238 132.58578 10984593
39.003151 -42.055298 152.89864 9735046
38.210018 -42.131634 152.856 9669252
37.21199 -42.321854 152.76462 10656145
36.224228 -42.450443 152.6981 9998727
35.299301 -42.301285 152.61 8946039
34.6008 -42.058441 152.37131 8682867
42.072174 -41.113842 153.32246 9734784
41.074715 -41.144325 153.29507 9471869
40.178818 -41.371922 153.19028 9669250
39.143116 -41.458588 153.13985 8156786
38.136196 -41.560387 153.0838 9537667
37.090702 -41.560261 153.06799 10655889
36.119064 -41.502949 153.07619 9866629
35.226414 -41.412979 152.93333 9998470
34.23201 -41.436008 152.44475 9735296
45.187138 -40.174385 153.74614 10591633
44.165405 -40.297398 153.68134 10789012
43.148087 -40.421429 153.61621 10327951
42.186852 -40.435253 153.59608 8288115
41.145824 -40.483265 153.56107 8814198
40.108498 -40.532352 153.52567 9734788
39.15731 -40.549988 153.50412 8222579
38.098751 -40.4324 153.53517 9406082
37.189709 -40.541164 153.47783 10195082
36.087547 -40.5965 153.4389 9734531
34.931007 -40.538147 153.14397 10787216
34.112175 -40.480839 152.77248 8814453
33.299026 -40.424629 152.40329 9077624
32.631165 -40.243355 152.15451 10787726
48.960438 -39.278706 154.16405 9932419
48.04797 -39.369617 154.11328 9472382
47.057808 -39.45557 154.06328 9473151
46.080975 -39.466263 154.04376 9736579
45.076313 -39.399193 154.05511 9539200
44.053352 -39.52404 153.98955 10394253
43.055698 -39.459805 154.00014 10064267
41.996132 -39.53614 153.95348 8945789
41.049477 -39.525112 153.9435 8156531
40.041767 -39.65419 153.8765 9735300
39.037766 -39.784077 153.80922 8617080
38.448505 -39.749378 153.81416 9735046
34.827709 -39.845318 153.37378 10261132
34.12756 -39.609383 153.13155 8484977
33.134739 -39.471058 152.70886 8946039
32.21088 -39.433231 152.27888 11380379
50.66301 -38.178162 154.35963 9209467
50.037361 -38.493217 154.45755 9472382
49.058815 -38.510838 154.4736 9406589
48.04129 -38.44128 154.48563 9209467
47.0723 -38.424538 154.47716 9801089
45.994007 -38.498035 154.43082 9472381
44.987476 -38.432758 154.44128 9275772
44.081245 -38.694931 154.32217 10065288
43.140995 -38.699562 154.30602 10064011
42.322575 -38.840122 154.23732 8814203
33.620663 -38.90564 153.17116 9537409
32.970192 -38.506519 153.01883 10261643
32.157383 -38.494518 152.63188 11709345
31.301613 -38.550152 152.19701 11840931
30.559486 -38.191212 151.98416 10722194
51.007187 -37.262264 154.57143 10393229
50.010387 -37.4006 154.88347 9538178
48.977219 -37.53548 154.86365 9209467
47.957863 -37.46788 154.87485 9538174
46.83532 -37.716869 154.75737 10261382
46.06271 -37.924305 154.66206 10392969
45.457287 -37.885456 154.66821 9209467
32.024445 -37.636459 152.91409 10261899
31.136625 -37.458313 152.55811 10261643
30.134319 -37.44976 152.07848 11576988
29.380692 -37.278057 151.78456 12629673
51.788673 -36.205811 154.64484 10656657
51.043526 -36.417286 154.8918 9801350
50.2985 -36.629604 155.13835 8814971
49.050724 -36.957722 155.09659 9866631
31.050156 -36.655907 152.84023 10064263
30.214828 -36.53577 152.4861 10129545
29.296371 -36.404739 152.09634 12958382
28.544891 -36.48241 151.70276 12432552
52.829403 -35.013699 154.65706 9209467
52.060192 -35.419666 154.83723 9932934
51.182697 -35.516579 155.18861 9012347
29.803852 -35.613029 152.66035 9734788
28.998247 -35.55022 152.29747 11774622
28.209339 -35.51495 151.93149 10459022
27.437063 -35.335373 151.63174 10261643
52.910156 -34.328159 154.89418 9998729
52.096947 -34.481083 155.19472 9340799
51.426319 -34.651501 155.42493 9209467
29.095016 -34.898167 152.60728 11511450
28.251726 -34.488605 152.36609 8813941
27.19413 -34.536377 151.83708 7169373
26.312662 -34.279789 151.51581 6511954
25.646961 -34.07037 151.27945 7038307
53.842148 -33.332455 154.87659 10063753
53.014202 -33.4454 155.19954 9867145
52.265289 -33.655689 155.44859 10261902
27.72588 -33.791721 152.39391 5919050
27.125381 -33.529255 152.21036 6248270
26.309437 -33.423931 151.85963 7498849
25.366879 -33.449535 151.39503 6709336
54.583347 -32.437885 154.90323 10261132
53.934322 -32.409565 155.20308 9275009
53.243465 -32.526306 155.46367 9143680
26.030201 -32.593285 152.06021 8288365
25.147419 -32.544132 151.65463 7038298
24.387287 -32.376904 151.35576 9077625
23.753471 -32.189655 151.12585 9209467
55.026554 -31.399937 155.11884 10129546
54.071777 -31.520473 155.49554 10327181
25.808378 -31.892565 152.23608 9209467
25.213104 -31.636551 152.05247 7761765
24.267559 -31.444176 151.67442 9011576
23.235876 -31.508461 151.15125 9538432
22.617739 -31.144451 151.00029 9209467
55.732929 -30.455229 155.18224 9866885
55.003792 -30.465618 155.50067 9998215
54.43314 -30.671425 155.67249 10853012
24.021687 -30.653879 151.88129 9735811
23.266457 -30.495562 151.59479 10525839
22.272394 -30.384079 151.17606 10392462
21.474945 -30.28685 150.79562 10064011
57.684456 -29.121931 155.30949 9735046
56.883865 -29.396194 155.4418 9209214
56.03307 -29.636539 155.62637 9340798
55.301125 -29.893805 155.74542 10261387
22.745499 -29.744061 151.85611 9734531
22.15114 -29.682278 151.62076 10853012
21.219971 -29.543633 151.28613 9669254
20.316875 -29.493719 150.89369 9800839
19.352066 -29.161959 150.81189 8353909
18.31941 -29.010305 150.65303 10853012
72.749069 -28.390478 157.20102 8419956
71.849983 -28.457912 157.57368 7564643
67.779121 -28.684505 156.56125 9011320
67.024727 -28.684675 156.88525 7563874
66.268929 -28.684845 157.20625 8682867
62.665573 -28.685833 155.94537 9537921
61.914089 -28.686003 156.24475 9209214
61.161514 -28.686176 156.54115 8617336
59.080704 -28.835157 155.61784 11183003
58.156479 -28.841867 156.00598 11182491
17.336128 -28.849176 150.73927 8485495
16.430889 -28.880512 150.18465 10064779
12.191197 -28.698967 149.62909 9341059
11.470804 -28.699144 149.68559 9341059
10.38984 -28.699409 149.76437 7564136
9.308322 -28.699677 149.83534 9011321
8.2263546 -28.699949 149.89845 8024170
7.3243494 -28.700174 149.94528 9076858
-0.43421161 -28.702246 148.13785 9208960
-1.5037211 -28.702513 148.13074 9603717
-2.664959 -28.633726 148.24919 10326925
-3.6025181 -28.408258 148.29036 9735044
-4.5270443 -28.474117 147.86452 8880507
-5.1708336 -28.364206 147.59839 7828078
73.702858 -27.147066 157.27235 7368039
72.825218 -27.369955 157.57364 8617335
72.091759 -27.697573 157.76909 9208954
-3.9207144 -27.641523 148.4935 9077370
-4.614109 -27.537024 148.20132 10985365
-5.4592829 -27.566048 147.78189 8748666
-6.3502254 -27.337332 147.4446 7893359
74.490211 -26.177864 157.30797 8814201
73.775841 -26.342329 157.56027 7565160
73.044952 -26.451561 157.84175 8091248
-4.8123436 -26.778856 148.41214 9668994
-5.607585 -26.454931 148.15948 9932423
-6.4828768 -26.39094 147.76312 10130314
-7.2940044 -26.44939 147.34827 8025710
74.725891 -25.48296 157.47937 8814201
73.821136 -25.549812 157.85516 9668991
-5.7942133 -25.736082 148.36006 8089963
-6.4984646 -25.50979 148.11185 10327949
-7.5422463 -25.612772 147.5667 9736582
-8.4706526 -25.431997 147.19194 10986647
75.630028 -24.405565 157.50543 9669508
74.805634 -24.454937 157.85245 8945786
74.066666 -24.784157 158.05026 10129285
-6.8583202 -24.955963 148.16211 9341824
-7.606658 -24.596901 147.94627 10591889
-8.6077042 -24.4867 147.5079 11644065
-9.4405155 -24.362476 147.15645 10327952
-10.17226 -24.035528 146.93565 7564651
76.484879 -23.255444 157.5824 7038307
75.765373 -23.420488 157.83672 7367271
75.029594 -23.529842 158.12056 8814201
-7.9278517 -23.826637 148.10274 11381404
-8.6796741 -23.526896 147.86118 12038567
-9.5001841 -23.375086 147.52679 11183260
-10.35891 -23.498047 147.06281 8222580
-11.052175 -23.280708 146.81635 9144190
77.457153 -21.996893 157.65009 8090995
76.785858 -22.330931 157.81592 8682870
75.886673 -22.464197 158.1629 9275004
-9.7645435 -22.514002 147.74733 8748923
-10.480747 -22.662758 147.34172 7696492
-11.375098 -22.516415 146.96948 9012604
-12.285042 -22.157778 146.67551 8551539
77.698669 -21.29442 157.82188 8880509
76.785095 -21.360828 158.20183 10130316
-10.056947 -21.932592 147.84129 7564651
-10.58106 -21.72628 147.67191 8091760
-11.448919 -21.501583 147.3441 8289139
-12.479419 -21.445263 146.86978 7631210
-13.285631 -21.168318 146.59283 8288112
78.502823 -20.311016 157.85513 8090995
77.777901 -20.476944 158.11153 9077887
77.036842 -20.586718 158.39751 10130315
-11.704273 -20.665459 147.55893 8091760
-12.51464 -20.387987 147.28018 8222578
-13.489977 -20.438683 146.78917 8551285
-14.395169 -20.292976 146.41145 9406590
79.486084 -19.042166 157.92197 7893614
78.760612 -19.402821 158.10139 7564650
77.905334 -19.601149 158.403 7959408
-12.710315 -19.672632 147.47496 8156531
-13.612255 -19.584169 147.07561 9077375
-14.592301 -19.58099 146.60416 10985108
-15.395212 -19.309032 146.32678 12431781
79.731712 -18.333626 158.09436 10261903
78.811684 -18.400282 158.47717 8222577
-13.826331 -18.79501 147.29135 9208960
-14.633254 -18.522575 147.01228 10656658
-15.485391 -18.484386 146.6167 12432553
-16.340879 -18.454914 146.28519 10260872
-17.318945 -18.225994 146.10928 8682612
-18.25869 -18.069483 145.9191 8879991
80.544868 -17.341686 158.1268 7038307
79.7295 -17.551254 158.4063 7301478
78.915024 -17.761061 158.68529 8814713
-14.893399 -17.686916 147.22453 9472639
-15.560007 -17.493553 146.98119 11906725
-16.385187 -17.394882 146.67912 10787730
-17.425177 -17.376638 146.40091 9143419
-18.464025 -17.360329 146.13147 8616563
-19.42494 -17.487221 145.82822 8287597
-20.363352 -17.33268 145.63629 8089963
81.539742 -16.061331 158.19336 9406590
80.743683 -16.432568 158.39973 8946300
79.87603 -16.653435 158.69797 7827564
-16.489737 -16.542368 146.97125 9275005
-17.463913 -16.490744 146.72403 8353391
-18.504938 -16.475143 146.45284 8550770
-19.535301 -16.637411 146.11758 7695972
-20.399334 -16.625624 145.89195 8814198
-21.221334 -16.570818 145.6936 10261644
-22.238762 -16.390612 145.49036 8025968
-23.176481 -16.238659 145.29764 8814712
81.708382 -15.317716 158.52086 9472127
80.859688 -15.52349 158.74573 10130313
-17.661068 -15.955269 146.87259 8747892
-18.537722 -15.765 146.71072 8814198
-19.57881 -15.751081 146.44099 8682611
-20.460392 -15.567209 146.32625 8287853
-21.32604 -15.557042 146.1024 8682356
-22.363312 -15.545501 145.83369 9537920
-23.398979 -15.534733 145.56496 8814712
-24.393061 -15.425877 145.36252 9471614
-25.418331 -15.308355 145.1653 9208443
-26.366379 -15.164633 145.02635 8879993
-27.054672 -15.159568 144.84717 10262415
84.544655 -13.99973 158.8264 9997959
83.705673 -14.125368 158.93735 8682867
82.836571 -14.547954 158.64212 9406078
81.920448 -14.690436 158.93259 9275004
-22.61058 -14.856354 146.26979 10262156
-23.476482 -14.847921 146.04578 8945785
-24.536119 -14.667031 145.90675 9208443
-25.499649 -14.693224 145.62936 9208443
-26.337845 -14.618286 145.46548 9471872
-27.363935 -14.574277 145.25562 11380381
-28.37064 -14.473459 145.10835 10591379
-29.370922 -14.426125 144.89279 9076858
-30.473993 -14.295154 144.7357 8221292
-31.295921 -14.238251 144.60608 8879220
-32.250912 -14.127932 144.52631 10984080
-33.29549 -14.129076 144.29816 10194566
-34.346786 -14.133586 144.09711 8616049
-35.398258 -14.138699 143.89418 10720909
-36.274788 -14.143365 143.72363 8879990
-36.97617 -14.14735 143.58627 7893356
-36.497356 -13.858413 144.60492 9734270
-37.379463 -13.863431 144.43222 8485749
-38.43853 -13.869977 144.22333 9012091
-39.321556 -13.875812 144.04785 8419955
-40.205006 -13.882045 143.87093 8946296
-41.265678 -13.890059 143.65681 5919050
-42.327038 -13.898675 143.44086 6841180
-43.389282 -13.907823 143.22287 6709596
-44.275139 -13.915924 143.03972 8354675
-45.161697 -13.924397 142.85507 15723486
-46.226437 -13.935077 142.6317 6511443
-47.292171 -13.946359 142.40631 8090475
-48.181156 -13.956112 142.21687 6642517
-51.235477 -13.715401 142.70267 8288365
-52.265057 -13.715819 142.33025 7103835
-53.148506 -13.723272 142.08841 6642517
-54.049564 -13.735462 141.88928 7367271
-55.132034 -13.750585 141.64836 8814201
-56.216473 -13.766308 141.40518 9932424
-57.121475 -13.779882 141.20085 9800838
-57.846432 -13.791027 141.03636 8551028
-67.225235 -13.719563 140.6765 7695975
-68.070427 -13.719803 140.26953 7563618
-68.913078 -13.720041 139.85722 7498849
-80.117271 -13.722919 139.02129 7300702
-80.952316 -13.723163 138.53674 9209211
-81.451958 -13.723308 138.24365 9933190
-91.313293 -13.725825 137.74968 10459279
-92.036362 -13.632157 137.3997 8814200
-92.877716 -13.452852 137.22229 8156271
-93.882889 -13.376126 136.92519 8813942
-94.623711 -13.388084 136.59129 10262156
-93.063217 -12.860885 137.496 8090736
-93.923737 -12.521202 137.24977 9340543
-94.861893 -12.643381 136.78397 9997702
-95.701645 -12.356431 136.52585 9602945
-94.221962 -11.76883 137.4189 9668995
-94.905518 -11.535666 137.20862 9011066
-95.857368 -11.630274 136.74779 11904668
-96.709663 -11.500821 136.42094 10786445
-95.228378 -10.837439 137.34503 8221807
-95.97094 -10.57629 137.11984 9274237
-96.849136 -10.639001 136.70445 9471613
-97.749466 -10.464621 136.37436 8418927
-98.594162 -10.34037 136.04883 8747891
-96.987038 -9.6385345 137.04424 9340027
-97.879257 -9.5816336 136.67065 9603199
-98.821495 -9.5936651 136.24712 9209212
-99.529137 -9.5346136 135.95638 9209467
-97.916779 -8.8313417 136.95476 11181972
-98.857651 -8.5684986 136.64203 9735556
-99.87236 -8.639184 136.1628 9604226
-100.73241 -8.3435993 135.89919 10196105
-99.037865 -7.7477279 136.89098 9143934
-99.842247 -7.5498319 136.61292 9933191
-100.79311 -7.559866 136.18639 11511708
-101.67957 -7.5280643 135.80531 9538176
-100.16945 -6.9331751 136.71475 7565675
-100.94294 -6.5259304 136.53542 11182741
-101.85804 -6.5938754 136.10197 9275004
-102.7748 -6.4245 135.76335 8551281
-103.80429 -6.1367741 135.4223 9734788
-102.07272 -5.5654898 136.42076 8682867
-102.7928 -5.5018234 136.12688 10327693
-103.75571 -5.5098109 135.6963 9734788
-104.67293 -5.4477491 135.31427 10656146
-103.0315 -4.7371707 136.32883 10525327
-103.87201 -4.5234294 136.04189 9734788
-104.83117 -4.4175673 135.65884 13156533
-105.72173 -4.3921771 135.27386 10261897
-106.42342 -4.0600052 135.09621 8682867
-104.1894 -3.6249673 136.26283 9734788
-104.81995 -3.4176636 136.06648 13090993
-105.79244 -3.4229448 135.63278 9998725
-106.76764 -3.428335 135.1978 8682867
-107.40431 -3.2202587 134.99907 9406846
-105.16088 -2.7859178 136.16959 10656654
-105.79463 -2.5769153 135.97247 9143417
-106.77156 -2.5810647 135.53726 8156267
-107.75126 -2.5852897 135.10075 6774614
-108.39127 -2.3754139 134.90131 6511954
-106.13824 -1.9419701 136.07561 8682867
-106.82393 -1.8022921 135.82756 9011320
-107.80721 -1.5209389 135.50453 7234653
-108.79202 -1.5235708 135.06644 7958888
-109.63371 -1.3120598 134.77811 8879479
-110.27985 -1.0993105 134.57701 8616307
-108.00948 -0.66706228 135.75859 8089962
-108.84823 -0.56091738 135.46904 7301988
-109.78879 -0.41170889 135.16759 7432546
-110.68274 -0.45552689 134.73721 6774102
-111.58057 -0.24109323 134.50478 11709860
-110.00417 0.19082247 135.56586 10590607
-110.80116 0.19086547 135.21233 8419699
-111.8121 0.45106906 134.98181 8749948
-112.7129 0.40817398 134.54614 8092019
-113.62983 0.62602842 134.32184 9735299
-114.98128 1.0685265 134.92819 7563618
-115.79952 1.0698975 134.57054 8089962
-116.82549 1.0717099 134.12227 9537662
-117.64928 1.0731292 133.76247 7037786
36.845951 -40.035393 153.67526 9010808
36.054577 -40.116627 153.63071 9931910
40.100975 -39.087009 154.10466 9538176
39.095421 -39.217777 154.03703 8814456
38.087723 -39.412331 153.94377 10129546
36.982101 -39.438004 153.91669 9931910
35.977501 -39.545914 153.8582 9931910
35.131294 -39.441906 153.68285 9537409
34.455803 -39.223011 153.44571 8813686
43.805389 -38.165783 154.52998 10262667
42.894852 -38.205414 154.50032 8814203
41.934677 -38.357399 154.42485 9011582
41.017311 -38.426582 154.38319 9208957
39.962414 -38.507465 154.33476 9275004
38.975224 -38.450577 154.34258 9077625
37.972034 -38.583721 154.27403 10458254
36.990887 -38.529377 154.2809 9537152
36.012177 -38.476379 154.28728 9142651
35.103271 -38.382019 154.09705 9734788
34.019012 -38.529613 153.51495 8813686
33.267662 -38.102718 153.32506 10854036
46.965199 -37.209805 154.9628 9998211
45.929382 -37.337025 154.8956 9866883
44.89777 -37.464874 154.82816 10722706
43.948002 -37.358204 154.85609 11709858
42.984707 -37.578213 154.75298 9538435
41.954304 -37.44009 154.79269 10327182
40.927757 -37.545895 154.73471 11051159
39.917068 -37.503948 154.73619 9538176
38.992367 -37.626682 154.67299 8814197
38.065269 -37.63895 154.65395 9602945
37.063431 -37.774746 154.58437 9537152
34.732487 -37.571362 154.24548 9142651
33.980743 -37.459099 153.92844 9537409
33.162354 -37.412544 153.55284 10525071
32.337547 -37.340591 153.18436 9867141
49.880295 -36.360401 155.33333 8092019
48.919617 -36.365894 155.33199 8946299
47.954144 -36.553524 155.24159 9603967
46.912228 -36.383747 155.2934 10590605
45.960854 -36.501926 155.23114 9932934
44.892658 -36.46244 155.23026 11051415
43.916351 -36.480915 155.20758 10196874
42.895103 -36.519512 155.17609 10197130
41.953156 -36.711693 155.08455 13288120
41.01516 -36.721886 155.06624 11774879
40.139671 -36.800331 155.02148 8682867
33.839752 -36.68602 154.1725 9406590
32.995804 -36.456223 153.85847 9406590
32.010975 -36.474815 153.37636 9603969
31.083435 -36.288639 153.00446 10261641
50.713726 -35.35128 155.46294 8092019
49.912018 -35.40004 155.70114 8683642
48.917545 -35.448002 155.70021 8946555
47.875179 -35.483143 155.66978 10591120
46.886116 -35.500095 155.64754 11380122
45.932255 -35.597275 155.5936 10524813
44.972977 -35.772186 155.50845 10327692
43.865036 -35.861355 155.45528 9210491
32.784077 -35.657623 154.07869 8419695
32.011086 -35.4865 153.77521 8682867
31.150015 -35.552845 153.33345 9736065
30.35984 -35.368496 153.02699 9867140
51.47126 -34.259285 155.5611 8090995
50.799759 -34.430393 155.79137 8815481
49.893711 -34.511307 156.06467 8946300
48.934158 -34.613342 156.03535 9209467
47.974613 -34.847168 155.92651 10327949
47.042313 -34.888176 155.89549 16248807
31.850494 -34.902634 153.93343 8092011
30.9827 -34.457138 153.69493 9867394
29.922924 -34.565125 153.14061 10919569
29.14143 -34.348812 152.85123 11511708
28.535223 -34.08305 152.6664 9537920
51.827454 -33.412529 155.74001 8288372
50.873657 -33.537518 156.11415 9210236
30.683891 -33.623432 153.88733 9538686
30.005707 -33.608841 153.56641 10064773
29.129803 -33.41988 153.2205 8419183
28.167404 -33.480217 152.73238 8156267
52.652634 -32.406307 155.77406 11380380
51.960819 -32.524326 156.03447 9538434
51.309525 -32.498123 156.33435 7959657
28.938972 -32.590416 153.46326 9340541
28.035095 -32.537937 153.0488 9537920
27.1273 -32.371277 152.67856 7498850
26.596352 -32.357655 152.42821 9209467
53.633652 -31.275021 155.78806 10196107
52.881447 -31.484959 156.03903 10854037
52.049427 -31.598783 156.36363 10327949
28.717007 -31.880943 153.64256 9932678
27.909378 -31.503237 153.40575 9603970
27.077312 -31.494396 153.00832 7959405
26.085545 -31.484856 152.53416 8288365
25.252636 -31.090851 152.29176 7695717
54.480629 -30.276604 155.80841 10853012
53.80479 -30.445141 156.04193 9932934
52.985218 -30.597097 156.34599 10459278
26.928093 -30.736542 153.24222 7235685
26.125523 -30.461636 152.99142 7827820
25.15472 -30.395109 152.55357 8156268
24.294521 -30.247351 152.1839 8089963
55.668411 -29.145832 156.1844 9735299
54.854202 -29.482046 156.27443 10458510
53.945759 -29.764839 156.45116 10130313
25.603161 -29.701651 153.26569 8682867
24.912163 -29.743214 152.89919 8287597
24.110271 -29.495718 152.71584 8484720
23.191208 -29.452591 152.32892 8813942
22.121452 -29.15976 152.18684 10589840
70.707603 -28.457001 158.0817 9406074
69.755486 -28.457283 158.50473 11379864
65.700981 -28.684971 157.44424 9209211
64.752541 -28.685186 157.83629 9801604
60.595928 -28.686302 156.76074 9735558
59.840778 -28.686476 157.05043 8617336
59.273426 -28.686605 157.26549 9734788
57.601677 -28.846291 156.23792 8617080
56.860924 -28.852589 156.54628 9011834
56.119347 -28.859226 156.85381 10261387
21.105541 -28.966557 152.13644 9734531
20.14225 -28.898249 151.90019 10064010
19.182926 -28.830872 151.66301 9735046
18.228024 -28.764494 151.42461 8617080
16.730175 -28.697718 151.23914 7564651
16.184139 -28.697849 151.29831 7564651
15.273562 -28.698076 151.39267 7892843
14.180139 -28.698345 151.49878 9537664
13.08599 -28.698612 151.59708 7695205
6.4220476 -28.700397 149.98634 10064009
5.339015 -28.700668 150.02863 10260358
4.2557306 -28.700937 150.06313 9866113
3.1722374 -28.70121 150.08972 9734527
2.2691822 -28.701439 150.10617 9406334
1.3660365 -28.701662 150.11674 8682867
0.19189177 -28.593264 150.05646 14209217
-0.79901111 -28.426722 149.68195 8156531
-1.6952227 -28.352015 149.27988 9406339
-2.5155821 -28.249178 148.92569 10392719
71.649727 -27.253805 158.14224 9537660
70.806076 -27.471535 158.4305 8682608
70.037277 -27.835102 158.62732 10853262
-0.89058864 -27.79627 149.89261 9998217
-1.6995324 -27.463551 149.63689 9998217
-2.5928307 -27.39242 149.23476 9735043
-3.4216042 -27.445221 148.81363 10064008
72.545662 -26.381155 158.09172 9143422
71.780785 -26.380226 158.43198 11576728
71.0158 -26.379745 158.77208 10853262
-2.1220675 -26.600029 149.78214 9340541
-2.778017 -26.490297 149.51007 8090731
-3.6660852 -26.600138 149.03732 8748404
-4.6598663 -26.313295 148.67393 8353135
72.671906 -25.547384 158.36728 9406077
71.767723 -25.615891 158.74213 10261132
-2.960844 -25.943085 149.64314 8617075
-3.7209625 -25.575806 149.42488 11182746
-4.7414045 -25.457619 148.98042 9801093
-5.5897198 -25.326534 148.62424 9537665
-6.1570396 -25.004166 148.48091 10985367
73.62339 -24.336571 158.42537 10260614
72.774002 -24.554817 158.71637 10063492
71.999504 -24.919991 158.91568 9208955
-4.0405607 -24.797159 149.58545 12433069
-4.8046513 -24.489954 149.34109 11182746
-5.6374302 -24.508856 148.93176 12433069
-6.5158739 -24.525108 148.50145 9603969
-7.2217321 -24.225645 148.28198 9341824
74.527382 -23.458334 158.37231 8682867
73.757896 -23.456526 158.71527 9340540
72.956612 -23.664944 158.98886 8682867
-5.8711405 -23.650425 149.166 9801092
-6.7089014 -23.551451 148.80193 8156523
-7.5428123 -23.453756 148.43916 9670018
-8.4664526 -23.086571 148.14206 11512225
75.526604 -21.989223 158.51178 9932934
74.689674 -22.407824 158.71768 8946039
73.806038 -22.510973 159.06969 9274747
-6.1927185 -22.874321 149.32466 7959144
-6.7249937 -22.663116 149.15321 8288109
-7.6073775 -22.431196 148.82133 7959145
-8.6122952 -22.414766 148.34328 8091247
-9.3536434 -22.326599 148.02127 7564651
