# .PCD v0.7 - Point Cloud Data file format
VERSION 0.7
FIELDS x y z rgb
SIZE 4 4 4 4
TYPE F F F U
COUNT 1 1 1 1
WIDTH 1214
HEIGHT 1
VIEWPOINT 0 0 0 1 0 0 0
POINTS 1214
DATA ascii
150.52817 -29.071888 98.120399 8089963
149.99109 -29.060194 98.802521 9142394
150.13199 -28.882633 101.78197 10851980
149.6368 -28.882292 102.50183 9011064
150.14651 -28.875343 106.90273 10458505
149.62634 -28.875032 107.62235 9209467
149.76772 -28.434113 109.82545 10261898
149.07649 -28.602146 110.53767 10261132
157.85779 -27.776875 -102.93597 7564643
158.3031 -27.789028 -102.41692 7564643
155.62502 -27.642639 -54.774578 9735297
155.82983 -27.803411 -54.091434 9077368
156.14763 -27.887323 -53.196342 9341821
156.41959 -27.852375 -52.536354 10197128
149.98271 -27.496933 110.09583 10261132
149.38803 -27.655863 110.70052 9932167
158.2093 -27.126173 -103.16576 7564643
155.81171 -26.797199 -55.140976 8090987
156.18324 -26.858192 -54.130657 10787727
156.4286 -27.126022 -53.236652 11183766
149.80579 -26.596949 110.80226 9668995
149.22243 -26.588846 111.48675 8945272
158.43945 -26.453419 -103.31662 7564643
157.2879 -25.552057 -72.938896 7037274
157.20699 -25.496744 -72.216949 9340030
157.12463 -25.441633 -71.497055 10985881
155.79576 -25.71064 -57.155388 7565675
155.99042 -25.894585 -56.168064 8420212
156.31392 -25.891642 -55.22805 8880761
156.43846 -26.076986 -54.429459 13023917
149.92018 -25.699743 111.16779 9866374
149.48187 -25.693918 111.68195 9340286
149.1084 -25.464479 112.24499 7893608
157.06885 -25.40513 -71.01844 10985881
156.98372 -25.350483 -70.302475 8092019
156.85605 -25.262798 -69.12175 10262414
156.73924 -25.178082 -67.953064 8485488
156.12634 -25.04245 -67.024498 8485488
156.83766 -24.479954 -62.92421 7367013
155.93956 -24.717247 -61.701458 8814713
156.07576 -24.703268 -61.107403 9077626
156.30176 -24.680704 -60.118095 9735296
156.16539 -24.861334 -59.122871 10327176
156.11487 -25.055103 -58.165195 9144449
156.28606 -25.150169 -57.121986 10460051
156.44853 -25.330273 -56.120602 10591380
149.74199 -24.797108 111.87765 9012089
149.22702 -24.715855 112.52325 8485745
156.4532 -24.386038 -62.120125 7433064
156.68073 -24.363081 -61.126198 9011576
149.79085 -24.121511 112.19663 7893608
149.54407 -23.667171 112.73704 8946296
149.10606 -23.436827 113.37581 9735812
149.74144 -22.765528 113.00851 7893608
149.4854 -22.461115 113.47637 8748920
149.70235 -21.708147 113.64238 8748920
149.82152 -20.952818 113.92367 9012091
154.27818 -58.619751 6.2964826 9538438
154.44659 -58.548435 6.9236183 10854296
154.6395 -58.564438 7.8019338 10525331
154.85667 -58.66927 8.9332943 9998217
155.00142 -58.816669 9.8144245 9010808
155.01904 -59.004585 11.187748 7563619
154.95973 -59.003609 11.931887 8814709
154.8811 -59.002396 12.861807 13485495
154.79646 -59.001194 13.791159 8420463
154.68771 -58.99976 14.905703 6511954
154.59123 -58.998573 15.833933 6511954
154.48872 -58.997398 16.761463 6775126
154.35858 -58.995998 17.873758 6051404
154.2204 -58.994606 18.985075 5393730
154.09933 -58.993462 19.910351 5656902
153.97229 -58.992321 20.83486 8814710
153.81277 -58.990967 21.943296 9407102
153.6739 -58.989845 22.866117 8089961
153.55865 -58.988956 23.603745 7037274
154.37109 -58.984684 25.826941 7300702
154.17548 -58.983372 26.93812 7300702
154.00658 -58.982292 27.863077 8354159
153.83173 -58.98122 28.786867 8288623
153.61479 -58.979946 29.894033 5393738
153.42809 -58.978897 30.815552 6446934
153.2746 -58.978054 31.551874 9736324
154.15012 -58.97467 33.09211 11906981
153.98541 -58.973843 33.831818 10985621
153.73199 -58.972622 34.93998 9538949
153.51495 -58.971607 35.862053 11315356
153.29192 -58.970604 36.782719 7037789
153.06386 -58.969612 37.70219 10459017
153.89224 -58.966228 39.288551 9208702
153.74675 -58.965637 39.842445 7564392
153.49982 -58.964664 40.76442 7564392
153.19641 -58.963516 41.868977 6446426
152.88504 -58.962376 42.971222 7828332
153.56471 -58.958614 44.966698 11906725
153.28693 -58.95768 45.887539 7564650
153.00397 -58.956764 46.806759 7038307
152.71519 -58.95586 47.724178 7827817
153.45726 -58.924976 49.179844 8287597
153.27478 -58.721973 49.935604 9208699
152.96051 -58.718407 50.852375 8484976
152.64568 -58.716892 51.768833 10064521
152.4613 -58.517887 52.525509 8092019
154.37216 -57.507442 4.8885937 8881533
154.4908 -57.825245 5.9336247 8223348
154.69405 -57.827797 6.8356071 9604230
154.92609 -57.800926 7.81671 10064780
155.03606 -58.078121 8.7567596 9603716
153.48015 -58.124977 50.003101 8287597
153.27742 -57.856422 50.890358 7497825
152.98636 -57.722019 51.885315 9142906
152.67017 -57.722206 52.803658 8683125
152.46007 -57.485313 53.677315 11775395
154.40515 -56.467194 3.32974 9144448
154.44438 -56.702049 3.8877931 9144448
154.62755 -56.77869 4.8226027 9867913
154.8882 -56.796188 6.0026288 7828847
155.03 -56.954178 6.888104 9736070
155.10452 -57.211311 7.638905 10262157
153.29303 -56.826561 51.990147 8484976
153.06186 -56.687393 52.816429 9473664
152.69258 -56.729366 53.842434 10722963
152.41823 -56.666515 54.709454 10261388
154.43008 -55.607502 2.0309372 8814715
154.58467 -55.79158 3.0153973 9209985
154.79877 -55.752464 3.8970523 8223348
154.98282 -55.827988 4.8340402 9670278
155.09554 -56.095726 5.7707467 9999242
153.23837 -55.997581 53.070621 9012857
153.03099 -55.783791 53.910877 7959657
152.75984 -55.68066 54.813183 9077626
152.42638 -55.693424 55.767639 9340029
152.27237 -55.350971 56.59581 9735043
154.51904 -54.34885 0.3609271 8814715
154.56013 -54.578033 0.91827071 8156787
154.67516 -54.83567 1.8485317 7696236
154.90575 -54.869148 2.9221642 9472644
155.15315 -54.80275 3.9063258 7564651
155.19316 -55.037193 4.4672618 7564651
153.30365 -54.937759 54.059647 7564643
153.07672 -54.781792 54.892296 9143675
152.73163 -54.747948 55.932251 9208443
152.41069 -54.755157 56.856548 9471615
152.28529 -54.561058 57.43679 9208443
154.53857 -53.503075 -0.93882036 8814971
154.65508 -53.755558 -0.010205984 9275008
154.84143 -53.820866 0.9202106 8156787
155.08986 -53.749401 1.9004898 8814715
155.2218 -54.003742 2.9003196 8419958
153.19121 -54.145897 55.266773 14077894
153.09425 -53.830677 55.898994 9209467
152.81264 -53.75758 56.798191 9340285
152.42528 -53.817322 57.85709 10129801
152.26855 -53.47728 58.690361 10722194
154.59346 -52.674778 -2.0536547 9406851
154.78107 -52.735138 -1.1259542 8946300
155.00597 -52.809891 -0.0099205971 7565675
155.19319 -52.874165 0.92256474 11577762
155.2834 -53.04887 1.6074457 10130573
153.08452 -52.861626 57.005013 9208699
152.82773 -52.769451 57.853245 10458766
152.50414 -52.779545 58.781876 9998215
152.22397 -52.723949 59.657665 11577503
154.67261 -51.440247 -3.7276723 9340801
154.71623 -51.66217 -3.1707382 10130055
154.83511 -51.908134 -2.2426324 10327182
155.13104 -51.79034 -1.1282332 10064267
155.32785 -51.896755 -0.084379911 8025969
153.05356 -52.038986 58.009678 9603201
152.84091 -51.782352 58.912716 9274492
152.51595 -51.793812 59.843628 10919573
152.2234 -51.756477 60.73502 14406602
152.06331 -51.419491 61.574673 8682867
154.72307 -50.622364 -4.8449693 9340801
154.8054 -50.853165 -4.1028109 9143679
155.10245 -50.73024 -2.9918888 8222320
155.29189 -50.78677 -2.0623686 9866373
155.38197 -51.067291 -1.2046299 10064267
153.11058 -50.984188 59.017403 8682867
152.87793 -50.834408 59.859371 8682867
152.52597 -50.80888 60.909874 9538176
152.19894 -50.823467 61.843445 10788500
152.11485 -50.368969 62.593132 13880769
154.75745 -49.393166 -6.7076449 9735043
154.83864 -49.550877 -6.090044 9735043
154.92439 -49.848484 -5.2236123 9340801
155.153 -49.91066 -4.1118202 9012093
155.42189 -49.819935 -3.0726345 9998215
155.53343 -50.019775 -2.2524014 13023917
152.98901 -50.199306 60.243294 8682867
152.88741 -49.887802 60.884655 9735812
152.59978 -49.821392 61.793564 11775651
152.28563 -49.67907 62.864136 14341576
152.04279 -49.554306 63.708363 10590863
154.90594 -48.772697 -7.0121894 9998726
155.07974 -48.857418 -6.1615353 10129799
155.33286 -48.767624 -5.1903896 9998729
155.47153 -49.00124 -4.1948872 10063753
152.86908 -48.923164 62.010689 12433580
152.67366 -48.63686 62.896492 12104616
152.34383 -48.653793 63.835468 11775394
152.05321 -48.591331 64.748802 8288365
151.94807 -48.283417 65.396721 9209467
154.924 -47.650391 -8.0830574 9472382
155.21902 -47.864815 -7.1009173 9669761
155.43752 -47.970043 -6.035284 9998726
155.61833 -47.964012 -5.2466931 9735812
152.87599 -47.839371 63.195911 9735812
152.69174 -47.691189 63.895824 11248796
152.40059 -47.628292 64.811066 10459536
152.05536 -47.648529 65.791023 8222571
151.81596 -47.506527 66.644226 7761762
154.90321 -46.687569 -9.078001 9274492
155.2597 -46.758572 -8.171339 11314071
155.539 -46.958641 -7.1903291 9603968
155.66479 -47.152744 -6.3717446 9209467
152.87973 -47.051235 64.061653 11906725
152.68144 -46.864983 64.844589 9999243
152.49783 -46.634602 65.759651 6512470
152.10669 -46.71109 66.772934 5459522
151.88538 -46.464268 67.696068 8682863
155.00641 -45.475048 -11.108875 9471868
155.21114 -45.772701 -10.046303 7433055
155.46259 -45.950397 -9.1092472 12695465
155.47223 -46.289223 -8.4230213 16248798
152.81631 -45.943676 66.210716 5920074
152.61189 -45.954647 66.777618 5393729
152.41057 -45.706696 67.848785 9274745
152.0184 -45.584351 68.753807 9670021
155.50734 -44.351673 -14.619608 8616819
155.43074 -44.451748 -13.985935 8748664
155.44403 -44.546326 -13.185165 9406081
155.35794 -44.764053 -11.977007 12957614
155.46556 -44.922482 -11.1591 9274489
155.71289 -45.005032 -10.374866 5920074
152.43103 -44.971817 68.971848 10196364
152.07829 -44.90099 69.769951 9144191
152.14377 -44.510857 70.764763 9933193
152.16025 -44.335773 71.81694 9800837
151.87738 -44.241085 72.879623 10063753
155.91335 -43.604794 -29.07955 9801348
156.1239 -43.782337 -28.144783 8222316
155.75966 -44.057991 -27.199905 8946041
155.94666 -44.056145 -26.077147 8946044
156.09656 -44.054611 -25.140574 6183250
156.24045 -44.053082 -24.203001 7037274
156.35191 -44.051861 -23.452387 9932678
155.29651 -44.048504 -20.070942 10523527
155.40984 -44.047028 -19.138327 9799806
155.53874 -44.045258 -18.018335 10062978
155.6402 -44.043793 -17.084259 7563619
155.56598 -44.15852 -16.057364 7301471
155.58406 -44.251568 -15.254648 8945784
152.18388 -43.986103 73.933914 9142651
151.69583 -43.974972 74.827942 9406847
152.31461 -43.914875 76.973251 12103587
151.84416 -43.914223 77.886032 10854032
151.46434 -43.913712 78.614494 13550517
152.05676 -43.909126 81.269218 11906725
151.75977 -43.908752 81.816277 10591121
151.36069 -43.908272 82.544159 10591121
151.97101 -43.889099 85.034958 10459023
151.61209 -43.676105 85.795494 8025194
151.13791 -43.603374 86.651711 8683123
155.77641 -42.840004 -30.003973 12235945
156.12309 -42.878098 -29.251768 10130313
156.43056 -43.040787 -28.476881 10985622
151.8427 -42.941685 85.926918 8024938
151.50525 -42.571693 86.762596 10326924
151.10532 -42.342598 87.604095 10392717
155.83737 -41.745968 -30.792961 14076861
156.20303 -41.798878 -29.98881 11445659
156.48877 -42.109383 -29.135336 10919317
151.78845 -41.615532 86.96257 10721426
151.31018 -41.571922 87.804939 10853268
151.05492 -41.361187 88.387871 9538435
155.80952 -40.54184 -31.85833 8617072
155.99255 -40.916843 -31.164331 11971999
156.42221 -40.893711 -30.290918 11708831
151.67981 -40.730534 87.776634 10853780
151.14436 -40.729874 88.685425 8880507
155.87617 -39.495396 -32.782921 9669761
156.01782 -39.771961 -32.096203 9669505
156.37752 -39.868702 -31.241461 9340540
156.60201 -40.250065 -30.455973 11708831
151.76988 -40.098358 88.073608 10196107
151.56903 -39.623672 88.752144 9998985
151.09012 -39.592438 89.586876 9012092
155.87045 -38.577755 -33.825241 8092011
156.04546 -38.78849 -33.079437 8223086
156.44305 -38.827812 -31.98798 7564392
151.74251 -38.691643 89.121048 10393486
151.36977 -38.621677 89.803177 10919318
150.98566 -38.549618 90.478828 10261390
155.97437 -37.408184 -34.829365 10986905
156.05608 -37.806683 -34.145832 13882056
156.38701 -37.832691 -33.151997 9407364
156.591 -38.11404 -32.279743 6511962
151.68355 -37.818485 89.8424 8683131
151.11861 -37.728073 90.790382 8485752
155.94086 -36.621872 -35.805775 9537918
156.11755 -36.830032 -35.058121 12895160
156.47369 -36.816589 -34.035007 16777207
156.59949 -37.062294 -33.393711 13223101
151.72098 -37.14172 90.260651 8090995
151.56274 -36.716141 90.803452 8682874
151.03275 -36.609776 91.533569 9472387
156.04211 -35.453712 -36.816364 10261388
156.12541 -35.850422 -36.130169 13353914
156.45837 -35.872475 -35.134872 11250080
156.65341 -36.148201 -34.258175 16776175
151.72472 -35.653805 91.256889 10262156
151.2131 -35.672928 91.84314 10262156
150.96021 -35.403484 92.287743 10262156
156.00629 -34.669308 -37.797714 12959157
156.18456 -34.875031 -37.047974 9800837
156.49213 -34.893623 -36.130489 8879735
156.6949 -34.972004 -35.451771 8092019
151.57428 -34.78595 91.914108 10130313
151.01968 -34.761269 92.574814 9735555
156.10495 -33.50177 -38.814957 7168859
156.18974 -33.897022 -38.125889 7958377
156.52475 -33.915348 -37.128899 8155756
156.72163 -34.188427 -36.249706 8419184
151.70059 -33.929989 92.24176 9735555
151.27168 -33.757618 92.837845 9011832
150.9286 -33.394859 93.439476 8946040
156.0668 -32.718571 -39.801449 10984593
156.24663 -32.922287 -39.049461 9011063
156.55606 -32.937611 -38.130276 7564651
156.76028 -33.013683 -37.450127 7564651
151.61247 -32.704643 93.024734 9143419
151.05376 -32.567135 93.752838 9209212
156.16309 -31.550995 -40.825699 10590094
156.2494 -31.945152 -40.133591 12168866
156.58638 -31.960033 -39.134613 10326665
156.7851 -32.230785 -38.252705 7564651
151.74043 -31.990513 93.271835 8616563
151.2914 -31.800138 93.901337 8880247
150.89647 -31.526358 94.514069 9142907
156.20668 -30.490578 -42.141445 7565161
156.40414 -30.78364 -41.089336 8419699
156.73642 -30.79579 -40.087101 10524043
156.79636 -31.186281 -39.387333 8813428
151.51311 -30.901642 94.141396 8879991
151.12134 -30.674603 94.764725 9537920
150.81232 -30.241304 95.477455 9866628
156.2726 -29.660072 -43.872482 14077885
156.43947 -29.812466 -43.030014 13682874
156.76144 -29.822018 -42.068169 10197129
156.87273 -30.048538 -41.211765 9144701
151.49095 -29.852697 95.144135 8682867
151.09712 -29.675007 95.812569 8814198
150.78278 -29.418221 96.48159 9142651
156.50314 -28.448214 -51.729862 9210491
156.70685 -28.611145 -51.047356 8947067
157.02336 -28.698139 -50.15218 8092017
157.29474 -28.6656 -49.491348 7105122
156.52499 -29.086514 -48.017838 11182232
156.80685 -29.084791 -47.077244 9734788
156.87939 -29.149443 -46.076061 8880507
156.5106 -29.351831 -45.155277 8092019
156.86931 -29.35759 -44.038185 13354420
157.10706 -29.361904 -43.292618 16774119
151.4662 -29.093407 96.923248 8879991
150.93042 -29.080965 97.607834 9010808
151.35495 -28.883532 99.971947 10853012
150.74597 -28.883078 100.87868 10589067
150.91954 -28.875824 105.81801 9011574
150.40517 -28.875502 106.54185 10458505
151.11116 -28.636953 108.14692 8091760
150.64011 -28.449011 108.80039 8880761
150.36929 -28.175577 109.268 9209467
158.74182 -27.800081 -101.89174 10129798
159.05069 -27.789396 -101.28486 10129798
159.06757 -27.708023 -100.22846 10853263
159.04315 -27.620729 -99.152664 11905692
159.01517 -27.533947 -98.081207 10524039
158.99202 -27.469193 -97.280434 9208435
156.63496 -27.856464 -51.982124 9210491
156.99385 -27.864086 -51.057919 8947067
157.30594 -27.937654 -50.187355 7631466
150.93205 -27.587408 108.93904 8223345
150.41971 -27.503937 109.5826 9340798
158.85033 -26.842398 -102.82492 8815222
159.17249 -27.254839 -102.3477 10064262
158.97536 -27.426256 -96.748032 8681835
158.94872 -27.362061 -95.951691 9208182
158.91037 -27.276913 -94.8936 9471355
158.86856 -27.192327 -93.83989 9537144
158.83513 -27.129204 -93.052383 14075837
158.79964 -27.066385 -92.267502 11378836
158.7495 -26.983126 -91.224731 8089959
158.69612 -26.90032 -90.186302 8550512
158.63948 -26.818081 -89.152245 11511193
158.57957 -26.736353 -88.122414 11972261
158.51646 -26.655182 -87.096855 9998215
158.45021 -26.574472 -86.075638 7563102
158.38081 -26.494223 -85.058601 7826787
158.3269 -26.434465 -84.298561 7564643
156.72546 -26.628357 -52.974628 14735816
156.92461 -26.92667 -52.168198 10000006
157.24115 -27.00873 -51.277931 9012859
151.05362 -26.841021 109.21233 11906725
150.5807 -26.65358 109.86766 9537665
150.30873 -26.379843 110.33681 9537409
158.95059 -25.839136 -103.21606 9473151
158.28989 -26.394699 -83.793175 7564643
158.23279 -26.335403 -83.037331 8617331
158.15413 -26.256685 -82.033005 12038053
158.07257 -26.178528 -81.032845 14406086
157.98799 -26.10083 -80.036804 7564651
157.90041 -26.02364 -79.045006 7564651
157.80989 -25.946911 -78.057312 8617336
157.71655 -25.870693 -77.073723 9012606
157.62024 -25.794933 -76.094261 7565675
157.52119 -25.719685 -75.118851 11906725
157.4192 -25.644894 -74.147522 12498346
157.34094 -25.589073 -73.421532 9340030
156.6411 -25.703056 -54.710289 12433069
156.7672 -25.826687 -54.052402 11380380
157.02457 -25.888277 -53.159702 14407367
157.30278 -25.95409 -52.27438 12236458
150.87282 -25.788605 110.00802 9340286
150.35864 -25.7059 110.65325 8221549
158.95102 -24.873943 -103.65211 9867655
159.33536 -24.894104 -103.35854 10525583
157.80359 -24.675724 -64.186813 5920082
157.31958 -24.577587 -63.55336 7367013
156.79355 -24.633547 -57.945961 9144449
156.97049 -24.617233 -57.157436 11578018
156.99744 -24.777267 -56.104259 10591380
157.06918 -25.008898 -55.160961 9012606
157.24319 -25.174992 -54.159607 7236710
157.42291 -25.325075 -53.293964 10460308
150.69505 -24.85487 110.73441 8616563
150.18109 -24.802711 111.3626 9537921
159.24434 -23.968418 -103.84447 9406851
156.90683 -24.340794 -60.13335 11248019
157.13123 -24.319279 -59.141857 9275005
157.35422 -24.298414 -58.151516 9144449
157.53151 -24.282299 -57.360023 11578018
150.81181 -23.983862 111.08283 8090995
150.44301 -23.613199 111.71907 7893609
150.0517 -23.221176 112.39334 7893608
159.46469 -23.287872 -103.98901 8814715
150.68881 -22.549702 112.02408 7564646
150.17145 -22.468351 112.67262 7038298
150.50961 -21.640759 112.73874 7893611
149.98573 -21.408426 113.47871 8288371
150.65179 -20.809277 113.03547 8748920
150.21451 -20.615488 113.65307 8617335
150.44391 -19.820852 113.82778 8354164
150.70651 -18.910557 114.02797 7827817
150.47601 -18.68001 114.42496 8025196
150.80484 -17.538454 114.67678 7367263
155.1458 -58.585499 10.073408 7563619
155.25012 -58.716732 10.830492 7695205
155.52879 -58.560623 11.977917 9537665
155.56314 -58.601788 12.921188 13682877
155.59283 -58.643471 13.865545 10524811
155.62761 -58.69598 15.000488 6775125
155.65587 -58.741814 15.947798 7169626
155.6801 -58.788395 16.896349 6906720
155.51492 -58.994217 18.013283 7038307
155.39961 -58.99305 18.946394 11380380
155.27838 -58.99189 19.878738 6380625
155.12575 -58.990509 20.996656 8814710
154.99254 -58.989372 21.927355 8814710
154.85339 -58.988243 22.857254 7695203
154.6792 -58.986897 23.971951 7037274
154.52811 -58.985786 24.899944 11379350
155.37057 -58.981709 26.960484 8353647
155.20117 -58.980618 27.89249 8419698
154.9906 -58.979317 29.009552 7564390
154.80922 -58.978245 29.939404 5985874
154.62187 -58.977184 30.867987 6841690
154.38989 -58.975922 31.980837 10459791
154.23109 -58.975086 32.721817 11906981
154.98283 -58.97105 34.838642 8288883
154.7222 -58.969822 35.954033 8486005
154.49904 -58.968807 36.882114 9405563
154.26987 -58.967808 37.808727 11313302
154.03551 -58.966816 38.734024 13550773
154.85307 -58.957222 40.333858 9208702
154.72002 -58.962811 40.895603 7564392
154.57686 -58.831917 41.933758 5196353
154.41129 -58.752018 42.940414 5393731
154.39149 -58.630062 43.853802 5459781
154.27605 -58.67091 44.842831 6511959
154.27625 -58.581722 45.864964 7301479
154.10112 -58.67942 46.945251 8090736
153.94348 -58.728336 47.911049 9406335
153.6899 -58.689346 48.766125 9077370
155.26434 -57.661297 9.0820827 8221549
155.39816 -57.801796 9.9025955 8287085
155.58946 -57.840042 10.807577 7695205
155.81322 -57.79073 12.000187 7563619
155.84433 -57.830086 12.944897 9011321
155.80374 -58.064278 13.88459 8945523
155.83875 -58.116325 15.021128 7367005
154.71103 -57.944691 44.298069 5392706
154.62566 -57.973232 44.87809 5787720
154.52716 -57.867771 45.940281 6379861
154.41289 -57.815784 46.973293 7300962
154.33278 -57.67807 47.880432 9208956
153.99423 -57.733662 48.945007 10985367
153.71991 -57.648499 49.836445 9472127
153.54018 -57.459625 50.568336 8484976
155.24437 -56.382267 6.8978629 9736070
155.33575 -56.742237 7.8912568 10327950
155.5349 -56.834568 8.9196815 7893357
155.75975 -56.844917 9.9260616 8484721
155.91402 -56.965534 10.80217 7958377
154.52043 -56.943378 48.296097 10261644
154.40047 -56.739925 48.870708 9406335
154.08548 -56.734013 49.791969 10261643
153.70668 -56.729237 50.897076 8748148
153.52199 -56.528374 51.656754 8484976
155.32886 -55.643375 6.0601344 8618104
155.45898 -55.810242 6.9076314 8091761
155.7067 -55.753128 7.9039025 9669764
155.90973 -55.845501 8.9481907 8813944
155.97681 -56.270798 9.9401779 9471359
154.34035 -55.870918 50.011883 11314587
154.04729 -55.784058 50.959316 9801348
153.77826 -55.675396 51.861351 8880246
153.50168 -55.599213 52.749138 8683892
155.41035 -54.760349 4.972446 9209473
155.63202 -54.778606 5.9786553 9538436
155.81766 -54.85717 6.9239841 7565419
155.97354 -54.924831 7.7203507 8486005
154.38556 -54.938484 50.917583 9472383
154.13634 -54.737175 51.865093 9998215
153.75439 -54.736721 52.974567 8683892
153.47945 -54.671692 53.845352 7564643
153.31171 -54.540852 54.477749 10788500
155.44635 -53.504009 3.0729201 9011838
155.50793 -53.852867 3.9155998 7893615
155.70299 -53.874977 4.8104558 10722710
155.9899 -53.826458 5.9927964 9209217
156.10474 -54.094494 6.9370627 7564651
154.30183 -54.006706 52.197002 10459022
154.15891 -53.74094 52.907536 9472127
153.83936 -53.74218 53.833961 8551538
153.48808 -53.69585 54.90543 11840931
153.33398 -53.351238 55.73629 9209467
155.50485 -52.662785 1.9525819 10065293
155.67601 -52.832729 2.9841955 8617592
155.93498 -52.712967 3.9267659 7959663
156.07118 -52.889622 4.8153834 11906726
156.16725 -53.239853 5.8117352 9011838
154.14026 -52.786167 54.023453 9932163
153.85873 -52.748959 54.88237 12433069
153.53723 -52.75354 55.810734 10788500
153.28281 -52.560444 56.764343 9208443
155.57304 -51.5103 0.36423492 8354934
155.61588 -51.737835 0.92543983 11051674
155.80473 -51.803028 1.8630438 9078654
156.03122 -51.883625 2.9913127 8092011
156.21983 -51.952801 3.9342389 8092011
154.17451 -51.885071 54.926281 11708831
153.87624 -51.756836 55.934917 11117209
153.55345 -51.762917 56.865379 9208443
153.31816 -51.636665 57.688999 9998215
155.60538 -50.567524 -1.0378938 10458252
155.71701 -50.867302 -0.0561409 7697261
155.96921 -50.790688 0.92784679 9538950
156.159 -50.854855 1.867595 8749945
156.27759 -51.110565 2.8082898 8092011
154.14755 -50.959095 56.034348 13024949
153.95667 -50.764355 56.805187 10261131
153.56779 -50.773293 57.924309 9800836
153.28719 -50.715378 58.803604 12168866
153.11513 -50.589272 59.443172 8682867
155.59714 -49.619621 -2.6272261 10129030
155.67778 -49.78299 -2.0049033 12037024
155.8949 -49.76086 -1.0863495 9734529
156.13203 -49.781834 -0.0090739727 9208444
156.25203 -50.0326 0.92974544 8353906
156.33357 -50.272789 1.6818769 8618102
154.11864 -50.034325 57.146709 9208443
153.9308 -49.853691 57.893021 9603200
153.64551 -49.782368 58.800682 11839901
153.28743 -49.744511 59.88261 10064262
153.12741 -49.405132 60.724644 11380124
155.69431 -48.501236 -4.0322647 10327437
155.80077 -48.842545 -3.0048826 10984595
155.99268 -48.897354 -2.0711589 11773852
156.21368 -48.842567 -1.1888294 9668736
156.37599 -49.012253 -0.19683576 9734531
153.94363 -48.824165 59.000706 10064005
153.65665 -48.793594 59.867996 9735297
153.3293 -48.805462 60.805374 11183001
153.06842 -48.618828 61.770309 13354682
155.68045 -47.567459 -5.6232772 9735812
155.7628 -47.725769 -5.0016952 9735812
155.91968 -47.835629 -4.1316276 10722450
156.21338 -47.758957 -2.9655704 10130056
156.37831 -47.836258 -2.1136043 10787728
156.42747 -48.185585 -1.3247106 11576473
154.05536 -48.187466 59.384438 8090987
153.95396 -47.874115 60.027496 10985107
153.66608 -47.805252 60.939964 10261646
153.3374 -47.818348 61.879673 11380637
153.09668 -47.697529 62.713028 10130827
155.83884 -46.481148 -7.0349364 10261641
155.93608 -46.757866 -5.9604349 10393485
156.09445 -46.847752 -5.0746002 10196106
156.28276 -46.895508 -4.140933 10262155
156.40341 -47.065025 -3.2667384 10525070
153.93567 -47.004471 61.047703 10261646
153.76398 -46.733555 61.899536 9077631
153.45721 -46.694851 62.882275 9341312
153.22394 -46.540836 63.773655 8815484
153.03482 -46.285355 64.778587 7039331
155.89221 -45.58411 -8.8202744 9736836
156.11201 -45.718525 -8.0422821 10591888
156.36946 -45.749691 -7.198544 9736836
156.45245 -45.958927 -6.1012311 10393485
156.53798 -46.140675 -5.0880289 10064777
153.89857 -45.893581 63.188892 9406590
153.69345 -45.813354 63.971203 9407106
153.48611 -45.698563 64.840744 7631467
153.13326 -45.715649 65.824165 6973020
152.93066 -45.467304 66.991859 5920074
152.85062 -45.236618 67.763069 9735296
155.98372 -44.439198 -12.77626 8288371
156.17175 -44.4753 -12.036449 10327694
156.40511 -44.521164 -11.109875 9669503
156.30786 -44.750633 -10.035679 7564641
156.24069 -45.061813 -9.0271339 9670530
156.50368 -45.124813 -8.2877121 9736836
153.80573 -45.187225 65.108353 9407362
153.59695 -45.078812 65.967102 8814710
153.3744 -44.995682 66.806778 6446418
153.40854 -44.675632 67.880295 9998472
153.03065 -44.621792 68.839516 10590865
153.24217 -44.367905 69.788719 9012606
153.02989 -44.272961 70.733421 8552054
152.64729 -44.261761 71.449936 10458510
156.61389 -43.473782 -27.733479 11380380
156.868 -43.717613 -27.001589 10656658
157.27466 -43.785278 -26.100039 8090993
157.44743 -44.018139 -25.546049 5393730
156.4328 -44.050949 -22.889059 11380380
156.53764 -44.049736 -22.137587 11181201
156.66351 -44.048233 -21.197409 10720906
156.80721 -44.046432 -20.068327 10655115
156.92085 -44.044937 -19.126677 9405822
157.02859 -44.043453 -18.184294 8879734
157.11111 -44.042271 -17.429953 10261132
156.17241 -44.127666 -14.868473 8616819
156.3656 -44.162003 -14.129175 7038307
156.60506 -44.205791 -13.202967 8288371
156.84239 -44.250465 -12.274851 9538435
153.34653 -44.01627 71.781219 8946039
152.76682 -44.000565 72.858803 9800837
153.23859 -43.91621 75.13903 9143419
152.87163 -43.915672 75.874031 9406847
152.59424 -43.915272 76.424156 9143419
153.22502 -43.910648 79.070198 11511705
152.83887 -43.910133 79.804901 12498603
152.35172 -43.9095 80.721039 10261903
153.03191 -43.901711 83.226311 9011321
152.70322 -43.728733 83.906982 8090219
152.28244 -43.576633 84.728989 9735044
156.71039 -42.842575 -28.061272 9340798
157.1851 -42.806767 -27.104902 10656658
157.40701 -43.197887 -26.316462 8485494
152.98814 -42.917606 84.00074 8484977
152.58031 -42.63203 84.895889 8089963
152.17146 -42.347683 85.79171 8879222
156.79733 -41.585033 -28.93298 8748665
157.02036 -41.971748 -28.14591 8617078
157.44612 -41.852413 -27.361103 13024944
152.9606 -41.651966 84.948128 8353391
152.48488 -41.577515 85.808136 9273979
152.1239 -41.364407 86.572227 10457996
156.68672 -40.797554 -29.821825 8551287
157.09831 -40.837982 -28.932732 7038307
157.40292 -41.036938 -28.133459 8879993
152.77905 -40.778217 85.8778 9471358
152.29228 -40.690701 86.765961 9931909
156.71938 -39.464092 -30.869736 11314070
156.94446 -39.846054 -30.082575 8748665
157.35138 -39.953568 -29.147076 7038307
152.94821 -40.103786 86.07074 10457996
152.65213 -39.679455 86.875031 9735298
152.16376 -39.592934 87.765076 9801604
156.84825 -38.880081 -31.090849 7564392
157.28905 -38.852943 -30.197632 9274237
157.51697 -39.171402 -29.457571 7037274
152.91676 -38.835476 87.026703 9209467
152.55307 -38.622498 87.795158 9406846
152.07326 -38.550911 88.66008 9012091
156.89059 -37.751308 -31.948891 7038049
157.28214 -37.934479 -30.980583 7498341
157.61169 -37.977509 -30.259787 10261132
152.7843 -37.882828 87.929192 10656398
152.35669 -37.733738 88.760765 8683382
152.02124 -37.564358 89.450325 8090995
156.83339 -36.818073 -32.984726 9734788
157.19298 -36.836071 -32.085304 7564648
157.50078 -37.026684 -31.286036 7695720
152.67297 -36.77058 88.909508 8815225
152.17647 -36.717484 89.789619 9603973
151.98364 -36.294239 90.417969 9143424
156.91281 -35.773628 -33.920521 13355198
157.18047 -35.869011 -33.038975 9670021
157.43942 -36.017849 -32.257732 9736071
152.61404 -35.657215 89.801689 9407362
152.07253 -35.658035 90.719849 9275008
156.9045 -34.854862 -34.971687 8092019
157.23563 -34.795685 -34.072651 8815485
157.52202 -34.899097 -33.129875 8815484
152.70372 -35.020199 90.102898 8881019
152.41403 -34.765697 90.775444 9932422
151.99054 -34.804955 91.417892 10262156
156.98157 -33.811596 -35.913212 8814971
157.2494 -33.903389 -35.029755 8092019
157.48714 -33.975609 -34.255978 8092019
152.5993 -33.957317 91.036331 10261131
152.2563 -33.676083 91.721703 9866885
151.89975 -33.291885 92.363678 9735555
156.94635 -32.36977 -37.627434 9143681
157.03534 -32.68856 -37.011593 8814716
157.30521 -32.782566 -36.119804 10591123
157.58952 -32.931179 -35.124805 8947070
152.51749 -32.670704 91.98774 10392717
152.02827 -32.577995 92.609932 9143419
157.06541 -31.747948 -37.975189 10130318
157.38829 -31.764723 -37.015129 9143681
157.61348 -31.914974 -36.190815 10262158
152.57805 -32.02478 92.275635 10262156
152.32277 -31.754721 92.723343 9340797
151.87299 -31.563818 93.353951 8616563
157.09557 -30.428265 -39.662785 10984593
157.13127 -30.735579 -39.030682 8089963
157.39536 -30.825285 -38.134998 10590868
157.69591 -30.950594 -37.064907 8880509
157.85364 -31.238976 -36.246204 9144448
152.51602 -30.812254 93.043861 8682867
152.02049 -30.708012 93.698082 8946040
151.78119 -30.274088 94.309303 8089963
157.57864 -29.371937 -41.799538 9210491
157.5685 -29.501715 -41.069706 8815483
157.37688 -29.880482 -40.134987 10262415
157.69475 -29.930389 -39.089458 7762796
157.8568 -30.087009 -38.246117 12235172
152.50456 -29.749748 94.083748 8287597
152.03963 -29.664915 94.725769 9143417
151.75505 -29.4492 95.31163 8682867
157.50957 -28.671741 -48.93655 7762282
157.86757 -28.682714 -48.011219 8222064
158.1788 -28.759401 -47.139957 9603456
157.43387 -29.086126 -45.009808 9407363
157.73521 -29.091206 -44.074413 10854805
157.72508 -29.185343 -43.18996 13354167
157.40236 -29.367975 -42.359783 9210491
152.26846 -29.11307 95.893784 9669504
151.86757 -29.103086 96.408852 8682867
152.19778 -28.884151 98.69619 9931910
151.71761 -28.88381 99.426186 9931910
152.1913 -28.876665 103.99842 7038307
151.68501 -28.876326 104.72802 11312789
152.05014 -28.431211 107.16683 8617845
151.53925 -28.376171 107.79287 8880503
160.31448 -27.466356 -101.27859 8682867
157.56447 -27.679197 -49.784386 12236204
157.72647 -27.922285 -49.128696 9472383
158.09946 -27.933203 -48.164986 9011577
151.87726 -27.529799 107.86942 8880760
151.3645 -27.445454 108.51395 8223345
159.92816 -26.92868 -101.9578 11708571
157.52161 -26.616978 -50.951748 8815483
157.76625 -26.888077 -50.056717 13749186
158.12589 -26.89728 -49.128738 8945528
158.20425 -27.298437 -48.529236 9932163
151.9955 -26.632572 108.23028 8617845
151.55728 -26.624817 108.74542 8815225
151.1848 -26.393604 109.30798 11906725
159.6918 -25.603735 -102.7738 9275519
160.04269 -25.930042 -102.36653 11182486
157.55795 -25.828501 -51.800148 12828597
157.77037 -25.89506 -51.102043 10327692
158.11261 -25.900106 -50.167027 10985364
158.32872 -26.104506 -49.400532 9208435
151.82111 -25.728737 108.936 9340286
151.30659 -25.645214 109.58215 10590609
159.91312 -24.92461 -102.91705 9406851
160.41801 -25.182348 -102.42691 10853012
159.06671 -25.044458 -67.824532 9735812
158.97627 -24.992222 -67.112617 7169378
158.82661 -24.918816 -66.15567 8090478
158.65643 -24.843136 -65.195488 6248278
157.65042 -24.584572 -54.637451 8815227
157.73372 -24.702797 -53.961338 8289397
157.90332 -24.841164 -53.034172 10065807
158.00977 -25.073408 -52.157833 10065550
158.23108 -25.231371 -51.146015 11643036
151.87276 -25.053143 109.25143 10590609
151.60028 -24.777925 109.72184 9537921
151.12541 -24.590363 110.3799 8089963
159.70334 -23.760992 -103.59856 8814715
160.07825 -24.056734 -103.18728 9538436
158.59679 -24.138063 -60.121899 10065295
157.93895 -24.007294 -59.227589 10262158
157.96298 -23.957176 -58.159782 12828082
158.0874 -24.017786 -56.918236 12433069
158.08299 -24.119001 -55.976929 11709347
158.23161 -24.125696 -55.120823 8815227
158.28714 -24.220837 -54.008099 9078656
158.50789 -24.214306 -53.235935 8092019
151.76314 -23.921894 110.00826 9340286
151.38374 -23.539438 110.66334 8551031
159.8204 -22.99733 -103.85711 8814715
160.31148 -23.098095 -103.448 8156787
151.64656 -22.607027 110.87562 9077374
151.13007 -22.555012 111.50664 8814203
160.10068 -21.931454 -104.13159 8814456
151.91711 -21.884453 110.96231 10261132
151.39362 -21.65077 111.70245 8880252
160.35068 -20.552383 -104.57006 8814203
160.20261 -21.009748 -104.4729 8814203
151.62477 -20.857759 111.87423 8946046
151.1877 -20.663214 112.492 9670024
160.49908 -20.094318 -104.66731 8814203
151.85629 -20.063099 112.04636 9143681
151.33099 -19.829378 112.78882 11577762
151.70247 -18.805334 112.9254 10788247
151.1722 -18.620708 113.64635 8485749
151.92667 -17.77721 113.23605 7761509
151.54739 -17.544443 113.80763 8682355
151.10181 -17.540789 114.32918 7564386
151.74084 -16.704208 114.04955 7301214
151.21742 -16.623501 114.70473 6511954
151.59015 -15.754753 114.81664 6511954
151.75003 -15.034383 115.40092 7762027
155.82449 -58.564159 18.145145 7893615
155.88358 -58.514004 19.007208 11578016
155.90935 -58.567806 19.962183 6840920
155.93452 -58.62344 20.918804 8814710
155.95905 -58.681206 21.87739 8090218
155.98763 -58.753014 23.030081 9142135
155.97824 -58.80278 23.98752 10260358
155.99821 -58.702446 24.999657 9471614
155.91336 -58.738289 25.982128 7300446
156.21931 -58.622677 26.91819 6379602
156.22824 -58.739971 28.004423 6512218
156.22597 -58.825516 28.858093 8813942
156.07607 -58.893345 30.093462 5919566
156.00038 -58.815876 30.954941 6709590
155.91672 -58.692436 31.962492 11315100
155.72917 -58.706291 32.935036 13551548
155.68159 -58.642246 33.86924 12696236
155.68431 -58.566074 34.999573 9077624
155.55022 -58.596195 35.953152 8748661
155.41527 -58.628399 36.907665 7432031
155.24924 -58.706104 37.974339 11708060
155.14595 -58.661823 38.899632 13418675
155.00299 -58.701328 39.895805 5920074
154.9093 -58.586426 40.946301 9997961
154.82587 -58.611378 41.522438 10853012
154.79739 -58.26762 42.71508 4867385
155.98251 -57.585835 13.99531 7826782
156.04996 -57.536667 15.041735 8419177
156.00822 -57.775002 15.984398 9142644
156.03621 -57.822182 16.935486 7827821
156.06367 -57.871136 17.888033 7630443
156.16109 -57.728367 18.851004 9867655
156.19247 -57.79187 19.998838 7366495
156.21799 -57.846855 20.957285 8551025
156.31381 -57.709576 21.927685 9405563
156.31989 -57.829067 22.96982 9010549
156.3618 -57.829105 23.854776 9602685
156.35158 -57.995621 24.912643 8089963
156.4118 -57.96957 25.984116 8089963
156.05379 -57.941814 33.902363 13683130
155.9604 -57.815357 34.983356 9669761
155.85959 -57.76506 35.906792 7893349
155.71663 -57.757233 37.036472 8616816
155.62845 -57.676151 37.94891 10721422
155.49176 -57.711613 38.907642 10392712
155.32257 -57.808567 39.944466 7564385
155.22652 -57.740639 40.880993 7169885
155.04887 -57.83754 41.98307 5393732
154.97841 -57.682941 42.96619 4867385
154.86256 -57.684826 43.858429 4932922
154.76512 -57.576939 44.918877 5392706
154.6795 -57.60593 45.499996 5392706
154.6469 -57.26936 46.706287 7038307
156.14301 -56.464359 10.988113 8484719
156.16576 -56.827187 12.027735 7563619
156.19623 -56.865627 12.974545 8616562
156.24217 -56.855705 13.876913 8418919
156.3316 -56.763798 15.069229 10524039
156.36053 -56.80822 16.020941 8221803
156.42078 -56.774441 17.032158 7564392
156.48735 -56.709248 17.937187 8814715
156.51457 -56.759335 18.894167 7959146
156.50447 -56.929729 19.98456 7037274
156.50145 -57.070202 20.995714 7827302
156.58763 -56.909481 21.582575 9142649
156.01207 -57.22303 36.258533 6511954
155.93097 -57.241966 36.833111 8814451
155.90762 -56.887169 38.017532 8551279
155.81575 -56.767109 39.069099 7301469
155.70314 -56.761425 39.957626 8287851
155.56473 -56.800034 40.920845 6249040
155.46176 -56.723377 41.935211 4342073
155.35513 -56.684895 42.870308 4538937
155.17555 -56.785225 43.977955 5458755
155.07611 -56.723637 44.923187 5392706
154.90121 -56.832558 45.97121 6643285
154.82742 -56.68417 46.964718 7563874
154.70107 -56.689526 47.863075 7629668
156.15533 -55.453491 9.3863239 7564651
156.19398 -55.696537 9.9542484 9142652
156.37869 -55.784458 10.910591 7959144
156.54922 -55.782719 12.111835 8616560
156.61845 -55.708145 13.010132 9011061
156.64865 -55.747818 13.96093 10392453
156.67836 -55.789192 14.913023 11050383
156.66533 -55.94054 15.807955 8353132
156.683 -56.038155 16.930359 8156267
155.77399 -56.207153 40.976337 6578262
155.73705 -55.980682 41.902889 4342073
155.65491 -55.798595 43.05455 4999745
155.56299 -55.738716 43.937023 6840663
155.42128 -55.784031 44.908226 6050892
155.27875 -55.831097 45.880833 7367008
155.20505 -55.681656 46.876343 8682612
155.02287 -55.791595 47.928268 8485233
154.80844 -55.696079 48.847164 9077369
154.6039 -55.474823 49.687103 12433068
156.1843 -54.572273 8.0697365 8813944
156.33957 -54.768818 9.074543 9142652
156.55595 -54.739223 9.9777641 9011065
156.74168 -54.825802 10.936373 8945780
156.81015 -55.05048 12.002304 10064003
156.90004 -54.936394 13.033838 8419184
156.91841 -54.959656 13.605143 8419184
155.63068 -55.189411 44.969212 6511442
155.52505 -55.106926 46.022114 7234909
155.50471 -54.793148 47.069786 6774358
155.40971 -54.738789 47.961109 8682611
155.1507 -54.750748 48.904755 8616563
154.77098 -54.743538 50.015285 9998727
154.5224 -54.540337 50.963066 8682867
156.32013 -53.522335 6.9468369 7564651
156.43506 -53.792236 7.8945384 8287857
156.66777 -53.837803 8.9927006 8945529
156.91805 -53.781631 10.001286 9405820
156.95755 -54.024109 10.572344 8814195
155.38664 -53.993465 49.061981 8484720
155.1774 -53.748806 49.941498 12235172
154.85973 -53.744526 50.868679 8879990
154.56581 -53.608986 51.87286 10064264
156.30316 -52.419029 5.0644937 9011838
156.39958 -52.76939 6.0627036 8156787
156.60739 -52.75927 6.9599624 7564651
156.79507 -52.837196 7.9131246 9208699
156.99077 -52.964962 8.9830894 8748406
155.38837 -52.950958 50.216389 14076861
155.20219 -52.748508 50.982059 10392972
154.8833 -52.74585 51.910995 10393229
154.56375 -52.745003 52.839718 9537664
154.37585 -52.546135 53.60643 10458249
156.3623 -51.572598 3.937943 8092011
156.47981 -51.833599 4.8822541 9209727
156.77785 -51.73035 6.0239 9406852
156.96658 -51.804993 6.9762836 8485493
157.02831 -52.160633 7.8304543 8485235
155.34392 -52.149971 51.236183 9538433
155.22374 -51.815968 51.95676 10459278
154.90495 -51.748512 52.957264 8879220
154.58418 -51.749214 53.887878 10787213
154.43919 -51.485039 54.602631 10458249
156.4478 -50.311432 2.2472758 8092011
156.50916 -50.639389 3.0546165 10196873
156.64743 -50.811863 3.9454255 8092011
156.8371 -50.881584 4.8937645 10262416
157.10678 -50.809216 5.9611678 9407364
155.21217 -50.851238 53.063137 7629411
154.97708 -50.712173 53.900394 8089703
154.60275 -50.75465 54.940163 10129284
154.3242 -50.691799 55.818752 8880762
156.46425 -49.463829 0.93124211 7563619
156.58438 -49.716259 1.8730769 9012345
156.81326 -49.793919 3.00703 14012094
157.00397 -49.860519 3.9547582 8092013
157.13972 -50.017418 4.808918 8881278
155.19559 -50.053852 53.998066 6971480
154.96043 -49.81356 54.948166 8616562
154.68509 -49.710232 55.862514 8289398
154.38397 -49.632416 56.823429 9604229
154.17131 -49.372559 57.730042 10458766
156.53938 -48.745903 0.085241795 9734531
156.74734 -48.705036 0.9331423 8813429
156.93915 -48.766762 1.8776188 9471871
157.14174 -48.887413 2.966357 9077625
157.21796 -49.289436 3.9603491 8092015
155.21533 -48.958179 55.159557 9868171
155.02414 -48.761459 55.933258 8947327
154.69962 -48.766552 56.869911 10328465
154.37439 -48.77327 57.806679 11380123
154.18146 -48.579838 58.582027 11379607
156.59337 -47.395107 -1.8905878 13550517
156.65816 -47.713165 -1.0844126 10984596
156.83809 -47.886814 -0.0085172653 9471359
157.10146 -47.756001 0.93557751 8616307
157.2645 -47.84972 1.8061309 8090730
155.16331 -48.162876 56.195034 8092019
154.99893 -47.847351 57.023224 8749948
154.7132 -47.77375 57.934528 10657169
154.38673 -47.781826 58.873497 9472382
154.23695 -47.522049 59.597332 9735297
156.64099 -46.678715 -2.9263699 9998984
156.76697 -46.816822 -2.0808511 10985364
157.0661 -46.69186 -1.1406353 10655632
157.22414 -46.85759 -0.062240839 9339773
157.34842 -47.055614 0.87415791 9142906
155.01843 -46.873474 58.049698 10328462
154.77802 -46.740295 58.895756 9868169
154.39735 -46.790855 59.944836 12958897
154.21889 -46.533443 60.903221 10787989
154.11023 -46.241116 61.763008 8880252
156.75014 -45.383453 -6.7907701 9736836
156.84489 -45.505325 -5.945756 10196106
156.93898 -45.628292 -5.0999427 10459535
156.98302 -45.842377 -4.1578245 10459277
157.1955 -45.896206 -3.0296018 9998727
157.23759 -46.114052 -2.0859232 9998984
157.47684 -45.971279 -1.5209899 9931910
155.04158 -46.213982 59.125504 8947326
154.8405 -46.099586 59.975689 12827311
154.74551 -45.804199 60.941341 10261646
154.49754 -45.693241 61.919903 8222323
154.21465 -45.667774 62.799652 9275004
154.02164 -45.533119 63.674129 10130313
157.26465 -44.333355 -10.598576 8682867
157.40376 -44.361668 -10.03816 11906725
157.27202 -44.517578 -9.0829334 10789524
157.07172 -44.757915 -7.9376321 9736836
157.09442 -44.899395 -7.1068754 9473151
157.30476 -44.904354 -6.0564394 9669762
157.42607 -45.032986 -5.019875 10656657
157.5556 -45.166012 -3.9820998 11181975
154.88562 -45.143856 62.07719 8485492
154.7462 -44.969673 62.887985 9538176
154.40886 -44.982845 63.835979 8880246
154.3616 -44.766666 64.864441 9867655
154.17447 -44.644943 65.836945 9670019
154.23436 -44.453068 66.979134 8288622
154.45811 -44.298271 67.816795 7959148
153.97835 -44.302811 68.936287 9801095
157.5905 -43.635273 -25.569244 8617331
157.74336 -43.863121 -25.01099 6183246
158.02179 -43.830711 -24.148375 5920074
157.97031 -44.048878 -22.913923 10524811
158.10117 -44.047352 -21.965223 10261124
158.20155 -44.046135 -21.205675 9471351
157.17023 -44.041386 -16.863983 9340286
157.24605 -44.040207 -16.108953 7433057
157.3356 -44.038746 -15.164701 8090477
157.43565 -44.036995 -14.030941 7038307
157.51309 -44.035549 -13.085516 7630443
157.46584 -44.103779 -12.036245 10393744
157.35085 -44.229813 -11.236713 10064520
154.68687 -44.05788 69.257523 8287859
154.30559 -44.045307 69.979897 8090993
153.82721 -44.030308 70.881477 9537920
154.58313 -43.918308 72.367256 9537920
154.31812 -43.917877 72.923485 8682867
153.87202 -43.917175 73.848434 10326922
153.51152 -43.916626 74.586617 8616563
154.26775 -43.912106 77.039597 9736836
153.79683 -43.911438 77.964157 9670786
153.4166 -43.910908 78.701981 9538686
154.14131 -43.906364 81.204147 7564651
153.82637 -43.700054 81.987053 7564651
153.36427 -43.653278 82.834305 9011836
157.52895 -42.405899 -26.726049 9932937
157.7515 -42.797565 -25.935825 9998985
158.15746 -42.916248 -24.992994 7170141
158.2243 -43.335884 -24.502916 5393730
154.05057 -42.933659 82.186996 9472644
153.75018 -42.646992 82.900635 11380638
153.33377 -42.500275 83.711411 10656659
157.71193 -41.759041 -26.887108 14604230
158.07077 -41.883862 -26.037054 11577501
158.32736 -42.129177 -25.298616 7038307
154.02635 -41.665443 83.130539 11906725
153.58067 -41.630989 83.911072 9867401
153.29797 -41.374184 84.573395 10458509
157.72501 -40.57325 -27.852203 10787729
157.96188 -40.909763 -27.078403 14604230
158.3261 -41.043755 -26.209526 12169894
153.9247 -40.747807 83.955917 9933193
153.3907 -40.741577 84.866272 12891822
157.70428 -39.600777 -28.709011 7038307
157.96246 -39.840107 -27.972393 8287598
158.3231 -39.960941 -27.121902 13814459
154.01805 -40.114407 84.248245 9932678
153.76561 -39.748695 84.93679 11247769
153.33298 -39.563347 85.802582 11576220
157.63518 -38.382717 -29.871807 10261132
157.86169 -38.765976 -29.080618 7432032
158.28004 -38.925655 -28.077793 8352876
158.5063 -39.312454 -27.28405 12235429
153.98988 -38.843697 85.200241 10655889
153.62726 -38.628574 85.96846 9603969
153.14822 -38.55463 86.833748 9669761
157.88295 -37.711674 -29.918711 9932167
158.19711 -37.894535 -29.11293 8484720
158.43808 -38.088905 -28.449625 7563619
153.94298 -37.854149 85.984009 9342077
153.4632 -37.780094 86.850578 10459276
153.09897 -37.56628 87.620628 13550517
157.80717 -36.663754 -30.953047 8155756
158.2018 -36.847683 -29.97921 9208444
158.49405 -37.154472 -29.115309 8221549
153.74231 -36.891033 87.009689 10657167
153.35373 -36.666348 87.828812 11248534
153.06471 -36.294159 88.583885 11380380
157.7968 -35.593037 -31.870703 8092019
158.05809 -35.824917 -31.133701 10327950
158.42204 -35.936562 -30.284096 9604741
153.63948 -35.701447 88.030739 9407361
153.1552 -35.657562 88.883354 7697002
157.79265 -34.525776 -32.791435 9012606
158.07582 -34.773926 -31.976341 8618105
158.39238 -34.994827 -31.133781 9736071
158.60315 -35.288116 -30.450493 11380380
153.89548 -35.022045 88.079834 10261902
153.52866 -34.808155 88.854294 7039073
153.04482 -34.736664 89.726021 8091760
157.77274 -33.600777 -33.842602 10854036
157.95891 -33.812702 -33.089848 10064778
158.43213 -33.862148 -31.999025 9867400
153.69983 -34.027969 89.119072 7894126
153.4157 -33.690319 89.841301 9537922
152.97018 -33.63723 90.634903 10261131
157.85075 -32.553375 -34.785522 9538949
158.03241 -32.772003 -34.01173 9801347
158.30585 -32.898422 -33.11301 8617078
158.58003 -33.14307 -32.293533 8288114
153.66342 -32.748634 90.091164 9537408
153.2921 -32.635025 90.801933 9471615
152.88652 -32.678421 91.459106 9997959
157.84055 -31.632521 -35.844475 9144448
158.02028 -31.840433 -35.088211 10262414
158.39284 -31.864012 -33.975845 9867140
158.64122 -31.880516 -33.233261 9735041
153.5307 -31.865971 90.944351 9471615
153.0377 -31.823427 91.801033 10261387
158.01416 -30.469257 -36.88237 9143681
158.17392 -30.73538 -35.986637 10262414
158.37794 -30.925764 -35.117821 9012862
158.6304 -31.12731 -34.10667 8814713
153.67767 -31.181479 91.182266 9471615
153.43246 -30.756285 91.931793 8288365
152.97011 -30.637703 92.640724 8354158
158.16121 -29.386915 -39.929237 7565675
158.30154 -29.503178 -38.8894 9866883
158.4203 -29.642191 -37.97934 11972000
158.35812 -29.960012 -37.081982 10656655
158.62967 -30.030087 -36.123096 9933193
153.4857 -29.757471 92.93029 9012088
152.96399 -29.628214 93.691376 8091245
158.43756 -28.502668 -46.734535 8682867
158.59848 -28.747995 -46.079346 9735297
158.97078 -28.762537 -45.113846 10985362
158.1539 -29.099619 -42.762764 11709855
158.39149 -29.105024 -42.012196 10525840
158.687 -29.112339 -41.07325 10788759
158.92195 -29.118698 -40.321232 9144449
153.46895 -29.144325 94.343765 7565675
153.06927 -29.133688 94.861084 9275262
152.66908 -29.123251 95.377899 10656142
153.26602 -28.885069 97.045753 9933191
152.7935 -28.88467 97.780746 9143675
152.94325 -28.877199 102.89907 8156268
152.44293 -28.876842 103.63267 7038307
152.99908 -28.526339 106.00792 10984338
152.48706 -28.440317 106.6525 8617591
160.81755 -27.488771 -100.78837 10129798
161.25768 -27.500814 -100.25772 10984590
158.3541 -27.701918 -47.744759 9932163
158.57246 -27.908636 -46.981415 8814453
158.93121 -27.921299 -46.052345 9538175
159.14653 -27.929337 -45.494377 10459019
153.12386 -27.779852 106.2774 10787985
152.65181 -27.590027 106.93317 7828846
152.38107 -27.314772 107.40174 9143934
160.7448 -26.584654 -101.55091 8288627
160.99942 -26.943443 -101.17145 9406335
158.41045 -26.705696 -48.592758 11379348
158.5575 -26.909605 -48.014008 9932163
158.91725 -26.920916 -47.08395 9669505
159.16072 -27.19607 -46.188179 9274747
152.94771 -26.725801 107.06873 9670020
152.43391 -26.640732 107.71482 9143934
160.77493 -25.894253 -101.84081 9209215
161.28053 -26.153936 -101.34911 9537923
160.57825 -26.037142 -80.856956 8353902
160.47987 -25.958946 -79.846756 7564643
160.37856 -25.881355 -78.840874 7959401
160.27429 -25.804174 -77.839249 7959401
160.16727 -25.727509 -76.841965 10590609
160.05739 -25.65135 -75.84893 10525324
159.94479 -25.575695 -74.8601 9209459
159.8293 -25.500458 -73.875496 9209459
