# .PCD v0.7 - Point Cloud Data file format
VERSION 0.7
FIELDS x y z rgb
SIZE 4 4 4 4
TYPE F F F U
COUNT 1 1 1 1
WIDTH 1198
HEIGHT 1
VIEWPOINT 0 0 0 1 0 0 0
POINTS 1198
DATA ascii
66.154526 -59.164753 -105.66934 7827047
67.03434 -59.163292 -105.11221 7563619
67.909698 -59.161819 -104.54809 7893352
68.77993 -59.160355 -103.97623 9142644
69.645607 -59.158882 -103.39747 9536888
70.383659 -59.157616 -102.89536 8286565
71.239922 -59.156139 -102.30277 9010803
72.091438 -59.154659 -101.70329 9537409
72.817131 -59.153389 -101.18369 9011065
73.658897 -59.151905 -100.57058 7037274
74.495605 -59.150417 -99.950867 7826790
75.208618 -59.149143 -99.413895 11840158
76.035378 -59.147652 -98.780807 9537922
76.857063 -59.14616 -98.141022 7893613
77.673073 -59.144661 -97.494087 10853780
78.483833 -59.143173 -96.840561 8880252
79.174286 -59.141891 -96.274902 9669251
79.974472 -59.140388 -95.608521 12168866
81.026482 -59.13895 -95.236824 10458507
81.705322 -59.137653 -94.652786 8418927
82.387489 -59.136459 -94.162735 9340028
83.425377 -59.134907 -93.665802 11050644
84.203697 -59.133392 -92.963989 10460046
84.975822 -59.131874 -92.25531 10262924
85.742188 -59.13036 -91.540482 9209466
86.658913 -59.12899 -91.112534 9537917
87.320137 -59.127781 -90.587357 9471868
88.353035 -59.126278 -90.137718 9537661
89.101486 -59.124752 -89.394485 10261639
89.737846 -59.123444 -88.752312 9670014
90.611732 -59.121864 -88.087982 9669504
91.548172 -59.120647 -87.813667 10129798
92.41555 -59.119064 -87.132248 10392715
93.035507 -59.117748 -86.466255 12236201
93.894196 -59.116161 -85.770844 8682867
94.717316 -59.115086 -85.530464 8617074
95.57962 -59.113533 -84.868752 8485488
96.283455 -59.111984 -84.06485 10064264
97.189789 -59.110416 -83.43367 12629422
98.105759 -59.109261 -83.205376 9669506
98.795174 -59.107704 -82.380005 7827817
99.639885 -59.106133 -81.681 7038048
100.46252 -59.105003 -81.394638 8879735
101.28694 -59.103382 -80.629211 7037789
102.07407 -59.101898 -79.967606 8486262
102.88256 -59.100719 -79.61216 8815226
103.66297 -59.099232 -78.936371 7828331
104.47205 -59.097588 -78.141052 8486520
105.46689 -59.09639 -77.943192 8092019
106.02015 -59.095036 -77.183189 8222575
106.88584 -59.093517 -76.567932 7893351
107.81699 -59.092155 -76.146515 8484721
108.4466 -59.090569 -75.239586 7695714
109.43327 -59.089287 -74.956619 8156008
110.14614 -59.087879 -74.289268 7696228
111.00289 -59.08633 -73.636299 9012088
111.93436 -59.084927 -73.177986 8353900
112.45307 -59.083557 -72.371399 9933191
113.46775 -59.082264 -72.103668 8222061
114.37678 -59.01482 -71.381622 9208955
115.09997 -58.844364 -70.992645 9866115
115.92754 -58.842033 -70.216675 10853010
116.55435 -58.728981 -69.552383 9275007
117.30389 -58.722939 -68.801453 10327950
117.84932 -58.587582 -68.284637 8486262
44.156712 -57.822807 -121.00981 8222572
44.937214 -57.994675 -120.57137 8617331
45.876354 -58.001266 -120.12441 7630436
46.854115 -57.969231 -119.67477 8221805
47.691021 -57.944637 -119.28876 8945272
48.474438 -58.016533 -118.8892 7563619
49.17791 -58.23135 -118.46993 8880248
115.46005 -58.308201 -71.023743 9274750
116.11166 -58.02903 -70.47052 8946300
116.87382 -57.763794 -69.789978 9538179
117.52746 -57.840637 -69.040482 10196365
118.18203 -57.920269 -68.288422 8946556
118.80236 -57.879734 -67.638977 9012090
119.53701 -57.500099 -67.050575 9078653
41.999088 -56.541496 -122.54636 8682867
42.577259 -56.745804 -122.19062 8946296
43.372959 -57.086262 -121.67712 8946296
44.177113 -57.093113 -121.29391 7959401
45.125942 -57.026993 -120.87168 7564642
46.081974 -57.054985 -120.40814 8222573
46.930199 -57.087811 -119.99365 8485745
47.638454 -57.298195 -119.57391 8616307
117.20348 -57.096966 -69.796692 10261132
117.82881 -56.917843 -69.217361 8683384
118.44437 -56.890385 -68.565979 10656657
119.10223 -56.971241 -67.809669 11906979
119.86457 -56.801456 -67.076965 9144705
120.46323 -56.671436 -66.499763 8092019
121.05453 -56.511986 -65.946579 7827817
40.917431 -55.731556 -123.38416 8617590
41.791794 -55.9039 -122.90115 8880763
42.641926 -55.864098 -122.51502 9472642
43.4398 -56.034908 -122.06878 9472640
44.438644 -56.111702 -121.56535 8551538
45.384094 -56.116474 -121.11615 7695972
46.085773 -56.375061 -120.68007 8814710
118.70507 -56.096451 -68.71666 12564138
119.3064 -55.977379 -68.130585 13024688
119.94061 -55.967167 -67.44957 8092019
120.73013 -55.756466 -66.709686 8355190
121.39448 -55.843323 -65.943115 8945783
122.08499 -55.721546 -65.262009 10720908
39.25275 -54.806034 -124.54428 11708828
40.138897 -55.016647 -124.04031 8420467
41.051521 -54.969292 -123.62765 8551798
41.905426 -54.927502 -123.24049 9143681
42.818493 -54.853283 -122.83846 9209474
43.73093 -55.133911 -122.29382 9209468
44.599911 -55.377552 -121.78463 8946040
120.26961 -55.200741 -67.511307 8289398
121.03914 -54.830257 -66.880173 9144190
121.66421 -54.808716 -66.215248 9801348
122.33217 -54.89661 -65.444176 10721422
122.97884 -54.939297 -64.720802 10984338
123.73167 -54.585678 -64.098648 9669505
124.2058 -54.436394 -63.666744 7366751
36.922997 -53.583145 -126.13881 7565667
37.633801 -53.647533 -125.77664 8486257
38.468128 -54.03017 -125.22791 10261640
39.384682 -54.11853 -124.75871 11708828
40.305031 -54.036617 -124.35633 12234915
41.162807 -53.99295 -123.9681 9538180
41.967396 -54.046612 -123.56586 8880509
42.692883 -54.244331 -123.14307 9143681
121.93154 -54.011524 -66.360481 9735812
122.52924 -53.850918 -65.801025 9603455
123.20078 -53.939468 -65.025726 9603455
123.93219 -53.859219 -64.277443 9472126
124.65212 -53.734287 -63.565552 8880506
125.27044 -53.626347 -62.954235 8617081
36.029171 -52.731819 -126.90442 8223086
36.844635 -52.939537 -126.43501 9867397
37.796249 -52.913952 -125.99514 9209210
38.666824 -53.090019 -125.51242 8551280
39.552219 -53.105629 -125.08725 8814451
40.373508 -53.102711 -124.69991 9340798
41.093868 -53.349354 -124.25979 8617337
122.98368 -53.195812 -65.6661 8682867
123.49033 -53.083199 -65.178268 9603455
124.1252 -52.943607 -64.566185 10721937
124.88969 -52.777817 -63.827839 7827566
125.51312 -52.774063 -63.154366 9603718
126.13702 -52.862301 -62.430359 10524818
126.99225 -52.54842 -61.674175 13748156
33.647728 -51.528507 -128.51546 9734531
34.489304 -51.876404 -127.97731 10984855
35.248806 -52.03278 -127.55502 9406594
36.15546 -52.042301 -127.12228 8157297
37.089165 -51.951672 -126.71709 8814709
37.95945 -51.899845 -126.32623 11248279
38.79298 -52.176167 -125.82065 9669505
39.560078 -52.376961 -125.37691 8551536
124.34324 -52.30032 -64.679436 11905954
125.04497 -51.97514 -64.095779 7827566
125.8237 -51.780968 -63.357456 8419702
126.50671 -51.875717 -62.565849 8024944
127.12621 -51.963795 -61.846733 11116182
127.81517 -51.700768 -61.243061 10523272
128.38547 -51.542019 -60.711384 9669246
32.262005 -50.651951 -129.52402 15721430
32.838528 -50.772865 -129.20258 10196361
33.646111 -50.910812 -128.76497 9866373
34.49712 -51.177296 -128.25507 10524304
35.437679 -51.082325 -127.84837 9932681
36.314301 -51.026539 -127.45612 8420469
37.137753 -51.068802 -127.04954 9604226
37.737095 -51.264805 -126.68707 10985364
126.05936 -51.092743 -63.47607 7038307
126.671 -50.935635 -62.898624 8089706
127.32105 -50.905312 -62.210732 9536636
127.99606 -50.955486 -61.452045 10128515
128.82147 -50.756832 -60.665569 9537916
129.40048 -50.769051 -60.03149 9471865
129.8689 -50.546719 -59.644741 9537659
31.207903 -49.882992 -130.33224 7959144
32.02306 -50.017895 -129.89226 8486000
32.911945 -49.953716 -129.49759 9472384
33.798416 -49.891979 -129.10312 10063496
34.628357 -50.0961 -128.62831 8616307
35.492085 -50.145424 -128.19984 8683128
36.233028 -50.382725 -127.75375 10262156
127.64715 -50.136623 -62.275028 9536637
128.28735 -50.005791 -61.652462 9405051
128.95198 -49.788311 -61.050415 9471612
129.64893 -49.784355 -60.297344 9735555
130.34662 -49.886677 -59.485775 8222572
130.97296 -49.736057 -58.88892 8485488
131.76271 -49.365849 -58.234287 8090987
28.870493 -48.626884 -131.94368 7038307
29.496405 -48.811016 -131.57347 9538693
30.327723 -49.057682 -131.08089 9341567
31.215132 -49.099388 -130.64429 7893095
32.108833 -49.033878 -130.24788 8354158
33.062351 -48.933929 -129.83704 9209467
33.811581 -49.110363 -129.41153 8616307
34.723698 -49.396599 -128.86482 7563619
129.21759 -49.06768 -61.154171 9800579
129.93497 -48.853558 -60.493164 8814453
130.55896 -48.821388 -59.834522 8090987
131.22769 -48.873043 -59.081787 9011575
131.94945 -48.842632 -58.316254 8551281
132.64487 -48.518147 -57.738976 9275003
133.08078 -48.461449 -57.297394 9142907
27.787458 -47.862343 -132.76387 8485749
28.682806 -47.954201 -132.30333 8222579
29.625216 -47.913109 -131.87404 10131086
30.500711 -48.042603 -131.40771 8749691
31.44813 -48.103344 -130.93509 8749172
32.324532 -48.257977 -130.45824 9604737
33.058849 -48.31535 -130.08774 10460046
130.81552 -48.036205 -59.983162 8617075
131.50851 -47.906734 -59.302567 8222573
132.10947 -47.895718 -58.657375 8748659
132.85617 -47.795635 -57.902607 9866373
133.55597 -47.749104 -57.169617 9142907
134.20981 -47.648201 -56.515957 11314332
26.567358 -46.801136 -133.61725 7039331
27.141973 -47.085175 -133.37857 9143422
28.026548 -47.088505 -132.96233 9472129
28.998995 -46.979172 -132.54637 8486262
29.905401 -46.910152 -132.14548 9012863
30.77704 -47.226955 -131.6055 8683899
31.504084 -47.446445 -131.17317 9736067
131.80042 -47.170326 -59.386429 8090987
132.43857 -47.017723 -58.784725 9274749
133.04291 -46.982235 -58.146416 8879991
133.78856 -46.682926 -57.553413 7563619
134.44495 -46.823582 -56.740875 8419184
135.1572 -46.823631 -55.953712 10064777
135.98831 -46.506535 -55.290405 9932678
136.45235 -46.398579 -54.907784 9011320
26.389658 -46.093529 -133.92496 7762281
27.254797 -46.140633 -133.73796 9340801
28.129675 -46.114704 -133.34277 9209211
29.003519 -46.198017 -132.87851 8551539
29.656561 -46.274605 -132.52126 8092019
134.3866 -46.107834 -57.475735 7563619
134.8468 -46.055084 -57.035801 7827305
135.47229 -46.009117 -56.408928 7893355
136.23488 -45.841358 -55.770157 9143162
137.0094 -45.776218 -55.003044 8616563
137.74863 -45.706722 -54.279152 9472126
138.44818 -45.631405 -53.597816 13550517
1.454531 -44.651283 -152.63167 11381404
24.704679 -44.604755 -135.21909 7893607
25.563166 -44.944206 -134.6736 7696228
26.451849 -45.187672 -134.3956 7038298
27.319948 -45.50729 -134.06462 10985111
137.41396 -45.129219 -55.291393 9011320
138.02356 -45.074276 -54.691826 10392714
138.76157 -45.070068 -53.908916 12365733
139.27814 -44.899738 -53.278866 10195080
140.15472 -44.538059 -52.906929 9208444
140.60588 -44.4813 -52.117142 10590097
2.7044089 -44.512379 -150.76917 7565158
3.5987113 -44.415421 -150.42661 11709604
4.4892902 -44.318871 -150.08051 11315104
5.3744297 -44.212711 -149.69592 9406594
6.0787678 -44.120533 -149.3604 9340545
7.0725117 -44.006783 -147.59625 6511954
7.5924854 -43.949593 -147.38075 6511954
8.4558735 -43.854527 -147.01866 6511954
9.4868069 -43.741043 -146.57956 6840919
10.341639 -43.646965 -146.20981 7827814
10.852621 -43.590725 -145.9863 8682867
23.202536 -43.900028 -136.19243 8682355
24.016188 -44.085457 -136.05341 7103324
24.762976 -44.312393 -135.85455 8748919
141.27783 -44.270889 -52.170788 9997959
141.91071 -44.140884 -51.555122 8155755
142.4313 -44.053707 -50.856506 5919050
11.602667 -43.508152 -144.3488 8814453
12.439661 -43.415993 -143.97575 9011576
13.438959 -43.305988 -143.52368 8485745
14.432566 -43.196617 -143.06677 8485745
15.256323 -43.105907 -142.68248 7499106
15.748705 -43.05172 -142.45026 6972762
16.428232 -42.976913 -140.85355 8354163
17.234793 -42.888153 -140.46634 7170660
18.19771 -42.782131 -139.99754 10262415
18.836706 -42.711826 -139.6826 10591124
22.347391 -42.857399 -136.77216 10854036
23.10034 -43.086163 -136.58842 9077113
23.916147 -43.271317 -136.44916 7103325
20.97584 -42.124332 -138.05231 9209467
21.557234 -42.189877 -137.71667 12301482
22.38516 -42.415646 -137.35718 12301482
23.18585 -42.502277 -137.104 9406334
50.439503 -58.61158 -117.72 9735296
51.219357 -58.74971 -117.29546 9735296
52.134876 -58.83078 -116.82971 9012347
53.102497 -58.821712 -116.3756 10262156
53.931309 -58.81683 -115.98547 9011833
54.7836 -58.930656 -115.40739 9274748
55.527962 -59.113144 -114.77715 12037027
56.17799 -59.183441 -113.98182 9734787
57.12833 -59.181999 -113.50886 8551025
57.939678 -59.180756 -113.09691 7761509
58.834167 -59.17918 -112.45146 7893098
59.527424 -59.17775 -111.74561 7695716
60.236259 -59.176224 -110.97078 7893095
61.029186 -59.174984 -110.53643 7366495
61.950191 -59.173523 -110.02237 8814453
62.867031 -59.172058 -109.50085 10196107
63.649265 -59.170799 -109.04762 9735812
64.552887 -59.16914 -108.32792 10590349
65.254005 -59.167709 -107.62597 9142649
66.022591 -59.166447 -107.15554 7958377
66.758926 -59.165062 -106.53999 8221548
67.58696 -59.163361 -105.6993 7563619
68.341614 -59.162086 -105.21201 8748146
69.217453 -59.16061 -104.63652 10457478
70.088676 -59.159126 -104.05402 10720650
70.831413 -59.15786 -103.54876 9340023
71.693253 -59.156376 -102.95233 9603457
72.550095 -59.154884 -102.34907 9011065
73.280533 -59.153606 -101.82602 8155755
74.127686 -59.152107 -101.20905 8287341
74.969864 -59.150612 -100.58534 10261132
75.687454 -59.14933 -100.04493 8419701
76.519501 -59.147827 -99.407715 9143422
77.346458 -59.146328 -98.763885 8090737
78.050827 -59.145039 -98.206375 8288112
79.113419 -59.143436 -97.693253 8222323
79.933281 -59.142101 -97.194466 8880251
80.626213 -59.140797 -96.618324 9866371
81.516571 -59.139446 -96.180634 8616304
82.48893 -59.137829 -95.557045 7366239
83.169998 -59.136524 -94.962463 8089963
83.95903 -59.134998 -94.262428 8089963
84.742348 -59.133476 -93.556076 9736836
85.408897 -59.132168 -92.945297 9340542
86.370758 -59.130764 -92.523796 10129288
87.262321 -59.129421 -92.094833 10129541
88.161415 -59.127857 -91.45594 7564643
88.812782 -59.126537 -90.820511 10064775
89.566612 -59.125 -90.073128 12104097
90.460243 -59.123466 -89.463089 9341050
91.23542 -59.122372 -89.15744 8946037
92.172401 -59.120831 -88.578224 11576985
92.80291 -59.119499 -87.913887 10721679
93.53212 -59.117954 -87.133026 9472382
94.559029 -59.116608 -86.830452 8682867
95.484276 -59.115044 -86.219025 8682867
96.097572 -59.113712 -85.530891 8156267
96.953049 -59.112091 -84.808685 8616305
97.78437 -59.110996 -84.549706 10063750
98.644562 -59.109421 -83.861656 8682867
99.339828 -59.107845 -83.032005 8090987
100.28292 -59.106541 -82.684822 8616819
101.1723 -59.105068 -82.125984 7695204
101.75594 -59.103722 -81.396896 7695204
102.64177 -59.10223 -80.824677 8157554
103.58318 -59.100899 -80.447342 12892848
104.1546 -59.099548 -79.70092 7827822
105.03484 -59.098034 -79.106667 8092019
105.97588 -59.096684 -78.707771 8092019
106.62711 -59.095097 -77.816254 8814198
107.62029 -59.093834 -77.557076 8090219
108.349 -59.092426 -76.907112 8484721
109.14838 -59.090744 -76.069786 9602685
110.16344 -59.089493 -75.839188 10128771
110.92413 -59.030132 -75.11779 7235420
111.64973 -58.857624 -74.651581 9537917
112.54638 -58.811108 -73.903801 8682608
113.17413 -58.76405 -73.214157 8287852
113.89231 -58.668411 -72.524521 7695205
114.51306 -58.645 -71.865265 9340798
48.908375 -57.670414 -118.82327 9012348
49.680485 -57.855976 -118.38329 10985363
50.473972 -57.881359 -117.9977 9801089
51.412334 -57.837013 -117.57162 9866882
52.356678 -57.887218 -117.10469 9341565
53.207787 -57.887543 -116.70193 9933191
53.973335 -58.085793 -116.25995 9143419
112.0055 -58.315125 -74.759804 10853262
112.57866 -58.135357 -74.23735 10458505
113.34399 -57.820377 -73.580521 7564385
114.05241 -57.811737 -72.818321 7958633
114.77764 -57.850269 -72.012161 9340285
115.46065 -57.857231 -71.268959 9077372
116.27602 -57.520103 -70.570023 8420470
47.165272 -56.664471 -120.05292 7893608
47.991413 -56.857014 -119.58456 7761255
48.878773 -56.974918 -119.1173 8683641
49.776005 -56.922749 -118.71384 10262414
50.672527 -56.873608 -118.30949 9275004
51.577377 -56.956749 -117.84798 12170406
52.455067 -57.124191 -117.36533 9210491
113.72482 -57.083057 -73.570251 6511954
114.24455 -56.993675 -73.056366 9076857
114.91692 -56.850914 -72.406334 7563618
115.60182 -56.956341 -71.607361 8222062
116.26311 -56.948063 -70.895935 8420470
116.98624 -56.720425 -70.237183 9603716
117.56975 -56.551849 -69.697403 9012093
45.747311 -55.739735 -121.09602 8814710
46.32021 -55.9515 -120.73972 9209468
47.171036 -55.985092 -120.32367 8354159
48.126499 -56.020077 -119.85762 8486004
49.072529 -55.967251 -119.43135 8881277
49.91177 -55.949181 -119.04158 8289397
50.766026 -56.149105 -118.55696 10131085
115.2412 -56.185131 -72.418251 6510930
115.90829 -55.947144 -71.825844 9734531
116.54992 -55.970608 -71.118439 8288884
117.26119 -55.872211 -70.402054 9867143
117.97398 -55.776199 -69.682724 8813942
118.59686 -55.730495 -69.033356 11379609
119.18481 -55.564468 -68.487411 15722454
43.992664 -54.593269 -122.38764 8814454
44.781628 -54.934158 -121.87718 9800581
45.547997 -55.10014 -121.4478 9406079
46.454479 -55.037373 -121.04424 9538177
47.413868 -55.069851 -120.57731 9735556
48.363468 -55.01458 -120.15033 9537920
49.123119 -55.190083 -119.72032 8881533
49.722073 -55.306175 -119.39023 8092019
116.85577 -55.161995 -71.228241 8880247
117.47314 -55.017467 -70.638672 9538176
118.22034 -54.787151 -69.955376 8748404
118.89368 -54.824234 -69.206139 9932165
119.55594 -54.901707 -68.44696 8681843
120.25071 -54.702023 -67.803696 8946812
42.403858 -53.691601 -123.5023 8354166
43.198605 -53.858643 -123.05909 11183004
44.010983 -53.86541 -122.67204 9800837
44.84222 -53.994781 -122.22672 8813686
45.732159 -54.092083 -121.76657 9537409
46.695557 -54.122166 -121.29867 9011834
47.566635 -54.260574 -120.83085 9143418
48.169353 -54.373295 -120.50031 8682867
118.26995 -54.167492 -70.239517 8551026
119.09411 -53.833641 -69.529358 8681843
119.74465 -53.863686 -68.80867 8155756
120.41012 -53.941959 -68.045563 9998728
121.11474 -53.909149 -67.300591 10459791
121.82291 -53.6418 -66.679703 9735812
40.737411 -52.720203 -124.68179 7038307
41.481785 -52.94257 -124.24008 7630444
42.418293 -52.963718 -123.78855 7893615
43.274727 -52.926414 -123.39839 10985112
44.129757 -52.891548 -123.00795 10326666
45.060543 -52.920971 -122.55579 9208443
45.909084 -53.36475 -121.97569 8682100
46.603374 -53.449623 -121.613 8813686
120.05779 -53.052464 -68.91201 6708566
120.74835 -52.920326 -68.236465 11643553
121.40378 -52.953869 -67.508598 12301995
122.15972 -52.779831 -66.78479 9735812
122.77648 -52.767975 -66.123062 9801091
123.43869 -52.54018 -65.529327 9735043
38.92617 -51.602257 -125.98871 10393227
39.826679 -51.904472 -125.44104 10459278
40.702553 -52.10474 -124.94605 9012095
41.672245 -52.0284 -124.51805 10261903
42.532455 -51.989265 -124.12683 8617080
43.350559 -51.99461 -123.73769 10129286
44.147411 -52.164295 -123.29239 9405560
120.9738 -52.239155 -68.363869 7893096
121.57053 -52.072693 -67.807648 10459791
122.26257 -51.859356 -67.173676 9603970
122.9936 -51.770668 -66.429718 9800837
123.66932 -51.855259 -65.651535 11314074
124.34753 -51.840302 -64.924805 12366504
125.20113 -51.517136 -64.175484 7827566
37.367783 -50.638374 -127.11403 10262156
38.21344 -50.848816 -126.62923 12366759
39.185974 -50.948193 -126.12916 10853780
40.054337 -51.137825 -125.64203 10195853
40.920048 -51.094593 -125.24986 9538181
41.784122 -51.053719 -124.85753 11314589
42.566341 -51.212498 -124.42358 9406847
43.182224 -51.315247 -124.09082 9405560
122.60232 -51.189617 -67.169357 8813686
123.31358 -50.955288 -66.526077 10656146
123.90211 -50.813793 -65.96521 11905954
124.54382 -50.894295 -65.226089 11116440
125.19212 -50.932873 -64.502655 9801096
125.94929 -50.718166 -63.798859 7761513
126.5607 -50.560013 -63.222252 7037274
35.857937 -49.757057 -128.18311 9144190
36.584995 -49.928753 -127.77003 9341569
37.518677 -50.01392 -127.29404 8157553
38.454613 -49.928528 -126.8857 9406591
39.326859 -49.881535 -126.49191 8946300
40.139751 -50.098476 -126.02003 8223091
40.949902 -50.317265 -125.54871 7433321
41.57037 -50.417236 -125.21494 10261903
124.24609 -50.142567 -65.957306 10261132
124.83009 -49.90218 -65.454971 10853523
125.49947 -49.941696 -64.708176 10984851
126.18546 -49.927578 -63.972492 9800320
126.91318 -49.766567 -63.271458 11050385
127.56661 -49.637695 -62.63345 9799807
128.02904 -49.555916 -62.176731 9405051
34.261951 -48.690075 -129.36775 7760998
35.019192 -48.928802 -128.91338 7695206
35.859814 -49.140385 -128.4305 8091248
36.802334 -49.050858 -128.02072 8420724
37.680809 -49.000015 -127.62568 7565674
38.516552 -48.994221 -127.2328 7499114
39.332878 -49.153114 -126.78265 7565675
125.76222 -49.168659 -64.843475 9076854
126.3736 -48.976856 -64.285217 10392457
127.12914 -48.759289 -63.584755 11642522
127.80657 -48.803085 -62.826885 9799808
128.49992 -48.896244 -62.024967 8287596
129.12103 -48.739582 -61.43705 9472382
129.903 -48.363499 -60.794044 8090987
32.588875 -47.77771 -130.52655 11709601
33.426319 -47.924152 -130.07152 10722706
34.275867 -47.908749 -129.67598 7827048
35.14822 -48.015572 -129.2204 8156530
36.017719 -48.124493 -128.76529 7827822
36.9006 -48.072266 -128.36891 8552055
37.682961 -48.270859 -127.91888 7170661
126.77282 -48.309212 -64.215385 9208184
127.3124 -48.137959 -63.723766 9208184
128.03091 -47.853027 -63.100101 8748659
128.67194 -47.788414 -62.440552 7893606
129.32533 -47.920887 -61.660564 7959144
130.08563 -47.842964 -60.87904 8748661
130.87543 -47.551865 -60.181404 9801093
30.818094 -46.733871 -131.78505 8486520
31.73266 -47.010628 -131.24091 10262668
32.579475 -47.045078 -130.82661 11972773
33.474583 -46.984997 -130.42764 10854804
34.367298 -46.927177 -130.0289 8157042
35.247154 -46.980579 -129.59131 8814715
36.035465 -47.344376 -129.07176 8551543
36.671673 -47.436722 -128.73363 8814715
128.96225 -47.003601 -62.552414 8485487
129.65373 -46.924484 -61.864388 7104091
130.24762 -46.905766 -61.226635 8222317
131.0127 -46.702263 -60.54855 11248796
131.69827 -46.7495 -59.767593 10590608
132.34837 -46.642765 -59.124725 9932166
28.511209 -45.733952 -133.37825 9932934
29.296488 -45.74025 -133.00465 8880246
30.152979 -45.890568 -132.51294 9012607
31.045053 -45.974201 -132.04996 8947070
31.874544 -46.127083 -131.57207 9801863
32.825954 -46.065075 -131.15558 10657425
33.610435 -46.201389 -130.70325 9538689
34.430313 -46.275448 -130.27203 9208960
130.63326 -46.306076 -61.325081 9868171
131.31154 -46.050533 -60.876488 8092019
131.99234 -45.965408 -60.233505 9275521
132.7319 -45.931416 -59.469326 9997959
133.45093 -45.913361 -58.709618 9800836
134.22079 -45.695892 -58.118759 8353648
134.94606 -45.628529 -57.4076 9012605
135.5466 -45.571091 -56.820652 7039331
1.8184226 -44.611874 -152.49496 11381404
2.1816351 -44.572472 -152.3575 11381404
26.182268 -44.64576 -135.07854 6511954
27.016424 -44.711273 -134.89093 7959144
27.836123 -44.948193 -134.30597 10985622
28.587427 -45.114067 -133.74202 8946039
29.509977 -45.058235 -133.37376 10459278
30.393518 -45.135509 -132.84396 10854037
31.240694 -45.112003 -132.46448 8947070
32.086971 -45.412983 -131.88229 9538949
32.755569 -45.44849 -131.54651 9407363
133.78647 -45.221539 -59.123283 10326924
134.51601 -45.085564 -58.484528 8946298
135.20993 -45.003216 -57.824703 8683641
135.97701 -45.035484 -56.999321 8551797
136.69086 -44.93531 -56.364597 9011320
137.5499 -44.759686 -55.791977 8353391
138.27713 -44.669296 -55.250969 8945014
139.21222 -44.536121 -54.772873 8813171
139.94151 -44.492016 -53.977211 8813171
2.725054 -44.513561 -152.15018 8092019
3.4474509 -44.435196 -151.8716 10985881
4.3466969 -44.337727 -151.51974 12893363
5.2414188 -44.233891 -151.1412 13156790
6.6056843 -44.058167 -149.12946 11182231
7.3068409 -43.981007 -148.83881 11379864
8.1793575 -43.884926 -148.47205 7761509
9.2212238 -43.770229 -148.02733 8551025
10.257238 -43.656193 -147.57745 9867402
24.717619 -43.804729 -136.22723 9143681
25.364668 -44.063267 -136.08626 7893610
26.12636 -44.197918 -135.88722 7433056
27.104731 -44.464344 -135.50748 9142907
140.5531 -44.282955 -54.209938 7037274
140.79611 -44.278427 -53.53075 7629411
141.49963 -44.115952 -53.021812 9668995
141.89471 -44.059605 -52.395618 12432045
143.49377 -44.030895 -51.810982 7498592
143.79741 -44.029686 -50.949581 7038298
11.361921 -43.53463 -145.76132 8682867
12.207651 -43.441536 -145.38373 8682867
13.21736 -43.330383 -144.92615 9471872
14.221262 -43.219864 -144.46368 9471872
15.053553 -43.128223 -144.07471 9011577
15.55102 -43.073475 -143.83972 9011064
16.239511 -42.997684 -142.21678 7564648
17.054331 -42.907959 -141.825 8617334
18.026964 -42.800892 -141.35074 6249047
18.993986 -42.694458 -140.87183 7630443
19.795626 -42.606251 -140.46944 8814715
20.274641 -42.553467 -140.22646 12433069
23.803293 -42.805519 -136.77246 7958632
24.641497 -42.975098 -136.64301 7893615
25.392519 -43.217617 -136.47221 8748923
20.752108 -42.500889 -139.98227 11315356
22.935011 -41.935307 -137.92419 9538432
23.7414 -42.245239 -137.3997 10196108
24.420134 -42.435936 -137.09055 8090994
55.224277 -58.489201 -115.50575 10853010
55.949467 -58.620659 -115.10976 13615544
56.691025 -58.819424 -114.67889 10918546
57.656181 -58.82724 -114.21918 8024426
58.62114 -58.838436 -113.75816 10261132
59.447914 -58.850742 -113.36148 9077375
60.214016 -58.952564 -112.94272 8879994
60.921749 -59.176682 -112.05044 7695460
61.605476 -59.17524 -111.32883 7300702
62.479473 -59.173656 -110.6528 8748660
63.270088 -59.172394 -110.20222 11051416
64.188171 -59.170918 -109.66933 9933191
65.101974 -59.169441 -109.12896 11774365
65.881439 -59.168167 -108.6596 9142649
66.78653 -59.166679 -108.10468 8879478
67.565483 -59.164986 -107.23666 9208955
68.236855 -59.163773 -106.71391 8222317
69.102875 -59.162395 -106.22298 8288110
69.905533 -59.160892 -105.55681 9273717
70.76281 -59.159508 -105.05275 9076595
71.335831 -59.158268 -104.41862 9274746
72.151375 -59.156605 -103.60872 9537409
73.01387 -59.155102 -103.00154 8550514
73.748886 -59.15382 -102.47521 8089963
74.601448 -59.152313 -101.85426 7564392
75.630882 -59.150753 -101.34302 7038307
76.415787 -59.149616 -101.00481 8156529
77.169205 -59.148178 -100.35548 9274751
78.058319 -59.146717 -99.810211 7827565
78.802032 -59.145275 -99.148445 9537924
79.513206 -59.144077 -98.681221 11116695
80.585854 -59.142529 -98.223351 9011837
81.402641 -59.140995 -97.545296 9734273
82.098091 -59.13969 -96.958504 9996928
82.903946 -59.138157 -96.267441 8089705
83.704216 -59.136631 -95.569893 8747892
84.385353 -59.135311 -94.966599 8089963
85.306854 -59.133747 -94.356926 9602945
86.210213 -59.13242 -93.94207 10853012
87.182816 -59.131004 -93.516945 10984598
87.849068 -59.129673 -92.888557 8682354
88.510719 -59.128349 -92.25531 7170659
89.27668 -59.126801 -91.510414 9209726
90.313606 -59.125172 -90.950104 13551286
90.992569 -59.124023 -90.502472 7038296
91.916267 -59.122616 -90.033585 7103578
92.663383 -59.121059 -89.260078 11050643
93.404335 -59.119495 -88.48056 8089963
94.340042 -59.118156 -88.091537 10788243
95.274956 -59.116806 -87.693565 13157303
95.898949 -59.115459 -87.006912 8287597
96.620422 -59.113892 -86.199936 9471613
97.551682 -59.112518 -85.78167 11181972
98.481377 -59.111145 -85.35392 12102816
99.18924 -59.109573 -84.525581 11248282
99.790184 -59.108219 -83.810715 6511954
100.79404 -59.107067 -83.669998 8288110
101.63977 -59.105423 -82.905457 10261132
102.229 -59.104061 -82.172966 8089962
103.18117 -59.102722 -81.805626 10590350
104.07365 -59.101231 -81.223961 10327439
104.74612 -59.099636 -80.348389 9537924
105.74525 -59.098385 -80.113136 9078399
106.48946 -59.096985 -79.480927 10985111
107.34027 -59.070873 -78.725677 8682868
108.36461 -58.819031 -78.426666 8024170
108.99865 -58.761715 -77.756599 8813686
109.61266 -58.793465 -77.014351 8616306
110.34412 -58.694519 -76.351562 6511954
110.95575 -58.709839 -75.681091 5985610
53.574512 -57.519878 -116.67648 9143419
54.251122 -57.624786 -116.31414 9143419
55.081894 -57.869053 -115.82278 11248021
56.01725 -57.840599 -115.39178 10655375
56.847084 -57.844349 -114.99767 9866116
57.81496 -57.852032 -114.53669 8221549
58.755737 -58.025509 -114.02178 9143167
59.419338 -58.198105 -113.63841 9011582
108.46445 -58.384445 -78.555519 9011065
109.28939 -58.012222 -77.865425 8287342
109.95741 -57.80283 -77.256393 8221288
110.60293 -57.852184 -76.53067 6906455
111.24877 -57.904209 -75.803085 6051403
111.88132 -57.914368 -75.112778 9077109
112.46844 -57.778137 -74.551392 11576728
113.18556 -57.380341 -73.991989 8682608
52.051495 -56.56176 -117.78277 10986902
52.644753 -56.684799 -117.45251 9210491
53.394398 -56.872784 -117.02221 8880759
54.366634 -56.867523 -116.56438 10392970
55.338306 -56.865551 -116.10548 11839900
56.17078 -56.866684 -115.71123 8682098
57.01804 -56.992317 -115.25981 7563619
57.782238 -57.201023 -114.81428 8089963
110.37858 -57.145664 -77.158813 9405046
110.8944 -57.047318 -76.653984 10523528
111.52842 -56.856136 -76.071846 7761250
112.20972 -56.947128 -75.284645 8945523
112.85867 -57.003651 -74.55127 12760745
113.61455 -56.725079 -73.884888 8221803
114.29133 -56.527966 -73.259674 7958376
51.013767 -55.713619 -118.61514 13683137
51.867035 -55.916779 -118.12964 11776418
52.703854 -55.90704 -117.73769 9802628
53.679398 -55.898945 -117.27948 9341565
54.654278 -55.894054 -116.82023 9405563
55.435238 -55.985279 -116.41405 9208184
56.134129 -56.217506 -115.98991 9208184
111.76942 -56.219528 -76.15802 9339768
112.38634 -56.072655 -75.570274 9800320
113.06667 -55.982224 -74.883072 11840675
113.7853 -55.915897 -74.141251 9208956
114.55334 -55.735077 -73.40831 8024425
115.23966 -55.736423 -72.664566 7431776
115.78439 -55.541245 -72.181229 9734531
49.30938 -54.74958 -119.80954 9473155
50.229916 -54.943577 -119.29594 9407618
51.168262 -54.956554 -118.84681 10459791
52.008038 -54.944481 -118.45442 9933958
52.953167 -54.90451 -118.02339 9671043
53.792942 -55.142742 -117.5302 10065290
54.613934 -55.246384 -117.10009 10787985
113.34885 -55.198509 -75.004921 8813941
113.94157 -55.062546 -74.437363 8550769
114.6885 -54.739437 -73.804916 8024169
115.3772 -54.838844 -73.005104 7958120
116.07368 -54.872135 -72.233002 10261387
116.67959 -54.72366 -71.65802 9143162
117.20621 -54.638229 -71.134491 9011576
47.751457 -53.819458 -120.92104 8682867
48.535099 -54.000671 -120.47734 8748660
49.479847 -54.019051 -120.02303 9406590
50.464123 -53.999165 -119.56538 8092011
51.306881 -53.984844 -119.17249 8092011
52.095383 -54.065926 -118.7668 9801860
52.80254 -54.288551 -118.34265 9210491
115.01126 -54.074188 -73.818222 7037274
115.68044 -53.831932 -73.225914 7564386
116.32514 -53.850075 -72.518051 10327692
116.98472 -53.915615 -71.76825 8419439
117.64518 -53.983692 -71.016083 7300702
118.43554 -53.65855 -70.337769 8353646
118.96993 -53.423859 -69.887192 9011576
45.45055 -52.519497 -122.5329 8813686
46.119621 -52.81963 -122.09555 8484978
46.969093 -53.075298 -121.59075 8683127
47.777424 -53.092346 -121.20148 9472383
48.766582 -53.066868 -120.74381 9274748
49.754509 -53.044476 -120.28548 8223341
50.547062 -53.12114 -119.87968 8355183
51.258545 -53.339516 -119.45518 10262412
116.62347 -53.09446 -72.607071 9735555
117.27007 -52.93959 -71.991524 7367007
117.94079 -52.92865 -71.271393 6905688
118.63773 -52.93623 -70.51268 8945785
119.3397 -52.761017 -69.848312 7695977
119.94186 -52.56332 -69.304214 6379601
120.41515 -52.528381 -68.810921 5919050
43.859245 -51.610607 -123.65167 9405560
44.586079 -51.813122 -123.22627 9405560
45.389492 -51.876183 -122.82082 8484717
46.254566 -51.964413 -122.37607 8222578
47.044216 -52.02787 -121.97694 9012092
48.047756 -52.11702 -121.46632 9867141
48.986401 -52.1856 -120.99465 10064777
49.702488 -52.40004 -120.56955 9078650
118.05982 -52.135803 -71.574806 7630441
118.74682 -51.995674 -70.907478 8354166
119.53844 -51.771568 -70.172577 7630441
120.19299 -51.798351 -69.449158 7432545
120.84878 -51.82729 -68.723015 8090475
121.45942 -51.705559 -68.127502 9143419
42.911343 -50.788593 -124.43103 9209210
43.7943 -50.967575 -123.9413 9076594
44.653408 -50.93457 -123.5482 8747628
45.511242 -50.90395 -123.15486 8352616
46.367863 -50.87566 -122.76121 8090478
47.323269 -51.169346 -122.19089 8617335
48.133816 -51.469475 -121.68657 9143678
119.07838 -51.328674 -70.912277 7564651
119.76424 -50.990185 -70.353104 9209473
120.52699 -50.777931 -69.64193 9275005
121.19894 -50.851276 -68.873962 8748405
121.87216 -50.927177 -68.103249 9669507
122.50961 -50.882877 -67.436554 9011321
123.26286 -50.498497 -66.829254 11906725
40.233219 -49.51162 -126.21223 8420470
41.232334 -49.851406 -125.60275 8551543
42.126755 -50.069073 -125.09208 8288366
43.04874 -50.029427 -124.67204 9077881
43.911587 -49.994705 -124.27808 8551021
44.773045 -49.962311 -123.88387 8616045
45.580578 -50.026093 -123.47631 8352617
46.307751 -50.232529 -123.04913 8352360
120.74957 -50.097462 -69.770493 11380380
121.34805 -49.926548 -69.214859 8550770
121.9855 -49.878727 -68.550095 8155756
122.66199 -49.954941 -67.775665 8550514
123.39716 -49.862629 -67.02919 10393230
124.12043 -49.726231 -66.31958 11248025
124.70435 -49.484859 -65.818047 15195086
38.883755 -48.610321 -127.21414 7564651
39.601044 -48.681084 -126.84637 8880507
40.489574 -48.933445 -126.32444 9275008
41.367504 -49.166618 -125.81519 8025195
42.297268 -49.092731 -125.40544 8485744
43.16383 -49.056278 -125.01042 9209467
43.976582 -49.116314 -124.60187 9143674
44.709057 -49.319416 -124.17357 8616046
122.39899 -49.099346 -68.525505 9274493
123.01659 -48.976192 -67.923225 8418928
123.61793 -49.000168 -67.258659 8485233
124.35146 -48.774307 -66.586456 13484982
125.01177 -48.808319 -65.852493 11314071
125.64526 -48.670788 -65.240746 8353646
126.19598 -48.59568 -64.684799 7037274
37.950474 -47.79707 -127.9836 8419701
38.843315 -47.994591 -127.48174 8156530
39.82914 -47.914745 -127.04784 10129546
40.703686 -47.872383 -126.65144 9077369
41.526608 -48.040161 -126.19461 9931906
42.357876 -48.213505 -125.73162 9932419
43.096027 -48.413361 -125.30199 8288365
123.7694 -48.218533 -67.51918 8092011
124.53945 -47.861755 -66.878647 9472637
125.283 -47.769924 -66.122833 9866883
125.97083 -47.85183 -65.332977 10327434
126.64637 -47.889584 -64.580444 9208184
127.27673 -47.773708 -63.960381 9340284
127.93573 -47.377213 -63.461811 7235421
35.585556 -46.526833 -129.61449 8814715
36.381248 -46.912899 -129.08243 8814715
37.293575 -47.077061 -128.58479 8353650
38.176052 -47.02877 -128.18706 8748409
39.056522 -46.9827 -127.78932 9603460
39.935158 -46.938858 -127.39159 9537923
40.731915 -47.094982 -126.95185 8682610
41.631664 -47.3451 -126.42554 9011318
125.5146 -47.083508 -66.244843 10129799
126.15705 -46.863037 -65.684998 11576729
126.79514 -46.880127 -64.99118 10590606
127.48024 -46.961502 -64.189796 9406590
128.31972 -46.711975 -63.460304 8419694
128.95792 -46.555698 -62.881001 12432295
129.39627 -46.493553 -62.456482 12432295
33.980587 -45.76112 -130.7859 9735047
34.826244 -45.855091 -130.33237 10787476
35.687653 -45.957108 -129.86974 10854037
36.537327 -46.003986 -129.44469 9472387
37.403854 -46.112164 -128.97136 8221805
38.247581 -46.107147 -128.57362 7959151
39.087738 -46.212429 -128.11513 8419701
39.716003 -46.306072 -127.76418 10262156
127.26777 -46.24929 -65.040115 9406590
127.88189 -46.234169 -64.390915 7959144
128.62851 -45.933807 -63.918507 7630179
129.32816 -45.908539 -63.187862 14340034
129.99295 -45.890251 -62.487148 11050386
130.74583 -45.811058 -61.759388 11051415
131.53905 -45.567814 -61.172199 8355191
132.33559 -45.495773 -60.389061 9275521
1.4638388 -44.653759 -154.0452 10262156
2.0142996 -44.59409 -153.83597 10064778
29.055407 -44.60228 -134.36931 9932934
29.993303 -44.564613 -134.04939 14867922
30.696707 -44.669056 -133.44284 13420734
31.715822 -44.747948 -132.77809 9933193
32.42767 -44.865746 -132.25514 9538948
33.163944 -45.037258 -131.69907 9604483
34.082306 -45.052216 -131.24738 10064011
34.881367 -45.170868 -130.72272 11379356
35.780769 -45.123299 -130.33672 11248026
36.64843 -45.224819 -129.8441 10787988
37.494896 -45.489784 -129.28978 10787988
130.40413 -45.262402 -62.74725 10655628
131.0619 -45.136173 -62.17601 11446173
131.88464 -44.928513 -61.523758 9868171
132.45207 -44.996681 -60.824844 9539207
133.24774 -44.938171 -60.161682 10458766
133.96495 -44.820896 -59.50835 9406334
134.85184 -44.651657 -59.01305 8287854
135.79218 -44.548115 -58.455406 7762796
136.43794 -44.519756 -57.88203 9012605
137.23309 -44.49371 -57.134651 8682357
138.03471 -44.442326 -56.498505 8089963
138.83713 -44.391861 -55.857014 8945014
2.5634787 -44.534519 -153.62546 9933193
3.2929862 -44.455425 -153.34227 8092019
4.2015858 -44.356911 -152.98506 8092019
4.7447834 -44.298046 -152.76895 11183513
6.1297626 -44.117741 -150.71487 7564651
7.1918812 -43.993645 -150.24892 8880249
8.0733128 -43.896584 -149.87683 8880503
8.9502888 -43.800053 -149.50096 9406079
9.8233967 -43.703949 -149.12172 10787989
10.944872 -43.580486 -147.2749 14604230
26.776411 -43.866905 -136.20088 8419183
27.71002 -43.984505 -136.00745 8616307
28.421827 -44.268417 -135.47238 10261643
29.321928 -44.392365 -134.82846 10656913
30.263197 -44.35479 -134.5065 12959924
31.240763 -44.516277 -133.61868 14210248
31.707773 -44.498795 -133.45573 9407363
137.85297 -44.294186 -57.389492 8089963
138.14862 -44.323105 -56.931118 8089963
139.36874 -44.180943 -56.261997 9076600
139.86192 -44.230949 -55.488892 7037274
140.66484 -44.14975 -54.949173 7037274
141.289 -44.069469 -54.102577 7037274
142.74471 -44.033806 -53.871109 7958888
142.9975 -44.032829 -53.185532 8419183
143.24753 -44.031864 -52.499069 9405822
144.89586 -44.029816 -52.113949 9931648
145.14047 -44.028839 -51.418213 9208182
11.287535 -43.542786 -147.12265 14604230
11.970831 -43.467545 -146.81644 9998725
12.991121 -43.355209 -146.35315 10129545
14.005617 -43.243568 -145.88503 9208952
14.846598 -43.150967 -145.49123 7894376
15.349257 -43.095665 -145.25337 6510930
16.046904 -43.018883 -143.60347 7432805
16.870089 -42.92823 -143.20702 7564648
17.852736 -42.820049 -142.72708 8748406
18.667353 -42.730427 -142.32376 7234397
19.477705 -42.641205 -141.91699 6840669
20.123377 -42.570152 -141.58955 8814715
25.933832 -42.784134 -136.73837 8748923
26.768412 -42.960857 -136.60104 8813942
27.571405 -43.163448 -136.44629 10261643
20.605665 -42.517014 -141.34256 8156783
21.08676 -42.464073 -141.09456 10263180
24.208628 -41.760353 -137.95317 8288629
25.189569 -41.966114 -137.60851 8946302
26.041162 -42.228985 -137.19221 9011837
60.661465 -58.62904 -112.87724 8288113
61.406139 -58.727489 -112.48532 7629667
62.229336 -58.855286 -111.99849 7432032
63.001606 -58.906319 -111.57757 8617074
63.955029 -58.926613 -111.08791 9012089
64.907333 -58.949169 -110.59469 10985619
65.657104 -59.101864 -110.05875 9011832
66.30574 -59.16848 -109.35847 8089963
67.216614 -59.166985 -108.79994 8484720
68.122986 -59.165485 -108.23412 7169891
68.895958 -59.164196 -107.74294 8090987
69.793205 -59.162693 -107.16264 8617075
70.685699 -59.161186 -106.5752 8748661
71.446579 -59.159889 -106.06563 10459278
72.068954 -59.158405 -105.24648 10064520
72.848419 -59.156963 -104.60722 10195595
73.719299 -59.155445 -103.99412 8155755
74.46154 -59.154148 -103.46265 9405306
75.322418 -59.152626 -102.83566 7629927
76.178535 -59.151207 -102.30364 7433064
77.154526 -59.149899 -101.97832 8617078
77.882019 -59.14859 -101.42208 10787732
78.725662 -59.14706 -100.76638 8485238
79.563942 -59.145527 -100.10388 9932169
80.277924 -59.144211 -99.530319 7564651
81.105476 -59.142673 -98.854492 8090478
81.927574 -59.141132 -98.172043 9076599
82.627586 -59.13982 -97.581436 9931392
83.323242 -59.138496 -96.985817 8681583
84.129265 -59.136955 -96.284431 8089962
85.204735 -59.13546 -95.884872 7366239
85.898308 -59.134228 -95.372971 8418928
86.846519 -59.132847 -94.955856 9866374
87.523132 -59.131516 -94.329872 9142651
88.306633 -59.129959 -93.593178 7301984
89.084206 -59.128399 -92.850304 7039331
89.946815 -59.126965 -92.303352 9735813
90.711609 -59.125843 -91.960327 13222066
91.646828 -59.12442 -91.498314 9472124
92.406281 -59.122856 -90.727036 7234397
93.15963 -59.121284 -89.949677 9405821
94.087975 -59.119843 -89.465187 8089963
94.845543 -59.118702 -89.090683 11050644
95.687347 -59.117233 -88.493042 10984599
96.421371 -59.115658 -87.687851 8089963
97.308472 -59.114067 -87.018585 10984598
98.156715 -59.112953 -86.767532 11905438
99.179611 -59.009007 -86.162659 11642784
99.947281 -58.938408 -85.528076 9406594
100.62154 -58.941971 -84.914467 7301470
101.59141 -58.799263 -84.440826 8090986
102.26367 -58.804962 -83.818123 7892837
102.95707 -58.875374 -83.078407 8089957
103.7784 -58.793869 -82.599487 8089955
104.49927 -58.867676 -81.955688 7038307
105.28883 -58.804478 -81.281685 9998474
106.10668 -58.720741 -80.670235 12630189
106.94664 -58.765102 -79.933594 10919573
107.64165 -58.759487 -79.241829 9735299
58.836449 -57.538139 -114.17986 8090480
59.667049 -57.783165 -113.68826 9537412
60.579586 -57.893074 -113.21233 8288373
61.547241 -57.914131 -112.74607 7300703
62.376862 -57.935043 -112.34515 7893095
63.301971 -57.991249 -111.8849 7761253
64.222794 -58.187397 -111.37031 11314841
64.807671 -58.33894 -111.03254 13551287
101.19132 -58.380653 -84.981369 6511954
101.71766 -58.256481 -84.597137 8354158
102.48439 -58.155235 -83.999016 8814451
103.25299 -58.056435 -83.398209 8418920
104.02333 -57.960094 -82.794632 9011314
104.74625 -58.033031 -82.149567 8222062
105.56983 -57.774643 -81.579216 9538435
106.29588 -57.852734 -80.928955 13749697
107.02322 -57.933655 -80.276291 12169640
107.74005 -58.029724 -79.533195 10393229
108.48041 -57.928413 -78.786942 8945784
109.27271 -57.524502 -78.149445 9208185
57.388752 -56.62928 -115.23065 7958377
58.153435 -56.838928 -114.78445 8221549
58.943958 -56.888748 -114.39046 8813687
59.881474 -56.873055 -113.95325 9143168
60.823673 -56.952374 -113.47559 8749177
61.716427 -56.939003 -113.05861 8946809
62.458668 -57.153152 -112.62131 8419695
63.045528 -57.299717 -112.28465 8090474
105.06453 -57.377865 -82.196777 9538178
105.89006 -57.119286 -81.624832 10788755
106.58244 -57.106968 -81.0466 13947332
107.33269 -57.028934 -80.45121 12696241
108.00871 -56.986057 -79.81147 10919573
108.65469 -57.026138 -79.090225 8748148
109.41695 -56.776581 -78.401062 9405046
110.04986 -56.777855 -77.715195 9536632
110.71608 -56.620365 -77.079826 9602682
55.679043 -55.568512 -116.46651 8089961
56.447704 -55.772549 -116.02073 9208184
57.330975 -55.927956 -115.54034 8879479
58.271011 -55.90601 -115.10447 9405823
59.105103 -55.915421 -114.70607 8682100
60.035248 -55.958515 -114.2487 8485749
60.940094 -56.18911 -113.72778 8420469
108.31746 -56.321194 -79.839752 8813428
108.96003 -56.116615 -79.255623 8484720
109.67416 -55.836868 -78.635017 9470839
110.35725 -55.769341 -77.932365 9470839
111.00683 -55.816284 -77.203537 9207924
111.64272 -55.821629 -76.512207 9339768
112.23227 -55.68158 -75.95034 9208442
54.071457 -54.682594 -117.58372 12433322
54.856911 -54.829388 -117.15305 10261385
55.640347 -54.920628 -116.74566 7760740
56.61692 -54.922173 -116.28307 9011320
57.593128 -54.926929 -115.81932 9143163
58.429703 -54.933723 -115.42085 9932167
59.1782 -55.136669 -114.98503 8221549
59.769539 -55.274467 -114.64974 8682867
109.86074 -55.22123 -78.768768 9800063
110.70275 -54.878281 -78.044159 9668219
111.31614 -54.807545 -77.418701 9405819
111.96824 -54.856289 -76.68618 10130057
112.62078 -54.907635 -75.951706 9406078
113.23637 -54.843018 -75.320503 9208699
113.81522 -54.661556 -74.792755 7037274
52.476643 -53.645832 -118.75558 11182743
53.244801 -53.925217 -118.27972 9868168
54.111279 -53.954586 -117.85798 10723220
54.951458 -53.950768 -117.46205 9736584
55.931103 -53.949444 -116.99918 8485232
56.868935 -53.991608 -116.53857 9208700
57.640457 -54.197834 -116.09055 9340286
111.63114 -54.143066 -77.440018 9735043
112.2499 -53.943188 -76.879128 10524815
112.86134 -53.891949 -76.245079 9274236
113.55622 -53.913387 -75.481155 10393229
114.24529 -54.006199 -74.684555 7629411
115.02628 -53.670525 -74.02211 6642516
115.5541 -53.428951 -73.582436 6510930
50.786751 -52.701736 -119.93511 9144443
51.498753 -52.920746 -119.51016 10854293
52.430347 -53.000439 -119.03738 12761005
53.414516 -52.990143 -118.57603 10919829
54.257526 -52.984043 -118.17986 8289398
55.15617 -52.980179 -117.75648 9670021
56.014057 -53.23769 -117.24692 8419184
113.10502 -53.106499 -76.409599 9208443
113.70007 -52.966637 -75.841667 10721680
114.37684 -53.013618 -75.083389 9471615
115.12256 -52.888954 -74.344002 7037274
115.84161 -52.760368 -73.635696 6511186
116.48294 -52.645657 -73.003906 9406590
116.97826 -52.518425 -72.537102 9406590
49.225071 -51.765316 -121.05117 10065289
49.941578 -51.980331 -120.62563 10591633
50.736584 -52.057346 -120.21863 11578272
51.725117 -52.041473 -119.75763 12498346
52.712742 -52.028652 -119.29585 12563366
53.558586 -52.020267 -118.89928 9076856
54.318287 -52.208477 -118.46415 8486776
54.917839 -52.334671 -118.1297 9734788
114.64111 -52.170921 -75.256775 9471357
115.30687 -51.975903 -74.642334 8484721
116.08961 -51.740662 -73.923248 6642772
116.75254 -51.800663 -73.172813 9406590
117.41636 -51.86314 -72.420105 8945784
118.10766 -51.668556 -71.777756 8617080
46.98019 -50.534302 -122.60941 7038307
47.590591 -50.645802 -122.27579 7433064
48.347691 -50.92659 -121.8045 9538434
49.1712 -51.121674 -121.33641 10920598
50.022511 -51.103386 -120.94128 13617343
51.014591 -51.085041 -120.47959 12433067
52.005703 -51.069683 -120.0172 11839901
52.769569 -51.253605 -119.5818 10195077
53.372169 -51.376385 -119.24729 9010805
115.64423 -51.355095 -74.615631 7760997
116.38595 -50.985729 -74.014038 6774616
117.03482 -50.826366 -73.398491 9143167
117.70849 -50.810036 -72.678001 9603460
118.40904 -50.911808 -71.863907 9670022
119.07647 -50.877914 -71.15934 9341058
119.63285 -50.68391 -70.661804 10064780
120.1904 -50.390484 -70.217155 15196110
46.021854 -49.677452 -123.40838 8352360
46.818996 -49.854084 -122.96017 7563619
47.63541 -49.870857 -122.56742 7762026
48.511517 -49.912376 -122.13641 8156524
49.373905 -49.951603 -121.71282 8880247
50.298752 -50.130787 -121.20323 13090997
51.209202 -50.307819 -120.70134 13023917
51.815048 -50.427319 -120.36656 13023917
117.82406 -50.019157 -72.983109 9472131
118.51301 -49.87381 -72.315544 9340545
119.1827 -49.938053 -71.55497 10064780
119.85347 -50.00473 -70.791885 11248794
120.62229 -49.688354 -70.130722 11906724
121.2349 -49.561928 -69.535568 9603714
44.212322 -48.692471 -124.6615 9142393
45.101955 -48.918388 -124.14969 9142905
46.042286 -48.951252 -123.69183 8616046
46.903004 -48.924667 -123.29558 8352618
47.76263 -48.900288 -122.89898 8419696
48.648098 -48.913349 -122.47502 7432545
49.434818 -49.181538 -121.99483 6313808
50.24596 -49.486961 -121.488 12038823
118.84223 -49.206348 -72.321442 9735046
119.52561 -48.965202 -71.712036 9932679
120.18433 -48.985588 -70.987152 9537665
120.98394 -48.758659 -70.243973 10261644
121.64594 -48.783199 -69.513344 8616563
122.28576 -48.733616 -68.846954 8879735
122.88914 -48.563568 -68.285522 9537665
42.592747 -47.788277 -125.79221 9208183
43.401855 -47.957279 -125.34143 7169628
44.326599 -48.07233 -124.85777 8813429
45.300709 -48.008312 -124.42305 9800321
46.164967 -47.979916 -124.02586 8352617
46.986824 -47.995216 -123.63112 8879222
47.786282 -48.174328 -123.18082 9208956
120.40498 -48.305988 -71.117371 9537665
121.02235 -47.957218 -70.637871 9340286
121.75532 -47.737816 -69.96283 8879992
122.43484 -47.808014 -69.188385 9340287
123.11573 -47.88063 -68.411118 9143674
123.82096 -47.745289 -67.720444 8289390
40.912037 -46.650066 -127.04629 7893351
41.840111 -46.786579 -126.55235 8090730
42.704418 -47.167187 -125.9901 8419181
43.684132 -47.098793 -125.55446 8089706
44.553295 -47.066509 -125.15655 8221548
45.379955 -47.078117 -124.76102 10129030
46.184769 -47.253613 -124.30965 9076856
122.09208 -47.067673 -69.962067 8617080
122.71606 -46.954994 -69.347122 9143167
123.39696 -46.854084 -68.696114 9669762
124.07466 -46.924805 -67.910538 9209721
124.73023 -46.950844 -67.173615 8420720
125.50137 -46.558094 -66.622261 8748403
126.15854 -46.460812 -66.005844 10260611
38.633011 -45.741638 -128.60579 7564651
39.390934 -45.767467 -128.23358 8288371
40.260532 -45.940002 -127.72262 9143678
41.170368 -45.965668 -127.27895 7827816
42.113392 -45.896454 -126.87535 8353646
42.93195 -46.061337 -126.3967 8156267
43.757187 -46.230232 -125.90755 10984852
