# .PCD v0.7 - Point Cloud Data file format
VERSION 0.7
FIELDS x y z rgb
SIZE 4 4 4 4
TYPE F F F U
COUNT 1 1 1 1
WIDTH 1189
HEIGHT 1
VIEWPOINT 0 0 0 1 0 0 0
POINTS 1189
DATA ascii
-161.33737 -55.959396 -93.354927 8813939
-146.79109 -54.250282 64.393539 10853012
-146.99478 -54.588753 63.809223 10393482
-147.43234 -54.705273 62.98896 9735808
-147.79462 -55.005856 62.164547 8486256
-161.60533 -55.048851 -93.510818 9602937
-146.84743 -53.610264 64.754539 8024169
-147.37708 -53.691387 63.804504 10853775
-147.69835 -53.919102 63.101044 9341307
-161.7664 -54.140125 -93.865036 8681835
-146.72112 -52.535152 65.73349 7958376
-147.12553 -52.664776 64.959747 7892584
-147.59966 -52.834831 64.039902 9603967
-146.6331 -51.558685 66.577446 8616306
-147.06596 -51.654903 65.779709 8879479
-147.4986 -51.752636 64.981201 9734788
-146.86084 -50.636013 66.8414 10457736
-147.3206 -50.724903 66.013374 9603202
-146.77347 -49.609867 67.56292 10720651
-147.13625 -49.771626 67.001434 9011318
-147.46304 -49.873158 66.380295 8813686
-146.98599 -48.66412 67.819443 8485231
-147.33397 -49.061752 67.17585 10063235
-146.51129 -47.601418 68.617714 6510930
-147.02895 -47.798618 68.21389 7695716
-146.76753 -46.720074 68.843201 5853769
-146.61275 -45.474796 69.631813 6643029
-146.85928 -46.015835 69.100739 5722439
-146.24887 -44.571888 70.684425 7761509
-146.79805 -44.853004 70.079765 7300447
-145.50185 -43.492958 80.62542 8288114
-146.0594 -43.573399 80.246407 9011323
-145.55676 -43.912621 78.607025 7038307
-145.93361 -43.914204 77.904839 7038307
-146.40025 -43.916183 77.024796 7761772
-145.94542 -43.920437 74.333557 11182228
-146.21294 -43.921616 73.805763 7564643
-146.65466 -43.923542 72.92395 9406078
-146.42348 -44.159115 71.712936 10261132
-146.84961 -44.210556 71.265175 7761509
-145.70198 -42.647152 80.871994 7695980
-145.53609 -41.486664 81.481941 8879735
-145.92442 -41.845055 81.085693 8353651
-145.57634 -40.68034 81.809776 8616307
-145.15691 -39.705711 82.494743 9340286
-145.71666 -39.778233 82.117897 8682356
-145.58987 -38.6712 82.680275 8222061
-145.14384 -37.630501 83.410233 8353645
-145.70502 -37.698795 83.033974 7565154
-145.42256 -36.695927 83.64566 9406331
-145.7375 -37.079536 83.283913 8617328
-145.12453 -35.555588 84.327003 10260870
-145.60593 -35.734875 83.951508 8946036
-145.22816 -34.738121 84.619385 10261128
-145.79175 -34.800713 84.243988 8617328
-145.17343 -33.2812 85.288307 9538176
-145.36275 -33.834507 84.930244 9603968
-145.20328 -32.662418 85.539772 9275003
-145.69553 -32.921093 85.122986 9537918
-145.31271 -31.688461 85.896851 8880245
-145.09598 -30.655437 86.574097 8748404
-145.66864 -30.841253 86.046509 9537918
-144.79031 -29.208595 88.610489 8879479
-145.11537 -29.535585 87.693054 8682100
-145.29422 -30.006069 87.007698 9142651
-144.25426 -28.400679 97.62381 6840669
-144.75563 -28.652342 97.203209 5393738
-144.13829 -28.881285 95.78476 8748151
-144.7128 -28.883385 94.915382 9734782
-144.41258 -28.890711 90.5448 9866371
-144.8679 -28.896473 89.860962 9866371
-145.45073 -28.927851 89.255112 9734788
-143.84335 -27.306902 98.356743 7564651
-144.19864 -27.758362 97.93927 7827821
-144.05363 -26.684032 98.499084 7564651
-144.55612 -26.933323 98.078819 8288371
-143.97137 -25.187698 99.204674 8288371
-144.17354 -25.749334 98.833748 8025200
-143.91019 -24.67194 99.468185 8156527
-144.49467 -24.796064 99.051941 8288365
-144.07938 -23.701548 99.787971 8353651
-143.84395 -22.533508 100.44476 9932169
-144.20859 -22.92602 100.04724 8945532
-143.92143 -21.597311 100.80634 9011581
-143.67473 -20.613066 101.38969 7564131
-144.14108 -20.781244 101.02736 9932169
-143.80708 -19.673441 101.71885 7695717
-143.60309 -18.464745 102.37395 9735300
-144.07097 -18.630627 102.0117 9932167
-143.7308 -17.682529 102.63712 9537665
-143.52908 -16.309717 103.36252 8485745
-143.89792 -16.699007 102.96378 8814198
-143.62386 -15.569701 103.70952 8814710
-143.62813 -14.638771 104.55495 9735812
-144.15085 -14.912928 103.98318 8814710
-142.53076 -13.482976 114.19852 11512481
-142.96022 -13.498272 113.97845 8092019
-142.42337 -13.850651 112.43297 9537665
-142.9633 -13.8523 111.7455 9012605
-143.50041 -13.853983 111.05585 11182484
-143.54117 -14.075459 105.9256 9209215
-142.68901 -12.595688 114.48422 8947070
-143.10115 -13.056613 114.08973 8092019
-142.30261 -11.465915 115.14075 9538950
-142.85304 -11.557219 114.82917 12828083
-142.61899 -10.467025 115.39405 8552312
-142.94426 -10.812717 115.08991 7565675
-142.65015 -9.6819172 115.70206 7565419
-142.28452 -8.7735462 116.25808 11709347
-142.8372 -8.8615513 115.94702 8682867
-142.49367 -7.7157683 116.58987 14406603
-142.12454 -6.5148811 117.26814 9209470
-142.67873 -6.6001034 116.95752 10459278
-142.50807 -5.5699716 117.46678 9933193
-141.8925 -4.4719381 118.22523 11380639
-142.47308 -4.7064414 117.83998 10130830
-142.32176 -3.7944093 118.291 9867401
-142.90363 -4.0287642 117.90514 9537409
-142.31393 -2.7188177 118.73798 9537665
-142.15964 -1.5087193 119.31328 9011832
-142.74309 -1.741226 118.92741 10261132
-142.28336 -0.59147501 119.70743 7959144
-142.19864 0.3305375 120.51396 8288109
-142.70772 0.098788798 120.06307 7959144
-150.90488 -72.428238 31.796329 8419959
-151.0621 -72.489433 31.184175 7498857
-151.36008 -72.48838 30.182968 7827821
-151.11797 -72.521637 29.189602 8288371
-151.19687 -72.478477 28.26137 7564651
-151.26613 -72.41806 27.144371 7564651
-151.24521 -72.333153 26.201229 7038302
-150.77454 -71.683228 32.869396 7893615
-151.18712 -71.894432 32.153885 8025201
-151.64346 -72.029366 31.379663 7038307
-151.70473 -72.247421 25.340088 6906456
-152.15865 -72.148361 24.287397 9143162
-152.13809 -72.0597 23.157749 9275777
-152.11542 -71.986183 22.217644 9933193
-152.08714 -71.912895 21.278849 9012606
-152.04663 -71.82531 20.153795 9472900
-152.00748 -71.752617 19.217617 9011579
-151.96271 -71.680229 18.282743 9142908
-152.60748 -71.582802 17.335028 9471614
-152.76627 -71.482994 16.142918 8879734
-152.70325 -71.411118 15.206753 7827566
-152.64893 -71.353905 14.458869 10261391
-150.5475 -70.610245 33.806885 9734788
-150.94171 -70.824677 33.186916 9931651
-151.46899 -70.894234 32.484558 8813171
-152.60628 -71.31105 13.898461 11905701
-152.54607 -71.25412 13.152327 9537411
-152.77284 -71.169563 12.183293 8747893
-153.31544 -71.085556 11.35992 11379356
-153.20622 -71.000923 10.239031 10063496
-153.09366 -70.918533 9.1204872 8879734
-152.99498 -70.850464 8.1901255 7958888
-153.20331 -70.773193 7.2755232 10129545
-153.69537 -70.67292 6.1866884 9866629
-153.57918 -70.605385 5.2556715 8946039
-153.45772 -70.538155 4.3263884 9735297
-153.52727 -70.44355 3.1251471 10787728
-154.13861 -70.373886 2.487942 10851980
-150.68651 -69.738892 34.141396 9537409
-151.26576 -69.884644 33.329292 10720651
-154.08406 -70.347191 2.1157057 10851980
-153.97232 -70.293877 1.3723032 9734270
-153.79924 -70.214279 0.25909734 9734270
-153.64977 -70.148277 -0.6666286 8616307
-154.43466 -70.050034 -1.6000392 8418928
-154.24059 -69.971153 -2.7130573 9142907
-154.0054 -69.877251 -3.8224723 8089963
-154.7222 -69.754448 -4.7728167 10261643
-154.47525 -69.659203 -5.6966772 9734784
-154.22395 -69.564331 -6.6178942 8550768
-154.92514 -69.440323 -7.5828485 8484720
-150.54724 -68.657906 34.947395 9011579
-151.0184 -68.850311 34.243416 8091248
-154.6086 -69.326836 -8.6879416 7367525
-154.81924 -69.216904 -9.6361284 9275520
-155.01945 -69.105545 -10.585528 9801348
-154.99748 -68.979782 -11.71082 8485488
-155.34615 -68.862122 -12.67785 9405307
-155.04848 -68.767014 -13.594024 10523273
-155.40851 -68.655136 -14.5066 9208441
-155.39935 -68.542389 -15.513015 8814710
-155.08577 -68.448097 -16.425825 8616819
-150.41457 -67.471107 35.806656 7039331
-150.84206 -67.826065 35.062092 8419956
-151.31438 -68.016571 34.357056 7039331
-155.91321 -68.378387 -17.083145 8089963
-155.74323 -68.332375 -17.634283 7827307
-155.45609 -68.255905 -18.550678 10458767
-155.67516 -68.172462 -19.528955 10722192
-155.8867 -68.088959 -20.509037 8683123
-155.58243 -68.012726 -21.423079 7038298
-156.29698 -67.920952 -22.481052 10261899
-155.91586 -67.829597 -23.577623 10130313
-156.55556 -67.721397 -24.832783 8682867
-156.29033 -67.660515 -25.563126 10391944
-155.95506 -67.584686 -26.473747 9800323
-156.64406 -67.490463 -27.561861 8287342
-156.36618 -67.42984 -28.2904 7892581
-150.53767 -66.718948 36.089821 7893866
-151.11598 -66.881058 35.267998 7564643
-156.22603 -67.399536 -28.653881 8813680
-156.91826 -67.294296 -29.562559 7892581
-156.49986 -67.193901 -30.460989 8287592
-157.09705 -67.065704 -31.559959 9208435
-156.66624 -66.965584 -32.456379 7827298
-157.25354 -66.836174 -33.566566 8222576
-156.81032 -66.736366 -34.460804 8485747
-157.39282 -66.607819 -35.583397 7630186
-156.97348 -66.523643 -36.483761 9274238
-157.72783 -66.450912 -37.460472 8813945
-150.32442 -65.734062 36.931675 9736070
-150.86684 -65.792992 36.215054 9472126
-151.22746 -66.267609 35.485016 11378324
-157.47391 -66.402214 -38.001801 9209467
-157.21811 -66.3536 -38.541782 8288109
-157.87898 -66.263382 -39.712837 8288109
-157.52829 -66.198509 -40.432419 6906201
-158.09207 -66.09082 -41.796852 5920074
-157.73068 -66.025909 -42.515171 7564387
-158.28242 -65.916954 -43.892941 13682362
-157.91029 -65.851982 -44.609966 13943996
-158.44997 -65.741791 -46.00103 8288366
-158.16313 -65.693001 -46.538044 7893608
-157.87486 -65.644402 -47.073769 9012089
-158.38869 -65.528999 -48.475334 8354159
-157.95187 -65.446648 -49.175285 9209467
-150.2059 -64.285484 37.924484 10854036
-150.51987 -64.792839 37.234039 9341569
-151.11143 -64.808968 36.480572 7894639
-158.82686 -65.383194 -49.867172 9209467
-158.37367 -65.297493 -50.56424 8419951
-158.90543 -65.168419 -51.790157 9932681
-158.44255 -65.082779 -52.485096 10064779
-159.08252 -64.973747 -53.548424 9011579
-158.62016 -64.892059 -54.244965 9800836
-159.13559 -64.788002 -55.708294 13024949
-158.69225 -64.718605 -56.412731 10263180
-159.42105 -64.647964 -57.537689 11841700
-158.96768 -64.5783 -58.241219 10789268
-159.69257 -64.506538 -59.380177 8815227
-150.04007 -63.396858 38.650627 7038307
-150.42943 -63.708263 37.9795 9012605
-150.9465 -63.913628 37.209465 10854036
-159.34529 -64.454071 -59.907326 8815227
-159.11299 -64.419258 -60.257919 9143419
-159.71355 -64.328537 -61.586765 7827819
-159.23885 -64.25856 -62.286545 8289140
-159.83051 -64.166542 -63.629509 10459537
-159.34531 -64.096359 -64.327461 10459537
-160.05165 -64.020531 -65.510193 10589580
-159.5564 -63.950237 -66.206779 8681843
-160.25822 -63.873093 -67.403946 8484977
-159.75279 -63.80262 -68.099068 11379612
-160.32158 -63.706532 -69.484497 9537665
-159.93448 -63.653618 -70.004227 8681835
-160.36424 -63.538261 -71.576584 10459017
-150.20959 -62.73708 38.821636 7630435
-150.75386 -62.78688 38.107986 7564643
-151.11838 -63.250805 37.37928 8617075
-160.52069 -63.386013 -73.50824 9604737
-161.20805 -63.303528 -74.763885 10855060
-160.66206 -63.2323 -75.452988 8288627
-161.34447 -63.148472 -76.72374 8287600
-160.78821 -63.077133 -77.410812 11510936
-161.46581 -62.991924 -78.696686 10262156
-161.041 -62.938259 -79.210876 9142647
-161.54173 -62.784557 -80.425377 9537662
-161.0558 -62.747814 -81.153778 8813940
-150.00864 -61.496674 39.796913 6511954
-150.3999 -61.802444 39.126564 7959400
-150.94014 -61.725693 38.491806 9208699
-161.65474 -62.325947 -81.537109 8222577
-161.40071 -62.051239 -82.409836 9538434
-161.27754 -61.641472 -83.22345 10591119
-149.94209 -60.459808 40.745281 6775130
-150.24297 -60.724903 40.051285 6511954
-150.73914 -60.882183 39.290672 7169884
-161.78111 -60.969124 -82.745468 12433061
-161.42288 -61.020569 -83.446754 9998728
-161.18452 -60.761223 -84.161667 8616823
-149.79414 -59.313969 43.036858 8617847
-150.06123 -59.488266 42.059486 8881275
-150.33672 -59.813007 41.094322 7235682
-150.6978 -60.102016 40.236187 8288365
-161.87518 -60.214909 -83.615547 9143166
-161.55534 -60.093399 -84.520889 7696236
-161.46581 -59.771347 -85.301376 8090736
-161.31102 -59.57943 -85.966354 7038307
-148.27605 -58.643723 58.762955 9669762
-148.65935 -58.685398 58.087749 13288889
-149.17474 -58.78212 57.132767 8683898
-148.65546 -58.956715 55.01268 9012606
-148.98389 -58.958591 54.116386 10590865
-149.37111 -58.960842 53.03846 9142907
-149.688 -58.962711 52.138092 11051416
-149.11072 -58.965656 50.131355 8025969
-149.46913 -58.967876 49.05254 10722707
-149.81982 -58.9701 47.971184 10656655
-150.10619 -58.971943 47.068184 11380377
-150.27541 -58.973049 46.525562 9209467
-149.57686 -58.99271 44.930931 7563619
-150.00345 -59.056824 44.076118 7563619
-150.42804 -59.12191 43.218704 7038307
-161.96915 -59.321102 -86.316971 6840919
-161.46155 -59.32745 -87.298431 8814715
-162.11507 -59.219898 -88.662598 9275266
-161.99811 -59.008537 -89.461899 9538438
-161.79274 -58.874882 -90.265968 7564651
-148.22987 -57.619064 59.570301 10656913
-148.60704 -57.607189 58.943565 9538433
-148.98534 -57.834789 58.144424 10327948
-149.24686 -58.136566 57.489105 7565675
-162.42245 -58.190166 -89.595032 9538438
-162.08884 -58.028378 -90.367912 8551544
-161.91423 -57.52771 -91.103348 10393745
-148.05614 -56.381454 60.744202 13023917
-148.34787 -56.765694 59.979317 10327434
-148.90016 -56.709454 59.089157 9012089
-162.48643 -56.917625 -90.48394 7893357
-162.02408 -56.851917 -91.422775 8616819
-148.23233 -55.748333 60.898384 10656141
-148.73036 -55.768856 60.044895 9932677
-149.0715 -55.938496 59.349606 9341054
-162.65396 -56.164848 -90.748962 8616819
-162.40245 -55.941353 -91.379532 8616819
-161.97675 -55.947674 -92.169685 6576980
-148.1216 -54.629612 61.881805 8683123
-148.59302 -54.807411 60.960983 9932419
-148.9128 -55.040623 60.256325 12300195
-162.56552 -55.032475 -91.729996 8616819
-162.16826 -55.083931 -92.434616 8024682
-161.99275 -54.815056 -92.955978 9931902
-147.91635 -53.667706 62.912933 11182484
-148.34671 -53.771641 62.113869 8025451
-148.77696 -53.877083 61.313904 8617076
-162.51476 -54.126575 -92.477638 8945267
-162.08731 -54.133915 -93.270416 8681835
-147.92686 -52.456814 63.758106 8288365
-148.29204 -52.755417 62.93013 9603968
-148.73201 -52.873142 62.105026 7762025
-148.93588 -53.215141 61.517891 8616566
-162.60973 -53.444962 -92.791611 9931902
-162.4689 -52.993931 -93.379547 9208179
-162.10146 -53.00082 -94.060478 9471351
-147.71677 -51.499966 64.793701 8089963
-148.04044 -51.725857 64.087479 9143419
-148.573 -51.807945 63.13187 10064777
-162.69168 -52.082932 -93.620132 11181969
-162.53075 -51.783451 -94.136383 11576727
-147.65666 -50.489273 65.615128 9866374
-147.98155 -50.7136 64.908058 8484721
-148.51202 -50.752853 63.986382 8288365
-148.63016 -51.165707 63.493217 10064777
-162.75444 -51.022964 -94.266823 10590863
-147.59474 -49.479984 66.438721 8813686
-147.82278 -49.696121 65.90052 8945272
-148.31259 -49.729992 65.051163 9142651
-148.63805 -49.955032 64.342438 8813686
-162.90659 -50.263367 -94.530197 7564642
-147.70267 -48.633083 66.860184 8024424
-148.24297 -48.66806 65.92511 8419184
-148.41322 -49.132641 65.307327 9142651
-147.55263 -47.603394 67.845657 9866368
-147.99066 -47.696827 67.042183 9537403
-148.4281 -47.791428 66.237808 8353391
-147.48146 -46.433582 68.528969 5919050
-147.91682 -46.638008 67.921028 8090216
-148.2211 -47.007568 67.145111 11379349
-147.59312 -45.596828 68.924881 5985611
-148.19391 -45.806198 68.100708 7892581
-147.27576 -44.262497 70.815796 6906457
-147.76373 -44.500278 69.958809 6971738
-147.99342 -45.012577 69.197441 7169117
-146.7464 -43.631516 79.797318 9208958
-147.21899 -43.913445 79.04744 8880246
-146.67783 -43.917374 76.495499 11182228
-147.04437 -43.918957 75.787872 8814203
-147.49835 -43.92094 74.901222 9406339
-147.76819 -43.922127 74.367859 10064011
-147.29066 -43.959339 71.917336 7761509
-147.86203 -44.027935 71.316681 6116941
-146.35799 -42.781555 80.408623 8287859
-146.9269 -42.737175 80.077278 9011323
-146.61192 -41.689812 80.729652 8682615
-147.18239 -41.64336 80.398193 9734788
-146.73082 -40.745716 81.069275 8748151
-146.481 -39.609962 81.720139 8682099
-147.02966 -39.950104 81.232986 8616307
-146.63409 -38.688564 82.028511 8945782
-146.53 -37.591362 82.571274 8814196
-146.87077 -37.91151 82.221245 9537662
-146.03114 -36.282936 83.449944 11904668
-146.52959 -36.758053 82.934883 11247252
-146.25168 -35.684425 83.574615 8617328
-146.73048 -35.809261 83.224541 10984080
-146.01143 -34.201611 84.369598 8682867
-146.49098 -34.730244 83.842865 8617329
-146.12987 -33.521294 84.593002 9077625
-146.71165 -33.722767 84.145844 9077625
-146.32181 -32.639801 84.858856 10196105
-146.83102 -33.040592 84.369629 8682867
-146.10524 -31.438595 85.516388 9801089
-146.3819 -31.847744 85.167099 10458505
-146.27443 -30.657484 85.834465 9866626
-146.8074 -30.952654 85.294632 11379348
-145.92293 -29.289251 87.621712 8616307
-146.17912 -29.690689 86.821297 9011063
-146.58073 -30.122721 86.108185 9537918
-144.89709 -28.237312 97.29731 5393738
-145.40031 -28.489576 96.875381 7893099
-145.05498 -28.884624 94.392052 9734782
-145.50789 -28.886208 93.692093 10063749
-145.95784 -28.887831 92.990318 9208435
-146.10036 -28.973097 88.687759 9208444
-145.00551 -27.53503 97.537415 6840669
-145.49292 -27.642771 97.188446 6117203
-145.10066 -26.716965 97.836372 8287857
-145.70653 -27.017731 97.329659 6840669
-144.9462 -25.396076 98.509949 7367263
-145.30751 -25.876986 98.075836 7893352
-145.04041 -24.575768 98.810455 8419951
-145.64839 -24.873274 98.303864 6511954
-144.91783 -23.540565 99.339233 7367263
-145.19716 -23.87957 99.018005 8025193
-144.94569 -22.624096 99.722961 7630441
-145.44521 -23.145039 99.185768 8288365
-144.6602 -21.382143 100.44307 7038307
-145.13353 -21.731201 99.997292 7038307
-144.87189 -20.749842 100.58864 7301221
-145.3815 -20.993168 100.16668 8089963
-144.59225 -19.230215 101.42662 7958377
-144.99158 -19.803965 100.92836 8089963
-144.80389 -18.594685 101.57361 8221549
-145.31517 -18.835684 101.15169 8089963
-144.89261 -17.736284 101.89427 8747893
-144.66257 -16.645899 102.51328 9603202
-145.17514 -16.884758 102.09142 8418928
-144.44283 -15.347968 103.40337 8682867
-144.81699 -15.681033 102.88255 9537920
-144.67702 -14.720166 103.83347 7827558
-143.8222 -13.529101 113.53661 9012606
-143.90068 -13.855269 110.53674 8814451
-144.4317 -13.857038 109.84236 9998467
-144.3017 -14.101374 105.41705 7301475
-144.84842 -14.118596 105.01611 8616560
-143.38359 -12.171193 114.31283 7565675
-143.89008 -12.635683 113.86987 8552312
-143.63191 -11.393964 114.50865 10985880
-143.95795 -11.740834 114.20367 9538950
-143.6644 -10.608435 114.81608 10524817
-143.2988 -9.698513 115.3727 7564651
-143.85345 -9.7881069 115.06001 8222323
-143.68484 -8.7610931 115.56697 7762028
-143.31064 -7.3663745 116.32764 13156535
-143.7381 -7.7672162 115.94997 10064266
-143.5284 -6.4941974 116.57872 15130325
-143.49463 -5.6303444 116.95145 10656401
-143.34412 -4.7177634 117.40225 8748922
-143.92769 -4.953598 117.01493 11379356
-143.51349 -3.7615848 117.71201 9340030
-143.18488 -2.4315538 118.42336 9537409
-143.52844 -2.9686751 118.03122 8089963
-143.35435 -1.4689658 118.73566 9208700
-143.05582 -0.51693594 119.37984 7433056
-143.59775 -0.59522623 119.05222 10327437
-143.00424 0.56133807 120.31149 7959144
-143.3924 0.25236952 119.85452 10525071
-143.18095 1.0315875 121.64223 6511954
-151.96472 -72.443947 29.16312 11577503
-152.14459 -72.449005 28.248837 10261904
-152.38107 -72.366714 27.344336 8419959
-152.17746 -72.326797 26.551525 7564651
-151.6972 -71.625244 31.771223 11378324
-152.13329 -71.611183 31.16169 9668995
-152.36749 -71.93541 30.382654 7695463
-152.59619 -72.168373 29.379246 11380124
-152.82535 -72.289169 28.18446 9933195
-152.48978 -72.27034 25.975323 8090730
-153.11099 -72.18708 25.196579 8616818
-153.09767 -72.112488 24.248131 9735043
-153.07867 -72.038223 23.300947 10196364
-153.04932 -71.949501 22.165882 9933193
-153.01921 -71.875832 21.221281 8552312
-152.98358 -71.802467 20.278023 8092019
-152.93419 -71.714813 19.147686 10788759
-153.19872 -71.629189 18.181648 9142649
-153.77766 -71.545158 17.374596 8616306
-153.70691 -71.458023 16.242373 8287342
-153.64249 -71.385811 15.300356 8813686
-153.60141 -71.342537 14.735774 8617081
-151.86658 -70.73642 32.077774 8813171
-152.48669 -70.817566 31.245327 8616307
-153.55827 -71.299438 14.171859 11905701
-153.48225 -71.227837 13.233137 8813687
-153.8734 -71.143044 12.332963 10260875
-154.25798 -71.058174 11.429888 9142651
-154.14796 -70.973595 10.302034 7432800
-154.05371 -70.904686 9.3640337 7958888
-153.95422 -70.836212 8.4276724 7958888
-154.30171 -70.73999 7.3279638 9932166
-154.66339 -70.65741 6.4123383 9735043
-154.54617 -70.589478 5.4753199 7498594
-154.39923 -70.508293 4.3530531 7695972
-154.27141 -70.440941 3.4196169 8617330
-155.14058 -70.369881 2.8781016 8617080
-151.65161 -69.5653 33.030952 10457736
-152.16693 -69.795494 32.248638 8352877
-152.55389 -70.134514 31.56435 9734531
-155.05849 -70.329529 2.316108 8617080
-154.91771 -70.262505 1.3808396 9340545
-154.74246 -70.182442 0.26084447 9537149
-154.89774 -70.1008 -0.7342937 9142649
-155.38361 -70.01712 -1.6096981 8418928
-155.18729 -69.937752 -2.7295406 8748149
-155.00867 -69.86763 -3.6604583 8089963
-155.52007 -69.762207 -4.5163679 10919571
-155.43826 -69.630646 -5.7319956 10195078
-155.49013 -69.519058 -6.7347918 8879477
-155.89212 -69.410324 -7.6299696 8089963
-151.77975 -68.804871 33.312538 9405307
-152.3839 -68.855408 32.523228 8813427
-155.57199 -69.296257 -8.7418756 8089963
-155.96428 -69.18647 -9.6439848 8222320
-155.98518 -69.072876 -10.651271 8486258
-155.69745 -68.97683 -11.574265 9472383
-156.37433 -68.847137 -12.571805 9668222
-156.01398 -68.732292 -13.678397 10062979
-156.68115 -68.601494 -14.688228 8814710
-156.3701 -68.507065 -15.60967 9406847
-156.08121 -68.424538 -16.530935 9275261
-151.76369 -67.642204 34.009995 9208697
-152.15221 -67.972885 33.328701 8156011
-156.82874 -68.334564 -17.565487 10196106
-156.4812 -68.242165 -18.672626 9932678
-156.70288 -68.158173 -19.657545 10261901
-156.91695 -68.074081 -20.644218 7433315
-156.60947 -67.997398 -21.564178 8946039
-157.33218 -67.904945 -22.629602 9209211
-157.01195 -67.828255 -23.549665 9538176
-157.0329 -67.746086 -24.521435 8879991
-157.39374 -67.658051 -25.548653 9208187
-157.05568 -67.581718 -26.465515 9931651
-157.75473 -67.486755 -27.561069 9537409
-157.47447 -67.425713 -28.294651 9537409
-151.52003 -66.67247 34.881245 9405819
-152.0162 -66.798241 34.18388 11313043
-152.4724 -67.053329 33.461376 9011574
-157.25037 -67.374847 -28.84148 9537409
-158.03107 -67.287468 -29.574875 8813686
-157.60887 -67.186409 -30.479387 8616558
-158.215 -67.057297 -31.586058 8287592
-157.78027 -66.956497 -32.488533 7893354
-158.37656 -66.82618 -33.60659 8090991
-157.92937 -66.7257 -34.506889 8222576
-158.56285 -66.613907 -35.646843 9931651
-158.14745 -66.532265 -36.555305 9931651
-158.74277 -66.426353 -37.903141 5920074
-151.29791 -65.42939 35.884617 8813939
-151.68784 -65.751526 35.206535 10063235
-152.20695 -65.96846 34.427265 10063235
-158.3992 -66.361084 -38.62854 9538174
-158.05324 -66.295921 -39.352005 8288109
-158.8058 -66.221214 -40.352287 7498850
-158.36104 -66.139633 -41.256229 6511955
-159.01768 -66.047371 -42.450932 7564387
-158.55954 -65.965775 -43.353294 8682867
-159.2068 -65.872246 -44.561836 11182486
-158.73505 -65.790627 -45.462471 9735297
-159.46959 -65.712151 -46.504738 8288109
-158.98494 -65.630486 -47.404037 8485745
-159.60826 -65.531593 -48.637917 6445394
-159.27763 -65.4692 -49.167 5919050
-151.47208 -64.763893 36.053158 8748660
-152.01938 -64.823547 35.329998 8945525
-159.05258 -65.426193 -49.517456 9209467
-159.70975 -65.318985 -50.56665 9011320
-159.25113 -65.232819 -51.267067 10853012
-159.90305 -65.124298 -52.327805 8354934
-159.43512 -65.038162 -53.026604 8092019
-159.90475 -64.909935 -54.468529 9932935
-159.46642 -64.840248 -55.178123 10458766
-160.20775 -64.770302 -56.299534 12564654
-159.75932 -64.70031 -57.008301 11315612
-160.26781 -64.594063 -58.497883 9736838
-160.77203 -64.486488 -60.001469 8815227
-151.37958 -63.460308 36.928658 8617075
-151.67911 -63.876427 36.309601 8617332
-152.13675 -63.945114 35.693924 8682867
-160.42067 -64.433777 -60.531509 8157555
-160.06786 -64.381065 -61.060047 8815227
-160.79355 -64.30722 -62.224953 10262415
-160.31345 -64.236755 -62.929024 11906725
-160.79007 -64.126282 -64.4599 10195338
-161.01195 -63.979053 -66.355812 8681843
-161.21931 -63.830379 -68.264885 9011321
-160.70741 -63.759541 -68.963188 7563619
-161.28131 -63.662479 -70.361328 10195590
-161.85503 -63.56414 -71.774307 10590091
-161.45631 -63.510574 -72.296585 10591375
-151.18394 -62.420364 37.780556 7564643
-151.57683 -62.732925 37.104248 8617075
-152.09859 -62.939274 36.327759 8617075
-161.05635 -63.457088 -72.817276 9012344
-162.02213 -63.410797 -73.723648 8090987
-161.61566 -63.357109 -74.244568 10855060
-162.17424 -63.255959 -75.686401 9536894
-161.76006 -63.202168 -76.205872 7038307
-162.3111 -63.099529 -77.662384 10851980
-161.88908 -63.045631 -78.180374 11115664
-162.23302 -62.827534 -79.312614 8681581
-161.88759 -62.805771 -79.869957 8088931
-151.29079 -61.813259 37.999657 8617075
-151.86322 -61.806625 37.283501 8617075
-162.49112 -62.464024 -79.680832 5391682
-162.34673 -62.107422 -80.443359 7299675
-162.10699 -61.800728 -81.341698 7367271
-150.96799 -60.294487 39.660198 7367263
-151.23802 -60.487976 39.08313 8551537
-151.59805 -60.842548 38.268982 10064009
-152.01622 -60.938084 37.596909 8617075
-162.66116 -61.177525 -80.739792 6510930
-162.4485 -60.958687 -81.367004 7695204
-162.06734 -60.964218 -82.154724 7893614
-151.20193 -59.392365 40.890076 8090987
-151.38448 -59.61021 40.158417 8354159
-151.74008 -59.913036 39.159645 9275005
-162.67509 -60.331558 -81.726166 6510930
-162.52574 -60.137066 -82.38781 8156270
-162.4608 -59.820278 -83.17627 9669507
-162.20706 -59.568214 -84.20005 7564393
-149.49457 -58.574879 56.759865 7565675
-149.7345 -58.788086 56.027561 8815739
-150.19345 -58.70879 55.211533 10854806
-150.25394 -58.959717 54.168488 11380380
-150.57758 -58.961605 53.262794 10261643
-149.9991 -58.964581 51.235683 10920087
-150.36551 -58.966827 50.150452 9012606
-150.72403 -58.969063 49.062611 12103843
-151.01697 -58.970924 48.154121 10262154
-151.19014 -58.972042 47.608299 9209467
-150.44246 -58.974159 45.9823 9340286
-150.71652 -58.976002 45.075497 9340286
-150.98552 -58.97784 44.167168 7629927
-151.1069 -59.025135 43.118614 7893613
-151.25513 -59.104874 42.275597 8288369
-151.27068 -59.255421 41.495476 8288367
-162.87643 -59.312561 -84.547379 7038307
-162.47433 -59.315842 -85.334389 8616823
-163.27388 -59.217251 -86.507385 6511954
-162.95067 -59.126751 -87.343796 8090474
-162.72667 -58.947845 -88.235214 6906716
-149.4229 -57.337067 57.761925 8617075
-149.63026 -57.769978 57.104382 8026224
-150.11127 -57.876923 56.218174 10065803
-163.06844 -58.225254 -88.319511 8748661
-162.72192 -58.110405 -89.080086 9538434
-149.21275 -56.496899 58.714096 8617075
-149.53055 -56.735115 58.009262 8222317
-150.08421 -56.755074 57.062531 9013118
-150.33009 -57.029263 56.453247 8815739
-163.33176 -57.278046 -88.56485 10525328
-162.99841 -57.114372 -89.338753 9538434
-162.82457 -56.612038 -90.074188 7564643
-149.39992 -55.564087 59.063095 8748917
-149.87038 -55.749092 58.139069 6839895
-150.23067 -56.060852 57.310272 8355189
-163.39749 -56.003433 -89.452133 10854293
-163.03845 -55.933403 -90.193192 8814712
-162.78905 -55.709808 -90.824791 8814203
-149.29338 -54.629833 59.907822 11905951
-149.72563 -54.713181 59.120495 10524556
-150.05836 -54.815132 58.487541 10787470
-163.56216 -55.248714 -89.713577 11512223
-163.31091 -55.023796 -90.34481 10392719
-162.88513 -55.028339 -91.136406 9669253
-149.14151 -53.639549 60.869057 9011066
-149.57851 -53.680378 60.103836 11181460
-150.0177 -53.804291 59.275772 12103073
-163.47511 -54.114189 -90.693748 7564651
-163.15518 -54.11771 -91.288391 8814203
-162.83516 -54.121792 -91.883011 8682615
-149.09457 -52.553207 61.722195 7564393
-149.36934 -52.766777 61.107109 9273981
-149.86356 -52.730675 60.300293 11313046
-163.4446 -53.070171 -91.503082 8617079
-163.06534 -52.984329 -92.272987 8748402
-162.87886 -52.533386 -92.94606 9735038
-148.88718 -51.590637 62.757561 10064777
-149.26706 -51.737953 62.012489 7367269
-149.78804 -51.725124 61.143936 8813944
-163.45326 -51.889393 -92.33783 9735038
-163.03171 -51.774551 -93.207603 10787468
-148.89659 -50.378368 63.605408 6511954
-149.05663 -50.795174 63.038788 8288365
-149.53789 -50.783718 62.236172 7038043
-149.93681 -50.868027 61.504074 7038307
-163.71217 -51.158901 -92.380821 9735038
-163.35019 -50.937035 -93.216568 9406330
-162.98744 -50.716015 -94.053001 8288365
-148.953 -49.736332 63.967773 6840663
-149.48866 -49.817978 63.007229 5985867
-149.81375 -50.046528 62.296631 5920074
-163.58607 -50.138119 -93.351936 9406331
-163.22281 -49.916977 -94.18956 8288365
-148.8519 -48.625797 64.929428 10064265
-149.24136 -48.83881 64.121521 7103836
-149.64218 -48.919411 63.388794 5920074
-163.82214 -49.338726 -93.487328 11906725
-163.45825 -49.11739 -94.326202 6775126
-148.73486 -47.677284 65.802475 9603714
-149.17245 -47.774174 64.996185 10261644
-149.60994 -47.872467 64.189133 7959145
-163.77708 -48.277897 -94.335876 6511954
-163.51146 -48.206707 -94.883163 6511954
-148.61632 -46.42844 66.89196 9340025
-148.92046 -46.799774 66.115028 9735300
-149.39462 -46.915119 65.234032 10261644
-163.92972 -47.516571 -94.599686 6511954
-163.84793 -47.062523 -95.079468 7893351
-148.5052 -45.538418 67.918434 9866368
-148.8873 -45.750385 67.012489 7892581
-149.31181 -45.840042 66.197235 10064265
-149.57292 -45.985443 65.596138 10064265
-148.27034 -44.385036 69.761559 6510930
-148.66223 -44.677208 68.92897 7629666
-149.04503 -44.820984 68.070801 7563616
-149.24277 -45.205715 67.171371 8024937
-148.04628 -43.549347 79.031776 9011832
-147.78645 -43.915848 77.981682 6511954
-148.34618 -43.918247 76.911789 9208960
-148.03584 -43.923309 73.833496 8485229
-148.47769 -43.925259 72.940704 9142902
-148.91458 -43.927219 72.045502 8484974
-148.29118 -44.080132 70.86441 6510930
-148.86346 -44.150284 70.259239 6510930
-147.50172 -42.630764 79.769402 8879994
-148.02919 -42.811272 79.36515 9011832
-147.84578 -41.777733 79.930359 9734787
-147.55861 -40.648159 80.601509 8747893
-147.99335 -40.812046 80.261749 8879479
-147.59517 -39.676048 81.00412 8221549
-148.23924 -39.900974 80.508667 7563619
-147.36447 -38.530502 81.646469 8814196
-147.81992 -38.902588 81.202934 8287341
-147.60355 -37.664082 81.876572 8879989
-148.08253 -38.202663 81.345917 7563619
-147.16327 -36.416336 82.692505 8090987
-147.6577 -36.684395 82.270294 8945783
-147.56961 -35.628208 82.785217 10392973
-148.07216 -36.105743 82.266579 10064265
-147.07283 -34.527164 83.572105 8682867
-147.56049 -34.707104 83.192474 9735556
-147.40669 -33.624256 83.759583 9603969
-147.67596 -33.967316 83.44371 11183001
-147.05251 -32.437984 84.495583 9932934
-147.61073 -32.765152 84.008118 9209211
-147.15781 -31.613722 84.78994 11446174
-147.73061 -31.671833 84.410873 8682867
-147.44489 -30.67457 85.111092 10063494
-147.05806 -29.371674 86.625374 10457479
-147.25331 -29.849243 85.947029 9996929
-145.97572 -28.534737 96.499352 9734788
-146.55299 -28.580349 96.121964 9997959
-146.18158 -28.88876 92.638565 9208435
-146.62596 -28.890413 91.933235 10852236
-147.1772 -28.892481 91.048897 9471611
-147.0761 -29.041887 87.832321 9142393
-146.19958 -27.653696 96.746208 8484722
-146.57578 -27.939705 96.388161 8089963
-145.92046 -26.391388 97.471275 8089963
-146.42775 -26.642477 97.047318 8747892
-146.14371 -25.507326 97.719772 8550768
-146.52142 -25.791353 97.361694 8089963
-145.79088 -24.454144 98.399063 8288365
-146.29951 -24.702667 97.975395 7300958
-146.10521 -23.529936 98.608772 7893607
-146.39226 -23.849506 98.291214 6906712
-145.72974 -22.303474 99.377815 8288365
-146.06323 -22.681877 99.005775 8419439
-145.83801 -21.592955 99.621628 7366239
-146.332 -21.693485 99.271744 8616306
-146.01787 -20.669664 99.914215 9274235
-146.54707 -21.059092 99.416245 8089962
-145.7466 -19.61268 100.54457 8089963
-146.19756 -19.744244 100.20782 8089963
-145.8676 -18.604013 100.91098 8418927
-146.48399 -18.894508 100.40222 13550517
-145.67053 -17.772747 101.39668 7563619
-146.16702 -17.868481 101.04727 8682099
-145.76749 -16.632483 101.83412 8484720
-146.27455 -17.150953 101.29356 8090992
-145.57394 -15.534434 102.54354 8748147
-146.13544 -15.699673 102.06429 8748147
-145.39809 -14.534116 103.55682 9734270
-145.76253 -14.867466 103.0253 9406075
-144.90439 -13.568222 112.9818 11708572
-144.82793 -13.858277 109.32003 11182484
-145.22195 -13.859618 108.79613 11051418
-145.6144 -13.860859 108.271 11906725
-145.396 -14.136071 104.61391 9734270
-145.94449 -14.153749 104.21057 10851980
-144.68422 -12.550064 113.50967 11708572
-145.02321 -12.973829 113.16682 11839901
-144.79718 -11.587114 113.84966 10787215
-144.48457 -10.556511 114.42967 13550517
-145.01768 -10.722034 114.09643 10195335
-144.70448 -9.6899014 114.67737 9537923
-144.67003 -8.149951 115.32898 7564651
-144.75951 -8.6955462 115.05968 10327437
-144.58089 -7.6033354 115.59851 7696492
-144.63548 -6.6047764 115.98273 9275263
-144.3688 -5.6438489 116.51125 10524305
-144.95436 -5.881238 116.12234 8090995
-144.54033 -4.6878643 116.81985 10919062
-144.35982 -3.5875039 117.36297 11379356
-144.55659 -3.8948836 117.13845 9472388
-144.35565 -2.6042318 117.77013 9668995
-144.94467 -3.1344447 117.25883 10261390
-144.1304 -1.5188975 118.32922 8813686
-144.57098 -1.5211531 118.10923 9735043
-144.25818 -0.59718287 118.72293 10853780
-144.78886 -0.83000362 118.28561 11380380
-144.25241 0.4451139 119.59245 9538176
-144.46873 0.096474707 119.18695 9538176
-143.62491 1.0319839 121.42513 6511954
-144.29282 1.0326747 121.09854 9538432
-153.06403 -72.309418 27.0863 9341059
-153.1219 -72.306923 26.716293 9341059
-152.8575 -71.532768 30.096996 7563619
-153.07562 -71.749146 29.298565 9801095
-153.53259 -71.749199 28.361771 7960176
-153.77046 -71.954788 27.401684 7960176
-153.62302 -72.162323 26.422255 10392973
-154.00603 -72.139526 25.343695 10984595
-154.0489 -72.091248 24.398796 9011833
-154.02882 -72.016571 23.445572 10525072
-153.99806 -71.927284 22.303288 9604485
-153.96678 -71.853165 21.352688 9341571
-153.92989 -71.779381 20.403427 9736329
-153.879 -71.691216 19.266026 9736329
-154.46985 -71.60672 18.458338 8089963
-154.72942 -71.520477 17.482182 8089963
-154.657 -71.432899 16.342844 8550514
-154.59119 -71.360207 15.394862 10261132
-152.83659 -70.660019 30.856794 8616307
-153.08313 -70.723824 30.331408 7892584
-153.49446 -70.832115 29.453495 7564133
-153.82475 -70.920746 28.749542 7565675
-154.5199 -71.287834 14.448462 8813686
-154.42784 -71.20134 13.314658 10261130
-154.98703 -71.116287 12.485312 8681843
-155.21011 -71.030617 11.50045 8616307
-155.09967 -70.946159 10.36573 9932166
-155.00397 -70.876953 9.4218779 10853012
-154.90294 -70.808022 8.4796896 9405822
-155.50336 -70.710884 7.479208 9735043
-155.61806 -70.628113 6.4520521 10129545
-155.49924 -70.559731 5.5092173 7169373
-155.35017 -70.478081 4.3799629 6971994
-155.53137 -70.395561 3.3849442 7893354
-152.97458 -69.768364 31.218529 9011065
-153.51564 -69.705811 30.29977 8418671
-153.70764 -70.016396 29.684967 9734531
-156.04294 -70.311691 2.5190213 8617080
-155.87265 -70.230766 1.389497 8288116
-155.72539 -70.163666 0.45015931 9997445
-155.89291 -70.085899 -0.48891521 8615790
-156.34215 -69.983818 -1.6194904 9733757
-156.17719 -69.917343 -2.5586612 8287859
-156.00554 -69.850464 -3.4957206 8418928
-156.76378 -69.736847 -4.4574175 10064007
-156.51282 -69.640297 -5.3938513 10195078
-156.53226 -69.515083 -6.5282698 9471872
-156.92259 -69.399292 -7.4908075 8089963
-152.76859 -68.775063 32.086166 7893095
-153.30933 -68.826752 31.333073 8222320
-153.67213 -69.138435 30.445099 7893355
-156.65399 -69.303543 -8.4239111 10985628
-156.97722 -69.167091 -9.5802488 9999243
-157.01872 -69.05928 -10.531659 8288627
-156.72838 -68.962593 -11.460792 9078397
-157.41391 -68.831978 -12.464335 9932934
-157.11151 -68.735641 -13.393048 10063494
-157.29646 -68.62178 -14.36419 8550510
-157.50276 -68.520393 -15.339314 8156780
-157.16924 -68.427292 -16.454363 8814710
-152.55199 -67.510857 33.09486 7564643
-153.00946 -67.770531 32.36821 9208696
-153.45839 -68.070862 31.619076 8288627
-157.92706 -68.336777 -17.495701 9932678
-157.63567 -68.259209 -18.425028 9011320
-157.33978 -68.181908 -19.351738 8814712
-158.0817 -68.089989 -20.409826 10262415
-157.71039 -67.997276 -21.521816 8091761
-158.37918 -67.888664 -22.779978 7039331
-158.12047 -67.82695 -23.520756 9275519
-157.79306 -67.750023 -24.444408 9077625
-158.50963 -67.655594 -25.533426 7038307
-158.16942 -67.578674 -26.456995 9208187
-158.42056 -67.507843 -27.284744 10063495
-158.66666 -67.436989 -28.114109 8813686
-152.89162 -66.654182 33.16663 8682866
-153.2654 -66.922485 32.540215 8748402
-158.44913 -67.389091 -28.666523 9537409
-158.28249 -67.348358 -29.030396 9537409
-158.81641 -67.199257 -30.315784 8748405
-158.4738 -67.11805 -31.042667 8419440
-158.99556 -66.967682 -32.339268 7169635
-159.07782 -66.851463 -33.35553 7038307
-159.15285 -66.735504 -34.372314 7038307
-158.80992 -66.662933 -35.100014 7038307
-159.42032 -66.557503 -36.444702 9931651
-158.99823 -66.475502 -37.357307 7893094
-152.59406 -65.646194 34.127968 10721420
-153.11656 -65.866127 33.342667 9011574
-159.76871 -66.401581 -38.350998 10261124
-159.33368 -66.319427 -39.262817 8287849
-160.01044 -66.227806 -40.452866 7038307
-159.56178 -66.145668 -41.363258 8419440
-160.13733 -66.036346 -42.749485 8682867
-159.76709 -65.970558 -43.476173 8682867
-160.14027 -65.827019 -45.238892 8551281
-159.75822 -65.761269 -45.963303 8288109
-160.30493 -65.649292 -47.376896 8288109
-160.37949 -65.559608 -48.451508 8090470
-160.50731 -65.470467 -49.334263 8813936
-152.45404 -64.459442 34.995281 8682867
-152.8477 -64.782768 34.311783 9734784
-153.37164 -65.000778 33.525749 8879476
-160.16652 -65.405457 -49.863663 8090730
-160.60101 -65.254082 -51.274284 9275265
-161.03008 -65.101219 -52.696224 8092019
-160.56413 -65.017509 -53.401333 7038557
-161.31755 -64.945763 -54.515968 8617331
-160.87558 -64.875458 -55.23135 9341054
-161.4063 -64.769897 -56.7202 7039331
-160.95287 -64.699425 -57.433319 9868169
-161.70163 -64.627708 -58.579689 8092019
-161.23793 -64.557045 -59.291847 9209984
-152.57648 -63.706627 35.279747 8682867
-153.14093 -63.849174 34.486668 8945782
-161.509 -64.413162 -61.163689 10985879
-162.00819 -64.303276 -62.694481 8618105
-161.52278 -64.232376 -63.402786 10788502
-162.25572 -64.156616 -64.593697 7564643
-161.76006 -64.085472 -65.300728 9208698
-161.98267 -63.937012 -67.212013 9932679
-162.19081 -63.787102 -69.136612 11380381
-162.6478 -63.671474 -70.72403 9340027
-162.25209 -63.617805 -71.250061 11905692
-162.83092 -63.518448 -72.676155 8681843
-152.54933 -62.559883 35.981758 9143161
-152.86662 -62.856693 35.409775 9340540
-153.29958 -62.971886 34.798058 8682867
-162.42714 -63.464569 -73.200706 8681843
-162.99864 -63.363834 -74.641609 9405566
-162.58702 -63.309795 -75.164803 9932162
-163.17772 -63.182106 -76.393402 7038307
-163.01291 -63.012032 -77.275368 8879479
-162.80449 -62.863827 -78.380653 9997697
-152.26212 -61.635162 36.88163 8617075
-152.66786 -61.829983 36.257755 10064006
-153.20689 -61.877983 35.551842 14602182
-163.33475 -62.137569 -78.442879 9339768
-163.00177 -62.048897 -79.202789 7694689
-162.82216 -61.840572 -79.844002 5391682
-152.56302 -60.664841 37.230522 8946042
-152.98848 -61.014915 36.354759 10589838
-163.39946 -60.95034 -79.397217 5852232
-163.01942 -60.952747 -80.185265 6181966
-162.80701 -60.733192 -80.812622 7957861
-152.02214 -59.379406 39.935211 9341054
-152.30675 -59.519413 39.129257 11051160
-152.49728 -59.846416 38.298943 9669253
-152.80138 -60.049488 37.659103 7696236
-163.50656 -60.163795 -80.279015 6839638
-163.25858 -59.938248 -81.282516 7431774
-163.11024 -59.684303 -82.109421 7957861
-150.67458 -58.442738 54.86652 11381404
-151.07574 -58.52108 54.13504 10394253
-151.31432 -58.764324 53.236412 10723218
-150.95859 -58.963867 52.173317 10591380
-151.26991 -58.965752 51.263283 7631211
-151.63646 -58.96801 50.1689 9275265
-151.93608 -58.969887 49.254921 10261391
-152.1132 -58.971016 48.705742 8617081
-151.36107 -58.973156 47.061668 8353647
-151.64162 -58.975014 46.149361 9340286
-151.91704 -58.976871 45.235397 12103591
-152.18654 -58.978729 44.319733 10459278
-152.50298 -58.980949 43.218864 7498856
-151.82945 -59.048695 41.845131 9209467
-152.16621 -59.103233 41.15028 8090987
-152.5856 -59.172245 40.279469 9341054
-152.83612 -59.214207 39.755638 10591121
-163.57614 -59.308598 -83.168182 8288362
-163.17702 -59.31052 -83.956619 7038307
-163.99617 -59.215542 -85.127884 6775130
-163.74567 -58.99501 -86.152588 8814198
-163.44188 -58.850353 -87.101181 8616819
-150.48215 -57.458031 55.891743 11381404
-150.79887 -57.702091 55.184578 10789267
-151.37721 -57.774109 54.159267 10789267
-164.11594 -58.245502 -86.280769 9011576
-163.65999 -58.173832 -87.218185 8419440
-150.70837 -56.662201 56.077393 7565675
-151.1432 -56.713657 55.308517 8486517
-151.50211 -57.032444 54.477081 8617842
-164.07732 -57.135101 -87.238831 9735300
-163.69067 -56.984612 -88.105263 10985622
-150.56067 -55.687527 57.020363 8289140
-151.04295 -55.761425 56.155457 8288370
-151.4187 -55.922668 55.407837 8287342
-164.3152 -56.142399 -87.569328 9538432
-164.07768 -55.919609 -88.205353 10985879
-163.72224 -55.848873 -88.948082 10854293
-150.36223 -54.710522 58.050186 9537150
-150.84935 -54.743114 57.206673 7234654
-151.26323 -54.774117 56.487461 8287342
-164.30908 -55.091263 -88.415588 9538432
-163.94824 -55.01894 -89.156929 9012089
-163.69778 -54.793472 -89.788445 8814203
-150.3412 -53.652859 58.838825 10589836
-150.73759 -53.74435 58.106041 8418927
-151.10672 -53.916191 57.362064 7958377
-164.27083 -54.153847 -89.179581 8748919
-163.79477 -54.111378 -90.099022 7827823
-150.1785 -52.515915 59.922859 12432037
-150.50058 -52.75061 59.212925 10260871
-151.0329 -52.844486 58.249432 8616306
-164.31801 -53.425964 -89.616051 9538438
-164.14354 -53.154408 -90.137375 8156787
-163.74226 -52.976086 -91.015114 8353909
-150.12584 -51.493935 60.739674 10260617
-150.4416 -51.675316 60.078438 10129030
-150.87643 -51.825485 59.238953 7892840
-151.0947 -52.196682 58.606682 8089963
-164.33733 -52.28894 -90.399277 9143424
-164.09395 -51.912163 -91.125305 9800835
-163.79153 -51.612347 -91.905861 9735038
-150.25252 -50.651787 61.126266 8945782
-150.78751 -50.740143 60.162071 8221800
-151.11157 -50.973831 59.449669 7564643
-164.36681 -50.969616 -91.29512 8748403
-163.9453 -50.852882 -92.166077 8090728
-149.88576 -49.242008 62.748741 5920074
-150.18266 -49.555569 62.02507 7629662
-150.57378 -49.762394 61.218803 9406073
-150.90492 -50.004356 60.488529 9603709
-164.6268 -50.238953 -91.336426 8682608
-164.26494 -50.015247 -92.173111 6774869
-163.90245 -49.792374 -93.010384 11379348
-149.98842 -48.642536 63.00285 6183246
-150.48039 -48.68161 62.146172 8945782
-150.91722 -48.785358 61.336365 9932675
-164.50188 -49.215897 -92.306824 6511954
-164.13882 -48.992935 -93.145302 9209211
-150.00641 -47.49704 63.7887 7959145
-150.2621 -47.708889 63.207005 7301215
-150.70616 -47.820633 62.379414 8814198
-164.73895 -48.416088 -92.440628 6511954
-164.37534 -48.192898 -93.280273 6380626
-164.01102 -47.970612 -94.120651 6511954
-149.72527 -46.533882 64.948654 10064265
-150.08961 -46.778309 64.160721 9471872
-150.65883 -46.668095 63.280304 8287854
-164.73372 -47.16264 -93.353683 6117970
-164.34274 -47.054321 -94.161674 6446162
-164.19934 -46.600899 -94.756226 7695717
-149.80112 -45.425106 65.91021 9735812
-150.1591 -45.584827 65.114204 9209726
-150.45792 -45.849644 64.262672 8945784
-150.76109 -46.067772 63.535774 8813942
-164.713 -45.997711 -94.349777 5985612
-164.35948 -45.93367 -95.113037 6774615
-149.54704 -44.473778 67.740501 5919050
-149.89648 -44.570545 67.175224 8222317
-150.12238 -44.818733 66.26593 9275262
-150.47156 -44.902473 65.556343 8814969
-164.77138 -45.303028 -95.351868 5919050
-164.94087 -44.883972 -95.715355 7695717
-148.53813 -43.305882 78.835022 7959144
-149.02995 -43.589226 78.407753 7564129
-148.80687 -43.920246 76.017281 7564651
-149.2618 -43.922249 75.11982 7827819
-149.71175 -43.924244 74.219849 6511954
-149.34557 -43.929214 71.147469 7168860
-149.75974 -44.012531 70.021729 7958632
-149.6312 -44.206177 69.085533 6116172
-150.099 -44.224091 68.208099 6379600
-148.85878 -42.678635 78.911621 8090216
-149.45056 -43.017815 78.398315 7892581
-148.39053 -41.60178 79.671349 8813680
-149.0197 -41.750301 79.21846 8945265
-148.68266 -40.660889 79.902794 9208186
-149.07558 -40.855103 79.575607 8813680
-148.39021 -39.50108 80.589813 7563619
-148.88516 -39.776726 80.163895 8089963
-148.57047 -38.600445 80.871109 7958377
-149.07407 -38.749298 80.495209 9800580
-148.68958 -37.649311 81.212288 8090219
-148.41876 -36.776237 81.760193 8813942
-148.99173 -36.845882 81.375954 8550513
-148.67094 -35.704525 82.071732 8813942
-148.36775 -34.602871 82.739357 7958377
-148.82819 -34.79512 82.371155 7958377
-148.52371 -33.693943 83.039322 10195851
-148.19814 -32.557899 83.735718 10524814
-148.68483 -32.679493 83.382133 10393228
-148.4977 -31.750351 83.902817 9274747
-148.14957 -30.572863 84.766342 9603455
-148.65585 -30.805286 84.274063 9143161
-148.07849 -29.452705 85.791565 9734015
-148.42171 -29.787333 85.276375 11312790
-147.28491 -28.567163 95.674545 9735297
-147.60872 -28.876194 95.296997 9735555
-147.50545 -28.893724 90.516678 9734788
-147.8315 -28.894966 89.983192 8616307
-148.26343 -28.89662 89.270142 8616307
-148.05347 -29.111959 86.971191 8879221
-148.707 -29.159458 86.394653 10851980
-147.42148 -27.790682 95.92971 9209211
-147.00784 -26.68519 96.669495 10063750
-147.52187 -26.809469 96.296822 9406333
-147.27699 -25.673201 96.945572 10458507
-146.88089 -24.742035 97.598251 11050643
-147.46413 -24.781879 97.219627 11971745
-147.13046 -23.682154 97.907394 9800580
-147.48651 -24.136856 97.487984 11379356
-146.82306 -22.585119 98.577637 9142651
-147.40802 -22.62129 98.199646 10129546
-147.0479 -21.692495 98.828972 9340030
-147.42955 -21.974586 98.469193 10261132
-146.76257 -20.423195 99.560944 9142651
-147.20886 -20.750784 99.141281 9340030
-146.98695 -19.526617 99.814278 9866371
-147.37016 -19.807112 99.454285 8089962
-146.62767 -18.468578 100.49962 13550517
-147.14334 -18.711166 100.0742 11906466
-146.89735 -17.469067 100.76871 8617335
-147.23509 -17.84724 100.39435 8946043
-146.5603 -16.295084 101.48961 8089963
-146.94557 -16.57288 101.12959 8090992
-146.88853 -15.552028 101.71498 8353391
-147.09659 -15.882863 101.33679 8090992
-146.49384 -14.17158 103.8058 9997442
-146.65704 -14.586477 102.86512 9406075
-147.07872 -14.882514 102.1953 8418927
-145.84682 -13.377632 112.5909 9406591
-146.42949 -13.624196 112.19953 10261900
-146.00462 -13.862201 107.74426 8617337
-146.65085 -13.864305 106.86322 7761515
-145.81645 -12.521065 112.95815 8945270
-145.62547 -11.342141 113.53876 8353134
-146.0392 -11.655937 113.20378 8089962
-145.84332 -10.670578 113.70711 8747891
-145.8129 -9.8095684 114.077 9471870
-145.62059 -8.6250277 114.66064 10064776
-146.13376 -9.0918989 114.21318 10064006
-145.66219 -7.5348997 115.08908 9670275
-145.49344 -6.4986668 115.59994 9012601
-146.05655 -6.5848055 115.28445 8420720
-145.56961 -5.6169505 115.92529 8157294
-145.31728 -4.7438321 116.41048 10261390
-145.75845 -4.7496915 116.18874 9143424
-145.47624 -3.6906748 116.76536 9275265
-145.97797 -4.0640988 116.36212 7565675
-145.16298 -2.4462986 117.4338 9341313
-145.64281 -2.6802669 117.09883 8881019
-145.23369 -1.5246648 117.77832 9932935
-145.82497 -1.7589622 117.38783 9341313
-145.0522 -0.36818236 118.49973 11380380
-145.46713 -0.67804188 118.06265 10459278
-145.3877 0.28161529 118.88908 9867141
-145.18651 1.033507 120.66161 9538432
-153.99049 -71.401787 28.014515 7565675
-154.2764 -71.473808 27.299253 7696747
-154.43265 -71.762192 26.484173 8945015
-154.7924 -71.802643 25.472443 9537151
-154.78319 -71.96479 24.514788 9537663
-154.94383 -71.973946 23.584724 9406847
-154.95641 -71.904861 22.442123 9406847
-154.92389 -71.83036 21.485456 8092019
-154.88579 -71.756088 20.530195 9736329
-154.83339 -71.667389 19.385597 11379868
