# .PCD v0.7 - Point Cloud Data file format
VERSION 0.7
FIELDS x y z rgb
SIZE 4 4 4 4
TYPE F F F U
COUNT 1 1 1 1
WIDTH 1193
HEIGHT 1
VIEWPOINT 0 0 0 1 0 0 0
POINTS 1193
DATA ascii
72.932091 -28.053188 -167.36633 9209473
73.724709 -28.048809 -166.99852 10853012
74.461746 -27.972946 -166.68538 9602945
73.113014 -27.255489 -167.60248 9340542
73.882828 -26.961174 -167.36174 9602945
74.752708 -27.019373 -166.93275 9537152
75.628716 -26.692694 -166.65553 10195079
76.528404 -26.515757 -166.30713 9932163
74.208412 -26.088354 -167.56061 9931910
74.837097 -25.867384 -167.35626 10984340
75.831535 -25.863659 -166.89404 10721422
76.825714 -25.860775 -166.43159 8682867
77.455414 -25.641123 -166.22635 8682867
75.132599 -25.21113 -167.48212 9932163
75.818123 -25.062784 -167.22206 9471869
76.758514 -24.987143 -166.81389 8682867
77.754318 -24.984943 -166.35049 9735298
78.385323 -24.765289 -166.14459 9011579
76.873878 -24.220665 -167.0681 8880503
77.774826 -24.065275 -166.71042 9209468
78.685913 -24.107756 -166.26852 9011579
79.517921 -23.887865 -165.96895 9932163
77.966454 -23.157707 -166.98564 9143675
78.855049 -23.009836 -166.63075 10130057
79.730553 -23.071981 -166.19759 9209211
80.615913 -22.745209 -165.91603 9011832
79.190933 -22.129219 -166.82788 10655630
79.826134 -21.908281 -166.62053 9603711
80.74073 -21.9522 -166.17644 9275004
81.646957 -21.798178 -165.81575 9275004
80.129753 -21.246071 -166.74495 10655630
80.766464 -21.024908 -166.53709 9669761
81.770027 -21.025221 -166.06886 9735555
82.773735 -21.026186 -165.60048 10130313
83.41201 -20.805971 -165.39139 9735555
81.07209 -20.361216 -166.66188 9209211
81.710381 -20.139803 -166.45338 9735555
82.715706 -20.14056 -165.98407 9867398
83.721291 -20.141972 -165.51437 9735299
84.361206 -19.9214 -165.3047 10261132
82.841042 -19.364077 -166.23862 9209211
83.76049 -18.976093 -165.96609 9274236
84.709114 -19.033314 -165.50049 10261900
85.497963 -18.738428 -165.25133 9603460
84.048164 -18.141592 -166.16835 9208443
84.778877 -17.87499 -165.93494 9406078
85.701309 -17.921469 -165.48586 9143164
86.510025 -17.923531 -165.10773 7894639
87.154602 -17.70208 -164.8963 9012606
85.003334 -17.249969 -166.0822 9735299
85.850151 -17.027802 -165.77669 8681843
86.660332 -17.029686 -165.39796 8551798
87.470802 -17.031897 -165.01895 9736071
88.117172 -16.809992 -164.8069 10065289
86.16481 -16.356497 -165.90057 9011320
86.824234 -16.135834 -165.71411 9209470
87.717903 -16.006323 -165.3931 8881017
88.601761 -15.92061 -165.03758 9012601
89.633812 -15.594069 -164.79196 9144187
90.487785 -15.487836 -164.48221 10262156
89.01683 -15.045062 -165.54205 8288621
89.628532 -15.046829 -165.25481 7367519
90.661751 -14.879167 -164.9873 9012091
91.640884 -14.732334 -164.70891 10262668
92.717735 -14.628533 -164.32291 8156524
94.533073 -14.254514 -164.76584 7959144
95.558167 -14.258494 -164.26805 10853778
96.583687 -14.262906 -163.76871 10261384
107.824 -14.154249 -163.03278 10261643
108.40821 -14.15297 -162.64404 8089963
109.18522 -14.151264 -162.12265 7761253
114.6643 -13.853004 -161.7599 8092011
115.18003 -13.844215 -161.2571 8092011
114.76566 -13.375358 -161.90407 8092011
115.41154 -13.078823 -161.42006 7827819
115.54691 -12.122049 -161.77539 7433063
116.25344 -11.760976 -161.26466 7762027
116.45464 -10.768107 -161.57367 8617332
117.10268 -10.471706 -161.08742 9208951
116.7407 -9.7548265 -161.80957 9208435
117.37225 -9.6990891 -161.21672 9340022
117.5068 -8.8619089 -161.51178 9734781
118.11698 -8.6942987 -160.99704 9471608
117.79601 -8.0531626 -161.64021 11905701
118.36694 -7.8051658 -161.20512 9208435
118.88496 -7.8001442 -160.69798 8879735
118.61762 -6.9136143 -161.41371 9011320
119.2692 -6.8268671 -160.81694 9668994
118.90919 -6.1003642 -161.54216 9011320
119.48159 -5.8520885 -161.10567 8682355
120.00057 -5.8480892 -160.59712 8353135
119.64132 -5.1189604 -161.32289 8353646
120.2944 -4.8211083 -160.83243 9340284
121.0685 -4.1311512 -160.42308 9931905
31.380871 -38.580788 -173.43253 8682867
32.227081 -38.825432 -173.36833 8880247
33.288532 -38.949837 -173.30275 9800836
34.24173 -38.75946 -173.04503 10524047
29.287384 -37.660004 -173.70645 9932162
30.346987 -37.909889 -173.64673 10853263
31.421223 -37.951607 -173.66347 8682867
32.28244 -37.985962 -173.67657 8617075
33.350384 -38.017868 -173.63574 9866629
34.362236 -37.986725 -173.30006 9011065
35.162197 -37.953682 -172.98994 7037274
35.776665 -37.719688 -172.83377 7037274
27.195364 -36.746773 -173.97771 9208435
28.341286 -36.954147 -173.93607 10786443
29.324858 -37.031258 -173.93718 9735041
30.398865 -37.070831 -173.9547 11905697
31.475105 -37.111633 -173.9718 9340540
32.337902 -37.145287 -173.98523 8090731
33.407623 -37.176285 -173.94376 9537664
34.421185 -37.145699 -173.60689 9143679
35.222504 -37.113335 -173.29594 7300960
36.22213 -37.074051 -172.90759 7234653
37.036293 -36.833626 -172.67325 8484976
25.317589 -35.84726 -174.25027 7960168
26.374392 -36.090309 -174.19298 9735038
27.22994 -36.118279 -174.20827 9734267
28.301353 -36.154434 -174.2269 10260612
29.425438 -36.067192 -174.29224 9603969
30.394798 -36.138153 -174.29521 9801348
31.452528 -36.337898 -174.25377 9077625
32.163311 -36.505669 -174.21367 7564643
34.542267 -36.371002 -173.8625 11380891
35.332077 -36.143753 -173.63281 8092019
36.299782 -36.022766 -173.28952 7037531
37.299564 -35.985687 -172.90025 6642516
38.020565 -36.099518 -172.56425 7893095
23.439396 -34.953194 -174.52094 7169885
24.282127 -35.186974 -174.46062 7104603
25.360321 -35.009186 -174.55765 8815477
26.430208 -35.042038 -174.57748 9735812
27.287706 -35.069206 -174.59309 9669504
28.304739 -35.155113 -174.59198 9340537
29.20962 -35.343605 -174.55011 9932678
36.470085 -35.071327 -173.59468 7894125
37.379475 -34.933464 -173.28159 6510930
38.24398 -35.173027 -172.83823 8748661
39.170444 -34.961739 -172.54697 9538176
40.191196 -34.62883 -172.26561 8484976
20.514448 -33.619125 -174.92107 12827310
21.356737 -33.849464 -174.86197 12629418
22.412437 -34.086365 -174.80692 8879734
23.478745 -34.115089 -174.82816 9275772
24.33321 -34.138931 -174.84488 8552561
25.413811 -33.959885 -174.94243 9144186
26.410814 -34.059708 -174.93567 10393742
27.119055 -34.221825 -174.89748 9735812
37.627884 -34.294128 -173.43257 8617075
38.244873 -34.062714 -173.27431 9406847
39.244747 -34.02961 -172.88342 9538433
40.242809 -33.997681 -172.49289 8748917
41.148186 -33.864822 -172.17935 8353646
18.421684 -32.733086 -175.18234 9736073
19.476294 -32.965973 -175.12866 9670019
20.540083 -32.990593 -175.15134 11971489
21.392338 -33.011169 -175.16924 8155755
22.45929 -33.037926 -175.19119 11774366
23.527992 -33.065781 -175.21286 10524555
24.309494 -33.157028 -175.20279 10722447
25.016972 -33.317047 -175.16545 9210491
39.388695 -33.225861 -173.14124 10261899
40.311714 -33.15493 -172.79628 8748660
41.309502 -33.124878 -172.40503 8156780
42.245342 -33.027687 -172.06528 9735297
42.920845 -32.86869 -171.85487 9735297
16.327595 -31.852478 -175.4416 9999751
17.468287 -32.042427 -175.4062 11906470
18.444416 -32.104424 -175.41263 9736073
19.508539 -32.127422 -175.43585 9209727
20.574177 -32.151421 -175.45883 8813941
21.427971 -32.171417 -175.47691 9405821
22.385149 -32.300007 -175.45844 12563624
23.343376 -32.429512 -175.43968 13550517
40.441719 -32.379211 -173.04868 9603969
41.231117 -32.159309 -172.81628 9998727
42.196629 -32.047684 -172.47015 8682868
43.193481 -32.020428 -172.07822 10524556
44.131676 -31.743578 -171.80806 10063488
14.459928 -30.793209 -175.91028 8552311
15.511567 -31.012608 -175.81068 10064523
16.36125 -31.027191 -175.82646 9604483
17.424656 -31.046385 -175.84566 9736072
18.441431 -31.146034 -175.81125 11446177
19.541813 -31.288942 -175.75253 8288624
20.534678 -31.379887 -175.74324 10787728
21.240856 -31.535736 -175.70355 10063750
42.26886 -31.203005 -172.77296 9406334
43.300453 -30.975365 -172.51396 10195077
44.212067 -30.992649 -172.12831 10326660
45.183609 -30.889971 -171.8105 10918541
46.130638 -30.710318 -171.56853 10458503
46.728485 -30.697575 -171.33705 11314844
6.8803897 -29.744678 -176.68423 10853012
7.5156131 -29.747587 -176.6823 10853012
8.5747604 -29.753136 -176.67836 9340801
9.6982994 -29.887144 -176.54518 9077882
10.47222 -29.957376 -176.48477 9012089
11.589 -30.052843 -176.42627 8222829
12.583541 -30.176235 -176.34488 8090987
13.432737 -30.186848 -176.35393 8354415
14.394895 -30.101292 -176.44157 8355191
15.559618 -30.218079 -176.38455 10590612
16.198807 -30.228399 -176.39514 9341315
44.409462 -30.353136 -172.56004 13549237
45.329269 -30.233337 -172.28668 10326661
46.248489 -30.114317 -172.01288 11116691
47.159134 -30.135025 -171.62718 9932933
48.189121 -29.89138 -171.51553 11972774
49.084335 -29.752666 -171.34132 13354939
-65.808067 -29.414536 -186.76508 8815220
-64.91291 -29.413767 -187.08202 9867141
-58.710258 -29.403666 -185.61871 8486000
-57.82061 -29.402861 -185.9012 9078138
-56.929794 -29.402046 -186.18008 8618105
-50.905029 -29.391983 -184.56612 10260617
-50.020416 -29.391134 -184.81143 10260871
-49.135048 -29.390282 -185.05246 11183001
-42.847382 -29.37982 -183.40002 8682867
-41.968765 -29.378929 -183.60616 9142906
-40.86895 -29.377806 -183.85851 10984593
-40.208576 -29.377129 -184.00682 10984593
-33.894211 -29.366425 -182.19652 8616822
-33.239586 -29.365721 -182.31935 9143166
-32.147789 -29.364542 -182.51883 9867143
-31.273495 -29.363588 -182.67418 10262156
-25.21158 -29.416092 -181.04791 9209210
-24.10318 -29.386261 -181.02211 8814969
-23.217915 -29.362961 -180.99991 8683385
-22.124861 -29.349401 -181.06276 8091249
-21.040863 -29.348145 -181.19582 9209726
-20.390207 -29.347385 -181.2726 11380121
-16.086868 -29.495352 -179.8174 7761509
-15.216197 -29.476208 -179.78381 6511954
-14.346063 -29.457514 -179.74883 9011316
-13.260028 -29.434853 -179.70311 9471612
-12.175096 -29.412773 -179.65544 10853012
-11.308421 -29.395725 -179.61572 10261388
-10.226077 -29.375065 -179.56413 10459023
-9.1448774 -29.354982 -179.51053 11577503
-8.2810583 -29.339539 -179.46609 10130057
-7.2038093 -29.327623 -179.45044 8946295
-5.4467216 -29.589493 -178.3692 10986905
-4.3764625 -29.572565 -178.30737 12434352
-3.5213368 -29.559566 -178.25644 10261391
-2.4530175 -29.543905 -178.19069 9538435
-1.3853563 -29.528973 -178.12291 8485494
-0.31929335 -29.514709 -178.05301 9406850
0.74656737 -29.501173 -177.98094 8616820
1.5978247 -29.490824 -177.92184 8813939
2.6620033 -29.478601 -177.84592 8354419
3.7251747 -29.466915 -177.76797 10261132
4.5751729 -29.458208 -177.70399 9800581
5.6372657 -29.449263 -177.63065 8419696
6.700932 -29.450935 -177.61571 9471355
49.490528 -29.532236 -171.72766 14605262
50.094788 -29.524054 -171.50775 14605262
51.099983 -29.510977 -171.14035 10393229
52.104488 -29.498585 -170.77094 9143163
52.706436 -29.49155 -170.54846 9011320
55.114395 -29.234346 -171.0643 8485233
56.136986 -29.232559 -170.7328 9340286
57.157417 -29.230772 -170.39481 8748921
58.175972 -29.228977 -170.05104 8090992
58.98925 -29.227539 -169.77145 8090992
67.429008 -29.18491 -169.47763 9341054
68.053139 -28.961269 -169.27646 13221556
69.044746 -28.95113 -168.81819 10524817
70.035698 -28.941931 -168.35983 9341570
70.660164 -28.719919 -168.15781 10262156
69.020935 -28.156046 -169.1487 10918805
69.957275 -28.0751 -168.74464 9538436
70.94944 -28.06683 -168.28537 10130570
71.575127 -27.845013 -168.08272 10262156
70.15081 -27.247595 -168.9868 10130314
71.025002 -26.917137 -168.71196 9670019
71.896584 -26.973 -168.28313 10262156
72.778381 -26.822243 -167.93253 9801605
71.223511 -26.106506 -168.94505 9209467
72.050789 -25.882502 -168.64937 9538433
72.96032 -25.920429 -168.20996 9801605
73.858147 -25.762825 -167.85468 9866885
72.342896 -25.225506 -168.77705 8814710
72.972252 -25.003008 -168.573 8946296
73.969093 -24.997673 -168.11038 8682868
74.909897 -24.920446 -167.70271 9537406
75.595726 -24.771967 -167.44261 9932163
73.265846 -24.344887 -168.70056 8814710
73.896439 -24.122385 -168.49585 7959145
74.894707 -24.117796 -168.03224 8747893
75.892708 -24.114012 -167.56841 8682867
76.52417 -23.892839 -167.36284 8682867
75.097008 -23.283352 -168.27313 8813686
75.979317 -22.953524 -167.99425 10458508
76.855721 -23.013638 -167.56148 8880503
77.633339 -22.718714 -167.31737 8288366
76.275246 -21.988485 -168.24402 13022893
77.020996 -21.912817 -167.92662 9866627
77.82251 -21.910921 -167.55367 8222573
78.750999 -21.865242 -167.1391 9077368
77.120583 -21.250824 -168.14679 9866629
77.956779 -21.027929 -167.84653 9077624
78.873116 -21.070526 -167.40182 9340021
79.780228 -20.914869 -167.0414 10063747
78.258759 -20.364044 -167.97331 9208435
78.895714 -20.141432 -167.76584 10260871
79.900925 -20.140242 -167.29741 9931904
80.850784 -20.065865 -166.88422 9011319
79.199356 -19.476 -167.89247 11379356
79.898849 -19.119734 -167.70975 9734783
80.879738 -19.03018 -167.28828 9011576
81.887215 -19.030075 -166.81827 8419440
82.673813 -18.734047 -166.57065 8814197
81.019791 -18.140186 -167.58165 8616563
81.862694 -17.917093 -167.27843 8484977
82.87252 -17.917379 -166.80717 8748149
83.625267 -17.843616 -166.48573 9208443
82.171349 -17.247534 -167.40434 8353135
82.902092 -16.979445 -167.17155 8089963
83.825745 -17.024784 -166.72235 9603457
84.580132 -16.951042 -166.40016 9340285
85.279732 -16.802967 -166.13348 8681843
83.124397 -16.352814 -167.32045 8089963
83.984924 -16.131641 -167.04248 9867398
84.795952 -16.132425 -166.66328 9867398
85.738884 -16.089331 -166.24664 9406591
87.638847 -15.479347 -165.82083 9143934
84.996185 -15.475053 -167.05956 9538177
85.884987 -15.257401 -166.82666 9735812
86.805428 -15.30261 -166.35869 9538433
87.808929 -14.871976 -166.33757 8814970
88.789391 -14.724905 -166.0713 8486001
89.867226 -14.620591 -165.69635 6511958
91.868263 -14.246032 -166.05309 6906719
92.893272 -14.248915 -165.55911 9077627
93.713058 -14.251566 -165.16298 6511954
105.8661 -14.158506 -164.31264 9011320
106.65089 -14.156805 -163.80321 13484727
107.43359 -14.155102 -163.29053 9142907
112.83652 -13.871163 -163.28864 9275261
113.63122 -13.871183 -162.76706 9275261
114.14812 -13.861993 -162.26318 8092011
113.65655 -13.201916 -163.05443 9143931
114.43134 -13.063122 -162.39246 8289134
114.58318 -12.00531 -162.78317 9143163
115.29408 -11.695352 -162.24203 7762027
114.75592 -10.983828 -163.13472 9143163
115.49844 -10.733096 -162.5323 7696233
115.67784 -9.8887062 -162.78693 8946041
116.2972 -9.6800489 -162.28412 8945781
116.60199 -8.7916145 -162.43791 9537405
117.34592 -8.5417089 -161.83362 10063747
116.80949 -7.8209372 -162.72926 9405566
117.44353 -7.7659726 -162.13361 11116183
117.53817 -6.8423662 -162.51208 10195081
118.19115 -6.7553978 -161.91405 9208699
117.92147 -5.8644948 -162.63428 9734531
118.44206 -5.8602915 -162.12427 7761509
119.01507 -5.6119132 -161.68726 6511954
119.12117 -5.1226635 -161.83266 6511954
30.705574 -35.607216 -174.49835 9932678
31.632572 -35.781822 -174.46217 9537918
32.456146 -36.009995 -174.40332 7959144
33.479313 -36.122513 -174.32947 10919316
34.44772 -35.814163 -174.11963 12038820
35.127502 -35.647354 -173.91061 10065291
28.816071 -34.698021 -174.77411 9209467
29.526037 -34.862503 -174.73521 9932678
30.312943 -34.959999 -174.72301 10458510
31.393782 -34.998405 -174.74115 9274746
32.476933 -35.037971 -174.75894 8419951
33.465607 -35.110229 -174.7215 9867142
34.450878 -34.999962 -174.43834 12433321
35.373646 -35.006828 -174.06294 11051927
36.192444 -34.765945 -173.82686 9538948
26.712099 -33.787956 -175.04387 9735812
27.421053 -33.950233 -175.00572 9735812
28.421846 -34.052254 -174.99823 8552055
29.500286 -34.087486 -175.01749 9275262
30.364744 -34.116539 -175.03261 10195593
31.44755 -34.154022 -175.05112 8551281
32.532696 -34.192673 -175.06931 8090987
33.387424 -34.435226 -175.00093 8814712
34.426331 -34.199577 -174.76291 9604997
35.434265 -34.16185 -174.37057 12499370
36.439888 -34.125397 -173.9787 8683898
37.38205 -34.022057 -173.63876 8552054
24.609028 -32.884476 -175.31123 9537918
25.544699 -33.079247 -175.26793 11578528
26.530937 -33.149933 -175.27145 11709858
27.39193 -33.175667 -175.28766 9538691
28.533308 -33.052238 -175.36676 9012350
29.563133 -33.031975 -175.40477 8092019
30.416584 -33.271675 -175.34268 9603712
31.487919 -33.519852 -175.28394 8090987
34.87463 -33.549301 -174.83734 10065291
35.494976 -33.315475 -174.67877 11446428
36.517952 -33.068169 -174.36279 9670278
37.523727 -33.033821 -173.97002 9604485
38.326813 -33.007233 -173.65608 10196107
39.084145 -32.701958 -173.47017 10196106
22.72027 -31.992523 -175.58073 13550517
23.62418 -31.930971 -175.63011 12695465
24.435665 -32.036438 -175.61574 9932676
25.510414 -32.065468 -175.63708 12828595
26.587084 -32.09557 -175.65819 14736592
27.450024 -32.120483 -175.67474 10722452
28.416597 -32.255196 -175.65434 9143936
36.580654 -32.220825 -174.6705 10854036
37.480042 -32.021805 -174.38547 9735814
38.408867 -31.949589 -174.03867 9209472
39.463028 -32.007214 -173.59023 9932936
40.354382 -31.81966 -173.30392 11972517
41.033375 -31.65929 -173.09271 15196118
18.729078 -30.668907 -176.12981 9736073
19.583302 -30.685364 -176.14206 9012090
20.712101 -30.83996 -176.05647 10787728
21.526358 -31.047005 -175.95544 10130055
22.549883 -31.153076 -175.93237 10656141
23.635584 -30.971676 -176.05084 8551280
24.495617 -30.992607 -176.06448 8419440
25.455149 -31.117899 -176.01273 11051416
26.632088 -31.250612 -175.96812 14078918
37.854065 -31.332832 -174.50519 9932681
38.458237 -31.313925 -174.26863 9012350
39.489845 -31.078552 -173.99252 8815228
40.495232 -31.049917 -173.60326 13024949
41.298157 -31.027773 -173.29199 14077637
42.331337 -30.799164 -173.03279 10130057
14.732352 -29.809099 -176.67532 8092019
15.585309 -29.822193 -176.69009 10590612
16.645863 -29.938416 -176.63127 9208695
17.575762 -30.09313 -176.5392 9406331
18.562008 -30.071049 -176.58482 10262160
19.632338 -30.091099 -176.6004 8682867
20.704157 -30.112108 -176.61536 12695466
21.544588 -30.328238 -176.4733 10918799
22.618542 -30.351173 -176.48685 9142646
40.592354 -30.447893 -174.0267 10525584
41.4888 -30.291931 -173.79265 10853780
42.439648 -30.201754 -173.48227 9932934
43.444309 -30.177332 -173.09583 9011320
44.289917 -29.900316 -173.13065 11379096
45.167007 -29.768877 -172.93677 10260867
46.260033 -29.580116 -172.88832 9340795
47.271084 -29.564363 -172.52763 9340795
48.079063 -29.552267 -172.2377 14076861
-64.240547 -29.413185 -187.31705 9011320
-63.567299 -29.4126 -187.54942 8353646
-62.668419 -29.411812 -187.85564 9143418
-56.483849 -29.401636 -186.31775 8618105
-55.814262 -29.40102 -186.52209 10262415
-54.920204 -29.40019 -186.79102 7563874
-48.469963 -29.389635 -185.23055 9932934
-47.80442 -29.388985 -185.40605 9340542
-46.916 -29.388113 -185.63637 13156275
-46.249111 -29.387455 -185.8065 13683130
-39.767754 -29.376673 -184.10419 9538947
-38.885544 -29.375759 -184.29558 9078397
-37.781696 -29.374605 -184.52948 9341056
-30.835951 -29.363108 -182.7502 8419958
-29.960516 -29.362148 -182.89851 7827564
-28.865395 -29.360935 -183.07869 10656401
-27.988234 -29.359959 -183.2179 9932678
-19.955799 -29.346876 -181.32231 13550517
-19.087505 -29.345858 -181.4183 9473412
-18.001429 -29.344572 -181.5331 8618105
-17.131908 -29.343534 -181.62009 10788500
-16.262045 -29.342495 -181.70288 9209211
-6.1298327 -29.326229 -179.49368 9539458
-5.2702174 -29.325132 -179.52357 8092011
-4.1959472 -29.323757 -179.55489 7893869
-3.1212857 -29.322369 -179.58006 8617081
-2.2612126 -29.321251 -179.59535 10261391
-1.1863016 -29.319853 -179.60855 10458250
-0.3264688 -29.318724 -179.61494 9932937
7.5524964 -29.455109 -177.6161 11378324
8.6172915 -29.460701 -177.61328 9208954
9.6828165 -29.467943 -177.61436 8814710
10.535773 -29.474419 -177.61455 7893608
11.602376 -29.483124 -177.61264 8090987
12.669694 -29.492491 -177.60878 9341054
13.737664 -29.502621 -177.60249 9801864
14.592574 -29.511189 -177.59619 8092019
48.532623 -29.250153 -173.06812 15198166
49.352692 -29.24423 -172.80756 14802896
50.385834 -29.242477 -172.51073 14605262
51.211067 -29.241072 -172.2686 9735555
52.240879 -29.239311 -171.96017 9538176
53.268906 -29.237539 -171.646 9340798
54.089897 -29.236124 -171.39 8287598
64.44458 -29.221327 -170.83954 8682099
65.272484 -28.994995 -170.55945 9011320
66.067627 -28.984568 -170.19287 10196106
66.987129 -28.929995 -169.78609 9538433
65.55558 -28.340168 -170.69057 8089963
66.180923 -28.115002 -170.48941 9603713
67.175735 -28.103182 -170.03027 10195851
68.16983 -28.092253 -169.57121 10721682
68.79541 -27.868765 -169.36931 10261132
66.465317 -27.459272 -170.62021 9932678
67.091759 -27.23436 -170.41852 9998472
68.116806 -27.005491 -170.0325 10261132
69.112389 -26.995644 -169.57224 10195595
69.881981 -26.698448 -169.33281 9275261
68.433197 -26.130577 -170.23643 10261132
69.14682 -25.86186 -170.01166 10130314
70.058319 -25.897488 -169.57233 9472640
70.970444 -25.781113 -169.19379 8025194
69.436264 -25.101778 -170.18208 10065033
70.178581 -25.022537 -169.86777 8880503
71.09082 -25.059208 -169.42767 7959145
71.990387 -24.899784 -169.07227 8683380
70.268921 -24.365158 -170.08974 10065033
71.099083 -24.139626 -169.79327 7564643
72.098579 -24.132767 -169.33003 8420208
73.041458 -24.05394 -168.922 8288366
71.390862 -23.479458 -169.92241 8420464
72.166 -23.18137 -169.68076 8420464
73.112282 -22.974277 -169.32277 8288110
74.055214 -23.024273 -168.86296 7760998
74.831787 -22.727684 -168.62003 8353135
73.180145 -22.148939 -169.62305 9274749
74.100609 -21.879709 -169.30214 8484721
75.016655 -21.919657 -168.85873 8484721
75.762566 -21.843283 -168.54155 12431271
74.39904 -21.113466 -169.47186 7498342
75.146118 -21.03657 -169.15427 7432291
75.949379 -21.033522 -168.78079 9997704
76.869431 -20.920183 -168.39719 11970720
75.33223 -20.224997 -169.39467 7038307
76.080582 -20.14846 -169.07639 7498601
76.999008 -20.189886 -168.63121 9011323
77.90728 -20.032549 -168.2709 9274235
76.179222 -19.483221 -169.2986 8024687
77.078346 -19.125135 -169.02345 9142908
78.058922 -19.03384 -168.60281 10853264
79.039787 -18.943106 -168.18176 10326665
79.739761 -18.586521 -167.9989 9931904
78.082054 -17.99563 -169.01051 12300452
79.035629 -17.919497 -168.59641 8945271
80.045288 -17.918058 -168.1259 9603456
80.797417 -17.843107 -167.8053 8616563
79.138382 -17.250088 -168.8183 8682099
80.069603 -16.980591 -168.49254 8813686
80.993202 -17.024376 -168.04398 8879991
81.746811 -16.949511 -167.72253 8748405
80.288414 -16.353991 -168.6431 9471359
81.035408 -16.087494 -168.44456 9669250
81.957909 -16.131229 -167.98915 9275005
82.717644 -16.057234 -167.6759 8419184
83.426414 -15.909607 -167.42743 9143419
82.151939 -15.474246 -168.38953 9406847
83.037636 -15.255525 -168.15857 9406847
83.958153 -15.299429 -167.69171 9341054
84.957672 -14.868435 -167.68051 9670023
85.998657 -14.614993 -167.54219 10064522
87.016907 -14.615883 -167.05841 10064263
88.99942 -14.239947 -167.42833 8617847
90.024216 -14.241755 -166.93839 8946556
90.843651 -14.243461 -166.54558 7104098
104.09081 -14.162329 -165.44423 9011320
104.88136 -14.160631 -164.94359 8089963
105.47265 -14.159356 -164.56575 8089963
109.79337 -13.841201 -164.71983 8880507
110.66128 -13.849372 -164.31183 7630443
111.53048 -13.857891 -163.90309 7565163
112.18313 -13.864428 -163.59605 8814966
110.1074 -13.366295 -164.76469 9538435
110.80802 -13.133216 -164.53172 7038307
111.67841 -13.141157 -164.12256 7301735
112.55009 -13.149395 -163.71268 8354671
113.25482 -12.916359 -163.47783 8814966
111.17277 -12.417439 -164.64964 7038307
111.87617 -12.183228 -164.41579 7038307
112.79955 -11.95046 -164.07877 7959658
113.65852 -11.956409 -163.64432 9012089
114.30842 -11.470571 -163.32657 10261132
113.21877 -10.99004 -164.26967 8090736
113.91087 -10.752439 -164.01089 10261132
114.59297 -10.665631 -163.45755 9866630
114.72314 -9.8288231 -163.75676 8288110
115.40852 -9.5304976 -163.23471 9143163
114.99057 -9.0525532 -163.89 7038298
115.64206 -8.7543259 -163.40134 8682356
115.82744 -7.8799062 -163.66542 8945015
116.46272 -7.8245878 -163.0687 8681843
115.92313 -7.1012764 -163.96886 10129289
116.67027 -6.8504639 -163.36185 9866117
117.34792 -6.1133728 -163.07147 9537152
32.79216 -33.56546 -175.30605 8090987
33.430416 -33.79985 -175.23376 8814712
34.268524 -33.571907 -175.07336 7565675
30.455593 -32.6371 -175.57552 8879991
31.528379 -32.884811 -175.51704 9274747
32.564621 -33.047668 -175.4884 10853264
33.487801 -32.951584 -175.5446 9077627
34.514847 -32.928291 -175.22688 8551797
35.540604 -32.679871 -174.9102 9998727
28.554974 -31.729734 -175.85037 9143936
29.626171 -31.974302 -175.79294 9077627
30.49461 -32.001652 -175.80878 9208698
31.582401 -32.036804 -175.82832 11115152
32.672535 -32.073105 -175.84747 11049616
33.545284 -32.101761 -175.85599 9077627
34.57399 -32.078857 -175.53687 8880248
35.586258 -32.043259 -175.14201 9669507
36.332352 -31.947128 -174.87842 10196364
37.015503 -31.783249 -174.66689 9933193
25.80687 -30.823626 -176.21771 10064265
26.669945 -30.845348 -176.22621 13289146
27.515484 -31.071304 -176.10962 11249053
28.598011 -31.101437 -176.12468 8946557
29.682568 -31.132607 -176.13928 8485748
30.551933 -31.158325 -176.1506 9865857
31.640778 -31.191469 -176.16415 10063234
32.714596 -31.435427 -176.08165 9997698
33.370777 -31.457325 -176.09317 10063750
34.729202 -31.332521 -175.77805 9340284
35.65163 -31.196976 -175.47316 10261387
36.43821 -31.050465 -175.25824 11050647
37.397293 -31.100212 -174.82472 10459023
38.507179 -30.902506 -174.49518 9472387
20.806047 -29.586817 -177.50809 10261641
21.623249 -29.765099 -177.13571 8616048
22.698849 -29.784559 -177.13104 8945011
23.714018 -30.176134 -176.65341 7432800
24.57645 -30.195833 -176.66333 8089963
25.656216 -30.221441 -176.67511 9077114
26.737789 -30.247959 -176.6862 13947076
27.604454 -30.269924 -176.69456 9868428
28.665411 -30.498104 -176.55054 8684155
29.751671 -30.527716 -176.5596 7630953
36.748672 -30.556982 -175.49222 10261387
37.667027 -30.370321 -175.27466 9866887
38.605797 -30.303444 -174.94998 9209472
39.458511 -30.08786 -174.83617 8617848
40.438358 -29.952797 -174.58667 8092012
41.480747 -29.785347 -174.38278 9933190
42.403122 -29.646381 -174.24361 10393229
43.420074 -29.628006 -173.88939 9274748
-63.114445 -29.013851 -188.43015 8813686
-62.430164 -29.010122 -188.63762 10786699
-61.593491 -29.309786 -188.38525 8814713
-60.414795 -29.409813 -188.60219 7892584
-54.24881 -29.399563 -186.99005 9208955
-53.576942 -29.39893 -187.18626 7563874
-52.680016 -29.398087 -187.44435 10524559
-45.581326 -29.386789 -185.97392 8485232
-44.690361 -29.3859 -186.19357 8287598
-43.79818 -29.385006 -186.40895 7563619
-36.897598 -29.373674 -184.71164 9208958
-35.791298 -29.372505 -184.933 7695976
-34.683743 -29.371321 -185.14827 6511962
-26.891069 -29.35873 -183.38585 10129797
-25.792917 -29.357491 -183.54749 10458505
-24.91382 -29.356491 -183.67195 7828331
-24.033978 -29.355486 -183.79216 8814969
-15.6093 -29.341709 -181.76227 9011320
-14.956727 -29.340923 -181.81915 8287594
-14.08566 -29.339865 -181.89145 7366237
-12.996907 -29.338541 -181.97563 5919050
-11.907596 -29.337202 -182.05383 5919050
-11.253482 -29.336395 -182.0975 5919050
0.10356584 -29.318157 -179.61641 9932937
0.74859488 -29.317307 -179.61653 10720651
1.8236243 -29.315882 -179.61162 8813939
2.898526 -29.314444 -179.6006 9406590
3.7583301 -29.313293 -179.58693 10722450
4.8331819 -29.311846 -179.56393 7564643
5.9075789 -29.310387 -179.53484 10720651
6.7671027 -29.309214 -179.50668 10063235
7.8412976 -29.307745 -179.46559 9471614
8.7004967 -29.306561 -179.42851 8682867
15.020198 -29.515619 -177.59242 8092019
15.661881 -29.522461 -177.58597 8683899
16.731905 -29.534533 -177.57358 12563366
17.802757 -29.547199 -177.55908 9208435
18.660118 -29.557949 -177.54585 9470839
19.732586 -29.571943 -177.52747 9208954
44.463428 -29.314354 -174.51726 9274748
45.483192 -29.297251 -174.15758 12433069
46.501366 -29.280886 -173.79602 8551280
47.517544 -29.265169 -173.43303 9340795
48.126511 -29.256079 -173.21437 15198166
59.719616 -29.2302 -172.54678 8682867
60.338669 -29.229101 -172.33177 9998727
61.368675 -29.227268 -171.96841 9867398
62.345665 -28.983496 -171.84535 9933959
63.263145 -29.015154 -171.42503 8682099
64.186844 -28.899418 -171.08714 8747892
62.649422 -28.237164 -172.08694 9736836
63.390476 -28.153269 -171.77513 10262412
64.188515 -28.141584 -171.40776 10985366
65.111099 -28.08534 -171.00014 8419184
63.472027 -27.499281 -171.99983 15197142
64.355194 -27.138016 -171.73317 10787985
65.324989 -27.037909 -171.3212 8748149
66.29438 -26.938698 -170.90906 9142906
67.178032 -26.57996 -170.64119 9735812
65.322502 -26.019936 -171.73138 9274748
66.265198 -25.935694 -171.32564 9472384
67.264496 -25.924387 -170.8642 9735812
68.006538 -25.843781 -170.55058 10064009
66.46489 -25.168251 -171.54079 9735812
67.379944 -25.04875 -171.16216 9143419
68.180153 -25.040585 -170.79231 9736068
68.923149 -24.960577 -170.47806 10065033
67.552879 -24.243767 -171.40488 9340798
68.297249 -24.163294 -171.09019 9736580
69.212433 -24.198727 -170.64925 9867910
70.129097 -23.927891 -170.33063 10065033
68.471703 -23.356825 -171.3329 11052182
69.275085 -23.14444 -171.04372 11315097
70.249634 -23.048477 -170.62782 10986646
71.224022 -22.953276 -170.21169 7564643
71.914658 -22.596813 -170.03282 8420464
70.257065 -22.021315 -171.03815 13550517
71.204498 -21.940893 -170.62856 8617844
72.208344 -21.934269 -170.16293 8881015
73.042526 -21.708952 -169.86458 9274238
71.401817 -21.100988 -170.87518 8946810
72.333023 -21.050842 -170.46091 9275005
73.137093 -21.046192 -170.08768 9011323
73.884575 -20.968668 -169.7702 8813945
72.51474 -20.238829 -170.70357 8813945
73.263451 -20.160791 -170.38565 8813945
74.182922 -20.200453 -169.94072 8813945
74.905876 -19.931494 -169.7119 7958892
73.4468 -19.346899 -170.62825 7630186
74.228767 -19.046883 -170.3844 9077115
75.178505 -19.098328 -169.92058 8484977
76.163567 -18.772585 -169.59233 9274750
76.916222 -18.592367 -169.31393 9011323
74.559235 -18.155848 -170.58945 9143419
75.254341 -18.00445 -170.3262 9143419
76.208092 -17.926666 -169.91263 8419184
77.218094 -17.923536 -169.44266 9405821
77.857651 -17.69902 -169.23477 13550517
76.194267 -17.108675 -170.24887 8946040
77.149574 -17.031206 -169.83437 9866884
78.161186 -17.028587 -169.36349 11708316
79.004524 -16.803427 -169.06084 8945271
77.249886 -16.360033 -170.05817 11116697
78.197617 -16.091927 -169.76692 9471614
79.120628 -16.134304 -169.3121 8945271
79.879921 -16.059244 -169.00003 8681843
78.698509 -15.47861 -169.99986 8287854
79.307991 -15.477433 -169.71597 8089963
80.190987 -15.257618 -169.4868 8287342
81.179146 -15.18616 -169.12671 9076601
82.106529 -14.868565 -169.01697 9076857
83.146248 -14.614686 -168.88997 9537920
84.165459 -14.614415 -168.40973 9538435
86.130112 -14.237053 -168.79274 10525331
87.155052 -14.237731 -168.30663 9340543
87.974808 -14.23854 -167.9169 11577243
102.10415 -14.166563 -166.67908 8419184
102.90062 -14.16487 -166.188 7169117
103.49641 -14.1636 -165.81731 7169117
106.98076 -13.816824 -166.04123 9011831
108.06108 -13.825803 -165.53386 8682867
108.92664 -13.833377 -165.12721 8089963
107.07493 -13.34096 -166.18907 10787726
107.89147 -13.156462 -165.88258 9735296
108.95044 -13.069465 -165.4238 8353905
109.88273 -13.045331 -164.99867 9538435
108.13049 -12.393521 -166.07826 10787726
108.88564 -12.239345 -165.78802 9538176
109.81903 -12.214536 -165.36264 9801349
110.77894 -11.853928 -165.06009 9472386
111.80643 -11.461252 -164.73882 8419700
109.94875 -11.287127 -165.67538 10590864
110.86237 -10.731772 -165.47273 10129802
111.73641 -10.737783 -165.06262 8879994
112.61173 -10.744041 -164.65181 8879994
113.31937 -10.507701 -164.41692 9734270
111.22852 -10.010295 -165.59222 9143166
111.93483 -9.7729073 -165.35835 9406081
112.81187 -9.7784615 -164.94707 8748407
113.69024 -9.784214 -164.53505 10260357
114.36771 -9.5438995 -164.25189 7038298
112.30343 -9.0486269 -165.47792 10261132
113.0126 -8.8098087 -165.24321 8879475
113.89272 -8.814784 -164.8307 9405562
114.65337 -8.7338963 -164.38449 8090472
113.38371 -8.082449 -165.36278 7564643
114.09586 -7.8423009 -165.12729 9142647
114.89872 -7.841476 -164.59877 8879733
115.47207 -7.5923238 -164.16188 8681843
115.57507 -7.1047807 -164.30949 10129289
31.712694 -30.583509 -176.57401 8879730
32.77713 -30.815922 -176.4269 10457478
33.681793 -30.96714 -176.35696 10260613
34.608429 -30.783094 -176.17169 9077626
35.732174 -30.588125 -175.87787 9735043
23.817476 -29.632454 -177.44289 7563618
24.679443 -29.646585 -177.42111 8089963
25.757862 -29.664808 -177.39178 9406079
26.837484 -29.683756 -177.36041 11052444
27.702019 -29.69943 -177.33371 9868428
28.749086 -29.909098 -177.07816 8288883
29.83477 -29.934166 -177.06413 8288369
30.677103 -30.153957 -176.88991 7828331
31.794479 -29.982412 -177.03998 9602941
32.806942 -30.078678 -176.99281 10391941
33.737194 -30.239878 -176.88722 9931646
34.878551 -30.05546 -176.66319 9209212
35.823872 -29.986105 -176.33786 9143419
36.64061 -29.962708 -176.03532 9866373
37.580086 -29.841482 -175.79904 9076601
38.726131 -29.718784 -175.50484 9012350
-61.289925 -29.004564 -188.98297 7038307
-60.377953 -29.000889 -189.25882 7892584
-59.495857 -29.271887 -189.10698 9076858
-58.378849 -29.40797 -189.25063 11314588
-51.556683 -29.397017 -187.76076 8616307
-50.431839 -29.395935 -188.0708 9011574
-49.756279 -29.395281 -188.2536 9011574
-42.681358 -29.383875 -186.67188 8353389
-41.563267 -29.38273 -186.92848 8813939
-40.891609 -29.38204 -187.07925 8813939
-33.796768 -29.370369 -185.31549 7564392
-32.686676 -29.369167 -185.51823 11380123
-31.575569 -29.367956 -185.71483 12235687
-23.37376 -29.354729 -183.87968 8814969
-22.713196 -29.353966 -183.96448 8617335
-21.832012 -29.352947 -184.07405 9932937
-20.729561 -29.351662 -184.2049 7959149
-10.817489 -29.335855 -182.12523 7760741
-9.9453764 -29.334776 -182.17735 7893357
-8.8549776 -29.333408 -182.23717 8090991
-7.9823203 -29.332314 -182.27998 8682867
-6.8910041 -29.330936 -182.3275 8089963
-5.7997088 -29.329548 -182.36896 8682356
9.1300306 -29.305965 -179.40825 8682867
9.7742548 -29.305075 -179.37576 9011576
10.847542 -29.303579 -179.31653 9735556
11.920523 -29.302076 -179.25128 10591121
12.778621 -29.300867 -179.19415 11248795
13.850877 -29.299353 -179.1169 10064520
14.922645 -29.297827 -179.03348 8617331
15.779674 -29.2966 -178.96207 10721934
16.850433 -29.295065 -178.8667 10458246
17.920551 -29.293518 -178.76527 9800572
18.77623 -29.292274 -178.67932 9733499
19.845242 -29.290716 -178.56595 9009776
20.915325 -29.291515 -178.46101 9602428
21.778648 -29.302795 -178.43733 7760739
22.859743 -29.318666 -178.41293 10392454
23.725233 -29.331764 -178.392 10063750
39.134857 -29.414762 -176.36018 10261132
39.751961 -29.402172 -176.14992 8092011
40.573765 -29.38582 -175.86865 8092011
41.59993 -29.366037 -175.51532 9012343
42.624168 -29.346889 -175.1604 10853524
43.442337 -29.332186 -174.87531 9011320
54.531315 -29.239271 -174.25031 9603195
55.572926 -29.237469 -173.92181 9669247
56.612778 -29.235659 -173.58757 9011576
57.443104 -29.234209 -173.31554 9406078
58.537216 -29.146088 -173.14264 10787219
59.461433 -28.961491 -173.14305 9472127
60.513786 -28.853077 -172.83533 9472383
61.313332 -28.83894 -172.46817 9472383
59.664883 -28.259434 -173.46962 10195594
60.617668 -27.980749 -173.13734 9538176
61.418579 -27.966993 -172.76939 9604994
62.134384 -28.100363 -172.3821 9736836
60.922409 -27.103556 -173.34763 9011320
61.550415 -26.87484 -173.14668 9538945
62.40366 -27.141705 -172.64165 9736836
63.353512 -26.847065 -172.31711 10591375
64.181419 -26.617224 -172.02347 9932419
61.830544 -26.214968 -173.28119 9736836
62.459358 -25.98665 -173.07973 9736836
63.462318 -25.972033 -172.61792 10064262
64.464272 -25.95825 -172.15627 9274747
65.092812 -25.731527 -171.95428 9932678
63.557701 -25.20479 -172.88168 8946039
64.460045 -25.039394 -172.52739 8880246
65.377151 -25.0716 -172.08687 9143418
66.20713 -24.842846 -171.79176 9735812
64.559822 -24.248755 -172.79851 9669247
65.517616 -23.97348 -172.46262 9933191
66.320869 -23.964285 -172.09174 9801605
67.094994 -23.868124 -171.76938 8945784
65.83165 -23.090889 -172.67152 10262156
66.463699 -22.863789 -172.46823 9341310
67.449532 -23.000198 -171.95335 8946552
68.287384 -22.735491 -171.66917 12696236
69.105629 -22.618122 -171.33475 13682874
66.75106 -22.199884 -172.60188 9341310
67.38414 -21.972931 -172.39798 7563619
68.390488 -21.963444 -171.93231 13682874
69.396103 -21.954708 -171.46666 14143169
70.029381 -21.729105 -171.26222 13550517
68.493767 -21.189854 -172.19595 11314328
69.401024 -21.02743 -171.8382 14011068
70.321304 -21.064468 -171.39397 12169380
70.955666 -20.838888 -171.18892 9867657
69.578888 -20.111126 -172.12465 12301223
70.473213 -19.956564 -171.76974 11051415
71.227264 -20.040026 -171.38432 10591121
71.998344 -20.094236 -171.00275 9078140
70.59507 -19.068115 -172.07108 8092019
71.455872 -18.973267 -171.70767 8947066
72.288414 -19.120533 -171.25993 8486513
73.177284 -18.785559 -170.98032 7762537
71.729065 -18.1707 -171.90385 9144699
72.367104 -17.944059 -171.69749 8092011
73.378441 -17.938656 -171.22789 8683894
74.332779 -17.859772 -170.81448 9735812
75.028145 -17.708178 -170.55116 9143419
72.663689 -17.273169 -171.82964 8092011
73.303009 -17.046328 -171.62282 9539201
74.315758 -17.041569 -171.1523 10064777
75.328117 -17.037325 -170.6817 8748149
75.968246 -16.811535 -170.47411 8616563
74.434532 -16.259382 -171.42947 8946301
75.358368 -16.100637 -171.08708 8090222
76.282455 -16.141602 -170.63286 8617075
77.139816 -15.917537 -170.35889 11313820
75.852859 -15.486694 -171.32297 8682867
76.575462 -15.33876 -171.10847 10787732
77.343605 -15.263658 -170.81204 11050648
78.2575 -15.133384 -170.54453 9208955
79.254417 -14.87229 -170.34744 8156268
80.291092 -14.617638 -170.22777 8945015
81.107208 -14.616429 -169.84659 8681843
82.43837 -14.237966 -170.5321 8681843
83.259041 -14.237379 -170.147 10787220
84.284706 -14.236844 -169.66452 9341059
85.104973 -14.236806 -169.27759 13024949
99.499657 -14.172052 -168.24864 8486512
100.10278 -14.170788 -167.88995 8486512
101.10518 -14.168676 -167.28734 9668995
103.53407 -13.791256 -167.65874 5919050
104.17914 -13.795708 -167.35614 7366752
105.04 -13.801843 -166.95221 8814454
105.90188 -13.808329 -166.54778 9932678
104.37321 -13.162766 -167.52074 6379601
105.17882 -13.088777 -167.17491 8814454
106.04189 -13.094782 -166.77002 9867141
106.84967 -13.021194 -166.42296 10064260
105.31771 -12.374259 -167.39787 9407106
106.22875 -12.141074 -167.06677 8157811
107.09451 -12.14685 -166.66072 9735296
107.90494 -12.072592 -166.31258 9932932
108.65997 -11.918249 -166.02249 10459278
106.58588 -11.42531 -167.18828 7565675
107.28357 -11.189661 -166.95769 9275262
108.12028 -10.885904 -166.68962 10196106
109.06982 -10.96051 -166.21678 9340797
109.93317 -10.645295 -165.94089 10130313
108.17347 -9.9926987 -167.02428 11380380
108.99626 -9.8041706 -166.71635 9538176
110.06324 -9.7134991 -166.25519 9472124
111.0026 -9.6866684 -165.82782 9537658
109.23817 -9.0325499 -166.91408 9538176
109.9425 -8.7938662 -166.68156 10129798
110.93969 -8.8472853 -166.19496 9405815
111.93923 -8.6826963 -165.79503 9866111
110.30799 -8.0682917 -166.80307 9735038
111.07188 -7.9095016 -166.51068 9866881
111.89372 -7.8320808 -166.15852 9406331
112.77357 -7.836031 -165.74657 8616817
113.48483 -7.5957103 -165.51158 7564643
112.14996 -6.9398308 -166.39804 8880246
112.97474 -6.8615298 -166.04492 8748660
113.80687 -7.1090946 -165.55711 8090473
33.137257 -29.81918 -177.20135 10654857
33.795044 -29.837305 -177.19672 9800575
34.423058 -29.829363 -177.03416 9735296
-59.010033 -28.996355 -189.67226 8813686
-58.326202 -28.994722 -189.87871 11314588
-57.329597 -29.199951 -189.87778 13881026
-56.336262 -29.40609 -189.87755 7301475
-55.65387 -29.405457 -190.08147 7039331
-49.305389 -29.394842 -188.37392 9011574
-48.402393 -29.393963 -188.61118 8879477
-47.272537 -29.392847 -188.90216 8089963
-40.443588 -29.381578 -187.17839 9143417
-39.546562 -29.380651 -187.37291 7564643
-38.424099 -29.379477 -187.61069 10261128
-30.685968 -29.36698 -185.86705 8090991
-29.572798 -29.365753 -186.05107 8682867
-28.458563 -29.364511 -186.22891 9866629
-27.78948 -29.363764 -186.33241 10261132
-19.626446 -29.350365 -184.3295 8879991
-18.743671 -29.349325 -184.42424 7958633
-17.639271 -29.348017 -184.53648 8748660
-16.534483 -29.346693 -184.64247 9209211
-15.871238 -29.345898 -184.70296 9735555
-4.9262481 -29.32843 -182.39716 8288627
-3.8344281 -29.327028 -182.42627 7038307
-2.7425377 -29.325617 -182.4493 8090989
-1.8688349 -29.324478 -182.46278 7565675
-0.77664506 -29.323053 -182.47356 7565675
0.31542841 -29.321613 -182.47818 10458503
0.9709326 -29.320749 -182.4778 9537659
24.158239 -29.338579 -178.38094 10063750
24.808159 -29.348948 -178.36368 8089963
25.892288 -29.366793 -178.33307 8682614
26.977495 -29.385349 -178.30032 9868428
27.846428 -29.400669 -178.27255 7565675
28.934235 -29.42079 -178.23724 8748664
30.023127 -29.44165 -178.20012 9340030
30.895323 -29.458855 -178.16884 9734788
31.768528 -29.476509 -178.13606 9931646
32.86124 -29.499245 -178.09305 10654857
33.95372 -29.521297 -178.03938 9668734
34.794064 -29.509996 -177.81592 9735296
35.830578 -29.486214 -177.47192 11510940
36.865238 -29.46306 -177.12639 10261132
37.691845 -29.445055 -176.84856 8681843
38.516872 -29.427551 -176.56987 10261132
48.030487 -29.250332 -176.14497 7564651
48.662628 -29.249273 -175.97209 7827307
49.714752 -29.247501 -175.67902 8089963
50.765175 -29.245722 -175.37985 9012606
51.604187 -29.244297 -175.13594 9736071
52.651264 -29.242508 -174.82507 9867398
53.696526 -29.240713 -174.50835 10063747
55.6982 -28.951265 -175.04124 10590096
56.704147 -28.928905 -174.58118 10195339
57.70866 -28.907507 -174.12137 9406078
58.310661 -28.895155 -173.84567 9406078
-58.378807 -28.521008 -190.04637 11314588
-57.694351 -28.519676 -190.25291 12630703
55.947578 -28.509617 -175.1024 10261132
56.76506 -28.382732 -174.77219 10195339
57.663094 -27.982208 -174.51436 9800837
58.611763 -28.017866 -174.05774 10787475
59.381851 -27.712605 -173.82124 10655889
60.067909 -27.554766 -173.5648 9932678
57.990967 -27.01116 -174.75166 9932423
58.737656 -26.92404 -174.43846 10655889
59.542328 -26.909246 -174.06918 10064264
60.47187 -26.849218 -173.65988 9077625
59.0149 -26.262676 -174.57492 10655889
59.644653 -26.032434 -174.3737 10064264
60.650978 -26.015303 -173.91139 9274748
61.598038 -25.927002 -173.50531 9011320
59.923225 -25.370193 -174.5099 9735812
60.553764 -25.140396 -174.30818 9735812
61.560753 -25.124445 -173.84505 9340798
62.5667 -25.109303 -173.38214 9801603
63.196777 -24.881132 -173.17998 9932419
60.833683 -24.477306 -174.44427 9735812
61.742081 -24.287609 -174.09698 9735811
62.622559 -23.948177 -173.82312 10130569
63.506783 -23.998846 -173.39024 9866883
64.453781 -23.657076 -173.08612 8880502
62.894821 -22.980381 -174.0862 10064776
63.643715 -22.897062 -173.77039 9472639
64.450256 -22.886889 -173.39825 8091499
65.382576 -22.831793 -172.9855 9472896
63.726128 -22.234453 -173.9991 9735811
64.561516 -22.003489 -173.70247 9078394
65.570435 -21.991907 -173.23648 9012601
66.520844 -21.908083 -172.82689 9341310
64.847198 -21.337212 -173.8378 10130825
65.481606 -21.108908 -173.6339 9670531
66.491478 -21.098282 -173.16702 9406589
67.500488 -21.088373 -172.70032 7563619
68.134796 -20.861418 -172.49588 10459017
65.768822 -20.441505 -173.76895 9406846
66.681549 -20.254864 -173.41838 10196102
67.56794 -19.916866 -173.14113 9406075
68.454605 -19.972437 -172.70508 10327689
69.234993 -19.670353 -172.4628 7038307
67.850357 -18.941179 -173.40271 10919567
68.602623 -18.860695 -173.08421 8945785
69.412132 -18.854313 -172.70914 7038307
70.337578 -18.736362 -172.32497 8223348
68.69165 -18.192001 -173.31227 9931651
69.532303 -17.962549 -173.0126 9537151
70.545258 -17.955395 -172.54289 10129543
71.500511 -17.874897 -172.1297 9144699
69.825493 -17.290836 -173.14658 11378324
70.464592 -17.062876 -172.94037 11313304
71.478813 -17.056469 -172.46976 10327949
72.435387 -16.976431 -172.05576 8749941
70.759346 -16.389708 -173.07423 11905701
71.592751 -16.273783 -172.74849 10919574
72.516129 -16.113495 -172.4059 9802373
73.441818 -16.153151 -171.95212 9538435
74.094772 -15.928604 -171.77266 9538435
72.80072 -15.499825 -172.73834 10524816
73.725922 -15.349816 -172.43068 9998985
74.49411 -15.2737 -172.13504 8419959
75.402916 -15.056755 -171.97333 7827306
76.299576 -14.837875 -171.77928 10261388
77.432137 -14.623814 -171.55618 9340797
78.249504 -14.62174 -171.17761 9011321
79.563469 -14.242414 -171.8741 9011321
80.385231 -14.240828 -171.49158 9471616
81.412064 -14.239198 -171.01245 8681843
82.027946 -14.238459 -170.72435 8681843
97.479523 -14.176261 -169.4281 9208443
98.289116 -14.174578 -168.95888 8354673
99.096786 -14.172895 -168.48637 11381404
100.5302 -13.772961 -169.06676 7038307
101.17302 -13.776567 -168.76558 7038307
102.24549 -13.78301 -168.26291 7498085
103.1043 -13.788486 -167.86028 5919050
101.36311 -13.144717 -168.93164 8682616
102.16535 -13.069974 -168.58765 8879995
103.1452 -13.123316 -168.10924 5919050
103.93164 -12.842537 -167.85568 5919050
102.30006 -12.356841 -168.81227 10853012
103.20652 -12.123189 -168.48363 6314832
104.06884 -12.127974 -168.0795 5919050
104.87556 -12.053047 -167.73337 5919050
105.6266 -11.898314 -167.44539 10065294
103.55843 -11.408661 -168.60703 5920074
104.25213 -11.172821 -168.37836 5919562
105.18812 -11.033833 -167.99771 7236196
106.02961 -10.942405 -167.64204 10065294
106.88746 -10.62718 -167.36879 10920346
104.60633 -10.45564 -168.5018 7564651
105.34902 -9.978507 -168.34734 8157811
106.26375 -9.7422152 -168.01578 13222843
107.13308 -9.7463369 -167.60863 12301482
107.94695 -9.6700401 -167.25977 10722450
106.50856 -8.8593416 -168.25688 11578017
107.32276 -8.7821522 -167.90819 9077625
108.19489 -8.7858686 -167.49994 9735555
109.01147 -8.7088585 -167.15005 9867140
107.68356 -8.0578613 -168.03139 9538176
108.38682 -7.8179808 -167.79991 9538176
109.26173 -7.8212156 -167.39047 9406589
110.08112 -7.7434669 -167.03957 10064261
110.84492 -7.5845094 -166.7473 10261641
109.21252 -6.9705572 -167.75577 11643293
110.21188 -6.8032217 -167.35696 10787727
111.21287 -6.8552337 -166.86914 10524814
111.92277 -6.61374 -166.63525 9406590
110.14754 -5.9572768 -167.72739 12498344
111.09289 -5.9271417 -167.2986 10261642
112.24312 -6.1260281 -166.68208 9011832
-56.274475 -28.991751 -190.49745 8815226
-55.018379 -29.180515 -190.44513 8749947
-54.02581 -29.137564 -190.43202 7236194
-53.015373 -29.084217 -190.34616 8617330
-52.100533 -28.957977 -190.29707 9011576
-51.255718 -28.992973 -190.19594 9537662
-50.413494 -29.028118 -190.09508 9011574
-49.483223 -29.137196 -189.95781 10458505
-48.241089 -29.074766 -189.85109 10063235
-47.003773 -29.013441 -189.7444 8156523
-46.192513 -29.178612 -189.39455 7695205
-45.247879 -29.154505 -189.4637 9142651
-44.278717 -29.11417 -189.42279 9010807
-43.20015 -29.109343 -189.31194 8615533
-42.159073 -29.091331 -189.20985 9273721
-41.094917 -29.196196 -189.06012 9143417
-40.127945 -29.152006 -188.9754 9143417
-39.163834 -29.108572 -188.89072 10787727
-37.52533 -29.378531 -187.79585 11116437
-36.400352 -29.37734 -188.02106 8156527
-35.274193 -29.376135 -188.23985 7367263
-27.343195 -29.36326 -186.39987 8682867
-26.450312 -29.362257 -186.53143 8946038
-25.333347 -29.360987 -186.69041 9143675
-24.438967 -29.359964 -186.81259 8814710
-15.429006 -29.345362 -184.74181 8288371
-14.765338 -29.344559 -184.79797 10854036
-13.65907 -29.343214 -184.88622 8288371
-12.551946 -29.341858 -184.96837 5919050
-11.666043 -29.340769 -185.02898 6643029
-11.001634 -29.339947 -185.0719 6643029
1.40791 -29.320169 -182.47609 9537659
2.2814643 -29.319008 -182.46924 8156779
3.3736732 -29.317547 -182.45551 8419952
4.2472367 -29.316372 -182.43947 10064777
5.12081 -29.315191 -182.41937 9669503
6.2124467 -29.313711 -182.388 10261382
7.3040929 -29.31222 -182.35062 8880248
8.1771898 -29.311018 -182.31575 8156531
9.2682371 -29.309515 -182.26602 9998216
10.359059 -29.307999 -182.21025 9077625
38.905613 -29.265285 -178.36874 10129802
39.972351 -29.263573 -178.13426 10064265
41.037758 -29.26185 -177.89377 10589581
41.889015 -29.260469 -177.69659 11642012
42.951614 -29.258738 -177.44408 9866373
44.012806 -29.256996 -177.18573 10129289
44.860622 -29.2556 -176.97424 9274748
45.707336 -29.254202 -176.75868 9933191
