# .PCD v0.7 - Point Cloud Data file format
VERSION 0.7
FIELDS x y z rgb
SIZE 4 4 4 4
TYPE F F F U
COUNT 1 1 1 1
WIDTH 1231
HEIGHT 1
VIEWPOINT 0 0 0 1 0 0 0
POINTS 1231
DATA ascii
184.59013 -18.81801 47.50935 7564643
134.13431 -18.719004 128.65446 9142651
133.67603 -18.487679 129.14503 10262415
132.98714 -18.478474 129.72345 7960433
132.20714 -18.423607 130.39926 9011320
185.34293 -17.406572 44.858444 10656657
185.17393 -17.646769 45.762444 9867140
185.08658 -17.657684 46.687115 11774364
133.67921 -17.812756 129.45976 7565675
133.22012 -17.581532 129.95087 7565675
132.35809 -17.571068 130.67404 7367007
131.57344 -17.487072 131.36748 11248027
185.75754 -16.476774 44.01236 11380380
185.61386 -16.669355 44.828705 9735811
185.46065 -16.841461 45.832325 11116692
133.22266 -16.905308 130.26682 7565675
132.76279 -16.674231 130.75853 8090731
131.89966 -16.66477 131.48204 9537920
131.11392 -16.58149 132.17593 9077626
186.02591 -15.783049 43.838863 9867657
185.91756 -15.793996 44.995697 9933190
132.06046 -15.80959 131.76942 12104099
131.38251 -15.536367 132.55347 8419952
130.73813 -15.439028 133.11609 10327692
130.06136 -15.067365 133.77338 9932934
198.12843 -14.272006 24.305691 8089963
186.60428 -14.629125 43.263885 8486776
186.36842 -14.909586 44.060631 9867657
186.16678 -15.100733 45.05508 8616563
130.91338 -14.643464 133.68127 9209467
130.3524 -14.485387 134.1817 10590865
129.80391 -14.329029 134.69461 10130057
129.07027 -14.170791 135.33942 9208443
188.34236 -13.27395 39.863003 8485494
188.16158 -13.430106 40.613789 9406594
188.05048 -13.512882 41.459061 8749435
187.25951 -14.024809 42.150982 11051928
186.90938 -14.172832 43.097157 8947070
128.92326 -13.774395 136.82814 11380380
127.93197 -13.756859 137.42426 15724510
122.4953 -13.300657 147.15598 9340543
121.69518 -13.290971 147.63518 8287601
121.14911 -13.052052 148.05949 7564651
189.6169 -12.376631 37.993073 9471613
189.45595 -12.376352 38.909908 9931907
188.94572 -12.593445 39.753181 9602943
188.50185 -12.815116 40.607727 10458765
188.43146 -12.818826 41.304821 8092019
122.01962 -12.409672 147.81152 8945271
121.10962 -12.353038 148.37567 9736836
120.56293 -12.114344 148.80032 8288627
121.87131 -11.661058 148.21301 8681843
121.45477 -11.376268 148.57967 9209725
120.60693 -11.33691 149.09966 8288627
121.45353 -10.564988 148.92009 9012603
120.73572 -10.480452 149.38176 8354675
120.01837 -10.396264 149.843 9209469
120.9495 -9.5441456 149.64682 8617847
120.14616 -9.5378628 150.12651 9340799
119.59731 -9.2990942 150.55249 9537664
120.90897 -8.8386002 149.96629 9144190
120.35909 -8.5992804 150.39307 8880761
119.55525 -8.5937977 150.87279 8287853
120.37114 -7.6564994 150.78061 9144190
119.76721 -7.652864 151.14085 8287853
119.02452 -7.5687375 151.57381 7959400
119.89491 -6.7873721 151.42735 7169628
119.15041 -6.7035995 151.86003 9472383
118.56516 -6.4627819 152.24376 10459278
119.35533 -5.6149817 152.19749 11248794
118.56622 -5.5151329 152.62436 10196107
118.03348 -5.0377769 153.07745 11380380
118.83434 -4.3284092 152.97029 9209212
117.98033 -4.3244643 153.39041 9011837
118.78168 -3.6131196 153.28381 7564651
118.19386 -3.3722029 153.66872 8814203
117.42848 -3.2900853 154.07687 10458768
118.31892 -2.4962878 153.95979 8814203
117.55226 -2.414571 154.36836 10392719
116.96422 -2.1741543 154.75325 10590603
117.76559 -1.4565537 154.64917 10392719
116.90948 -1.4554375 155.06912 10590603
117.72089 -0.73574233 154.97795 7038307
117.14674 -0.49480429 155.38474 7301479
116.38618 -0.414473 155.80276 10853523
117.13338 0.22805583 155.75769 7564651
116.55751 0.4692893 156.16364 10524559
115.91661 0.46882224 156.48146 11511452
116.2299 1.1986543 157.30255 7564651
115.37685 1.1974978 157.73242 11182233
115.05856 1.689696 158.90112 8682867
114.23131 1.6887175 159.36966 8354163
115.166 2.1774502 159.04987 10853780
114.42149 2.4213419 159.63576 9932937
113.68169 2.5016022 160.09262 9604741
114.4649 3.1576834 160.10449 9012350
113.91768 3.4025559 160.56277 10394254
113.17517 3.482728 161.01892 10197132
113.4425 4.1456513 161.53851 9933707
112.7545 4.3102188 162.07642 10195338
112.29681 4.6446948 162.81082 9932166
111.78973 5.1486063 163.76028 8353647
179.75365 -28.474426 55.622269 8287342
179.53809 -28.471321 56.266266 6839896
179.17847 -28.466873 57.339199 5392706
178.56844 -28.702076 58.187572 7169635
178.28886 -28.660244 59.189625 7959145
177.75902 -28.857651 59.964638 5787980
177.46664 -28.856056 60.818558 7038298
170.48155 -28.842976 70.611786 9143681
170.05124 -28.841181 71.635025 9340801
169.61526 -28.839397 72.655769 9274749
169.2619 -28.837986 73.47039 9274494
168.81447 -28.836233 74.486137 9406080
168.36134 -28.834541 75.499428 9603970
168.0865 -28.833456 76.106117 10788244
143.07825 -28.774534 116.34322 7563619
142.49515 -28.653135 117.01298 8748405
141.78709 -28.472332 117.69392 6971994
140.98615 -28.489161 118.35349 6116429
140.53426 -28.251482 118.84174 7564651
180.34952 -27.728115 54.698528 7826791
180.05971 -27.79895 55.479061 9406079
179.74425 -27.74902 56.47263 5919050
179.36742 -27.835148 57.494202 5919050
179.04967 -27.862206 58.407265 6116430
142.01172 -27.677113 117.88039 6577235
141.23421 -27.60634 118.56158 6314576
140.54822 -27.584049 119.14378 4866361
139.94061 -27.490622 119.69405 4866361
181.29463 -26.452976 53.242222 8353646
181.02753 -26.678951 53.874336 9340030
180.73929 -26.673616 54.736507 9208444
180.44237 -26.603807 55.697544 9274237
180.02528 -26.935766 56.559902 7366496
179.64549 -27.112787 57.487179 6839896
141.40465 -26.79373 118.80139 6511954
140.79533 -26.700102 119.35316 5853512
139.93742 -26.673882 120.08039 4866361
139.31305 -26.432714 120.71404 4866361
181.78703 -25.299419 52.436451 6512978
181.63866 -25.541758 53.104923 8683380
181.42107 -25.545834 53.990223 9077881
181.13211 -25.54071 54.85421 9734788
180.83678 -25.764015 55.478134 9734788
140.96494 -25.886456 119.59409 5853512
140.32561 -25.633299 120.24587 6050635
139.53027 -25.491138 120.9755 7103324
138.8383 -25.230663 121.67452 6511954
138.30713 -25.068064 122.19359 8485485
182.08083 -24.565531 52.140888 7170652
181.96062 -24.634003 53.198055 9143675
181.73447 -24.713339 54.003174 9998983
140.49136 -24.679901 120.5557 9142907
139.78316 -24.481604 121.23905 9340542
139.00447 -24.416391 121.91867 6511954
138.31752 -24.398979 122.49934 8485485
137.86311 -24.164627 122.98808 6511954
182.54462 -23.458723 51.465282 12959929
182.37109 -23.747467 52.22319 11512737
182.30592 -23.719257 53.059933 10064265
139.70395 -23.763365 121.64257 8089963
139.24854 -23.527887 122.13276 6906456
138.56023 -23.511076 122.71427 9932930
137.87271 -23.494791 123.2949 8485485
137.41766 -23.260889 123.78394 11905692
182.97995 -22.526209 50.400539 9208443
182.80949 -22.771212 51.301907 12104363
182.6776 -22.868162 52.373219 10853782
139.25951 -22.856123 122.43928 8485485
138.80353 -22.621147 122.9297 11445655
138.11462 -22.605434 123.51116 9142649
137.33536 -22.543552 124.1897 11445142
183.25122 -21.745527 50.542336 9142907
183.16412 -21.725101 51.590355 10195595
138.81384 -21.948578 123.23734 12432037
138.27937 -21.787184 123.75846 9142649
137.49535 -21.695816 124.45467 10655884
136.63472 -21.678318 125.18008 9997699
136.17847 -21.445517 125.66968 8681843
183.96904 -20.212431 48.769974 7565675
183.77936 -20.53059 49.589012 9144449
183.6091 -20.774519 50.492718 9670536
137.8317 -20.879805 124.55823 9866114
137.10699 -20.565983 125.30946 10063494
136.24506 -20.549929 126.0351 8419700
135.69286 -20.241089 126.6404 9406590
184.25516 -19.446718 48.686779 7564901
184.12469 -19.539156 49.760281 10196879
137.15759 -19.517599 125.76048 10064010
136.54411 -19.431776 126.31181 10261133
135.85362 -19.420073 126.89242 10393483
135.10719 -19.295662 127.57272 11577756
184.66971 -18.516005 47.845528 7564643
184.53964 -18.607244 48.919491 7893351
184.36954 -18.850271 49.825539 9144449
136.55113 -18.756336 126.6237 8617080
136.0923 -18.523457 127.11544 10393485
135.40109 -18.512699 127.69621 12761772
134.61884 -18.456051 128.3744 10525072
185.04276 -17.663258 47.149982 9011574
184.97699 -17.671864 47.845036 7893607
184.86905 -17.759466 48.688366 9339769
136.09856 -17.846882 127.42852 10985620
135.63905 -17.614256 127.92065 12630447
134.77434 -17.602024 128.64668 10788502
133.98756 -17.516258 129.34229 9341571
185.54016 -16.500736 46.325584 13023917
185.39256 -16.739058 47.000603 9472639
185.27533 -16.7976 48.063942 8813939
135.64456 -16.936533 128.23485 10591380
135.18436 -16.704107 128.72754 8354677
134.31871 -16.692942 129.45378 9538950
133.53104 -16.607975 130.14981 9341571
185.80887 -15.80553 46.154423 11050899
185.7216 -15.815193 47.082947 9472639
185.57343 -16.054012 47.759209 11380380
135.18919 -16.025179 129.04288 7039331
134.48131 -15.835979 129.73569 10722709
133.80199 -15.560785 130.51895 9932938
133.11012 -15.553352 131.10106 8090991
132.60223 -15.251309 131.75954 10591118
132.10507 -15.099759 132.32352 13156786
186.70563 -14.33838 44.551331 10854036
186.50267 -14.559371 45.421219 9143163
186.3172 -14.749467 46.232025 11313815
186.01543 -15.12026 46.918484 9209467
133.55498 -14.671432 131.54028 7564651
132.90404 -14.519304 132.27269 9735810
132.32124 -14.441435 132.86067 8683123
131.55406 -14.391289 133.56206 9143674
130.84793 -14.204994 134.26057 10590609
197.15424 -13.745112 29.012959 8089963
188.20981 -13.294118 42.207165 8092019
187.98219 -13.526658 42.869534 11051928
187.88071 -13.611129 43.719204 10196620
187.72722 -13.77096 44.478092 9735299
130.71153 -13.807082 135.74899 10590609
129.91606 -13.792336 136.22964 13879997
124.41522 -13.402833 145.97299 9011065
123.69764 -13.31571 146.43567 9142651
123.0961 -13.308097 146.79605 8287859
189.18591 -12.3773 40.517609 12432037
189.0782 -12.378528 41.208736 8683386
188.66223 -12.602519 42.069897 8092019
188.33708 -12.832886 42.949833 10460049
124.46474 -12.625232 146.2691 11905692
123.91663 -12.384785 146.69539 11181971
123.1132 -12.375325 147.17645 9406078
122.56544 -12.135706 147.60207 9406078
190.30025 -11.945345 38.845791 8681843
190.17885 -11.945244 39.536308 9273979
190.01659 -11.945305 40.457382 9011066
123.87992 -11.682618 147.01114 10458507
123.33127 -11.442347 147.43761 9932934
122.5274 -11.433913 147.91849 9735555
123.46451 -10.584045 147.71783 10328204
122.74449 -10.498834 148.18112 9932934
122.0251 -10.413955 148.64386 9274749
122.87685 -9.6385975 148.46265 9209983
122.15634 -9.5540428 148.92598 8091762
121.55258 -9.5490322 149.28665 8091760
122.37321 -8.613883 149.19086 8092019
121.56676 -8.6079025 149.67224 9407105
121.01624 -8.368433 150.09949 10262156
122.33415 -7.9055357 149.51059 10262156
121.78267 -7.6654158 149.9386 9933448
120.97576 -7.6602592 150.42004 8881018
121.79704 -6.7188306 150.32645 8814967
121.1908 -6.7154202 150.68796 8354672
120.46828 -6.6326356 151.15166 7827814
121.32098 -5.8463335 150.97449 10394253
120.54916 -5.5936933 151.53862 7630435
119.97914 -5.2067175 152.03571 9801348
120.83437 -4.4162021 151.86229 9143674
119.97078 -4.3812561 152.37727 10064520
119.52993 -4.0933695 152.72394 8485488
120.23822 -3.4591761 152.61694 8090995
119.36044 -3.3286109 153.11459 8222324
120.28188 -2.6612201 152.9252 8090995
119.69517 -2.4198122 153.31607 8880252
118.92624 -2.3380704 153.72588 9801095
119.69772 -1.4591756 153.70122 10524559
118.91319 -1.5061053 154.06683 10919060
118.46243 -1.2173355 154.40388 8814203
119.19713 -0.57578462 154.33327 11510939
118.43251 -0.49515972 154.75102 8287859
117.85739 -0.25412202 155.15826 7038307
118.60605 0.39019585 155.10767 10260617
117.72646 0.51849103 155.60809 7104100
118.15443 1.2014699 156.3327 8616566
117.51209 1.2004642 156.65634 8551287
117.04405 1.5280153 157.47839 8221549
116.30122 1.6912144 158.19754 8090475
115.67955 1.6904551 158.5495 13024949
117.07176 2.1812596 158.04628 7563619
116.52316 2.4255452 158.50024 7827302
115.77933 2.5057206 158.95514 10130057
115.13835 2.6678252 159.41666 10853780
115.93195 3.3259029 159.43491 6511954
115.17912 3.4057989 159.87939 10853780
114.63129 3.6506715 160.338 8090995
115.45249 4.1559243 160.66893 6511954
114.78823 4.1527324 160.96877 7301986
114.23134 4.4862976 161.69534 11051673
113.62276 4.6513462 162.21252 9341571
113.562 5.1582241 162.9617 8092019
112.89655 5.1545296 163.26149 9011576
178.2422 -28.459673 60.127899 5064258
177.88155 -28.458731 61.200302 6117202
177.26529 -28.69591 62.039471 7762025
176.97452 -28.655756 63.039005 7630443
176.41101 -28.850555 63.79623 9735815
176.10023 -28.849001 64.643608 11183260
175.78526 -28.84746 65.489555 13024949
167.90207 -28.832769 76.509895 11906725
167.62334 -28.831743 77.114746 9735555
167.15398 -28.830048 78.120636 8879990
166.67909 -28.828362 79.123817 10129289
166.29457 -28.827026 79.924255 8682355
165.9063 -28.825699 80.722809 8814455
165.41525 -28.824091 81.718285 10392975
164.91861 -28.822479 82.71096 9406339
164.51697 -28.821188 83.502869 9406595
164.11147 -28.81996 84.292831 8814971
163.70212 -28.818687 85.080849 10064265
149.18474 -28.784424 108.43868 11906208
148.65938 -28.783487 109.15458 8354163
148.13054 -28.782564 109.8679 8617335
147.59827 -28.781647 110.57868 8419700
146.92805 -28.780523 111.46342 7038307
146.25273 -28.779413 112.34435 10195339
145.70869 -28.77854 113.0461 10261644
145.16115 -28.777674 113.74522 9011320
144.61615 -28.628386 114.84388 9406079
143.95998 -28.577583 115.62806 9537409
143.42146 -28.494179 116.24062 8682100
142.93645 -28.334854 116.80064 9340030
179.0571 -27.560608 58.727306 5787980
178.763 -27.784721 59.346428 6840666
178.44644 -27.737923 60.339569 4603964
178.06879 -27.82732 61.359951 5261637
177.75008 -27.857328 62.272549 7038307
177.45753 -28.008202 62.970322 8288371
144.42403 -27.763117 115.82958 9011065
143.64268 -27.689592 116.51528 9800581
142.95328 -27.665024 117.10138 8879479
142.49959 -27.425714 117.59194 8682867
180.09822 -26.360998 56.99501 8747893
179.74608 -26.569054 57.804886 6511187
179.4404 -26.656996 58.613079 6313808
179.14247 -26.590107 59.573753 6248272
178.71201 -26.879452 60.5243 4801343
178.2728 -27.104677 61.573421 6445912
144.35132 -27.04298 116.2286 10261132
143.81744 -26.874475 116.75264 10195337
143.26855 -26.556644 117.35945 7300958
142.40602 -26.52796 118.09173 6511954
141.71696 -26.505779 118.67636 6511954
180.7576 -25.489279 56.02491 9734788
180.40921 -25.53026 57.013016 8156012
180.11983 -25.527065 57.876217 6511187
179.83025 -25.524422 58.739204 6182222
179.46251 -25.749176 59.5765 5919050
143.34848 -25.662415 117.71333 6511954
142.89276 -25.42338 118.20535 7301213
141.93919 -25.561689 118.93481 8682355
141.2451 -25.298321 119.63698 7169372
181.74327 -24.408339 54.322876 10460046
181.37479 -24.630898 55.164902 8748149
181.01273 -24.625505 56.246342 8089963
180.72296 -24.621807 57.111179 8748404
180.43105 -24.6947 57.895454 6314319
180.13719 -24.843964 58.599033 5919050
142.90884 -24.750469 118.50854 8287850
142.27963 -24.507011 119.14713 10063752
141.41556 -24.481874 119.87867 9472127
140.80354 -24.390013 120.43176 9142907
140.27016 -24.226082 120.95326 10261643
182.2606 -23.729084 53.522877 10460046
182.02528 -23.680004 54.310978 9341309
181.64555 -23.765419 55.341827 9077625
181.3277 -23.714998 56.343185 8484976
180.95866 -23.939268 57.184917 7235421
142.12149 -23.828728 119.59792 10985367
141.6649 -23.591221 120.08994 10722195
140.97334 -23.572432 120.67481 11380380
140.28273 -23.554192 121.25868 10788243
139.82668 -23.318439 121.7494 8089963
182.75546 -22.570082 52.712666 9208443
182.58974 -22.76701 53.523048 9933702
182.25243 -22.85743 54.568878 10065288
181.93193 -22.882946 55.491795 9209723
181.63701 -23.031771 56.199066 8090987
141.679 -22.917282 120.39524 10985367
141.22183 -22.680399 120.88749 9735043
140.52972 -22.662788 121.47215 9406335
139.74724 -22.598658 122.15411 8155755
183.332 -21.181316 51.922878 9208443
183.1158 -21.587959 52.679317 8222573
182.91217 -21.800833 53.712032 7696484
182.46272 -22.125095 54.774513 10460046
141.23518 -22.005732 121.19375 8089963
140.77745 -21.7693 121.68617 7300958
139.9735 -21.525261 122.47061 9471867
139.19516 -21.507717 123.12717 11181972
138.59056 -21.494558 123.63692 9142649
183.74683 -20.249195 51.085167 7565675
183.59836 -20.490021 51.759033 8946555
183.47888 -20.554502 52.823517 11578016
140.22003 -20.629969 122.68637 9735038
139.51254 -20.485786 123.34351 11840157
138.66148 -20.59668 124.00023 9932164
138.10844 -20.285662 124.60712 8287084
184.01353 -19.557001 50.920124 7565675
183.92429 -19.571815 51.849842 9933703
183.77562 -19.813162 52.525085 16247774
139.58226 -19.56358 123.71931 10984592
138.96666 -19.476145 124.27312 7563619
138.27356 -19.462912 124.85667 7563619
137.65904 -19.376446 125.4092 8946044
184.44891 -18.548023 50.164352 8617847
184.34024 -18.637199 51.009537 9144447
184.23128 -18.726887 51.855629 9210491
139.15024 -18.802116 124.4373 7563619
138.51704 -18.564442 125.07652 7563619
137.82333 -18.552183 125.66007 7827308
137.03851 -18.493721 126.34127 9011837
184.86481 -17.613947 49.322002 7564643
184.75644 -17.70216 50.167461 8090473
184.64783 -17.790873 51.013882 9406848
138.52623 -17.88612 125.38789 8813686
138.06604 -17.651993 125.88139 8419443
137.19829 -17.637922 126.61076 7893615
136.40927 -17.550419 127.30915 9209216
185.32117 -16.527084 48.647121 8616560
185.17299 -16.766577 49.32375 9471098
185.08469 -16.778233 50.255589 8484975
138.07457 -16.972567 126.19388 7564651
137.61525 -16.60253 126.75053 7432808
136.82062 -16.629675 127.39964 8156530
135.95534 -16.639133 128.116 10591380
185.73849 -15.591279 47.801189 10261643
185.59018 -15.830345 48.478344 10130056
185.50226 -15.840927 49.410419 8616560
185.3535 -16.080944 50.088284 7564643
136.81778 -15.820221 127.79324 7367271
136.22748 -15.589447 128.47601 9670535
135.60271 -15.491961 129.06415 8815227
135.02446 -15.276959 129.71736 7894126
134.52765 -15.124105 130.28232 9735046
186.5535 -14.363681 46.894718 9011320
186.27989 -14.675258 47.701042 9142907
186.04173 -14.912174 48.595524 9406079
185.83868 -15.147799 49.259914 9142907
135.98517 -14.697186 129.49132 10262414
135.32384 -14.54256 130.21495 8420983
134.6039 -14.505775 130.86026 7762029
134.01831 -14.236741 131.67984 8222579
133.33189 -14.231025 132.2735 8090987
188.0896 -13.313903 44.32494 9143419
187.86696 -13.551119 45.228149 8353391
187.65874 -13.790206 46.134865 8089963
133.14703 -13.841084 134.01588 10853012
132.62848 -13.837374 134.46198 10853012
131.90691 -13.829629 135.02493 8813941
131.30893 -13.81828 135.38744 10590609
126.42749 -13.430401 144.76645 10919829
125.70734 -13.342377 145.23094 9077370
124.98792 -13.254837 145.69484 8813686
188.75584 -12.383167 43.28442 8618104
188.40895 -12.661627 44.256233 7762022
188.2032 -12.854524 45.308479 7563619
125.84453 -12.48662 145.50778 8222319
125.12396 -12.399439 145.97218 8682615
124.57509 -12.158767 146.39896 9011579
189.813 -11.945735 41.609001 8156530
189.6113 -11.946658 42.761631 8092019
189.5004 -11.948032 43.455917 8617331
125.89605 -11.705881 145.80403 7039331
125.34605 -11.464709 146.2317 8288115
124.42935 -11.407469 146.80008 9866628
125.31084 -10.759665 146.54782 7564651
124.62823 -10.564371 147.03494 9011579
124.00811 -10.276176 147.52393 9933191
124.89613 -9.656888 147.25581 8485493
123.97134 -9.5697966 147.84148 9735813
123.21848 -9.327714 148.38989 8815227
124.30823 -8.7078686 148.00232 8683898
123.38286 -8.6216784 148.58795 9012605
124.35747 -7.9199886 148.30287 9012606
123.67242 -7.7255182 148.7912 9801862
122.8202 -7.554049 149.36911 9538691
123.76736 -6.9678669 149.05206 8092019
123.08171 -6.7736959 149.54056 8618105
122.35471 -6.6429558 150.02702 9012347
123.34785 -5.8564496 149.76656 9341057
122.51109 -5.5942612 150.37321 7762025
121.7444 -5.1744318 151.00435 8814965
122.74728 -4.3434572 150.75671 7564651
121.93453 -4.3405113 151.24062 8486000
121.17671 -4.0992126 151.79166 8486000
122.26981 -3.4647202 151.40817 7827559
121.33909 -3.3822999 151.99542 8419440
120.58044 -3.1410851 152.54691 8090995
121.52897 -2.5436916 152.23378 9669763
120.76918 -2.3021762 152.78609 8617337
121.71942 -1.7026299 152.47301 8813942
121.02921 -1.5089798 152.96385 8617336
120.28712 -1.3797011 153.43896 8617081
121.12238 -0.73758966 153.23401 8090995
120.36123 -0.49567169 153.78819 9143421
119.57274 -0.25417584 154.3071 9735812
120.56851 0.22985125 154.054 8616563
119.77489 0.47179568 154.56834 9537664
118.9815 0.71320617 155.08231 10260617
119.65668 1.203684 155.57597 8616564
118.86542 1.3665074 156.2287 11312789
118.16914 1.6936585 157.13974 9339772
118.53313 2.3479352 157.36166 10786703
117.67935 2.4770679 157.91052 9076601
118.04589 3.1668811 158.16458 9734531
117.19484 3.3636975 158.85321 9931910
116.601 3.6587038 159.41165 7564130
116.784 4.1625118 160.06802 6511954
116.174 4.3279533 160.58298 6840663
115.6192 4.6618285 161.31241 7563619
114.95268 4.6582336 161.61288 8092019
176.94189 -28.460691 63.988682 9538435
176.57979 -28.463236 65.061424 9998984
175.99367 -28.59325 66.130592 9867141
175.61603 -28.657665 66.874321 8485744
175.22314 -28.720163 67.610847 8090730
174.65121 -28.842134 68.438225 9932166
174.23399 -28.840296 69.486504 13156789
173.81082 -28.838455 70.532509 11906208
173.55391 -28.837297 71.158867 9341059
163.39275 -28.817741 85.670647 11380380
163.08107 -28.81675 86.259155 9735558
162.66225 -28.815554 87.042137 7564651
162.23967 -28.81432 87.823158 7564651
161.70601 -28.812756 88.79641 9537921
161.16693 -28.811275 89.766678 12498087
160.73132 -28.810074 90.540413 9537918
160.29195 -28.808886 91.312096 9734788
159.73738 -28.807379 92.27359 7762285
159.1774 -28.805958 93.231941 9736836
158.72505 -28.804802 93.996101 12630704
158.2691 -28.803661 94.75808 9868171
157.69382 -28.802214 95.707283 9208954
157.11319 -28.800848 96.653259 10590609
156.64442 -28.799744 97.407463 8089963
156.05324 -28.798376 98.346901 8814198
155.45676 -28.797022 99.282959 8353651
154.97545 -28.795954 100.02912 8813945
154.49043 -28.794895 100.77298 7563619
153.87907 -28.793585 101.69939 8024170
153.26245 -28.792294 102.62229 7300963
152.76503 -28.791271 103.35793 7038307
152.26402 -28.790262 104.09107 11049874
151.63271 -28.789013 105.00398 9406076
150.99629 -28.787781 105.91335 9735039
150.48303 -28.78681 106.63799 9801090
149.96634 -28.785845 107.3601 9209467
149.57657 -28.785131 107.90012 10985364
148.5414 -28.49288 111.28805 9734788
147.9655 -28.484989 111.97283 8090479
147.24585 -28.476088 112.82812 8287859
146.52628 -28.468069 113.68279 8024682
145.87036 -28.44705 114.3029 8813686
145.35115 -28.426348 114.74531 9537409
177.75636 -27.556559 62.59483 7038307
177.46368 -27.707636 63.292828 7827821
177.0999 -27.784445 64.286163 9866885
176.73724 -27.787003 65.360352 8617330
176.44676 -27.78977 66.219902 8880246
176.1523 -28.018064 66.835884 8288365
148.09396 -28.039978 112.06985 8090479
147.36714 -27.852394 113.03361 8287857
146.78078 -27.577923 113.8801 6511954
146.12903 -27.558498 114.50539 7761510
145.4353 -27.531799 115.09582 8550514
144.97974 -27.290188 115.58889 8089963
178.87239 -26.20035 60.817791 5655879
178.50502 -26.426031 61.652943 6577498
178.13776 -26.652248 62.487358 6511961
177.8125 -26.59638 63.516663 7235425
177.4091 -26.805285 64.477974 7498592
177.04297 -26.95826 65.391838 6840918
146.38818 -26.6684 114.70827 10326922
145.75751 -26.419764 115.35056 9340030
144.8622 -26.483829 116.06615 9405823
144.10226 -26.286175 116.79206 10721678
179.47075 -25.408337 59.938499 6445394
179.10553 -25.520302 60.896343 6050636
178.81525 -25.519638 61.75914 5524292
178.5248 -25.519543 62.621979 6182482
178.15907 -25.633537 63.57893 7038043
145.77715 -25.744902 115.6516 8089963
145.20287 -25.544653 116.22415 7958889
144.39503 -25.427269 116.95229 10195589
143.66376 -25.373295 117.58679 7103834
180.43889 -24.390635 58.217072 6511954
180.05699 -24.569866 59.147976 8419184
179.70746 -24.613205 60.136948 8945786
179.41698 -24.611937 61.001282 8089963
179.12616 -24.611265 61.865601 5392706
178.83031 -24.838375 62.48687 5919309
145.33893 -24.828251 116.44791 7761509
144.70728 -24.582123 117.08978 8090730
143.83871 -24.554445 117.82619 7367006
143.22392 -24.460451 118.38251 8879730
181.11604 -23.483528 57.234138 9406590
180.71898 -23.662306 58.210678 7038298
180.33882 -23.750546 59.239758 11841446
180.02008 -23.702839 60.24062 9537666
179.72728 -23.777637 61.025463 8089963
144.7252 -23.906351 117.39272 6511954
144.09315 -23.661293 118.03446 8287850
143.39809 -23.6406 118.62314 8879992
142.61261 -23.572865 119.3092 10985367
181.94046 -22.576946 55.813259 15197142
181.64548 -22.725933 56.520645 8814709
181.32457 -22.752726 57.443298 9077625
180.94386 -22.840565 58.474487 8287852
180.62476 -22.792196 59.477112 13682365
180.32777 -23.01915 60.101795 10985625
144.11018 -22.985048 118.33847 9143424
143.65488 -22.610731 118.89372 8485752
142.95612 -22.726675 119.42116 11643040
142.17015 -22.660316 120.10704 9669251
182.99945 -21.212091 54.21553 7893864
182.70126 -21.437782 54.845318 10328204
182.33041 -21.662504 55.691952 14144454
182.03041 -21.592716 56.662151 12433580
181.62938 -21.785257 57.634895 8683123
181.22905 -21.956425 58.629814 9734784
143.21191 -21.695257 119.69328 11116184
142.40202 -21.583967 120.42024 10064009
141.59294 -21.473577 121.14605 9603457
140.96358 -21.097832 121.84702 6511954
183.52263 -20.288841 53.410202 7893864
183.31183 -20.524366 54.067566 7104348
183.01988 -20.51963 54.939941 13288122
182.72787 -20.515369 55.812065 14867665
182.3595 -20.626017 56.780605 12235945
142.47935 -20.682226 120.78008 13024949
141.96271 -20.398516 121.34379 10064521
141.15004 -20.42506 122.0082 6906455
140.53381 -20.336073 122.5633 9143158
183.93881 -19.353224 52.571213 16247774
183.78984 -19.594891 53.24741 10327948
183.63181 -19.603765 54.160816 8353903
183.33931 -19.599201 55.03484 13485245
182.96687 -19.825407 55.88435 16248807
142.01724 -19.615168 121.66689 8156780
141.39928 -19.526068 122.22352 9537918
140.70312 -19.511234 122.81027 11379348
140.08635 -19.423157 123.36549 11379348
184.22626 -18.58276 52.492645 9210491
184.11681 -18.673101 53.341133 9736835
183.95021 -18.758327 54.173634 8551541
141.57002 -18.698877 122.47036 9998469
140.95154 -18.610666 123.02705 11116433
140.2549 -18.596931 123.61376 9208950
139.50294 -18.469461 124.30003 7761253
184.64316 -17.645714 51.650761 9933958
184.5341 -17.735037 52.499474 9210491
184.42474 -17.82486 53.349174 9210491
140.96361 -17.930468 123.33695 10459273
140.50252 -17.694689 123.83196 8946036
139.63121 -17.678862 124.56513 8024425
138.83946 -17.58946 125.26663 8813686
184.97391 -16.793427 51.422554 9932164
184.84271 -16.885347 52.506138 9210491
140.51399 -17.013411 124.14289 8485485
139.95647 -16.700418 124.75446 7498336
139.21338 -16.479753 125.47717 10721426
138.42958 -16.433357 126.1519 10853012
137.96968 -16.063105 126.70911 8485238
185.4894 -15.626253 50.741081 9602687
185.35695 -15.730657 51.720051 10128774
185.13197 -16.110151 52.426971 9142393
139.48891 -15.631095 125.64954 10458254
138.74422 -15.398189 126.50011 10655633
138.0488 -15.38857 127.08872 9537668
137.45284 -15.306756 127.66587 7498601
136.95605 -15.152664 128.2321 8485238
186.54158 -14.236918 48.965923 9866885
186.06024 -14.77626 49.878063 9340283
186.03166 -14.710111 50.751251 7563619
138.42177 -14.727052 127.43284 10195083
137.74937 -14.569795 128.14816 8485238
137.02414 -14.531384 128.79263 9209471
136.42056 -14.25872 129.5938 10262414
135.7343 -14.252094 130.19125 9144448
187.98187 -13.332808 46.214153 7037786
187.76158 -13.574876 47.360035 8880502
187.56889 -13.816149 48.27298 8089963
135.73909 -13.861753 131.77716 8880764
135.04791 -13.855882 132.37556 8090737
134.35677 -13.850261 132.97299 7564389
133.66554 -13.844895 133.56935 8616307
128.33197 -13.380059 143.65649 8089962
127.52299 -13.368138 144.14189 8748148
126.77127 -13.123355 144.69077 11380380
188.52145 -12.394737 45.384857 7037786
188.30064 -12.587008 46.436104 7629923
188.09532 -12.873266 47.202782 10985623
127.86566 -12.513452 144.29623 8484720
126.94033 -12.42274 144.88373 11380380
126.18817 -12.178638 145.43268 7039331
190.4169 -11.511577 42.944267 8616819
189.97749 -11.657969 43.886597 7169884
189.31836 -11.950964 44.614555 6511954
189.17224 -11.953439 45.542198 9143675
127.23588 -11.534169 145.08029 9012606
126.38444 -11.359374 145.65913 7499881
127.33578 -10.782125 145.33583 7039331
126.58121 -10.537989 145.88617 9670279
125.65475 -10.449616 146.47336 7828334
126.80658 -9.5966215 146.14651 13024949
125.99503 -9.5887041 146.63177 9867402
125.24013 -9.3455687 147.18187 7564651
126.19142 -8.7632914 146.86075 9735301
125.33755 -8.5902605 147.44025 9012606
124.65202 -8.3955498 147.92889 9933193
125.53851 -7.7392154 147.6772 9538692
124.70183 -7.6065693 148.22969 9604485
125.79912 -6.9812183 147.83984 9933193
125.03235 -6.5598259 148.47166 9999242
124.14349 -6.3998952 149.06647 9209728
124.56149 -5.3064528 149.27608 10853782
123.63017 -5.2225142 149.86429 9604228
124.52454 -4.5896463 149.59811 10590865
123.8983 -4.2999692 150.09137 9341057
123.15411 -4.344995 150.51447 8419958
123.98671 -3.3898268 150.4203 9998985
123.17062 -3.3874002 150.90561 9801606
122.61427 -3.1461287 151.33701 8813942
123.50325 -2.4756579 151.09058 11775140
122.5751 -2.425643 151.66212 8945784
122.01798 -2.1842971 152.09378 9537921
123.35353 -1.7048804 151.50272 12433069
122.92929 -1.4147668 151.8761 10393488
122.06456 -1.3816683 152.40291 9274749
122.96139 -0.73863626 152.14105 10525073
122.34357 -0.44795731 152.65111 9669507
121.48314 -0.41549081 153.18434 10787988
122.40927 0.23025513 152.96016 10459023
121.7977 0.52153659 153.48026 10853525
120.93549 0.55347931 154.013 9538177
121.36143 1.206122 154.68536 9406847
120.51722 1.2050426 155.14258 9143419
120.2722 1.6970197 155.98897 8616564
119.42433 1.6955425 156.44225 10260617
120.2356 2.1876907 156.33125 8090992
119.6215 2.4814844 156.85805 9931653
118.92976 2.6765032 157.36205 8616566
119.99319 3.1736174 157.18983 10260617
119.10689 3.1699433 157.59689 9142652
118.61271 3.6683936 158.52664 9208446
118.11981 4.1694016 159.46552 9339773
117.20337 4.4176135 160.23877 7563619
116.73208 4.6678872 160.81094 7563619
175.49048 -28.476604 68.281471 8681843
175.19925 -28.481649 69.140709 9932166
174.90765 -28.487341 70.000435 11182489
174.61565 -28.493631 70.860428 9340802
174.00929 -28.612568 71.672485 9341059
173.12041 -28.835464 72.200539 9341059
172.6806 -28.833649 73.239433 10787727
172.23483 -28.831841 74.275993 9471614
171.87369 -28.83041 75.10331 8945015
171.50851 -28.828987 75.928719 9012088
171.04623 -28.827257 76.957947 8814709
153.15466 -28.57844 105.78958 8880250
152.42815 -28.382767 106.7574 8749174
151.77744 -28.32439 107.55882 8223089
151.20038 -28.313143 108.24699 9209724
150.62343 -28.302523 108.93449 10524813
149.83755 -28.512878 109.74538 9538176
149.1174 -28.50132 110.60277 9734788
176.15727 -27.718189 67.160957 8551537
175.7921 -27.79826 68.154716 8945527
175.42767 -27.804287 69.230232 8681843
175.13577 -27.809778 70.091064 9208444
174.7675 -28.041967 70.921654 9537667
151.97554 -27.655174 107.69895 7828589
151.39331 -27.49441 108.47677 8617845
150.88551 -27.410528 109.12367 9998215
150.09814 -27.621487 109.93594 9997960
149.3766 -27.610281 110.79472 9340030
148.79956 -27.602024 111.48114 7893356
148.28691 -27.371557 112.21569 7301220
147.66971 -27.252316 113.01171 8419696
177.49341 -26.202377 64.911148 7367005
177.1996 -26.355083 65.610634 5327679
176.83028 -26.659273 66.362694 6577747
176.50337 -26.606548 67.39325 9735298
176.11069 -26.732569 68.416611 9932677
175.73167 -26.974604 69.267937 10326410
175.43727 -27.129913 69.966202 8681843
150.93767 -26.737961 109.43809 9537409
150.50372 -26.730864 109.9547 10261132
149.84589 -26.496313 110.86311 9011065
149.12291 -26.486223 111.72309 6775132
148.54475 -26.47883 112.41053 7301472
147.96663 -26.472063 113.0975 7498849
147.24411 -26.464418 113.9556 7169627
146.51801 -26.222578 114.80989 10458505
178.166 -25.293545 63.943798 8813939
177.79759 -25.521702 64.779297 9669246
177.50626 -25.523558 65.642471 6577490
177.18628 -25.481024 66.641182 5985099
176.81131 -25.643314 67.570778 10261385
149.75168 -25.821146 111.3521 8089963
149.3174 -25.81535 111.86856 7564642
148.80304 -25.584249 112.6058 8617331
148.22395 -25.577633 113.29394 6511954
147.50012 -25.570215 114.1535 9142902
146.71301 -25.552834 114.96252 12432037
146.09549 -25.455547 115.52262 8551026
178.74887 -24.565695 63.037823 6511189
178.39839 -24.611839 64.026527 8419184
178.10681 -24.613047 64.89106 11050642
177.81502 -24.614777 65.755737 10590347
177.44579 -24.844536 66.591911 5919050
148.27229 -24.904135 113.6137 6511954
147.68579 -24.718435 114.41074 9866626
146.97346 -24.658182 115.16642 10262156
146.27489 -24.634132 115.75967 8353646
145.65694 -24.538029 116.31951 7761509
179.73438 -23.473463 61.349289 8089963
179.40964 -23.655218 62.107555 7103068
179.02867 -23.746243 63.135777 5919050
178.70879 -23.701288 64.136986 6182222
178.41525 -23.7782 64.921532 8419184
178.12007 -23.931501 65.624374 12432037
147.15436 -23.834379 115.40333 9011576
146.53445 -23.738256 115.96486 7103579
145.83548 -23.71553 116.55769 6511954
145.08267 -23.57888 117.24905 8813940
180.33522 -22.714178 60.425404 9011322
180.04184 -22.789143 61.211845 8089963
179.67709 -22.78828 62.296028 6248783
179.31212 -22.788155 63.380238 5919306
178.94197 -23.017031 64.219994 5919050
146.55428 -23.059437 116.26759 6510930
146.09799 -22.682533 116.825 7301215
145.31232 -22.624763 117.50662 9208956
144.57092 -22.395729 118.23184 8222580
144.01639 -22.078693 118.84283 9143424
181.68678 -21.194639 58.13401 7959144
181.39084 -21.345194 58.842213 10064006
181.01808 -21.648563 59.605392 8814196
180.72609 -21.646818 60.474674 7630180
180.36084 -21.645273 61.561245 7235165
179.91521 -21.949896 62.53933 6183246
179.61943 -22.102358 63.245163 8682867
145.70186 -21.522009 117.70092 9143678
144.90663 -21.424143 118.40929 9143422
144.03304 -21.400452 119.14809 9669511
143.5731 -21.162043 119.6433 9143424
182.36911 -20.280046 57.144493 10459534
181.99741 -20.506657 57.991341 8090992
181.70508 -20.503996 58.862778 9274749
181.41255 -20.501762 59.734043 8156523
181.0602 -20.545719 60.730682 8024682
144.9084 -20.592356 118.79903 10261389
144.28812 -20.500614 119.35891 8880253
143.58905 -20.482948 119.94953 9471872
142.97006 -20.392267 120.50771 12630191
182.97688 -19.478434 56.248077 13354170
182.6077 -19.58963 57.218479 9012345
182.31494 -19.586491 58.091568 10262671
182.022 -19.583879 58.964458 8222579
181.64975 -19.811989 59.81144 11313560
144.464 -19.6724 119.60204 8879990
143.84317 -19.581633 120.16177 9011576
143.14368 -19.565191 120.75213 9932678
142.52429 -19.475447 121.31027 11775138
183.95952 -18.448755 54.496872 9734788
183.58621 -18.675415 55.348705 12234922
183.21977 -18.67053 56.442577 11314076
182.92654 -18.667137 57.317364 8880504
182.6311 -18.74131 58.11068 7038307
182.33363 -18.892994 58.822411 7038307
144.0183 -18.752073 120.40614 8419183
143.39719 -18.662277 120.96581 7563874
142.52238 -18.643242 121.70332 8748917
141.88623 -18.402885 122.34629 9341054
184.50441 -17.521069 53.692776 8092019
184.20074 -17.754578 54.567505 9736073
183.83366 -17.749311 55.663609 11905957
183.53999 -17.745567 56.540215 9011064
183.16618 -17.973772 57.391674 7037274
143.41223 -17.979929 121.27425 6510930
142.95264 -17.605768 121.83302 8551537
142.07449 -17.724781 122.50847 8288107
141.27953 -17.633539 123.2135 11117202
184.92265 -16.580557 52.849297 9210491
184.76888 -16.777199 53.672638 9538949
184.47748 -16.872971 54.745152 9341571
184.15292 -16.899561 55.678715 11445919
183.85417 -17.051235 56.394196 7037274
142.32932 -16.647661 122.80292 9208695
141.51279 -16.575706 123.51682 7827556
140.87276 -16.473385 124.09805 8485485
140.41254 -16.101248 124.65649 6511954
185.62389 -15.183658 52.083183 7563619
185.382 -15.500381 52.899231 9143674
185.07399 -15.895601 53.856857 10394001
184.69157 -16.128633 54.952854 8683899
141.93878 -15.670583 123.58779 7827300
141.1866 -15.434988 124.43505 7038302
140.48708 -15.42397 125.02556 7301476
139.74025 -15.190469 125.87643 9471874
186.45187 -14.254274 50.384068 11576729
186.26942 -14.414096 51.137371 7892840
186.14339 -14.500092 51.987305 7432547
185.87 -14.737037 52.876816 7039331
140.86626 -14.760882 125.36369 9143425
140.29332 -14.529013 126.06989 8945531
139.41937 -14.517028 126.8095 9537152
138.67111 -14.284053 127.6629 9274238
138.14729 -14.277458 128.10558 8485238
187.74684 -13.512933 48.639889 8156011
187.65465 -13.600185 49.500843 10129798
187.4873 -13.840672 50.181507 11576729
138.15807 -13.8845 129.67429 9735812
137.46693 -13.877668 130.27643 8552055
136.77582 -13.87109 130.87752 8618105
136.25749 -13.866371 131.32768 9144448
130.09966 -13.642165 142.49692 10260872
129.47871 -13.350595 142.98779 8221548
128.737 -13.386203 143.41338 8813685
188.20554 -12.567271 47.792213 9472639
188.10103 -12.65295 48.650341 7038298
188.0199 -12.740544 49.515572 10064005
129.57581 -12.459087 143.30334 9340027
128.76332 -12.447526 143.79076 8287341
128.21178 -12.205004 144.21976 7037274
190.12856 -11.513123 44.56496 6511954
190.00446 -11.514064 45.259926 8617331
189.58791 -11.662598 46.205994 8945528
189.21475 -11.81125 46.919502 8353903
188.80437 -11.960946 47.863899 9143675
188.70412 -11.964141 48.564087 9932419
129.10335 -11.557858 143.96132 8748406
128.18004 -11.498857 144.53435 8353906
128.96164 -10.801294 144.36221 9143936
128.54214 -10.512882 144.73212 8881021
127.6821 -10.471607 145.26016 8420470
128.55066 -9.6934147 145.07022 10590354
127.82306 -9.6069012 145.53854 11182490
127.21286 -9.6006622 145.90346 13024949
128.05132 -8.6616096 145.79877 9604230
127.23631 -8.6541777 146.28587 9801350
126.68237 -8.412405 146.71614 8089963
128.01875 -7.9490075 146.11646 10787732
127.46362 -7.7066851 146.54762 8748149
126.64835 -7.7002525 147.03448 9143419
126.09388 -7.4585814 147.46494 9012606
127.43025 -6.9926805 146.86641 8616563
126.93151 -6.5124378 147.36378 9538177
126.17865 -6.4122863 147.85269 9867142
125.6162 -6.0277834 148.34772 10854036
126.95454 -5.5579767 147.7504 9735812
126.39783 -5.3157558 148.18219 10064264
125.58078 -5.3115273 148.66873 11905701
126.42008 -4.3580565 148.5708 9603969
125.80617 -4.3554745 148.936 10985111
125.07535 -4.2726989 149.40421 10064521
125.94514 -3.4760494 149.22247 9735812
125.21317 -3.3935914 149.69127 9406846
124.59955 -3.3916593 150.05609 9341057
125.43851 -2.4317083 149.96115 9999496
124.61893 -2.4299073 150.44803 12235946
124.06062 -2.1880355 150.88065 10788247
125.40262 -1.7079182 150.28606 11184026
124.84341 -1.4653959 150.71951 12499374
124.02338 -1.4643711 151.20636 9933196
124.80698 -0.73977858 151.04593 7564651
124.252 -0.49708551 151.48569 7959408
123.52289 -0.41615871 151.96053 8617337
124.42891 0.39285386 151.82632 8617593
123.70216 0.4737134 152.30658 8486264
122.976 0.5544064 152.78656 9735812
123.341 1.2070473 153.36774 9735813
122.61169 1.3711512 154.10193 10196107
122.07566 1.5351931 154.69966 10196107
121.32619 1.6987826 155.41158 8879991
122.30899 2.1913104 155.12427 10459023
121.5878 2.4368234 155.74759 9538436
120.84658 2.5172091 156.21584 7565675
121.10854 3.1784234 156.68555 7565675
120.56033 3.5105453 157.40938 9274495
119.72707 3.6737008 158.02344 7038307
120.13132 4.1801901 158.55881 8616566
119.23601 4.1753111 158.9623 8616566
174.10381 -28.506168 72.366493 7564651
173.88399 -28.512108 73.012383 8419959
173.59064 -28.520647 73.874016 9011323
173.29689 -28.529787 74.736168 9208187
173.00262 -28.539577 75.598969 9997703
170.57819 -28.825523 77.984642 9209467
170.19917 -28.824085 78.803856 9406334
169.81616 -28.82276 79.621178 10130057
169.33176 -28.821003 80.640221 9472384
168.84155 -28.819307 81.656425 10787217
168.44487 -28.818066 82.467293 8354676
168.04434 -28.816732 83.276146 7565675
167.53787 -28.815084 84.284431 8354160
167.0258 -28.813446 85.289848 5920074
166.61163 -28.812153 86.091866 5920074
157.6431 -28.700289 100.41842 7169635
156.98593 -28.454134 101.33253 8156271
156.40559 -28.437204 102.02764 9142908
155.82574 -28.42087 102.72182 7827044
155.10153 -28.401375 103.58836 6840150
154.37796 -28.382864 104.45368 9931649
153.79947 -28.368759 105.145 11444375
153.28807 -28.13213 105.88155 8354676
152.85449 -28.122478 106.39927 7565675
175.29105 -27.132706 70.397392 8287859
174.96677 -27.319258 71.148994 7761772
174.51614 -27.655161 72.106598 7762030
174.18681 -27.607512 73.138695 7893615
173.89297 -27.6157 74.001869 9341054
173.52263 -27.925781 74.75042 9340286
173.22688 -28.08456 75.448433 10261132
156.61055 -27.765594 102.16098 7958888
156.02681 -27.598951 102.94389 7037530
155.3723 -27.506628 103.76878 8287337
154.64726 -27.488623 104.63547 9997955
154.06767 -27.47492 105.32791 11050644
153.4884 -27.461817 106.01962 8749433
152.76485 -27.446384 106.88319 8617846
152.10779 -27.208416 107.7925 8091760
151.67392 -27.200171 108.30981 8617845
175.88669 -26.371321 69.491493 10721424
175.59297 -26.451643 70.272728 8551031
175.22673 -26.458979 71.352196 8287859
174.85985 -26.467155 72.432213 10458511
174.48997 -26.701294 73.265144 9735812
155.28513 -26.827265 104.25162 8813680
154.84616 -26.666122 104.86035 10064010
154.3364 -26.579227 105.51125 9801350
153.75598 -26.566525 106.2041 9143934
153.17595 -26.554424 106.89619 9143934
152.45131 -26.54015 107.7603 8946554
151.72711 -26.526728 108.62346 11248539
151.21817 -26.442955 109.27164 9405823
150.63461 -26.283649 110.05013 9537409
176.78038 -25.304512 68.04657 11313303
176.48433 -25.534502 68.665253 11839390
176.19165 -25.538885 69.529533 12365220
175.86984 -25.499184 70.530067 9800582
175.49352 -25.664436 71.460121 7630187
175.16144 -25.784288 72.309738 7038307
153.95703 -25.893885 106.34266 8354676
153.44293 -25.657604 107.08217 8749176
152.71693 -25.643744 107.94769 9274749
151.99133 -25.630754 108.81226 10590609
151.41119 -25.620953 109.5032 8682356
150.83118 -25.611809 110.19356 8945272
150.1776 -25.557194 110.99646 9735044
149.44725 -25.367485 111.96574 7696229
177.45195 -24.504335 66.959419 7498080
177.0843 -24.621477 67.918404 8880246
176.79146 -24.625134 68.783897 10721424
176.49825 -24.629288 69.649666 10458253
176.12958 -24.748508 70.608757 9603203
152.77112 -24.967607 108.26171 9867142
152.18558 -24.806938 109.04346 9735044
151.67487 -24.723354 109.6936 8353391
151.0939 -24.714479 110.38517 8616563
150.368 -24.704176 111.24882 8946296
149.64235 -24.694712 112.11172 8683124
149.06201 -24.687744 112.80147 9143675
148.55162 -24.607086 113.44975 6840919
148.11098 -24.452618 114.05698 7564642
178.42123 -23.474758 65.247726 9734788
178.09006 -23.590469 66.100121 8550254
177.71394 -23.752604 67.033226 5919050
177.39249 -23.710285 68.035713 6445393
177.09904 -23.713688 68.902672 7893101
176.80188 -23.944801 69.523109 7038307
151.72765 -24.046684 110.0099 8089963
151.29134 -24.040285 110.52918 8419956
150.62993 -23.805225 111.44231 8025194
150.04922 -23.50737 112.29525 9209468
149.38649 -23.564222 113.04668 9735812
148.80493 -23.558081 113.73745 8617331
148.2235 -23.552418 114.42779 8024937
147.61644 -23.393967 115.19296 8551025
146.90459 -23.070635 115.97057 6510930
179.09767 -22.560177 64.275406 5919050
178.72737 -22.789606 65.115303 8155497
178.3613 -22.791599 66.20002 6905688
177.99471 -22.794245 67.284935 5919050
177.6998 -22.872938 68.070961 8155498
149.64671 -22.663391 113.24326 9341055
149.12892 -22.431808 113.98477 7827814
148.54613 -22.426386 114.67657 6775126
147.78787 -22.415907 115.51722 7761253
146.9249 -22.390541 116.27361 7103323
146.46385 -22.149481 116.7711 8090992
180.07538 -21.338993 62.756275 6183246
179.71928 -21.55275 63.571507 7169885
179.40967 -21.644701 64.386459 6248271
179.043 -21.645845 65.473282 9602172
178.59827 -21.876904 66.531654 7760739
178.3004 -22.107437 67.1548 5919050
148.59431 -21.747906 114.99934 6511954
147.97243 -21.557566 115.77618 7498337
147.18602 -21.489382 116.48006 6510930
146.48335 -21.468733 117.07504 7761511
146.0218 -21.228319 117.57256 8090992
180.97905 -20.269228 61.285046 7563619
180.6806 -20.498178 61.911976 6709078
180.38734 -20.497547 62.783089 5920074
180.09384 -20.497316 63.654217 7038298
179.74048 -20.543613 64.65052 8353387
179.35475 -20.728321 65.586296 8484205
147.5031 -20.701675 116.58652 8024937
146.74358 -20.566219 117.28287 8222317
146.04057 -20.546825 117.87749 7301478
145.41859 -20.454376 118.43904 8419956
181.65862 -19.465841 60.177452 11445917
181.28902 -19.579187 61.146313 8419184
180.99541 -19.578028 62.018894 7563619
180.70157 -19.577318 62.891529 6314576
180.40596 -19.653837 63.682278 7235420
146.92392 -19.735346 117.52351 8288109
146.29997 -19.642834 118.0867 7564649
145.59663 -19.624767 118.681 8946299
144.97433 -19.53335 119.24239 10261900
182.63954 -18.432465 58.435867 7038307
182.30602 -18.545486 59.297783 7038307
181.92728 -18.70479 60.241501 11643041
181.60507 -18.656763 61.251911 10721938
181.31091 -18.6556 62.126068 8879735
181.01138 -18.88592 62.754623 7563619
146.47951 -18.810717 118.32861 7038307
145.85518 -18.719276 118.89164 8551543
144.97585 -18.698294 119.63389 9669763
144.33728 -18.455746 120.27982 7958632
183.32608 -17.510727 57.441338 8945527
182.95215 -17.739281 58.292595 7038048
182.58435 -17.736118 59.387409 7827566
182.2164 -17.733574 60.482147 10655892
181.92004 -17.809273 61.275978 9077372
145.87321 -18.034597 119.19879 8288371
145.26082 -17.694027 119.86898 7038048
144.51138 -17.481777 120.59301 6708309
143.77534 -17.440304 121.22559 6708309
143.31511 -17.065962 121.78501 6511954
184.16205 -16.588718 56.003696 8287597
183.86308 -16.740522 56.719292 8287597
183.5663 -16.814905 57.515789 9208955
183.19794 -16.81138 58.612782 8682358
182.8295 -16.808367 59.709538 9406340
182.52863 -17.038937 60.341404 10261391
144.8311 -16.456278 120.80919 8287599
144.03355 -16.394651 121.50245 8616563
143.32994 -16.38114 122.09485 8024424
142.86613 -16.144003 122.59277 10458505
185.43456 -15.210686 54.203442 9341571
185.02496 -15.437074 55.051521 9012093
184.62105 -15.663902 55.899902 9143163
184.32747 -15.660514 56.780632 9603970
183.82779 -15.885618 57.839699 8879990
183.36426 -16.113764 58.908451 11381404
144.75444 -15.721439 121.21869 9735299
144.22525 -15.711447 121.66409 10854036
143.64166 -15.476392 122.36056 8287597
142.93909 -15.46412 122.95452 9471867
142.18564 -15.227956 123.8032 6511954
186.298 -14.284609 52.75634 7039331
186.10582 -14.444844 53.509232 8486003
185.94374 -14.529131 54.352188 10195847
185.46695 -14.751933 55.182785 8090991
185.17542 -14.748517 56.067249 8879991
143.31992 -14.798878 123.28275 8485229
142.74681 -14.565329 123.99082 5920074
141.86951 -14.551912 124.73466 7959149
141.12056 -14.317035 125.59043 10787735
187.7502 -13.377232 50.251556 11576729
187.58253 -13.61799 50.933399 8682867
187.53278 -13.630108 51.890579 8353651
187.36844 -13.872108 52.574234 8486003
141.09633 -13.91651 127.10213 9143425
140.57776 -13.910527 127.55749 7827307
139.88631 -13.902738 128.1638 7038307
139.02214 -13.893424 128.91994 9275263
132.10719 -13.518416 141.35651 10064008
131.37891 -13.427815 141.82701 9998213
130.65149 -13.337749 142.29669 11181972
188.03943 -12.590219 50.166431 10129798
187.96115 -12.678434 51.035221 9011831
187.83568 -12.922727 51.730335 8287859
131.52586 -12.566527 142.1003 7893608
130.79733 -12.476945 142.57047 8879477
130.18614 -12.467904 142.93724 7563619
189.62965 -11.520366 47.588608 8551542
189.48155 -11.523529 48.521984 11248279
188.87758 -11.821465 49.255596 10327176
188.5338 -11.97609 50.2173 9932419
131.58545 -11.780582 142.39398 7564643
131.03105 -11.536459 142.8255 7563619
130.21463 -11.525348 143.31497 7563619
129.66101 -11.282148 143.74556 7563619
190.56844 -11.077257 46.851448 7038307
190.44308 -11.078442 47.550167 9932163
131.00209 -10.826658 143.13985 5920074
130.4473 -10.582911 143.57135 5920074
129.63069 -10.572948 144.0605 8354161
130.47603 -9.6352978 143.95117 7564642
129.86243 -9.6285353 144.31833 7828330
129.13277 -9.5416794 144.78802 8420727
130.00735 -8.7595472 144.59641 8617330
129.27641 -8.6731596 145.06644 8617849
128.66341 -8.6672974 145.43285 9143936
129.50833 -7.7236385 145.32703 9603714
128.68924 -7.7167077 145.81577 9998215
128.13318 -7.4742351 146.24728 11905701
129.47751 -7.0080309 145.64555 10787732
128.91405 -6.6215668 146.14188 9735299
128.07076 -6.5201364 146.6846 9866885
