# .PCD v0.7 - Point Cloud Data file format
VERSION 0.7
FIELDS x y z rgb
SIZE 4 4 4 4
TYPE F F F U
COUNT 1 1 1 1
WIDTH 1205
HEIGHT 1
VIEWPOINT 0 0 0 1 0 0 0
POINTS 1205
DATA ascii
85.451859 -53.161983 -100.72706 12631474
83.719551 -51.774796 -102.84801 9735555
84.26561 -52.033466 -102.26514 11643553
85.001099 -52.169601 -101.58202 9077627
85.506035 -52.424381 -101.03559 10065806
83.413261 -50.46983 -103.73158 9406332
83.874756 -50.943748 -103.11651 10195849
84.607079 -50.996777 -102.47595 16577772
85.049271 -51.278015 -101.96951 15393498
83.027283 -49.493938 -104.52427 8682867
83.441711 -49.816093 -104.02155 8419953
84.175034 -49.809853 -103.4086 7959916
84.625374 -49.970623 -102.95315 8682867
82.971428 -48.800667 -104.90398 8945784
83.763458 -48.803059 -104.23753 8288625
84.20446 -49.155762 -103.6979 8814968
82.57914 -47.80201 -105.71284 13418932
83.251511 -47.82856 -105.13531 9472128
83.836754 -48.096771 -104.51501 8420467
82.230164 -46.666542 -106.62511 8484720
82.800735 -46.921055 -105.97788 11182231
83.526077 -46.98801 -105.32596 9997958
81.421516 -45.733192 -108.22483 9209467
81.853577 -45.870739 -107.72393 7827302
82.46991 -46.035118 -107.04121 7695460
83.022003 -46.192101 -106.41985 9734786
80.296059 -44.494781 -111.36224 9602945
80.848351 -44.626671 -110.61762 10260875
81.217972 -44.837727 -109.57899 9405566
81.634071 -45.118614 -108.68694 7629667
82.229164 -45.32991 -107.95013 6510930
78.168419 -43.701626 -115.5295 8089963
78.912415 -43.919476 -115.14014 8813686
79.051971 -44.179085 -113.88139 9537409
79.729729 -44.178169 -113.40575 9273980
79.924286 -44.286461 -112.25301 9010808
80.640335 -44.311588 -111.83837 9471359
78.336349 -42.894222 -115.77837 8945270
78.912674 -43.163895 -115.43707 8287342
78.410942 -41.981552 -116.1067 9471356
79.073898 -42.393833 -115.6739 8813686
77.887291 -40.910904 -116.74139 9142391
78.628769 -41.050861 -116.38361 9010806
77.402084 -39.740597 -117.39954 8616048
78.058418 -39.946617 -117.05058 9471356
78.554283 -40.315353 -116.70311 9010806
77.59343 -38.801506 -117.69059 9734014
78.175621 -39.066124 -117.34884 9931648
77.060043 -37.50853 -118.41666 9734014
77.659187 -37.91029 -118.01405 9339514
78.34201 -38.255733 -117.59953 8089963
76.601166 -36.518188 -119.26488 8813686
77.219276 -36.783958 -118.76514 9602686
77.80381 -37.037331 -118.31896 9537409
75.082687 -36.198788 -123.94195 7564642
75.431183 -36.153049 -123.51646 6511954
75.946548 -36.048416 -122.70836 7564642
76.38089 -35.908482 -121.77848 7629924
76.354614 -35.97221 -120.7746 9405823
76.880447 -36.082695 -119.82433 9208700
77.345444 -36.229221 -119.16702 9077114
130.69858 -75.34494 1.3070545 8089963
130.79108 -75.404694 1.9365864 9274237
130.92831 -75.496552 2.8825436 9735043
131.18124 -75.443962 3.8352757 7827814
130.05803 -74.968124 -1.0443668 10851980
130.28047 -75.096291 -0.26310158 9602941
130.66786 -75.108772 0.67935371 9405819
131.08122 -74.968437 1.6908512 8418928
131.33688 -74.911888 2.641531 9998215
131.63612 -74.860634 3.6496792 7630436
131.90083 -74.797661 4.6526356 7169885
132.38911 -74.566795 5.4332409 6446418
132.58371 -74.539841 6.3713589 8353390
133.11128 -74.403564 7.2653942 10853779
133.31949 -74.416275 8.4025822 9669505
133.86226 -74.338531 9.7322903 9537918
133.87128 -74.357727 10.05628 8682867
133.23659 -74.299896 6.3107586 8880246
133.78442 -74.208801 7.4677715 9735297
133.80905 -74.245132 8.1141682 9735554
134.09425 -74.223946 9.1035137 10919058
134.50235 -74.16584 10.108145 9669504
134.73471 -74.150429 10.941252 8879991
135.20729 -74.096268 11.964045 8682868
135.45084 -74.05545 12.807959 9011833
135.97452 -74.036369 13.652773 8749172
136.39758 -74.020584 14.725149 8814965
136.70183 -74.019028 15.591555 7498849
137.22903 -74.01799 16.324007 8091242
137.50795 -74.016823 17.365583 12236714
138.00792 -74.015633 18.275518 11315100
138.50822 -74.014435 19.192991 8090730
138.7729 -74.013275 20.252745 9538692
139.29198 -74.012199 21.01676 8486262
139.57631 -74.011162 21.920622 9538692
139.82549 -74.009987 22.996431 15721438
140.55223 -74.008736 23.816031 12958388
140.82671 -74.007683 24.736506 9735042
141.09421 -74.006645 25.660978 9670017
141.78886 -74.005219 26.674173 8090987
141.91998 -74.004333 27.525324 6511442
142.60983 -73.732422 28.302576 7630179
142.97118 -72.993523 28.689093 6511954
98.627304 -69.53141 -71.141159 9210491
99.062904 -69.73922 -70.559105 9012857
99.804642 -69.787262 -69.734451 8946296
100.40438 -69.929596 -69.01133 8419952
98.312027 -68.485222 -71.991005 9144448
98.746674 -68.805664 -71.406448 9934215
99.359802 -68.961884 -70.66275 10197387
99.991676 -69.063744 -69.927071 9407359
98.330704 -67.768532 -72.320839 9802120
99.022987 -67.895531 -71.605797 12105643
99.608238 -68.058853 -70.886986 13750726
97.978554 -66.891861 -73.039742 8355190
98.641006 -66.80925 -72.521179 8684154
99.187172 -67.132614 -71.844658 11250078
97.45121 -65.779907 -74.019341 9734787
98.057877 -65.957764 -73.423378 8552313
98.776993 -65.96479 -72.815247 8223605
97.077957 -64.729759 -74.839661 9734787
97.680893 -64.979752 -74.212059 9603457
98.362183 -64.979912 -73.639 7762542
96.700348 -63.686493 -75.660263 9866373
97.153938 -63.963902 -75.145027 8682099
97.863777 -64.054955 -74.504143 10063747
96.201736 -62.526508 -76.638847 10260875
96.701614 -62.885098 -76.045624 8945528
97.51281 -63.044037 -75.286781 8682094
98.012039 -63.408649 -74.691032 10261124
95.815041 -61.497536 -77.460342 7893098
96.296883 -61.813717 -76.902588 8222063
97.003731 -61.993824 -76.221321 7498341
97.514572 -62.241764 -75.672119 7366237
95.437973 -60.542553 -78.483849 8092011
95.934715 -60.815094 -77.809448 7696999
96.612747 -60.9758 -77.102684 7629927
97.183403 -61.159031 -76.475151 9208443
94.279907 -59.452965 -81.184929 8681843
94.798927 -59.475933 -80.650429 11380124
95.226913 -59.671013 -79.69574 9209980
95.686211 -59.943619 -78.916985 8684148
96.302284 -60.111252 -78.191116 8157548
96.803993 -60.381893 -77.495872 6643290
87.953484 -58.816845 -95.906532 8025704
88.492493 -58.884789 -95.420807 7631202
88.983673 -59.017467 -94.639206 10261895
89.382927 -59.153229 -93.654251 7039331
89.65612 -59.152145 -92.69352 9209726
90.125572 -59.150963 -91.765541 14274496
90.588226 -59.14978 -90.83873 9209207
90.838699 -59.148716 -89.881149 7235931
91.488159 -59.147434 -88.980675 10655885
91.522575 -59.1465 -88.001228 10327176
92.252594 -59.145283 -87.230515 11314073
92.455894 -59.144272 -86.301796 11445917
92.891685 -59.143093 -85.349968 8354159
93.401352 -59.141769 -84.309624 7827043
93.601517 -59.140755 -83.36274 11117208
94.083076 -59.195332 -82.477058 11643296
94.588234 -59.26936 -81.684349 9537408
95.266388 -59.332108 -80.850105 13749184
87.486458 -57.81535 -96.781067 10985625
87.986504 -58.045509 -96.250023 7038559
88.738037 -58.095814 -95.59417 7631202
87.12117 -56.709278 -97.620338 7038307
87.557068 -57.004948 -97.111778 10261903
88.310966 -57.090675 -96.436882 10722707
88.863853 -57.403603 -95.821648 8814963
87.083153 -56.008686 -97.989601 7827565
87.879715 -56.062126 -97.294426 8156786
88.436188 -56.237309 -96.742439 9998731
86.670776 -54.947918 -98.845955 7826790
87.403816 -55.066345 -98.173409 7432548
88.029007 -55.29525 -97.538086 9537667
86.280739 -53.985962 -99.635277 12301483
86.922813 -54.073627 -99.053978 7893096
87.657608 -54.191788 -98.380051 8485746
85.872757 -52.917114 -100.49105 13814461
86.437218 -53.084175 -99.936775 11314586
87.201447 -53.13726 -99.269402 6511187
85.41893 -51.768997 -101.42336 7037274
85.987137 -52.068024 -100.80255 9274233
86.754303 -52.142563 -100.12241 7958375
87.199158 -52.433186 -99.609306 5919050
85.120033 -50.459625 -102.30295 15393498
85.578156 -50.937668 -101.6887 11445917
86.308884 -50.996197 -101.04681 8813683
86.816643 -51.336338 -100.45709 7037274
84.739891 -49.479424 -103.09274 8682867
85.151794 -49.805077 -102.59045 12827570
85.932487 -49.804173 -101.93517 10130057
86.415245 -50.132416 -101.37212 7037274
84.68779 -48.784821 -103.46993 7894123
85.478172 -48.79282 -102.80225 9143418
85.916458 -49.149189 -102.26302 8682867
84.246086 -47.738995 -104.34297 7828331
84.972328 -47.813339 -103.69727 7893867
85.554932 -48.085972 -103.07703 8617074
83.96347 -46.644432 -105.18739 9077114
84.528488 -46.90197 -104.53793 8551540
85.251251 -46.973724 -103.88477 7498083
83.169891 -45.704639 -106.784 9208443
83.568626 -45.907902 -106.24524 13090224
84.210556 -46.013557 -105.59985 11642525
84.75885 -46.174229 -104.97803 7563619
81.525848 -44.514172 -110.54316 9931910
82.125458 -44.541908 -109.92074 8418928
82.548294 -44.634922 -109.17632 7958889
82.890579 -44.81625 -108.24099 8748919
83.279472 -45.099472 -107.34673 7498338
83.938683 -45.277779 -106.56557 9142650
80.197319 -43.832939 -114.64874 9866374
80.687263 -44.17823 -114.18353 10261132
80.674339 -44.176891 -112.7337 9866374
81.372643 -44.238392 -111.89264 9932167
81.873985 -44.330273 -111.01383 9273980
82.391335 -44.323334 -110.60522 12431013
79.586761 -42.972576 -115.23705 8945272
80.196831 -43.091877 -114.94104 8682100
79.664398 -42.058018 -115.56484 9274237
80.364349 -42.304382 -115.1822 9142651
79.245026 -40.970055 -116.16372 8221549
79.885742 -41.125874 -115.84089 8682870
78.693985 -39.640553 -116.91132 9931905
79.374954 -39.989857 -116.49603 8551542
79.813248 -40.388481 -116.16029 7565675
78.853836 -38.868736 -117.14948 8814969
79.494545 -39.11586 -116.79076 8683385
78.480789 -37.579735 -117.80856 8089963
78.980606 -37.947765 -117.45981 7893612
79.606544 -38.323658 -117.05642 8420470
78.511093 -36.825417 -118.16026 9668995
79.06044 -37.096672 -117.76174 8945272
75.995316 -36.112728 -124.7725 7565154
76.461411 -36.051472 -124.19798 12432037
77.02951 -35.805042 -120.87984 9011576
77.758606 -35.803722 -120.05328 10063752
78.116386 -36.043194 -119.10342 8221549
78.609543 -36.194225 -118.61581 10261132
128.89897 -74.368042 -6.1486721 8880251
129.07864 -74.447762 -5.0706768 9538435
129.47224 -74.445549 -4.1511555 9670020
129.69601 -74.530502 -3.1559734 9208953
130.08223 -74.561111 -2.241354 10064005
130.40375 -74.580956 -1.3187962 10852750
130.85571 -74.571304 -0.36567879 9668734
131.20493 -74.559402 0.52777672 9536892
131.62752 -74.484047 1.40098 8089963
132.03011 -74.39975 2.2794476 9274493
132.07913 -74.438538 3.0735683 11709089
132.64497 -74.350998 4.3650417 6511954
131.92183 -74.323868 0.69379997 8089963
132.52299 -74.247711 2.2912922 9866630
132.70576 -74.256401 3.2516727 10722450
133.02252 -74.211029 4.0285473 6511954
133.42439 -74.155052 5.0370922 8485488
133.7355 -74.13694 6.0163479 10261384
134.07527 -74.091805 6.9047375 12037279
134.47597 -74.061722 7.8351116 10393228
134.82361 -74.043274 8.6378536 10261643
135.27483 -74.026794 9.6815434 9604226
135.58818 -74.024353 10.688646 8813686
136.32991 -74.023163 11.411654 9142907
136.42305 -74.022018 12.576086 9472126
136.96054 -74.020981 13.293383 9208435
137.27898 -74.019958 14.159426 12169892
137.57207 -74.018791 15.19478 8485486
138.31172 -74.017578 15.954924 9209725
138.45477 -74.016464 17.041437 9407102
138.9016 -74.015366 17.890734 11315100
139.34875 -74.014275 18.746881 10196619
139.49666 -74.013306 19.678862 11314844
140.20851 -74.011909 20.644575 8486262
140.62238 -74.010658 21.688414 11840677
140.7558 -74.009682 22.634806 15721438
141.49295 -74.008408 23.457224 12102823
141.62022 -74.007431 24.413733 8813941
142.31288 -73.838715 25.301996 11709341
142.50957 -73.733536 26.105379 9932932
142.62904 -73.74897 27.122431 8288366
142.82826 -73.298523 27.945333 8485488
142.84978 -73.027 26.169512 9670017
142.95995 -72.825172 27.020567 11051416
143.03596 -72.731277 27.987082 8814453
143.10988 -72.615112 28.717638 6511954
143.34782 -71.777168 27.191065 9932935
143.38191 -71.786659 28.056479 6906712
143.38683 -71.858894 28.77453 6511954
143.70358 -70.894028 28.001284 7366240
143.80058 -70.707817 28.679716 6906201
100.76307 -69.742706 -68.727005 8090987
101.24864 -69.796791 -68.174751 10064008
101.92873 -69.87561 -67.399712 9932423
102.51048 -70.022278 -66.693596 9998216
144.12338 -69.833626 28.805826 7038301
100.38369 -68.804054 -69.646515 10261899
100.81059 -69.005508 -69.077202 8485745
101.55405 -68.816429 -68.379829 9209212
102.13734 -68.995667 -67.654289 9538176
99.902756 -67.751732 -70.73719 14211277
100.38983 -68.021629 -70.065872 11183771
101.21521 -67.86557 -69.262314 9275004
101.75847 -68.051697 -68.576126 9801092
99.513992 -66.73912 -71.707047 12697780
100.10149 -66.991241 -70.937286 12631732
100.8269 -66.99305 -70.155441 11578016
101.27802 -66.993156 -69.669746 10130057
99.207237 -65.80027 -72.52375 8091250
99.710358 -65.95874 -71.920578 8814972
100.39838 -66.018974 -71.147163 8814715
100.88904 -66.286377 -70.47332 9669766
98.808411 -64.599113 -73.447304 8485751
99.307983 -64.949364 -72.851051 8222579
100.06709 -65.024567 -72.045242 7893615
100.59589 -65.371651 -71.286919 8814715
98.350815 -63.563713 -74.331451 8813680
98.917038 -63.861942 -73.711433 8814457
99.652695 -64.003273 -73.016182 8617337
100.10072 -64.225449 -72.44416 7564651
97.981659 -62.740891 -75.038597 8813680
98.42775 -62.79792 -74.635979 9405816
99.170135 -62.925739 -73.949989 8946041
99.670639 -63.29686 -73.350082 8814715
98.002205 -61.900826 -75.426414 7695458
98.789635 -61.879017 -74.774712 9997952
99.292137 -62.245686 -74.175285 10261124
97.676605 -60.761581 -76.399559 6314325
98.283463 -60.937298 -75.74398 7366750
98.886368 -61.120178 -75.076149 9406075
96.346451 -59.549709 -79.03463 10262668
97.016212 -59.665417 -78.283585 11314588
97.431168 -59.953453 -77.42482 7564134
98.089775 -60.103722 -76.693779 7366754
98.503525 -60.262001 -76.185921 8287597
89.611481 -58.860519 -94.492073 11380121
90.289482 -58.854908 -93.924934 8091504
90.729584 -58.990017 -93.198853 11380122
90.932312 -59.150761 -92.14222 11840926
91.600227 -59.149448 -91.236946 6840406
91.643005 -59.148495 -90.241249 7103578
92.391907 -59.147266 -89.469467 11050643
92.474014 -59.146297 -88.487526 10129543
93.057175 -59.145039 -87.567604 11709086
93.633423 -59.14378 -86.645973 9340797
93.693398 -59.142834 -85.671059 8682867
94.404022 -59.141613 -84.882401 9143418
94.502968 -59.140686 -83.958466 9472383
94.995384 -59.139446 -82.98629 11248538
95.491806 -59.145439 -82.023376 11182489
95.823502 -59.177643 -81.162712 11248538
96.195564 -59.304111 -80.179482 9999496
96.757393 -59.361454 -79.466194 9670787
97.128159 -59.422272 -78.900276 10262668
89.215134 -57.909214 -95.28302 12366500
89.704262 -58.055824 -94.801399 12892844
90.440018 -58.079014 -94.171898 10525330
88.790398 -56.74041 -96.202599 8814963
89.282166 -57.009708 -95.65966 8552049
90.028458 -57.10392 -94.987114 12828338
88.795738 -56.032646 -96.538734 9077885
89.551651 -56.097725 -95.872124 8089963
90.106949 -56.277935 -95.318703 11906981
88.349586 -54.971272 -97.424461 9735302
89.081238 -55.095657 -96.749802 10326925
89.719162 -55.192814 -96.166901 7563619
87.978424 -53.867096 -98.266434 7630182
88.605896 -54.096977 -97.629066 8288627
89.339531 -54.221184 -96.953224 10392718
87.562874 -52.929722 -99.065407 5919050
88.125816 -53.101509 -98.510147 7366753
88.924881 -53.07761 -97.850441 8683128
87.115517 -51.775898 -99.995079 7037274
87.737053 -51.983883 -99.373146 6971994
88.463356 -52.020721 -98.745422 6840152
86.823784 -50.461819 -100.87087 7892582
87.305969 -50.902283 -100.25442 7629410
88.000603 -50.90855 -99.667992 9866884
88.486412 -51.13327 -99.152 9011059
86.449295 -49.477207 -101.65804 8682867
86.899063 -49.765541 -101.14184 7366239
87.638382 -49.811089 -100.499 9405823
88.118874 -50.143509 -99.935875 9997956
86.400848 -48.781048 -102.03288 8880246
87.189888 -48.794651 -101.36362 8418928
87.692734 -49.045868 -100.82065 9734788
85.965302 -47.730553 -102.903 9077626
86.689865 -47.81004 -102.25622 8880247
87.27018 -48.087124 -101.63583 9011577
85.691231 -46.632977 -103.74504 9010806
86.226959 -46.865211 -103.13267 8287853
86.90583 -47.001431 -102.47918 6248015
84.911621 -45.686401 -105.33842 7563619
85.306732 -45.892509 -104.79983 8550512
85.894714 -46.03817 -104.15972 9010806
86.489929 -46.166622 -103.53078 11182228
83.196365 -44.493687 -109.21613 8814715
83.83564 -44.487297 -108.70245 7038307
84.234612 -44.603394 -107.88214 7433061
84.561447 -44.824074 -106.80396 7432800
85.033264 -45.082695 -105.90202 10260875
85.621857 -45.242279 -105.18642 9010806
86.047523 -45.386803 -104.68389 7563619
81.43692 -43.835796 -114.08305 9274492
81.908829 -44.176571 -113.30724 9011576
82.231354 -44.175453 -112.3368 9537663
82.546165 -44.174332 -111.36549 10194823
83.028152 -44.259598 -110.46481 11115411
83.68 -44.308453 -109.57797 8222579
84.193558 -44.303356 -109.16523 7038307
80.961288 -42.743038 -114.76603 9077628
81.542046 -43.010754 -114.42369 9406591
81.039352 -41.834324 -115.09138 8485749
81.696823 -42.04895 -114.73854 9012091
80.504387 -41.0466 -115.61949 9012091
81.243279 -40.933052 -115.36239 8025200
80.637695 -40.064476 -115.95107 8354164
81.076347 -40.465302 -115.61448 7564651
80.174393 -38.9263 -116.58767 7960176
80.760353 -39.188808 -116.24523 8880251
79.747864 -37.646553 -117.26492 8420470
80.24826 -38.016716 -116.91507 7631468
80.911079 -38.225601 -116.56231 7565675
79.684052 -36.913715 -117.60304 8288113
80.425407 -37.046867 -117.2258 7433060
76.569687 -36.071716 -126.05122 8617075
77.039413 -36.00985 -125.46954 8551280
76.693237 -36.020943 -123.91051 12432037
77.154243 -35.960224 -123.33514 10458762
77.840408 -35.869644 -122.47129 9471870
78.331223 -35.760246 -121.63295 8090987
78.794197 -35.641968 -120.76244 10195338
79.112198 -35.648392 -119.68224 9471872
79.430573 -35.923779 -118.61898 9471872
80.004883 -36.218159 -117.94633 8748148
128.06625 -74.049461 -10.739771 9209726
128.16203 -74.077789 -10.128683 9209726
128.34904 -74.148209 -9.2141323 9209726
128.74593 -74.159157 -8.2213764 11972000
129.00214 -74.212761 -7.1719418 11972000
129.60538 -74.141937 -6.3336582 9406337
129.75879 -74.208153 -5.4048061 9472132
130.32033 -74.156769 -4.4852238 10064268
130.55151 -74.203568 -3.551733 9012088
131.15121 -74.138443 -2.6870708 9472895
131.33423 -74.204674 -1.6768208 8946038
131.93019 -74.141388 -0.79845619 9340024
132.1438 -74.189117 0.12560463 9077111
132.68987 -74.113739 1.0214405 8089963
132.86847 -74.114044 1.9011974 9406079
133.4624 -74.061424 2.7945957 12762034
133.83113 -74.03315 3.9298 6972505
134.38905 -74.03083 4.5958843 9801348
134.65752 -74.029686 5.6430836 9406332
135.08234 -74.028526 6.5735302 11379607
135.43185 -74.027512 7.408102 11050643
135.76448 -74.026352 8.4099483 9406846
136.3064 -74.025169 9.2691593 10064521
136.63104 -74.02401 10.283007 8813686
137.18056 -74.022972 10.99124 9011321
137.29449 -74.021965 11.997499 9340282
137.82396 -74.020767 12.882017 9208435
138.35397 -74.019585 13.774038 11050383
138.4492 -74.01857 14.792845 10919572
139.19876 -74.017334 15.555178 9933707
139.28476 -74.016319 16.583021 8947327
139.80157 -74.015114 17.500757 9998215
140.31886 -74.013901 18.426229 12104616
140.59735 -74.012718 19.497213 11775138
141.13263 -74.011627 20.267332 8353905
141.42998 -74.010574 21.180513 7104607
141.88145 -73.980827 22.124151 9340031
142.32088 -73.802849 22.897322 7235426
142.4431 -73.768547 24.023798 8879734
142.61967 -73.500587 24.828009 9538175
142.64827 -73.218872 23.127752 6249303
142.79361 -72.905594 23.857607 7236194
142.87318 -72.81469 24.93239 9801601
143.01942 -72.521034 25.84598 11314840
143.11563 -72.032242 23.97188 5788489
143.21608 -71.856346 24.816412 5525574
143.26532 -71.84304 25.840799 6380369
143.3717 -71.65786 26.743391 8616563
103.86613 -70.466637 -64.992241 9537662
104.54717 -70.563011 -64.206635 9932676
105.03398 -70.634468 -63.643616 8090986
143.49153 -71.103523 24.865374 4342073
143.61964 -70.843719 25.645224 5130818
143.66339 -70.841438 26.635263 6774359
143.74576 -70.721642 27.531324 7366240
102.90522 -69.768829 -66.406609 9735299
103.33037 -69.983253 -65.832207 9340283
104.07651 -69.809807 -65.123421 9208955
104.65659 -70.096947 -64.342567 10261644
143.9841 -69.885048 26.024801 5919050
144.04231 -69.806358 26.70722 6774359
144.06856 -69.854332 27.714449 7629412
144.2121 -69.541245 28.40309 7564643
102.50865 -68.672363 -67.430611 8748659
102.93668 -69.009705 -66.78614 9077625
103.71172 -68.953362 -65.982445 8748660
104.28892 -69.040092 -65.313896 8156779
144.33533 -69.011337 26.807745 8089963
144.46301 -68.753754 27.597139 7958633
144.48943 -68.805641 28.639746 6511958
102.05557 -67.74765 -68.421852 10195849
102.64154 -67.926849 -67.693497 10326919
103.32691 -68.008614 -66.91114 8814195
103.7764 -68.132416 -66.359871 9274746
144.75505 -67.9506 27.609064 7564643
144.86073 -67.754738 28.404783 7432801
144.90607 -67.711258 29.08679 5854031
101.67247 -66.735924 -69.385147 8946039
102.26093 -66.872894 -68.677124 9143418
102.94831 -66.949806 -67.895226 10064004
103.43653 -67.231873 -67.21608 9011574
145.10783 -67.095558 28.583864 6971994
145.25053 -66.770981 29.157591 6445394
101.32842 -65.735703 -70.300133 8748663
101.92429 -65.865356 -69.588097 8682867
102.62707 -65.936066 -68.793037 9077625
103.05402 -66.28817 -68.141724 10458505
100.49708 -64.699501 -71.759415 8814715
100.89192 -64.900223 -71.224976 7696237
101.54517 -64.845573 -70.551468 8683128
102.23752 -64.903435 -69.774643 10130057
102.56936 -65.22953 -69.239952 8682867
99.999161 -63.667374 -72.857292 7564651
100.49523 -63.964344 -72.161598 7959408
101.17973 -63.848385 -71.487869 7827821
101.79463 -63.945511 -70.773064 8091246
99.6427 -62.625496 -73.697296 10064779
100.12454 -62.985836 -73.081627 8090736
100.84266 -62.956005 -72.336639 7696233
101.44088 -62.937977 -71.702492 8222830
99.261948 -61.577431 -74.522926 10261124
99.653915 -61.919514 -74.028336 10524815
100.41744 -62.001553 -73.302521 9076857
101.03192 -62.04797 -72.627304 8879991
98.988548 -60.604069 -75.432991 8616819
99.342003 -60.855331 -74.901314 8748405
100.04323 -60.910442 -74.277443 10129802
100.55317 -61.275417 -73.554565 9537921
97.744102 -59.454838 -78.243782 13024949
98.153168 -59.47731 -77.804466 9866629
98.664993 -59.641056 -76.854828 8287597
99.136902 -59.95097 -76.013947 6775127
99.722008 -60.136803 -75.286461 8090474
91.298576 -58.741982 -93.131203 13090999
91.939499 -58.801968 -92.554115 9274493
92.581253 -58.980701 -91.845222 7497825
92.607208 -59.148308 -90.75164 7958120
93.207893 -59.14703 -89.825615 9076856
93.543915 -59.145908 -88.866829 8089963
93.870392 -59.144791 -87.90731 9867141
94.599861 -59.143555 -87.117142 8682867
94.605591 -59.142628 -86.128227 8617074
95.216873 -59.141346 -85.199074 8485488
95.616806 -59.140186 -84.251274 8880246
95.804893 -59.139164 -83.286995 14275784
96.495125 -59.137939 -82.480415 14603981
96.771393 -59.136856 -81.525284 13485244
97.038361 -59.135784 -80.569984 11380638
97.500443 -59.198586 -79.586784 9209727
98.023834 -59.232689 -78.927299 13090997
98.633575 -59.333992 -77.991211 8287597
90.896751 -57.57407 -94.031059 10919318
91.513504 -57.818409 -93.395149 8550770
92.237068 -57.958458 -92.719566 7103324
90.500343 -56.620903 -94.823021 14078918
91.02935 -56.773888 -94.304787 11051160
91.789703 -56.905128 -93.602577 7234910
92.278839 -57.18298 -93.057724 7037274
90.075974 -55.449898 -95.743355 7563619
90.607048 -55.72982 -95.162254 10590865
91.328308 -55.892628 -94.477722 8353391
91.819717 -56.167816 -93.932228 7037274
90.18045 -54.718132 -96.007698 7563619
90.904686 -54.844902 -95.338005 8024170
91.463982 -55.049904 -94.769264 8221549
89.701324 -53.647793 -96.924599 8420213
90.395699 -53.835972 -96.251007 7695720
91.010674 -53.905121 -95.701088 7564651
89.352844 -52.545567 -97.746361 8157298
89.920311 -52.834381 -97.131073 7368296
90.630875 -52.931091 -96.487816 7959920
88.944504 -51.578262 -98.553627 6774358
89.440544 -51.836174 -98.013252 7894125
90.22097 -51.862892 -97.344887 10328465
88.525238 -50.476509 -99.434669 9603195
89.003372 -50.811802 -98.872124 7497823
89.739243 -50.865002 -98.2285 8419953
90.183212 -51.161667 -97.713219 12433069
88.156235 -49.487194 -100.21954 8287342
88.604012 -49.779358 -99.703178 8879474
89.342407 -49.830341 -99.058479 7958373
89.820816 -50.166943 -98.495018 7760994
88.152016 -48.78389 -100.56065 8879479
88.899437 -48.808582 -99.92099 8682096
89.400566 -49.063919 -99.377579 7760994
87.681747 -47.733944 -101.45963 7629412
88.404961 -47.81855 -100.81158 8616307
88.983192 -48.10025 -100.19067 9011063
87.321648 -46.657059 -102.35415 6708822
87.924149 -46.840275 -101.72529 6971738
88.624619 -47.009758 -101.03082 8879221
86.523956 -45.678635 -103.99108 11905692
87.039322 -45.88736 -103.34882 8222317
87.623848 -46.036907 -102.70771 8156524
88.215881 -46.169289 -102.07745 8617075
84.982475 -44.477612 -107.77331 6511954
85.526459 -44.519073 -107.14106 9405822
86.006592 -44.591747 -106.43291 8879478
86.318848 -44.814304 -105.35417 7958376
86.778412 -45.07449 -104.44828 9340026
87.36084 -45.237164 -103.73004 7300445
87.783646 -45.384552 -103.22691 8617075
82.724457 -43.828049 -113.57433 8814453
83.229538 -44.027748 -112.75169 9142906
83.7901 -44.173985 -111.91814 7563619
83.737244 -44.17268 -110.46949 9800581
84.394638 -44.171753 -109.96592 7630443
84.813614 -44.235336 -109.1567 7038307
85.345131 -44.293762 -108.23168 7498597
82.221405 -42.828674 -114.21783 8682867
82.945496 -43.059849 -113.78323 9472383
83.509415 -43.317196 -113.22503 9932934
81.806671 -41.541328 -114.89325 9012091
82.365768 -41.922234 -114.51521 8748660
82.961807 -42.134972 -114.18818 9932934
81.841141 -40.788139 -115.17519 9143677
82.486206 -40.948013 -114.84901 8748920
82.051254 -39.870815 -115.45004 9406590
81.395081 -38.974834 -116.07018 10130057
82.014175 -39.0924 -115.77116 9011832
81.019073 -37.716869 -116.71826 8814454
81.58374 -38.092804 -116.33988 10064777
82.184723 -38.300209 -116.01295 10459278
81.049873 -36.962872 -117.00201 7629924
81.699936 -37.117062 -116.67599 9406591
77.154213 -36.029926 -127.3531 10853012
77.509583 -35.98312 -126.91142 8617075
77.389725 -35.963703 -125.03297 9537918
77.85379 -35.902538 -124.45046 9011831
78.429947 -35.82642 -123.72181 8090987
79.000961 -35.750896 -122.9924 8682868
79.454788 -35.690842 -122.40842 9537918
80.380974 -35.517586 -119.11065 8682867
80.658081 -35.741482 -118.19768 7761509
81.202049 -36.17226 -117.43172 7498338
127.79282 -74.052505 -13.808641 10458249
127.85316 -74.051895 -13.195345 10458249
127.93851 -74.050972 -12.27495 10918799
128.38321 -74.049835 -11.383921 10787985
128.82166 -74.048698 -10.487013 9209726
129.144 -74.047485 -9.4213772 9275518
129.6859 -74.046425 -8.6763554 9866883
129.89738 -74.04525 -7.5635929 11182485
130.53096 -74.044136 -6.8430004 10787732
130.72795 -74.042953 -5.7208843 8551289
131.16814 -74.041962 -4.9811764 9011583
131.53871 -74.040665 -3.8556881 9341565
132.16188 -74.039543 -3.1085606 9933702
132.32925 -74.038368 -1.9681416 9669243
132.94702 -74.037231 -1.2077198 10261123
133.13924 -74.036201 -0.2499218 9603193
133.55869 -74.035202 0.52144814 9210491
133.89143 -74.033897 1.6815815 10723217
134.46294 -74.03289 2.3382092 11446685
134.74893 -74.031715 3.3807812 8682867
135.18935 -74.030556 4.303915 8945783
135.55293 -74.029541 5.1325092 7827303
135.90239 -74.028374 6.1285954 8353646
136.45869 -74.027199 6.9785404 9603455
136.59824 -74.026176 7.9736004 9735812
137.1907 -74.025002 8.8061008 10261643
137.54343 -74.023727 9.9153919 9011321
138.02318 -74.022636 10.73094 10985367
138.36159 -74.021591 11.595884 9406077
138.67775 -74.020416 12.63172 9471607
139.42212 -74.019043 13.549551 9208435
139.52296 -74.018028 14.57604 9276035
140.07281 -74.01696 15.318205 9473413
140.39391 -74.0159 16.209696 11249566
140.70891 -74.014854 17.105566 12433581
141.17157 -74.013741 17.969301 10261643
141.33002 -74.012741 18.91173 12762546
142.19907 -73.827835 19.929533 7761509
142.3457 -73.647797 20.799154 6643540
142.44023 -73.632446 21.794127 6446682
142.674 -72.867241 20.778662 6643541
142.75172 -72.767685 21.737761 5920338
142.81905 -72.688515 22.627813 7039075
142.92561 -72.481422 23.350443 8092019
142.89462 -72.27195 20.881941 6511954
143.06418 -71.891884 21.610971 5656910
143.15352 -71.779808 22.732859 7828591
143.24919 -71.624718 23.640902 5657676
105.42367 -70.693329 -63.192024 8090986
105.96507 -70.604141 -62.657814 10064262
106.64865 -70.713722 -61.862282 11576471
107.1805 -70.97612 -61.146896 9339254
143.41795 -71.022285 22.489916 5393738
143.54416 -70.790077 23.454481 4473659
143.62517 -70.69577 24.53359 4736573
143.77034 -70.383751 25.271379 5065281
104.88748 -69.666031 -64.328705 9669763
105.4426 -70.005608 -63.546204 8090986
106.23428 -69.780762 -62.816368 8946038
106.71778 -70.064728 -62.141182 10326405
143.74103 -70.166786 22.778135 4342073
143.84799 -69.959084 23.505537 3486765
143.93684 -69.819435 24.384623 4407609
143.99113 -69.789093 25.382711 5393476
144.19044 -69.321236 26.063017 5919050
104.20244 -68.459625 -65.723 9011576
104.58952 -68.739212 -65.154068 7959400
105.17467 -68.934875 -64.417633 7762021
105.86066 -69.034286 -63.624977 8617331
106.35114 -69.107918 -63.056915 8090986
144.26318 -68.923203 24.40753 4276280
144.32005 -68.881622 25.370714 5722184
144.41341 -68.746429 26.391684 6642773
104.25237 -67.74308 -66.059425 8485744
104.80396 -67.858086 -65.403053 7762277
105.45541 -67.978294 -64.636284 7433056
105.97827 -68.249794 -63.925583 9143675
144.68533 -67.876129 25.376825 5919049
144.74126 -67.830559 26.285162 5524292
144.79669 -67.786751 27.19623 7432286
103.80738 -66.85817 -67.020279 9406075
104.40237 -66.871376 -66.372597 7959655
105.08021 -66.916214 -65.618492 7565153
105.50801 -67.157784 -65.026436 8157034
145.07018 -66.926117 26.298464 6774355
145.16243 -66.780518 27.206327 6905942
145.2177 -66.737701 28.122282 6971994
145.31592 -66.548904 28.807409 5919050
103.06041 -65.617004 -68.500267 10130057
103.39043 -65.948074 -67.964745 9340538
104.09061 -65.94239 -67.214043 8222060
104.78001 -65.915176 -66.486702 6248782
105.12928 -66.201111 -65.95504 9012085
145.49007 -65.865379 27.100325 5984842
145.58357 -65.731323 28.134356 7301215
145.59285 -65.814613 29.045797 6577236
102.5729 -64.561867 -69.599533 7958634
103.00278 -64.910568 -68.946945 9076856
103.65894 -65.012596 -68.185005 9406077
104.28616 -65.047134 -67.49102 9274749
145.71291 -65.291214 27.433023 8090730
145.90266 -64.845253 28.076094 8814709
145.9868 -64.722832 28.989435 7235166
102.17905 -63.6357 -70.527931 9209467
102.65659 -63.873714 -69.884209 7695463
103.31908 -64.005119 -69.09948 7366755
103.92674 -64.078857 -68.405182 7761510
104.25931 -64.409195 -67.867271 11379356
146.27739 -63.91497 28.92967 7498340
146.4196 -63.579304 29.397871 7037274
101.78085 -62.627583 -71.505486 6907228
102.27853 -62.871162 -70.83709 7170400
102.97484 -62.937721 -70.051239 7498341
103.57148 -63.108662 -69.315826 7958634
146.55696 -63.204281 29.426126 9011579
101.37731 -61.538498 -72.532791 9143163
101.89588 -61.875244 -71.791054 8420209
102.6255 -61.876762 -71.004181 6249555
103.14119 -62.179134 -70.284416 7038046
100.5838 -60.489822 -74.205269 8089963
101.00694 -60.734787 -73.536842 10064265
101.62442 -60.862274 -72.745598 9406335
102.27076 -60.947868 -71.967392 9209467
102.75221 -61.179737 -71.255287 8354416
100.07387 -59.504356 -76.066353 6511954
100.42156 -59.669254 -75.389236 8485233
100.82502 -59.930504 -74.568184 8287598
101.47114 -60.043053 -73.814735 9142906
102.06056 -60.311729 -72.872032 9867141
93.013367 -58.660702 -91.729156 7958120
93.613739 -58.828876 -91.079094 7892327
94.15918 -59.015167 -90.33622 8353134
94.627388 -59.145519 -89.248665 11576730
94.692207 -59.144547 -88.24968 13749184
95.424545 -59.143299 -87.452553 9340798
95.632523 -59.142239 -86.475609 8353647
96.038361 -59.141075 -85.518112 7827047
96.54097 -59.139904 -84.632187 8418927
96.833679 -59.138977 -83.851982 11905699
97.217308 -59.137821 -82.893143 12827058
97.797874 -59.136536 -81.946777 9275006
97.917114 -59.13567 -81.097328 8551543
98.429726 -59.13443 -80.144508 7038307
98.896889 -59.14452 -79.082809 7037789
99.295654 -59.166828 -78.395744 6379601
99.627487 -59.292645 -77.320824 6576980
100.05788 -59.37376 -76.620583 6511954
92.560837 -57.638954 -92.601341 6510930
93.176643 -57.889225 -91.963295 6971481
93.967812 -57.969616 -91.259727 6708821
92.211723 -56.51498 -93.435661 7037274
92.762337 -56.840107 -92.816422 7037530
93.515533 -56.945549 -92.132706 6511698
93.945656 -57.258095 -91.620781 6511954
91.750366 -55.501617 -94.311256 7037274
92.280144 -55.786659 -93.728737 8354162
93.043259 -55.916924 -93.024712 10328207
93.534424 -56.071281 -92.537636 10064777
91.891388 -54.719101 -94.569321 8749692
92.582268 -54.901512 -93.900902 12038825
93.140717 -55.111603 -93.330437 12301740
91.476227 -53.741734 -95.388557 9669767
92.116966 -53.89003 -94.778816 10657173
92.733292 -53.944786 -94.234467 12762291
91.078018 -52.634491 -96.254662 9537925
91.646851 -52.882015 -95.65802 10590354
92.318283 -52.980324 -95.046913 10459025
90.706642 -51.502842 -97.109848 10788759
91.133408 -51.873402 -96.573441 11906468
91.91362 -51.90612 -95.902428 12300712
92.353928 -52.2089 -95.38726 10064268
90.238503 -50.613762 -97.929771 10196879
90.750015 -50.844322 -97.389442 10788759
91.477615 -50.861816 -96.769905 10525586
91.879288 -51.202751 -96.268852 15195086
89.861404 -49.509476 -98.776543 7760994
90.307472 -49.805531 -98.259773 9537920
90.996674 -49.860806 -97.654381 11183771
91.508957 -50.092525 -97.112801 9538944
89.860802 -48.804604 -99.115433 7695459
90.60762 -48.83466 -98.473717 9407361
91.107254 -49.094128 -97.929512 11381404
89.39621 -47.749207 -100.01231 9406078
90.118416 -47.839005 -99.362556 7828847
90.723434 -48.010616 -98.772018 8157811
89.040871 -46.666656 -100.9015 9602685
89.64193 -46.854591 -100.27259 10260615
90.341461 -47.029617 -99.577774 8683898
88.131905 -45.679569 -102.63876 8617075
88.718475 -45.86594 -101.95899 7826790
89.348289 -46.045891 -101.24918 8089706
89.937302 -46.182209 -100.61739 7958120
86.755737 -44.467731 -106.31564 8156012
87.293304 -44.511353 -105.6797 6116429
87.69072 -44.610619 -104.93073 7169372
88.064667 -44.811356 -103.89107 6905688
88.515503 -45.074837 -102.98498 7103323
89.094986 -45.24213 -102.26755 8155754
89.515091 -45.392494 -101.76384 10062979
83.836823 -43.756805 -112.72624 7563619
84.419975 -43.796577 -112.19855 9734529
84.947197 -43.972691 -111.41476 9406337
85.515915 -44.17157 -110.60024 9867660
85.570503 -44.17009 -109.05 7301991
86.219254 -44.16917 -108.53545 10853781
86.361954 -44.258099 -107.65659 9471872
87.125854 -44.283848 -106.76774 9603713
83.40062 -42.646263 -113.64558 12433069
83.939499 -42.891762 -113.05289 8617078
84.715614 -43.011509 -112.31264 11774109
83.073547 -41.626434 -114.34252 9933193
83.54715 -41.96669 -113.84587 10196364
84.314941 -41.943241 -113.18221 8288628
84.751839 -42.268291 -112.64074 11379609
83.110458 -40.871494 -114.62418 9604228
83.825912 -40.910931 -114.11211 9604485
84.316742 -41.155186 -113.56231 8486262
83.244095 -39.881851 -114.94559 8419952
83.93235 -40.180676 -114.37215 10262157
82.790306 -38.738716 -115.5933 6511954
83.450653 -39.040577 -115.19403 8485488
82.294579 -37.790474 -116.16846 8485488
82.964943 -37.873592 -115.86208 7498593
83.500107 -38.208134 -115.51204 12433069
82.327797 -37.034859 -116.45193 8485489
82.987503 -37.084713 -116.16298 7235421
77.863419 -35.936508 -126.46951 9735043
78.332001 -35.874641 -125.87992 10064006
79.029526 -35.782467 -124.99481 11445400
79.60553 -35.706303 -124.25646 11708315
79.948853 -35.660805 -123.81315 9537918
79.792793 -35.646 -121.97019 9537918
80.240936 -35.586548 -121.38548 9537918
80.465439 -35.494232 -120.78302 9406590
81.483421 -35.50256 -118.29017 6182734
82.014282 -35.693081 -117.55158 8551282
82.558617 -36.109913 -116.86475 8814455
83.230057 -36.466263 -116.30706 5920074
80.780167 -35.442532 -120.31922 9406590
81.300751 -35.356873 -119.54565 9406590
81.981285 -35.281757 -118.70835 6314319
127.40694 -74.055901 -17.175821 10260875
127.502 -74.055115 -16.411379 8090474
127.6282 -74.054031 -15.340403 9866630
128.09424 -74.052895 -14.460268 8616819
128.55418 -74.051758 -13.574179 9142651
128.90207 -74.050537 -12.516638 10853008
129.46173 -74.049461 -11.784861 11708319
129.69997 -74.048271 -10.677542 10130313
130.16437 -74.047279 -9.9593868 9603970
130.42215 -74.046104 -8.8775311 8682867
130.92296 -74.044991 -8.0575733 9340796
131.26924 -74.043945 -7.1922016 10787732
131.69109 -74.042786 -6.2627773 10392977
132.10629 -74.041634 -5.327589 8485496
132.44319 -74.040466 -4.3209972 8617586
132.92328 -74.039322 -3.4402637 8683380
133.32507 -74.038155 -2.4880505 11971999
133.71997 -74.036995 -1.5302258 11840155
134.11195 -74.035973 -0.72763252 11576983
134.49716 -74.034813 0.24099159 9210491
134.87968 -74.033646 1.2152424 10525837
135.25819 -74.032623 2.0328579 14209990
135.7122 -74.031456 2.9552708 12170409
135.99625 -74.030273 4.0084438 7761254
136.57239 -74.029259 4.6856632 8089962
136.72041 -74.028069 5.8422794 8616306
137.49492 -74.026886 6.5422688 8353647
137.6315 -74.025711 7.7094784 9341054
138.19987 -74.024658 8.4112453 9341054
138.33467 -74.023636 9.4211521 8748662
138.88637 -74.02243 10.300688 12696237
139.36003 -74.021187 11.29352 10985365
139.55495 -74.020195 12.210764 9077109
140.11749 -74.019135 12.942533 9274746
140.22264 -74.018097 13.973009 9275518
140.97343 -74.016716 14.908842 10196365
141.30139 -74.015648 15.80477 11775396
141.86729 -73.888237 16.760248 10196363
142.12776 -73.758942 17.634481 9603458
142.2466 -73.795433 18.692648 9011576
142.39691 -73.487892 19.584532 7761509
142.46965 -73.059898 17.678637 9275003
142.58554 -72.839394 18.50622 9406076
142.63922 -72.803658 19.444204 8616562
142.67891 -72.778465 20.149103 8353646
142.90688 -71.973328 18.665915 10919055
143.011 -71.785789 19.496603 9932418
143.04321 -71.818024 20.509401 6775129
143.17372 -71.549988 21.275808 5393738
107.40932 -70.753197 -61.021896 9339254
108.09029 -70.815292 -60.254974 7564651
108.76031 -70.903145 -59.48584 9604229
109.24329 -71.203568 -58.802361 9998729
143.35301 -70.849358 19.544687 9011574
143.43227 -70.716438 20.25902 6117712
143.44778 -70.800232 21.317846 4407866
143.55049 -70.617599 22.157606 4342073
106.73405 -69.512726 -62.424271 9339254
107.11953 -69.805779 -61.849709 10589577
107.66785 -69.942604 -61.184967 10589577
108.33752 -69.904472 -60.484749 8419186
108.88434 -70.223213 -59.722603 8683130
143.75494 -69.861305 20.541128 4736574
143.79001 -69.863792 21.370279 4342073
143.88803 -69.701309 22.2703 4144695
144.01749 -69.431999 23.000792 3223593
106.71572 -68.750092 -62.859245 7629921
107.34341 -68.917465 -62.092415 9800064
107.97366 -69.019882 -61.358154 8682614
108.52579 -69.112289 -60.713455 9734531
144.03897 -69.168442 21.290407 4342073
144.21053 -68.797836 22.144205 3947315
144.27718 -68.748268 23.266081 3223593
144.39584 -68.517776 24.073366 3223593
105.89272 -67.666481 -64.335274 7038298
106.32561 -67.875786 -63.755295 11314587
106.97702 -67.825562 -63.081367 7498593
107.62984 -67.969177 -62.3004 8616567
108.05354 -68.339172 -61.64286 9537667
144.44978 -68.143333 22.182028 3749937
144.59789 -67.833961 23.007113 3223593
144.64771 -67.836365 24.1761 4276280
144.81593 -67.454979 24.86202 6577234
105.5186 -66.591766 -65.323189 9012085
105.94485 -66.94799 -64.670395 7104091
106.6031 -66.866226 -64.006294 11511966
107.20875 -66.958611 -63.30394 6182989
107.68611 -67.245354 -62.633934 7038307
144.88487 -67.066917 23.202974 4670781
144.9875 -66.885925 24.0553 7762791
145.07002 -66.788994 25.146441 7432027
145.21808 -66.491768 26.073431 6248013
105.0405 -65.512871 -66.425377 9012085
105.56668 -65.888191 -65.654526 11249045
106.22324 -66.006706 -64.883247 9341050
106.83279 -65.963593 -64.250519 8090986
145.30496 -66.003723 23.989714 10721936
145.40752 -65.823456 24.846354 7826786
145.43799 -65.863907 25.888288 6510928
145.56728 -65.602425 26.68033 6248013
104.68011 -64.54213 -67.341858 8616818
105.1485 -64.851143 -66.669357 6906968
105.84336 -64.938538 -65.873795 11512217
106.48038 -65.119034 -65.089737 10788494
145.6835 -65.090576 25.075094 6510930
145.81274 -64.823624 25.820948 7695202
145.85904 -64.810783 26.780546 8288369
145.94292 -64.677467 27.598776 8419951
104.40441 -63.688229 -68.1036 9142906
104.86139 -63.807415 -67.546654 7104092
105.54021 -63.857445 -66.788277 6314832
106.0863 -64.180641 -66.024521 9406843
146.14999 -63.909466 25.942709 9603455
146.23454 -63.774029 26.76034 8815484
146.26424 -63.814301 27.782549 7697260
146.40938 -63.498013 28.480589 7565675
103.87138 -62.806423 -69.157127 7958634
104.42321 -62.882385 -68.521187 9668735
105.16793 -62.836525 -67.743492 8551282
105.66532 -63.095657 -67.066849 7827815
146.5262 -62.983086 26.860586 7565675
146.65588 -62.721066 27.660887 9407621
146.68584 -62.764786 28.718943 11577245
146.76299 -62.6418 29.468458 9011579
103.47352 -61.790932 -70.136833 6511962
104.09793 -61.914127 -69.397049 8353135
104.73276 -61.919441 -68.709984 9603456
105.27237 -62.067265 -68.04821 9143675
146.94893 -61.937672 27.854746 10065294
147.03893 -61.765896 28.495913 10524560
147.10403 -61.688744 29.35454 8353651
102.67022 -60.64328 -71.835701 9209467
103.1879 -60.815849 -71.100883 8551281
103.77916 -60.886795 -70.41552 8090219
104.33575 -60.995514 -69.705376 8089962
104.8748 -61.134808 -68.982559 7563619
147.27893 -61.131649 28.715204 7038307
147.49567 -60.772026 29.434656 7498857
101.47655 -59.506073 -74.859772 7761765
102.05508 -59.611626 -73.902382 8419950
102.51559 -59.762569 -73.121063 11775132
102.98816 -60.013172 -72.239815 9866882
103.55826 -60.132847 -71.458809 10984848
104.00766 -60.168419 -70.932945 10590347
94.760086 -58.724064 -90.230705 8748405
95.375626 -58.868084 -89.644066 11577759
95.846588 -59.021332 -88.822243 10458255
96.258179 -59.14304 -87.790619 8089963
96.725433 -59.141933 -86.955734 10260873
96.766212 -59.14098 -85.95549 10721421
97.479164 -59.139729 -85.140953 11181972
97.870605 -59.138557 -84.174141 10590351
98.046204 -59.137527 -83.192352 8880246
98.735519 -59.13628 -82.366859 7827817
99.00106 -59.135197 -81.393761 7038307
99.257172 -59.134117 -80.420715 8551543
99.923416 -59.132881 -79.585396 8879991
100.26796 -59.131733 -78.616058 6906459
100.40012 -59.130749 -77.642555 7498081
100.92033 -59.184071 -76.705269 7498591
101.4756 -59.256771 -75.904495 7893349
101.96761 -59.361534 -75.031639 7498592
102.44475 -59.379719 -74.443108 7038298
94.334183 -57.612068 -91.123894 6511954
94.840744 -57.97427 -90.523819 8485488
95.632416 -58.0616 -89.816422 12433069
96.059525 -58.38158 -89.30349 10260876
93.881714 -56.587292 -91.997368 8288365
94.431152 -56.918129 -91.376381 6643540
95.225502 -56.990536 -90.673958 8682867
95.613701 -57.347401 -90.175957 12433069
94.016785 -55.893505 -92.21785 8617330
94.773399 -55.963543 -91.54821 7104091
95.272667 -56.212215 -91.008904 6511954
93.569977 -54.78318 -93.127769 10131085
94.260399 -54.971664 -92.456749 7893607
94.834793 -55.048729 -91.936943 10064777
93.203629 -53.785496 -93.915863 11709860
93.799721 -53.953323 -93.334084 11840933
94.46875 -54.059879 -92.720528 9603970
92.766975 -52.686302 -94.81118 8946558
93.334732 -52.938892 -94.212944 9012350
94.03376 -52.980404 -93.605614 8879992
92.413376 -51.659325 -95.601112 9735299
92.921715 -51.896561 -95.060272 8683126
93.606468 -51.96217 -94.453651 10787988
94.045471 -52.269184 -93.937538 9011321
92.045998 -50.546597 -96.443779 12433069
92.399208 -50.88736 -95.983574 9077625
93.175385 -50.911663 -95.319939 7564642
93.618019 -51.092342 -94.861443 10459023
91.565788 -49.544052 -97.328392 9538944
92.01033 -49.844032 -96.811012 10328460
92.699234 -49.904465 -96.203362 9801348
93.210541 -50.140495 -95.660583 7169628
91.568642 -48.837475 -97.665184 8749428
92.276093 -48.868858 -97.055885 8947064
92.851692 -49.115658 -96.453987 10196362
91.163795 -47.821335 -98.492989 10854808
91.791748 -47.86747 -97.943398 7893863
92.399887 -48.024723 -97.357117 6512211
90.756882 -46.686977 -99.442879 9144449
91.357605 -46.880127 -98.814255 10591381
92.057091 -47.061039 -98.119392 8091243
89.859131 -45.690414 -101.17614 7563619
90.406494 -45.864632 -100.54151 8024170
91.031219 -46.05809 -99.822342 8815484
91.655121 -46.205353 -99.150017 8617335
88.390732 -44.464039 -104.94884 6182222
89.047417 -44.509811 -104.20342 7037274
89.356201 -44.601826 -103.55952 7827046
89.793541 -44.791416 -102.50159 9537662
90.177193 -45.111107 -101.53352 9207928
90.829254 -45.197197 -100.87239 7760998
91.242599 -45.410538 -100.29382 13022893
85.60318 -43.597775 -111.26075 8683899
86.100227 -43.829681 -110.67051 7828847
86.757973 -43.950962 -109.92667 7762797
87.351143 -44.168957 -109.1508 9537665
87.122551 -44.167866 -107.80887 7563619
87.891632 -44.166752 -107.1796 7695461
88.141075 -44.252308 -106.18559 7037786
88.768204 -44.280087 -105.39506 6511187
89.271423 -44.279945 -104.97024 6510930
85.187279 -42.593891 -112.10017 13023917
85.621483 -42.920212 -111.56065 8880251
86.384895 -42.902794 -110.90028 9604488
86.856575 -43.062374 -110.41309 8683899
85.183243 -41.84407 -112.46687 10064266
85.974495 -41.899261 -111.74454 11182232
86.408318 -42.226765 -111.20451 12235437
84.814423 -40.819141 -113.28749 7368040
85.502716 -40.931248 -112.62811 10064009
86.107758 -41.107849 -112.01064 10787731
84.355072 -39.801506 -114.1842 10393743
85.015991 -39.895729 -113.55749 8683640
85.675507 -39.99128 -112.93138 9012346
84.000076 -38.652622 -115.04098 12433069
84.594879 -38.891712 -114.41393 9670531
85.257202 -38.98642 -113.78584 9210491
83.6492 -37.527027 -115.71891 8090987
84.105736 -37.882755 -115.30195 11775139
84.861404 -37.915421 -114.65248 11117717
83.68486 -36.76926 -116.00222 7170141
84.386871 -36.859959 -115.57214 8090987
84.835144 -37.188663 -115.02752 10261900
77.96624 -36.016403 -128.69038 8617075
78.435074 -35.949749 -128.07961 8879732
79.016617 -35.866756 -127.31538 9734011
79.592415 -35.784126 -126.5501 9537150
80.163025 -35.701889 -125.78393 8089963
80.290222 -35.615509 -123.36967 9537918
80.855301 -35.540485 -122.63001 10984849
81.30426 -35.480717 -122.03785 12432037
83.283531 -35.582596 -116.97149 7367271
83.821686 -35.964226 -116.39732 6972764
84.537552 -36.17717 -115.77903 8090987
81.638687 -35.436222 -121.59356 11643036
82.082054 -35.377113 -121.0008 11248536
82.605614 -35.292664 -120.22157 8814451
82.811478 -35.272915 -118.0904 7498600
83.631393 -35.261856 -117.45905 8485235
126.8362 -74.059975 -21.140219 8616048
126.93178 -74.059334 -20.531485 7892583
127.0923 -74.058235 -19.465094 9010549
127.42621 -74.057037 -18.422518 9142651
127.83249 -74.056091 -17.697992 11181977
128.2124 -74.054855 -16.654078 8090730
128.62425 -74.05368 -15.703203 8288109
128.97029 -74.052734 -14.944113 10261132
129.45403 -74.051437 -13.898031 8616306
129.79169 -74.050499 -13.130606 9800581
130.17967 -74.049316 -12.159887 10458510
130.63318 -74.048164 -11.252565 9143162
131.08034 -74.047005 -10.339251 10261131
131.40797 -74.045776 -9.2544003 9405822
131.96198 -74.044685 -8.495306 9405822
132.17581 -74.04348 -7.3626919 9735042
132.8242 -74.042351 -6.62813 8814195
132.86197 -74.041435 -5.6720715 8288371
133.40388 -74.040344 -4.8905163 9998983
133.69073 -74.039108 -3.7757244 9604737
134.28868 -74.038109 -3.1439648 10919826
134.49763 -74.036919 -2.0178471 9208435
135.09314 -74.035751 -1.2124119 10392709
135.28761 -74.034569 -0.076780319 9210491
135.87674 -74.033401 0.74196434 10065543
136.05995 -74.032364 1.7238026 11446685
136.6474 -74.031334 2.3912601 8156268
136.97585 -74.029999 3.5835056 7497825
137.59508 -74.028824 4.3970814 9010807
137.75731 -74.027779 5.3967457 9142649
138.33748 -74.026726 6.0888538 7892840
138.60886 -74.025536 7.1702862 9341054
139.04512 -74.024338 8.1333027 9209468
139.40359 -74.0233 8.9968548 9340799
139.75632 -74.02224 9.8650417 10985622
140.10788 -74.021187 10.738081 14604230
140.43822 -74.019989 11.784281 8354163
141.20396 -74.0186 12.708246 8814457
141.42464 -74.004402 13.689119 8419439
142.02861 -73.774696 14.509966 8288109
142.10893 -73.642036 15.439482 8682611
142.23087 -73.561943 16.376379 7038298
142.4476 -72.838554 15.316248 7367263
142.5096 -72.79023 16.343679 8683121
142.60988 -72.620239 17.232821 9735552
109.63071 -71.418152 -58.268456 8617331
110.02409 -71.494484 -57.803421 7893608
110.61487 -71.611588 -57.103691 8222059
111.34359 -71.641487 -56.302872 7300446
111.79925 -71.855965 -55.695549 8813171
142.7148 -72.126183 15.508059 8880501
