# .PCD v0.7 - Point Cloud Data file format
VERSION 0.7
FIELDS x y z rgb
SIZE 4 4 4 4
TYPE F F F U
COUNT 1 1 1 1
WIDTH 1197
HEIGHT 1
VIEWPOINT 0 0 0 1 0 0 0
POINTS 1197
DATA ascii
-133.62784 -27.551771 103.76453 9209467
-134.3291 -27.675087 103.3622 9274237
-133.36276 -26.500683 104.33028 10788241
-133.92702 -26.719452 103.95727 11380121
-133.36017 -25.616056 104.69577 9604225
-134.01868 -25.72213 104.32199 13484981
-132.82951 -24.399906 105.46273 9736836
-133.55443 -24.655634 104.99406 9867653
-133.15475 -23.543217 105.65304 9275260
-133.81551 -23.84524 105.19742 8354675
-132.62257 -22.52729 106.33852 9736836
-133.32191 -22.612059 105.95325 8683895
-132.68364 -21.703346 106.64772 9933447
-133.27777 -21.738695 106.33549 9407363
-132.34628 -20.544729 107.29453 9800062
-132.94183 -20.764843 106.90541 11839901
-132.43166 -19.574766 107.65178 9800316
-133.06836 -19.85817 107.21597 10129025
-132.13115 -18.354708 108.3054 9076598
-132.61058 -18.752846 107.90108 10984334
-132.19028 -17.525648 108.61768 9340028
-131.65297 -16.668327 109.24039 9011320
-132.24896 -16.695024 108.93083 9011320
-131.27292 -15.206091 110.26167 9471871
-131.95567 -15.694764 109.55575 9866885
-131.00092 -14.379182 111.11124 10854036
-131.51549 -14.64364 110.62576 10130313
-132.12085 -14.830666 110.16167 10854036
-127.66681 -13.420225 121.63397 9208187
-127.82285 -13.719976 120.90599 8090479
-128.39914 -13.816049 119.99534 8878963
-128.83182 -13.817398 119.53098 8089704
-130.89436 -14.009501 112.38127 8550513
-127.02932 -12.113105 122.48997 9341051
-127.64423 -12.613809 121.97696 10063237
-127.3032 -11.431625 122.63362 10262152
-127.95288 -11.70725 122.19588 8484979
-126.71109 -10.382246 123.36095 7038298
-127.36092 -10.656551 122.92366 11183253
-126.9226 -9.6308537 123.56447 9932931
-127.43459 -9.9666481 123.17067 11314584
-126.45111 -8.4304676 124.29368 9011576
-127.06285 -8.7209721 123.86874 10261129
-126.62437 -7.5219364 124.58096 8747636
-127.03481 -7.7901139 124.26572 11576473
-126.12893 -6.6874447 125.17162 8681843
-126.73324 -6.6967211 124.8661 8681843
-125.74474 -5.1560268 125.99342 9340801
-126.22894 -5.5987315 125.56958 9274494
-126.77375 -5.8245735 125.20467 8681843
-125.81086 -4.4278817 126.26004 8748921
-126.44363 -4.5807672 125.88123 9932424
-125.98492 -3.5525246 126.53324 8748921
-126.51073 -3.8502233 126.14818 10261132
-125.4848 -2.6693885 127.14626 10656142
-126.20639 -2.7479928 126.75363 9998217
-125.21172 -1.1985043 127.88765 8682867
-125.612 -1.6417762 127.50562 11774366
-126.24606 -1.866112 127.09667 12695213
-125.24287 -0.53512025 128.22581 9011831
-125.94901 -0.61116505 127.81563 11774366
-125.02785 0.42768756 129.13858 9077625
-125.62215 0.27834964 128.71529 7564643
-121.37955 1.530848 139.55209 8748405
-122.02018 1.53131 139.26987 10261132
-124.21386 1.0280704 130.89841 14605262
-124.85072 1.0281463 130.62175 8682867
-121.08706 2.9086573 140.23112 8089963
-121.43739 2.3922386 139.87048 8747893
-121.04762 3.6001413 140.52486 10261643
-121.6898 3.6029015 140.24303 9669507
-120.69688 4.7539792 141.14186 9210491
-121.14111 4.478951 140.83598 9340798
-120.6576 5.4494157 141.43793 8749684
-121.30093 5.4541755 141.15651 9538429
-120.30576 6.6092095 142.05786 8289133
-120.75082 6.3337998 141.75145 8552305
-120.357 7.387579 142.34734 7630177
-120.91047 7.3154092 142.07471 9866624
-119.91315 8.4748516 142.97871 10261132
-120.49962 8.2475023 142.62929 8485744
-121.08669 8.0197029 142.27946 9866624
-119.99776 9.5099726 143.35643 10854037
-120.65572 9.3070707 142.98534 8683124
-119.57733 10.588687 143.97406 9341054
-120.22382 10.598594 143.69331 9933191
-119.84035 11.658587 144.28716 8354160
-120.18389 11.308342 143.99545 10591121
-119.24017 12.717734 144.97612 7039331
-119.94747 12.44502 144.5553 7433831
-119.44504 13.556906 145.22231 9406331
-120.00584 13.209307 144.83601 8617331
-118.91595 14.631054 146.00327 8682867
-119.58295 14.353049 145.53041 8946297
-118.54751 15.614065 146.98778 8682867
-119.18218 15.330574 146.47197 9669249
-116.85827 16.864021 152.631 13221042
-117.50022 16.875793 152.32669 12431783
-118.03864 16.188637 148.90579 9735812
-118.73212 16.208656 148.67406 9735812
-116.81281 17.603706 152.95015 11576733
-116.4509 18.835394 153.61937 9866630
-117.00976 18.474327 153.20528 10261132
-116.51101 19.634363 153.92685 9537665
-117.21377 19.349552 153.46964 9537664
-116.1003 20.66053 154.56351 8288366
-116.77863 20.508331 154.17484 10129546
-115.66344 21.824717 155.27177 9341054
-116.25047 21.586344 154.88965 9208693
-116.83756 21.347763 154.5074 10853012
-115.72114 22.668789 155.60696 10195847
-116.40128 22.516319 155.21741 9208435
-115.28307 23.84305 156.32024 10262156
-115.98931 23.555355 155.86003 10458509
-115.49551 24.741724 156.60509 9078398
-116.05436 24.372566 156.18019 10130058
-114.90167 25.879902 157.37718 9341313
-115.60969 25.590496 156.91534 9670277
-115.18312 26.711979 157.60045 10525071
-115.89227 26.421553 157.13771 9341313
-114.74374 27.451208 158.3535 11511194
-115.386 27.466709 158.0354 10590607
-114.40945 28.251326 159.09578 8814969
-115.05462 28.267429 158.77998 9209726
-114.92297 29.073973 159.40208 9670020
-164.84589 -60.574165 16.006979 7038307
-165.19089 -60.599224 15.304509 8024687
-165.43306 -60.705986 14.403539 8946045
-165.82368 -60.544243 13.552289 8617337
-166.07417 -60.60857 12.566758 7827822
-166.32378 -60.67487 11.578977 10458507
-166.74654 -60.496132 10.666818 7564651
-167.10719 -60.449444 9.6127062 9537920
-167.35516 -60.520805 8.6165094 9340027
-167.50339 -60.564484 8.0177088 9340027
-168.3848 -60.381191 5.6221552 7564392
-168.532 -60.428127 5.0177698 7433059
-162.76688 -59.344994 23.026804 8287594
-163.06042 -59.404343 22.067865 9471354
-163.35156 -59.464676 21.106585 8683130
-163.54588 -59.6726 20.051771 7564651
-164.1201 -59.658619 19.199945 8748150
-164.41716 -59.787167 18.282297 8879477
-164.87407 -59.793213 17.364676 8813684
-165.14716 -59.927135 16.503557 9997703
-165.69395 -59.860004 15.550931 8353651
-165.99709 -59.93837 14.572015 8814202
-166.2494 -60.000561 13.586011 8617337
-166.50093 -60.064449 12.598081 8617337
-166.82553 -59.992931 11.72815 10458507
-167.23804 -59.820347 10.831857 9208957
-167.48813 -59.889095 9.8359804 11247763
-167.73741 -59.959816 8.8376055 9076856
-168.1635 -59.861073 7.8449755 8287341
-168.31837 -59.970692 6.9531069 6775134
-168.65984 -59.879925 6.0371027 7103842
-168.96941 -59.878857 5.0297937 7433059
-169.28136 -59.903141 4.0870676 8419951
-169.65526 -59.813732 3.1591272 7235677
-169.8157 -59.925358 2.1908312 7893608
-170.14854 -59.852165 1.2523661 8156780
-170.55699 -59.790318 0.28317741 9406591
-170.95833 -59.695316 -0.53978246 9143166
-171.17401 -59.74332 -1.626029 7630442
-171.43465 -59.745071 -2.6196394 8287598
-172.01503 -59.603611 -3.4437551 8089963
-172.23872 -59.610966 -4.416667 8682612
-172.36977 -59.714985 -5.3753004 8946296
-172.7016 -59.555492 -6.3019438 7564643
-172.72974 -59.577618 -7.136157 9735812
-173.49947 -59.38438 -8.4244452 8288366
-173.51698 -59.402225 -9.0536299 8090475
-152.40019 -58.515179 51.924072 8815227
-152.70334 -58.763035 51.208382 10591380
-153.17351 -58.724899 50.283619 11314077
-153.64186 -58.668354 49.472969 9406340
-153.89618 -58.819828 48.670788 8617081
-153.76276 -58.968658 47.679924 7563619
-156.48189 -58.980339 42.797501 6510930
-156.68564 -58.981842 42.043163 7037274
-156.93584 -58.983727 41.099052 8090476
-157.17995 -58.9856 40.153362 9406848
-157.41876 -58.987469 39.206314 9735812
-157.65144 -58.98933 38.257744 8353390
-157.92342 -58.991562 37.117714 7826790
-158.14397 -58.993416 36.166267 7300962
-158.35832 -58.995258 35.213394 10919322
-158.56735 -58.997097 34.25935 12629682
-158.73035 -58.998566 33.49522 9077116
-160.47371 -59.00462 31.247368 6510930
-160.5853 -59.005718 30.667391 6510930
-160.76651 -59.007538 29.699944 7694943
-160.95929 -59.015572 28.734571 7300187
-161.25824 -59.064594 27.787169 7629408
-161.56535 -59.118492 26.839651 8287336
-161.8696 -59.173588 25.889761 7038298
-162.17143 -59.229614 24.937704 7038298
-162.47046 -59.28685 23.983295 9011061
-173.43231 -59.327873 -6.3291082 7038298
-173.46046 -59.350014 -7.1668158 8354158
-173.48705 -59.37278 -8.0050192 9735812
-174.25362 -59.173046 -9.0922728 7301475
-174.28073 -59.203609 -10.146255 8222065
-174.30484 -59.235153 -11.201049 8879991
-175.25786 -59.095486 -12.110301 10853012
-175.19746 -59.096779 -12.954364 9471871
-175.13295 -59.098064 -13.797938 9932166
-176.44196 -59.102814 -15.612697 9010806
-176.34453 -59.104412 -16.674765 9866114
-177.62306 -59.109528 -18.739904 8287342
-177.53075 -59.110794 -19.595156 8813686
-177.43416 -59.112049 -20.449938 8813686
-178.79716 -59.115952 -21.698626 7563619
-178.7175 -59.116898 -22.344343 9734788
-178.57947 -59.118458 -23.419786 9011065
-179.88419 -59.123039 -25.134947 8550256
-179.87329 -59.047493 -26.238543 9799806
-180.38742 -58.713223 -27.054029 8681835
-180.40942 -58.689342 -28.094748 10129286
-180.39134 -58.480495 -28.982706 8616819
-151.62022 -57.581974 53.908073 11381404
-152.04651 -57.706367 53.099277 9538945
-152.58383 -57.709015 52.189915 7828589
-153.06624 -57.77536 51.327862 9407107
-153.54259 -57.790684 50.512405 10262158
-154.06374 -57.925934 49.607056 12169126
-180.57578 -58.190891 -27.008997 8681835
-180.75511 -57.795376 -27.926924 9208181
-180.63239 -57.812527 -29.022436 8879732
-180.59908 -57.599888 -29.910292 9734788
-150.97438 -56.266384 55.938694 7565675
-151.38588 -56.609406 54.998684 9078652
-151.80121 -56.778351 54.176529 7828070
-152.27724 -56.787106 53.36639 7827814
-152.93367 -56.71769 52.307388 9077371
-153.36185 -56.844864 51.49345 13551549
-153.6376 -57.021843 50.901161 11709089
-180.9868 -57.135117 -28.186838 8681835
-180.98235 -56.918999 -28.856375 7301214
-180.86766 -56.885887 -29.866377 9471872
-150.37962 -55.379093 57.577232 6510930
-150.74991 -55.583778 56.805534 8749433
-151.18069 -55.673672 56.013767 8617335
-151.66414 -55.730366 55.156803 9077884
-152.1479 -55.78886 54.298019 5919050
-152.63205 -55.84938 53.437099 7564387
-153.04666 -56.109943 52.550709 9866630
-181.27571 -56.029747 -29.128267 6183246
-181.15709 -56.083378 -29.915201 7761766
-181.09328 -55.974686 -30.741671 8616819
-150.08617 -54.632923 58.605751 11182228
-150.48759 -54.776863 57.825066 8089963
-151.02863 -54.747566 56.932255 7826791
-151.52458 -54.685558 56.138935 7760998
-151.9679 -54.788067 55.317013 6576980
-152.36981 -55.059124 54.444576 5919050
-152.64693 -55.230667 53.85408 5919050
-181.47575 -55.220253 -29.909277 6775125
-181.43651 -54.99062 -30.89496 7564387
-181.45506 -54.612827 -31.854967 8156267
-149.44174 -53.449684 60.539818 9405823
-149.80304 -53.636429 59.795986 11444887
-150.34366 -53.740517 58.808517 10984593
-150.82878 -53.790089 57.953884 8089963
-151.30701 -53.789616 57.146549 7892584
-151.79977 -53.894871 56.239143 5392706
-181.84413 -53.891792 -30.872087 7103841
-181.73206 -53.874619 -31.81436 9274492
-181.73039 -53.617435 -32.581741 10721678
-148.71024 -52.371613 62.546242 9143675
-149.12773 -52.696609 61.608604 7695979
-149.5546 -52.769318 60.835537 9273981
-150.10027 -52.697922 59.964787 12036767
-150.68359 -52.754173 58.939205 9011063
-151.11481 -52.865505 58.131363 8089963
-151.39362 -53.030739 57.542458 8287342
-182.08748 -52.934231 -31.742365 9143163
-181.94276 -52.950237 -32.846924 9932421
-148.1019 -51.515404 64.185974 8288365
-148.47675 -51.705875 63.416599 9670019
-148.91087 -51.781254 62.629276 9143675
-149.45409 -51.740154 61.741081 7827563
-149.95163 -51.667641 60.95245 9142652
-150.37221 -51.822094 60.131477 10063237
-150.79024 -52.15263 59.189045 8089963
-182.30025 -52.26643 -32.006626 8287856
-182.29391 -52.0522 -32.684929 8353649
-182.17625 -52.023144 -33.706409 7564392
-147.42709 -50.26001 66.223373 9537409
-147.84833 -50.576107 65.285767 9274237
-148.27019 -50.721554 64.469177 8550514
-148.75783 -50.75845 63.619125 8683123
-149.24553 -50.796906 62.767731 7959400
-149.67764 -50.832516 62.012299 7038303
-150.12383 -50.87059 61.23135 7038307
-182.58725 -51.160084 -32.965633 8616822
-182.58052 -50.946198 -33.646214 8090479
-182.47415 -50.898201 -34.633717 8748151
-147.07779 -49.564468 67.274551 10457736
-147.52718 -49.664028 66.480469 7959145
-148.11362 -49.703354 65.46167 9142651
-148.60237 -49.737869 64.611305 8945272
-149.09131 -49.774174 63.75946 6314575
-149.51334 -50.009068 62.878582 6183246
-182.95454 -49.828976 -33.944405 8616822
-182.86678 -49.839668 -34.611858 8156269
-182.74939 -49.854832 -35.502071 8156267
-146.90332 -48.577 67.906631 11378324
-147.45421 -48.604855 67.354858 8945525
-147.89389 -48.740589 66.521088 7761253
-148.40361 -48.767086 65.64109 8813686
-148.8134 -49.013721 64.772423 10524815
-149.09564 -49.168671 64.185043 5920074
-183.15297 -49.018085 -34.743309 8683125
-183.07222 -48.957024 -35.565964 7695973
-182.99107 -48.896774 -36.389359 8287854
-146.97281 -47.704464 68.243584 7169629
-147.79353 -47.672932 67.453949 9866368
-148.21869 -47.899967 66.57338 7695204
-183.39539 -48.058323 -35.629963 9210236
-183.24339 -48.121563 -36.654594 9143165
-183.2693 -47.861622 -37.211216 8617081
-146.4917 -46.646149 69.000656 6313807
-147.23412 -46.778255 68.485718 5525060
-147.79405 -47.070858 67.883392 9866368
-183.60841 -47.387558 -35.901684 9736836
-183.68158 -46.949116 -36.605846 9801348
-183.56297 -46.96553 -37.502186 10195339
-183.55464 -46.753262 -38.191856 11905701
-146.36047 -45.410217 69.799149 7169117
-146.84044 -45.687519 69.285789 6314064
-147.28146 -46.167542 68.722366 5393730
-184.02431 -45.895184 -37.459476 8813684
-183.9147 -45.872349 -38.499004 7958378
-183.96805 -45.675522 -39.204456 8089963
-145.52632 -44.333153 71.56192 6511954
-145.94891 -44.38451 71.11628 9011320
-146.42888 -44.770939 70.335655 7366496
-147.14017 -44.950344 69.735489 7563619
-184.37492 -45.248341 -38.596184 7826791
-184.45665 -45.012875 -39.402222 9669763
-184.52934 -44.882164 -40.371349 10064521
-184.93863 -44.530762 -41.27866 9603715
-141.72977 -43.554287 82.898216 7038307
-142.34587 -43.435196 82.569511 7037786
-142.36604 -43.850441 81.55542 8090473
-142.7019 -43.900028 80.497299 7827046
-143.18352 -43.902088 79.636612 7563619
-143.66025 -43.904148 78.773201 8287598
-144.13136 -43.906204 77.906761 8156271
-144.59772 -43.908257 77.037758 9932937
-145.24966 -44.000202 72.951477 8419695
-145.9583 -44.084251 72.210388 6906456
-146.52568 -44.152332 71.615196 10261132
-185.70924 -44.256916 -42.155712 10195339
-185.51736 -44.27393 -43.288055 10326923
-186.83281 -44.164818 -45.020264 8814710
-186.61354 -44.165981 -45.919342 9340795
-188.0804 -44.173286 -49.172104 8419702
-187.90147 -44.174152 -49.851006 8419702
-141.77721 -42.681751 83.251205 6775127
-142.54895 -42.709332 82.762009 6840663
-141.355 -41.454388 84.050003 8287592
-142.01036 -41.746128 83.517014 7958884
-141.05446 -40.188873 84.790329 7563619
-141.45743 -40.649113 84.3395 7169373
-142.12032 -40.816875 83.856209 7564127
-141.16887 -39.522133 85.011673 9142907
-141.81253 -39.670631 84.548721 7958377
-141.28407 -38.63361 85.329758 11182746
-141.84325 -39.060043 84.797287 12433069
-140.69263 -37.614235 86.142036 8682612
-141.34798 -37.690926 85.703308 11117206
-140.43301 -36.647007 86.726357 9143419
-141.07436 -36.760704 86.280045 9406334
-140.48137 -35.583099 87.162621 8945784
-141.20378 -35.815502 86.614151 7762022
-140.03835 -34.568687 87.880997 10851980
-140.68033 -34.677376 87.436348 9800579
-139.65662 -33.512878 88.578995 9010550
-140.41335 -33.640553 88.054657 9076343
-140.97623 -34.055702 87.524864 8419696
-139.81389 -32.634121 88.865402 8221549
-140.38812 -32.772163 88.449539 8550256
-139.2518 -31.442335 89.734001 9011576
-139.91199 -31.70793 89.20916 8616306
-140.5737 -31.975058 88.682755 9010550
-139.11766 -30.235149 90.595566 9340286
-139.66403 -30.626156 89.937836 8945527
-140.29196 -30.997717 89.291588 8747891
-138.75754 -29.425842 91.552986 9077371
-139.33571 -29.668678 90.975006 9668994
-139.91431 -29.912964 90.395432 9010808
-134.81244 -28.264641 102.87718 10261132
-135.44653 -28.564472 102.43576 9800581
-136.42511 -28.862886 98.005493 9208435
-136.77809 -28.864174 97.512039 9208435
-137.36229 -28.86632 96.686752 9340024
-137.94185 -28.868464 95.858261 9538433
-138.28722 -28.869751 95.359482 9406590
-138.05951 -29.061766 93.253906 7564392
-138.53477 -29.092276 92.848282 8353651
-139.16907 -29.133329 92.305405 7564643
-134.90073 -27.581909 103.114 10261132
-135.51822 -27.768684 102.72751 9734788
-134.6138 -26.386646 103.74995 13221810
-135.2097 -26.697832 103.3231 9669251
-134.67917 -25.562733 104.05659 12037281
-135.27586 -25.605768 103.73981 7563619
-134.7446 -24.737736 104.36395 11577499
-134.41075 -23.617992 104.993 10327434
-135.00882 -23.924904 104.56674 9735041
-133.87642 -22.397646 105.76383 7565675
-134.51448 -22.686939 105.32493 7564647
-134.1055 -21.528326 106.00761 8618105
-134.60561 -22.026894 105.55148 7565675
-133.53671 -20.611624 106.67061 11380122
-134.2674 -20.549009 106.33031 10393743
-133.62447 -19.638519 107.02792 11510936
-134.33032 -19.718336 106.64137 11380380
-133.32442 -18.414156 107.68309 9405302
-133.88141 -18.790112 107.24902 9405304
-133.38548 -17.58243 107.99551 8681839
-134.12038 -17.827105 107.5265 8682099
-132.84657 -16.721926 108.62036 8748148
-133.60143 -16.686417 108.25679 8748148
-132.65013 -15.260827 109.52576 7958632
-133.14363 -15.74433 108.92725 9406334
-132.38042 -14.430671 110.37711 10065291
-132.84392 -14.65342 109.95315 9011576
-133.30727 -14.876925 109.52866 7958632
-128.87093 -13.456981 121.01767 7038307
-129.4752 -13.475563 120.70833 6510930
-129.26259 -13.818698 119.06483 8878963
-129.8344 -13.820447 118.44108 8352876
-130.4032 -13.822348 117.81448 7169117
-132.01787 -14.045384 111.69968 9604741
-132.76883 -14.069693 111.24292 10065291
-128.23289 -12.146056 121.87555 8484979
-128.84987 -12.648378 121.36082 8288112
-128.50948 -11.462861 122.01851 8485746
-129.16188 -11.739612 121.57898 7894122
-127.91647 -10.410499 122.74746 15722454
-128.569 -10.68583 122.30844 9801860
-128.22697 -9.4966145 122.96846 12761260
-128.90816 -9.7830954 122.51053 10591119
-127.65916 -8.4536228 123.68105 10984852
-128.37463 -8.5111256 123.30016 10063494
-127.90375 -7.587709 123.91516 11642524
-128.65247 -7.8191671 123.44614 8681843
-127.33884 -6.7061501 124.55991 9405308
-128.0555 -6.7611127 124.17946 9800066
-126.95586 -5.1708822 125.38263 8681843
-127.60903 -5.5621963 124.89559 8879221
-128.13016 -6.0623956 124.4296 9405308
-127.02378 -4.4409075 125.64906 9734531
-127.74754 -4.5220256 125.25439 9667966
-127.31408 -3.5938253 125.85265 9800580
-127.7282 -3.8620903 125.53556 12101791
-126.81469 -2.7524993 126.44812 8419442
-127.4246 -2.7570598 126.14174 9537406
-126.42868 -1.2037649 127.27867 15195086
-126.91697 -1.6485306 126.85176 10787215
-127.46664 -1.8730321 126.48505 10787215
-126.56744 -0.465197 127.62077 7564643
-127.17086 -0.61506891 127.20473 7564131
-126.24953 0.42618713 128.52968 8354158
-126.84577 0.27657726 128.10481 8354158
-122.66239 1.5317684 138.98692 8419696
-123.30601 1.532324 138.7034 12235172
-125.48388 1.0282667 130.33846 9275004
-126.10207 1.0282787 130.03752 11183001
-122.37143 2.9126763 139.66646 9142907
-122.64966 2.3208094 139.30756 8748404
-122.33367 3.6057086 139.96066 8617079
-122.97892 3.6085131 139.67772 7038307
-121.98385 4.7619963 140.57829 9011579
-122.42945 4.486485 140.27162 9208958
-121.94582 5.4589562 140.8745 9998215
-122.59209 5.4638348 140.59181 10984852
-121.59492 6.6211247 141.49493 9866624
-122.04134 6.3452921 141.18776 11510936
-121.5565 7.3222146 141.79289 9340537
-122.20376 7.3291163 141.51067 8879986
-121.20445 8.4906654 142.41643 9866624
-121.79303 8.2629881 142.06595 10853262
-121.40836 9.592577 142.76839 10590606
-121.93851 9.1279163 142.34865 11182226
-120.8716 10.608697 143.41212 8090987
-121.52093 10.618997 143.13029 8420208
-121.03362 11.607841 143.74136 9407103
-121.48232 11.330143 143.43243 7039322
-120.53747 12.74194 144.41451 8091246
-121.12884 12.514583 144.06294 10459279
-120.74497 13.582882 144.66028 9669509
-121.09007 13.230607 144.36708 9537923
-120.22495 14.659863 145.45215 8092019
-120.88892 14.381128 144.97221 9537923
-120.07839 15.649619 146.34489 10392461
-120.54488 15.287401 145.8371 9077886
-118.14345 16.887817 152.02196 10064007
-118.78757 16.900139 151.7168 10853012
-119.42763 16.229025 148.44281 9011064
-118.09938 17.628548 152.34087 9932422
-117.73917 18.861782 153.01036 10129545
-118.1655 18.539354 152.67619 9866373
-117.80506 19.662563 153.32237 10326668
-118.50945 19.377893 152.86438 10129545
-117.39526 20.689772 153.95898 10853012
-118.07549 20.538006 153.56966 8682611
-116.95965 21.855158 154.66725 9208435
-117.54796 21.617004 154.28458 8879990
-118.13644 21.378698 153.90178 9537664
-117.01944 22.700422 155.00191 9471608
-117.70135 22.548384 154.61168 9274487
-116.58263 23.875784 155.71507 10063747
-117.29049 23.588463 155.2543 10063747
-116.79774 24.775856 155.99927 10327177
-117.35753 24.406792 155.57399 10129799
-116.20452 25.914825 156.77135 9341313
-116.9142 25.625835 156.30894 9670021
-116.38924 26.69375 157.01796 9538178
-117.19959 26.458269 156.53067 10261387
-116.02924 27.482658 157.71718 9998727
-116.78032 27.232704 157.14835 9735299
-115.80094 28.555964 158.60054 9340027
-116.19839 28.243135 158.1837 9274491
-116.05297 29.239355 158.94339 10260871
-164.45554 -59.343349 19.841082 7564651
-166.1313 -59.353371 16.600679 9340801
-166.35507 -59.406712 15.814382 9011323
-166.56999 -59.452316 14.823426 8748665
-166.75587 -59.489544 13.828675 8617337
-166.93875 -59.527935 12.832166 9670023
-167.8242 -59.350628 11.884011 9735043
-167.96669 -59.382877 11.081491 9011579
-168.14229 -59.424137 10.076661 11050385
-168.3152 -59.466484 9.0702906 9340027
-168.41743 -59.492401 8.4659281 9340027
-169.49947 -59.372616 6.2704744 7564392
-169.66197 -59.419106 5.2536669 6775131
-169.78989 -59.45694 4.4395914 7367263
-170.97939 -59.385799 1.3810244 8090987
-171.06931 -59.416676 0.76379114 8090987
-154.63269 -58.60429 48.493378 7892842
-155.04413 -58.756374 47.871792 8747892
-155.63695 -58.698631 46.978909 7958633
-155.78972 -58.910576 46.123379 8222316
-155.84761 -58.975792 45.054031 8092011
-156.16872 -58.978065 43.926853 7564898
-156.37845 -58.979584 43.174171 6510930
-158.50017 -58.987526 40.083904 9011321
-158.64368 -58.988655 39.511002 8287342
-158.87822 -58.990532 38.555054 7037274
-159.10736 -58.992405 37.597801 8287341
-159.33038 -58.99427 36.639145 9932422
-159.54799 -58.996132 35.679222 7564643
-159.75945 -58.997986 34.717926 8288109
-159.9655 -58.99984 33.755463 10260617
-160.16539 -59.001678 32.79171 9865858
-160.35982 -59.003513 31.826857 8089963
-162.16714 -59.010353 29.1514 7432801
-162.33972 -59.01218 28.174555 7367263
-162.50591 -59.014 27.196568 7564130
-162.66666 -59.015812 26.217739 7037274
-162.83464 -59.022503 25.239897 7037786
-163.10278 -59.067375 24.276917 7630178
-163.40157 -59.125481 23.316713 7103834
-164.11679 -59.104523 22.411341 8879477
-164.34915 -59.142628 21.435869 9867141
-164.63451 -59.201527 20.465975 7300962
-165.21916 -59.146877 19.730833 8353646
-165.50708 -59.210194 18.755259 9142651
-165.7924 -59.274593 17.777475 10261132
-165.96245 -59.313736 17.189653 11708831
-167.42198 -59.265423 14.086202 7564643
-167.60657 -59.303524 13.086297 8617331
-167.716 -59.326797 12.485318 10458507
-168.85495 -59.206116 10.119035 8092019
-168.99414 -59.239891 9.310647 9340541
-169.16557 -59.283054 8.2990389 8682099
-169.33385 -59.327316 7.2855196 6511962
-170.35243 -59.190273 5.4803743 9011576
-170.51347 -59.237503 4.4579782 8288365
-170.67172 -59.285789 3.4341402 7827814
-170.79628 -59.325298 2.6136255 8090987
-171.39665 -59.21487 1.8657274 8288365
-171.80211 -59.195751 0.76680857 8419697
-171.95084 -59.247971 -0.26789376 9143166
-172.09636 -59.301495 -1.3042097 7367271
-172.58142 -59.233765 -2.1388578 9340286
-173.06558 -59.166817 -2.9792738 8879735
-173.20459 -59.223061 -4.0246992 7958889
-173.34035 -59.280468 -5.0721693 8485745
-173.97314 -59.146687 -5.9296179 8814710
-174.18947 -59.115234 -6.9872732 9012089
-174.22305 -59.143673 -8.0394201 9012089
-175.44843 -59.090591 -8.9431372 8813945
-175.41478 -59.091579 -9.5768461 8813945
-175.35365 -59.093216 -10.632792 8813945
-175.3007 -59.094513 -11.477057 8813945
-176.66508 -59.098621 -12.849166 8089963
-176.61736 -59.099594 -13.487082 8550257
-176.53259 -59.101208 -14.550178 8945272
-177.85603 -59.106014 -16.385752 8814453
-177.77467 -59.107296 -17.242212 8222061
-177.68983 -59.10857 -18.098227 7563619
-178.99757 -59.113422 -19.975267 8945529
-178.87424 -59.115005 -21.052534 8813686
-179.9881 -59.031342 -22.28327 9734788
-180.0957 -58.846481 -22.957788 8221805
-180.12408 -58.893791 -23.843504 8089963
-180.18445 -58.833931 -24.845942 8287341
-180.28835 -58.789764 -25.856249 10851980
-154.21062 -57.530109 49.653511 14076861
-154.80885 -57.767193 48.761086 10196108
-155.42374 -57.76635 47.986794 9932166
-155.82057 -57.987904 47.357208 8353647
-180.34898 -58.195141 -23.211679 8090987
-180.4567 -58.010597 -23.888826 8747634
-180.4912 -58.060513 -24.778425 8484463
-180.59296 -57.955246 -25.845766 8418669
-180.77217 -57.622746 -26.816633 8681835
-153.58473 -56.597824 51.293476 13551549
-154.01364 -56.727192 50.476738 12958639
-154.50456 -56.738178 49.746407 12958895
-155.10014 -56.798393 48.96077 10525328
-155.59909 -56.947853 48.244576 9011320
-180.7937 -57.252224 -24.895121 10457479
-181.0162 -56.781075 -25.741182 8484461
-181.03911 -56.884842 -26.768156 9142388
-181.12277 -56.78413 -27.761999 9208438
-152.93806 -55.267159 53.336369 7169373
-153.35129 -55.616405 52.38892 9340286
-153.76895 -55.790527 51.559139 10787731
-154.24821 -55.803936 50.740181 9669250
-154.87212 -55.747925 49.862576 8618104
-155.2858 -56.037262 49.172115 10788499
-181.27048 -56.127945 -26.001005 9208182
-181.37827 -55.944138 -26.685728 10129289
-181.39172 -56.045681 -27.714804 9602942
-181.37825 -55.949436 -28.547709 7169626
-152.34183 -54.368404 54.985275 5919050
-152.61955 -54.538948 54.394535 5919050
-153.04997 -54.660503 53.580719 5919050
-153.63364 -54.734192 52.542374 8682100
-154.12051 -54.797661 51.674831 8484977
-154.60791 -54.863159 50.804859 7893355
-154.97079 -55.131172 50.099068 7565675
-181.6329 -55.290283 -26.947599 10261132
-181.79192 -54.975548 -27.687941 7761250
-181.72824 -54.972702 -28.625525 6183245
-181.72911 -54.650749 -29.562403 6709588
-151.93742 -53.499428 56.28923 5392706
-152.35492 -53.752178 55.403572 5524292
-152.8416 -53.808884 54.541122 6840408
-153.40536 -53.721825 53.651192 7827046
-153.94186 -53.788452 52.697506 8945783
-154.34583 -54.065075 51.81768 9801092
-154.62437 -54.240368 51.221943 6511954
-182.1299 -53.86726 -28.669088 5920074
-182.01903 -53.847145 -29.61059 8748141
-182.0184 -53.587692 -30.376211 7827302
-151.33577 -52.615414 57.936985 10984593
-151.78108 -52.661907 57.151638 7760997
-152.21277 -52.708256 56.389473 6248015
-152.70053 -52.762424 55.527023 8089962
-153.18861 -52.818275 54.662758 7102810
-153.59898 -52.866695 53.93512 9142134
-182.37468 -52.907558 -29.534552 9208435
-182.23138 -52.920094 -30.638288 7958892
-150.67186 -51.326378 59.979721 9142394
-151.09047 -51.657219 59.035995 7827303
-151.51158 -51.815331 58.211754 8814197
-152.01102 -51.749352 57.415268 7037787
-152.5571 -51.718903 56.514812 6182221
-152.9933 -51.80751 55.714863 9011064
-153.3685 -52.014202 54.933495 7694946
-182.58801 -52.239326 -29.795721 9208435
-182.58261 -52.023167 -30.472525 8287856
-182.46623 -51.990967 -31.492937 8287856
-150.06325 -50.459457 61.627586 8089955
-150.43922 -50.654514 60.853077 9800833
-150.87526 -50.734356 60.059399 7958627
-151.36417 -50.779961 59.200901 8419952
-151.91393 -50.710464 58.321796 9670019
-152.28989 -50.911861 57.542797 6971994
-152.76381 -51.125019 56.590023 5721670
-182.87657 -51.130714 -30.749235 8681835
-182.87074 -50.914928 -31.428167 8682097
-182.76556 -50.863998 -32.414402 9143164
-149.64732 -49.614956 62.933971 5920074
-150.13684 -49.654423 62.078835 7103833
-150.72449 -49.703957 61.050671 9208694
-151.21448 -49.747055 60.192146 9274744
-151.63774 -49.902298 59.366135 8814710
-151.96048 -50.224506 58.590721 11183001
-183.24547 -49.797657 -31.721239 10128769
-183.15846 -49.8064 -32.387993 9472895
-183.04205 -49.818913 -33.277287 8880248
-148.77339 -48.339069 65.322327 8813942
-149.05612 -48.493214 64.734589 10064265
-149.4662 -48.741737 63.864212 7103836
-149.91539 -48.826397 63.044872 5920074
-150.47327 -48.668064 62.215652 8353645
-151.0097 -48.752953 61.24876 9932675
-151.38779 -48.948158 60.47065 9011315
-183.44492 -48.984985 -32.515774 9538688
-183.36511 -48.921574 -33.337177 9472895
-183.28497 -48.859009 -34.159271 9341566
-148.35077 -47.506207 66.63176 9866368
-148.77605 -47.735016 65.749825 9406335
-149.26744 -47.768394 64.895851 10393229
-149.75894 -47.803474 64.040398 8748405
-150.37477 -47.697727 63.075703 7301215
-150.78572 -47.949375 62.201622 9208956
-151.06876 -48.107662 61.610394 10854036
-183.68852 -48.023441 -33.397228 9867909
-183.53777 -48.083691 -34.420834 10986391
-183.56447 -47.822388 -34.975559 9736836
-147.84103 -46.266186 68.33461 5919050
-148.16362 -46.640816 67.566612 9866368
-148.61508 -46.718277 66.748611 9537403
-149.10767 -46.749596 65.894073 9866886
-149.60036 -46.782413 65.038315 10064265
-150.02684 -46.927719 64.214012 9866630
-183.9021 -47.352421 -33.665688 10263180
-183.97618 -46.912407 -34.367104 13354171
-183.85866 -46.926319 -35.262291 13354171
-183.85117 -46.712368 -35.950012 14077894
-147.5549 -45.409897 69.064796 6116941
-147.93422 -45.66824 68.592384 6643027
-148.49541 -45.716728 67.769623 8550510
-148.98566 -45.74477 66.912735 7892581
-149.37581 -45.864674 66.118111 10064265
-149.76817 -45.986431 65.323959 10064265
-184.27348 -46.016037 -34.6534 14077894
-184.33861 -45.81892 -35.355801 14077894
-184.21812 -45.832985 -36.253242 12827053
-184.27934 -45.636189 -36.957283 9142649
-147.09322 -44.221291 71.017036 7761509
-147.37128 -44.36507 70.423882 6577236
-147.83598 -44.677483 69.628983 7037531
-148.3829 -45.016758 68.871323 8287340
-148.75607 -45.168415 68.103828 9866368
-184.68532 -45.211006 -36.345947 11576730
-184.76881 -44.973839 -37.148876 9142649
-184.85629 -44.843971 -38.116909 7827047
-185.30884 -44.50074 -39.025398 8550770
-185.16229 -44.512234 -39.926498 8813942
-143.34488 -43.534931 81.90818 9471101
-144.15843 -43.784775 81.203705 10063750
-145.05843 -43.910309 76.165749 8485494
-145.60458 -43.912739 75.115768 9340539
-146.05409 -43.914768 74.237885 11182228
-146.49792 -43.916824 73.35717 8485233
-146.93683 -43.918896 72.473999 9603458
-147.19859 -44.030861 71.651192 8551026
-186.04698 -44.228661 -40.117916 10262156
-185.89793 -44.240902 -41.023537 9340544
-187.15254 -44.163055 -43.669388 8485745
-186.94051 -44.16423 -44.570282 8814710
-188.4877 -44.171265 -47.585278 9867142
-188.25648 -44.172421 -48.492409 9340289
-143.08379 -42.645855 82.459206 7169373
-143.73119 -42.804459 81.989517 9536894
-142.58958 -41.206951 83.395149 8287592
-143.17754 -41.696888 82.817055 7892837
-143.83871 -41.992836 82.278656 8352878
-142.70709 -40.537186 83.615929 8879471
-143.35541 -40.690254 83.148155 8682351
-142.36012 -39.739506 84.179985 9208435
-142.98158 -39.612648 83.851433 9142647
-143.38835 -40.076347 83.396767 9142651
-142.41512 -38.66906 84.615044 10196361
-143.15733 -38.605995 84.183868 9142651
-141.97495 -37.642189 85.337082 12432807
-142.62093 -37.760063 84.886093 11117461
-141.59709 -36.575073 86.038231 7564643
-142.24599 -36.590546 85.630264 9407870
-142.72556 -36.978451 85.16391 10788753
-141.76144 -35.693382 86.322929 8222317
-142.41704 -35.711811 85.90937 9210491
-141.20244 -34.48785 87.195984 8419696
-141.94856 -34.684292 86.648254 9208700
-142.53064 -35.040405 86.13237 10261132
-141.46819 -33.56184 87.435905 8024938
-141.96353 -33.954475 86.957741 8485488
-140.99908 -32.560959 88.163506 9010550
-141.74567 -32.744576 87.621033 9866368
-141.14288 -31.570601 88.507004 8879221
-141.84497 -31.96261 87.9011 11181201
-140.82883 -30.481104 89.314392 9142392
-141.42151 -30.731331 88.738869 8616049
-140.28036 -29.206482 91.349731 9602945
-140.48805 -29.576937 90.430008 8813429
-141.0143 -29.876293 89.748428 8418927
-136.00352 -28.361013 102.24027 9537409
-136.72935 -28.62781 101.75947 9471613
-137.40021 -28.859381 100.98029 9735043
-138.63057 -28.871035 94.859367 7959144
-139.08569 -28.872749 94.190613 7564643
-139.64984 -28.874887 93.351562 8156524
-140.05981 -28.980713 92.330521 7827815
-136.27171 -27.551283 102.43925 8814197
-136.80403 -27.801937 102.06919 8945783
-135.80725 -26.476116 103.11485 8682867
-136.42569 -26.731129 102.69991 8024937
-135.87469 -25.649359 103.42187 8354158
-136.58655 -25.771114 103.015 7169884
-135.54173 -24.16913 104.19907 7563619
-136.0425 -24.672218 103.74077 7235422
-136.67708 -25.08238 103.25375 6446418
-135.63487 -23.508902 104.4247 7958377
-136.27666 -23.802143 103.98226 7563619
-135.07291 -22.472416 105.13372 7563619
-135.71446 -22.763393 104.69225 7563619
-135.3764 -21.537649 105.36705 7630439
-135.80734 -22.101168 104.91879 7563619
-134.86754 -20.583242 106.01556 7565675
-135.46979 -20.617884 105.69959 8223342
-135.0116 -19.630026 106.33651 8946807
-135.53465 -19.784466 106.01077 8486256
-134.59224 -18.582895 106.97836 8353902
-135.16231 -18.717031 106.63747 7564898
-134.68143 -17.603159 107.33771 11248282
-135.327 -17.886581 106.89743 9210491
-134.33473 -16.30031 108.04866 9405822
-134.80692 -16.741674 107.63013 10458766
-133.83786 -15.308791 108.89044 6510930
-134.39944 -15.578589 108.38329 7760997
-133.56993 -14.475734 109.74336 6510930
-134.12823 -14.744512 109.23235 7366239
-130.08112 -13.494498 120.39804 9931904
-130.68846 -13.513638 120.08701 9931904
-130.82796 -13.823698 117.3429 7169117
-131.39125 -13.825498 116.71134 8419184
-132.09154 -13.827751 115.91856 9603202
-133.33356 -14.088178 110.89888 8353905
-133.89917 -14.106865 110.55388 10854036
-129.64465 -12.185416 121.15455 6907486
-130.16295 -12.686648 120.68955 9339769
-130.81367 -13.085024 120.20081 9931904
-129.72176 -11.494849 121.4001 7104864
-130.4395 -11.55743 121.01605 10918798
-129.12787 -10.439365 122.13087 7894122
-129.87686 -10.674659 121.66013 7236450
-129.50911 -9.5169649 122.31998 8025708
-130.12584 -9.8108225 121.89124 7894122
-128.9348 -8.2606792 123.12356 10984852
-129.59206 -8.5352592 122.68243 8945527
-129.21428 -7.5673056 123.26929 8418671
-129.87267 -7.8416476 122.8277 7563619
-128.61638 -6.5075068 124.00383 8681843
-129.27478 -6.7805886 123.56271 8813942
-128.89923 -5.5089407 124.27339 9207412
-129.35121 -6.0800748 123.81274 9340286
-128.35776 -4.5288129 124.94693 9930622
-128.9697 -4.5357046 124.63858 11378068
-128.53601 -3.6051025 125.23795 10654345
-128.9516 -3.8740711 124.91982 9207155
-128.03586 -2.7616231 125.83481 10787215
-128.64529 -2.6333477 125.58369 8812913
-127.65161 -1.2091389 126.66676 9142649
-128.22902 -1.655486 126.19468 9142649
-127.79264 -0.46874157 127.00818 7563619
-128.39862 -0.61905253 126.59085 8089962
-127.47672 0.42474076 127.91768 7564643
-128.07521 0.27475902 127.49146 7367269
-123.95119 1.5328263 138.41919 12235172
-124.59786 1.5333256 138.13434 10459278
-126.7194 1.0282867 129.73328 11248537
-127.33813 1.0281917 129.42845 10064262
-123.47865 2.7622652 139.11848 8682867
-124.00632 2.3018792 138.70197 11906208
-123.62568 3.611464 139.39406 8682867
-124.21366 3.3820355 139.04314 8682867
-123.21704 4.5375733 139.94537 7038307
-123.77322 4.4634628 139.67072 7564648
-123.23996 5.4688354 140.30856 9472129
-123.88914 5.4738827 140.0247 9998215
-122.83014 6.3992 140.86201 10984852
-123.47955 6.4052229 140.57854 10392971
-122.85268 7.3360662 141.22771 6643799
-123.503 7.3431625 140.9442 5920074
-122.44183 8.2709379 141.78346 5920074
-123.09229 8.2790337 141.50024 7498332
-122.59118 9.5465002 142.22905 9142643
-123.11537 9.2229023 141.8685 9734523
-122.17164 10.629395 142.84796 7039322
-122.91835 10.499059 142.4669 9142643
-122.33649 11.630695 143.17682 8749428
-122.78661 11.352633 142.86711 10854036
-121.78067 12.526903 143.78084 8288877
-122.43402 12.539448 143.49815 10196362
-122.02071 13.489149 144.06096 9407103
-121.7599 14.694705 144.80672 9537923
-122.12861 14.375836 144.42058 9735557
-121.39717 15.681209 145.79185 9143679
-121.8642 15.318615 145.28348 9669509
-119.43288 16.912657 151.41119 8616819
-120.0792 16.925371 151.10519 8287598
-119.39026 17.654451 151.7299 9208699
-118.92364 18.721382 152.38789 8880246
-119.45988 18.566853 152.06657 8880246
-119.10342 19.691877 152.71629 9537664
-118.6946 20.720234 153.35295 7827558
-119.25277 20.649788 153.05672 8551542
-118.26014 21.886889 154.06122 9537664
-118.84992 21.648926 153.67796 8090989
-118.32198 22.733381 154.39543 9603201
-118.88152 22.663296 154.09866 8814457
-117.8864 23.909906 155.10847 9735812
-118.59596 23.622923 154.64708 9735044
-118.10427 24.811445 155.392 10393230
-118.66505 24.442509 154.96628 10261644
-117.51167 25.951344 156.16414 9735812
-118.26041 25.457758 155.59532 10590353
-117.85487 26.477329 156.22659 9998471
-118.28169 26.145662 155.88075 10064521
-117.31878 27.515755 157.08034 10261387
-117.81226 27.127228 156.55963 9998215
-117.09745 28.590654 157.96753 9209467
-117.49492 28.278046 157.55083 10064008
-116.63793 29.662567 158.93843 11181972
-117.29641 29.354975 158.39297 10260872
-156.48412 -58.551945 46.191162 7235165
-157.02507 -58.735592 45.39333 6840663
-157.6192 -58.716984 44.497585 7169372
-157.71854 -58.922031 43.646095 7564651
-157.90489 -58.982983 42.3699 8617080
-158.15706 -58.984879 41.418438 8090221
-158.35445 -58.986389 40.656197 10459023
-160.53333 -58.99514 37.118973 9537920
-160.75345 -58.997017 36.151745 9735555
-161.0101 -58.99926 34.98938 8617331
-161.21771 -59.001125 34.019325 8615276
-161.41916 -59.002983 33.048058 8088931
-161.61519 -59.004833 32.075623 8287083
-161.80493 -59.00668 31.102003 9800579
-161.98914 -59.008522 30.12723 9471871
-163.65242 -59.013939 28.199051 8288365
-163.7529 -59.015041 27.607723 6511954
-163.91566 -59.016872 26.621235 7037274
-164.07297 -59.018688 25.633873 7037274
-164.22394 -59.020512 24.645594 9143163
-164.39742 -59.022682 23.458448 7563618
-166.04956 -59.028877 21.047426 7563874
-166.17282 -59.030666 20.047323 8945528
-166.31305 -59.032818 18.846189 8418927
-166.50735 -59.064201 17.85364 9142651
-166.73528 -59.116596 17.06624 9340801
-167.01448 -59.181953 16.079344 7038307
-167.63184 -59.13472 15.120728 10656658
-168.1064 -59.044754 14.347302 9735556
-168.27855 -59.07774 13.342122 9735556
-168.46202 -59.116665 12.336686 6511954
-168.6423 -59.156715 11.329423 9603710
-169.42648 -59.097366 10.425717 11577500
-169.79527 -59.052711 9.5593386 10065035
-169.86642 -59.060341 8.5379076 8749691
-170.02116 -59.098999 7.5197992 7761772
-170.18825 -59.1441 6.5008173 8945530
-171.34145 -59.061089 5.7183237 10063235
-171.3665 -59.062466 4.8929148 10063235
-171.3929 -59.064182 3.8611155 9011575
-171.49623 -59.094604 2.8306055 8288365
-172.82494 -59.070499 1.18715 9142650
-172.8288 -59.07254 -0.061377488 8748406
-172.83205 -59.076485 -1.1018515 8090736
-174.21991 -59.078888 -2.7894125 9142651
-174.19968 -59.08057 -3.8382902 8024426
-174.17349 -59.082241 -4.8869314 8814710
-175.55161 -59.086948 -6.618598 9735812
-175.51761 -59.088276 -7.4639959 9341054
-175.47952 -59.089603 -8.3093481 8617331
-176.81985 -59.09502 -10.508037 8353651
-176.76709 -59.096333 -11.359553 7958892
-176.71019 -59.097641 -12.210765 8089963
-178.05746 -59.102455 -14.028781 8879479
-177.96947 -59.104076 -15.100383 8747893
-177.89499 -59.105366 -15.957309 8089963
-179.22531 -59.110222 -17.818571 9209467
-179.48459 -58.98642 -18.936575 8287596
-179.98251 -58.633446 -19.735079 8748143
-180.0076 -58.728916 -20.747293 8156269
-180.06471 -58.737881 -21.765261 8551538
-156.20624 -57.60186 47.097069 8090474
-156.71928 -57.812618 46.327339 7235421
-157.3588 -57.782539 45.539131 6446162
-157.82491 -58.041016 44.800613 8681843
-180.21541 -58.022305 -19.893248 7761512
-180.33292 -57.845821 -20.786108 8551283
-180.36874 -57.891365 -21.670912 10262156
-180.42581 -57.901005 -22.692331 8551538
-155.86098 -56.714691 48.05106 7761510
-156.49384 -56.74958 47.233234 7629923
-157.09557 -56.815521 46.436413 8024682
-157.46477 -56.889683 45.927876 6840663
-180.586 -57.194427 -21.036554 9341054
-180.6945 -57.007275 -21.711374 9341054
-180.7303 -57.053391 -22.599138 9604226
-180.8335 -56.94381 -23.663404 10062979
-181.0137 -56.607765 -24.630285 10851980
-155.6618 -55.612526 48.946682 9275520
-156.16748 -55.779102 48.212128 8222060
-156.72424 -55.814972 47.489624 6577235
-157.27347 -55.993279 46.693306 6510930
-180.94792 -56.355232 -21.963755 8090987
-181.10728 -56.037735 -22.692106 9406334
-181.25558 -55.771938 -23.553873 9734014
-181.27998 -55.871243 -24.57863 10589065
-181.3759 -55.769962 -25.571104 9734271
-154.92004 -54.280621 50.699604 6775130
-155.29372 -54.682266 49.954723 10590354
-155.85902 -54.749359 49.203148 8617080
-156.53966 -54.784737 48.324841 9603202
-156.83421 -55.053371 47.79657 10261132
-181.50066 -55.107079 -23.586672 9602943
-181.61829 -54.932388 -24.492228 9734015
-181.65373 -54.980598 -25.388342 9865858
-181.71051 -54.993134 -26.423243 9800323
-181.97865 -54.426067 -27.44813 8681835
-154.31941 -53.369392 52.359295 10853780
-154.59862 -53.543682 51.763321 9406334
-155.03601 -53.671413 50.942924 6643543
-155.60783 -53.765724 50.09507 9208703
-156.15779 -53.90704 49.319427 8156530
-181.87279 -54.278336 -24.750452 9734788
-182.03246 -53.961132 -25.487455 9866374
-182.09898 -53.918457 -26.34683 9340029
-182.16452 -53.89827 -27.327482 9274234
-182.30009 -53.563839 -28.17161 7498590
-153.91454 -52.490948 53.670692 5919050
-154.33418 -52.749142 52.777573 8485232
-154.82405 -52.810646 51.906273 9735555
-155.4017 -52.731251 51.009136 7498852
-155.90239 -52.972126 50.188171 7761772
-156.19763 -53.235962 49.661846 7038307
-182.48511 -52.884117 -26.478998 8682100
-182.54517 -52.854801 -27.311075 8747889
-182.51646 -52.896591 -28.431086 9142387
-153.31136 -51.595772 55.329002 7694946
-153.59169 -51.76479 54.734818 6510930
-154.09569 -51.685524 53.940197 5919050
-154.68471 -51.755806 52.895252 8222060
-155.17609 -51.816315 52.022137 10853780
-155.4897 -51.994614 51.365128 8682867
-182.79189 -52.186272 -27.348978 9536888
-182.86858 -52.000858 -28.261717 9339509
-182.75343 -51.965595 -29.281271 9339509
-152.56349 -50.386532 57.45612 8221804
-152.9706 -50.530876 56.665287 5721670
-153.3923 -50.781357 55.774136 6840152
-153.88333 -50.835392 54.906231 7694946
-154.44463 -50.692772 54.060169 6905944
-154.95113 -50.855518 53.088623 6840664
-183.16315 -51.108105 -28.534285 9536888
-183.15823 -50.890385 -29.211836 10062976
-183.05428 -50.836506 -30.19713 8878958
-151.93927 -49.405613 59.211964 8419952
-152.26373 -49.640572 58.495811 10261899
-152.75494 -49.688675 57.631607 8156011
-153.24649 -49.738365 56.76569 6642772
-153.73854 -49.789913 55.897835 6840411
-154.23103 -49.843071 55.028084 11051416
-154.55557 -50.085537 54.306705 8616563
-183.53362 -49.772831 -29.499872 9405302
-183.44748 -49.779625 -30.166166 8681835
-183.33214 -49.789543 -31.054712 9734267
-151.32686 -48.535828 60.868244 9011315
-151.60934 -48.696144 60.276516 9932675
-152.04558 -48.803253 59.462906 9341054
-152.60605 -48.650887 58.625092 8354417
-153.09869 -48.698181 57.759056 10262668
-153.54434 -48.82439 56.916077 7038307
-153.93175 -49.090309 56.071545 7038307
-183.73438 -48.958363 -30.290255 9602681
-183.6555 -48.892628 -31.110697 10457734
-183.57625 -48.827679 -31.931684 9209467
-150.74765 -47.270363 62.751442 7169629
-151.03116 -47.427849 62.159889 9208956
-151.44243 -47.681377 61.283844 11379865
-151.89366 -47.770374 60.458035 9603968
-152.38675 -47.813705 59.594093 9209727
-152.94859 -47.660465 58.754459 9736327
-153.27505 -47.895809 58.034843 11381404
-183.97914 -47.994862 -31.166765 11905438
-183.82953 -48.052174 -32.18961 9407102
-183.85693 -47.789555 -32.7425 9209467
-150.32571 -46.429092 64.065643 9734788
-150.75214 -46.662754 63.178192 8682356
-151.2457 -46.700474 62.317444 9537921
-151.73956 -46.739895 61.455044 13023917
-152.23366 -46.780792 60.591072 10064262
-152.6445 -46.918171 59.79892 8551797
-184.19319 -47.323486 -31.432039 8089963
-184.18713 -47.106762 -32.116386 8945783
-184.1517 -46.893314 -33.025093 9538688
-184.145 -46.677624 -33.711105 12630704
-149.80101 -45.413952 65.981888 9801349
-150.24135 -45.523182 65.099007 9209726
-150.59647 -45.711521 64.271042 8946041
-151.15714 -45.694901 63.345703 9274749
-151.53171 -45.914108 62.433498 9143163
-151.96674 -45.987362 61.630589 12497830
-152.33885 -46.178352 60.844189 10656142
-184.47859 -46.283928 -32.244656 8879477
-184.57938 -45.858685 -33.179771 11445399
-184.5208 -45.800198 -34.010651 13748924
-184.58598 -45.602455 -34.712784 14077894
-148.5119 -44.396591 69.510101 6510930
-148.82201 -44.552559 68.928963 7300958
-149.20239 -44.711979 68.027985 7103323
-149.69676 -44.799015 67.067299 7629923
-150.17004 -44.798054 66.272232 9341055
-150.66611 -44.903492 65.281525 8486261
-151.05624 -44.928097 64.588547 7039331
-184.9911 -45.179214 -34.098244 14143422
-185.07632 -44.940269 -34.898029 14538182
-185.17683 -44.810818 -35.864658 13354425
-185.66716 -44.474327 -36.772415 10327435
-185.52545 -44.484364 -37.673561 9142649
-144.61479 -43.550499 81.116371 9866372
-145.09073 -43.671158 80.51339 9275005
-145.1953 -43.905254 79.38723 9011577
-145.67053 -43.90733 78.511772 7038307
-146.14006 -43.909405 77.633286 7038307
-146.69676 -43.911892 76.575485 8551287
-147.15501 -43.91396 75.69104 8814203
-147.42738 -43.915199 75.159035 8814203
-147.82095 -44.00441 71.367722 7761509
-148.2495 -44.056587 70.915466 6510930
-148.96385 -44.144451 70.158409 6510930
-186.41112 -44.200775 -37.853962 9866369
-186.26669 -44.211586 -38.75946 8089963
-186.12077 -44.22282 -39.664959 8089963
-187.61473 -44.160385 -41.639133 9537667
-187.41205 -44.161579 -42.542103 8287859
-188.99214 -44.168629 -45.540295 9537664
-188.77037 -44.1698 -46.449768 9735300
-144.31798 -42.265514 81.862869 9931652
-144.75261 -42.792179 81.363403 11444890
-144.44162 -41.62009 82.069244 9142907
-145.09258 -41.750244 81.609787 10590609
-143.9072 -40.762764 82.775238 9142651
-144.59247 -40.705761 82.376587 8748149
-143.67766 -39.288769 83.562943 10260875
-144.00734 -39.743332 83.159973 9734788
-144.71449 -39.627426 82.773613 9800580
-143.71037 -38.674328 83.812012 8879479
-144.36424 -38.8246 83.341919 9866117
-143.14832 -37.576286 84.640541 9210491
-143.88741 -37.664845 84.144836 10524303
-144.48335 -38.150368 83.563774 9142651
-143.31683 -36.690872 84.924271 13419188
-143.97754 -36.713005 84.50589 12037795
-142.95578 -35.635139 85.609375 9210491
-143.60985 -35.777298 85.142273 10920083
-144.09412 -36.038639 84.728317 10459278
-143.10609 -34.640911 85.950485 9867141
-143.71126 -34.964363 85.434494 11380380
-142.55827 -33.538303 86.77124 8682867
-143.31015 -33.726719 86.223434 8945782
-142.27242 -32.551514 87.379181 8682867
-142.90691 -32.61541 86.958466 9077367
-143.24129 -33.060986 86.556808 9406075
-142.35516 -31.602369 87.742523 9471868
-143.09673 -31.674751 87.251762 9406075
-142.14912 -30.500147 88.480988 8616049
-142.62781 -30.783234 87.971481 9208441
-141.39372 -29.281303 90.387344 8089963
-141.76207 -29.606529 89.617325 8682098
-142.31599 -29.859344 88.980072 8418927
-138.00595 -28.526171 101.16846 9735043
-138.00533 -28.861561 100.15125 8944757
-138.60573 -28.863741 99.318794 7629154
-139.20076 -28.865919 98.482529 9141877
-140.74693 -28.920071 92.136124 8089963
-141.3871 -28.962212 91.585594 10853012
-137.52782 -27.484501 101.83709 9077369
-138.00908 -27.899414 101.42494 9735043
-137.07594 -26.364016 102.52545 8682867
-137.7193 -26.664045 102.07935 8946039
-137.16743 -25.674917 102.76372 7564642
-137.81731 -25.688208 102.43268 8617075
-136.94688 -24.265923 103.45524 7564642
-137.33023 -24.711029 103.07964 6249039
-136.84048 -23.589514 103.78746 8485489
-137.55382 -23.679556 103.39301 10261900
-136.27675 -22.548698 104.49907 7563619
-137.01646 -22.648495 104.08735 10853781
-136.58405 -21.611071 104.73181 8617331
-137.35431 -21.778538 104.2768 11906725
-136.07373 -20.652828 105.3826 8617843
-136.78778 -20.736578 104.99033 8551538
-135.73444 -19.166634 106.16541 8486256
