# .PCD v0.7 - Point Cloud Data file format
VERSION 0.7
FIELDS x y z rgb
SIZE 4 4 4 4
TYPE F F F U
COUNT 1 1 1 1
WIDTH 1229
HEIGHT 1
VIEWPOINT 0 0 0 1 0 0 0
POINTS 1229
DATA ascii
79.265709 -67.577171 111.39195 10590091
78.628792 -67.28968 111.82086 8618105
144.34355 -66.436943 38.539673 8879222
144.14893 -66.741302 39.231895 9536894
143.91504 -67.095139 40.099567 9734273
80.246918 -66.839088 111.20636 9603710
79.518974 -66.55851 111.67729 10064518
78.568985 -66.624939 112.11778 7563619
78.016457 -66.406509 112.47742 7563619
144.80322 -65.442734 37.729481 9143678
144.59264 -65.808739 38.372379 9603971
144.49725 -65.7761 39.262711 9142393
79.419815 -65.785599 112.03706 9933190
78.754562 -65.738525 112.38321 10590609
77.914497 -65.636452 112.83746 10524560
77.350937 -65.285744 113.25573 9537665
145.12544 -64.618187 37.54586 8222578
144.9608 -64.7659 38.468163 8748920
78.873276 -64.884415 112.66854 13551549
78.154785 -64.58522 113.14226 12301227
77.246315 -64.518318 113.616 11051417
76.680664 -64.170898 114.03397 9144449
145.59604 -63.506161 36.999355 7498341
145.40996 -63.760071 37.778065 8222578
145.2388 -63.962734 38.587254 8090992
78.252785 -63.82132 113.40146 11446174
77.574066 -63.550095 113.84445 10064777
76.558212 -63.592464 114.32704 9801863
75.934921 -63.414238 114.70531 10262155
146.12012 -62.331684 36.196724 6510930
145.88808 -62.741516 36.885586 6642516
145.74274 -62.856903 37.745201 9340542
77.547066 -62.865597 114.13314 10130313
76.784615 -62.717041 114.56792 10788500
75.825424 -62.651417 115.06612 11578016
75.256104 -62.310001 115.48356 9341054
146.35921 -61.696869 36.13026 8419183
146.22221 -61.796314 36.968403 7234653
146.05658 -62.017902 37.675083 7958632
77.058441 -61.814693 114.79639 10591120
76.173584 -61.679543 115.28596 11051415
75.212799 -61.518436 115.82346 10854037
74.572548 -61.211079 116.26216 8090987
147.03949 -60.458935 35.484467 5920074
146.71716 -60.828751 36.155018 7498593
146.48366 -61.098145 36.908371 8879990
76.377945 -60.862244 115.52747 9472639
75.517334 -60.647026 116.08939 10985623
74.662979 -60.500694 116.60957 10064521
73.977448 -60.19239 117.18909 10392717
148.09406 -59.439083 34.046265 10591630
147.85559 -59.574783 34.666176 9735808
147.49359 -59.885071 35.405781 6446417
147.17911 -60.152279 36.267776 5920074
74.948196 -59.840649 117.00503 9932166
74.183624 -59.624798 117.59557 10195338
73.407372 -59.526962 118.09035 10326924
72.662498 -59.334442 118.71725 8682867
72.051132 -59.260105 119.1631 8682867
156.22443 -58.535679 25.00036 7892840
156.10966 -58.680836 25.688566 6774102
155.37343 -58.971733 26.39942 9011576
155.24417 -58.969967 27.146158 6972511
153.9155 -58.970047 27.866877 8551538
153.7446 -58.967876 28.79141 5393738
152.45972 -58.968426 29.308882 7498853
152.24298 -58.96587 30.407579 6510930
150.96846 -58.966446 30.907305 7958120
150.81685 -58.964775 31.632559 6510930
149.98788 -58.999893 32.33728 6839895
149.34065 -59.080555 33.201073 7037274
148.85307 -59.201813 33.995079 8945268
72.921051 -59.093418 119.30251 9209211
72.03624 -59.076725 119.79052 9012088
71.436844 -58.974403 120.42918 9538176
70.684044 -58.870716 121.1472 9735299
70.029381 -58.853008 122.04453 10196104
69.527222 -58.846218 122.87711 9209467
68.6371 -58.846233 123.37457 10656657
68.000885 -58.845272 124.10136 10196619
67.615067 -58.84333 125.06108 8092011
66.709274 -58.843407 125.54469 8683125
66.18306 -58.841976 126.38737 8090991
65.649895 -58.840572 127.22735 8288111
64.574409 -58.840729 127.77408 9011576
64.254326 -58.837811 129.06816 9406334
63.475399 -58.837967 129.45088 8353905
62.538116 -58.838161 129.90497 7038307
62.192665 -58.83527 131.20589 8814709
61.24263 -58.835514 131.65015 8814709
60.767147 -58.812798 132.57382 9669762
60.241043 -58.626305 133.25793 9208443
59.226242 -58.615513 133.76189 10129289
156.50992 -57.75544 25.044622 8089963
156.53418 -57.807468 25.821329 8089963
60.28722 -57.955437 133.50449 9405566
59.582279 -57.722176 133.94519 9931910
58.675079 -57.691864 134.40401 10458254
58.044556 -57.384205 134.83788 9735043
156.87442 -56.626106 24.230722 8682356
156.84752 -56.825497 25.048426 9603714
59.490101 -56.718822 134.39331 9537152
58.786331 -56.639587 134.77164 9602945
57.875637 -56.611546 135.23123 9735043
57.241879 -56.305519 135.66617 10261643
157.21027 -55.71096 24.300356 10853780
157.14629 -55.986748 24.94919 11248539
59.015263 -55.783195 135.00266 8813685
58.304211 -55.552933 135.44516 8485237
57.343998 -55.572922 135.9099 10195850
56.728539 -55.404362 136.28056 9998471
157.61981 -54.464733 23.533709 10459791
157.51311 -54.865265 24.229155 11578270
58.211613 -54.702579 135.83209 7893615
57.471645 -54.657158 136.21466 10261901
56.533253 -54.49612 136.74126 9998218
55.939835 -54.145695 137.17413 8617080
157.90268 -53.681259 23.509912 7894639
157.82762 -53.975761 24.081518 11906977
57.561031 -54.016144 136.42795 9998729
56.9702 -53.651089 136.86534 9406338
56.079273 -53.553524 137.32828 8156787
158.2794 -52.532078 22.785967 9603714
158.19981 -52.868793 23.552538 7894382
56.982826 -52.781155 137.20833 8090737
56.136021 -52.677448 137.65875 8222579
55.352707 -52.540642 137.86961 9471875
158.57451 -51.706985 22.710077 9735043
158.5853 -51.784824 23.412806 7366495
56.25016 -51.854946 137.94083 8814459
55.421478 -51.46711 138.28366 10129802
158.98567 -50.472351 22.03863 7695204
158.87321 -50.878189 22.673304 8485233
55.4361 -50.667625 138.61234 8946297
54.747448 -50.499474 138.69545 8682867
159.24265 -49.750908 21.942789 7038042
159.27116 -49.791252 22.727884 6510930
55.478451 -49.904114 138.91484 10656142
54.751225 -49.648174 139.03384 8682867
54.052193 -49.214115 139.22287 8682867
159.60999 -48.64407 21.307093 6183246
159.55896 -48.887047 21.984697 6972762
54.83585 -48.682579 139.41568 8682867
54.172512 -48.423439 139.53439 8682867
159.92761 -47.761585 21.249887 7367520
159.8857 -47.994675 22.027933 5920074
54.00098 -47.659351 139.84247 9077627
160.35779 -46.606163 20.520395 9537919
160.24545 -46.915546 21.225069 9275003
54.13715 -46.759758 140.19846 8354677
53.416878 -46.552017 140.30435 7565675
161.05466 -45.569275 19.821138 9472126
160.85355 -45.88139 20.503992 9537919
53.419079 -45.778355 140.80829 8814968
52.678173 -45.375095 141.1355 9866884
162.75519 -44.351181 18.640284 10262414
161.91003 -44.654076 18.977037 9801608
161.448 -45.037395 19.605936 10853523
52.771587 -44.750481 141.63715 10064262
52.028889 -44.545719 141.90317 9011581
51.462788 -44.223206 142.66072 9603460
51.332325 -43.998638 143.38356 10261132
50.593632 -43.95858 143.49387 10721423
50.208679 -43.817848 144.6248 10458246
49.161781 -43.818462 144.98241 9800832
48.211559 -43.815052 146.82309 8747893
47.148823 -43.815723 147.16614 9011065
46.16193 -43.812332 149.01918 13023150
45.263371 -43.812946 149.29344 11379095
44.84869 -43.483906 150.53937 10853012
44.14344 -43.376286 150.59927 9932422
44.741272 -42.720402 150.84564 10261133
44.095608 -42.491344 150.95242 9997960
43.99213 -41.728405 151.25839 10129803
43.449028 -41.443985 151.3847 10853012
44.155472 -40.980564 151.55182 10853012
43.41745 -40.558876 151.73752 9997703
42.679066 -40.13868 151.92252 9010808
43.385258 -39.67263 152.09079 10195082
42.751518 -39.479797 152.18286 9931910
42.844612 -38.631355 152.51807 9142651
42.08289 -38.401466 152.62799 8813686
42.751999 -37.676788 152.89999 8945015
41.968502 -37.636631 152.93497 9537662
42.127911 -36.734406 153.27838 9077368
41.500778 -36.266438 153.40617 10984849
42.098869 -35.804581 153.66051 9011831
41.590717 -35.434784 153.74176 10392969
41.324917 -34.591419 153.98828 9537918
41.247665 -33.658932 154.32367 9603968
40.948109 -33.334198 154.32156 9538176
40.757038 -32.660759 154.50397 9735555
40.568802 -31.622061 154.83154 10064520
40.788605 -30.827278 155.24008 9932934
40.22699 -30.507042 155.12756 9077625
40.093658 -29.717638 155.64694 11775136
39.53899 -29.232098 155.82469 11709343
39.339966 -28.950237 156.62711 13683130
38.709244 -28.903833 156.5083 9735812
37.604568 -28.799908 158.5929 9800580
36.839737 -28.800575 158.77176 10064009
119.78918 -79.253654 67.354507 9011059
119.40015 -79.210991 67.893425 8681835
120.85707 -78.527443 66.054726 9735043
120.44757 -78.669052 66.660812 9998216
119.96648 -78.694099 67.45356 9208697
119.30054 -78.759964 68.263657 9405561
118.68939 -78.72567 69.007141 9471870
118.06741 -78.644836 69.789505 8946041
117.44197 -78.677124 70.512665 9209215
116.76611 -78.679146 71.312683 9800838
116.14485 -78.608749 72.088333 9670021
115.52363 -78.541855 72.862061 9867398
114.90238 -78.478416 73.633881 12301482
114.28107 -78.418503 74.403816 10525587
113.60352 -78.546913 75.135056 9341571
112.98226 -78.493759 75.901108 9407106
112.3608 -78.444069 76.665512 9471353
111.7391 -78.397804 77.428314 9931905
111.10871 -78.349121 78.183655 9472127
110.39146 -78.242897 78.875206 8946296
122.20071 -77.440178 64.516022 7565675
121.79093 -77.576408 65.12587 9866631
121.25844 -77.786316 65.89502 10195339
120.76357 -77.775032 66.75882 9537664
120.2615 -77.763084 67.618347 9406079
119.66702 -77.695503 68.424438 9800837
119.04258 -77.612045 69.211189 9471871
118.35995 -77.717323 69.961372 9735043
117.66679 -77.776543 70.749825 9077886
117.05506 -77.752769 71.488144 9209471
116.37465 -77.867958 72.230209 9143675
115.75201 -77.801559 73.005341 9538433
115.15955 -77.779617 73.71981 9867398
114.45029 -77.863808 74.513397 9473156
113.77177 -77.992355 75.245758 9341571
113.17351 -78.03611 75.930382 9932937
112.4716 -78.074608 76.740746 10326664
111.84919 -78.028503 77.504265 9471353
111.21539 -77.978165 78.258347 9274490
110.50282 -77.876122 78.954453 9341054
109.76308 -77.758148 79.627693 9406591
109.02451 -77.643707 80.298187 9603970
108.29124 -77.642494 80.911163 9998728
107.49697 -77.608299 81.590561 10853780
106.76207 -77.504578 82.252998 10722449
106.06649 -77.447426 82.860771 11445914
105.24256 -77.489914 83.528893 11314329
123.54634 -76.368248 62.963306 10459019
123.13638 -76.499504 63.577122 9143676
122.6036 -76.702835 64.351364 8025969
122.10886 -76.684929 65.219345 8880764
121.61327 -76.670364 66.086449 9143422
121.12277 -76.705948 66.908524 9669252
120.56916 -76.927948 67.694931 9537667
120.11224 -76.982071 68.29567 10261132
118.63932 -77.174667 69.933617 9406078
109.12005 -76.894112 80.570503 9735555
108.40395 -76.851654 81.188461 9735555
107.76599 -76.696571 81.794113 9472383
107.02892 -76.593834 82.457916 10985364
106.18232 -76.749695 83.091728 11314328
105.45264 -76.762337 83.695122 10327436
104.71918 -76.669846 84.351143 8813686
103.98177 -76.486595 85.053047 9734788
125.10107 -75.390923 61.311081 12038052
124.57694 -75.493317 62.060314 10656656
124.01213 -75.627434 62.871426 8354159
123.51917 -75.648407 63.698627 9341054
123.02676 -75.629372 64.572266 8486004
122.4334 -75.774071 65.391609 8551799
121.84937 -75.92775 66.213852 7762539
107.24203 -75.866348 82.621582 9406592
106.45298 -75.950623 83.244133 9275264
105.75869 -75.739449 83.989326 9077628
105.05587 -75.584663 84.705261 8221549
104.15258 -75.642914 85.406212 9471616
103.24526 -75.765511 86.068245 8748660
102.59949 -75.602875 86.73159 10064520
101.87874 -75.463562 87.450867 9077113
101.25033 -75.249847 88.187965 8287341
100.75345 -75.196739 88.610878 8287341
128.36517 -74.362007 57.637234 8089963
127.98717 -74.344307 58.394276 7037786
127.32857 -74.428963 59.206921 10393997
126.76783 -74.507462 60.015392 10262667
126.09076 -74.707039 60.709095 8815483
125.50555 -74.759872 61.571491 10591122
124.99529 -74.826912 62.354195 10064776
124.4744 -74.952309 63.058361 9012089
124.01197 -75.013512 63.763813 9341054
104.06231 -75.185432 85.904839 9537409
103.67441 -74.986763 86.426117 9077113
102.95534 -74.919579 87.093163 9537150
102.27576 -74.740456 87.845413 8813428
101.61967 -74.652306 88.509972 8484720
100.83705 -74.634926 89.115562 8089962
100.14719 -74.441559 89.746689 9405820
99.467781 -74.288757 90.407112 7366237
98.773987 -74.302216 90.735413 7366237
141.09839 -73.668724 43.564655 9207155
140.9252 -73.714897 44.440857 8418153
140.25403 -73.829979 45.064098 6906455
139.52365 -73.944313 45.849236 8483689
138.94211 -73.943077 46.646526 10260614
138.11023 -73.94278 47.230473 9076599
137.7648 -73.940689 48.224937 9537923
136.69209 -73.94133 48.587296 9998217
136.33694 -73.93927 49.571472 8814971
135.38562 -73.938934 50.240192 9012607
134.78157 -73.937271 51.2178 9208443
134.17839 -73.93618 51.974804 9274236
133.34219 -73.936012 52.512558 8879990
132.95871 -73.934059 53.472416 8879990
132.09906 -73.934311 53.865147 7366239
131.50632 -73.932915 54.732662 7366240
130.80374 -73.983177 55.550129 8879735
130.00397 -74.092232 56.32032 9800837
129.53976 -74.132401 57.046566 8418928
128.92241 -74.198402 57.701786 8089963
128.46735 -74.176987 58.613941 6840925
128.16196 -74.163422 59.220791 6511954
99.396011 -74.170341 90.867813 7366237
98.930717 -74.083153 91.430527 6971480
98.338737 -73.986176 92.096626 8616559
97.612877 -73.941994 92.747932 8879730
96.900391 -73.911201 93.410599 9866624
96.353104 -73.880943 94.461777 9602943
95.553169 -73.880005 95.268456 8681843
94.862007 -73.879242 95.954399 7498857
94.165848 -73.878487 96.63533 7038307
93.464851 -73.877754 97.311226 9406593
92.758942 -73.877045 97.982025 9735044
92.048225 -73.87635 98.64772 8879735
91.499565 -73.874695 99.586922 7761254
90.879044 -73.873871 100.25871 5655878
90.344742 -73.872704 101.00527 5656390
89.682419 -73.871452 101.8564 8814198
88.943871 -73.870865 102.49979 8814198
88.200607 -73.870293 103.13783 6380625
87.452782 -73.869743 103.77048 7367264
86.85038 -73.804169 104.77118 8946297
86.340889 -73.556038 105.50627 7630953
85.381439 -73.420822 106.03257 7368296
141.63467 -72.452858 42.797222 8287600
141.4653 -72.662888 43.56464 8616306
141.2003 -72.983582 44.451664 8418410
86.426376 -72.76152 105.78395 7564906
85.601799 -72.582764 106.26143 8617336
84.612152 -72.561928 106.75652 8419953
141.95291 -71.610588 42.705872 8748150
141.77571 -71.780945 43.658638 7958377
85.810852 -71.68129 106.52137 9143678
84.885017 -71.7668 106.94231 8156783
84.026421 -71.503098 107.47069 7696228
142.3931 -70.59539 42.127941 10459281
142.24129 -70.730141 42.977661 10590609
142.00195 -71.162888 43.652355 7563619
85.073906 -70.767525 107.25153 8288372
84.247253 -70.597473 107.72652 7893607
83.409988 -70.569901 108.14938 7564642
142.90422 -69.465981 41.307285 9011838
142.73376 -69.702812 42.003418 10590865
142.59018 -69.821793 42.832119 12762034
84.450783 -69.700676 107.9873 9209726
83.524323 -69.793724 108.40549 7894124
82.662842 -69.539436 108.93153 8222834
143.25273 -68.530777 41.246586 11709346
143.00655 -68.897835 42.17572 10656658
84.344078 -69.104134 108.27982 8092019
83.767372 -68.788048 108.69066 8749434
82.878265 -68.638115 109.18829 10130571
82.12149 -68.473503 109.62668 9670021
143.65102 -67.637138 40.648064 11905695
143.50897 -67.75119 41.47929 10130313
143.33875 -67.986359 42.178448 9932934
83.076462 -67.745483 109.44998 10064778
82.115128 -67.7612 109.91646 8090992
81.435059 -67.531364 110.34343 7433064
144.23413 -66.314919 39.813576 9734273
144.00865 -66.690903 40.545109 9997698
143.84865 -66.862625 41.351013 8616305
82.96582 -67.153725 109.74249 9143678
82.404251 -66.787834 110.16598 8485750
81.561752 -66.672371 110.62679 7433320
80.665276 -66.465309 111.15103 9340797
144.47458 -65.675583 39.754246 10063492
144.30945 -65.818901 40.688606 9537148
82.310432 -66.009758 110.52527 10459537
81.746819 -65.647446 110.94823 7697261
80.902786 -65.535942 111.4082 9999239
80.042168 -65.615097 111.79957 10262411
144.97704 -64.498909 39.141384 9143678
144.76697 -64.830742 39.883354 10326920
144.60176 -65.026199 40.662319 9010806
81.650337 -64.872269 111.3076 9012606
81.026314 -64.680099 111.69186 9011576
80.163864 -64.760033 112.08383 9801604
79.397179 -64.58551 112.53116 11709601
145.259 -63.757412 39.041401 9603714
145.14381 -63.778687 39.935104 11379607
80.90979 -64.095093 111.9845 8089963
80.343002 -63.739365 112.40636 8419696
79.496674 -63.635273 112.86459 10130313
78.728203 -63.464378 113.3113 11446173
145.73573 -62.709881 38.24839 9472386
145.57982 -62.848255 39.126133 9735298
80.24144 -62.969135 112.76591 7697000
79.672653 -62.616657 113.18746 8288621
78.852898 -62.562817 113.61262 8288109
78.105476 -62.590187 113.96937 9867141
146.257 -61.450672 37.725838 8682355
146.09067 -61.67366 38.433746 8485488
145.92397 -61.897858 39.141575 9998214
79.568573 -61.848885 113.54718 6511954
78.949448 -61.707108 113.90892 6709333
78.075912 -61.755379 114.31956 10656657
77.428001 -61.479511 114.74935 10262155
146.59439 -60.765152 37.498615 7234909
146.45706 -60.777153 38.453281 6972505
78.942268 -60.975349 114.20642 7433056
78.263611 -60.753609 114.6694 10261899
77.423149 -60.668045 115.1409 9077881
76.655457 -60.432144 115.67537 9603969
76.053802 -60.279308 116.09824 10261899
148.49477 -59.263126 35.268528 7893349
147.96611 -59.436092 36.20977 7235420
147.41716 -59.744717 36.890556 9011572
147.05109 -60.116051 37.551834 8485233
77.665863 -60.041073 115.50301 8814709
76.944595 -59.771038 116.08242 9670019
76.084946 -59.625122 116.63596 10393485
75.39592 -59.362377 117.37168 9143162
74.688423 -59.315464 117.689 10129545
156.29181 -58.568363 26.426767 6313810
156.27837 -58.731537 27.25033 6972511
155.14444 -58.968647 27.705767 8090477
154.97377 -58.966457 28.637556 7104096
153.63901 -58.966583 29.345518 5393738
153.45854 -58.964432 30.268251 6841690
153.31061 -58.962719 31.005766 11906981
152.01833 -58.963326 31.504641 7826532
151.82524 -58.96122 32.417656 10458249
150.50385 -58.961441 33.081192 7892838
150.25989 -58.958961 34.165703 7432543
149.26431 -59.051998 34.505016 9536891
149.09808 -59.06765 35.412193 7103834
74.979263 -59.137596 118.14891 9406078
74.242729 -59.028259 118.87808 10919061
73.503342 -58.966484 119.4477 9998215
72.722778 -58.888943 120.27813 9209211
72.321732 -58.846313 121.25936 9538176
71.296585 -58.846252 121.86292 11116184
70.676224 -58.845234 122.60329 9209468
70.311363 -58.843235 123.5712 8748917
69.416199 -58.84325 124.07434 12761518
68.667488 -58.843269 124.48879 12038049
68.393532 -58.840294 125.7795 8092011
67.482407 -58.840366 126.26871 8814965
66.720581 -58.840435 126.67152 8485747
66.422058 -58.837475 127.97021 7959405
65.495178 -58.837608 128.44518 8879990
64.821304 -58.836712 129.16803 10327692
64.39682 -58.834785 130.14258 9340541
63.454346 -58.83498 130.6028 7762027
63.035591 -58.646626 131.6747 9538433
62.298038 -58.604603 132.25392 9077625
61.417839 -58.575745 132.6989 9538176
156.62766 -57.660984 26.546583 7498856
156.54984 -57.962444 27.115103 6578010
63.015049 -58.051147 132.12308 9209211
62.391228 -57.735298 132.55701 8946039
61.48674 -57.697586 133.01741 8682867
60.658722 -57.585148 133.47021 8484976
157.02832 -56.427742 25.706263 11051418
156.90376 -56.857288 26.268442 9406595
62.23222 -56.959549 132.94667 9932934
61.636192 -56.703995 133.34268 9143418
60.803692 -56.608932 133.79071 8879734
60.025646 -56.497566 134.21849 9273980
157.31512 -55.648415 25.779699 10261903
157.26137 -55.880314 26.32622 7038307
61.054642 -55.631561 134.05949 9669251
60.22171 -55.520641 134.51407 9800324
59.387516 -55.411678 134.96852 9471615
157.66776 -54.551548 24.964476 6973280
157.59387 -54.852821 25.601442 7499110
60.286358 -54.643108 134.83444 9932166
59.39534 -54.620281 135.28233 9340543
58.656399 -54.572323 135.66537 8617336
157.95779 -53.747589 24.934793 6578521
157.95129 -53.876095 25.657438 5393730
60.275963 -54.058823 135.07413 9997959
59.681171 -53.748287 135.49164 9208956
58.778061 -53.718086 135.94838 9077886
58.016052 -53.513588 136.40561 8156787
158.32712 -52.610023 24.155039 7565675
158.27872 -52.84486 24.81642 7235939
59.632797 -52.972847 135.82666 9735043
58.994823 -52.664104 136.26472 9275264
58.075001 -52.635899 136.72896 7762030
57.356216 -52.407452 137.1745 7564651
158.64531 -51.748795 24.257891 6709082
158.56833 -52.070122 24.971922 6972767
58.823433 -51.890965 136.65944 9340286
58.265835 -51.657967 137.02753 9077114
57.474586 -51.552601 137.45935 8419956
56.706081 -51.350666 137.91879 9143422
158.9743 -50.706184 23.370447 6510930
158.96594 -50.846439 24.137423 6906720
58.331848 -50.804115 137.33771 8089963
57.709408 -50.634041 137.71249 7696747
56.736275 -50.655632 138.18291 9340801
56.040813 -50.396591 138.62329 8880507
159.33208 -49.752216 23.575281 6840670
159.25584 -50.071087 24.291803 7038307
57.586067 -49.966511 138.04118 9340801
56.895618 -49.78373 138.45444 9866631
56.072887 -49.507111 138.94527 10392716
159.66089 -48.712589 22.683435 8420208
159.65018 -48.845734 23.368235 6314577
56.961212 -49.005077 138.73473 9340801
56.311649 -48.700211 139.17688 9998215
55.534809 -48.556202 139.44937 9866627
160.03343 -47.693237 22.72069 7367264
159.92938 -48.053806 23.211153 5920074
56.294075 -47.92297 139.4975 9735043
55.535568 -47.527832 139.84515 9274748
54.704243 -47.451744 139.90811 8682867
160.40623 -46.625435 21.900545 8617330
160.32535 -46.906189 22.591974 8551794
55.60376 -46.621754 140.21692 9406078
54.830494 -46.627911 140.23303 9669250
161.19405 -45.477081 21.09865 10064262
160.93311 -45.878967 21.943155 8946037
54.932602 -45.908882 140.69698 10261131
54.190617 -45.502636 141.02664 9340798
162.73125 -44.373734 19.62948 10261132
162.03525 -44.642319 20.336443 15590618
161.66791 -44.892277 21.080835 12629674
54.154552 -44.892914 141.51682 9735554
53.459114 -44.557072 141.91551 10261384
52.751709 -44.295147 142.46072 9866629
163.49551 -44.121078 18.924631 10590353
52.81216 -44.080433 143.15652 9341310
52.132633 -43.987778 143.43872 8683124
51.600479 -43.81707 144.13629 10262156
50.905289 -43.817448 144.38255 10458246
50.329529 -43.813766 146.11415 10458246
49.448143 -43.814293 146.41284 11050385
48.311909 -43.810928 148.33957 7563619
47.417114 -43.811504 148.62611 7958633
46.201511 -43.666492 150.43396 11379095
45.569992 -43.467232 150.52855 9340796
46.280361 -43.008072 150.69392 10786958
45.54361 -42.581505 150.88144 9669251
44.806625 -42.15657 151.06833 9735046
45.458748 -41.627968 151.26279 8090737
44.749008 -41.52145 151.32239 7893615
44.845875 -40.684227 151.65305 7893615
44.241238 -40.227055 151.84949 9735046
44.821457 -39.754078 152.02356 9340545
44.240417 -39.543449 152.12143 9932423
44.146767 -38.744232 152.44162 10392718
43.670235 -38.29565 152.63155 10261132
44.23613 -37.659767 152.87082 9734531
43.479904 -37.470093 152.96457 9800324
43.466572 -36.571213 153.32242 9537152
42.699905 -36.341988 153.43216 8090987
43.550472 -35.812031 153.62236 9471359
42.836815 -35.538288 153.74852 8945782
42.802483 -34.667503 154.09567 9406332
42.095974 -34.596176 154.1412 9537918
42.947678 -34.062061 154.33301 9011574
42.197586 -33.644833 154.51715 9274489
42.239902 -32.624744 154.92188 9603453
41.641499 -32.458057 154.9306 10327434
41.594303 -31.574686 155.2561 11183001
41.350426 -30.575603 155.59923 10130313
40.931187 -29.673576 156.04408 10196364
40.183392 -29.012623 156.78465 10853012
39.513126 -28.798288 158.13083 9735299
38.750401 -28.798929 158.31824 9012088
116.54677 -77.31311 72.336426 8617331
115.92304 -77.247093 73.112663 8683124
115.24278 -77.369141 73.850647 9867398
114.56298 -77.494377 74.586403 9473156
113.93979 -77.438431 75.356346 9472643
113.23041 -77.530045 76.145897 11379868
112.63758 -77.521095 76.853516 11642783
112.01414 -77.475258 77.618095 9668733
111.36185 -77.508232 78.361053 9537404
110.61411 -77.509644 79.033653 9012088
121.06845 -76.284538 67.306175 9537667
120.65121 -76.424583 67.91217 9537667
120.02166 -76.583511 68.625847 10129546
119.33625 -76.686012 69.380867 9471871
118.65543 -76.682411 70.189789 10326668
118.02644 -76.715904 70.916649 8946041
117.40111 -76.643509 71.698288 9077882
116.78767 -76.623459 72.436577 9143675
116.09387 -76.693367 73.219818 8354159
115.40067 -76.766922 74.000313 9867398
114.78802 -76.756599 74.732185 8748661
114.16346 -76.701065 75.503532 9734787
113.53874 -76.648865 76.27317 10261131
112.91383 -76.60009 77.041145 10984852
112.28715 -76.661835 77.749352 9931905
111.60456 -76.693581 78.531181 10326663
110.8363 -76.777725 79.191803 8616562
110.09382 -76.660957 79.866722 9340286
109.45133 -76.562645 80.449486 9208956
108.73574 -76.456146 81.097137 9735555
122.73196 -75.291672 65.550758 9340801
122.09959 -75.412903 66.458191 7959402
121.48564 -75.589088 67.282898 8288114
120.98029 -75.577881 68.147903 9735046
120.34132 -75.687157 68.855698 10063753
119.6647 -75.783943 69.570908 9471872
119.04943 -75.713562 70.366814 9011833
118.43369 -75.646217 71.160362 8024426
117.81747 -75.581924 71.951614 8156779
117.04078 -75.749763 72.697144 9209468
116.41026 -75.79261 73.418533 8354159
115.79308 -75.737083 74.201965 9932933
115.17833 -75.727051 74.93602 9274747
114.46463 -75.79528 75.70192 9537408
113.84411 -75.747528 76.477516 8089963
113.22289 -75.70285 77.251251 9734786
112.52946 -75.833672 77.973557 9537149
111.82504 -75.960136 78.685661 9734529
111.12829 -75.798309 79.457489 10129544
110.48522 -75.607895 80.150085 10590609
109.67905 -75.672989 80.778725 11774883
108.86707 -75.736145 81.398445 9735555
108.14198 -75.642036 82.078888 8880246
107.50487 -75.393456 82.824112 8090991
106.69312 -75.463631 83.431961 9012093
106.215 -75.410027 83.884285 10262156
126.52609 -74.286194 61.256657 10065035
126.13504 -74.273453 62.005795 11249052
125.44327 -74.325233 62.868359 10064777
124.81138 -74.423996 63.653713 10919830
124.09888 -74.6129 64.374893 9867398
123.50504 -74.684021 65.20195 8485746
123.00081 -74.707985 66.026886 9997959
122.38689 -74.803932 66.886894 8485232
121.78352 -74.952538 67.702637 8616821
121.45048 -74.94812 68.284149 8090995
120.35921 -75.175987 69.394913 10261132
119.95211 -75.130676 69.930725 8550771
109.70892 -75.168358 81.208473 10787988
109.22896 -75.108131 81.668983 9340797
108.6047 -74.866966 82.430115 8814453
107.8289 -74.752159 83.191956 8879992
106.989 -74.843666 83.801834 8617336
106.17921 -74.784637 84.536507 8222579
105.3978 -74.678383 85.316139 8550514
104.69341 -74.617218 86.003441 9274237
104.09936 -74.420433 86.780792 9865858
103.39929 -74.369415 87.469223 9011063
102.85452 -74.286751 88.182365 8418927
102.20648 -74.210312 89.022232 11116184
101.74863 -74.189568 89.487862 10063753
140.54187 -73.710701 45.623627 6709076
140.26074 -73.707268 46.466034 9405563
139.789 -73.777321 47.368729 9471359
138.84535 -73.940048 47.856144 8681843
138.49535 -73.93795 48.855865 9406337
137.41217 -73.938606 49.216862 9537923
137.05238 -73.936554 50.206211 8288883
136.21027 -73.935875 50.939304 9274492
135.48051 -73.934555 51.857754 11577247
134.87077 -73.933464 52.61755 9208443
134.02621 -73.933304 53.155697 10327692
133.63811 -73.931351 54.120502 9866630
132.9061 -73.930779 54.7556 11248539
132.17102 -73.930214 55.383804 10195851
131.76685 -73.928329 56.335098 10787988
130.89891 -73.928642 56.709141 9537665
130.28751 -73.927299 57.563595 8484979
129.56459 -73.967072 58.471745 7827565
128.79684 -74.002022 59.139233 6840925
128.17345 -74.051025 59.900944 9736067
127.63955 -74.062256 60.744633 8485744
126.92211 -74.116142 61.637203 9998983
126.44997 -74.101082 62.539089 10985879
103.04675 -74.071815 88.886955 9537150
102.58813 -74.050476 89.355537 10458510
101.68904 -74.073181 89.957451 8287341
100.95809 -74.027275 90.530052 9800579
100.21613 -73.964111 91.177589 7432287
99.602325 -73.922668 91.853088 7169372
99.069946 -73.881302 92.783585 8551024
98.396568 -73.88044 93.495018 6511954
97.718147 -73.879593 94.20153 7103834
97.034622 -73.878777 94.903137 9340026
96.230591 -73.877831 95.715225 8024938
95.420105 -73.876923 96.520859 8683126
94.719887 -73.876167 97.205818 8485749
94.014732 -73.875427 97.885651 8814713
93.477196 -73.873726 98.83902 10853781
92.862999 -73.872849 99.523849 9077114
92.336884 -73.871635 100.28297 9142651
91.683571 -73.870338 101.14921 5920074
90.950012 -73.869698 101.80703 5920074
90.21167 -73.869087 102.45962 5920074
89.509743 -73.84417 103.28026 6183246
88.963058 -73.632217 104.03215 6051404
88.120377 -73.558563 104.56493 6183246
87.414536 -73.49601 105.00237 8814710
141.21196 -72.522331 44.977505 7892579
140.8548 -72.747818 45.786098 7563872
140.52896 -72.872658 46.615993 10391686
140.23383 -73.128105 47.205601 9931910
89.047043 -72.824844 104.46957 6249042
88.369698 -72.679817 104.86105 6446422
87.438766 -72.75486 105.28873 7301731
86.806297 -72.433823 105.72895 8157042
141.69435 -71.789574 44.305874 9537665
141.48668 -71.792236 44.98888 8879476
141.15793 -71.824432 45.932941 8286826
88.330666 -71.992912 105.15665 7038307
87.695831 -71.670929 105.59847 7038307
86.807091 -71.569588 106.07632 8420214
86.215485 -71.503693 106.39378 8419958
142.09079 -70.726738 44.1782 9537665
141.78043 -70.941612 45.080883 8353391
141.46013 -71.211029 45.729565 8286826
87.69725 -70.806503 105.94564 8486006
87.079086 -70.596359 106.33421 11052183
86.08725 -70.751755 106.75946 10262156
85.452103 -70.438812 107.19775 9933192
142.58235 -69.612839 43.528259 10656145
142.41106 -69.754494 44.401329 9406078
86.975075 -69.987381 106.63042 9999242
86.337662 -69.673508 107.07024 9341057
85.447449 -69.580872 107.54536 10064780
84.89566 -69.341568 107.91299 9933193
143.07315 -68.533478 42.72501 8682867
142.88507 -68.793236 43.497234 9603969
142.75674 -68.89357 44.256554 10063747
86.333549 -68.815308 107.41759 9341059
85.713501 -68.612137 107.80429 8946302
84.744888 -68.672882 108.25624 9933193
84.061287 -68.346123 108.72395 9472899
143.41193 -67.592361 42.762165 8682867
143.19464 -67.923225 43.561699 8419695
85.663643 -67.843315 108.1382 8814716
84.96553 -67.702126 108.53838 9275522
84.0737 -67.617851 109.01093 9012606
83.434021 -67.31662 109.44673 9275777
143.84676 -66.669357 41.950073 8156012
143.69389 -66.818771 42.764351 8879989
85.073502 -66.891212 108.81138 10393744
84.314255 -66.547417 109.3232 9078653
83.381561 -66.645508 109.74258 9275521
82.826462 -66.415672 110.10808 10459537
144.36543 -65.447357 41.346844 8089963
144.19543 -65.680428 42.050133 8879220
143.98526 -65.985855 42.867374 9340284
84.301781 -65.6978 109.67079 10525837
83.579369 -65.755318 110.0033 9802373
82.732788 -65.637833 110.46712 11183003
82.168381 -65.274689 110.89086 7565675
144.65375 -64.73378 41.114746 8353134
144.5274 -64.763893 42.069885 10524041
83.709053 -64.896271 110.28457 9802372
82.987541 -64.582443 110.76583 9999243
82.07196 -64.499588 111.24986 8815227
81.429352 -64.49453 111.5683 9011576
145.22118 -63.393761 40.45713 10524556
144.96689 -63.804363 41.3279 9471868
83.095322 -63.814182 111.02145 7894639
82.386482 -63.577347 111.46553 10065036
81.330536 -63.721725 111.9274 8748406
80.762939 -63.365154 112.3501 8089963
145.623 -62.502544 39.813713 13023917
145.45503 -62.730236 40.521145 11905694
145.31412 -62.83955 41.36216 10393483
82.352226 -63.034077 111.70065 8221548
81.627533 -62.676937 112.20089 7696229
80.661575 -62.594986 112.70934 8354672
80.092064 -62.241699 113.13168 7697000
145.94519 -61.677864 39.631027 9866628
145.77866 -61.827709 40.562504 8880246
81.788818 -61.882828 112.4405 8682866
81.072227 -61.628414 112.89549 10262150
80.149338 -61.489735 113.40555 8749428
146.61832 -60.430691 39.136612 7761509
146.30676 -60.763729 39.856041 9142907
81.126602 -60.768078 113.24033 10722700
80.376022 -60.615543 113.72699 8157292
79.613663 -60.569664 114.13107 7301729
78.872284 -60.417267 114.59674 10130313
148.08536 -59.304985 37.436344 11183254
147.41241 -59.661816 38.16333 10064776
147.07607 -59.863483 38.942692 9208699
79.76107 -59.834217 114.64404 10064264
78.98645 -59.792854 115.05972 10458766
78.266525 -59.53183 115.73489 9340797
77.557968 -59.283985 116.43105 9998984
76.736206 -59.181229 117.1433 9143675
76.151558 -59.166134 117.48054 8682867
156.37811 -58.530449 27.732592 8090477
156.30255 -58.773621 28.495825 8090477
156.07956 -58.963264 29.231649 5920082
154.72546 -58.963413 29.940336 6446934
154.50455 -58.960823 31.055437 9736324
153.19701 -58.961441 31.558275 11445143
153.00319 -58.959316 32.478352 12432037
151.70671 -58.959965 32.964912 12432037
151.54527 -58.95829 33.693768 11445400
151.33902 -58.956215 34.603996 9536891
150.00816 -58.956497 35.248325 7695714
149.5161 -58.996578 36.145386 7103834
148.82578 -59.094757 36.863361 10196102
148.6869 -59.109131 37.58886 10855060
77.622078 -59.017632 117.26205 11380380
77.035759 -59.002174 117.60222 9143675
76.154831 -58.979855 118.10902 8682867
75.606575 -58.902699 118.82317 9471871
75.078827 -58.84663 119.57859 10458510
74.212357 -58.846508 120.11624 9801092
73.598015 -58.844913 121.0714 9472641
72.97467 -58.843346 122.02318 10327949
72.090645 -58.843288 122.54562 9538176
71.351166 -58.843254 122.97621 10459278
71.105072 -58.840221 124.27252 9341054
70.204849 -58.840221 124.78139 10525328
69.300995 -58.840252 125.28374 11709343
69.181557 -58.837223 126.50549 8092011
68.265205 -58.837284 127.00038 8092011
67.345367 -58.837372 127.48865 9209467
67.203857 -58.834351 128.72116 8681843
66.271561 -58.834473 129.20174 9340285
65.575905 -58.816196 129.89395 9077369
65.141518 -58.595207 130.85773 8814709
64.194183 -58.595695 131.32394 9209211
63.562405 -58.597366 131.63434 9209211
156.68414 -57.702435 27.833895 7761769
156.68777 -57.80418 28.56418 6972511
65.037941 -57.923824 131.17824 8551537
64.338295 -57.68045 131.62033 8814453
63.43502 -57.637608 132.08229 9340797
62.811001 -57.320919 132.51669 9209211
156.9994 -56.714985 27.060976 7827822
157.02313 -56.769379 27.843699 6972514
64.295036 -56.948738 131.93541 8682867
63.770462 -56.584732 132.33975 9077625
62.823723 -56.54911 132.82021 9538176
62.18438 -56.228939 133.26347 9011832
157.37384 -55.684978 27.075014 7235685
157.28204 -56.042564 27.758165 7038307
63.797184 -55.731319 132.66916 9537409
63.091908 -55.491348 133.11272 9274749
62.135891 -55.498558 133.58052 9143162
61.428261 -55.261909 134.0239 10261132
157.69066 -54.707649 26.395853 7038307
157.69876 -54.793041 27.099817 7301479
63.01017 -54.638992 133.49515 10261132
62.274193 -54.583851 133.87958 9537664
61.315334 -54.593479 134.34781 10063753
60.702702 -54.418262 134.71983 9735043
158.07602 -53.634922 26.328222 5656904
157.92433 -54.159218 27.020067 7827822
62.482262 -53.912094 134.04675 9735043
61.771915 -53.675247 134.49164 10063753
60.857246 -53.640091 134.95602 9208955
60.22237 -53.329109 135.39343 9208955
158.39992 -52.630398 25.597605 6249042
158.40005 -52.739826 26.3151 4867385
61.68565 -52.823593 134.87595 9208955
60.972137 -52.588444 135.32159 8879989
60.054142 -52.555458 135.78677 9208955
59.416206 -52.245827 136.22519 9735558
158.76109 -51.623383 25.523664 6446421
158.66046 -52.018429 26.291594 4867385
61.093491 -51.764862 135.59247 8945269
60.381626 -51.500378 136.04906 9011062
59.487404 -51.468472 136.50218 10459022
58.8022 -51.282463 136.91418 8484721
159.13364 -50.495171 24.861887 8814201
159.07103 -50.768353 25.519472 8419700
60.398094 -50.647419 136.38336 8813683
59.652412 -50.597958 136.77036 8747892
58.751266 -50.576977 137.22241 8089963
159.43254 -49.655739 24.759699 10129801
159.36906 -49.941883 25.48694 9669508
59.687313 -49.902908 137.03215 8221548
58.918823 -49.696732 137.49326 8353135
58.124165 -49.589844 137.92743 9735301
57.562084 -49.357639 138.29736 9340801
159.77168 -48.6231 24.10573 7235681
159.7597 -48.767097 24.838434 10590351
59.085381 -48.6698 137.82346 9340542
58.31461 -48.610931 138.22659 9801349
57.384205 -48.58424 138.69537 8748919
56.734756 -48.278561 139.13783 8682867
160.10152 -47.703186 24.022532 6512211
160.05832 -47.940445 24.804285 9538433
58.429684 -47.785465 138.5013 9143675
57.706097 -47.52541 138.96198 9340796
56.848423 -47.439342 139.41872 9538175
56.228943 -47.192215 139.82288 8682867
160.47835 -46.631081 23.41958 6380625
160.42868 -46.823368 24.069925 5920074
57.714832 -46.670883 139.30106 10261641
56.958672 -46.626041 139.69113 11314071
56.174793 -46.470459 140.17764 8880246
161.26918 -45.485798 22.609735 8419435
161.00238 -45.888618 23.363199 6906712
57.070648 -46.104588 139.96753 12432294
56.348598 -45.727558 140.6136 8880246
55.659115 -45.492847 141.02063 9143162
162.69325 -44.406708 21.015818 13485245
162.15771 -44.635509 21.779558 10919055
161.72786 -44.895554 22.593805 8222056
55.513672 -44.92466 141.4856 8748148
54.885258 -44.65559 141.78972 9143419
54.268375 -44.250706 142.6431 10458767
53.553391 -44.122246 143.04016 14076861
164.62056 -43.97776 18.855425 10721426
164.52692 -43.975822 19.646814 12432301
163.46092 -44.153103 20.316561 10261132
53.472633 -43.971058 143.52722 14076861
52.872814 -43.864166 143.85706 8881015
52.436993 -43.812584 145.3744 10262156
51.735638 -43.812962 145.6241 8683892
50.857346 -43.813465 145.93201 9800572
50.451675 -43.80962 147.62881 10458246
49.73941 -43.81004 147.8689 10063491
48.847733 -43.810593 148.16472 9340030
48.413158 -43.806736 149.88211 9931904
47.656227 -43.674614 150.25775 10786699
46.869949 -43.551319 150.45702 11904668
47.455772 -43.08548 150.63463 10786958
46.853256 -42.623558 150.83298 10392457
46.9412 -41.62571 151.22775 9471612
46.295345 -41.565907 151.2672 10786958
46.115284 -40.670589 151.62767 9537666
45.417305 -40.295864 151.79359 9735046
46.380943 -39.686764 152.01254 9669507
45.560486 -39.495663 152.10844 9143164
45.616489 -38.593735 152.46582 8946039
44.849869 -38.360149 152.57736 9538176
45.565948 -37.891178 152.74649 8946039
44.949451 -37.493832 152.91948 8879734
44.962463 -36.686977 153.2401 9208443
44.255306 -36.611671 153.28723 10261132
44.913372 -36.072426 153.48575 9734531
44.2402 -35.570423 153.70169 9734531
44.244598 -34.583363 154.09421 8945784
43.598919 -34.47562 154.15274 9208956
43.495358 -33.608337 154.50021 8814195
43.662018 -32.636383 154.88274 9011574
42.962891 -32.451557 154.97325 9011574
43.595268 -31.786766 155.22247 10853004
42.81945 -31.560827 155.33104 10392454
42.909302 -30.757372 155.66092 10459019
42.214405 -30.450296 155.82437 9933190
42.280785 -29.749027 156.32227 9735811
41.708263 -29.340416 156.70276 7565675
41.241932 -29.09164 156.98045 7565675
40.841763 -28.888462 157.51709 8025968
40.084587 -28.797819 157.98755 9735299
38.348633 -28.792816 160.87906 10985367
37.572704 -28.793488 161.06116 11906725
117.50299 -75.216469 72.732628 9735812
115.15209 -75.346123 75.363129 10261641
114.74185 -75.315575 75.885094 8813685
114.12563 -75.271957 76.66655 8089963
113.50834 -75.231186 77.445908 9076858
112.79222 -75.348244 78.155197 8813428
112.07546 -75.467796 78.861702 8089963
111.50874 -75.406494 79.469147 9537150
124.62424 -74.233932 64.838425 10591121
124.21995 -74.226006 65.579849 8090987
123.57535 -74.258904 66.479149 9735043
123.00919 -74.29451 67.227249 9932422
122.34007 -74.405411 68.012131 9340286
121.51777 -74.604561 68.754959 9734789
120.92639 -74.589745 69.528183 9142908
120.26181 -74.589142 70.343674 8419443
119.44731 -74.742912 70.989548 8551026
118.8466 -74.688835 71.797523 8748660
118.24695 -74.63884 72.604507 7564643
117.60068 -74.650948 73.380966 9604227
116.9227 -74.777336 73.977371 9077883
116.23743 -74.777824 74.74968 10590605
115.62273 -74.730782 75.538841 10261641
115.01504 -74.691658 76.331184 8748148
114.40636 -74.655441 77.121712 8484721
113.76979 -74.701111 77.796249 9011065
112.96979 -74.84034 78.547028 9208186
112.3216 -74.836761 79.304489 8221549
111.62334 -74.754402 80.024033 11379609
110.91661 -74.669411 80.734879 10064264
110.21552 -74.591141 81.447136 9998469
109.5135 -74.515327 82.156212 9208954
108.8763 -74.313332 83.050011 9274493
108.21427 -74.288246 83.703293 9406079
107.3399 -74.306999 84.354973 9341057
106.66954 -74.265961 85.080101 7564651
105.99636 -74.226433 85.80162 7563877
105.4333 -74.19455 86.400185 8616048
139.87555 -73.513466 47.835655 9010808
139.58296 -73.707985 48.486881 10392461
139.24237 -73.713219 49.496933 9405822
138.34082 -73.92968 49.926514 9275263
137.77376 -73.933807 50.847656 10130313
137.16379 -73.932678 51.623455 10393229
136.24814 -73.932159 52.340672 12761778
135.59477 -73.930344 53.403004 12828085
134.71587 -73.930588 53.805656 12498862
134.32298 -73.928635 54.775398 10261388
133.69698 -73.927605 55.521843 11511711
132.84103 -73.927505 56.041603 12104104
132.43208 -73.925598 56.997795 10591121
131.68648 -73.925095 57.616886 7959151
130.93796 -73.924599 58.228947 8748923
130.51329 -73.922752 59.171322 7762030
129.64009 -73.922325 59.829819 9209473
128.86169 -73.921265 60.677273 6511954
128.41937 -73.919479 61.60463 9274749
127.57919 -73.940483 61.957085 9143163
126.92452 -73.93277 62.774303 9735812
126.2107 -74.003548 63.558132 9735812
125.73643 -73.9953 64.460442 10130570
125.00992 -74.064606 65.230682 9604226
124.52199 -74.055397 66.123199 8419952
124.19471 -74.04995 66.717018 9143675
108.18975 -74.174911 84.18528 9734788
107.7426 -74.146767 84.67218 8683129
107.0694 -74.105682 85.399895 7827822
106.39346 -74.066055 86.123909 9537408
105.55963 -74.064888 86.822777 9010549
104.83728 -74.071449 87.39753 9931650
104.15431 -74.036232 88.109535 8550513
103.55283 -73.988617 88.804237 8353134
102.97342 -73.891151 89.692001 11642523
102.31173 -73.88269 90.422356 9471615
101.6554 -73.881737 91.157234 9734787
100.99377 -73.880806 91.887329 8748148
100.32685 -73.87989 92.612617 5919050
99.654709 -73.879005 93.333145 5919050
98.977386 -73.878128 94.048698 6511954
98.294922 -73.877274 94.759384 6511954
97.607353 -73.876457 95.465149 10656914
96.914734 -73.875641 96.165924 8748917
96.217049 -73.874847 96.861671 9341054
95.797066 -73.87291 97.842178 9472641
94.979462 -73.872246 98.553017 9077884
94.511887 -73.870834 99.359222 9867142
93.929398 -73.86953 100.18542 9866117
93.202736 -73.868843 100.85954 9866117
92.471252 -73.868179 101.52837 8880245
91.750198 -73.742622 102.49251 9998980
91.037292 -73.565262 103.14882 11380375
90.152206 -73.526321 103.64379 6709334
140.49176 -72.486847 47.166046 10851980
140.13945 -72.743568 47.924679 8353135
139.7966 -72.794495 48.889347 10260875
139.43973 -73.135185 49.566135 9931910
91.219788 -72.728607 103.4397 11709340
90.345001 -72.739716 103.86544 7761767
89.511055 -72.473938 104.38258 6512216
88.7967 -72.172798 104.85509 7038307
141.10179 -71.591904 46.364922 9536635
140.80942 -71.782257 47.020565 8681584
140.46913 -71.782036 48.035824 7168860
140.17589 -71.975685 48.690002 8089963
90.631538 -71.77935 104.11103 8156529
89.748413 -71.57843 104.62621 7564393
88.697784 -71.565933 105.1479 7038307
141.7814 -70.444344 45.644001 7563619
141.4393 -70.776657 46.28624 8418412
141.1087 -70.869904 47.166218 8549998
140.78645 -71.077415 47.891277 7037274
89.870285 -70.690887 104.92336 10392719
89.028061 -70.747711 105.31477 7564393
88.159241 -70.454048 105.86027 7433064
142.4614 -69.300385 44.91777 8813683
142.10257 -69.67849 45.557659 7826790
141.76233 -69.673035 46.578804 10458248
141.40918 -69.926453 47.343761 9536635
89.275635 -69.754234 105.5925 8946044
88.455154 -69.618752 106.0507 8617335
87.434792 -69.546082 106.58189 10262669
142.7507 -68.683739 44.706291 9142903
142.43317 -68.720505 45.662045 8550512
142.14603 -68.779762 46.45105 9208440
88.558487 -68.809532 106.3251 8880247
87.664864 -68.744873 106.79094 9340798
86.793655 -68.461136 107.33376 9341059
143.28235 -67.499474 44.115234 8485488
142.99417 -67.804901 45.007744 9077368
142.63745 -68.017723 45.852467 8353133
87.906128 -67.756065 107.06944 8945784
87.067848 -67.582367 107.55188 8683129
86.218849 -67.550903 107.98254 8090995
143.71965 -66.531845 43.417149 8090987
143.54784 -66.770126 44.120258 8748660
143.43964 -66.719261 44.937599 10064262
87.275742 -66.687241 107.80917 9275265
86.33609 -66.775986 108.23611 9472389
85.468452 -66.446732 108.79553 11183258
144.06729 -65.628174 43.268631 9998214
143.87289 -65.862099 44.17128 8090987
87.168533 -66.090599 108.10163 9341059
86.584343 -65.772118 108.51721 8420983
85.751091 -65.588158 109.0013 9671048
84.939484 -65.573624 109.40673 9868164
144.51991 -64.572701 42.709068 13023917
144.35262 -64.765778 43.510834 10458765
144.15123 -65.055672 44.302711 8090987
85.885773 -64.726982 109.28098 8157811
84.986191 -64.745018 109.7166 9670785
84.241379 -64.603889 110.13997 10196872
145.05069 -63.379688 41.917347 10984852
144.8136 -63.801971 42.60537 10787473
144.69681 -63.851315 43.423149 9011579
85.774849 -64.135002 109.57345 10592151
85.206291 -63.76667 110.00127 11906976
84.352814 -63.647491 110.4693 9605249
83.579117 -63.462326 110.92458 8355187
145.3446 -62.544769 42.000904 9671043
145.17679 -62.771183 42.710457 8419955
85.112839 -62.988319 110.35997 11183510
84.542572 -62.623554 110.78729 11183257
83.715523 -62.555653 111.22169 8616304
82.815842 -62.583637 111.65337 8616563
145.84631 -61.43269 41.195427 10065801
145.62833 -61.808495 41.871098 10723731
145.48224 -61.903332 42.798725 8092011
84.446465 -61.84795 111.14621 11380380
83.823151 -61.694893 111.5145 9142903
82.941055 -61.729195 111.93499 8616563
82.1651 -61.551235 112.3885 7300446
146.57356 -60.31097 40.259544 9011320
146.2079 -60.693527 41.106682 8354674
145.96066 -60.910252 41.985977 11052696
83.698196 -61.067467 111.82812 10261644
83.122314 -60.776596 112.26099 9998472
82.30291 -60.626656 112.76723 7892839
81.547089 -60.468506 113.25111 8288879
80.937744 -60.217129 113.74655 9538686
147.80275 -59.336056 38.881306 10261132
147.46716 -59.456875 39.628288 8222060
146.98877 -59.779667 40.420647 7301219
146.67853 -60.018147 41.238136 9208958
82.415527 -59.989601 113.2083 8616563
81.737831 -59.789352 113.70902 11511450
81.002701 -59.568897 114.304 11643036
80.202934 -59.386066 114.92612 10064263
79.358505 -59.255737 115.60349 9406846
156.36137 -58.623112 29.283953 5919050
156.14726 -58.767956 29.944288 6248271
155.8833 -58.883606 30.749475 9736324
154.39102 -58.95953 31.612371 11906981
154.23599 -58.957817 32.354191 12038309
154.07802 -58.956108 33.09544 10262670
152.76357 -58.956779 33.580868 13156787
152.55797 -58.954685 34.498276 11315100
151.21268 -58.954975 35.149487 5920074
151.04063 -58.953327 35.875904 5920074
150.26318 -58.952461 36.645363 8682353
149.48126 -58.951622 37.408062 9143674
148.91695 -59.035038 38.219296 7958632
148.40254 -59.140083 39.039532 9933702
79.960457 -59.085846 115.88314 9209467
79.089203 -59.012165 116.56145 9932678
78.361465 -58.944366 117.15044 9867397
77.654518 -58.847137 117.92828 9143675
76.799934 -58.846947 118.4846 8946296
76.617027 -58.843826 119.77845 8157043
75.893845 -58.843704 120.23607 8814971
74.876938 -58.843548 120.86932 8814971
74.260857 -58.841934 121.83443 8814971
73.783401 -58.840351 122.70727 9670022
72.894402 -58.84029 123.23545 10130313
72.00164 -58.840244 123.75723 9209211
71.908699 -58.837177 124.98132 10327692
71.003296 -58.83717 125.49594 11775138
70.094299 -58.837189 126.004 8881015
69.826233 -58.834129 127.32335 10129545
69.057846 -58.834175 127.73991 9406078
68.132599 -58.834255 128.23389 9076857
67.912292 -58.645874 129.47327 9801349
67.03511 -58.602303 129.92261 9867142
66.157501 -58.561035 130.37122 8288366
156.66606 -57.833271 29.144617 5919051
156.53278 -57.900295 30.045801 6445394
67.75724 -58.05764 129.78566 10262156
67.13858 -57.732494 130.22079 9406591
66.23687 -57.68219 130.68494 8617331
65.412727 -57.558113 131.1405 8485745
157.11838 -56.628971 28.640436 8090219
157.04239 -56.740704 29.277735 6971739
66.606476 -56.707027 130.89439 8617330
65.711243 -56.619072 131.37045 8617330
64.845123 -56.477577 131.85367 9011832
157.41748 -55.769745 28.414019 6182481
157.42194 -55.735313 29.215914 7169373
65.857941 -55.704311 131.66542 8814710
64.973351 -55.667446 132.11572 9603714
64.240509 -55.607845 132.50047 9537409
157.80579 -54.602596 27.782602 7696233
157.76486 -54.824306 28.587069 7300959
65.697159 -55.118546 131.97969 9538433
65.070984 -54.798626 132.41643 9537665
64.16143 -54.754986 132.88171 8616307
63.454609 -54.514439 133.32631 9274237
158.1059 -53.760662 27.686853 9143678
158.11133 -53.858631 28.423452 9275261
64.605118 -53.702423 133.08577 8945272
63.692753 -53.660358 133.55183 8945528
62.857819 -53.543797 134.00972 9735043
158.41949 -52.77668 26.906046 4867385
158.44508 -52.827084 27.695486 9735043
64.446579 -52.925877 133.47549 10261132
63.814976 -52.608799 133.91379 9274493
62.89949 -52.568974 134.38052 9274492
62.061451 -52.454433 134.8391 9406078
158.79745 -51.751965 27.017519 8682611
158.73218 -52.043171 27.74402 11379356
63.290245 -51.688927 134.54137 9011321
62.299099 -51.686562 135.0303 9603201
61.483189 -51.303459 135.5858 8813683
