# .PCD v0.7 - Point Cloud Data file format
VERSION 0.7
FIELDS x y z rgb
SIZE 4 4 4 4
TYPE F F F U
COUNT 1 1 1 1
WIDTH 1230
HEIGHT 1
VIEWPOINT 0 0 0 1 0 0 0
POINTS 1230
DATA ascii
78.915672 -43.750252 138.15546 8814453
78.082123 -43.749832 138.62708 10130057
77.417007 -43.633373 139.40271 9866885
76.495407 -43.499939 140.01804 7235166
75.790268 -43.344986 140.56558 7169373
74.863159 -43.293991 141.14291 7695717
74.001114 -43.28751 141.5697 8155756
73.139023 -43.282539 141.99596 7563619
72.20636 -43.182213 142.49529 7563619
152.15828 -42.258949 85.989273 10392717
151.58012 -42.53606 86.789474 9669506
151.04956 -42.618271 87.647858 7762281
150.60826 -42.953743 88.169144 7038307
75.927139 -42.626675 140.8876 9801604
74.993736 -42.521446 141.38924 9209468
74.130142 -42.515099 141.8168 8551281
73.266548 -42.510223 142.24373 8287597
72.230118 -42.506153 142.75539 8550513
71.366325 -42.504284 143.18124 8353646
70.604019 -42.407349 143.59538 10919830
152.81789 -41.280647 85.553726 10457996
152.33087 -41.487713 86.246841 10786962
151.81783 -41.555035 87.085617 10853012
74.745827 -41.938938 141.74542 8090987
74.190849 -41.806057 142.07201 8682867
73.374802 -41.591923 142.55966 9538176
72.560532 -41.540298 142.98114 10392717
71.694839 -41.538269 143.40799 8945783
70.655754 -41.53759 143.91959 10459022
69.789612 -41.538486 144.34549 10590864
69.028427 -41.308556 144.81252 9735556
68.115517 -41.157669 145.32239 8814971
153.50504 -40.442734 84.969376 10457996
153.12254 -40.650127 85.481461 8681843
152.59581 -40.645947 86.395462 10655632
152.10811 -40.854034 87.089012 10854036
72.513336 -40.765961 143.31575 10853012
71.775055 -40.609455 143.74193 8748404
70.872704 -40.60891 144.18622 9472127
70.051636 -40.532185 144.62111 9538176
69.072998 -40.573372 145.08617 9209468
68.204308 -40.576942 145.51222 9078399
67.410591 -40.542744 145.91656 7564651
66.668549 -40.393127 146.34187 9012350
154.32776 -39.182579 84.455048 11379356
153.8774 -39.600723 84.932404 11247255
153.34979 -39.59549 85.848694 9997958
152.79472 -40.013916 86.507019 10656398
71.07547 -39.98912 144.33562 8485232
70.236816 -39.795975 144.826 9867141
69.223076 -39.604603 145.40181 9012091
68.352493 -39.608097 145.82884 8157043
67.481499 -39.612984 146.25548 7827822
66.610138 -39.61908 146.68187 7301734
65.804237 -39.515339 147.12013 8617592
64.820511 -39.345318 147.67264 11183515
154.71135 -38.509026 84.277191 9932678
154.16158 -38.502407 85.232712 9735554
153.722 -38.752296 85.812889 9209467
68.573158 -38.734703 146.07135 8090991
67.590584 -38.559818 146.62524 8551284
66.78363 -38.45446 147.06476 10196108
65.909424 -38.461765 147.49199 9867143
65.034676 -38.470299 147.91902 10196107
64.159286 -38.480175 148.34584 10327692
63.210922 -38.259396 148.90132 9406335
62.460709 -38.114639 149.32874 9932166
155.31364 -37.6395 83.862274 9406846
154.90306 -37.704708 84.525368 9472895
154.49251 -37.77063 85.187958 9342077
66.724319 -37.678299 147.4059 9142907
65.976471 -37.529091 147.83394 8682356
65.175743 -37.497898 148.24052 9011577
64.2985 -37.507545 148.66843 9472383
63.42057 -37.518402 149.09605 9011576
62.541935 -37.53056 149.52357 9932166
61.562225 -37.506657 150.0153 8681843
60.80859 -37.363617 150.44363 10129289
156.15562 -36.446198 83.266426 9932678
155.68983 -36.712872 83.8797 9538689
155.15918 -36.786808 84.744202 9868421
65.260452 -36.913761 148.4337 8550769
64.409966 -36.728344 148.92679 8682355
63.558098 -36.543911 149.42015 10327692
62.677536 -36.555798 149.84871 10458766
61.796272 -36.568829 150.27715 8879222
60.914131 -36.583153 150.70555 9997703
59.980827 -36.534679 151.18433 9010808
59.198402 -36.224628 151.69403 9011576
156.92012 -35.392159 82.70491 9538176
156.47694 -35.640862 83.291389 9538433
156.00151 -35.590923 84.149445 9735812
62.711452 -35.678482 150.18474 10853524
61.930222 -35.592278 150.60387 9603201
61.0462 -35.606247 151.03331 10853012
60.187389 -35.42564 151.52858 9405566
59.301098 -35.441975 151.95815 9011576
58.413876 -35.459408 152.38774 9998983
57.550453 -35.282177 152.88391 9143933
56.6852 -35.105774 153.38065 8092019
157.74586 -34.266239 82.090286 8418928
157.25572 -34.596165 82.699234 9471872
156.69856 -34.747234 83.55304 9538177
156.31104 -34.954998 84.072777 9735812
61.833775 -35.008171 150.88618 9932166
61.075821 -34.863804 151.31723 9866632
60.249947 -34.512714 151.86478 9011067
59.429688 -34.462284 152.28876 9472385
58.540562 -34.479267 152.7195 9867399
57.650314 -34.497509 153.15024 8354419
56.759014 -34.516853 153.58109 9144703
56.092262 -34.453899 153.86301 9012093
158.56435 -33.281353 81.386444 9010808
158.0685 -33.486233 82.095711 9208444
157.5345 -33.476547 83.025452 8616307
157.00951 -34.110516 83.475304 9011320
59.506996 -33.873516 152.48741 10261902
58.743893 -33.731094 152.92021 9998731
57.813797 -33.563259 153.44539 7959407
56.965893 -33.475967 153.89777 9868166
56.00016 -33.48098 154.23647 9209980
55.176548 -33.092278 154.42744 8089963
158.82771 -32.598969 81.423981 9931910
158.28667 -32.674355 82.304459 10260875
157.84673 -32.83828 82.946472 9142651
57.08268 -32.645828 154.17409 9341822
56.150414 -32.591625 154.56444 9736324
55.272469 -32.410553 154.6965 9537921
160.11305 -31.161173 80.24028 9406078
159.62718 -31.438133 80.88018 9997959
159.07222 -31.624302 81.704773 9932167
158.61848 -31.777174 82.378563 10260875
56.169453 -31.969221 154.85066 9341822
55.337151 -31.578196 155.02626 9669763
54.414005 -31.400105 155.11925 9801349
160.38499 -30.4154 80.375381 10129541
159.85139 -30.553284 81.169647 10918805
159.39297 -30.714081 81.807388 10260875
55.247215 -30.604471 155.41603 9537921
54.290855 -30.48909 155.48792 9472384
53.496784 -30.254364 155.61877 8682867
162.85973 -29.159693 78.452148 9735299
162.21378 -29.241619 79.346725 9866885
161.34444 -29.671839 79.789482 9735297
160.77605 -29.803686 80.570511 9998211
160.27846 -29.896469 81.288666 11379356
54.625469 -29.937916 155.845 8814203
53.633732 -29.566568 156.17226 8748148
52.81897 -29.242952 156.50534 9603201
51.988403 -29.095913 156.73921 9472127
174.92918 -28.487082 69.945984 11182489
174.6387 -28.493029 70.806686 8748666
173.56955 -28.83497 71.103287 11116696
173.22438 -28.832968 71.937271 11183004
168.74422 -28.830269 74.639374 8946041
168.38235 -28.8284 75.450279 10788244
164.56552 -28.870371 77.331924 7761772
164.04323 -28.859087 78.294533 7695720
52.069763 -28.822811 157.62332 9867139
51.263222 -28.797224 157.72795 9603709
50.457508 -28.772169 157.83125 8682867
47.062576 -28.720442 161.16394 13223610
46.285355 -28.720657 161.38803 9604228
45.312256 -28.72094 161.66261 9208700
41.298885 -28.52644 165.06914 8683128
40.682945 -28.395889 164.85327 9537923
175.23383 -27.583399 70.066284 9208701
174.89 -27.889631 70.744171 8682616
41.215969 -27.839809 165.30359 9537923
40.536285 -27.569044 165.11531 8551799
175.85684 -26.522505 69.415009 10589839
175.53911 -26.678026 70.186653 8353395
40.481255 -26.614407 165.46748 8222834
39.986019 -26.092901 165.45795 9143934
176.50821 -25.308918 68.852921 11707548
176.16864 -25.584955 69.552719 11773342
40.496319 -25.732134 165.82146 11380380
39.816586 -25.466351 165.63118 9670277
176.79803 -24.580624 68.817589 10129288
176.5202 -24.629498 69.591492 10984340
39.759663 -24.509314 165.98344 10722962
177.34012 -23.636234 68.274368 7893096
177.0468 -23.715181 69.060028 7498601
39.518356 -23.807308 166.15523 9539200
39.093201 -23.363266 166.14561 9604737
177.94414 -22.568216 67.686829 8681843
177.64769 -22.798727 68.309479 10194567
177.42842 -22.800867 68.961319 9931395
39.040401 -22.499731 166.46281 10656913
178.34402 -21.560131 67.640503 8879222
178.01855 -21.745544 68.400871 11181204
38.757336 -21.575649 166.7039 11117209
38.133202 -21.241808 166.56456 9209467
178.93616 -20.502792 67.076263 7037274
178.65689 -20.550295 67.855637 10128772
38.311691 -20.392967 166.97633 9341053
179.29343 -19.535923 67.110016 8484205
178.95033 -19.813709 67.818024 9207670
38.061691 -19.593708 167.18265 9209467
37.382965 -19.342134 166.98724 8814715
179.85524 -18.658245 66.431839 10392458
179.5753 -18.705267 67.213875 8484205
37.908531 -18.75914 167.4449 11380380
37.355549 -18.414181 167.34082 10722451
180.16963 -17.733088 66.546204 10064263
179.79694 -17.965424 67.394089 8484205
37.192318 -17.434353 167.65587 9538433
180.70564 -16.805271 66.002121 9406847
180.40947 -16.882959 66.797638 9011832
37.173378 -16.647001 167.95778 9143675
36.707397 -16.620287 167.76607 11380380
181.96992 -15.192603 64.729431 9733499
181.58594 -15.418585 65.332474 10786187
181.13869 -15.800942 65.993896 10458764
180.72173 -16.108225 66.74704 10854036
36.42968 -15.574493 168.11571 10261387
182.59958 -14.400875 64.952393 9996671
182.04662 -14.735678 65.497208 9733499
36.491276 -14.768324 168.73186 9537409
35.701488 -14.488062 168.61479 9076858
34.706413 -13.928178 169.34935 10063751
30.054493 -13.70576 173.00287 9734531
29.011662 -13.706392 173.18004 10261132
28.334923 -13.456074 173.85506 9406078
27.618279 -13.302522 173.85197 9932166
28.136047 -12.469254 174.40451 9143162
27.56636 -12.340983 174.2079 9997959
27.37883 -11.329221 174.52472 9077369
27.339142 -10.512695 174.82883 9406078
26.877945 -10.498133 174.63452 10524556
27.381081 -9.8687897 175.10075 8682867
26.702393 -9.6337337 174.89897 12103329
26.453964 -8.6936817 175.162 10590605
26.105392 -8.1098728 175.24098 9209467
26.593849 -7.6885896 175.61922 10261641
25.915009 -7.4571643 175.41585 10261641
25.832344 -6.5454741 175.73967 10195851
25.63166 -5.7885327 175.95116 9538694
25.123894 -5.2730188 175.93419 9538694
25.039589 -4.3562369 176.25922 11248285
24.837646 -3.5958014 176.47156 9538694
24.316643 -3.2995677 176.36232 8946555
24.353981 -2.6421328 176.63786 7959401
24.05011 -1.6040238 176.91556 9077882
23.431549 -0.39307746 177.21594 9143419
23.175667 0.2269845 177.59143 9998472
22.762222 0.67047262 177.76485 9931910
21.767281 1.1188036 178.53137 9602945
16.234322 1.5967447 182.39702 11380380
15.90036 2.4402909 182.56798 10064780
15.832581 3.4185014 182.89453 8617337
15.305779 3.7176456 182.79126 8091248
15.271317 4.6036654 183.09779 8486515
14.975281 5.4732933 183.29343 12959155
15.225929 6.1699467 183.646 12432037
14.542206 6.3883643 183.45053 10788498
14.345009 7.5419979 183.78853 5657421
14.370827 8.4726925 184.13547 5788492
13.686668 8.6888561 183.93906 4670781
13.574738 9.6658487 184.24742 6314579
13.350388 10.471405 184.44968 5788492
13.051689 10.775436 184.44518 7366751
13.525452 11.260794 184.82007 5788492
12.840851 11.475413 184.63437 6708309
12.542473 12.363132 184.86205 6511186
12.660416 13.363696 185.2973 6511954
12.048065 13.420626 185.07872 7235421
11.859047 14.337812 185.40527 7433313
11.109047 14.999606 185.63133 6117970
11.802658 15.029987 185.94778 7564643
11.070953 15.672256 186.26707 6315348
10.24382 15.975493 186.24802 6381139
10.275642 16.494328 186.8401 7104349
9.4576187 16.820871 187.05273 6381393
8.7044373 16.972542 187.05759 6644309
8.9503174 17.481947 187.48441 7696485
8.0666733 17.998184 188.01793 8354159
7.1843419 18.533869 188.71384 7564642
122.64702 -44.089474 108.01984 11314332
118.39275 -44.216389 111.03724 7366751
117.67716 -44.198517 111.70442 7367005
116.94412 -44.175709 112.35372 9274487
116.15686 -44.133736 112.94886 10260867
115.52078 -44.098667 113.41698 10260611
150.07355 -43.510635 88.666946 7103841
149.57368 -43.554707 89.264053 9340285
148.96921 -43.476398 90.024689 10195594
148.29918 -43.523304 90.792923 9209467
147.76469 -43.663651 91.348007 9209467
146.16399 -43.807541 91.576767 10656657
145.72073 -43.806065 92.278557 10656657
145.27415 -43.804596 92.978226 9341054
142.55087 -43.804924 93.914886 9734788
142.21024 -43.803856 94.428391 8617075
141.6384 -43.802097 95.281296 9537920
141.17766 -43.800701 95.961502 11905692
138.11922 -43.800209 97.321129 9602945
137.53041 -43.798531 98.149673 7564647
137.05562 -43.797207 98.809784 9537408
134.00458 -43.796951 100.08057 13024949
133.39893 -43.795364 100.88404 12168866
132.78874 -43.793797 101.68408 11708313
132.42032 -43.792862 102.16235 9208435
130.32442 -43.863914 102.55936 10591121
129.90027 -43.845531 102.98691 11248795
129.19238 -43.815598 103.6973 12432037
128.49771 -43.791355 104.41695 12432037
127.86432 -43.789345 105.18582 8814710
126.77231 -43.908226 105.4854 10130057
125.91312 -43.947102 105.88628 11380124
125.20283 -43.921398 106.5812 10261903
124.49129 -43.896564 107.27371 7827822
123.77832 -43.872677 107.96369 10064522
122.7814 -43.903961 108.66452 11709090
121.93166 -44.003944 108.96294 10656657
121.07924 -44.041485 109.51817 7827819
120.36435 -44.021103 110.19533 8025197
119.64818 -44.001568 110.87012 7366751
118.93046 -43.982971 111.54243 7695716
118.21143 -43.965122 112.21254 7367005
117.77933 -43.954922 112.61343 8813936
115.0435 -44.072758 113.76685 11904924
114.56615 -44.047199 114.11556 13549749
113.77003 -44.005386 114.69424 9274745
112.97368 -43.964352 115.27004 10985105
112.17657 -43.924397 115.84265 9144699
111.37922 -43.885239 116.41246 8092011
110.58118 -43.84705 116.97917 8092016
109.62285 -43.802402 117.65535 10459536
108.84212 -43.773491 118.23579 9537918
108.12759 -43.772446 118.8875 9208435
107.40961 -43.77142 119.53522 11642008
106.68736 -43.770397 120.17831 8880245
105.81575 -43.769203 120.94447 8484976
105.23177 -43.768421 121.45198 9341057
97.696655 -43.764942 125.61554 7038307
97.241806 -43.764458 125.96684 10524816
96.481079 -43.763653 126.54865 8089963
95.56382 -43.762711 127.24091 8682612
94.795746 -43.761944 127.81282 9209467
94.023972 -43.7612 128.37985 9407102
93.248993 -43.760464 128.94263 10261132
92.470436 -43.75975 129.50027 9866631
91.531853 -43.758915 130.16356 7564651
90.746185 -43.758232 130.71133 9012603
89.957077 -43.757572 131.25389 9736068
89.164803 -43.756927 131.79213 9735812
88.369324 -43.756302 132.32513 9143675
87.410522 -43.755566 132.95874 9011831
86.608147 -43.754974 133.48152 9537918
86.125183 -43.754627 133.79295 9866630
83.630386 -43.634842 136.69046 5655878
82.975067 -43.42424 137.09775 7300959
82.11071 -43.404408 137.53139 9537408
81.246872 -43.385963 137.96425 10129545
80.383339 -43.368988 138.39616 9143162
79.347549 -43.350483 138.91336 8880246
78.484734 -43.336555 139.34354 8682867
77.656067 -43.130989 139.83406 9143418
150.97575 -42.113781 88.139168 7827305
150.46408 -42.532536 88.710175 7366239
149.83745 -42.71669 89.420059 8287341
149.20569 -42.722755 90.166275 9997959
148.562 -42.856968 90.854584 9209467
82.045242 -42.819916 137.79828 9997959
81.388725 -42.611893 138.20512 9340285
80.523682 -42.595219 138.63776 8880502
79.48616 -42.577034 139.15598 8288365
78.621803 -42.563343 139.58699 8682867
77.757736 -42.551151 140.01711 9143162
76.893829 -42.540291 140.44659 8946039
76.236008 -42.339371 140.85109 9209467
151.76543 -41.273994 87.378983 9538435
151.27812 -41.483246 88.070816 8090991
150.74754 -41.482082 88.9804 7826790
150.07855 -41.805099 89.643967 7629411
80.455818 -42.011238 138.90565 9209467
79.797905 -41.805614 139.31218 9209467
78.914436 -41.64613 139.81122 9669250
77.927216 -41.583874 140.32239 9143162
77.061432 -41.573254 140.75287 9340797
76.195801 -41.56406 141.18262 10985622
75.256042 -41.555584 141.6485 12564398
74.513298 -41.259579 142.13303 9669762
73.836472 -41.158691 142.50662 9932934
151.99628 -40.537308 87.510681 10196107
151.48579 -40.683491 88.288109 7762028
151.11894 -40.641109 88.953217 7629928
77.992966 -40.711205 140.64034 9406334
77.22905 -40.605019 141.05916 10985110
76.361557 -40.596104 141.48991 10854036
75.494148 -40.588387 141.92012 12367019
74.626755 -40.582111 142.34956 10196106
73.585815 -40.576263 142.86418 9275004
72.786644 -40.508492 143.2847 10853012
72.229141 -40.377846 143.61159 10853012
152.79567 -39.450485 86.911652 9735811
152.25058 -39.641502 87.716614 9998985
151.71222 -39.868813 88.483833 8288371
76.390694 -39.916901 141.74823 9801604
75.610191 -39.696552 142.22105 9867397
74.788849 -39.613098 142.65901 10459534
73.78125 -39.656101 143.13783 9603969
72.960014 -39.548962 143.58514 10590096
72.006851 -39.602139 144.03285 9932422
71.16806 -39.407593 144.52386 10195594
70.328262 -39.214348 145.01483 11051415
153.56406 -38.468555 86.290535 10130311
153.04791 -38.535606 87.13488 9406846
152.62436 -38.533554 87.868942 8880507
74.570343 -38.8349 143.07899 10459534
74.011147 -38.702484 143.40756 10459534
73.188896 -38.488808 143.89824 10195594
72.194405 -38.437958 144.40836 9800837
71.322525 -38.437283 144.83786 11313816
70.450348 -38.43795 145.26689 11971487
69.577927 -38.439777 145.6955 9537406
68.810692 -38.209648 146.16557 8682867
67.890762 -38.058922 146.67885 8682867
154.25462 -37.626606 85.703102 9999494
153.79352 -37.650894 86.483124 11774621
153.28047 -37.795849 87.266029 9932932
72.319458 -37.660721 144.65881 9735043
71.575623 -37.504551 145.08778 11248023
70.602989 -37.46627 145.58211 10195335
69.728745 -37.46809 146.01184 7563619
68.854118 -37.471252 146.44109 8682867
67.97908 -37.475586 146.86996 9538175
67.179413 -37.441792 147.27708 8485233
66.431618 -37.291985 147.70528 9142907
155.08141 -36.360363 85.186234 10460302
154.5761 -36.577843 85.903214 9736835
154.03334 -36.755356 86.714027 11314327
70.694687 -36.882538 145.77132 10195335
69.96064 -36.650417 146.22592 7563619
69.003204 -36.49791 146.75868 13419188
68.126343 -36.502136 147.18874 9538175
67.248993 -36.507645 147.61836 8945784
66.28775 -36.570629 148.06613 8484977
65.521103 -36.327335 148.54121 9077113
64.493683 -36.143356 149.12082 8089963
155.68257 -35.586617 84.704269 9736835
155.36351 -35.582764 85.258835 10263179
154.86073 -35.620228 86.101486 9605249
68.771255 -35.719707 147.18535 14076861
68.205231 -35.59256 147.51506 8156525
67.394531 -35.532589 147.93835 8287597
66.51487 -35.539116 148.36888 9142907
65.634644 -35.546886 148.79913 9142907
64.753746 -35.55574 149.22906 8089963
63.872154 -35.565861 149.65881 9274749
63.017242 -35.381733 150.15361 9932166
156.1368 -34.696369 84.560669 9604226
155.5826 -34.689663 85.523773 9933958
155.24608 -34.942089 85.923828 9210491
67.305786 -34.947906 148.21677 6708566
66.561523 -34.82328 148.63332 10854036
65.725342 -34.618992 149.12712 7959151
64.89389 -34.578373 149.5528 7564651
64.010521 -34.588272 149.98372 8616823
63.126434 -34.599243 150.41447 9076601
62.29245 -34.561844 150.83989 10063496
61.450249 -34.362663 151.33443 8551288
60.69907 -34.244381 151.75165 8419703
156.92268 -33.627434 83.973877 9011320
156.39827 -33.673664 84.846664 9077370
155.91631 -33.953003 85.478012 9538434
65.006111 -33.795292 149.81195 7564651
64.148926 -33.608982 150.30882 8616823
63.290359 -33.423492 150.80612 9866117
62.403229 -33.435341 151.23816 9800324
61.515339 -33.448257 151.67003 8419703
60.626411 -33.462334 152.10181 9077374
59.782562 -33.398327 152.54288 10064267
58.973137 -33.197372 153.02199 9406851
157.67223 -32.57782 83.43605 8484721
157.16618 -32.613029 84.285072 9801093
156.75099 -32.67889 84.954979 9208958
63.877392 -33.024551 150.6772 10129289
62.511147 -32.64986 151.50038 9602945
61.760567 -32.424904 151.96031 10063753
60.757679 -32.479549 152.43224 9997961
59.866058 -32.494297 152.86519 9209216
58.973324 -32.510277 153.29817 10591122
58.079578 -32.527237 153.73114 9077883
57.388622 -32.344524 154.14459 8881015
158.48306 -31.415924 82.87323 8616307
157.96306 -31.612312 83.630157 9339773
157.45224 -31.829966 84.355827 10195596
61.550076 -31.877974 152.28354 10261132
60.973 -31.755663 152.61679 9735046
60.123142 -31.556143 153.1154 10195852
59.196117 -31.579119 153.56265 10722451
58.346222 -31.489218 154.01717 10327949
57.347401 -31.607199 154.46135 8881015
56.545914 -31.442577 154.91859 9012857
55.865452 -31.163733 155.17859 9537921
159.31413 -30.394249 82.251389 9142651
158.77858 -30.533438 83.042618 9340030
158.30826 -30.554165 83.834259 10261132
59.203346 -30.734604 153.89809 10854036
58.434166 -30.590614 154.33473 10524816
57.612747 -30.566618 154.74886 10064011
56.713139 -30.584637 155.18451 10919062
55.819321 -30.503281 155.44261 8222322
161.81439 -29.139795 80.361282 9472381
161.15919 -29.221931 81.24791 10129796
160.39027 -29.495258 81.83078 9471871
159.70226 -29.721556 82.548416 8089964
159.20601 -29.877384 83.16777 9143166
57.544617 -29.994932 155.13811 10064011
56.821793 -30.008383 155.48296 7564651
55.916618 -29.814131 155.91191 7564651
55.022095 -29.478098 156.20299 8419702
54.20871 -29.173828 156.46661 9405566
174.20242 -28.503094 72.098465 7564651
172.96291 -28.831507 72.561882 9341059
172.6104 -28.829575 73.392624 10261384
168.19987 -28.827467 75.855003 10788244
167.83157 -28.825613 76.662994 10459278
163.51936 -28.848387 79.255814 9735558
162.99385 -28.838394 80.215332 9143677
54.091312 -28.888779 157.35469 10129289
53.281944 -28.862017 157.46321 10129289
52.473545 -28.83572 157.57042 10129289
50.160427 -28.719702 160.23032 8419696
49.387672 -28.71987 160.46931 7959401
48.420002 -28.720097 160.76262 9275262
47.644802 -28.720287 160.99359 14605262
43.815807 -28.714087 164.6996 14604230
42.785759 -28.568998 165.14468 10985876
41.922588 -28.444672 165.30684 7762539
174.8584 -27.411146 71.38414 7498601
174.47978 -27.74901 72.12986 7827823
42.041805 -27.561556 165.69984 8091502
41.282066 -27.234838 165.57057 7039331
175.54633 -26.227266 70.679047 8287859
175.17842 -26.45974 71.513054 8682616
41.841957 -26.470919 166.11446 9472895
41.220863 -26.344217 165.89482 9012088
175.77577 -25.546144 70.770142 8879995
175.48366 -25.551462 71.63591 7038307
41.086433 -25.540737 166.15291 9801860
176.35106 -24.556423 70.179283 10326667
176.0374 -24.682219 70.972412 7893358
40.910969 -24.814611 166.36273 10262411
40.498184 -24.232149 166.4131 10854292
176.90465 -23.48971 69.740921 13022893
176.6368 -23.765907 70.225967 8222065
176.38882 -23.724171 71.013565 7038307
40.362251 -23.427309 166.67105 11183257
177.20903 -22.803314 69.613403 11970720
176.91618 -22.807005 70.483139 10524046
40.114086 -22.626122 166.87895 10065288
177.89067 -21.540916 69.015381 10194567
177.59543 -21.658167 69.763069 10654860
177.2981 -21.890081 70.386536 11642012
39.655296 -21.502697 167.12233 9604483
178.57445 -20.275501 68.41452 11181204
178.24803 -20.461529 69.176842 9931395
177.90529 -20.73988 69.883118 9931651
39.384838 -20.510889 167.39558 9537664
178.88316 -19.507366 68.366898 9931136
178.58786 -19.586113 69.158768 10654859
39.233101 -19.674017 167.65932 8682867
38.911823 -19.341736 167.6508 9406078
179.493 -18.428692 67.774109 8484205
179.12062 -18.661301 68.620834 10655116
38.592819 -18.514053 167.83839 10129545
37.968815 -18.143476 167.71353 10261899
179.76762 -17.618511 67.876389 8023911
179.45682 -17.812639 68.583054 10458251
38.498726 -17.554764 168.17537 9143675
38.029247 -17.526258 167.98289 9670019
180.41646 -16.573492 67.129028 7564643
180.04286 -16.806541 67.978775 7958376
38.560158 -16.935194 168.44604 8090987
37.800873 -16.415989 168.32103 9932934
181.30397 -15.191791 66.712852 10262156
180.75586 -15.647967 67.395248 7695716
180.3707 -15.87728 68.100777 8617075
37.608826 -15.497629 168.6451 9077627
37.113163 -15.202673 168.65324 8090987
182.16934 -14.437545 66.119209 9536379
181.77776 -14.586591 66.803551 9340286
181.38826 -14.736038 67.487694 7563874
36.995491 -14.590402 169.092 8287599
184.09953 -13.740085 65.153816 9471611
183.63852 -13.885858 65.82074 9733499
36.071117 -13.980404 169.76199 8287084
35.38731 -13.954217 169.55553 9537409
32.136932 -13.704553 172.62993 8815222
31.096325 -13.705147 172.81973 8815222
29.468536 -13.378371 174.62476 9209467
29.003906 -13.359212 174.43077 9209467
28.926476 -12.560813 174.71138 8880503
28.822342 -11.493646 175.08617 9340541
28.207909 -11.400533 174.85626 9735043
28.716156 -10.772228 175.32402 10129545
28.033607 -10.534678 175.12148 9208955
28.0532 -9.5429916 175.52103 9998471
27.42308 -9.2229319 175.37381 8946039
27.930138 -8.5873203 175.84456 12433069
27.247414 -8.3535261 175.64055 9406589
27.166916 -7.4408655 175.96559 10064520
27.126556 -6.6131854 176.27464 9932678
26.662048 -6.6043892 176.07651 10854036
26.402763 -5.4476576 176.42032 8748662
26.174355 -4.4861207 176.70049 8552313
25.882423 -4.1907649 176.69035 9538694
26.374199 -3.7567606 177.07501 8092019
25.690353 -3.5304775 176.86745 9538694
25.415504 -2.6927233 177.07863 8486518
25.563187 -1.7663743 177.50816 10656398
24.930908 -1.4549687 177.35658 9538433
24.624786 -0.48062718 177.6687 9012089
23.99189 0.49721754 178.15862 7103323
22.92482 1.1255162 179.04413 9010808
17.386787 1.6041862 182.86238 9866630
17.253471 2.2124071 183.02875 9406080
16.732269 2.741396 183.01086 9143680
16.625641 3.7029123 183.31577 8157044
16.330345 4.5729623 183.51186 8486519
16.584259 5.2689238 183.86543 8618361
15.897423 5.4887104 183.6692 8748665
15.789101 6.458457 183.97644 8419700
15.56691 7.2588634 184.17674 7630186
15.267662 7.5622454 184.16628 7038307
15.745094 8.0391779 184.53041 8814201
14.966927 8.5542431 184.40424 7301221
14.710052 9.5722504 184.66927 7235167
14.410263 9.8762999 184.65889 8681843
14.886971 10.359834 185.02513 9208187
14.198639 10.574763 184.82649 8484721
14.088554 11.562168 185.15865 9932166
14.021996 12.460827 185.48177 10130057
13.406837 12.518837 185.26245 7959656
13.353996 13.388883 185.57985 9407358
13.304764 14.266826 185.95459 10328716
12.689674 14.323471 185.74263 8683379
12.431999 15.226205 186.39201 6709591
11.832581 15.535771 186.43166 6841178
11.635788 16.041519 186.90215 7170142
11.205383 16.539707 187.27847 7170142
10.552422 17.048914 187.76614 6644309
9.9505157 17.364954 187.83531 7104604
9.0020828 18.059443 188.59111 6973018
7.8870854 18.584896 189.18629 7564642
147.6729 -43.375435 91.61837 9209467
147.02641 -43.412117 92.364334 9604225
146.35757 -43.378124 93.176544 9407363
145.59776 -43.458858 93.845398 9999239
144.4843 -43.802044 94.197296 9867653
143.9142 -43.800243 95.064232 9734788
143.5696 -43.799168 95.582726 8617075
140.94588 -43.800003 96.300644 11905692
140.47977 -43.798622 96.977043 9471872
139.77478 -43.796562 97.987793 10195851
136.6976 -43.796215 99.303482 8287341
136.33749 -43.795231 99.795776 9537408
135.73352 -43.793602 100.61328 8617331
135.12489 -43.791988 101.42735 9735555
132.04997 -43.791931 102.63913 9274744
131.42894 -43.790394 103.43088 8354421
130.80353 -43.788868 104.21899 8157043
130.29961 -43.787663 104.84673 7565163
127.10061 -43.787609 106.10539 10853780
126.58743 -43.786461 106.71512 10656402
125.81253 -43.78476 107.62526 8617337
125.16193 -43.783356 108.37955 9274750
124.76939 -43.782524 108.83029 9932163
122.06197 -43.818878 109.60948 7893614
121.48801 -43.802078 110.15482 7301478
120.77365 -43.783394 110.83845 8814713
120.09753 -43.779968 111.55649 6774358
119.42334 -43.778683 112.27637 6510930
118.7446 -43.777424 112.99185 7827300
117.33292 -43.939922 112.99997 9537402
116.53564 -43.896107 113.59109 10260611
115.73629 -43.85252 114.17768 12694184
114.93636 -43.809933 114.76096 12891820
114.15642 -43.77602 115.36214 8089963
113.45847 -43.774616 116.0452 11050643
112.75745 -43.773476 116.72498 9144699
112.05199 -43.772354 117.40033 8618355
111.20034 -43.771027 118.2053 8223603
110.48631 -43.769943 118.8715 9867657
110.05598 -43.769299 119.2691 9867657
104.93884 -43.768032 121.70456 9341057
104.35091 -43.767265 122.20734 9604228
103.61293 -43.766319 122.8322 8420470
102.87101 -43.765388 123.45241 7565675
101.97583 -43.764294 124.19093 7367525
101.22593 -43.763401 124.80152 7892839
100.47215 -43.762527 125.40731 10590609
99.714951 -43.761669 126.00889 10591124
98.954018 -43.760826 126.60551 7630443
98.189667 -43.759998 127.19792 10327437
97.421494 -43.75919 127.78542 9405821
96.495232 -43.75824 128.48441 9077370
95.719528 -43.757465 129.06206 9735558
94.940292 -43.75671 129.63455 9735558
94.157776 -43.75597 130.20277 12695212
93.371674 -43.755249 130.76587 13682106
92.42395 -43.754402 131.43562 9736068
91.630669 -43.753719 131.98865 9341823
90.833778 -43.753048 132.53656 9473153
90.033905 -43.752396 133.07991 10459535
89.193634 -43.666271 133.73756 12236458
88.381859 -43.607265 134.29871 8617330
87.591545 -43.515556 134.78731 10984849
86.611984 -43.523571 135.26671 9537919
85.744926 -43.497559 135.70416 7893352
84.8787 -43.473099 136.14062 5919818
83.944817 -43.350994 136.64958 5787464
148.96169 -42.453228 90.606689 11379356
148.47011 -42.568047 91.12529 9669762
147.82176 -42.604321 91.873726 9406848
147.15105 -42.569725 92.688431 10262414
146.51581 -42.644325 93.399872 9144448
87.700912 -42.874264 134.99109 10327178
86.748718 -42.600368 135.56998 8747893
85.932724 -42.527611 136.0011 8287342
85.064392 -42.503605 136.43832 7827046
84.196754 -42.480984 136.87476 8287850
83.32975 -42.459854 137.3102 6840918
82.360023 -42.326714 137.84123 9011832
149.9406 -41.369949 90.051071 8287341
149.35852 -41.622211 90.600693 9208955
148.73517 -41.535351 91.389023 10196362
148.05873 -41.695217 92.101944 9341310
147.43304 -41.805305 92.782272 10262414
85.908989 -41.746094 136.32654 9537665
85.173241 -41.570145 136.75945 8089961
84.380676 -41.51091 137.17358 10261124
83.511665 -41.490234 137.60983 9537402
82.469604 -41.46719 138.13231 9537664
81.566246 -41.643288 138.5065 8682867
80.768829 -41.517147 138.94984 9012088
79.902161 -41.224499 139.49414 7367263
79.381866 -41.216187 139.75371 7367263
150.76845 -40.632587 89.48111 8945271
150.22743 -40.602234 90.140152 8748148
149.61891 -40.526505 90.904663 9604225
148.97911 -40.642258 91.599152 11314844
84.317032 -40.924099 137.44054 10261124
83.580467 -40.750969 137.87279 10261124
82.596848 -40.544468 138.44009 10129545
81.779541 -40.479465 138.86868 9208955
80.910233 -40.463524 139.30321 8946039
80.041245 -40.448887 139.73698 7696228
79.172607 -40.435669 140.17001 8090730
78.384903 -40.295227 140.61438 10129801
151.69566 -39.334373 88.897797 9867144
151.13069 -39.641273 89.589203 9669508
150.55768 -39.550396 90.336624 9406846
149.84937 -39.833664 91.018738 10985110
81.921936 -39.702629 139.11043 9143675
81.086243 -39.492702 139.60625 9735043
80.215317 -39.478359 140.04091 8682099
79.344696 -39.465443 140.47478 7892584
78.324509 -39.646351 140.90451 9405822
77.535736 -39.588463 141.31625 11774626
76.636803 -39.394592 141.83669 9801863
75.897743 -39.232632 142.26569 10065035
152.41249 -38.53286 88.235962 9538435
151.98839 -38.532196 88.969803 10919062
151.43022 -38.525383 89.870422 10261390
150.95808 -38.715038 90.328835 9209467
80.319847 -38.895409 140.22339 13418933
79.482574 -38.688263 140.71887 9471358
78.644836 -38.48233 141.2141 8681843
77.772888 -38.472267 141.64755 11709347
76.726723 -38.461826 142.1669 9802120
75.85508 -38.454517 142.59904 10065035
75.035202 -38.400265 143.02457 9998983
74.212898 -38.185066 143.5159 12236458
73.652779 -38.053051 143.8447 14078918
153.16794 -37.477413 87.690201 9209467
152.67706 -37.687412 88.387756 7959664
152.14609 -37.686501 89.306671 9143424
77.83725 -37.596218 141.96751 10458510
77.067825 -37.491177 142.38861 13024688
76.194229 -37.48378 142.82173 10065035
75.146011 -37.476593 143.34079 9867141
74.272545 -37.471931 143.77275 12236458
73.399078 -37.468609 144.20427 11906468
72.594131 -37.401787 144.62749 8617075
72.032433 -37.271301 144.95651 8617075
153.99243 -36.208847 87.178688 9736070
153.47701 -36.577579 87.804382 10064778
152.92876 -36.769978 88.613892 8420469
152.4505 -37.051662 89.237869 9143424
76.222214 -36.801781 143.08177 8552313
75.290131 -36.614449 143.61591 9143674
74.51767 -36.443245 144.06506 9670018
73.557953 -36.495316 144.51674 9998984
72.682472 -36.493202 144.94875 8617075
71.806824 -36.49242 145.38023 9537663
70.961647 -36.298 145.87448 9537406
70.115463 -36.104694 146.36879 8879477
154.68565 -35.36314 86.589432 10261902
154.29927 -35.573063 87.10643 9998986
153.76666 -35.570045 88.029724 8354675
153.27385 -35.780689 88.730133 8091760
74.38681 -35.718052 144.42056 8287341
73.640518 -35.559353 144.85184 9209212
72.839684 -35.518497 145.26259 10064777
71.962135 -35.517685 145.69507 10064520
71.084404 -35.518005 146.12717 8353647
70.206421 -35.519615 146.5589 9537920
69.328125 -35.522293 146.99033 11445402
68.654831 -35.330235 147.39896 8287600
154.99355 -34.726532 86.515991 11051416
154.46025 -34.722588 87.441132 9275264
153.96667 -34.932777 88.143219 6512986
72.934128 -34.932892 145.45117 10064777
72.086578 -34.736702 145.9473 10393485
71.238083 -34.541557 146.4435 9867397
70.358147 -34.54311 146.87616 9735811
69.477959 -34.545727 147.30855 8748150
68.597412 -34.549599 147.74062 6840669
67.763336 -34.476154 148.18082 5590602
66.940186 -34.325523 148.64667 8879734
66.186623 -34.175213 149.07803 9208955
156.21324 -33.243584 85.476776 9012350
155.76286 -33.580879 86.01181 9341058
155.26634 -33.608429 86.850288 9933194
154.77708 -33.942852 87.455368 8814460
70.406738 -33.663147 147.20551 12104360
69.628105 -33.56757 147.62732 9011066
68.745628 -33.571323 148.06033 7564134
67.862762 -33.576134 148.49319 6379859
66.979401 -33.582161 148.92577 8090218
66.095604 -33.589283 149.35817 9077372
65.313622 -33.49865 149.77957 8288116
156.51076 -32.533138 85.475342 9275265
156.0954 -32.600056 86.144821 8749435
155.68004 -32.667599 86.813828 10985623
68.761078 -32.885872 148.32791 8616565
67.962219 -32.674568 148.80618 7498082
67.124115 -32.601696 149.24811 7695460
66.238358 -32.608566 149.68152 9537922
65.35202 -32.616642 150.11479 8814203
64.465057 -32.625748 150.54787 9932426
63.604813 -32.43956 151.04623 10129289
62.743103 -32.25425 151.545 9734531
157.37437 -31.399097 84.801331 9603716
156.86378 -31.536009 85.584839 9932681
156.28859 -31.787594 86.397263 8092019
67.062637 -31.817375 149.59325 7564643
66.381409 -31.62616 150.00548 8156527
65.469872 -31.486765 150.51027 8682617
64.632187 -31.445925 150.93918 10063755
63.742252 -31.455858 151.37344 9077373
62.851559 -31.466747 151.80769 8748152
62.011299 -31.42893 152.23666 9800837
61.162411 -31.228132 152.73532 10261131
60.584106 -31.105822 153.06911 10853012
158.08347 -30.410025 84.36557 9603458
157.65897 -30.474873 85.034973 9340286
157.23405 -30.540113 85.703392 10195596
156.67763 -31.104515 86.21785 10853012
64.743851 -30.657946 151.20055 9208703
63.947765 -30.50985 151.6579 7762029
63.102043 -30.44104 152.10243 8419701
62.094776 -30.49297 152.57381 9603715
61.199783 -30.505331 153.00731 9998215
60.304512 -30.51907 153.4424 10327436
59.476665 -30.466917 153.87102 9867141
58.895569 -30.345476 154.20595 10854036
160.55096 -29.119743 82.644402 8090479
160.12767 -29.113932 83.403717 7564393
159.22902 -29.543324 83.749115 8814201
158.59108 -29.663559 84.553986 9340286
158.02448 -29.860806 85.231422 8879991
62.941704 -29.914633 152.54665 9735046
62.403618 -29.921141 152.80626 9735044
61.474495 -29.78429 153.37421 9801092
60.539494 -29.797344 153.82381 10392973
59.773663 -29.538706 154.41071 9998727
58.813095 -29.653725 154.7899 9340798
58.028027 -29.507215 155.29446 9472132
57.143295 -29.443098 155.78168 7564651
56.336418 -29.357313 156.19566 8814203
173.83824 -28.512503 73.175735 8419959
173.54628 -28.520811 74.038162 8681843
172.16469 -28.827213 74.429276 9208187
171.80342 -28.825247 75.25647 8681843
167.27223 -28.822878 77.871834 8879990
166.79968 -28.820555 78.876129 10129289
162.36089 -28.827374 81.365005 9341052
161.8317 -28.818911 82.321533 9012091
56.689735 -28.959141 156.88176 10064011
55.713188 -28.943678 157.1326 8353909
54.698978 -28.909101 157.27216 9471618
53.239758 -28.719147 159.2373 9734531
52.27943 -28.719301 159.55373 9735552
51.31744 -28.719471 159.86494 9669503
50.739288 -28.719584 160.04877 9867139
46.587532 -28.713213 163.94012 8551281
45.79694 -28.713448 164.16185 8813942
44.807137 -28.71376 164.4335 10524815
44.206081 -28.402441 165.36725 10854036
43.361832 -28.372629 165.39911 10985876
174.43626 -27.375923 72.685272 7564651
174.06764 -27.665861 73.455704 8880505
173.62462 -28.070696 74.317719 9208187
44.122112 -27.853714 165.5876 9669762
43.398422 -27.504702 165.74364 9604225
42.622364 -27.32546 165.83342 8946039
174.74028 -26.469294 72.81031 9472384
174.37172 -26.703365 73.644066 8617331
43.339241 -26.529203 166.13321 10459278
42.493462 -26.502178 166.16406 9341053
175.31407 -25.479576 72.223755 7959403
175.00664 -25.674301 72.9198 7959401
43.190128 -25.908361 166.3838 10263180
42.59618 -25.478769 166.56883 9538944
41.846954 -25.343042 166.56084 9736323
175.64293 -24.644039 72.192902 8156782
175.27354 -24.877804 73.029541 7564643
42.466335 -24.651897 166.90102 9736323
41.69006 -24.361752 166.87315 9867909
176.16908 -23.727764 71.665161 9275006
175.87477 -23.808701 72.451553 9341054
41.580017 -23.610264 167.11931 10591377
176.77333 -22.581377 71.166275 9143166
176.5627 -22.649424 71.717316 7893358
176.17931 -23.046049 72.410393 7564643
41.748199 -22.964325 167.4548 10854036
40.985146 -22.430643 167.33392 10196364
177.53009 -21.20178 70.477325 10261132
177.15524 -21.663446 71.070709 9472130
177.01207 -21.437124 71.755707 8616823
40.715622 -21.435534 167.60887 9012863
177.83733 -20.4349 70.432724 7959661
177.54192 -20.514708 71.223717 9406337
40.780979 -20.819332 167.87993 9736071
40.25687 -20.504803 167.77635 10327694
178.36736 -19.587872 69.814819 9208699
178.118 -19.544258 70.608536 7302246
177.84816 -19.822906 71.096878 7039331
40.057735 -19.582819 168.0531 10195594
178.72414 -18.617884 69.853569 8090734
178.4075 -18.743496 70.655472 7499368
39.982788 -18.548912 168.4278 9866373
39.358578 -18.439171 168.20013 9406078
179.28654 -17.736452 69.177902 10984593
178.99162 -17.738453 70.055786 8748149
39.895527 -17.849041 168.66557 10853012
39.206203 -17.598045 168.4653 9406078
179.60033 -16.808393 69.297256 9997700
179.30504 -16.810093 70.176682 10260871
39.25502 -16.642063 168.86302 9011833
38.621735 -16.313768 168.71754 7893354
180.78481 -15.192348 68.256195 9735812
180.34703 -15.557462 68.786606 7760997
179.88142 -15.994775 69.404251 8813428
39.157204 -15.716684 169.18504 9011323
38.482693 -15.475919 169.04782 8682358
181.894 -14.288165 67.426392 8879735
181.38185 -14.512424 68.231506 9143675
180.94853 -14.737111 68.815292 8617075
38.12748 -14.848365 169.37485 8353650
37.716755 -14.296115 169.77922 8551029
36.986652 -14.015748 170.03783 8287084
184.40015 -13.450271 65.843544 9537663
183.68488 -13.74137 66.503105 8418928
183.13136 -13.886244 67.385025 9668995
35.044571 -13.702987 172.06612 8090986
34.42234 -13.703311 172.19104 8880502
33.384247 -13.703864 172.3942 11380380
30.168343 -13.407351 174.91695 8354674
184.83208 -12.736171 65.245018 10721679
184.64363 -12.737844 65.929092 10261131
184.3739 -12.977431 66.584686 8617075
30.177216 -12.633849 175.22517 8354931
29.544083 -12.308371 175.07861 8617845
185.15752 -11.784203 65.358131 10261131
184.96277 -11.864975 65.957718 8946040
30.057793 -11.681157 175.54829 8617845
29.454079 -11.372064 175.40805 8880504
185.51517 -10.914868 65.650185 9932678
29.431625 -10.579378 175.71046 8550769
28.745598 -10.341585 175.50655 10129545
29.257729 -9.7077656 175.97885 8682867
28.695396 -9.3664007 175.8694 9275004
28.507812 -8.3413076 176.19241 10656657
28.469658 -7.5128007 176.5027 11183001
28.002052 -7.50246 176.3038 10854036
28.513718 -6.8585796 176.77992 8682867
27.826141 -6.6264982 176.573 8748148
27.652504 -5.7045598 176.86137 9143163
27.210396 -5.3035002 176.82767 9932678
27.720718 -4.6518636 177.3063 9341059
27.032936 -4.4233365 177.09795 9275264
26.854874 -3.5411472 177.36865 9209469
26.910156 -2.6578727 177.74113 9209467
26.339241 -2.4331822 177.58195 9209467
26.048409 -1.4576533 177.84055 12366501
26.096733 -0.657781 178.17712 12103329
25.506538 -0.3612583 178.13858 10524813
25.278534 0.34532511 178.59401 8353646
24.850189 0.67966235 178.67427 7563874
23.857094 1.1309246 179.45729 9340542
18.778641 1.6132556 183.42433 7038307
18.313362 1.6102296 183.23653 10261132
18.795868 2.071857 183.59712 7038307
18.017227 2.5898824 183.47188 9406081
17.919067 3.5574546 183.78233 9077886
17.465904 3.8972764 183.72334 8618361
17.947571 4.365108 184.08585 8618361
17.257492 4.5863647 183.8889 9407876
17.151184 5.5561614 184.19693 10920855
16.929932 6.3568163 184.39763 8092017
16.629845 6.6607299 184.38701 8814201
17.111183 7.1364689 184.7523 7039331
16.420135 7.3549199 184.55392 7433064
16.300079 8.4424047 184.89897 9999244
15.773994 8.9754868 184.88063 9736073
16.254532 9.4578314 185.24794 7038307
15.563164 9.6739788 185.04854 8946043
15.453575 10.659722 185.36101 7761255
15.387833 11.556568 185.6673 7563618
14.92215 11.541589 185.47835 8353134
15.410736 12.270392 185.95378 7563618
14.719063 12.484846 185.7652 8353134
14.511787 13.311892 186.0052 6840151
14.05677 13.653349 185.95892 7959656
14.5382 14.151785 186.35884 6511954
13.933739 14.456101 186.3354 6511954
13.665733 15.11287 186.79861 6511954
13.06485 15.423402 186.83949 6511954
12.804031 16.097563 187.45197 6972256
12.205299 16.41551 187.55687 6314580
11.483688 17.089489 188.13791 7169635
10.822906 17.593346 188.534 6906201
9.9437408 18.121569 189.16911 6643539
145.48592 -43.124638 94.352081 9406846
145.02138 -43.314674 94.796417 9406846
144.29073 -43.493446 95.562653 9406335
143.42351 -43.631687 96.234314 8617075
142.92447 -43.62022 96.900162 8550770
142.17194 -43.794933 97.643509 7563619
139.1819 -43.794868 98.826225 9867142
138.58369 -43.793182 99.660904 9011321
137.98073 -43.791515 100.49219 10853012
137.61668 -43.790524 100.98921 8287341
134.75739 -43.791031 101.91403 9735555
134.38797 -43.790073 102.3993 9801348
133.76833 -43.788498 103.20506 10722450
133.14418 -43.786934 104.00729 8682867
129.91977 -43.786766 105.31596 9143934
129.53804 -43.785873 105.78372 8354676
128.89815 -43.784401 106.5602 7170658
128.12431 -43.78265 107.48706 8814454
127.605 -43.78149 108.10207 10787729
124.37508 -43.7817 109.2794 10459278
123.84689 -43.780605 109.87614 11051415
123.18244 -43.779255 110.61826 10591121
122.51385 -43.777916 111.35669 7893614
121.84055 -43.776596 112.09085 7564650
117.92458 -43.775932 113.84528 9011575
117.23671 -43.774704 114.55199 10261132
116.54425 -43.773491 115.25429 10524046
115.84785 -43.772293 115.95269 10326668
115.14709 -43.771114 116.6466 8089963
114.44235 -43.769951 117.33662 8089963
109.62405 -43.768661 119.66506 8617331
109.04606 -43.767822 120.19065 8814712
108.31982 -43.766781 120.84362 10458250
107.59002 -43.765762 121.49239 10590091
106.85603 -43.764759 122.13657 10129541
105.97026 -43.763577 122.90385 9011321
105.22796 -43.762604 123.53859 8419958
104.48184 -43.761654 124.16837 9341057
103.73212 -43.760719 124.79406 13682621
102.97826 -43.759804 125.41494 8552312
102.22094 -43.758896 126.03163 7696229
95.375999 -43.669338 130.89198 10854036
94.84922 -43.644802 131.16122 13287605
94.013741 -43.409893 131.66704 14997964
92.96254 -43.3643 132.20305 9340543
92.087822 -43.327915 132.64844 8617847
91.214325 -43.293076 133.09262 9604738
90.341827 -43.259647 133.53572 10459535
89.689537 -43.300926 133.84042 11183514
146.41122 -42.321388 93.704803 9144448
145.81137 -42.504967 94.313263 9933446
145.20845 -42.435497 95.067001 9077881
144.49471 -42.710869 95.759109 8748405
143.81296 -42.840744 96.494705 9011064
143.34975 -43.032932 96.936356 9010808
93.78688 -42.808899 132.02 9734788
93.018082 -42.677959 132.45117 9077115
92.249916 -42.548187 132.88164 8090479
91.374733 -42.513947 133.32642 9472383
90.500595 -42.481041 133.77014 10261898
89.554428 -42.594067 134.19075 9801347
88.716431 -42.614128 134.59538 8485493
87.961433 -42.35458 135.07141 9932939
87.225792 -42.175068 135.50571 8682875
148.00777 -41.12532 92.481506 9209467
147.40486 -41.308243 93.094055 8092019
146.67171 -41.740154 93.721466 8486776
146.06738 -41.669704 94.477539 9933961
145.39693 -41.640102 95.289078 9274492
144.79752 -41.826073 95.895737 9208443
92.196167 -41.955975 133.14578 8681843
91.427551 -41.828335 133.57565 9602943
90.64827 -41.583469 134.05771 9801090
89.824066 -41.476013 134.50673 11708315
88.949844 -41.446621 134.94913 11248540
88.03804 -41.613392 135.33122 10327696
86.991745 -41.581596 135.85927 9669252
86.191216 -41.493465 136.28893 9537665
85.635727 -41.348072 136.62083 9537665
148.80716 -40.313641 91.987045 12433069
148.2695 -40.457268 92.544777 10459534
147.53075 -40.605888 93.338112 9144448
146.92587 -40.648434 94.031555 11314843
146.30035 -40.761719 94.709839 9011833
145.58813 -41.013363 95.413483 9208443
89.631012 -40.684502 134.91963 11576729
89.073174 -40.535538 135.25409 10459023
88.230705 -40.639938 135.62711 11314589
87.181946 -40.608791 136.15614 11314589
86.308853 -40.584351 136.59595 11709090
85.436493 -40.561352 137.03479 9274491
84.614388 -40.462742 137.47926 9077108
83.835602 -40.229885 137.9563 9537402
83.069679 -40.115532 138.37944 10261132
150.28291 -39.107845 90.910324 10655889
149.74483 -39.507721 91.325195 10655889
149.13817 -39.69038 91.942886 11841188
148.46255 -39.657196 92.763191 10262155
147.78754 -39.625317 93.582108 9735812
147.18361 -39.810535 94.195236 13551287
88.0345 -39.849895 136.04088 12433069
87.294693 -39.67186 136.47673 11643296
86.497253 -39.61095 136.89392 10393486
85.622902 -39.58839 137.33356 8814197
84.749237 -39.567162 137.7724 8550767
83.876205 -39.547356 138.2103 8485233
83.003769 -39.528732 138.64738 9143675
82.236893 -39.416084 139.07037 8946296
151.09065 -38.293175 90.407402 9209467
150.61671 -38.482819 90.863869 9209467
150.00774 -38.665741 91.484123 9801092
149.38005 -38.581295 92.276337 9406589
148.69945 -38.74448 92.992737 9472382
148.11682 -39.001755 93.540222 8090987
86.435249 -39.021595 137.16101 9143675
85.694641 -38.846344 137.59615 8288110
84.884033 -38.670444 138.06596 9011321
84.058853 -38.573883 138.51112 9142907
83.184425 -38.555721 138.94907 8551538
82.310547 -38.53894 139.38618 8880503
81.262543 -38.520458 139.90973 11182486
80.4245 -38.311958 140.4061 12826797
79.586098 -38.104824 140.90208 9471358
151.55978 -37.673538 90.192596 8617080
150.88115 -37.638988 91.022079 9209467
150.20087 -37.60527 91.848206 9471871
149.59157 -37.789948 92.468002 8090987
84.0299 -37.790508 138.83987 9011321
83.365311 -37.581352 139.2511 8090987
82.489426 -37.564968 139.68904 9406847
81.614082 -37.549755 140.1263 9472127
80.739105 -37.535858 140.56271 10655631
79.689667 -37.520832 141.08556 10063751
78.815475 -37.50964 141.52054 10458510
78.150131 -37.306992 141.9295 10458510
152.92813 -36.204456 89.02272 11380380
152.35973 -36.574928 89.738586 8748667
151.75856 -36.609737 90.55661 9143423
151.21309 -36.668407 91.171082 9801093
150.53455 -36.97868 91.80278 9866374
82.421547 -36.976723 139.95868 9538433
81.755775 -36.769772 140.36961 9274748
80.861687 -36.609146 140.87439 9142650
79.862518 -36.546314 141.39162 10392973
78.986359 -36.535389 141.8275 12300971
78.110512 -36.525764 142.26266 8945529
77.234802 -36.517311 142.69728 9670020
76.468956 -36.27684 143.17096 8749434
75.724358 -36.115494 143.60237 8682867
153.16029 -35.461769 89.156586 9736070
152.64439 -35.609932 89.94191 9209216
152.11517 -35.623631 90.685074 10262156
80.176559 -35.76796 141.54947 9340286
79.33313 -35.56176 142.04758 10722198
78.279701 -35.550304 142.57092 8815228
77.402046 -35.542038 143.00644 8880502
76.524612 -35.535061 143.44136 9077625
75.647224 -35.52916 143.87578 8287853
74.846504 -35.485847 144.28746 8287341
74.100082 -35.32653 144.71904 10853012
153.91333 -34.648678 88.440308 7039073
153.39275 -34.718132 89.290695 8617590
152.87196 -34.788486 90.14064 9735299
78.310341 -34.86562 142.8307 8092019
77.520966 -34.642967 143.30876 8486000
76.690201 -34.558197 143.75197 8551537
75.810867 -34.552452 144.18726 8024937
74.931656 -34.547981 144.62206 7432032
74.052383 -34.544571 145.0564 7695716
73.241325 -34.430817 145.50145 9143675
72.180008 -34.150318 146.1367 10130569
154.66837 -33.550854 87.925903 8880508
154.15344 -33.655178 88.741241 8814969
153.56526 -33.937805 89.554817 10261131
76.470451 -33.773186 144.1752 7039322
75.905098 -33.639103 144.50749 7827558
75.093628 -33.56979 144.93497 9076857
74.212456 -33.56649 145.37019 8222061
73.331192 -33.56435 145.80501 8814710
72.449844 -33.563267 146.2395 9406847
71.568298 -33.563412 146.67351 9538432
70.717064 -33.368843 147.17079 11841188
155.43927 -32.522984 87.334328 10261902
154.97279 -32.548489 88.122139 9143680
154.45419 -32.695702 88.912857 9011836
75.014496 -32.98127 145.21019 10195082
74.271149 -32.847866 145.62976 9472128
73.437515 -32.633362 146.12642 9998471
72.606354 -32.583344 146.55577 9932935
71.722908 -32.583485 146.99078 10393485
70.839249 -32.584629 147.42546 10130313
