# .PCD v0.7 - Point Cloud Data file format
VERSION 0.7
FIELDS x y z rgb
SIZE 4 4 4 4
TYPE F F F U
COUNT 1 1 1 1
WIDTH 1189
HEIGHT 1
VIEWPOINT 0 0 0 1 0 0 0
POINTS 1189
DATA ascii
-150.24173 -71.947289 20.915152 9932163
-150.21037 -71.875145 19.989264 9011579
-150.17358 -71.803322 19.064589 12300452
-150.12291 -71.717484 17.956606 9011579
-150.42656 -71.616829 16.817389 10853012
-150.92451 -71.53698 16.027044 10853012
-150.86412 -71.465981 15.10238 7301476
-150.78529 -71.381096 13.994487 7038307
-150.729 -71.324799 13.256966 7038307
-147.34151 -70.733536 37.752941 9800835
-147.90327 -70.825058 36.994339 8946040
-150.98497 -71.269295 12.668552 8090480
-151.53845 -71.200478 12.041421 8616307
-151.45468 -71.130325 11.117339 9932167
-151.34778 -71.046494 10.010249 8813941
-151.23587 -70.964119 8.9055157 7367005
-152.07988 -70.883018 8.2201052 8550763
-151.95702 -70.802094 7.1123939 9997696
-151.82704 -70.721634 6.0069289 8354158
-152.17554 -70.640419 5.1023784 9011574
-152.51752 -70.559219 4.1950488 9735297
-152.3667 -70.479408 3.0890653 10787727
-152.23576 -70.4132 2.1691129 9143160
-146.82298 -69.307739 39.236912 7367005
-147.16747 -69.70755 38.57095 6314575
-147.65105 -69.880623 37.862823 9669250
-148.02782 -70.074051 37.276897 10853012
-153.02621 -70.316628 1.258785 9734270
-152.85458 -70.237503 0.1526162 8945268
-152.67584 -70.158867 -0.95105201 8418928
-153.48289 -70.074425 -1.695555 10985622
-153.28972 -69.995697 -2.8015616 9537664
-153.08321 -69.912071 -3.7202494 8616819
-153.79347 -69.790192 -4.6643186 8418928
-153.5005 -69.676506 -5.7662053 10261132
-154.15067 -69.534523 -6.9065328 8287596
-153.8934 -69.440231 -7.824204 7169630
-153.73691 -69.383842 -8.3733749 7367525
-146.93196 -68.7015 39.454399 7235678
-147.52808 -68.774338 38.663544 6906717
-147.8743 -69.175026 37.9949 10853012
-154.53136 -69.297226 -8.9767132 7367525
-154.26036 -69.203064 -9.8934498 8881020
-154.45946 -69.091644 -10.841278 8485488
-154.65089 -68.98011 -11.790476 7827558
-154.3605 -68.885178 -12.703964 10720651
-155.02075 -68.756294 -13.698532 10523273
-154.71851 -68.661697 -14.611626 8813171
-155.37021 -68.531807 -15.617527 9077882
-154.99345 -68.419144 -16.71209 9471872
-146.73599 -67.592392 40.348442 7893352
-147.19765 -67.768257 39.666229 7301479
-147.69724 -67.850105 38.991371 7958895
-155.71635 -68.323616 -17.739212 7827307
-155.42868 -68.247154 -18.655254 10458767
-155.64702 -68.163826 -19.63368 10722192
-155.85779 -68.080299 -20.613764 8683123
-156.06595 -67.996422 -21.599005 8946039
-156.26656 -67.912354 -22.585855 10261899
-155.94905 -67.836143 -23.499773 10459278
-156.65472 -67.743324 -24.571478 8946039
-156.25772 -67.652031 -25.667601 10391944
-156.95413 -67.558029 -26.753481 9208187
-156.60989 -67.481995 -27.666344 8155755
-146.49698 -66.270348 41.421017 7893352
-146.84955 -66.72821 40.710899 7367008
-147.43129 -66.862846 39.902023 9340288
-157.28929 -67.383118 -28.763977 9537409
-156.87697 -67.283493 -29.665951 7892581
-157.48181 -67.155487 -30.763685 8747885
-157.14014 -67.07505 -31.483719 9208435
-157.73663 -66.945877 -32.592148 8419695
-157.81435 -66.830536 -33.601051 7762027
-157.88422 -66.715118 -34.610268 8222576
-157.98097 -66.611992 -35.630554 8484979
-158.10512 -66.523666 -36.659569 9537151
-157.76939 -66.458557 -37.383774 8813945
-146.66393 -65.615555 41.594036 8288366
-147.16852 -65.813385 40.845066 7893352
-147.54935 -66.121414 40.187111 10853012
-158.52748 -66.385117 -38.370346 8090986
-158.18253 -66.319893 -39.094696 9209467
-158.76045 -66.212669 -40.456547 7498850
-158.86977 -66.12587 -41.505436 7827303
-158.97076 -66.038925 -42.555092 8485233
-158.60414 -65.97361 -43.276974 8682867
-159.3459 -65.89653 -44.304718 10327434
-159.4351 -65.808403 -45.366245 9735297
-159.51581 -65.720146 -46.428322 8288109
-160.05774 -65.608086 -47.842964 8288109
-159.65584 -65.539719 -48.561783 7234908
-146.50099 -64.740891 42.309597 8288365
-147.07878 -64.744713 41.582153 9472898
-147.46074 -65.049332 40.924866 9472642
-160.33511 -65.437981 -49.613251 8090730
-159.87907 -65.351349 -50.317253 8090730
-160.4249 -65.221535 -51.55246 9932681
-160.07591 -65.156662 -52.079269 8092019
-160.50571 -65.008118 -53.504143 8091245
-160.81729 -64.86676 -55.334694 9341054
-161.12006 -64.726028 -57.180313 8420982
-161.64059 -64.619125 -58.683159 7565675
-161.1765 -64.548424 -59.394775 8354933
-161.92029 -64.47541 -60.556004 10065035
-146.30493 -63.517479 43.270596 7563618
-146.68698 -63.816139 42.616558 10261645
-147.26599 -63.81778 41.888847 15197142
-161.446 -64.404602 -61.26651 10985879
-162.18584 -64.330315 -62.44228 8618105
-161.82268 -64.277023 -62.974663 11906725
-162.31348 -64.165901 -64.519325 8551280
-161.94235 -64.11245 -65.050377 9537918
-162.54747 -64.017761 -66.432198 11511449
-162.16864 -63.964157 -66.962273 10459023
-162.76704 -63.868038 -68.35865 8749177
-162.38034 -63.814365 -68.887474 11906725
-163.10277 -63.734859 -70.122154 8484720
-162.57724 -63.663094 -70.826218 11905692
-163.29507 -63.582138 -72.075874 9076856
-146.42468 -62.677425 43.611126 7760997
-147.0787 -62.783543 42.72826 12433069
-163.47174 -63.427689 -74.042999 9405566
-163.79306 -63.227234 -75.380302 11312531
-163.90988 -62.877499 -76.152649 10523015
-163.79749 -62.690872 -76.820885 8879479
-146.21452 -61.641113 44.487549 7037274
-146.72307 -61.755894 43.774956 7432032
-147.10751 -62.050827 43.11985 10853524
-164.00864 -62.056625 -77.161736 9865343
-163.80368 -61.764313 -77.870125 9405048
-145.88779 -60.404152 46.215771 7038307
-146.14294 -60.696381 45.395027 7367014
-146.57875 -60.773529 44.62849 9406081
-146.89455 -60.970726 44.017357 7827307
-164.38925 -60.95055 -77.342094 9536120
-164.0101 -60.949753 -78.130608 9799292
-163.70395 -60.727879 -78.954552 9339768
-145.44598 -59.30867 49.372147 11907236
-145.82507 -59.344849 48.523476 9473412
-145.98969 -59.513855 47.604118 10460049
-146.25169 -59.724869 46.717484 7497826
-146.6127 -59.956791 45.668339 8353134
-146.84686 -60.18335 44.967075 11708837
-164.48183 -60.185585 -78.194206 10720394
-164.22525 -59.993172 -79.125427 7562846
-164.11533 -59.648003 -80.130211 7432030
-143.06516 -58.567112 65.962021 10458246
-143.57857 -58.585289 65.52903 9668986
-143.49266 -58.931244 64.490921 9603193
-143.95488 -58.933559 63.45237 10064520
-144.33447 -58.935482 62.584465 7762796
-143.91629 -58.938618 60.558609 9275519
-144.35011 -58.940907 59.517082 9735812
-144.77637 -58.943188 58.472443 9340798
-145.12599 -58.945091 57.599609 9405308
-144.38518 -58.946609 56.301598 10129030
-144.65442 -58.948112 55.605324 8945014
-145.05247 -58.950378 54.558609 9537149
-145.44289 -58.952629 53.509026 9142648
-145.76265 -58.95451 52.632332 9734779
-145.38246 -59.016418 51.606514 8879472
-145.58144 -59.071514 50.593552 8616301
-145.96707 -59.107178 49.744637 12695979
-146.34885 -59.143162 48.89325 10460049
-164.7085 -59.307972 -80.911507 8089960
-164.31403 -59.307655 -81.702263 10851980
-164.95135 -59.213963 -83.26075 6511954
-164.83517 -58.993561 -84.050446 6511954
-143.26335 -57.699368 66.218819 9011574
-143.80986 -57.697323 65.883842 8353643
-165.20972 -58.282135 -84.141945 6511954
-165.11455 -57.943386 -84.595192 6511954
-143.4039 -56.777691 66.533104 8813939
-165.33479 -57.26646 -84.708656 6511954
-143.24648 -55.627441 67.12973 7893351
-143.56668 -56.054516 66.747322 9602684
-142.81577 -54.383965 67.934975 13022893
-143.28511 -54.824883 67.454796 8550767
-143.03038 -53.606804 68.140755 9340289
-143.53017 -53.812225 67.74427 8419438
-143.10864 -52.685059 68.493233 7630187
-142.87077 -51.663391 69.083496 10392203
-143.29927 -51.883781 68.724281 9471359
-142.5347 -50.239288 69.909019 7037274
-143.03923 -50.793922 69.357796 9536894
-142.66464 -49.585335 70.113335 7958888
-143.21452 -49.823654 69.6717 8419440
-142.87708 -48.67511 70.378304 8682611
-143.34512 -49.168091 69.876328 9209467
-142.57172 -47.53759 71.06044 8222060
-142.89294 -47.864979 70.720634 8485232
-142.7563 -46.739857 71.293648 7629923
-142.39792 -45.664162 72.079353 7301220
-142.85487 -45.835072 71.663795 7038305
-141.99648 -44.226307 74.143105 7959144
-142.45676 -44.446255 73.295837 10129801
-142.66258 -44.935535 72.535439 8353907
-140.45668 -43.394779 83.774582 7038307
-141.08675 -43.683075 83.23201 7038307
-141.5715 -43.897709 82.373665 7564390
-141.05469 -43.901283 80.039162 7038298
-141.43832 -43.902885 79.358665 9142905
-142.00816 -43.905277 78.334656 9668734
-141.99437 -43.936432 75.232811 8156523
-142.54868 -43.997341 74.64949 7235421
-140.86491 -42.530533 83.900848 7104097
-141.21065 -42.884491 83.532761 6906718
-140.43951 -41.351063 84.679291 9142907
-140.92497 -41.754963 84.203133 8156267
-140.55328 -40.685658 84.900154 8616307
-141.13887 -40.726471 84.521133 7695460
-140.70276 -39.701164 85.238686 8353135
-140.40932 -38.628632 85.888908 9142907
-140.84674 -38.817276 85.536568 10195851
-140.02789 -37.226501 86.737556 8616563
-140.61501 -37.701683 86.167595 9340541
-140.23676 -36.639542 86.865532 8616563
-140.78287 -36.701252 86.501686 9011577
-139.99603 -35.188557 87.648865 9340286
-140.52254 -35.703739 87.098656 8682612
-140.1059 -34.521942 87.872665 10851980
-140.66765 -34.71706 87.440689 9603458
-140.29016 -33.590607 88.165298 9273465
-140.77771 -34.048641 87.664352 8419696
-139.98332 -32.541847 88.812164 8287341
-140.46272 -32.792679 88.406647 8747635
-140.16328 -31.704012 89.066406 8418671
-140.73964 -32.003986 88.579514 9010550
-139.9164 -30.413237 89.950699 8879478
-140.2706 -30.981085 89.322716 8681842
-139.76901 -29.181953 91.768333 9010808
-139.71658 -29.528328 91.014297 9931910
-140.20277 -29.753191 90.372261 8287342
-138.62344 -28.484657 100.89127 9405821
-138.30121 -28.863846 99.642281 7037274
-138.77948 -28.865522 98.974777 8681584
-139.25505 -28.867094 98.305496 8286826
-139.13635 -28.874636 94.013428 8419696
-139.69995 -28.876705 93.173889 8156524
-139.45108 -29.161142 92.040955 7564643
-138.1228 -27.501606 101.54601 9471871
-138.56009 -27.746225 101.2268 9208955
-138.19418 -26.669813 101.85291 9340285
-138.80225 -26.717091 101.52959 9998215
-138.06468 -25.193115 102.52569 8090987
-138.37849 -25.705622 102.15786 9274492
-138.0668 -24.563984 102.78376 6446418
-138.67633 -24.607313 102.46133 6972762
-138.23184 -23.693604 103.05975 6314832
-137.93614 -22.45475 103.71769 10261900
-138.34279 -22.796482 103.37373 7499106
-138.10049 -21.581358 103.99524 10130314
-137.73447 -20.54825 104.60358 9341054
-138.21057 -20.681339 104.31092 10393483
-137.93886 -19.656059 104.86891 11577242
-137.39377 -18.420397 105.65019 6511954
-137.93887 -18.660196 105.27904 10853520
-137.80193 -17.534952 105.81084 10919572
-138.3485 -18.046764 105.3269 9011573
-137.25426 -16.298986 106.59353 10064777
-137.80084 -16.536058 106.22274 9143675
-137.60507 -15.639621 106.75803 9670019
-138.21092 -15.918049 106.27242 8288365
-137.08362 -14.219688 108.58924 8813942
-137.4985 -14.557853 107.84505 8748149
-137.68301 -15.059631 107.18954 10064777
-135.99803 -13.400152 117.48127 12170150
-136.39545 -13.705821 117.15781 14604230
-137.26534 -13.853289 109.81266 9405821
-136.1011 -12.599287 117.75901 10262407
-135.59717 -11.485929 118.46734 10788244
-136.15652 -11.721799 118.09192 7302237
-135.99867 -10.553151 118.65068 8946040
-136.56377 -11.072582 118.15588 6512978
-135.42053 -9.2780876 119.46248 12433069
-135.98145 -9.5119848 119.087 11577760
-135.82719 -8.6235943 119.52885 10985622
-136.3893 -8.8574419 119.15284 9932934
-135.78497 -7.7804804 119.89625 8090218
-135.56825 -6.532198 120.51763 8089962
-135.98497 -6.9250293 120.14846 9932678
-135.70514 -5.5095968 120.87083 10130057
-135.43156 -4.538198 121.40715 8090218
-135.97084 -4.6191578 121.10561 8484976
-135.49173 -3.67325 121.73363 6774615
-135.2524 -2.2941203 122.42095 9208956
-135.67334 -2.7766855 122.01273 7498339
-135.42578 -1.4692448 122.67458 9867399
-135.02454 -0.33864969 123.49754 9537150
-135.47556 -0.67904568 123.01482 9406592
-134.93979 0.56928265 124.31617 9537150
-135.32114 0.26592749 123.86739 10984593
-135.04861 1.0310071 125.62346 8945013
-148.40292 -72.341805 35.480785 8616563
-148.75711 -72.609993 34.73365 8616563
-149.09377 -72.728951 33.942532 8879991
-149.23268 -72.825577 33.124947 9341059
-149.21223 -72.810074 31.896646 9341059
-149.24559 -72.735947 30.964922 9341059
-149.27341 -72.662148 30.034151 7432806
-149.83815 -72.5634 29.097116 9077885
-150.28831 -72.492287 27.984261 8814715
-150.36166 -72.449532 27.061962 7564651
-150.36967 -72.378372 26.12953 7564651
-150.33801 -72.304932 25.378153 7037274
-148.46518 -71.667496 35.796803 8353647
-149.11726 -71.815674 34.891716 9209212
-149.46227 -72.232849 34.214817 9143419
-150.31891 -72.253349 24.816652 7037274
-150.30823 -72.179924 23.885889 7037274
-150.29333 -72.106895 22.956188 7300446
-150.73341 -72.023445 22.0947 9800321
-151.16153 -71.92543 21.043165 9340027
-151.12903 -71.852844 20.11142 9011579
-151.09102 -71.78064 19.181044 10326923
-151.03894 -71.694283 18.066164 6840925
-151.595 -71.592339 17.021532 8419183
-151.8468 -71.512657 16.124968 8682355
-151.78513 -71.441254 15.194596 7301476
-151.70461 -71.355896 14.079863 7038307
-148.33018 -70.591469 36.595097 8617075
-148.79326 -70.782005 35.902401 8682612
-149.16225 -71.054352 35.280113 9735812
-151.93614 -71.271698 13.117075 8090737
-152.48007 -71.188309 12.301229 8418928
-152.37857 -71.103569 11.185179 10260875
-152.2701 -71.01931 10.0713 10655633
-152.48105 -70.937065 9.1014662 7958888
-153.00974 -70.855423 8.2704134 7958888
-152.88503 -70.774086 7.1559024 10129545
-152.75314 -70.693115 6.0436664 9603453
-153.2683 -70.611069 5.2010169 8946038
-153.44954 -70.529678 4.220777 9735297
-153.29675 -70.449455 3.1079786 11379607
-153.16411 -70.382835 2.1824739 9997955
-148.45175 -69.713821 36.955223 9472127
-148.98035 -69.83448 36.221226 8682867
-154.07434 -70.338799 2.0098341 10851980
-153.96208 -70.285583 1.266607 9734270
-153.78828 -70.206001 0.1536023 9537149
-153.94162 -70.124947 -0.83550864 9472128
-154.4223 -70.04184 -1.7058184 9142907
-154.22748 -69.963028 -2.8185866 9142907
-154.33647 -69.869926 -3.8128111 8089963
-154.74983 -69.762611 -4.6932302 9866885
-154.45349 -69.648293 -5.8018556 10590091
-155.16154 -69.524384 -6.7645192 9340027
-154.90198 -69.429482 -7.6880994 8484720
-147.9456 -68.342705 38.391708 8287859
-148.29324 -68.743965 37.720886 8485486
-148.89432 -68.822006 36.920837 8814451
-149.16113 -69.112747 36.416058 8814451
-155.11972 -69.319695 -8.6364059 7695976
-155.3298 -69.209633 -9.5861473 8880249
-155.05051 -69.113815 -10.506752 9472383
-155.72882 -68.985207 -11.495125 8485488
-155.37796 -68.87043 -12.599024 9207928
-156.10695 -68.759827 -13.415409 9602685
-155.74168 -68.6455 -14.518669 9603198
-156.40187 -68.514671 -15.53084 9275261
-156.11075 -68.431076 -16.451941 8814710
-148.11777 -67.681641 38.561928 9077373
-148.65634 -67.809296 37.81134 7564386
-149.00568 -68.211319 37.13792 8814451
-156.34441 -68.34771 -17.429852 9471871
-156.57034 -68.264175 -18.409527 10196106
-156.27693 -68.187386 -19.329962 10919315
-157.00964 -68.096207 -20.381094 7959917
-156.70358 -68.019417 -21.301855 7038298
-157.42848 -67.927116 -22.366472 9209469
-157.04498 -67.835014 -23.471083 9209211
-157.76086 -67.741531 -24.550034 9011577
-157.42789 -67.664909 -25.470179 8484979
-157.61275 -67.57933 -26.475666 9931651
-157.78979 -67.493675 -27.482647 10129031
-157.51009 -67.432632 -28.216587 9537409
-147.85687 -66.623535 39.507729 9537667
-148.31247 -66.744873 38.864906 7827565
-148.82626 -66.883209 38.139225 6906718
-158.40791 -67.378242 -28.771145 9537409
-158.0733 -67.297005 -29.497614 9011065
-158.16971 -67.181938 -30.503138 7892837
-158.25819 -67.066872 -31.509026 8287850
-158.86368 -66.936813 -32.625275 7038307
-158.50977 -66.855911 -33.349342 7762027
-159.1089 -66.725594 -34.476875 7038307
-158.68611 -66.637901 -35.387207 8484979
-159.46187 -66.565331 -36.367142 10654859
-159.03983 -66.483261 -37.279808 8550768
-147.6152 -65.298088 40.585472 7893352
-147.9709 -65.757553 39.870575 9537667
-148.62257 -65.811859 39.020866 7498601
-159.72462 -66.392982 -38.456223 10261124
-159.28899 -66.310875 -39.367554 8616815
-159.96471 -66.21933 -40.557922 7038307
-159.60583 -66.153595 -41.286297 7827303
-160.27405 -66.06076 -42.490147 7169629
-159.9048 -65.994965 -43.217697 8682867
-160.5656 -65.900948 -44.435173 8682867
-160.18631 -65.835037 -45.162163 8946039
-160.74228 -65.723244 -46.574936 8288109
-160.35217 -65.657379 -47.300468 8288109
-161.09526 -65.577324 -48.364029 8090470
-160.67532 -65.503113 -49.082962 8813936
-147.78323 -64.642029 40.757973 7893871
-148.29204 -64.841049 40.00304 9143422
-148.67627 -65.150284 39.340183 8288371
-161.23413 -65.37368 -50.316658 7104350
-160.77264 -65.286621 -51.024124 8092019
-161.43953 -65.177536 -52.092533 9538435
-161.4433 -65.066696 -53.169949 7301986
-161.47963 -64.972282 -54.260761 7169885
-162.24603 -64.902657 -55.38913 8617331
-161.79752 -64.831879 -56.107635 9209985
-162.44588 -64.743103 -57.430084 7039331
-161.98671 -64.672195 -58.147156 13551549
-162.74344 -64.599869 -59.304768 8092019
-162.27409 -64.528687 -60.020805 9933707
-147.68614 -63.642601 41.463768 10394002
-148.20068 -63.769508 40.743118 8025200
-148.58562 -64.075233 40.080872 8288371
-162.90742 -64.43718 -61.372124 11906725
-162.54724 -64.383751 -61.90797 10262415
-163.17406 -64.290909 -63.273804 10262415
-162.80617 -64.237213 -63.808685 8880761
-163.42593 -64.143074 -65.188812 11511449
-162.92506 -64.071381 -65.900673 13550517
-163.66368 -63.993717 -67.117737 9933193
-163.15237 -63.921803 -67.828194 8486262
-163.88663 -63.842838 -69.060356 9143935
-164.09488 -63.690445 -71.016708 9340284
-164.28764 -63.536312 -72.98658 10129289
-147.49239 -62.348038 42.462704 9736073
-147.79466 -62.783546 41.828533 8683386
-148.38785 -62.840096 41.049267 7038307
-164.6713 -63.195854 -74.108917 8681843
-164.60004 -62.836315 -74.952644 9338999
-164.53114 -62.50909 -75.720207 9207155
-147.53967 -61.696148 42.782944 8024428
-148.198 -61.802856 41.892548 8486006
-165.03891 -61.846973 -75.233475 9733499
-164.66145 -61.842991 -76.021278 10259843
-147.27361 -60.271233 44.323036 7038307
-147.5004 -60.577984 43.682274 7038307
-147.8295 -60.89381 42.942486 7038307
-148.22618 -61.068115 42.285065 7038307
-165.05173 -60.955158 -75.961494 10259843
-164.67326 -60.952084 -76.750488 9141362
-147.29474 -59.392975 45.801758 10590352
-147.39694 -59.800926 44.746399 11708837
-147.97658 -59.934341 43.85434 7038307
-165.26805 -60.320038 -76.302956 10786187
-165.04054 -60.159466 -77.067535 10457222
-165.07327 -59.738235 -77.90786 9799292
-164.87843 -59.555656 -78.789085 11378324
-144.2149 -58.622147 65.23275 9208435
-144.75768 -58.716869 64.640244 9734783
-145.2038 -58.838947 63.68969 9932679
-144.55969 -58.936634 62.06263 8486262
-144.78288 -58.937794 61.539845 7039331
-145.15063 -58.939709 60.666832 7563874
-145.58517 -58.942017 59.616417 9735812
-145.94168 -58.943932 58.738724 9208699
-145.47008 -58.946991 56.724678 10589580
-145.8761 -58.949268 55.672035 8287085
-146.2746 -58.951546 54.616432 8747891
-146.60095 -58.953438 53.734718 8089963
-146.79436 -58.954575 53.204704 8616301
-146.13914 -58.956757 51.577641 8089958
-146.44695 -58.95863 50.696625 7564131
-146.80951 -58.960873 49.637131 7565675
-146.93394 -59.031982 48.630108 9473412
-147.09027 -59.113708 47.844742 8353904
-147.32918 -59.24128 46.669899 9011320
-165.58672 -59.309994 -79.127449 10524300
-165.19958 -59.309391 -79.921959 6512211
-165.74713 -59.122231 -81.917114 8617329
-165.54309 -58.939938 -82.810669 9209208
-144.53004 -57.648476 65.44265 9274492
-144.97035 -57.969212 64.817352 9669251
-165.86176 -58.172215 -82.97081 8090219
-165.52521 -57.944313 -83.801704 6511954
-144.18123 -56.464699 66.191246 7564643
-144.52663 -56.900875 65.78936 8222317
-166.15681 -57.269569 -83.11937 5919050
-165.81956 -57.041813 -83.951614 6248528
-165.55505 -56.58934 -84.822212 6511954
-144.31294 -55.691498 66.446289 8748404
-144.86914 -56.061222 65.943718 9340286
-166.23186 -55.988392 -83.99398 6116945
-165.87856 -55.912033 -84.736679 5854286
-143.96796 -54.418293 67.211723 9339769
-144.48714 -54.793518 66.729469 9208183
-166.40881 -55.235027 -84.251846 5393738
-166.17274 -55.008297 -84.887901 5591116
-144.21906 -53.603729 67.411362 9536891
-144.56001 -53.922119 67.0634 10260100
-166.40814 -54.179302 -85.09317 6248789
-143.93692 -52.557747 68.039391 8089963
-144.30763 -52.769665 67.719406 8550511
-166.58446 -53.425243 -85.352806 5393738
-144.0063 -51.691044 68.373413 8484464
-144.6053 -51.868042 67.928223 7563619
-143.6145 -50.443943 69.156212 9536894
-144.17485 -50.797321 68.658203 11246997
-143.90816 -49.544891 69.366501 8089963
-144.30019 -50.028278 68.915405 10983825
-143.64661 -48.407642 70.021507 9209467
-143.99158 -48.715515 69.675629 8418927
-143.77304 -47.696526 70.252846 7959918
-144.23662 -47.902111 69.878532 8681584
-143.30972 -46.313721 71.138618 7565160
-143.78249 -46.802155 70.635735 7630953
-143.69853 -45.580791 71.329803 7433573
-144.00517 -46.02663 70.835823 7565160
-142.9774 -44.340466 73.128387 8814201
-143.4463 -44.645569 72.354721 7038307
-143.76138 -45.011436 71.792076 7038557
-142.04616 -43.204617 82.877373 6511954
-142.21564 -43.618744 82.427322 7563876
-142.16307 -43.900131 81.348602 7564386
-142.65018 -43.902149 80.491074 7366496
-142.57056 -43.907673 77.306549 7367006
-143.03365 -43.909672 76.44677 7235421
-143.49127 -43.911671 75.584084 8156523
-142.97028 -44.045444 74.213585 8024683
-143.675 -44.127033 73.484535 8222065
-141.93416 -42.641502 83.192802 6775125
-142.55405 -42.863628 82.713333 7563619
-141.52649 -41.493187 83.946671 6511954
-142.1465 -41.712006 83.468468 7630176
-141.79784 -40.572216 84.182167 7235420
-142.1044 -40.953751 83.826202 8287592
-141.5079 -39.443363 84.854904 9142907
-141.86079 -39.73312 84.510429 8484974
-141.60876 -38.63699 85.145424 12103847
-142.15739 -38.703712 84.777847 10788241
-141.69759 -37.711899 85.495354 11906722
-141.59265 -36.670601 86.015671 9538688
-142.06349 -36.847542 85.64782 9210491
-141.09071 -35.306683 86.921852 7564643
-141.57849 -35.768948 86.418854 8156780
-141.20207 -34.63773 87.145317 8419696
-141.76697 -34.834557 86.710571 9011577
-140.98654 -33.457634 87.793068 7959401
-141.52626 -33.775986 87.320869 8156780
-141.16629 -32.590485 88.060188 9799808
-141.73311 -32.78344 87.625908 10129539
-141.31006 -31.599176 88.403671 9800064
-141.8439 -32.111622 87.850403 10853004
-141.02097 -30.569065 89.132797 9142392
-141.52556 -30.852177 88.596291 8089963
-140.5641 -29.234587 91.083977 9931910
-141.02232 -29.559294 90.180969 8616307
-141.38901 -29.952761 89.459297 9142392
-139.1317 -28.212561 100.74908 9536635
-139.67227 -28.467739 100.37389 9668735
-139.49141 -28.868034 97.969749 7959144
-139.96156 -28.869711 97.296638 7959144
-140.54524 -28.871805 96.452339 8682867
-140.55202 -28.91633 92.281769 9077114
-141.19269 -28.958199 91.732567 10853012
-139.3739 -27.497559 100.92246 8814197
-139.8808 -27.854343 100.52225 9340027
-139.57159 -26.707281 101.14914 9274493
-139.07942 -25.582872 101.85818 9471871
-139.65697 -25.731365 101.50837 9471871
-139.39703 -24.701197 102.06253 8814197
-139.02036 -23.578911 102.71295 5920074
-139.49707 -23.717241 102.41778 8222316
-139.07837 -22.655153 103.06438 5985867
-139.70628 -22.781214 102.69872 6511954
-138.89066 -21.461388 103.6498 6511954
-139.19731 -21.797371 103.35822 6906712
-138.96114 -20.620277 103.96098 9997958
-139.50806 -20.864691 103.58703 6511954
-138.75807 -19.339289 104.58997 11511449
-139.06583 -19.674149 104.2983 9011573
-138.75897 -18.703854 104.85123 7761763
-139.37627 -18.736938 104.52914 6511954
-138.89711 -17.650398 105.21604 7169884
-138.62296 -16.574619 105.79607 9472383
-139.24179 -16.603878 105.4748 12433069
-138.82971 -15.693177 106.11049 9011837
-138.42345 -14.266289 107.76427 9143167
-138.6161 -14.751577 107.02457 9866632
-139.10727 -15.119008 106.42779 10853012
-137.1844 -13.469135 116.86216 10130568
-138.40338 -13.890276 109.09252 9340027
-137.25697 -12.679681 117.15038 10591117
-136.9924 -11.74617 117.66561 7302237
-137.5544 -11.983545 117.28823 6512978
-137.11597 -10.645805 118.05619 7433568
-136.81953 -9.5319061 118.66146 9011832
-137.45006 -9.546977 118.34124 9735558
-136.97348 -8.6039991 118.96603 10130313
-136.57814 -7.5291409 119.60452 11183001
-136.98048 -7.8334665 119.27924 11183001
-136.77451 -6.5778384 119.89884 10130313
-137.34468 -7.0978971 119.40107 9932934
-136.61427 -5.2989869 120.50544 9932678
-136.80679 -5.5998077 120.28579 11380380
-136.60413 -4.6268783 120.78748 7958632
-137.17166 -4.8583355 120.4099 7893352
-136.30461 -3.5016844 121.40003 7037274
-136.73232 -3.7753837 121.07458 9669251
-136.43016 -2.5124052 121.74525 7169892
-136.92978 -2.8319461 121.36512 9866630
-136.12738 -1.2468035 122.41732 10262156
-136.55624 -1.5200051 122.09143 7630442
-136.44682 -0.45538247 122.70243 8880506
-136.68642 -0.79634798 122.32494 7038307
-136.1449 0.45492542 123.62002 10261128
-136.57449 0.11246051 123.11387 9143678
-136.11861 1.0316348 125.09891 9537150
-149.75089 -72.313828 33.712044 8946043
-149.93706 -72.559158 32.996323 9341059
-150.26622 -72.625092 32.121372 9341059
-150.4931 -72.626534 31.034473 8814715
-150.60709 -72.594383 30.113558 8288371
-151.11685 -72.523483 29.270041 8288371
-151.21155 -72.471703 28.156134 7564651
-151.27623 -72.424644 27.226511 7564651
-151.25589 -72.339951 26.283417 7169890
-149.54123 -71.386131 34.610569 9143419
-149.92082 -71.720642 33.938679 9209213
-150.48206 -71.893646 33.114838 8880509
-150.67485 -72.161865 32.587566 9341059
-151.24411 -72.247856 25.156572 7564386
-151.23149 -72.159393 24.032545 7564386
-151.21553 -72.085953 23.097086 9012606
-151.89407 -72.003998 22.358423 10196364
-152.09047 -71.903374 21.172512 9275777
-152.05676 -71.830383 20.234921 9736329
-152.01762 -71.757729 19.298677 9011579
-151.96404 -71.670853 18.176847 9142908
-152.60796 -71.573509 17.228697 10195081
-152.77827 -71.488106 16.223949 7958888
-152.71527 -71.416298 15.287715 7564394
-152.64754 -71.344673 14.352807 10261391
-149.60347 -70.710396 34.927284 9472640
-150.25739 -70.788925 34.060616 9011321
-150.60974 -71.278702 33.332077 9341059
-152.60442 -71.301903 13.792537 11905701
-153.02737 -71.246109 13.272896 9142909
-153.41498 -71.161743 12.376705 8747893
-153.31174 -71.076546 11.253674 11379356
-153.2205 -71.005913 10.319551 10392461
-153.59764 -70.923424 9.4154797 8682355
-153.94887 -70.827591 8.3212366 8419439
-153.82225 -70.745781 7.1998534 9866373
-153.7114 -70.677864 6.2670588 10853012
-154.31464 -70.59507 5.4536395 7827302
-154.39098 -70.499825 4.246736 7695972
-154.26248 -70.432549 3.3134916 8617330
-154.15611 -70.378937 2.5681455 11905180
-149.39052 -69.82518 35.711826 8814457
-149.92412 -69.766586 35.076332 8682871
-150.3828 -69.902939 34.420914 8814457
-155.04866 -70.321213 2.209501 8617080
-154.9361 -70.267616 1.4612501 9143167
-154.79077 -70.200844 0.52765054 9734528
-154.9268 -70.110275 -0.59234077 9339771
-155.40338 -70.02227 -1.5293906 8616307
-155.24046 -69.956093 -2.4628756 9142907
-155.3528 -69.864059 -3.5885851 8089963
-155.76553 -69.75399 -4.5361161 11380380
-155.51691 -69.658012 -5.4664807 11050385
-155.96602 -69.531067 -6.5174565 8682099
-155.92168 -69.418602 -7.5503831 8089963
-149.58847 -68.752312 36.090267 8880246
-150.19041 -68.764648 35.327591 9011579
-156.14238 -69.308105 -8.5044632 9537667
-156.3557 -69.197235 -9.4603157 10262159
-156.28876 -69.082733 -10.496298 8552055
-156.70168 -68.951851 -11.566811 9012347
-156.40662 -68.855583 -12.492716 10062979
-157.08333 -68.724991 -13.499113 10063494
-156.71417 -68.610039 -14.609163 9208954
-157.42209 -68.496071 -15.631905 9275261
-157.14299 -68.418564 -16.560486 8880246
-149.07707 -67.377281 37.535545 8814451
-149.42793 -67.779999 36.859962 8814451
-150.03427 -67.85907 36.052685 8551539
-150.30353 -68.150871 35.544189 9734788
-157.37929 -68.334595 -17.544971 9471871
-157.60786 -68.250542 -18.531227 9011320
-157.31131 -68.173195 -19.457684 8814712
-158.11389 -68.096916 -20.330563 10262415
-157.80511 -68.019585 -21.257652 8618105
-158.47659 -67.911095 -22.515182 10261124
-158.21873 -67.849335 -23.256676 8880504
-158.41907 -67.76371 -24.26223 9077628
-158.6116 -67.678032 -25.26943 7564394
-158.27264 -67.601021 -26.19383 8484979
-158.98357 -67.505585 -27.295818 8945272
-158.63165 -67.428665 -28.219948 8813686
-149.25027 -66.714966 37.705238 11182484
-149.78865 -66.773674 36.994785 10327690
-150.14601 -67.247025 36.269794 8814451
-159.28386 -67.310867 -29.326302 9932423
-158.85947 -67.208847 -30.238594 8879991
-159.47664 -67.079002 -31.352043 9340798
-159.56566 -66.962593 -32.369492 8090220
-159.64677 -66.846153 -33.387329 7038307
-160.04471 -66.680611 -35.08313 8748150
-159.713 -66.614624 -35.817841 9931651
-160.32645 -66.508385 -37.173767 8550770
-159.9838 -66.44239 -37.907589 8813936
-148.98656 -65.653915 38.656254 7038307
-149.44557 -65.775948 38.007923 8091505
-150.0322 -65.79171 37.260845 9012605
-160.93677 -66.400993 -38.542629 7367005
-160.58557 -66.334831 -39.277367 7367005
-160.23201 -66.268745 -40.010155 7038307
-161.00327 -66.192947 -41.027172 8090993
-160.54883 -66.110229 -41.942665 10261903
-161.22227 -66.016693 -43.156841 10985881
-160.84824 -65.950432 -43.888374 8682867
-161.51414 -65.855644 -45.116364 10064778
-161.12962 -65.789375 -45.846886 9209467
-161.78781 -65.693275 -47.088623 7959144
-161.86957 -65.603188 -48.172249 9537402
-161.9203 -65.50399 -49.249535 8287849
-148.7415 -64.324753 39.739365 8288371
-149.1003 -64.785683 39.019447 8419957
-149.75642 -64.840469 38.162003 9209727
-162.60733 -65.396385 -50.315319 7564651
-162.14183 -65.308617 -51.028358 8485749
-162.7032 -65.176796 -52.283577 9735812
-162.24458 -65.095833 -52.999916 8090987
-163.02377 -65.026833 -54.124428 8156787
-162.58037 -64.955795 -54.848171 9143675
-163.24292 -64.867661 -56.168285 9209985
-162.90224 -64.814255 -56.710091 9209985
-163.44255 -64.706902 -58.225109 11709860
-163.0939 -64.653275 -58.765907 8092019
-163.74155 -64.562439 -60.114986 9868171
-163.26575 -64.490807 -60.834473 10789015
-148.90973 -63.666946 39.911015 7433064
-149.45384 -63.784451 39.158005 7893614
-149.80933 -64.176971 38.481911 10854036
-164.02629 -64.416435 -62.018677 9340027
-163.54022 -64.344635 -62.73695 8156783
-164.17265 -64.250931 -64.115578 8223089
-164.42603 -64.10183 -66.046539 10195591
-164.66479 -63.951202 -67.991447 8946812
-164.88879 -63.799084 -69.950104 7039331
-165.37425 -63.618282 -71.097816 10261132
-165.00296 -63.60891 -71.881828 12432812
-148.81059 -62.664558 40.619709 9209470
-149.32907 -62.792236 39.892998 8617333
-149.79103 -62.907204 39.244793 7038307
-165.60246 -63.338158 -72.142578 13551549
-165.46077 -63.073101 -72.952103 10393744
-165.32593 -62.687687 -73.830223 7959662
-148.61409 -61.36639 41.623192 10263180
-148.91919 -61.803371 40.984825 8617847
-149.51729 -61.860638 40.198921 7630435
-165.69865 -61.85717 -73.853905 8815484
-165.32178 -61.850922 -74.64238 9011063
-148.34229 -60.496494 42.703667 7038307
-148.80855 -60.664303 41.933823 7169893
-149.29059 -60.840595 41.165928 7169893
-165.90196 -60.966614 -74.185081 9537923
-165.54726 -61.005779 -74.889046 9997702
-165.40944 -60.736103 -75.403618 10261132
-148.12105 -59.340939 44.965336 10130063
-148.51106 -59.537716 43.836952 7959152
-148.81769 -59.82053 42.949894 8091250
-149.05424 -60.129784 42.260437 8091248
-165.9857 -60.192291 -75.024162 9537923
-165.77335 -60.010387 -75.859718 9537666
-165.73502 -59.679825 -76.680626 10260100
-165.54572 -59.557358 -77.401062 11378324
-145.49387 -58.575775 63.503006 10787988
-145.89639 -58.660976 62.635513 11577760
-146.21028 -58.732471 61.868927 11577503
-146.40082 -58.940823 60.775505 11051159
-146.76428 -58.942757 59.89291 9406334
-146.29248 -58.94585 57.858772 8682099
-146.7068 -58.948143 56.800144 8288624
-147.11339 -58.950439 55.73859 8486519
-147.44647 -58.952347 54.851776 7565675
-147.64389 -58.953499 54.318691 7565675
-146.98541 -58.955711 52.673992 8616301
-147.2998 -58.9576 51.787895 7892580
-147.60915 -58.959484 50.899998 7038302
-147.91287 -58.961369 50.010185 8486775
-148.27037 -58.963623 48.940071 9933707
-148.07037 -58.989971 47.887856 9208697
-147.93732 -59.045769 46.862198 9669250
-148.40491 -59.100674 45.833069 9077372
-148.83005 -59.162632 44.9846 8156787
-166.25674 -59.311752 -77.733368 8878706
-165.87469 -59.310394 -78.530449 9536120
-166.52289 -59.209969 -80.067299 6512211
-166.45207 -59.000206 -80.873726 6380625
-166.25421 -58.854317 -81.670403 7170141
-145.30315 -57.485367 64.601448 8682868
-145.66252 -57.782948 63.783787 8089963
-146.18271 -57.826969 62.875961 11709090
-166.88562 -58.182819 -80.985954 6512211
-166.47629 -58.177731 -81.780128 5919306
-145.17442 -56.668762 65.381805 8682868
-145.58339 -56.729073 64.668266 7893352
-146.01814 -56.844219 63.853588 7827047
-146.31093 -57.029808 63.227905 7563619
-166.83141 -57.200169 -81.872498 6313808
-166.51949 -56.89521 -82.717155 5919050
-145.36807 -55.687897 65.694946 8419696
-145.89749 -55.837738 64.774315 8945527
-146.19124 -56.213097 64.011818 9142907
-167.14294 -56.146015 -82.109818 7169117
-166.83197 -55.961937 -82.856598 6379601
-166.57062 -55.688408 -83.578789 6511445
-145.19914 -54.60857 66.3722 8747634
-145.69514 -54.802166 65.809013 7103323
-146.00861 -54.99123 65.190521 8287341
-167.14552 -55.088421 -82.946404 5919564
-166.79211 -55.010509 -83.690628 6709082
-166.55618 -54.783012 -84.326912 8089963
-145.37637 -53.729599 66.645218 9799807
-145.88489 -54.178814 65.978104 9537408
-167.13475 -54.15173 -83.712471 6051407
-166.73308 -54.029144 -84.585457 7432547
-144.97144 -52.663383 67.357483 9142135
-145.56122 -52.748676 66.957932 9734014
-167.20581 -53.426876 -84.152016 8089963
-167.08719 -52.973263 -84.742035 6446165
-166.80292 -52.745419 -85.465408 6183250
-145.21918 -51.646137 67.647308 7563619
-145.69852 -52.086227 67.161491 10851980
-167.33128 -52.065254 -84.975304 6183246
-167.175 -51.758957 -85.487732 7498852
-144.92607 -50.421413 68.359749 8747635
-145.255 -50.841854 67.974846 8155754
-167.4637 -50.922935 -85.551491 9143166
-145.08606 -49.698097 68.575798 8813427
-167.63319 -50.009083 -85.893639 9143166
-144.73784 -48.606857 69.264076 11575704
-145.21918 -48.777794 68.893898 10391688
-144.78911 -47.660717 69.643776 8681584
-145.40976 -47.909309 69.154182 8681584
-144.40163 -46.50259 70.385277 6511954
-145.02237 -46.747314 69.897331 7563617
-144.31166 -45.291656 71.201057 7038557
-144.83186 -45.718437 70.539055 6643540
-144.66235 -44.243252 72.458046 7630180
-144.67455 -44.636742 71.626099 6906713
-145.11183 -45.032093 70.94445 6511954
-142.97028 -43.471024 82.190842 8616049
-143.53185 -43.688213 81.749435 10786703
-143.22812 -43.904568 79.458282 7761254
-143.70416 -43.90659 78.594536 7892840
-144.17471 -43.908604 77.727776 8616822
-144.03372 -43.91404 74.545349 8945783
-144.66811 -43.946445 73.553047 8748403
-144.23903 -44.193184 72.899193 7038307
-143.07936 -42.68906 82.465668 7958376
-143.65215 -43.016289 81.969185 9142393
-142.83823 -41.392799 83.181465 8550763
-143.24394 -41.85923 82.727196 8024423
-142.98007 -40.656799 83.415947 8682350
-142.53339 -39.776798 84.076485 9208435
-143.15622 -39.649933 83.747818 9142649
-142.80737 -38.724621 84.367828 9143163
-143.25992 -38.839329 84.038414 9142651
-142.51378 -37.720772 84.988091 10788753
-143.06625 -37.786671 84.618462 10393739
-142.62805 -36.648876 85.386551 10788753
-143.16856 -36.975792 84.910133 14076861
-142.19189 -35.427219 86.189598 10261132
-142.77054 -35.737827 85.696655 9210491
-142.53886 -34.592972 86.339012 9340797
-143.07204 -35.11335 85.782738 9210491
-142.0899 -33.571075 87.062035 8551281
-142.6442 -33.62867 86.694473 9011575
-142.52809 -32.521351 87.249062 8880245
-142.85684 -33.034245 86.822273 9406075
-142.05463 -31.517115 87.9795 9997698
-142.5311 -31.686363 87.611359 9800832
-142.10995 -30.667685 88.390938 8879477
-142.74362 -30.765671 87.929543 9011575
-141.68024 -29.310047 90.120888 8089963
-142.21049 -29.602207 89.340492 8353135
-142.6115 -30.026333 88.638153 8418927
-140.41699 -28.457371 99.971825 8484720
-140.87039 -28.631239 99.614983 8879477
-140.89299 -28.873062 95.944077 9011320
-141.35332 -28.874706 95.264206 9011320
-141.81096 -28.876417 94.582451 7037274
-141.67354 -28.990028 91.318787 10853012
-142.31528 -29.032873 90.765251 12300709
-140.62749 -27.659389 100.18777 9076855
-140.16403 -26.40263 100.97857 8090475
-140.75307 -26.717604 100.52347 9668991
-140.53595 -25.544348 101.1414 9406333
-139.9713 -24.489367 101.86282 9011576
-140.51772 -24.740177 101.48646 8419952
-140.29013 -23.545605 102.09212 8419695
-140.72778 -24.120604 101.63669 8617331
-139.84512 -22.367481 102.79968 6511954
-140.39319 -22.61504 102.42388 6511954
-139.93967 -21.667891 103.04057 6511954
-140.5806 -21.849886 102.64535 6972249
-139.71588 -20.241386 103.73985 6511954
-140.26448 -20.758904 103.25261 7103835
-139.80981 -19.539492 103.982 6511954
-140.45245 -19.717722 103.58747 7432800
-140.1571 -18.708204 104.15075 6972249
-139.67725 -17.405949 104.92685 7038307
-140.10922 -17.796886 104.54999 7630441
-139.86293 -16.633444 105.15224 7893615
-140.41592 -16.873682 104.77695 7038307
-139.78598 -15.356722 105.88409 8814715
-139.99689 -15.745703 105.51487 8419958
-139.57672 -14.307096 107.05169 10261133
-139.81187 -14.730072 106.43293 9274752
-138.34477 -13.552534 116.25006 8288115
-139.56296 -13.929771 108.3811 9274750
-138.07561 -12.588083 116.78034 9603714
-138.61436 -12.678835 116.47477 7039331
-138.22726 -11.635135 117.09631 8157295
-137.90613 -10.371584 117.7754 7564648
-138.23965 -10.786542 117.4388 7696234
-138.08266 -9.5623026 118.02 8090992
-138.64912 -9.798562 117.64081 9735558
-137.78571 -8.4437218 118.62742 9932934
-138.1075 -8.7845354 118.3271 7761770
-137.77673 -7.7750688 118.9071 9603969
-138.41216 -7.7877469 118.58591 8682867
-137.61432 -6.2088671 119.63326 8682867
-137.9512 -6.7362971 119.24837 9406847
-137.7462 -5.4939194 119.86223 9011832
-138.17419 -5.7695212 119.53587 9735812
-137.30647 -4.4109678 120.52711 7893352
-137.87602 -4.642529 120.14849 7959145
-137.50923 -3.7384171 120.7034 5920074
-138.05406 -3.819171 120.39919 6577748
-137.1322 -2.1563928 121.54281 9866630
-137.70734 -2.6767888 121.04234 9537921
-137.33517 -1.4787389 121.72108 9472386
-137.88145 -1.5571269 121.41714 8551026
-137.55316 -0.61752963 122.03032 8485491
-137.46898 0.38545787 122.90319 9275261
-136.9785 1.0321467 124.67751 10984849
-137.62549 1.0325638 124.36052 8090987
-151.3927 -72.360603 31.219271 7169893
-151.70853 -72.407654 30.143314 7827821
-151.94786 -72.438202 29.24087 10854036
-152.13608 -72.447144 28.328186 11183004
-152.18549 -72.377541 27.20097 8748923
-152.1843 -72.316971 26.444611 7564651
-150.83948 -71.350113 33.00209 7564651
-151.14757 -71.823761 32.26049 8485238
-151.71312 -71.94014 31.379761 8222065
-152.18304 -72.287231 26.066776 6511954
-152.1778 -72.227654 25.311857 7038042
-152.164 -72.138664 24.180693 9143162
-152.45914 -72.052765 23.224058 9604485
-153.0639 -71.969513 22.436808 9933193
-153.02869 -71.881081 21.303051 8683898
-152.99384 -71.807686 20.359556 8092019
-152.95343 -71.734589 19.417425 10262416
-153.12918 -71.633926 18.22225 9734787
-153.78929 -71.55043 17.456202 8089963
-153.73111 -71.477821 16.51247 8616306
-153.65469 -71.391075 15.381788 8813686
-153.59995 -71.333466 14.629058 11905701
-150.68877 -70.430176 33.72884 10062979
-150.95676 -70.7304 33.216976 10062979
-151.5668 -70.825699 32.395584 9339258
-153.55637 -71.290367 14.065139 11050650
-154.13135 -71.220261 13.431343 9997960
-154.35922 -71.134933 12.452911 9537152
-154.25415 -71.049278 11.322914 9142651
-154.16229 -70.97863 10.383027 7235421
-154.70157 -70.891289 9.4830379 9866373
-154.89738 -70.799438 8.372592 9405822
-154.79103 -70.730789 7.4320731 9735043
-154.67924 -70.662521 6.4932647 10129545
-155.51596 -70.564934 5.5903373 5919050
-155.3925 -70.496849 4.6490378 6971994
-155.23795 -70.415535 3.5216444 7695972
-155.13112 -70.361549 2.7713506 8617080
-150.75099 -69.75296 34.046417 9668737
-151.41074 -69.832558 33.171608 10720651
-156.03334 -70.303429 2.4115598 8617080
-155.91983 -70.249466 1.6585596 7893615
-155.744 -70.168846 0.53098649 9931909
-155.59224 -70.102028 -0.40672714 9207670
-156.3943 -70.002441 -1.3505557 8615790
-156.19725 -69.922554 -2.4779265 8551029
-156.02779 -69.856392 -3.4153903 8616307
-156.79057 -69.744743 -4.3767571 9471872
-156.49074 -69.62944 -5.5005364 10195078
-157.21584 -69.503906 -6.4743047 9340027
-156.95212 -69.407722 -7.4105 9011323
-150.53552 -68.865311 34.835533 7894126
-151.07341 -68.807198 34.193733 8025455
-151.53584 -68.944298 33.532295 10062979
-157.1763 -69.29641 -8.370821 10985628
-157.39183 -69.184601 -9.3324795 12829111
-157.10764 -69.087288 -10.265692 8288627
-157.80275 -68.95697 -11.265722 8156784
-157.4462 -68.840645 -12.384605 10130569
-158.13159 -68.709129 -13.397198 9209467
-157.82179 -68.612617 -14.328764 7893352
-158.05611 -68.521172 -15.310986 9604226
-158.30011 -68.43708 -16.296652 9143419
-150.37628 -67.311752 35.942402 7039331
-150.73381 -67.789871 35.21397 7762540
-151.34001 -67.802567 34.443878 8419697
-158.01524 -68.359154 -17.22978 9932678
-158.7756 -68.267891 -18.280603 8353391
-158.41747 -68.174446 -19.400415 10130572
-159.1689 -68.081963 -20.46594 10262415
-158.85689 -68.004189 -21.399069 10788502
-159.07022 -67.918526 -22.40452 9143417
-159.34113 -67.848351 -23.225386 7039331
-159.07858 -67.78624 -23.970392 8617331
-159.80923 -67.691345 -25.065319 7893615
-159.3998 -67.598251 -26.182791 7827565
-160.12105 -67.502174 -27.292307 8089963
-159.83769 -67.440193 -28.037113 9537409
-150.21658 -66.410706 36.668308 9736070
-150.48737 -66.69957 36.159241 8091245
-151.0654 -66.861664 35.33749 7959144
-151.45291 -67.187027 34.660286 8813939
-159.62073 -67.3927 -28.594048 9537409
-160.42404 -67.304298 -29.336288 8616563
-159.99577 -67.201645 -30.254757 8419440
-160.62206 -67.070847 -31.376081 8419440
-160.26974 -66.988861 -32.109718 7038307
-160.8876 -66.856903 -33.242165 9143164
-160.45567 -66.763275 -34.16188 8617078
-161.25424 -66.690697 -35.144428 7958120
-160.83525 -66.607666 -36.068977 9537151
-161.54361 -66.517258 -37.250656 6511954
-161.19783 -66.450745 -37.989742 8813936
-150.38988 -65.746529 36.8372 9736070
-150.93234 -65.805717 36.120121 9472126
-151.29291 -66.280563 35.389771 11378324
-161.89899 -66.359131 -39.185242 5920074
-161.54274 -66.292572 -39.92366 6643546
-162.14546 -66.182945 -41.317963 11906725
-161.77818 -66.116302 -42.055202 8946558
-162.46291 -66.022026 -43.278931 8815484
-161.99059 -65.938713 -44.199486 11906982
-162.76268 -65.859825 -45.253441 9735297
-162.37474 -65.793121 -45.989281 8681835
-163.04434 -65.696266 -47.241001 8681835
-162.64626 -65.629517 -47.976196 10261124
-163.30104 -65.52861 -49.2397 10261124
-163.07039 -65.484406 -49.599045 10261124
-150.19717 -64.489807 37.811733 8618104
-150.58556 -64.805038 37.139435 9341569
-151.12483 -64.736183 36.501102 8091761
-162.83911 -65.440399 -49.95755 7367005
-163.41193 -65.308861 -51.211468 8288371
-163.05836 -65.242775 -51.74852 9735812
-163.68367 -65.13369 -53.033401 9406851
-163.35466 -65.080208 -53.579823 8814715
-164.03128 -64.992699 -54.897324 8156787
-163.58177 -64.921196 -55.624626 8354422
-164.2502 -64.832245 -56.956909 8024939
-163.78989 -64.76049 -57.682846 13551549
-164.45006 -64.670166 -59.03017 9868171
-164.09666 -64.616241 -59.57354 9868171
-164.75049 -64.524483 -60.935471 10524815
-164.38925 -64.470398 -61.477982 11181972
-149.87466 -63.349434 38.882011 7038307
-150.23163 -63.742527 38.203747 8814714
-150.8985 -63.867504 37.291946 9538691
-165.03659 -64.377258 -62.854721 8418927
-164.6675 -64.323082 -63.396393 9340027
-165.18262 -64.210381 -64.968307 10262415
-165.43723 -64.060081 -66.915298 8091248
-165.98344 -63.898174 -68.068314 9143422
-165.77574 -63.821007 -68.917549 9012092
-166.01283 -63.633968 -69.720329 8617335
-165.64824 -63.62463 -70.507698 10261132
-150.0439 -62.690105 39.053127 7630435
-150.5927 -62.808456 38.293671 7498849
-150.95158 -63.202393 37.612621 7564643
-166.28748 -63.270824 -70.07135 9143422
-166.22533 -63.094166 -70.753769 10261132
-165.99408 -62.992428 -71.759621 11380382
-166.02686 -62.530945 -72.566429 10525587
-149.9435 -61.685097 39.764984 6709333
-150.4664 -61.813568 39.032211 8288365
-150.93233 -61.929321 38.378494 7564643
-166.46654 -62.467209 -71.093819 10261132
-166.48904 -61.96624 -71.768669 7565675
-166.18698 -61.910336 -72.78006 7960176
-166.05556 -61.640461 -73.295486 9538950
-149.73567 -60.539791 40.900337 7038307
-150.09827 -60.840088 40.142921 6577747
-150.68336 -60.890785 39.3452 7367263
-166.70171 -61.184212 -72.146873 7565675
-166.56204 -60.979992 -72.802055 9012863
-166.18497 -60.971912 -73.592491 9670022
-149.65981 -59.364044 42.983212 8617592
-149.95372 -59.575321 41.994576 8683640
-150.1013 -59.938976 41.180023 7038302
-150.49025 -60.182358 40.392258 7367263
-166.76436 -60.337109 -73.130409 9538950
-166.62444 -60.133492 -73.787926 9866631
-166.59525 -59.814743 -74.576324 8157812
-166.39476 -59.562592 -75.611916 9537923
-146.77492 -58.285095 61.551918 10853780
-147.0202 -58.551968 60.948639 11248538
-147.56961 -58.565552 60.013382 10261899
-147.31282 -58.908905 59.084396 10130569
-147.54454 -58.947002 57.943367 9340797
-147.95944 -58.949318 56.875694 10525329
-148.29935 -58.951248 55.98378 7565675
-148.50078 -58.9524 55.447685 7565675
-147.83902 -58.954636 53.784935 8089963
-148.16002 -58.956543 52.89362 8089963
-148.47603 -58.958447 52.000614 10261643
-148.78625 -58.960346 51.105537 9933450
-149.15173 -58.962627 50.029114 8025969
-149.39128 -58.964142 49.310143 10459537
-148.67786 -58.966255 47.688454 11380377
-148.90593 -58.967758 46.971657 15722454
-149.18594 -58.969631 46.074112 10064263
-149.55508 -58.987598 45.006969 7563619
-149.54103 -59.154697 44.139996 8616822
-167.10976 -59.316956 -75.936699 9866115
-166.73183 -59.314171 -76.73587 9010550
-167.56749 -59.207161 -77.854546 6511962
-167.31396 -59.125645 -78.718666 7761511
-167.15929 -58.954697 -79.631348 8419952
-146.5621 -57.45575 62.501244 12433069
-146.87924 -57.686813 61.802425 10393485
-147.42981 -57.697872 60.867012 11248538
-147.6754 -57.965652 60.262482 11577503
-167.55789 -58.118313 -79.739548 9275261
-167.27608 -57.871246 -80.480156 7893608
-146.67642 -56.606556 62.913765 8419183
-147.21271 -56.704216 61.940544 9932420
-147.57231 -57.007641 61.118668 12498347
-167.8717 -57.064209 -79.972679 8419696
-167.48668 -56.982136 -80.781067 6511699
-167.30275 -56.601398 -81.439049 6840407
-146.26276 -55.41288 64.461639 10853012
-146.55389 -55.723999 63.749279 9866882
-147.06425 -55.679729 62.920837 11642778
-147.39548 -55.775681 62.294243 10064517
-167.83383 -55.92799 -80.949753 6511954
-167.47865 -55.877876 -81.675148 8222058
-146.37598 -54.683601 64.790756 9537408
-146.91336 -54.65818 63.90329 10722190
-147.27576 -54.95673 63.079758 11774364
-167.82269 -55.01984 -81.693802 8682608
-167.46973 -54.940201 -82.438499 7235420
-145.95348 -53.380882 66.431259 9537408
-146.24739 -53.688095 65.717072 8287341
-146.62953 -53.830654 64.971405 7826790
-147.09328 -53.731602 64.260674 9208698
-168.01692 -54.114052 -82.039658 8682608
-167.70731 -54.110764 -82.639915 6775126
-167.47157 -53.881912 -83.277046 5393730
-146.06964 -52.709202 66.624199 9734014
-146.61212 -52.673515 65.825615 8287341
-146.96959 -52.916878 65.049706 7432032
-168.00412 -53.2057 -82.787102 8287851
-167.72998 -52.911606 -83.550346 7038041
-167.50159 -52.521442 -84.301674 7695971
-146.00952 -51.320301 67.303062 9734014
-146.27856 -51.780903 66.879501 9010549
-146.82433 -51.767548 66.113777 8616307
-168.0816 -51.889133 -83.683403 7695971
-167.67148 -51.763771 -84.556847 5920077
-146.0593 -50.709469 67.537933 9076855
-146.76064 -50.759251 66.935143 9865857
-168.35361 -51.161903 -83.718452 7695971
-167.99684 -50.92831 -84.55262 7235683
-146.19844 -49.754726 67.867302 10720651
-168.23943 -50.129414 -84.675552 8616823
-167.94122 -49.935417 -85.371956 9472130
-145.78374 -48.697338 68.581795 8089704
-146.38014 -48.773834 68.181946 8813939
-168.48224 -49.330036 -84.798584 9143166
-168.12363 -49.097355 -85.635399 8814201
-146.09846 -47.740742 68.804092 6642516
-168.44893 -48.259903 -85.631828 7696236
