# .PCD v0.7 - Point Cloud Data file format
VERSION 0.7
FIELDS x y z rgb
SIZE 4 4 4 4
TYPE F F F U
COUNT 1 1 1 1
WIDTH 1194
HEIGHT 1
VIEWPOINT 0 0 0 1 0 0 0
POINTS 1194
DATA ascii
-105.62701 -22.467987 119.25175 10524303
-106.10703 -22.747835 118.9268 10195596
-105.07137 -21.286499 119.97219 9405566
-105.51974 -21.691938 119.61077 9340286
-105.14198 -20.46895 120.26905 9340542
-105.76451 -20.73702 119.8857 9012091
-104.59854 -19.528612 120.88725 9077370
-105.24537 -19.593168 120.57484 8880247
-104.20807 -18.158693 121.6102 9735555
-104.8414 -18.569729 121.16462 9867398
-105.47481 -18.982014 120.7185 9735555
-104.35301 -17.581924 121.77749 9472383
-105.00177 -17.643833 121.4652 9275004
-104.49488 -16.52821 122.1376 9275005
-105.04778 -17.022945 121.69413 8682867
-104.22007 -15.444165 122.80694 8814198
-104.59531 -15.710618 122.4515 9735812
-103.69803 -14.441007 123.87206 9077882
-104.2299 -14.810438 123.31741 9077626
-99.756271 -13.309184 134.3383 9734787
-100.463 -13.527069 133.93874 8090731
-100.71399 -13.764507 130.96007 8682867
-101.34319 -13.766126 130.47336 8814715
-101.97043 -13.767746 129.98402 8814715
-102.94234 -13.941997 125.52534 9143675
-103.47603 -13.954002 125.25057 10261899
-99.326157 -12.420239 134.88359 9603202
-99.915649 -12.601186 134.55055 8682612
-99.412369 -11.471317 135.22446 9406077
-100.07535 -11.891439 134.76343 9209467
-99.025383 -10.37563 135.83319 8617075
-99.616974 -10.555707 135.49965 10787727
-99.06562 -9.6254721 136.11499 9209212
-99.776497 -9.8414316 135.71445 11708572
-98.652626 -8.4902248 136.75107 9143934
-99.199188 -8.7375841 136.41057 9670019
-98.761475 -7.5649972 137.07249 9933191
-98.264969 -6.3609748 137.7733 10589577
-98.894821 -6.6711378 137.37073 8880762
-97.740135 -5.2784724 138.43909 8088931
-98.455521 -5.4922905 138.03735 9339254
-97.875717 -4.6559553 138.62898 8088931
-98.447067 -4.6605039 138.37482 8088931
-97.430115 -3.1931133 139.41275 7038298
-98.102531 -3.6150038 138.9464 8154981
-97.588371 -2.4611232 139.63646 7433055
-98.187454 -2.6389134 139.30054 8551026
-97.072449 -1.3036317 140.32866 8813936
-97.733215 -1.569054 139.93036 8090730
-97.339874 -0.35558718 140.71179 8616818
-97.782715 -0.67368698 140.26772 8419696
-96.944397 0.49343395 141.5896 9537661
-97.37986 0.17382069 141.13075 8813936
-96.033554 1.0320525 143.1969 9208435
-96.613464 1.0316174 142.94275 7958888
-130.95178 -74.30806 55.119186 5919050
-131.46246 -74.832031 54.544621 7695462
-131.91443 -75.158745 53.66539 9471870
-132.24129 -75.128517 52.688061 8551027
-132.85834 -75.042023 51.824459 7697004
-133.10298 -74.973343 50.814892 7697004
-133.34306 -74.906479 49.805645 9867399
-133.57629 -74.839912 48.79586 7762021
-134.17868 -74.758591 47.919601 8156779
-134.56848 -74.690414 47.055603 6182734
-134.95279 -74.622498 46.189339 6972506
-135.12581 -74.567955 45.341469 7696485
-135.32726 -74.50293 44.323742 9209469
-135.90227 -74.422104 43.426983 8814201
-136.26505 -74.354881 42.54974 10787730
-136.65182 -74.277161 41.499577 7563619
-129.96565 -73.641121 57.799603 7563619
-130.56374 -73.671173 57.295666 7168605
-130.66489 -73.869095 56.391376 7629412
-131.27153 -73.952148 55.699886 6642517
-131.68797 -74.165451 54.869144 6248015
-136.826 -74.213341 40.474983 6642517
-137.36781 -74.127655 39.557777 7629925
-137.7809 -73.976723 38.600494 6511954
-137.86302 -73.875648 37.551201 7169884
-138.51274 -73.79187 37.011932 8353902
-138.79588 -73.692833 36.014969 7761253
-139.0873 -73.590317 34.930237 7629666
-139.55453 -73.504982 34.155312 8747888
-139.83527 -73.405159 33.066185 6511954
-140.10402 -73.312576 32.062397 7827307
-130.1062 -72.734589 58.110027 7563619
-130.81233 -72.751877 57.67131 6510419
-140.7276 -73.262581 31.848131 9734788
-140.76677 -73.20578 31.144938 9011322
-140.82001 -73.120804 30.090982 7892842
-141.39601 -73.034973 29.383451 8089963
-141.70146 -72.949738 28.498821 8747892
-141.9416 -72.8507 27.3923 9406590
-142.57637 -72.750198 26.536455 9867141
-142.59569 -72.666458 25.475288 9867141
-143.15245 -72.579834 24.744738 8682867
-143.46761 -72.513206 23.851271 9735297
-143.73863 -72.447693 22.740988 8616306
-144.32452 -72.333336 21.854866 8089963
-129.61491 -71.636909 58.889801 7038049
-130.40211 -71.851166 58.315487 6905177
-144.26541 -72.228859 20.780596 7695720
-145.04262 -72.119453 20.179342 8222063
-145.17087 -71.996605 19.039442 9208700
-145.73935 -71.881798 18.132833 8815477
-145.69244 -71.798225 17.058851 8881270
-146.52892 -71.720474 16.44116 11643551
-146.46886 -71.637093 15.36353 9537921
-147.0654 -71.543472 14.441148 10064521
-147.20312 -71.447624 13.292321 9143422
-148.03178 -71.368057 12.648076 7564651
-147.97343 -71.312714 11.925225 9143422
-129.20178 -70.638947 59.578304 8616822
-129.9259 -70.704994 59.107262 7432807
-130.38797 -71.198082 58.6096 7168605
-147.92746 -71.271355 11.383744 10327438
-148.75197 -71.190865 10.726235 9537665
-148.66594 -71.122002 9.8205423 7563619
-149.23657 -71.026703 8.865056 7629921
-149.336 -70.932564 7.6986017 6775125
-150.15773 -70.852516 7.0154696 7893349
-150.03081 -70.772629 5.9233522 9011574
-150.84932 -70.691734 5.2275743 8682866
-150.7088 -70.612144 4.1325846 10853263
-151.49854 -70.517097 3.2410824 10129798
-151.64111 -70.423454 2.0865796 9735297
-152.15425 -70.35508 1.4216511 8616560
-129.34393 -69.678329 59.911331 7762028
-129.96317 -69.860771 59.453323 7433064
-152.07066 -70.315598 0.87141913 9734270
-152.44745 -70.260674 0.32201499 9142647
-152.76199 -70.179443 -0.596793 8419182
-153.24011 -70.096954 -1.4605281 9866885
-153.38028 -70.016304 -2.4470394 10985622
-154.14896 -69.916573 -3.3883007 8089963
-153.96916 -69.84465 -4.1264868 8089963
-154.68303 -69.721909 -5.078208 9537664
-154.91518 -69.612267 -6.020709 9932163
-155.14015 -69.502632 -6.9648771 9340027
-155.84584 -69.3778 -7.9376326 8089963
-128.87383 -68.643555 60.650146 7958889
-129.57909 -68.746651 60.173542 7169635
-155.68539 -69.320549 -8.4935598 8089963
-156.18979 -69.249466 -9.024703 9998475
-156.21626 -69.136436 -10.033198 8683384
-156.96391 -69.026482 -10.840983 8288627
-157.1628 -68.912727 -11.806911 9341311
-157.35432 -68.799065 -12.774158 10393485
-158.09801 -68.686913 -13.601756 9209467
-158.3094 -68.583412 -14.581683 8813942
-158.5471 -68.494415 -15.566405 10919829
-159.37933 -68.419456 -16.424013 10064265
-159.2645 -68.387894 -16.799974 9932419
-128.40588 -67.419777 61.4692 8287341
-129.05577 -67.65152 60.970451 8418927
-129.59271 -67.952553 60.510696 8287341
-159.09056 -68.340752 -17.363008 8682867
-159.91902 -68.264656 -18.233625 8682867
-159.67882 -68.201653 -18.985952 8617590
-160.44322 -68.108734 -20.057444 9537665
-160.66911 -68.022385 -21.069929 9736072
-160.88718 -67.93586 -22.084162 9142908
-161.64473 -67.840828 -23.181017 9142651
-161.44481 -67.793404 -23.748003 9143417
-162.26598 -67.713173 -24.667994 9602940
-162.47096 -67.625023 -25.701937 10129286
-162.66795 -67.536781 -26.737413 9602943
-163.48775 -67.454475 -27.681803 9471359
-128.59386 -66.60276 61.709522 8747892
-129.24037 -66.794449 61.230232 7826790
-163.19604 -67.390976 -28.441938 8089963
-163.94971 -67.281593 -29.387781 8090221
-164.61261 -67.148186 -30.531137 8090479
-164.34383 -67.084824 -31.095961 9142651
-165.0668 -66.977341 -32.263355 9405562
-165.83679 -66.887161 -33.452221 10260358
-165.58496 -66.835709 -34.024467 11510936
-166.43558 -66.761559 -35.035824 8813683
-166.09045 -66.692741 -35.79958 9668991
-166.84993 -66.600143 -37.016037 7827300
-167.701 -66.523842 -38.053585 8485229
-167.42918 -66.471878 -38.628452 8551280
-128.1032 -65.564308 62.461647 10656658
-128.73257 -65.733894 62.002499 9866629
-129.29228 -66.083412 61.507744 8287341
-168.18652 -66.376953 -39.871441 8682867
-167.90718 -66.324944 -40.446457 8682867
-168.65916 -66.228828 -41.703663 9670020
-169.50943 -66.149025 -42.781693 9143934
-128.23096 -64.618919 62.794674 10130315
-128.86914 -64.866379 62.296204 9011579
-127.74856 -63.615486 63.526527 10656658
-128.41721 -63.774246 63.048035 10591121
-127.9175 -62.638382 63.848137 10064264
-128.57059 -62.852821 63.354912 9670019
-127.37859 -61.553017 64.650261 8353391
-128.09102 -61.793388 64.109428 9011577
-126.96494 -60.452713 65.531143 7563619
-127.64789 -60.653526 64.961967 8353134
-128.20879 -60.920792 64.424141 10064265
-126.28941 -59.299347 67.312485 8485235
-126.92209 -59.500362 66.532982 10326919
-127.36089 -59.931564 65.761414 8616305
-122.21922 -58.491913 78.523254 8287341
-122.64965 -58.703659 78.051659 9275006
-123.04829 -58.879822 77.062668 9735558
-123.60121 -58.881973 76.171516 7696235
-123.70803 -58.883949 75.011406 10590347
-123.80595 -58.88591 73.851837 8090987
-124.24809 -58.887684 73.105026 8881018
-124.68531 -58.889462 72.3554 9736585
-125.20428 -58.891586 71.45256 9736585
-125.71668 -58.893711 70.545906 7762021
-125.94794 -58.917984 69.405556 8025193
-126.12254 -59.033951 68.397163 9932675
-126.82461 -59.134624 67.597137 9406078
-121.70815 -57.366829 79.245514 9537664
-122.31256 -57.746433 78.783607 7300446
-121.87267 -56.575382 79.489639 10261643
-122.5093 -56.736694 79.101799 11051159
-121.3339 -55.392338 80.250778 11116178
-121.9401 -55.765068 79.790855 10261642
-121.50052 -54.54147 80.518814 9011061
-122.13305 -54.758938 80.109802 8221804
-120.92783 -53.583035 81.204155 9931906
-121.56477 -53.734612 80.820244 9142390
-121.20351 -52.551437 81.491936 10392714
-121.72468 -52.946438 81.06562 8484461
-120.56217 -51.480747 82.2584 10327180
-121.17638 -51.77853 81.825386 9866628
-120.41074 -50.206493 82.86187 9011320
-120.89657 -50.665424 82.427025 8683641
-121.51809 -51.150684 81.912796 7565675
-120.33713 -49.596367 83.151497 7828590
-121.05027 -49.661976 82.764648 8881276
-119.94777 -48.450199 83.821999 8089963
-120.56419 -48.738747 83.391747 9998470
-120.01064 -47.530605 84.170799 8353135
-120.70384 -47.717308 83.74395 8945271
-119.53939 -46.527908 84.823318 9735812
-120.14338 -46.702194 84.446594 9603456
-119.11743 -45.207561 85.820778 7893614
-119.62891 -45.584904 85.263603 9341055
-120.29356 -45.903694 84.704941 10129799
-118.50053 -44.172985 87.559731 8682867
-119.06178 -44.226753 87.090965 11181718
-119.40604 -44.649635 86.190773 8090992
-119.99047 -44.984634 85.574142 8814713
-115.07562 -43.501163 97.350342 9735043
-115.32179 -43.838753 96.45388 9932166
-116.01515 -43.841011 95.618103 9866374
-116.4743 -43.842514 95.058319 10261132
-116.31026 -43.845421 93.073318 10591124
-116.64536 -43.846539 92.652489 8814715
-117.20054 -43.8484 91.948326 7038301
-117.86136 -43.850632 91.099129 9077369
-118.06518 -43.887413 88.784821 9274747
-118.77035 -43.953175 88.200745 9471869
-119.33425 -44.00634 87.731422 12431013
-114.64862 -42.680088 97.970154 9735299
-115.32854 -42.646713 97.641594 9735043
-114.12778 -41.387093 98.76429 8090987
-114.75339 -41.643986 98.343605 9208956
-115.32452 -42.083611 97.875267 10853012
-114.1765 -40.645386 99.044853 10853012
-114.85709 -40.607349 98.717865 9011833
-113.70656 -39.28912 99.839333 9405566
-114.34779 -39.729652 99.335327 9800324
-113.98012 -38.524311 100.01626 9010808
-114.6656 -38.734566 99.584656 9405566
-113.51196 -37.591549 100.63563 7564385
-114.19569 -37.659008 100.26364 9273979
-113.49641 -36.611401 101.04668 9735039
-114.18319 -36.817108 100.61626 8814195
-113.19116 -35.417973 101.69125 8682608
-113.73296 -35.667564 101.31583 8682608
-112.71522 -34.351379 102.36964 9012600
-113.2751 -34.66671 101.95807 9670016
-113.97972 -34.836506 101.53349 8813683
-112.81268 -33.540298 102.65417 9538432
-113.50188 -33.727219 102.23035 9669761
-112.93497 -32.553257 102.99866 9275261
-113.53982 -32.743404 102.61597 10261899
-112.47316 -31.574673 103.63386 10327179
-113.04995 -31.769697 103.26337 10656914
-112.12321 -30.350943 104.47881 9208181
-112.73456 -30.679817 103.93488 9602941
-111.30517 -29.165165 106.33022 9208435
-112.00493 -29.281481 105.71667 10129539
-112.27274 -29.713129 104.95313 8945008
-112.84756 -29.930523 104.4775 9537147
-107.86424 -28.510458 115.83924 9011064
-108.50739 -28.589478 115.52232 8287853
-109.06571 -28.80575 111.99523 9209467
-109.7376 -28.807693 111.33649 9275262
-110.40574 -28.809643 110.67396 9143934
-110.92937 -28.871288 107.51311 9208435
-111.578 -28.90696 107.10493 9208435
-107.35626 -27.36614 116.5218 9010808
-107.97435 -27.643497 116.1368 9800580
-107.49304 -26.567488 116.78027 8813686
-108.05103 -26.830927 116.4275 9340542
-107.02319 -25.361908 117.47155 9602945
-107.59891 -25.746367 117.06223 8156271
-107.11797 -24.532808 117.76242 9800838
-107.80861 -24.601591 117.42885 8419957
-106.58228 -23.285015 118.50054 9012350
-107.17943 -23.652277 118.08865 9472387
-106.83893 -22.477079 118.71125 10392718
-107.46217 -22.748831 118.32608 9472387
-106.2979 -21.533972 119.32951 9012091
-106.94632 -21.602177 119.0149 9735302
-106.4453 -20.486589 119.68462 8156786
-106.99556 -20.98455 119.241 8288372
-105.95398 -19.518301 120.29096 9209470
-106.60968 -19.609715 119.96383 9012091
-106.08382 -18.530632 120.62991 9209469
-106.62437 -18.832676 120.26925 9012091
-105.68382 -17.434757 121.247 9472383
-106.24979 -17.68898 120.89426 9604226
-105.7549 -16.608452 121.54722 9998728
-106.38367 -16.874239 121.16199 9471871
-105.31713 -15.350412 122.39722 9472640
-105.87712 -15.725403 121.87735 9011576
-105.1123 -14.422493 123.25251 8617591
-105.5155 -14.720737 122.82504 10262156
-101.16211 -13.309722 133.71638 10853269
-102.2831 -13.768557 129.73817 9932169
-102.90639 -13.77018 129.24382 9406082
-103.52767 -13.771804 128.74707 9932169
-104.0103 -13.966208 124.97527 9143675
-104.72367 -13.982752 124.60709 9144190
-100.58215 -12.444629 134.31834 8090731
-101.25951 -12.526069 133.9863 9143163
-100.68134 -11.448849 134.67223 8946039
-101.20921 -11.912877 134.2534 8090731
-100.28542 -10.396126 135.26779 11708572
-100.96491 -10.475768 134.93546 9472639
-100.40627 -9.5773392 135.54135 10196104
-100.91383 -9.8592749 135.20427 9209467
-99.907288 -8.4041929 136.23061 9538434
-100.46393 -8.7551727 135.84424 10656142
-99.900742 -7.5787745 136.56314 9933191
-100.61578 -7.7944593 136.16081 10459019
-99.60524 -6.3334637 137.19206 9143934
-100.16378 -6.6849637 136.80438 9406847
-99.598816 -5.5028062 137.52817 8945783
-100.31633 -5.7177296 137.12506 8682867
-99.210106 -4.666646 138.03531 8352875
-99.89537 -4.7417803 137.70248 7893096
-99.248962 -3.6225798 138.437 8287853
-99.922134 -4.0458608 137.96985 6510930
-98.904366 -2.5727656 139.01038 8617075
-99.591919 -2.6464958 138.67711 9011832
-98.266693 -1.0971975 139.884 9340286
-98.94265 -1.521096 139.41539 8945784
-99.618286 -1.9456052 138.94672 9735812
-98.541946 -0.42200047 140.12994 9143163
-99.126999 -0.67749369 139.67244 10261132
-98.147621 0.42777395 141.00447 8748402
-98.919418 0.31303561 140.56839 8682868
-97.194 1.031081 142.68829 7367005
-97.969437 1.0304965 142.34853 7367005
-132.14346 -74.31144 54.499695 6511962
-132.82681 -74.667786 53.981083 7695977
-133.39052 -75.00679 53.238003 8287856
-133.60567 -75.01165 52.115299 9012606
-133.85336 -74.944038 51.100727 9012606
-134.30338 -74.863647 50.071011 7367779
-134.70703 -74.794724 49.207993 10261640
-135.31358 -74.712738 48.323975 9801089
-135.49792 -74.657303 47.471775 6182734
-135.67711 -74.602188 46.619301 5919050
-135.88594 -74.53643 45.595947 7696485
-136.47141 -74.454887 44.697594 10459277
-137.05035 -74.373505 43.792946 7038298
-137.23869 -74.308556 42.762737 7893351
-137.36069 -74.265404 42.075829 7563619
-131.21872 -73.494202 57.098709 7168605
-131.84119 -73.573227 56.66901 7498082
-132.3046 -73.898689 55.811993 7037274
-132.54999 -73.938736 55.039925 6576980
-132.88126 -74.166641 54.242336 7367013
-137.4498 -74.233238 41.560513 7563619
-137.91614 -74.162003 40.724098 7563619
-138.51001 -74.067207 39.88588 7169375
-138.53465 -73.95549 38.991028 12432037
-138.93652 -73.857819 38.130333 8616562
-139.49815 -73.753433 37.274555 8682867
-139.58972 -73.663948 36.220421 7761253
-140.08113 -73.563591 35.268715 8156008
-140.56496 -73.46328 34.312653 6511954
-140.63928 -73.376991 33.255814 6511954
-141.09052 -73.305367 32.645264 9142909
-131.36382 -72.721039 57.34808 6905691
-132.07736 -72.741409 56.903496 7169374
-141.51747 -73.262207 32.384884 9734788
-141.55772 -73.205017 31.677284 9734788
-141.82104 -73.104828 30.571907 7827049
-142.26898 -73.018669 29.77284 8089963
-142.51694 -72.918961 28.66234 9405821
-142.95634 -72.832657 27.855844 8353647
-143.38989 -72.746284 27.044905 8287597
-143.619 -72.646866 25.924999 9274747
-144.04851 -72.562714 25.107553 8287341
-144.32191 -72.493736 23.992876 11181972
-144.64906 -72.433136 23.093037 9471872
-145.16617 -72.329254 22.339684 9011322
-130.86615 -71.479485 58.194645 7761773
-131.54372 -71.756134 57.659924 6840927
-132.14638 -72.148109 57.120644 7038307
-145.43526 -72.200981 21.234358 7563878
-145.87035 -72.078964 20.29405 8155755
-146.09131 -71.976151 19.368589 9340027
-146.6277 -71.888451 18.601698 7564642
-146.79797 -71.79174 17.456266 10525071
-147.40892 -71.698067 16.539499 10064777
-147.34744 -71.614189 15.455247 13551545
-148.18857 -71.535034 14.82171 12893616
-148.11374 -71.451347 13.733922 7564651
-148.95195 -71.371307 13.087823 9143422
-148.89424 -71.315575 12.360143 7564651
-131.02484 -70.632156 58.467678 10196367
-131.64084 -70.768219 58.031582 8485495
-148.84853 -71.273926 11.814996 8551030
-149.44972 -71.192383 11.047349 9537665
-149.56174 -71.095886 9.8793421 9537665
-150.39192 -71.014038 9.206357 10656139
-150.27765 -70.932716 8.109746 7367005
-151.10924 -70.85215 7.4244089 8879471
-150.98283 -70.771759 6.3248796 8682866
-151.81126 -70.690346 5.6267138 8682866
-151.67116 -70.610115 4.5242662 9537661
-152.47092 -70.514511 3.6290257 10129798
-152.6171 -70.420143 2.467397 10787727
-153.13692 -70.351418 1.7994206 8616560
-130.56721 -69.556633 59.216156 8090992
-131.21994 -69.763573 58.726463 9275264
-153.05345 -70.311531 1.2453129 9734270
-153.26997 -70.257019 0.63143653 10062978
-153.755 -70.174408 -0.23063546 9537149
-154.23988 -70.091393 -1.0988071 8748149
-154.38345 -70.010193 -2.0913951 9142907
-154.86131 -69.926689 -2.9689891 8418928
-154.97284 -69.835716 -3.9668643 8418928
-155.74779 -69.732704 -4.7379255 11511708
-155.80548 -69.620667 -5.7420797 10195078
-156.21385 -69.511932 -6.6363058 8484720
-156.62128 -69.40258 -7.5362921 8089963
-130.15298 -68.31234 60.011036 7893614
-130.71552 -68.67527 59.508736 8354163
-131.35294 -68.861305 59.037479 9275262
-156.71417 -69.309433 -8.3606482 10985628
-157.42189 -69.182312 -9.3495779 12829111
-157.63077 -69.068451 -10.315787 7630699
-157.83205 -68.954498 -11.283282 7828077
-158.52603 -68.823158 -12.292994 10459278
-159.22003 -68.690735 -13.312411 11380380
-158.98755 -68.620308 -14.064429 9669250
-159.77522 -68.530067 -15.10459 10064265
-159.55014 -68.466805 -15.859187 10722194
-160.39009 -68.391197 -16.723558 11182228
-130.2088 -67.5961 60.28846 7959149
-130.86156 -67.795418 59.802025 8222578
-160.21503 -68.343651 -17.290724 9932419
-160.57591 -68.289536 -17.917559 9932419
-160.81218 -68.203636 -18.92441 11050902
-161.58737 -68.110085 -20.003157 10261388
-161.33557 -68.0466 -20.761595 10985367
-162.16957 -67.967804 -21.663797 9734531
-162.25284 -67.893593 -22.537756 8221549
-162.67322 -67.808456 -23.528543 10589839
-163.43864 -67.711777 -24.645166 9405560
-163.16113 -67.647949 -25.407831 10458253
-163.99165 -67.566048 -26.347063 9142393
-164.26509 -67.492714 -27.204149 11575962
-164.53314 -67.419235 -28.062948 9997188
-129.85402 -66.435959 61.010391 8287341
-130.39624 -66.73568 60.547966 8024427
-131.05606 -66.970718 60.041626 9143419
-164.29887 -67.366066 -28.634264 7563619
-165.23424 -67.296646 -29.20775 7038307
-164.96883 -67.232887 -29.77582 7038307
-165.64334 -67.100853 -30.928728 9208955
-166.16951 -66.955994 -32.686962 9669243
-166.94746 -66.865135 -33.885639 9340027
-166.69244 -66.813309 -34.461472 8089963
-167.4653 -66.721214 -35.674107 9340027
-167.72108 -66.648666 -36.574913 8024424
-167.9709 -66.575935 -37.47723 7563619
-168.83131 -66.498901 -38.523964 8353135
-168.5562 -66.446648 -39.102459 9142907
-129.79373 -65.71225 61.362076 7958376
-130.57726 -65.742638 60.869072 7234652
-168.37172 -66.411797 -39.487354 8682867
-169.32187 -66.350952 -40.356079 9669507
-169.03917 -66.298477 -40.934689 8682867
-169.87933 -66.212646 -42.005657 10261388
-170.44348 -65.996986 -42.799683 7564643
-129.46729 -64.553841 62.065887 9537659
-130.12573 -64.779083 61.564713 8089959
-129.01961 -63.260445 62.902615 10261899
-129.49161 -63.725651 62.411236 10130055
-130.22244 -63.769981 61.944447 9274229
-129.07224 -62.68832 63.119293 10788243
-129.78571 -62.806129 62.631149 9998726
-128.69847 -61.427231 63.896736 8090987
-129.26482 -61.762798 63.403984 9143675
-129.9032 -61.92337 62.94318 11380380
-128.38068 -60.411133 64.702789 11380380
-128.96718 -60.63755 64.173096 9472384
-129.38588 -61.014996 63.655148 9670019
-127.64249 -59.254246 66.657814 11379348
-128.13174 -59.449791 65.85714 8813684
-128.66031 -59.803566 65.08506 9932935
-129.31725 -59.90358 64.588585 9406590
-123.39897 -58.551117 77.902809 9735558
-124.11001 -58.72773 77.394066 9735558
-124.67039 -58.883034 76.416107 12629671
-124.2384 -58.88448 75.126839 10590347
-124.68784 -58.886269 74.377274 10130053
-125.22142 -58.888416 73.474312 8157296
-125.74843 -58.89056 72.567497 10460307
-126.26882 -58.8927 71.656921 10723220
-126.78275 -58.89484 70.742607 9209467
-127.20609 -58.896622 69.977966 7762021
-126.72404 -58.898949 68.722885 9406589
-127.36417 -58.969143 67.883896 9932163
-128.06856 -59.071495 67.07608 10392712
-128.5374 -59.140652 66.535072 9406590
-122.87612 -57.481251 78.608803 7037274
-123.55557 -57.62347 78.207253 8353907
-124.17162 -57.94598 77.763115 9735558
-123.02521 -56.670395 78.869049 10261643
-123.71114 -56.696526 78.512306 7300962
-122.50299 -55.496746 79.617943 13486013
-123.18323 -55.632675 79.218697 13486013
-123.73569 -56.126606 78.735664 7037274
-122.64887 -54.688751 79.878716 12038567
-123.33511 -54.709095 79.524178 12038055
-122.31978 -53.31012 80.615036 7037530
-122.88814 -53.755577 80.144089 6643287
-122.51504 -52.571674 80.82206 8090987
-123.12209 -52.766438 80.435432 8090987
-121.96215 -51.531593 81.531242 7828331
-122.58516 -51.7202 81.138985 8090987
-122.12258 -50.613075 81.830353 11841442
-122.73049 -50.802059 81.445595 10261900
-121.56559 -49.581757 82.537933 8618105
-122.18954 -49.764603 82.147636 13419960
-121.73656 -48.607727 82.854698 13288630
-122.3315 -48.84903 82.454758 12959666
-121.21912 -47.633366 83.518776 11840672
-121.86458 -47.770382 83.136581 14340803
-121.41535 -46.672058 83.817543 9011320
-120.41753 -45.390602 85.007889 7893614
-121.11817 -45.582546 84.523232 10919572
-121.72176 -45.819061 84.040359 10261899
-120.04368 -44.322216 86.265953 8814713
-120.61471 -44.683002 85.526329 8814711
-121.08376 -44.964954 85.040802 11380380
-116.3003 -43.513935 96.795662 9602945
-116.98537 -43.597359 96.416473 9734531
-116.81654 -43.843639 94.636848 8814715
-117.38365 -43.845516 93.931664 9406851
-118.05873 -43.847771 93.081062 7827564
-118.50557 -43.849277 92.511497 10853012
-118.51599 -43.852867 90.24514 8287853
-119.16444 -43.855095 89.38649 9077368
-119.80665 -43.857327 88.523163 8682867
-119.91533 -43.984081 87.56691 9866627
-120.46252 -44.114986 86.78614 10524556
-115.89645 -42.52536 97.405609 8813941
-116.52475 -42.646641 97.039421 9405566
-115.96738 -41.656845 97.727188 10064008
-115.52048 -40.480274 98.436165 9537664
-116.13255 -40.798512 97.997108 9866629
-115.07269 -39.432247 99.09272 9405566
-115.78842 -39.555473 98.681709 9208698
-116.33585 -39.943687 98.246353 8682867
-115.17789 -38.619068 99.37426 9273980
-115.79694 -38.683434 99.03611 9208443
-114.70206 -37.148167 100.21889 9405566
-115.28021 -37.580082 99.750137 9208444
-115.85861 -38.014008 99.280449 8813686
-114.86636 -36.602695 100.36056 9340285
-115.55551 -36.669781 99.985985 10261132
-114.39187 -35.5285 101.04131 8616305
-115.08331 -35.7337 100.60879 8945270
-114.53113 -34.512184 101.38926 8813683
-115.18225 -34.664902 100.99863 8616305
-114.01369 -33.531231 102.05334 9866883
-114.63185 -33.665176 101.68699 9274233
-113.70091 -32.196095 102.75997 10261899
-114.28433 -32.618771 102.29263 9275004
-114.86762 -33.043144 101.82412 8089963
-113.76572 -31.578163 102.98273 9867141
-114.38054 -31.577948 102.67398 8090987
-113.31931 -30.318663 103.90656 10458251
-113.82327 -30.716202 103.36494 9209468
-114.48096 -30.761126 102.96105 8813683
-113.05438 -29.342453 105.04704 9076595
-113.63811 -29.734692 104.26898 8879988
-114.20724 -30.027571 103.71181 10590092
-109.02824 -28.617954 115.24007 8551287
-109.64543 -28.71953 114.64262 10524047
-110.19365 -28.804153 113.9734 9537921
-110.80473 -28.810816 110.27447 9143934
-111.33406 -28.812376 109.73933 10196107
-111.99259 -28.814325 109.06722 10787468
-112.22749 -28.943186 106.69462 9997951
-113.02438 -28.985235 106.16436 9932419
-108.67886 -27.253485 115.98013 10853012
-109.22398 -27.757902 115.53677 9406082
-108.80322 -26.489882 116.23044 9472642
-109.43028 -26.526953 115.93771 8354166
-108.22116 -25.492229 116.88859 9012091
-108.87889 -25.611992 116.54919 9077884
-108.50301 -24.431887 117.1894 9209469
-109.0173 -24.828224 116.80247 9012091
-107.99373 -23.548979 117.76945 8552056
-108.64381 -23.621241 117.45245 9406848
-108.0876 -22.488909 118.15337 9209472
-108.66838 -22.873102 117.74187 8749178
-107.62944 -21.40102 118.79301 8552056
-108.19412 -21.660011 118.43891 9406851
-107.70487 -20.57914 119.08949 9143423
-108.33234 -20.850159 118.70273 7565675
-107.16074 -19.632433 119.71055 8288371
-107.81366 -19.698786 119.39468 8748662
-107.41083 -18.668884 119.98657 9011832
-108.09892 -18.891636 119.59234 8682867
-106.97238 -17.481264 120.65752 9011831
-107.59152 -17.560036 120.35165 8946038
-107.07095 -16.556007 120.98524 8814453
-106.60162 -15.390091 121.79929 8551281
-107.27078 -15.616312 121.34093 9011576
-106.21504 -14.453918 122.73884 9340799
-106.85248 -14.66415 122.28118 8748661
-102.39777 -13.365548 133.14761 9603971
-103.10874 -13.585428 132.74542 11380380
-103.99194 -13.773023 128.37218 10392462
-104.7625 -13.775056 127.74372 8749435
-105.43787 -13.999501 124.23772 9736070
-106.15341 -14.016655 123.86661 10064778
-101.82713 -12.53759 133.73068 8090731
-102.50018 -12.592373 133.41116 7893352
-101.39482 -11.098144 134.49677 8090731
-102.06075 -11.519863 134.03383 8879991
-102.72659 -11.942507 133.57059 10458510
-101.53432 -10.485441 134.67979 9735299
-102.10469 -10.495268 134.42365 9274748
-101.79546 -9.5792351 134.92622 8354158
-102.43588 -9.8839102 134.5213 10458510
-101.12018 -8.5238533 135.64639 10656914
-101.76402 -8.6361609 135.3168 7038298
-100.70836 -7.3818889 136.28464 12235172
-101.42521 -7.5978432 135.88139 9998984
-100.82231 -6.4501557 136.60773 11774621
-101.41126 -6.6436415 136.26993 9801347
-100.40929 -5.3022561 137.25075 10459019
-101.12855 -5.517283 136.84671 10130055
-100.46095 -4.3843398 137.59607 10787984
-101.11409 -4.5568466 137.2384 13682104
-100.10789 -3.2094102 138.22342 8617075
-100.62192 -3.4922929 137.88287 9932676
-100.13499 -2.5092878 138.49228 8946296
-100.7449 -2.6528292 138.16528 8946296
-99.804153 -1.1024507 139.20288 9735812
-100.34256 -1.5736419 138.776 9801091
-99.825043 -0.39695996 139.58392 9603200
-100.47597 -0.68141001 139.07501 9932163
-99.643814 0.48965216 140.39658 8222061
-100.07877 0.16898839 139.93698 9734015
-98.746246 1.0299094 142.00824 8813936
-99.329849 1.0294671 141.75261 9537147
-133.97762 -74.693466 53.302628 8089963
-134.57492 -74.648415 52.491722 10063496
-134.98454 -74.7342 51.577812 8681843
-135.2944 -74.833168 50.606873 8747635
-135.851 -74.749008 49.624931 10656141
-136.04161 -74.692955 48.768124 9011573
-136.22711 -74.637253 47.910919 6511954
-136.44337 -74.570702 46.881966 8156267
-137.03944 -74.488518 45.982082 9998216
-137.62889 -74.406334 45.075802 7564642
-137.82462 -74.340668 44.039822 6511954
-138.01335 -74.27536 43.003548 6840663
-133.09468 -73.519829 55.942024 7234909
-133.74796 -73.753952 55.41032 7037274
-133.75027 -73.937904 54.408134 8089963
-134.29718 -74.08609 53.578266 10195595
-138.39062 -74.202057 42.026321 7563619
-138.89897 -74.14196 41.450661 9340027
-139.25125 -74.061836 40.462223 10984850
-139.5139 -73.924721 39.356297 7037789
-139.99402 -73.830574 38.582916 7037532
-140.29965 -73.724823 37.488205 8485232
-140.60597 -73.623123 36.3927 7893095
-141.00635 -73.551056 35.742195 8156010
-141.35059 -73.464302 34.864845 8287594
-141.63737 -73.363075 33.761055 9273974
-141.88298 -73.305328 33.18837 9997960
-132.59245 -72.596519 56.652275 7366751
-133.19635 -72.822731 56.18457 7103323
-142.32474 -73.247566 32.749565 9669253
-142.37526 -73.175529 31.859747 8616822
-142.69879 -73.089027 30.970577 9274495
-143.28561 -73.001991 30.255674 9011581
-143.32742 -72.916298 29.18424 8419702
-143.9819 -72.814438 28.324789 10393489
-144.21886 -72.714233 27.200726 10459023
-144.51558 -72.627884 26.296154 10985367
-145.09079 -72.543938 25.559187 9340027
-145.16023 -72.490494 24.491272 9932163
-145.62758 -72.412445 23.48839 8945786
-146.01582 -72.325157 22.830015 9734788
-132.12994 -71.325409 57.489799 7038307
-132.77478 -71.642044 56.957195 7169374
-133.42235 -72.00132 56.404388 6510930
-145.98766 -72.272125 22.285612 8616822
-146.50914 -72.180641 21.703024 8814199
-146.72902 -72.073196 20.773462 8155755
-147.10916 -71.962883 19.743219 10260871
-147.51039 -71.866982 18.713293 8617330
-147.76566 -71.784317 17.78161 9143674
-148.31677 -71.703606 17.002821 9867398
-148.25629 -71.619133 15.911351 12235687
-149.1071 -71.539497 15.275994 10262156
-149.25206 -71.442085 14.110593 8617336
-149.85277 -71.346596 13.166585 9669508
-132.27354 -70.635323 57.702065 7038307
-132.91505 -70.749817 57.259399 7038306
-149.76289 -71.262642 12.068765 7564136
-150.60585 -71.181129 11.406343 8879479
-150.50237 -71.097359 10.30528 13551549
-151.3423 -71.014946 9.6301126 8090473
-151.22856 -70.933014 8.5261049 7630176
-152.07014 -70.851974 7.8384752 8879471
-151.94432 -70.77095 6.7314463 9932161
-152.76018 -70.675522 5.8457308 9932161
-152.64305 -70.608215 4.9209414 9208953
-153.42786 -70.498444 3.8362782 10261384
-153.6028 -70.416939 2.853101 10656141
-154.15691 -70.361053 2.3681271 10851980
-131.84448 -69.410019 58.497749 9209217
-132.39081 -69.725121 58.026184 7038307
-133.05696 -69.976524 57.508915 7038307
-154.07401 -70.320923 1.810117 10260357
-154.26614 -70.252609 1.0068409 9734528
-154.75801 -70.169479 0.14032477 9537149
-155.08076 -70.0868 -0.79407388 9142392
-155.39684 -70.004097 -1.7310779 8418928
-155.88155 -69.919983 -2.6132801 8551029
-156.01675 -69.837517 -3.6178768 8418928
-156.77443 -69.72435 -4.5805311 10064007
-156.57318 -69.646866 -5.3297262 10590091
-157.29924 -69.521446 -6.3031492 8484720
-157.53032 -69.409859 -7.2637167 11183004
-131.85051 -68.671204 58.815483 9538179
-132.63907 -68.714172 58.313877 8090992
-157.75404 -69.298264 -8.2257414 12894140
-158.4705 -69.170105 -9.2206945 11052192
-158.55453 -69.07399 -10.056556 6445912
-158.94582 -68.960243 -10.978457 7038307
-159.65038 -68.828033 -11.993812 9538432
-159.40547 -68.749496 -12.747977 9538432
-160.16124 -68.641083 -13.779765 10459279
-160.42348 -68.555923 -14.776851 9406335
-160.67789 -68.470634 -15.776038 9603714
-161.52928 -68.394516 -16.645987 9932419
-131.39398 -67.600441 59.560814 8814455
-132.13455 -67.729454 59.051208 9275006
-161.41173 -68.362564 -17.026846 9932419
-161.23393 -68.314766 -17.597361 9932419
-162.08165 -68.237602 -18.480558 9735042
-161.83609 -68.173775 -19.242823 9537665
-162.6183 -68.079514 -20.329756 9537665
-162.8499 -67.991875 -21.356287 9274493
-163.13957 -67.920197 -22.193605 7563619
-163.98424 -67.839897 -23.113878 9734531
-163.71304 -67.775742 -23.880518 10129286
-164.48567 -67.67823 -25.005785 9142387
-164.2047 -67.614037 -25.773153 9405560
-165.0433 -67.531494 -26.720041 9142393
-165.81252 -67.431923 -27.870489 7563619
-131.58206 -66.669304 59.850681 9143419
-132.32443 -66.795341 59.341248 8945784
-165.49796 -67.36055 -28.638025 9932937
-166.17763 -67.226402 -29.787462 8946044
-166.98848 -67.12867 -30.7642 9932416
-166.66307 -67.059479 -31.534922 10393225
-167.45236 -66.969048 -32.730106 9932416
-167.20091 -66.917068 -33.30859 9932416
-168.071 -66.842781 -34.324528 10195078
-167.72618 -66.7733 -35.09676 11905692
-168.59402 -66.697769 -36.126869 9734786
-169.37669 -66.603806 -37.362919 9800581
-169.10497 -66.551353 -37.944218 9340030
-169.96571 -66.470039 -38.998234 8418928
-131.07483 -65.700516 60.582699 8485232
-131.86159 -65.731636 60.087349 9143419
-170.04698 -66.329582 -39.880589 9142907
-170.42903 -66.184464 -40.837368 10261387
-170.88643 -65.862389 -41.731266 9011833
-170.97894 -65.687927 -42.715496 7893608
-130.64705 -64.474251 61.378036 7892581
-131.31161 -64.702492 60.871834 7695203
-131.86119 -65.000633 60.405609 8089963
-171.38649 -65.269142 -41.941765 10853012
-171.41031 -65.020012 -42.750973 9143163
-171.52333 -64.696213 -43.29187 7958629
-130.72661 -63.649662 61.688034 7629409
-131.41536 -63.809074 61.196968 7892581
-171.79836 -64.017754 -42.922192 6511954
-171.83733 -63.824158 -43.372143 7235163
-130.2476 -62.532887 62.46711 10130055
-131.00446 -62.709274 61.926952 8353389
-131.54678 -63.132114 61.41098 7892581
-130.18625 -61.213638 63.078568 7038307
-130.54446 -61.645538 62.671341 9275007
-131.06955 -61.958462 62.213699 8617078
-129.66173 -60.340199 63.983299 7893358
-130.18578 -60.643467 63.415688 7827821
-130.82509 -60.856594 62.869179 7301478
-129.00601 -59.210541 65.991508 6511954
-129.42354 -59.345036 65.323143 7235421
-129.95604 -59.646809 64.467361 8222319
-130.39099 -60.023739 63.822289 7564650
-124.61555 -58.358456 77.347466 11906721
-125.3308 -58.562038 76.819382 12234914
-125.21866 -58.885201 75.513191 11905692
-125.76041 -58.887363 74.606377 9143675
-126.20702 -58.889164 73.847816 7565675
-126.64873 -58.890961 73.08638 11907751
-127.17285 -58.893116 72.169319 11905698
-127.69046 -58.895267 71.248489 9471610
-128.03197 -58.896706 70.632652 6510930
-127.62447 -58.898396 69.210594 7959401
-128.12067 -58.900524 68.286591 10524299
-128.63832 -58.915531 67.373703 8747891
-129.18477 -59.050797 66.47538 9011832
-129.79301 -59.079498 65.999542 6511954
-124.78532 -57.557468 77.58931 9077886
-125.38387 -57.704967 77.161751 10525584
-124.34199 -56.481133 78.283241 7630698
-124.88202 -56.807564 77.856087 7960433
-123.99606 -55.413498 78.899384 7564651
-124.54814 -55.668827 78.515228 7762284
-125.21649 -56.039879 77.993088 8092019
-124.02984 -54.600731 79.218628 8748666
-124.68687 -54.785595 78.810768 7564651
-123.55055 -53.608051 79.871063 7564651
-124.26569 -53.664375 79.487083 8748666
-123.64557 -52.620792 80.231606 7301473
-124.30344 -52.799419 79.825874 8617080
-123.16231 -51.636536 80.8825 8090987
-123.87783 -51.68679 80.500893 7762022
-123.25356 -50.65284 81.243469 9275261
-123.91228 -50.82534 80.839859 7959659
-122.76654 -49.676655 81.892998 14341060
-123.45968 -49.656261 81.551865 10525330
-122.99568 -48.69038 82.185509 11840675
-123.77312 -48.907356 81.703606 10065035
-122.65759 -47.513512 82.842873 9734531
-123.30396 -47.821587 82.389442 10787219
-122.1115 -46.375134 83.589249 8090986
-122.73907 -46.663078 83.153633 7892583
-123.36758 -46.953312 82.716614 9734531
-122.2541 -45.542286 83.973068 9406846
-122.84294 -45.821918 83.481499 6774870
-121.02673 -44.170269 86.310707 10984593
-121.59116 -44.226254 85.832596 8552049
-121.89117 -44.565937 85.044083 9933190
-122.54069 -44.858456 84.399643 9077625
-117.70175 -43.557133 96.058121 8945529
-118.11864 -43.779507 95.455505 10262157
-118.70352 -43.846378 94.519211 10327694
-118.83871 -43.850403 92.08268 8287853
-119.28055 -43.851906 91.509163 8551283
-119.8288 -43.853783 90.7892 9406590
-120.48115 -43.856033 89.921059 8813939
-120.60159 -43.879242 87.548981 9538174
-121.3105 -43.947708 86.9533 8552049
-121.87763 -44.003162 86.474548 8092011
-117.22993 -42.431927 96.772728 9734531
-117.69616 -42.793556 96.389267 9340287
-117.26482 -41.555405 97.1157 9603203
-117.89882 -41.818462 96.688309 9537667
-116.74262 -40.647469 97.752106 9340540
-117.46762 -40.672874 97.376633 9537665
-116.93336 -39.548882 98.107956 8748660
-117.52502 -39.949341 97.645332 9537662
-116.51588 -38.583595 98.715225 9800577
-117.08536 -38.669014 98.393425 9011575
-116.02503 -37.46751 99.421471 9537409
-116.66154 -37.720478 98.996941 9865857
-116.12966 -36.538319 99.751045 9537409
-116.76631 -36.676666 99.373589 8945272
-115.59561 -35.359917 100.50463 8813686
-116.16058 -35.681873 100.08778 9011065
-116.87317 -35.858284 99.656502 8813686
-115.84779 -34.524715 100.72121 8616562
-116.467 -34.839989 100.27982 9142647
-115.39708 -33.652184 101.307 9142647
-116.03251 -33.574493 101.01946 9143417
-115.38184 -32.665157 101.72182 9077625
-116.07648 -32.58379 101.40655 11182998
-114.89854 -31.451323 102.46615 7432032
-115.59772 -31.649704 102.03295 11840671
-114.67944 -30.418112 103.13857 8813683
-115.31342 -30.569197 102.70869 9011062
-115.87583 -30.872688 102.21442 8813683
-114.15623 -29.318737 104.41808 10261383
-114.82802 -29.670851 103.70816 10787471
-115.33759 -29.931263 103.22768 9668991
-110.4343 -28.328234 114.77202 8879995
-110.77504 -28.725679 113.84113 9735556
-111.28574 -28.807312 112.90648 8813942
-111.96326 -28.809288 112.23458 8946042
-112.3857 -28.815496 108.66205 9208435
-112.77727 -28.816668 108.25525 10458506
-113.42653 -28.818621 107.57424 10327436
-113.94334 -28.820185 107.02692 8682867
-113.97388 -29.03467 105.51728 8682867
-114.60739 -29.068247 105.08363 8682867
-109.90688 -27.521822 115.32815 10853012
-110.64072 -27.568039 114.98419 9471875
-110.07396 -26.510269 115.6592 9274497
-110.66388 -26.795143 115.28352 8814201
-109.73767 -25.38472 116.25991 7564651
-110.22121 -25.67091 115.93089 9209216
-109.69506 -24.551992 116.61314 9406850
-110.37848 -24.742353 116.23395 11906980
-109.14584 -23.414658 117.3129 9735812
-109.83194 -23.644676 116.91671 8814453
-109.40914 -22.602808 117.52219 8748660
-110.03752 -22.877747 117.13349 8682867
-108.86715 -21.652916 118.1436 9340801
-109.53705 -21.545698 117.8899 9143421
-109.02133 -20.599979 118.49798 8617592
-108.55918 -19.418135 119.17709 8617591
-109.24283 -19.525202 118.83129 8683385
-108.65459 -18.484159 119.50974 9011832
-109.31262 -18.549759 119.19195 8420470
-108.31786 -17.335421 120.12002 9208953
-108.85238 -17.682249 119.74403 9735296
-108.33474 -16.551416 120.42728 9143417
-109.02797 -16.772797 120.03127 9537918
-107.9693 -15.407981 121.18618 9537664
-108.46297 -15.810122 120.68446 9011575
-107.5515 -14.524982 122.08868 9603457
-108.10103 -14.669569 121.72468 8748660
-103.62143 -13.352092 132.61183 6906969
-104.2488 -13.611682 132.23074 8420208
-105.68244 -13.777498 126.98369 9341571
-106.44489 -13.779537 126.34542 13024949
-107.22846 -14.042824 123.30737 10985623
-107.94664 -14.060654 122.93284 12433069
-103.20258 -12.361598 133.19269 7170141
-103.79282 -12.61964 132.82858 6117453
-103.26124 -11.491656 133.51421 9800836
-103.91673 -11.761231 133.11667 7762278
-102.81877 -10.439179 134.13025 9537920
-103.41534 -10.621284 133.79369 9537920
-102.97183 -9.428669 134.46614 10195594
-103.58187 -9.9030714 134.00684 8682867
-102.5271 -8.3715744 135.08499 8814709
-103.12563 -8.5527086 134.74796 9603969
-102.57289 -7.6126213 135.36824 7301470
-103.29218 -7.8297672 134.96338 8814709
-102.08092 -6.401619 136.07121 9472639
-102.71494 -6.7140927 135.66586 7433057
-102.28004 -5.5284991 136.33362 9801092
-101.84352 -4.3395834 137.00342 9538175
-102.47977 -4.6520252 136.59702 10789267
-101.2612 -3.2166777 137.71111 12235172
-101.98476 -3.4315135 137.30531 9538688
-101.42648 -2.4811246 137.93318 8682867
-102.03029 -2.6600332 137.59473 8946295
-100.96109 -1.1064237 138.69025 9932163
-101.5794 -1.5845815 138.22533 10195335
-101.19289 -0.36503786 139.00586 9603455
-101.63596 -0.68473876 138.56129 9932163
-100.80633 0.48801982 139.88277 10392200
-101.24114 0.16690592 139.42296 9932163
-99.914368 1.0291231 141.49669 10260358
-100.49979 1.0286772 141.24042 9142392
-135.52931 -74.449562 51.364578 7958120
-135.91666 -74.528702 50.764015 9274235
-136.57227 -74.463959 49.887089 6906711
-136.97289 -74.521515 49.100857 9011573
-137.30898 -74.546577 48.29039 8156266
-137.60626 -74.522896 47.280628 9011320
-138.20642 -74.440033 46.372768 7761509
-138.40962 -74.373573 45.330921 6511954
-138.60577 -74.307602 44.28878 6511954
-138.73285 -74.263756 43.593937 6511954
-134.17047 -73.411972 55.332191 8089963
-134.80444 -73.614815 54.835232 10327181
-135.26903 -73.806664 53.889542 13946052
-135.37582 -73.958458 52.802109 8945015
-135.78329 -73.97702 51.833897 6510930
-136.26468 -74.039322 50.892731 9274235
-136.94461 -73.986176 50.021919 8156521
-137.34427 -74.042381 49.232735 9011573
-139.07834 -74.223389 43.212303 7169373
-139.50845 -74.172974 42.732132 7563619
-139.88318 -74.099182 41.743652 11774108
-140.02788 -74.020638 40.687309 9011319
-140.50346 -73.893303 39.725914 5393477
-141.01067 -73.786774 38.771454 6643540
-141.11292 -73.698242 37.704964 7366751
-141.60294 -73.611206 36.923485 7893095
-142.08727 -73.524094 36.137154 8813680
-142.16994 -73.436272 35.066406 8681835
-142.65862 -73.334511 34.094475 8681835
-133.83307 -72.474937 55.946861 6510930
-134.24081 -72.729202 55.586552 7498081
-134.99155 -72.945274 55.004612 10787732
-143.13956 -73.23278 33.118149 9143166
-143.20026 -73.145821 32.043915 7367271
-143.86089 -73.065422 31.464298 8090737
-144.11699 -72.97123 30.430719 8682873
-144.37059 -72.870026 29.305096 8617080
-145.02452 -72.781776 28.620352 12433069
-145.04753 -72.710266 27.718557 11445918
-145.49066 -72.608376 26.71422 10721937
-145.95364 -72.520401 25.71068 11774108
-146.03101 -72.470726 24.637688 7563619
-146.69696 -72.40258 24.023523 9076857
-146.87299 -72.321236 23.326136 7564392
-133.89795 -71.629074 56.275059 7761509
-134.6447 -71.781281 55.751541 9011832
-146.84517 -72.267815 22.778162 8616822
-147.43399 -72.157555 22.051218 7827306
-147.58411 -72.037964 20.894079 8747891
-148.15363 -71.956886 20.125414 8747891
-148.41623 -71.873741 19.191164 10261899
-148.67545 -71.790543 18.254042 8814712
-149.23343 -71.709297 17.471762 11643551
-149.39484 -71.611267 16.30567 10854036
-150.01102 -71.515785 15.368192 9932935
-149.94875 -71.445045 14.449895 7564651
-150.79121 -71.349884 13.614739 7038307
-133.47594 -70.7173 56.930065 7958888
-134.14252 -70.769104 56.499382 7762021
-150.70215 -71.265305 12.509538 7564136
-151.55499 -71.183311 11.845063 8418928
-151.45216 -71.098892 10.736497 9997959
-152.28336 -71.001923 9.8737001 10853012
-152.18889 -70.93338 8.9477282 7958888
-153.0204 -70.838219 8.0718317 7958888
-152.91524 -70.77018 7.1432161 10129545
-153.43689 -70.688065 6.3030367 9997958
-153.60051 -70.592865 5.1367731 9077624
-154.41985 -70.495865 4.2329493 7695972
-154.29091 -70.428307 3.2996762 8617330
-155.15942 -70.357498 2.7570202 8617080
-133.5925 -69.679565 57.310135 7828331
-134.34344 -69.821655 56.788403 8617331
-155.0766 -70.317024 2.195184 8617080
-154.96358 -70.263199 1.4469044 9143167
-155.77115 -70.164558 0.51617926 9931909
-155.92873 -70.082207 -0.48535043 8615790
-156.42052 -69.998009 -1.3659389 9207670
-156.73975 -69.914375 -2.3135364 8747636
-157.05214 -69.83078 -3.2637012 8287859
-157.53644 -69.745453 -4.1602163 8616565
-157.60909 -69.637924 -5.175128 8484720
-158.34409 -69.511658 -6.1544142 9997699
-158.44771 -69.417313 -6.9872007 8880759
-133.14351 -68.68058 58.019577 7894126
-133.88412 -68.730484 57.54438 8748664
-158.86044 -69.306435 -7.900054 8880759
-159.27159 -69.194611 -8.8186903 7498850
-159.35674 -69.098251 -9.6577711 5392706
-160.07201 -68.96624 -10.669112 6840671
-160.27907 -68.850143 -11.65364 9142651
-160.48836 -68.738342 -12.640292 10129802
-161.29405 -68.646172 -13.681865 10064011
-161.07285 -68.582222 -14.444934 8813944
-161.93401 -68.506546 -15.309131 10721683
-161.70383 -68.442505 -16.073713 10655887
-162.6225 -68.381874 -16.758844 9142907
-132.66524 -67.428871 58.857018 7894126
-133.33624 -67.673195 58.339798 8551542
-133.8903 -67.986694 57.864159 8814457
-162.44398 -68.333687 -17.333757 10261643
-162.75351 -68.262764 -18.160929 9603968
-162.9955 -68.175629 -19.181749 9867398
-163.85287 -68.096779 -20.083662 8090987
-163.59608 -68.032448 -20.85253 9077370
-164.38531 -67.936417 -21.96015 8089963
-164.68053 -67.863747 -22.808386 8353135
-164.9017 -67.774849 -23.851221 9669247
-165.7562 -67.69278 -24.790937 7563619
-165.47322 -67.628151 -25.563986 8945269
-166.25288 -67.528877 -26.710676 8287342
-166.03362 -67.480301 -27.291212 7563619
-167.03323 -67.428566 -27.869055 7563619
-132.86353 -66.599846 59.096142 8617333
-133.44922 -66.766235 58.665104 8946043
-166.79773 -67.375511 -28.449492 9208955
-167.01324 -67.276672 -29.315722 10656658
-167.23059 -67.180779 -30.184385 8485494
-168.11464 -67.108192 -31.181097 9274491
-167.78503 -67.038528 -31.956789 9932416
-168.5827 -66.947411 -33.161903 9932162
-169.46828 -66.872719 -34.185127 8089963
-169.12079 -66.80265 -34.963562 8879477
-170.00423 -66.7267 -36.001251 10261132
-170.01332 -66.62381 -36.717159 9340030
-170.35106 -66.510529 -37.793392 9274237
-132.36125 -65.536957 59.866138 9143419
-132.93271 -65.781517 59.409744 9604226
-133.58827 -66.08017 58.878448 9734788
-170.91515 -66.184608 -38.783585 8879479
-171.1158 -65.87619 -39.624741 9537664
-171.19582 -65.699951 -40.585911 9471359
-132.48895 -64.640503 60.177841 8419184
-133.15656 -64.83622 59.683857 9274493
-171.6006 -65.16098 -39.810608 10984593
-171.62106 -64.977272 -40.469475 9734529
-171.54704 -64.986816 -41.456509 10590096
-171.68085 -64.429459 -42.453411 8617075
-132.00426 -63.549686 60.949135 7235427
-132.60602 -63.809277 60.467735 8089963
-171.90227 -64.183273 -40.609661 10523273
-171.93565 -63.934929 -41.420185 9536893
-171.90317 -63.840504 -42.362865 8287597
-131.51218 -62.334183 61.779182 8617078
-132.16621 -62.616547 61.255852 7695979
-132.82393 -62.939903 60.712448 8089963
-172.30824 -62.857605 -41.730904 8813171
-172.24965 -62.892467 -42.37598 7300963
-172.1711 -62.939999 -43.23708 6906718
-131.82976 -61.549377 61.926128 7038307
-132.37329 -61.832851 61.469952 8353906
-172.5303 -62.097137 -42.519524 7169635
-172.48454 -62.067673 -43.316921 7433064
-131.35213 -60.609447 62.7327 7433064
-132.03334 -60.833485 62.149467 7038307
-172.8 -61.233826 -43.264584 8814201
-130.85008 -59.240822 64.762245 7169888
-131.14482 -59.559685 63.880081 8090736
-131.69872 -59.93298 63.104252 8090480
-132.25961 -60.207031 62.514168 7038307
-126.41683 -58.572987 76.09539 9012861
-126.74513 -58.839733 75.293182 9012605
-127.20451 -58.889915 74.22541 7038307
-127.7369 -58.892086 73.304245 10787478
-128.26262 -58.89426 72.379288 10655886
-128.6958 -58.896061 71.605759 10063747
-128.50848 -58.897572 70.493156 7695202
-128.70549 -58.899563 69.395699 9010805
-129.20299 -58.901711 68.463837 8155755
-129.61256 -58.903488 67.684647 9340027
-130.01717 -58.905273 66.902855 7433056
-130.40985 -59.021702 65.839401 6511954
-130.77815 -59.102814 65.315392 6511954
-126.00864 -57.618805 76.815399 10394511
-126.60837 -57.845787 76.347435 9407875
-125.57463 -56.618774 77.519707 8092019
-126.30478 -56.676556 77.045639 10196877
-126.86951 -57.122566 76.503372 11381404
-125.15455 -55.262196 78.371376 8092019
-125.71865 -55.701023 77.832733 10328462
-126.45037 -55.756447 77.358673 9407363
-125.32654 -54.526947 78.582191 8814971
-125.93858 -54.692612 78.13871 11775392
-124.77789 -53.271973 79.391045 9735302
-125.30705 -53.708382 78.935883 8353908
-125.98502 -53.879467 78.465965 10065291
-124.95219 -52.540844 79.605675 13813433
-125.56785 -52.78458 79.185936 9077368
-124.38863 -51.291943 80.406624 8090987
-124.9255 -51.724529 79.956863 11511195
-125.64822 -51.907551 79.51667 11182228
-124.72656 -50.52927 80.55175 10262414
-125.2453 -50.972973 80.106491 10853777
-124.18034 -49.48291 81.260124 8354933
-124.70692 -49.828724 80.851456 9144191
-124.30715 -48.573757 81.572281 7828590
-124.97437 -48.989491 81.063782 7960176
-123.77692 -47.523399 82.274261 10787219
-124.53084 -47.649536 81.841843 8485492
-123.90057 -46.616608 82.587074 9931910
-124.5381 -46.76804 82.202888 9734531
-123.65839 -45.442139 83.3395 7827303
-124.09856 -45.795654 82.857224 9866630
-122.71945 -44.340034 84.870483 9735555
-123.33656 -44.483704 84.4226 8682868
