# .PCD v0.7 - Point Cloud Data file format
VERSION 0.7
FIELDS x y z rgb
SIZE 4 4 4 4
TYPE F F F U
COUNT 1 1 1 1
WIDTH 1206
HEIGHT 1
VIEWPOINT 0 0 0 1 0 0 0
POINTS 1206
DATA ascii
-43.050098 -43.929623 118.92971 11380381
-43.97628 -43.928631 119.67951 10787984
-44.840336 -43.930645 119.35757 10261641
-45.930004 -43.930016 120.05278 9537407
-46.796841 -43.932079 119.71709 7563618
-47.761822 -43.931129 120.46725 7563618
-48.814133 -43.932571 120.42838 8748147
-49.907322 -43.933025 120.74902 7827559
-50.844437 -43.933643 120.94537 7827815
-51.347439 -43.933193 121.32116 8090987
97.699203 -76.359108 89.541237 11050640
96.995758 -76.231102 89.974525 9669506
96.434097 -76.130455 90.319923 7038307
97.899521 -75.619263 89.81723 7498081
97.201157 -75.647423 90.16468 7038307
96.203156 -75.903053 90.538155 7038307
98.269386 -75.06208 90.063164 5919050
6.1944513 -63.468666 109.92094 5722188
5.3054476 -63.395187 109.56444 6510930
5.9477396 -62.851921 110.05743 6840925
5.2211866 -62.705078 109.80034 6248531
4.4229078 -62.419052 109.56702 6510930
5.0633097 -61.741707 110.11208 6577754
4.2248011 -61.629784 109.79265 7103840
4.8048506 -60.941746 110.31549 5920082
4.1077337 -60.709438 110.17442 11971747
3.2315531 -60.5009 109.96307 15261138
3.162673 -59.862007 110.45148 14668745
2.2776537 -59.629555 110.38551 12432555
1.302619 -59.33905 110.47937 8551282
0.28235719 -59.229786 110.49664 7301471
1.2189112 -59.158749 111.02356 9668738
0.14877984 -59.051201 111.04413 9142906
-0.71123791 -58.9776 111.05734 8089963
-1.6831255 -58.920906 111.22169 8089963
-2.6722918 -58.900169 111.49429 8485235
-3.6241579 -58.900482 111.80073 7761772
-4.7111845 -58.901329 111.98388 7498857
-5.531909 -58.901825 112.17051 8353904
-6.626195 -58.902729 112.33488 9209212
-7.5962706 -58.903152 112.61366 9735300
-8.5723524 -58.903603 112.88413 9734787
-9.679738 -58.904598 113.02328 8616307
-10.499444 -58.904915 113.27157 9077369
-11.581889 -58.905689 113.47763 11313559
-12.352223 -58.906395 113.56998 11642267
-13.350404 -58.906971 113.80531 9734527
-14.378026 -58.788177 114.22236 9471612
-15.371614 -58.583546 114.32201 9603201
-16.359735 -58.484325 114.14015 10655887
-15.480117 -57.787525 114.59269 10195853
-16.374176 -57.645958 114.4473 11708574
-17.153664 -57.522999 114.32037 12892589
-15.584994 -57.06802 114.83584 10261903
-16.32165 -56.771301 114.78269 11709089
-17.381023 -56.714165 114.56948 9801351
-18.1679 -56.494007 114.47679 10591124
-16.643415 -56.032524 114.98503 10788245
-17.367659 -55.73727 114.93362 9144190
-18.293724 -55.762215 114.71859 8946300
-19.043451 -55.572796 114.6216 9406851
-17.620438 -54.904476 115.18436 10262156
-18.316689 -54.737919 115.09087 8552054
-19.347214 -54.63559 114.89933 9932680
-20.131607 -54.25246 114.8661 13550517
-18.412722 -53.885807 115.38348 11314844
-19.205816 -53.669682 115.28667 10657430
-20.272114 -53.623764 115.06638 11972003
-21.016201 -53.340675 115.00519 10261132
-19.485218 -52.865807 115.52074 12170154
-20.326649 -52.779171 115.36546 10525844
-21.199265 -52.665009 115.2134 7169890
-20.34959 -51.821133 115.71333 8289138
-21.264729 -51.692501 115.55718 7696229
-22.182821 -51.572758 115.41418 7498854
-22.830246 -51.254704 115.43996 8485238
-21.346434 -50.773914 115.87745 8617331
-22.210878 -50.616734 115.762 7169885
-23.191355 -50.598625 115.62937 7629412
-22.229271 -49.807224 116.05415 7038042
-23.220636 -49.768578 115.92761 8090731
-24.147333 -49.680389 115.83282 9537921
-24.962946 -49.217293 115.88971 9735812
-22.41588 -49.152107 116.26231 7893096
-23.226084 -48.803055 116.27847 9341054
-24.225077 -48.790661 116.14616 9670019
-25.156471 -48.564884 116.1008 9800838
-25.885818 -48.34771 116.08002 9011577
-24.190033 -47.767365 116.52359 8222064
-25.222404 -47.729458 116.396 9011581
-26.186562 -47.72139 116.26688 8616822
-26.814125 -47.479927 116.26887 7563619
-24.556749 -47.113007 116.71168 7564651
-25.216377 -46.799236 116.73555 8419702
-26.161831 -46.711105 116.63821 8287858
-27.140112 -46.7019 116.50761 8090220
-27.860701 -46.418339 116.51228 9011324
-26.149832 -45.849319 116.97167 8550771
-27.11932 -45.713753 116.92976 8287342
-28.209234 -45.698349 116.7918 9010809
-29.108486 -45.326344 116.92968 9405823
-27.351168 -45.182785 117.28053 9010808
-28.124981 -45.016262 117.30344 9142394
-29.118963 -44.705612 117.40759 9800581
-30.111277 -44.698864 117.30689 9932167
-30.940405 -44.441315 117.50793 9603458
-31.937817 -44.336842 117.54516 8681843
-31.926533 -44.173519 118.06339 8681843
-33.007286 -44.117889 118.09586 8813429
-34.145115 -44.015579 118.30359 9208443
-34.929558 -43.963688 118.33866 9208443
-35.830601 -43.934742 118.57579 9208443
-36.821774 -43.92181 118.91511 9866628
-37.832027 -43.922501 119.11833 9472386
-38.845806 -43.923214 119.31289 7893614
-39.872875 -43.92345 119.6815 7564650
-40.89352 -43.924709 119.6903 8025712
-41.782692 -43.925156 119.92401 9143934
-42.675781 -43.925629 120.15047 10327692
-43.731991 -43.925941 120.50547 8814451
-44.770618 -43.927296 120.49107 8945781
-45.869175 -43.926628 121.20277 7037274
-46.598389 -43.928349 120.9231 7300446
-47.86359 -43.92807 121.57599 7037274
-48.595058 -43.929829 121.28457 8813683
-49.734848 -43.929222 121.99241 7563619
-50.542011 -43.902782 121.86553 8551025
-51.489967 -43.64127 122.35757 9406076
-51.769665 -42.91396 122.58426 10589836
96.90139 -75.283394 90.611412 7038307
96.124405 -75.435188 90.900345 7564393
95.275337 -75.58725 91.261673 9011579
94.418945 -75.527168 91.755707 7696236
93.520035 -75.644218 92.128845 8617080
98.86834 -74.333321 90.539726 6840150
98.205338 -74.551971 90.614616 6248273
97.278008 -74.661163 90.96357 7564393
96.305862 -74.762772 91.385948 9077371
95.513077 -74.968552 91.636147 9932421
99.42012 -74.113708 90.899376 7366237
8.0951204 -63.810131 110.61039 6511189
7.38095 -63.597389 110.38467 5985103
6.6629171 -63.405991 110.14885 5590345
7.2265959 -62.766155 110.64584 7826791
6.4067869 -62.640545 110.33992 6840667
6.9730139 -61.853344 110.89604 8353647
6.2901411 -61.702381 110.65947 8156524
5.5202646 -61.485432 110.41131 8024939
6.0794077 -60.881413 110.90948 8485489
5.3221903 -60.62421 110.75474 7893610
4.5490713 -60.380058 110.59641 9208443
5.2009573 -59.922028 111.25702 7761768
4.405551 -59.772091 111.05056 10524046
3.4669352 -59.393353 111.13451 11379611
2.291276 -59.225513 111.13773 13880258
3.1082067 -59.153522 111.65491 9208443
2.3682623 -59.068771 111.67647 11248282
1.4939222 -58.982193 111.69067 13353914
0.50687504 -58.929287 111.70649 9668738
-0.60446453 -58.895664 112.15276 8155755
-1.4754915 -58.896328 112.30411 7695205
-2.5631304 -58.89711 112.5079 10261645
-3.5229483 -58.897419 112.82174 8682873
-4.3885088 -58.89827 112.90354 7959407
-5.4419317 -58.899082 113.08371 9406333
-6.3537054 -58.899521 113.33013 10853521
-7.2570086 -58.899685 113.66872 10853523
-8.3900003 -58.900936 113.72837 11642529
-9.2108641 -58.901226 113.98914 11182234
-10.330115 -58.902252 114.124 10195593
-11.253219 -58.902508 114.43842 9669248
-12.305614 -58.727409 114.83669 8748145
-13.220382 -58.62233 114.74449 9273974
-14.096757 -58.449055 114.65384 10524046
-12.526109 -58.091908 115.13351 9405560
-13.261483 -57.785675 115.08419 9537146
-14.283555 -57.744759 114.87322 10129544
-15.0181 -57.464092 114.81462 9406852
-13.38911 -57.149338 115.29156 9405560
-14.154006 -56.710297 115.28481 9011576
-15.152736 -56.754265 115.0476 8617337
-15.890203 -56.456142 114.9948 10261903
-14.4582 -55.802994 115.55336 8090993
-15.212022 -55.756687 115.40374 7827822
-16.139368 -55.621769 115.24854 10261902
-16.864737 -55.32513 115.19745 9867655
-15.329509 -54.871353 115.70549 9143680
-16.121552 -54.646244 115.61291 9604229
-17.188286 -54.588444 115.39697 9538691
-16.347618 -53.839195 115.86002 9670277
-17.135967 -53.717285 115.72958 9999241
-18.04011 -53.582245 115.57823 10065035
-17.185654 -52.817158 116.05016 10064777
-18.125383 -52.748074 115.8666 10131085
-19.036779 -52.674797 115.69086 12959669
-18.224136 -51.860985 116.17148 9341828
-19.077492 -51.697067 116.04205 10065294
-19.90917 -51.562458 115.90664 8749690
-18.397976 -50.993599 116.45241 9867657
-19.10774 -50.740322 116.38782 8684155
-20.084743 -50.66349 116.19882 8617846
-20.874876 -50.47271 116.09334 7564642
-19.286905 -50.07991 116.59131 9867657
-20.038698 -49.795895 116.52871 9012089
-21.117025 -49.753464 116.30449 7104091
-21.83366 -49.446884 116.258 6511954
-20.32889 -49.018463 116.75059 6511954
-21.045296 -48.731861 116.69685 8682867
-22.029881 -48.637928 116.51855 7629667
-22.850086 -48.365334 116.48937 9735812
-21.289421 -47.863037 116.96265 10854036
-22.0574 -47.685471 116.86322 8551542
-23.034737 -47.643089 116.72707 7959146
-23.767498 -47.491062 116.68208 7037274
-22.105103 -46.862373 117.1524 9998988
-23.011719 -46.777126 117.04556 7894125
-24.04229 -46.741474 116.9174 7498600
-24.80061 -46.422596 116.9297 7959408
-22.977491 -46.060326 117.31128 8092019
-23.917225 -45.803024 117.32335 8617336
-24.971212 -45.655312 117.26181 8945788
-25.903551 -45.496235 117.23612 8748151
-24.947367 -45.067169 117.69807 8683130
-25.901604 -44.87812 117.71375 8287600
-26.892078 -44.751053 117.6991 9208444
-27.888594 -44.466877 117.90419 9273980
-28.860783 -44.301926 118.06446 9668995
-29.77788 -44.288162 117.98589 9142651
-29.034231 -44.110718 118.6465 8089963
-29.956339 -44.096756 118.56831 8945272
-30.834066 -44.066475 118.54745 9734788
-31.832006 -43.975372 118.84534 9010808
-32.817509 -43.916317 119.07003 9076601
-33.815056 -43.9174 119.12948 9208443
-34.810604 -43.91753 119.52147 10524557
-35.81739 -43.918659 119.56882 9668993
-36.683125 -43.918514 119.99796 9668993
-37.549698 -43.920383 119.7287 9208443
-38.578568 -43.919575 120.45882 7960433
-39.603745 -43.920795 120.48386 8419958
-40.642975 -43.921036 120.85532 10459021
-41.515728 -43.922997 120.55775 12432037
-42.439472 -43.921928 121.33405 8091505
-43.315678 -43.923923 121.02352 9735043
-44.552006 -43.92355 121.69394 8090730
-45.430767 -43.925598 121.36818 6774614
-46.395077 -43.92458 122.14489 7563618
-47.457207 -43.925816 122.12284 7629410
-48.469711 -43.721287 122.67744 9010805
-49.346455 -43.617111 122.58347 9076854
-50.401436 -43.594196 122.52364 10063748
-49.318638 -42.770481 122.97179 10721419
-50.367916 -42.83688 122.80406 9011831
-51.344482 -42.635468 122.74385 8682867
-51.974255 -42.273952 122.78943 10129542
-49.698673 -42.104408 123.16239 8682867
-50.428616 -41.871506 123.14742 9208954
-51.37545 -41.638504 123.10278 8814196
-52.070553 -41.625031 123.0126 10195592
-51.252876 -40.768028 123.43661 8551281
-52.051174 -40.638927 123.37444 9735554
-52.265575 -39.751282 123.66846 11643292
93.444534 -75.394127 92.38681 9735046
92.598755 -75.33429 92.896576 9077374
91.642265 -75.387093 93.368645 8880248
90.972626 -75.298897 93.807663 9341054
98.05587 -74.181107 91.397926 7038307
97.376419 -74.215477 91.642555 10261385
96.369644 -74.276077 92.014656 9735041
95.476578 -74.448708 92.220299 10326921
94.479614 -74.671547 92.494377 8551029
93.619614 -74.699951 92.894478 9998217
92.752617 -74.820915 93.258736 9932425
91.806374 -75.091621 93.536133 8880248
100.20728 -73.827751 91.620842 6840151
99.297783 -73.978149 91.447578 7234908
98.519539 -73.988785 91.830971 7563872
97.434204 -74.06707 92.140244 11905692
96.814087 -74.077156 92.440041 10064003
10.23167 -64.542328 111.24785 9735297
9.5371656 -64.374893 111.01275 8617335
8.8453455 -64.209724 110.778 7038307
9.4465504 -63.822571 111.19151 7038303
8.5858183 -63.612831 110.90104 6708569
9.2548971 -63.015667 111.42685 7959403
8.4426012 -62.674992 111.20906 8156526
7.7169733 -62.463444 110.97795 8089963
8.2821932 -61.746265 111.50549 8485749
7.4802046 -61.658161 111.19268 8156269
8.1017466 -61.072018 111.69288 8814715
7.4036684 -60.800777 111.53619 8748664
6.6515894 -60.538013 111.38673 8880250
6.4533739 -59.886909 111.82684 7696237
5.6072187 -59.651546 111.68799 7959150
4.6431761 -59.288315 111.86539 9142906
3.784564 -59.210804 111.74626 9208443
4.6142607 -59.154968 112.28814 9012088
3.6096201 -59.01432 112.34203 8748148
2.6414499 -58.935474 112.31034 9997959
1.6390543 -58.891743 112.53267 11313819
0.69162655 -58.89193 112.88172 8681843
-0.19311813 -58.892551 113.05286 8550512
-1.2162428 -58.893372 113.21507 9011063
-2.2549086 -58.893883 113.49266 8353134
-3.1141062 -58.894291 113.72681 8419185
-4.2424841 -58.895432 113.82617 10787987
-5.2181196 -58.895779 114.13196 11050900
-6.2000799 -58.896164 114.42947 13024175
-7.2381926 -58.896835 114.64847 10590350
-8.016202 -58.89777 114.66576 10261391
-9.1041365 -58.889011 115.05912 9801098
-10.087443 -58.66938 115.28629 10392972
-10.997121 -58.619049 115.27663 9208699
-11.777637 -58.529892 115.13696 8682867
-10.335519 -57.896641 115.6905 8681843
-11.056931 -57.738831 115.58926 9011064
-12.073268 -57.65966 115.39371 9208696
-12.826224 -57.474716 115.29565 9405560
-11.334554 -56.939663 115.82365 8681843
-12.034348 -56.660057 115.77235 11576984
-12.998614 -56.649025 115.56313 9866368
-13.697925 -56.383556 115.5067 9405560
-12.236369 -55.752377 116.06365 12234914
-13.040948 -55.657814 115.92068 8090729
-13.975034 -55.582989 115.74171 8682871
-14.573838 -55.29771 115.71479 7038307
-13.029191 -54.856255 116.21999 8090729
-13.910645 -54.721474 116.07486 9406593
-14.912889 -54.61861 115.8912 9669766
-14.056512 -53.882118 116.35325 9735558
-14.969604 -53.758064 116.19643 9209215
-15.80454 -53.655712 116.04844 10722451
-15.025746 -52.791565 116.54009 9077629
-15.945392 -52.702427 116.36834 12366759
-16.837643 -52.427174 116.27128 11380123
-15.287751 -51.974125 116.783 8092019
-15.949204 -51.720917 116.72913 10262157
-16.873539 -51.601147 116.56767 11314587
-17.720484 -51.507126 116.41389 8683898
-16.169228 -51.049614 116.92752 9867657
-16.919031 -50.757431 116.86842 10196365
-17.961203 -50.677505 116.66602 10327951
-18.71159 -50.389652 116.60514 8092019
-17.152868 -50.027027 117.08553 12892845
-17.837717 -49.662334 117.06753 11314330
-18.821169 -49.715946 116.82901 8223604
-19.60257 -49.477474 116.74307 9406590
-18.152475 -48.809734 117.31165 8092019
-18.948843 -48.743881 117.15875 7828331
-19.83263 -48.633274 117.00292 7169628
-20.5166 -48.270329 116.98454 7959144
-19.035856 -47.758289 117.50255 8814453
-19.853533 -47.684566 117.34784 7827558
-20.87092 -47.603455 117.15137 8880247
-19.921391 -46.917286 117.61543 8946039
-20.793156 -46.749958 117.48317 10722194
-21.650005 -46.667526 117.32295 11708579
-20.86585 -45.947113 117.77767 10919575
-21.854658 -45.753826 117.68 11445664
-22.821798 -45.517456 117.64455 8289141
-23.578836 -45.354931 117.66276 7038307
-22.046228 -45.071327 118.11932 10985369
-22.762007 -44.840836 118.17304 8617850
-23.818783 -44.762016 118.1128 7762029
-24.800167 -44.511513 118.26012 9341058
-25.716888 -44.324326 118.46358 9472130
-26.751759 -44.231655 118.56713 9471874
-27.328276 -44.241356 118.45981 10853012
-26.718699 -44.069336 119.08532 9208958
-27.761114 -44.046238 119.0199 9077114
-28.535046 -43.992386 119.08759 9405823
-29.642439 -43.946396 119.25748 8813686
-30.515961 -43.911644 119.68321 8813429
-31.380547 -43.913383 119.45879 9208187
-32.499989 -43.912735 120.1729 9471615
-33.512486 -43.914814 119.89358 8814197
-34.50832 -43.913914 120.6435 12367014
-35.524708 -43.916046 120.34724 11971744
-36.395283 -43.914867 121.1389 11576730
-37.415653 -43.917053 120.82632 9603457
-38.452217 -43.916206 121.57253 9341571
-39.330051 -43.918129 121.2905 9933707
-40.533863 -43.917641 121.98606 9471871
-41.414677 -43.919609 121.68895 9670020
-42.34547 -43.918499 122.48159 6840922
-43.376911 -43.920845 122.11886 8090730
-44.328297 -43.919758 122.91246 9735043
-45.329288 -43.759842 122.89407 9603202
-46.240231 -43.651432 123.072 8418928
-47.255447 -43.599812 122.95193 7958376
-47.99831 -43.394882 122.92494 9406075
-45.665386 -43.126709 123.34177 9142651
-46.334648 -42.939663 123.31838 8682100
-47.168613 -42.637707 123.31428 8748405
-48.256474 -42.621326 123.17142 9406332
-49.006214 -42.38105 123.15632 11379348
-47.345001 -41.680401 123.63884 10392969
-48.187405 -41.704891 123.51468 8946038
-49.209682 -41.707035 123.37408 9406589
-49.952793 -41.46936 123.35902 9669504
-48.298344 -40.898102 123.79342 9537918
-49.172123 -40.729134 123.73542 9340796
-50.207699 -40.833721 123.55566 9275260
-51.04649 -40.347561 123.61798 9341054
-49.275723 -39.870831 124.0339 9998983
-50.134602 -39.877201 123.91409 10657169
-51.210846 -39.594471 123.86987 10657682
-51.953415 -39.427921 123.82897 9670529
-50.251846 -38.982555 124.22393 13486781
-51.188023 -38.608837 124.23203 11052438
-52.174999 -38.676754 124.07224 8354926
-51.30547 -37.796082 124.51202 13157042
-52.049965 -37.714664 124.4398 9341820
-52.673794 -37.559452 124.41099 10591630
-52.320717 -36.931938 124.68787 10591630
-52.794788 -36.743828 124.69155 9868168
-52.891731 -36.090664 124.9162 9539462
90.56855 -75.245056 94.067169 10261387
90.021385 -75.167229 94.403046 9998471
95.332184 -74.140114 93.016457 9931907
94.353874 -74.243858 93.174759 9931907
93.636963 -74.225014 93.629715 10787475
92.733498 -74.356117 93.858833 11050391
91.767624 -74.560806 94.091415 9735301
90.850647 -74.651726 94.436218 9801092
89.913025 -74.790276 94.776726 9735556
88.986832 -74.959763 95.086929 10063753
100.57625 -73.825027 92.404793 6511187
99.653442 -73.826721 92.220406 7037786
98.704254 -73.833313 92.672043 8353644
97.638466 -73.885277 92.780632 8879730
96.583542 -73.948372 93.022827 10984848
95.788681 -73.958305 93.41777 11379351
94.798347 -74.053391 93.614647 9931907
94.084785 -74.044174 94.033516 11379356
11.608203 -64.61676 111.81541 8813939
10.71705 -64.489304 111.47929 8946038
11.387092 -63.923214 111.9932 4342073
10.696754 -63.71014 111.77801 5986127
9.8748455 -63.499687 111.5047 7564644
10.496374 -62.810661 112.0458 8946038
9.6352196 -62.581402 111.7629 9143419
10.31691 -62.171207 112.21978 9735297
9.5866575 -61.731647 112.07652 8814455
8.8051577 -61.610851 111.78547 8419955
9.6015806 -61.01482 112.3653 8419955
8.7462587 -60.72287 112.16443 8288369
7.9443331 -60.415447 112.03496 8814715
8.5703325 -60.116455 112.55164 8419955
7.6781683 -59.766655 112.45531 8025200
6.744359 -59.456295 112.45918 7564651
5.7053022 -59.250259 112.4256 7564651
5.7854872 -59.103504 112.95975 8946301
4.7769613 -58.97794 112.96597 8683123
3.8932524 -58.910797 113.03808 7762021
2.7890253 -58.887718 113.42396 8354159
1.8470907 -58.888672 113.50716 9274492
0.97056293 -58.888618 113.91002 9668738
-0.12715247 -58.889992 113.91222 10524300
-1.0911283 -58.890224 114.25298 8287341
-2.0617018 -58.890491 114.58576 9076856
-3.027833 -58.891777 114.56285 8879477
-4.0064688 -58.89209 114.88223 10261127
-4.9907541 -58.892437 115.19367 9208443
-5.9973516 -58.893429 115.28582 9866371
-6.8871202 -58.863514 115.64244 9537922
-7.9263296 -58.651299 115.90208 10195598
-8.8807592 -58.552814 115.76819 9340804
-9.5859995 -58.341057 115.6917 9011579
-8.0328321 -57.927032 116.18862 8946302
-8.8240976 -57.678047 116.10574 9406339
-9.8945532 -57.590446 115.90131 9340285
-10.632852 -57.276539 115.85418 8681843
-9.0796957 -56.856632 116.35324 8814454
-9.9226885 -56.737164 116.21095 9603457
-10.84109 -56.595211 116.06033 9142650
-11.495629 -56.328571 116.01421 11379606
-9.9419928 -55.903778 116.51519 9078138
-10.824967 -55.758377 116.37367 8748148
-11.718196 -55.672626 116.20784 10129796
-10.870076 -54.852627 116.69899 9735042
-11.799769 -54.64872 116.56879 8419694
-12.615624 -54.592922 116.40894 9208952
-11.843987 -53.671669 116.92068 8024938
-12.846349 -53.712475 116.68383 8682612
-13.738112 -53.427273 116.59196 8222322
-12.180232 -52.989803 117.09873 9537664
-12.841071 -52.729221 117.04879 8748403
-13.766322 -52.599224 116.89109 6906720
-14.537799 -52.538441 116.74188 7301478
-13.055306 -52.054161 117.25012 5920074
-13.766997 -51.727394 117.21217 7433057
-14.800298 -51.690876 116.99576 8814715
-15.456582 -51.370152 116.96796 9867657
-13.936913 -51.04734 117.42493 8353899
-14.684676 -50.681919 117.39325 9999757
-15.728915 -50.736607 117.1408 8355191
-16.479498 -50.443066 117.08199 9867657
-15.039884 -49.888233 117.60668 8092019
-15.75598 -49.759628 117.49476 8486777
-16.663973 -49.591873 117.35457 10131086
-17.383068 -49.225182 117.32973 9867657
-15.896035 -48.727249 117.84402 15592933
-16.713955 -48.645329 117.69224 12236462
-17.731344 -48.554096 117.49953 9144449
-16.774696 -47.876507 117.962 13091258
-17.645555 -47.700516 117.8331 8289398
-18.512068 -47.666302 117.65294 8420726
-17.777111 -46.755814 118.15192 8092018
-18.728771 -46.704163 117.95926 8485746
-19.461252 -46.449581 117.89011 8880503
-18.675835 -45.745728 118.36752 8090987
-19.713196 -45.73576 118.15755 8814710
-20.582121 -45.436733 118.15781 9209470
-19.8367 -45.007637 118.65893 9341054
-20.657431 -44.874249 118.58141 8880247
-21.585869 -44.625587 118.63119 12301227
-22.533703 -44.418884 118.65656 9341059
-23.33662 -44.343826 118.6658 7038307
-24.732744 -44.201221 118.93165 7038307
-22.712652 -44.177605 119.27956 8748408
-23.675711 -44.123295 119.31898 10196367
-24.447813 -44.100697 119.28789 8814715
-25.548149 -43.988659 119.53876 8288114
-26.542263 -43.907524 119.64395 7433064
-27.517748 -43.911953 119.93002 8879991
-28.492748 -43.907654 120.18326 9537403
-29.487541 -43.908634 120.27862 9734788
-30.46825 -43.908634 120.70632 8813429
-31.485308 -43.910679 120.44408 9866374
-32.322353 -43.909405 121.25004 9866116
-33.343853 -43.911499 120.97178 8682867
-34.346737 -43.910557 121.73776 8682867
-35.372196 -43.912704 121.44244 12498090
-36.39603 -43.911793 122.20608 11445915
-37.278545 -43.913673 121.9388 10195594
-38.170372 -43.913506 122.3865 9341571
-39.208584 -43.914722 122.41956 12104104
-40.263081 -43.914917 122.8149 11643297
-41.162876 -43.91584 122.88529 9471871
-42.147617 -43.810532 123.34799 8813941
-43.092773 -43.63372 123.48023 7235684
-44.073322 -43.582096 123.36561 8353647
-44.866463 -43.506081 123.3129 10261131
-43.345856 -42.872169 123.75178 8222321
-44.054302 -42.668079 123.72924 7564391
-45.069241 -42.764198 123.55539 10129289
-45.842049 -42.598213 123.51015 8747893
-44.205051 -41.98246 123.95835 7432548
-45.03368 -41.790977 123.91475 8418671
-46.145145 -41.726299 123.78625 9866373
-46.930126 -41.506695 123.75884 11839902
-45.183521 -41.044525 124.16616 7366239
-45.957607 -40.669941 124.19672 8616307
-47.028275 -40.652069 124.05674 10590349
-47.898472 -40.480743 124.00014 9537918
-46.247448 -39.920696 124.42997 8551281
-47.032742 -39.644402 124.42323 8945783
-48.068829 -39.710052 124.25757 10195591
-48.856941 -39.69614 124.15482 9867397
-47.183498 -39.002979 124.63625 9932166
-47.97456 -38.79879 124.60239 9801092
-49.015068 -38.7924 124.46239 12960181
-49.942322 -38.525604 124.43273 13091767
-50.577976 -38.239998 124.4498 12433837
-48.195301 -37.978878 124.87082 10788755
-48.986416 -37.810257 124.82407 12104871
-49.991253 -37.710197 124.72305 10328204
-50.912506 -37.559124 124.65206 11315096
-49.239681 -37.171909 125.0219 9472639
-49.948406 -36.706375 125.09454 9011320
-50.975101 -36.625229 124.98367 12103843
-51.871887 -36.57325 124.87992 12301734
-52.51128 -36.395458 124.85729 10591630
-50.243008 -35.92271 125.33976 8681843
-50.985298 -35.680889 125.32629 10655634
-51.943439 -35.699776 125.18832 10920085
-52.750298 -35.685425 125.08317 8026225
-51.908005 -34.791241 125.52425 10063753
-52.800003 -34.72295 125.42705 8091248
-52.181374 -34.065556 125.75138 11379356
-52.933136 -33.822083 125.73727 9932166
-53.329319 -33.142689 125.93073 8485232
91.514816 -74.212082 94.822716 9209467
91.012115 -74.175186 95.213867 9538176
90.053543 -74.287361 95.350731 9998215
89.051895 -74.402626 95.663078 9932167
88.105476 -74.568222 95.886353 9800581
87.213272 -74.558746 96.323158 6643029
86.258095 -74.601234 96.730209 6379857
101.72219 -73.821404 93.160278 8550769
100.83514 -73.822067 93.31723 6840151
99.793564 -73.823593 93.246681 5919050
98.826714 -73.82354 93.686958 6511954
97.828369 -73.824295 93.862434 6511954
96.834 -73.825058 94.0317 9997955
95.845383 -73.825829 94.196571 9602943
94.889725 -73.859077 94.521164 9931908
93.81897 -73.904724 94.674416 10458768
92.962189 -73.964645 94.944038 11116184
92.098541 -74.018303 95.199409 10655890
91.228172 -74.014748 95.670609 10261387
90.123787 -74.106468 95.887184 9142907
13.762222 -65.423264 112.43113 10327180
13.190936 -65.277534 112.24094 8813683
13.633701 -65.0867 112.50826 10590092
12.889489 -64.682396 112.34512 8682097
12.142438 -64.636093 112.03947 7037274
12.732283 -63.751331 112.64423 8222576
11.897523 -63.672123 112.3136 6511700
11.128469 -63.260513 112.14253 7038557
11.832676 -62.714394 112.66277 9406591
10.967223 -62.523525 112.36291 11511193
11.541512 -61.86108 112.8727 11380380
10.796351 -61.640656 112.63657 10787729
10.061652 -61.367432 112.42579 9735297
10.841699 -60.859627 112.98132 9537664
10.026605 -60.582859 112.81303 8946040
9.1692076 -60.310684 112.64957 8288368
9.7640257 -59.922283 113.22762 9537664
8.8812666 -59.676613 113.05334 8682867
8.0054026 -59.305656 113.26003 8090990
7.1002626 -59.246429 113.02953 7564651
7.6804266 -59.169834 113.53635 7564651
6.9410429 -59.047558 113.64022 8551287
5.958127 -58.94865 113.59832 10393488
4.8867006 -58.883446 113.99036 7433056
4.05762 -58.884041 114.14552 7038298
3.1777525 -58.884598 114.33756 7498849
2.0796099 -58.88525 114.59254 8090987
0.97685909 -58.885925 114.83951 10590093
0.087634064 -58.886555 115.00925 11511450
-0.8256216 -58.88686 115.30578 9669247
-1.7977934 -58.888119 115.2929 10063748
-2.7785254 -58.888401 115.62625 10129285
-3.7658663 -58.888706 115.95144 9340027
-4.9156008 -58.826302 116.19051 11708578
-5.6998148 -58.603855 116.37505 12169128
-6.80301 -58.540165 116.23372 9998474
-5.9032011 -57.924004 116.66081 11708321
-6.6048021 -57.664322 116.60175 8814202
-7.6079798 -57.684097 116.37251 8748923
-6.8845568 -56.758446 116.87519 8222581
-7.7420187 -56.6833 116.71329 10525075
-8.5980597 -56.610691 116.55083 8420213
-7.7206812 -55.727036 117.07204 8880510
-8.6453009 -55.65868 116.8928 8223598
-9.5840712 -55.520721 116.73618 8289390
-8.741107 -54.729145 117.21567 8092011
-9.7524462 -54.607738 117.03687 8947063
-10.550082 -54.366501 116.9497 10985109
-9.0721483 -54.041321 117.39707 8092011
-9.5856619 -53.713337 117.40485 8092011
-10.621034 -53.661507 117.19501 9143162
-11.420075 -53.423553 117.10632 8287854
-9.8512697 -52.997952 117.61092 7235934
-10.652574 -52.758652 117.52225 6511955
-11.688754 -52.711193 117.31058 8222061
-12.34394 -52.383057 117.28703 9669248
-10.723975 -52.054733 117.76698 8288110
-11.559274 -51.697075 117.71424 8551025
-12.610938 -51.74514 117.46281 9340281
-11.892476 -50.803123 117.96971 9011575
-12.587298 -50.734612 117.84042 7498591
-13.526772 -50.538639 117.70362 6972504
-14.254439 -50.21328 117.66167 8092019
-12.682717 -49.772678 118.17357 9208695
-13.578494 -49.639225 118.02351 7433056
-14.597058 -49.537426 117.83441 8092019
-13.632098 -48.868378 118.29557 8814968
-14.503049 -48.683334 118.17001 8355191
-15.3707 -48.640404 117.99285 11776427
-14.625962 -47.735844 118.49178 9671050
-15.564525 -47.756908 118.27524 14276817
-16.350321 -47.535999 118.18188 14867411
-15.543426 -46.751617 118.65034 11249311
-16.53393 -46.711102 118.44495 10920603
-17.323002 -46.467979 118.35899 8092019
-15.86427 -45.983242 118.86204 13024949
-16.543083 -45.748589 118.84371 11051674
-17.487768 -45.641907 118.70151 8552312
-18.3894 -45.446804 118.63599 9341054
-17.538944 -45.080936 119.11086 9143932
-18.430916 -44.829617 119.1099 8946296
-19.394783 -44.648064 119.08491 8683124
-20.433283 -44.388306 119.15308 8288366
-20.415131 -44.18663 119.73428 8288366
-21.450336 -44.127316 119.70013 10196107
-22.327177 -44.049114 119.76311 10195851
-23.321524 -43.941078 120.10427 9537665
-24.37521 -43.902691 120.10477 10722453
-25.320656 -43.902313 120.64845 11971744
-26.316074 -43.903477 120.68134 8814201
-27.163326 -43.904121 120.82745 9142908
-28.135658 -43.904057 121.27396 9668991
-29.157534 -43.906044 121.03131 9537403
-30.125727 -43.905003 121.81666 9471613
-31.298512 -43.907341 121.51932 10063753
-32.288345 -43.906334 122.30211 8814197
-33.171688 -43.908131 122.06448 10129798
-34.040932 -43.907879 122.53185 9143161
-35.068615 -43.908993 122.59473 8946039
-36.101383 -43.909607 122.83462 11183001
-36.989788 -43.909935 123.11068 10525328
-37.730877 -43.911518 122.88498 7565675
-38.993427 -43.870728 123.69096 9538949
-39.860752 -43.66637 123.80724 10130058
-40.971859 -43.645298 123.79491 9143163
-42.001785 -43.436565 123.73008 10195851
-40.148411 -43.010685 124.13873 7695204
-40.947247 -42.775982 124.11495 7563618
-41.854351 -42.633976 124.04259 9932422
-42.808983 -42.584705 123.92994 10787729
-41.159992 -42.048119 124.351 6510930
-41.964298 -41.650063 124.38595 9537666
-42.901897 -41.630795 124.26472 11840158
-43.823818 -41.609383 124.14639 9406078
-42.085476 -40.972111 124.61635 10590351
-42.858334 -40.764332 124.5863 10787473
-43.877502 -40.750946 124.45174 9471614
-44.831997 -40.668602 124.35117 7168860
-43.158199 -40.063641 124.8005 10590351
-43.872829 -39.821022 124.79111 9537409
-44.859936 -39.869938 124.63828 7958376
-45.771175 -39.526657 124.63866 7892839
-46.493587 -39.286037 124.62748 9011576
-44.238743 -39.154072 124.98397 9142651
-44.871563 -38.807091 125.02383 8550513
-45.871372 -38.566811 124.97461 9734787
-46.867466 -38.617657 124.8198 9669250
-47.59462 -38.376904 124.80804 9011576
-45.827755 -37.730297 125.28527 10195338
-46.767033 -37.708641 125.16467 9800836
-47.694111 -37.637798 125.06364 9801092
-48.377483 -37.445919 125.04012 8682867
-46.869606 -36.745502 125.50149 8419695
-47.812317 -36.759212 125.3675 9472639
-48.757912 -36.774521 125.23257 8682867
-49.493801 -36.53281 125.21999 8682867
-47.784321 -35.917889 125.678 8682867
-48.762783 -35.834343 125.5745 8682867
-49.723942 -35.596142 125.52981 8748148
-50.500122 -35.281559 125.53819 9734531
-48.860806 -34.816292 125.93228 8814197
-49.765621 -34.581196 125.89412 9208187
-50.758083 -34.639347 125.73704 8879222
-51.444736 -34.515812 125.68807 10787220
-49.867702 -33.847748 126.14756 9734531
-50.731068 -33.650288 126.10133 9208187
-51.734898 -33.667542 125.95764 9668994
-52.44392 -33.420567 125.95062 9932166
-50.893963 -32.736389 126.41227 9932167
-51.703815 -32.716267 126.30875 9077113
-52.707378 -32.774403 126.15016 8287853
-53.402493 -32.649784 126.10039 8485232
-51.80991 -31.978296 126.56327 9011320
-52.683899 -31.779211 126.51618 8024937
-53.452648 -31.740141 126.42521 7367268
-52.805771 -30.957357 126.80367 10524559
-53.517277 -30.837225 126.78516 9405823
88.390305 -74.152451 96.569473 14010820
87.172226 -74.238426 96.861977 7827303
86.302757 -74.236115 97.297859 6313808
85.371117 -74.335983 97.578384 7761510
84.484451 -74.358383 97.918335 9472128
83.622673 -74.350853 98.248444 9405822
102.60596 -73.818382 93.820465 9208443
102.02667 -73.818474 94.043495 10065033
100.98081 -73.818886 94.359329 7630184
99.931473 -73.820435 94.281464 6050892
98.896561 -73.820862 94.585617 8090986
97.949371 -73.821182 94.889168 8156522
97.061485 -73.822166 94.936913 8945269
96.206047 -73.822372 95.237823 8353391
95.234978 -73.822433 95.64592 8156271
94.220703 -73.824013 95.540237 7564651
93.256462 -73.824081 95.936264 9077630
92.135666 -73.843307 96.160431 9998471
91.106087 -73.874329 96.235954 9472383
90.252243 -73.924667 96.521721 8813942
89.315605 -73.975395 96.737938 8550514
88.247162 -74.002846 97.161652 8484977
87.371124 -74.079742 97.319031 7169373
86.860268 -74.044289 97.691238 5919050
15.645105 -65.759216 113.11504 9406334
14.971883 -65.532516 112.91255 8551025
14.199954 -65.383568 112.63663 9735301
14.859007 -64.89312 113.11595 8682355
14.045213 -64.609413 112.87503 9735814
14.098747 -63.714779 113.25073 7959918
13.248883 -63.605579 112.92548 8288884
13.836697 -62.915424 113.452 7039331
13.023206 -62.666248 113.19762 9538949
12.313098 -62.344299 113.01671 9537664
12.921344 -61.708508 113.53069 9472643
12.023895 -61.608978 113.18098 9142650
12.664999 -60.926701 113.72748 8681843
12.027114 -60.728378 113.58815 9208699
11.21766 -60.427773 113.43754 9076857
11.044005 -59.856476 113.83447 10722194
10.158216 -59.524479 113.81094 9603457
9.2484541 -59.262436 113.88513 9603457
8.9796667 -59.093746 114.34634 9471871
8.1425467 -59.016571 114.25367 8879990
7.2457285 -58.915939 114.28815 10458250
6.2369013 -58.87941 114.80048 10853009
5.268733 -58.880489 114.84747 7959144
4.3126497 -58.880577 115.23673 7433056
3.2020216 -58.881878 115.27102 7564643
2.2362375 -58.882015 115.64682 8682867
1.4566813 -58.882759 115.72887 10589837
0.42583367 -58.883224 116.01888 7695971
-0.7213583 -58.884266 116.15874 8617072
-1.59657 -58.884636 116.41444 9998467
-2.6905432 -58.766613 116.87607 10853521
-3.5548029 -58.601505 116.89378 9077626
-4.5290346 -58.501099 116.7483 10195338
-3.6375875 -57.791698 117.21101 9078140
-4.6130152 -57.678669 117.03707 9274492
-5.4740438 -57.459301 116.92782 11708578
-3.9593534 -57.091175 117.39917 8814453
-4.5608969 -56.78138 117.38074 8616818
-5.5089369 -56.676758 117.20979 9274493
-6.3982649 -56.515926 117.07256 8683131
-4.8177786 -56.118168 117.56944 9209467
-5.5642672 -55.791424 117.52525 9275260
-6.6107492 -55.722603 117.31922 9143679
-7.355794 -55.421764 117.26575 9604231
-5.6790228 -55.150661 117.73706 8814710
-6.4364691 -54.774151 117.70885 9012089
-7.5130033 -54.732994 117.48592 10064778
-8.313138 -54.485092 117.40067 13157041
-6.8284216 -54.019836 117.90137 8354159
-7.538146 -53.740471 117.84777 9933702
-8.4653101 -53.713299 117.65273 10394508
-9.0902529 -53.438313 117.61623 8092011
-7.7039671 -52.762356 118.17322 8092011
-8.4379225 -52.691452 118.03703 8749941
-9.461669 -52.586395 117.84946 8091755
-8.6311731 -51.839027 118.30987 10855317
-9.4267073 -51.617592 118.21584 9999497
-10.400373 -51.569992 118.01804 8880248
-11.127355 -51.236324 117.98026 11379356
-9.5460653 -50.811184 118.48793 9144191
-10.443772 -50.668049 118.34166 9078142
-11.396993 -50.587284 118.15947 10261899
-10.490216 -49.894722 118.61634 7959664
-11.362227 -49.70015 118.49405 9867141
-12.220784 -49.591572 118.34306 8418921
-10.636542 -49.160084 118.85444 7564651
-11.434464 -48.756886 118.82552 10392970
-12.450627 -48.699032 118.62081 9208180
-13.296765 -48.55299 118.48638 9011575
-12.388942 -47.710239 118.99885 9734782
-13.379792 -47.703354 118.78094 8157296
-14.168256 -47.45203 118.69815 8289140
-12.701707 -46.980793 119.19801 9734782
-13.337806 -46.68903 119.16403 9736071
-14.315907 -46.599121 118.97959 8881020
-15.088813 -46.40321 118.87986 11906725
-13.501733 -45.957218 119.39925 10459537
-14.370906 -45.72245 119.34652 8749434
-15.301423 -45.628601 119.20147 11051416
-16.0527 -45.428448 119.16827 11380124
-15.48467 -44.958946 119.6617 9998727
-16.368216 -44.836178 119.57224 9603969
-17.31184 -44.53619 119.66652 9406332
-18.285791 -44.271999 119.92237 9735039
-19.264759 -44.195274 119.95626 8419952
-19.200901 -44.036415 120.48036 9274487
-20.231174 -44.011261 120.39716 8288366
-21.083206 -43.947659 120.4855 8288366
-22.200518 -43.898727 120.52814 8880247
-23.108116 -43.89753 121.34032 10985367
-24.130682 -43.899399 121.13963 8813686
-25.090263 -43.899254 121.61086 11313558
-26.085995 -43.90015 121.73367 10195337
-26.965425 -43.901817 121.54124 8814201
-28.066616 -43.900986 122.30988 9932165
-29.097258 -43.902985 122.06782 9274229
-30.072798 -43.901909 122.86825 9537664
-30.960154 -43.903671 122.64628 10195338
-31.969212 -43.903664 123.09084 7366496
-32.995731 -43.904724 123.17109 8616562
-33.737286 -43.906239 122.96964 10129798
-34.758823 -43.905247 123.76125 8682867
-35.801422 -43.907421 123.46278 9472383
-36.869267 -43.667034 124.33326 10262156
-37.803608 -43.62117 124.18191 13288373
-38.780125 -43.472961 124.1575 9670535
-37.105259 -42.963367 124.57225 10460049
-37.800297 -42.716797 124.56698 9539205
-38.765297 -42.75668 124.42046 10723222
-39.740887 -42.654682 124.32415 8288374
-38.148335 -42.053432 124.76101 8092019
-38.847218 -41.807255 124.75508 15393495
-39.757458 -41.813091 124.62845 12959417
-40.699444 -41.657898 124.55611 8617339
-41.393597 -41.417393 124.54877 7564651
-39.792175 -40.887329 124.96091 13683139
-40.741398 -40.549416 124.95417 10854299
-41.771088 -40.592575 124.79758 7564651
-42.480923 -40.349007 124.78915 8617080
-40.740803 -39.720554 125.25615 8551545
-41.661713 -39.692707 125.14033 7630444
-42.726101 -39.652538 125.00938 9143167
-43.557228 -39.439541 124.97324 10853012
-41.809353 -38.808212 125.44229 8617080
-42.674999 -38.745605 125.34669 10195340
-43.63673 -38.797146 125.19638 10326668
-44.319393 -38.510921 125.20727 10853012
-42.780392 -37.873978 125.64983 9931910
-43.695591 -37.797089 125.55267 9603202
-44.672604 -37.638954 125.47657 10129289
-45.54546 -37.389469 125.44804 8813942
-43.647179 -36.963135 125.86323 8681843
-44.562031 -36.578503 125.87824 9800324
-45.648365 -36.666351 125.69749 8419184
-46.388248 -36.352024 125.71084 8813942
-44.872852 -35.836823 126.10613 7563619
-45.597523 -35.625484 126.08396 8024426
-46.635883 -35.713848 125.90961 9603714
-47.426662 -35.53994 125.86478 8946039
-45.646587 -34.900688 126.34152 7563619
-46.551243 -34.760361 126.26884 10393229
-47.68478 -34.759041 126.11416 9603969
-48.424831 -34.668976 126.04568 8682867
-46.753056 -33.979145 126.52602 10459278
-47.547607 -33.802731 126.48158 9932934
-48.577053 -33.792427 126.3444 9011833
-49.475471 -33.469635 126.33912 9866630
-47.644802 -33.0709 126.73508 9735555
-48.477375 -32.719074 126.7494 9998471
-49.540264 -32.596298 126.64865 10064009
-50.388981 -32.510536 126.56371 9932167
-48.80032 -31.899181 127.00411 10459022
-49.545181 -31.649614 126.99313 10261644
-50.508362 -31.659212 126.85777 9866374
-51.414757 -31.598007 126.75599 9537665
-49.765755 -30.960239 127.21429 10064009
-50.59161 -30.791376 127.20997 8813686
-51.505875 -30.732035 127.12189 8089963
-52.374577 -30.650707 127.05912 9800837
-53.474895 -30.362322 127.10793 10524301
-51.676975 -30.117958 127.53999 9537665
-52.499168 -29.925344 127.57439 10327179
-53.458321 -29.856232 127.49606 10985107
-54.051792 -29.431219 127.89829 10196106
84.180206 -74.209648 98.423927 10261132
83.454002 -74.198021 98.818657 9405822
82.672333 -74.243721 99.046661 9866115
81.700935 -74.228294 99.574387 8484720
81.060272 -74.1912 100.01346 8090987
103.8391 -73.813576 94.95121 8090987
102.99181 -73.815567 94.630623 10591121
102.1158 -73.815712 94.963417 9341823
101.2393 -73.81588 95.288887 9210238
100.33134 -73.816856 95.347206 9736325
99.312897 -73.817635 95.520988 10262414
98.327812 -73.81765 95.947838 9209984
97.28846 -73.819244 95.84977 8946296
96.310303 -73.81929 96.26432 8617331
95.330643 -73.819359 96.66922 8683126
94.309128 -73.820969 96.55619 7038307
93.336472 -73.821068 96.949013 9209471
92.479805 -73.82135 97.221474 9735044
91.488983 -73.822395 97.296738 8813942
90.391602 -73.822968 97.576195 7629412
89.419983 -73.830269 97.697838 6905945
88.565292 -73.825844 97.891212 6642773
87.556808 -73.87645 98.095596 5919306
86.460014 -73.918648 98.324593 6116685
85.499924 -73.996056 98.521019 7959401
84.726448 -74.01722 98.823143 9603458
83.723221 -74.011047 99.332565 11708316
82.515579 -74.106499 99.587746 10260872
17.245003 -66.338394 113.58022 5919050
17.030735 -65.767494 113.71259 6182222
16.215248 -65.672562 113.39645 7563874
16.877455 -65.009178 113.94505 5919050
16.116362 -64.692902 113.73984 7037274
15.224488 -64.478828 113.43763 9143162
15.847326 -63.925793 113.92534 7432288
15.281769 -63.597466 113.8096 8616562
14.596611 -63.356216 113.6077 7039331
15.180842 -62.780716 114.08751 8682869
14.311162 -62.618595 113.77452 7565418
14.958655 -62.080658 114.26697 7038307
14.198792 -61.679508 114.09565 7038819
13.416871 -61.505737 113.82522 7039331
14.077532 -60.846237 114.38631 7038307
13.225847 -60.652386 114.15454 7433063
12.562229 -60.373112 114.06366 9076857
13.184774 -59.98793 114.65134 7564651
12.288333 -59.7491 114.48202 9275005
11.270655 -59.377861 114.49965 9669250
10.539875 -59.174587 114.73172 8682867
10.332665 -59.067043 115.01067 9077369
9.3942938 -58.978046 114.91107 9603457
8.3598337 -58.875072 115.37673 8814453
7.3866434 -58.876114 115.44117 9932163
6.4320765 -58.876133 115.85184 12496806
5.4550524 -58.877224 115.90004 9340030
4.3149691 -58.878113 116.08942 8024170
3.4516478 -58.878361 116.38283 8287853
2.602519 -58.879005 116.53144 8682867
1.5521173 -58.879765 116.72719 11707804
0.42772767 -58.880466 116.97591 11050899
-0.49049476 -58.817314 117.3302 10721934
-1.3550272 -58.513756 117.50957 8946297
-2.1991644 -58.570114 117.24111 10130313
-1.5109491 -57.713043 117.76334 8880762
-2.4044485 -57.669388 117.53056 8617848
-3.203618 -57.554436 117.39485 9143934
-2.414012 -56.663902 117.90176 9143934
-3.358943 -56.645603 117.69694 8880504
-4.0384836 -56.477791 117.60873 9077881
-2.5621805 -55.981838 118.11886 9143934
-3.3120432 -55.648678 118.07635 8748660
-4.403348 -55.628021 117.84255 8880246
-5.1126146 -55.340195 117.7922 9209467
-3.6133986 -54.890831 118.29021 8419440
-4.3335238 -54.667675 118.21349 8419440
-5.3138494 -54.595394 118.02337 8814710
-6.071147 -54.318954 117.95821 8814710
-4.4774313 -53.921143 118.45807 8089963
-5.2839308 -53.665398 118.3743 8814710
-6.3774691 -53.567822 118.16846 8288366
-7.128274 -53.247784 118.12085 7038298
-5.4959726 -52.92672 118.60079 7893608
-6.2374201 -52.668865 118.53221 8419952
-7.1999617 -52.611023 118.34071 8223341
-6.3932199 -51.828453 118.80888 9538433
-7.3061132 -51.731873 118.64267 9078906
-8.2056131 -51.581375 118.49939 11710626
-6.6104326 -51.170177 119.00451 9932169
-7.2998152 -50.829807 118.97799 9143678
-8.1721926 -50.666313 118.8455 10789525
-9.0805807 -50.634392 118.65636 9473157
-8.3504648 -49.735039 119.15067 8551799
-9.3160677 -49.702396 118.94836 7959408
-10.061341 -49.426376 118.8843 7959664
-8.6565504 -48.955101 119.37044 9209467
-9.269578 -48.662186 119.342 8683126
-10.240252 -48.625084 119.13974 8288371
-11.042726 -48.343586 119.06496 10787985
-9.5430479 -47.862026 119.576 8485747
-10.220815 -47.708359 119.48183 7366755
-11.201259 -47.60854 119.30051 9208438
-11.928077 -47.409241 119.21228 9734782
-10.331418 -46.977348 119.72655 7037274
-11.146918 -46.743103 119.63149 8353132
-12.249095 -46.671997 119.41251 10327434
-11.372689 -46.015873 119.84917 10195078
-12.166045 -45.702354 119.85405 11840158
-13.120118 -45.573872 119.72474 10656915
-14.026191 -45.305038 119.71407 9012606
-13.169679 -44.872581 120.24253 9735553
-14.130748 -44.686127 120.17551 8946555
-15.138789 -44.48317 120.23839 8748660
-16.008514 -44.293304 120.34827 9735555
-16.959133 -44.218304 120.38276 9011573
-16.305609 -44.066902 121.01076 9735555
-17.121025 -44.017006 120.99385 9340023
-18.014935 -43.980415 120.92773 9800573
-18.99803 -43.893101 121.07822 10261382
-19.974457 -43.893852 121.24656 8682100
-20.911341 -43.893608 121.7406 8090219
-22.083841 -43.895691 121.5319 8880247
-22.997746 -43.894455 122.35854 12433069
-23.881687 -43.896065 122.18808 9011321
-24.831467 -43.896835 122.33548 8747892
-25.851601 -43.896782 122.79991 9668992
-26.88636 -43.898735 122.5761 9537408
-27.847286 -43.897587 123.39402 9734788
-28.886965 -43.899593 123.15344 9208435
-29.88838 -43.899525 123.61493 7827558
-30.764374 -43.900242 123.74993 8287853
-31.509399 -43.901726 123.56167 7038298
-32.66629 -43.900963 124.33216 7695205
-33.757912 -43.785851 124.40929 9011065
-34.617718 -43.67234 124.65428 9077625
-35.72868 -43.538715 124.55101 8880246
-36.430439 -43.411022 124.50147 9275004
-34.730984 -42.817722 124.95008 10459019
-35.53944 -42.636948 124.90535 9209467
-36.576405 -42.619301 124.76991 8354675
-37.329773 -42.334476 124.77066 8092019
-35.768024 -41.731831 125.20378 9275260
-36.613903 -41.662312 125.11338 8683641
-37.554928 -41.70517 124.96904 8092019
-38.311275 -41.527416 124.93034 14406595
-36.756855 -40.901283 125.37103 9933448
-37.598099 -40.714905 125.32388 8815483
-38.603069 -40.793606 125.1577 11183261
-39.363457 -40.616405 125.11827 11643557
-37.73476 -40.032429 125.55374 7565675
-38.550339 -39.829121 125.51627 8617075
-39.564171 -39.629833 125.45019 8946301
-40.459713 -39.384754 125.41691 7564651
-38.591129 -38.975197 125.82185 9669503
-39.484745 -38.587772 125.84077 8946038
-40.551937 -38.667633 125.66557 8617079
-41.424313 -38.439507 125.6293 8353908
-39.780857 -37.850883 126.06889 13879482
-40.549702 -37.671928 126.02887 10327434
-41.509068 -37.717953 125.88079 8617078
-42.239532 -37.673294 125.79703 9274495
-40.783314 -37.03812 126.22803 9735298
-41.461628 -36.747322 126.24117 8682867
-42.525875 -36.766399 126.08851 8879478
-43.535828 -36.460567 126.06177 9339773
-41.60297 -35.999954 126.49425 8682867
-42.440449 -35.856174 126.43205 8682867
-43.435608 -35.636311 126.37599 9208699
-44.370655 -35.50164 126.29709 9208700
-42.684841 -35.079403 126.6818 10787732
-43.541233 -34.619804 126.73213 10985111
-44.479965 -34.624763 126.60183 10327436
-45.361931 -34.560291 126.50457 9208700
-43.58427 -33.931385 126.9772 11380380
-44.374676 -33.715714 126.94769 10722450
-45.417099 -33.693913 126.8129 9208699
-46.393559 -33.602802 126.71244 9406591
-44.681614 -33.00613 127.16439 8681843
-45.412678 -32.755238 127.15575 9142906
-46.360958 -32.760441 127.02402 9998470
-47.252277 -32.695744 126.92559 10261899
-45.78722 -32.07848 127.3512 10261641
-46.37257 -31.815363 127.36703 10721935
-47.414867 -31.796659 127.23116 11248279
-48.43454 -31.588118 127.16759 10985622
-49.221363 -31.262207 127.17873 10459022
-46.57114 -31.132683 127.58879 11314071
-47.314747 -30.936092 127.57366 11774622
-48.301807 -30.641033 127.62402 12499117
-49.309864 -30.585279 127.5163 10196107
-50.169147 -30.457117 127.48602 9274237
-49.27763 -29.882133 128.04715 9210491
-50.320999 -29.775402 127.98792 9603202
-51.327602 -29.645033 128.00237 10064009
-52.224041 -29.374987 128.26237 9143164
-53.231213 -29.311174 128.24895 9670020
-53.334507 -29.090029 128.93462 9933191
-54.16209 -29.119087 128.73273 9670020
-54.771721 -28.914469 129.30681 9735812
80.674843 -74.169487 100.27563 9735297
80.16066 -74.141075 100.62342 8090987
104.38776 -73.767273 95.80072 9341054
103.38032 -73.812721 95.448654 8880503
102.56106 -73.812401 95.917076 9012603
101.49763 -73.812859 96.22654 9144445
100.31658 -73.814255 96.256981 10065290
99.439857 -73.814461 96.569801 10262414
98.562744 -73.814682 96.875366 9604484
97.660522 -73.815712 96.915207 9077882
96.671532 -73.815773 97.327164 9801605
95.658752 -73.816628 97.471397 9406847
94.512573 -73.818092 97.467117 8156785
93.701881 -73.817924 97.878525 9670020
92.667969 -73.818504 98.12751 9603714
91.673096 -73.819405 98.249474 9011321
90.695793 -73.81958 98.618019 7629412
89.706955 -73.820518 98.72628 5787464
88.723938 -73.821465 98.830513 5656390
87.752678 -73.821678 99.178009 6840663
86.775787 -73.822655 99.268822 6315090
85.830917 -73.823227 99.483597 9802121
84.701569 -73.843735 99.763054 10064780
83.777985 -73.845291 99.885017 8879733
82.912003 -73.899887 100.173 9931906
81.896706 -73.986656 100.30585 7695204
81.058365 -73.989487 100.7036 8485746
79.921768 -74.044601 101.06956 7827817
79.000565 -74.079544 101.39962 10656142
19.104786 -66.578545 114.29187 7169374
18.288975 -66.466278 113.98241 6248786
18.399021 -65.722107 114.32362 8026224
17.555237 -65.57338 114.0165 7893610
18.187153 -64.944176 114.53823 10855061
17.378265 -64.602715 114.32218 8025709
16.619099 -64.328148 114.1013 6510930
17.258495 -63.696281 114.62726 9603970
16.399195 -63.621273 114.28441 6708309
17.005468 -62.895947 114.83279 11380380
16.446091 -62.693634 114.67009 8090218
15.708428 -62.509045 114.42311 6774358
16.284004 -61.860416 114.92801 8748148
15.417623 -61.633263 114.64201 7103583
15.366722 -60.750748 115.0112 10853266
14.46126 -60.526764 114.77608 9603458
14.374789 -59.924198 115.21738 10655888
13.533522 -59.597473 115.15633 7959150
12.499307 -59.276855 115.22047 8814711
12.46923 -59.095016 115.82043 8617333
11.535554 -59.061687 115.53819 8288370
10.564963 -58.889492 115.9008 8221549
9.6124601 -58.871563 116.04734 9340029
8.6488657 -58.872082 116.28539 8748404
7.593461 -58.872799 116.50094 8682867
6.6109095 -58.873871 116.55886 8682867
5.6447191 -58.873901 116.97009 8550514
4.7204733 -58.874805 117.06096 8418928
3.6822309 -58.875118 117.40657 8682098
2.692153 -58.876297 117.43157 9077111
1.7066259 -58.876438 117.81366 10063235
