# .PCD v0.7 - Point Cloud Data file format
VERSION 0.7
FIELDS x y z rgb
SIZE 4 4 4 4
TYPE F F F U
COUNT 1 1 1 1
WIDTH 1200
HEIGHT 1
VIEWPOINT 0 0 0 1 0 0 0
POINTS 1200
DATA ascii
82.612167 -38.488014 -115.75752 6511954
83.336563 -38.877514 -115.30815 8288365
84.218407 -39.152802 -114.64248 11511967
65.826645 -37.785744 -145.39267 10853012
66.391541 -37.711815 -144.79396 9867139
66.812798 -37.656567 -144.34421 9867139
82.851028 -37.813511 -115.92501 7630179
83.512909 -37.922642 -115.61143 10064520
67.980728 -37.388729 -140.64665 10459275
68.386215 -37.334946 -140.20091 11314583
69.057602 -37.245548 -139.45668 9537152
69.723572 -37.156536 -138.71103 8089963
70.383423 -37.067955 -137.96379 9076858
70.907616 -36.99736 -137.36502 9734531
72.423378 -36.679287 -133.19652 8222580
73.047943 -36.593758 -132.45348 7037274
73.543503 -36.525631 -131.85805 8616563
82.209045 -36.85738 -116.56348 9275005
82.796494 -37.077801 -116.23658 7367007
83.5485 -37.165497 -115.8946 8090987
73.912918 -36.474724 -131.411 11906725
74.401939 -36.406979 -130.81407 9340801
75.00882 -36.322758 -130.06696 8880766
75.60981 -36.238903 -129.31862 11907238
76.346878 -36.104717 -126.38885 10064008
77.052765 -36.011848 -125.51621 8222316
77.75164 -35.919708 -124.64252 9537918
78.328903 -35.843472 -123.91369 8090987
78.90097 -35.767799 -123.18418 9274749
79.581367 -35.677677 -122.3079 9537918
80.143257 -35.603111 -121.57703 8814452
80.532913 -35.519291 -120.90807 8748660
81.209206 -35.502041 -118.52061 6972505
81.824158 -35.669697 -117.70165 7366752
82.402138 -35.96788 -117.05489 9275006
83.041962 -36.315514 -116.47895 6840925
80.797897 -35.445518 -120.36852 9406590
81.21447 -35.37698 -119.74955 9406590
81.730865 -35.291626 -118.9756 6511954
125.24813 -64.466248 -45.154076 8616307
124.55807 -63.558926 -46.429688 9142651
125.08984 -63.797108 -45.726677 9997703
125.58609 -63.778198 -44.935844 8813684
125.94456 -63.568535 -44.11385 9734788
123.63037 -62.60199 -47.949951 13684680
124.10931 -62.776909 -47.338295 7828589
124.70287 -62.859375 -46.653099 8748403
125.33822 -62.969532 -45.907822 9339767
125.92655 -62.714897 -45.124641 8221543
126.2476 -62.746128 -44.151337 8353134
126.5577 -62.702007 -43.284416 9011320
126.92594 -62.489204 -42.436478 8880246
123.02283 -61.7346 -49.076241 14868178
123.52184 -61.848896 -48.475845 13289147
124.17917 -61.961491 -47.70546 7696229
124.93657 -61.816071 -46.967262 8090470
125.5561 -61.919121 -46.242886 8484970
126.15724 -61.950916 -45.308727 8287591
126.57338 -61.688778 -44.387939 8813941
126.90912 -61.718075 -43.361191 8748148
127.21704 -61.719429 -42.448441 8617330
127.52608 -61.680531 -41.578033 8486000
127.8412 -61.500454 -40.849586 11183769
121.6525 -60.406342 -51.59716 9932678
122.00671 -60.606014 -50.99044 8025197
122.5089 -60.867264 -50.194534 7828335
123.18225 -60.835136 -49.512146 10657687
123.87804 -60.856228 -48.728367 11446427
124.45041 -61.024242 -47.965622 6511954
125.11565 -61.127041 -47.147972 6643539
126.8866 -61.035069 -44.202629 13024949
127.24119 -60.911369 -43.405518 8616306
127.63817 -60.76939 -42.544945 7893863
127.95849 -60.735458 -41.675125 8814965
128.26451 -60.741642 -40.757927 9143418
128.6107 -60.662445 -39.900787 7695204
128.9991 -60.533112 -39.043022 6510930
129.27991 -60.46846 -38.368523 8287342
119.10553 -59.410873 -56.166546 8090728
119.52907 -59.456425 -55.49419 10261124
120.1084 -59.575153 -54.440639 9208436
120.79138 -59.604141 -53.706482 9800316
121.27217 -59.816792 -52.77977 8419181
121.80911 -59.907974 -52.037735 9998727
122.43417 -59.942364 -51.278816 10262413
122.97942 -60.171413 -50.427967 9670793
123.59192 -60.127705 -49.815647 8092019
128.47974 -60.138844 -41.503082 7893355
128.7632 -60.069286 -40.829155 8090218
129.09673 -60.002525 -40.000969 10062979
129.5148 -59.867008 -39.112267 8352877
129.81303 -59.877949 -38.186661 8485488
130.3187 -59.721401 -37.318558 7564130
130.79012 -59.576378 -36.485962 9011833
131.24976 -59.488174 -35.634388 12236202
131.66589 -59.454697 -34.648537 13815235
131.84767 -59.463379 -34.021824 12235693
102.83783 -58.685696 -83.457764 8089955
103.38199 -58.796345 -82.946625 8089955
104.10333 -58.869614 -82.304489 7367011
104.60405 -59.015713 -81.489075 8419701
104.81152 -59.125549 -80.551193 10130060
105.35114 -59.124203 -79.474602 8092019
106.00906 -59.122955 -78.588043 8815228
106.56692 -59.121876 -77.823616 8288110
107.11919 -59.120811 -77.055214 8551537
107.66599 -59.119732 -76.282814 8484721
108.20708 -59.11866 -75.506477 7695714
108.83117 -59.117409 -74.595741 8616302
109.31187 -59.116085 -73.495102 8025193
109.60954 -59.115124 -72.65403 7959400
110.1244 -59.114059 -71.863792 7038298
110.52693 -59.113064 -71.076759 7893608
110.77131 -59.111969 -70.043236 9604226
111.34929 -59.110733 -69.111107 8551542
111.91972 -59.109493 -68.174339 9670023
112.40219 -59.108433 -67.367538 8090478
112.87885 -59.10738 -66.557243 8090218
113.3497 -59.106319 -65.74353 9538176
113.89129 -59.105083 -64.789833 7497825
114.42525 -59.103855 -63.831818 8221804
115.20991 -59.102661 -63.116123 7565417
115.70223 -59.101669 -62.381939 10592409
116.14397 -59.101196 -61.548546 10592409
116.61194 -59.123985 -60.627693 9275778
117.24648 -59.140911 -59.740391 10130829
117.72006 -59.173588 -58.820465 9800065
118.22776 -59.218872 -58.016907 6972255
118.74281 -59.27058 -57.215279 7629925
119.33002 -59.279991 -56.532295 7564385
120.00098 -59.299828 -55.710358 10261124
120.50925 -59.355679 -54.897701 9470839
131.90303 -59.274376 -35.723362 14605262
132.13425 -59.284607 -34.938015 14605006
132.58296 -59.257736 -33.868919 12827829
132.93706 -59.227394 -33.111889 7564651
133.35118 -59.19191 -32.231136 8287084
134.01445 -59.131699 -31.236099 9339256
134.40591 -59.092865 -30.579666 10523786
134.77011 -59.059017 -29.644344 9933960
135.43831 -59.05854 -28.768753 7762285
136.097 -59.056519 -27.88533 8681843
136.28801 -59.055504 -26.905045 8681843
137.05829 -59.05439 -26.257423 10195337
137.53134 -59.053322 -25.436226 7038307
137.73253 -59.052143 -24.280315 8090993
138.82486 -59.050785 -23.609962 10459792
138.98492 -59.049774 -22.610092 9604741
139.44388 -59.048698 -21.768387 6972510
140.20399 -59.04755 -21.080605 5392706
140.34576 -59.046547 -20.070789 6248786
141.10559 -59.045391 -19.37014 8289138
141.54822 -59.044312 -18.507843 10986134
141.67134 -59.043304 -17.488422 11314842
142.74516 -59.042053 -16.920113 7169117
142.87444 -59.040878 -15.720604 8747889
143.95355 -59.039608 -15.134575 6511954
144.05188 -59.038605 -14.097805 6511954
144.12889 -59.037781 -13.233372 5920074
145.22305 -59.036316 -12.449726 7761766
145.30283 -59.03532 -11.403938 6972250
146.38824 -59.034008 -10.776283 8089963
146.45503 -59.033012 -9.722084 12826029
147.55615 -59.031509 -8.9001083 14078918
147.59251 -59.030846 -8.1917229 9208435
147.99097 -59.029732 -7.2619324 10261123
148.73352 -59.0285 -6.4597931 12432037
148.76414 -59.027672 -5.5672646 8089963
149.86732 -59.026131 -4.7017365 9866630
149.89055 -59.025146 -3.622612 9866630
150.99382 -59.023746 -2.9174042 9208955
151.00415 -59.022758 -1.8301543 9932934
152.11308 -59.021339 -1.1065444 10854036
152.24236 -58.963127 -0.37595356 11247252
152.74072 -58.708981 0.35902417 10655113
153.0592 -58.742626 1.4640504 10260871
153.24817 -58.747902 2.3255692 9012093
102.29483 -57.722858 -84.378281 9735554
102.90408 -57.893326 -83.78363 9537658
103.62631 -57.962925 -83.142418 9537658
104.23634 -58.138325 -82.544685 7892835
153.15126 -57.982822 0.60694134 10260611
153.37085 -57.842625 1.362877 10326406
153.58034 -57.810852 2.2550125 9669509
153.79079 -57.807144 3.1982574 9472130
101.83447 -56.637119 -85.288376 12235945
102.41315 -56.85799 -84.695145 12433580
103.19459 -56.894924 -84.019905 12499372
103.78563 -57.207447 -83.372116 10787983
153.69308 -57.039932 1.4723893 9340801
153.9369 -56.826675 2.2153778 9077629
154.15617 -56.791325 3.1453171 8880507
154.37029 -56.734428 4.0163727 9012606
101.19768 -55.814419 -86.220238 12236199
101.86565 -55.925873 -85.604645 14605005
102.71661 -55.871193 -84.915001 15394521
103.25904 -56.104107 -84.346443 15328728
154.47401 -55.828968 2.967514 8946556
154.73375 -55.771042 4.0426788 9012607
154.96356 -55.665848 4.9034805 7960433
155.19026 -55.468384 5.5958557 10262414
100.64349 -54.868607 -87.141998 9472121
101.37748 -55.038044 -86.442902 13683903
102.24142 -54.938152 -85.764084 15723486
102.70834 -55.14716 -85.270561 15723486
154.72221 -55.274605 3.1590881 10064779
155.04321 -54.792725 3.8004608 8551545
155.2596 -54.837429 4.8518295 7564651
155.52713 -54.729679 5.8766708 9933194
155.79988 -54.404354 6.5575943 9735559
99.693977 -53.564213 -88.568985 5920074
100.19707 -53.823502 -88.020805 6709074
100.90845 -53.956615 -87.358208 9867136
101.67953 -54.120934 -86.630379 14671055
102.21915 -54.257599 -86.110497 15460318
155.32805 -54.208538 4.1071014 7564651
155.55595 -54.009098 4.7998123 8880509
155.83289 -53.756939 5.6216202 11314589
156.05144 -53.848667 6.7570572 8485751
156.37688 -53.434635 7.5254898 7564651
99.241905 -52.526421 -89.449051 7169626
99.67717 -52.848385 -88.927834 6972504
100.45988 -52.91256 -88.238365 6840917
101.23283 -53.073025 -87.510765 10393228
101.72686 -53.372452 -86.950935 15722462
156.0833 -53.091171 5.6315765 12301483
156.36418 -52.821873 6.4423752 8419958
156.62866 -52.767056 7.5386887 7827821
156.82361 -52.776577 8.4304199 8945528
157.13844 -52.320011 9.0798569 8485235
98.664291 -51.485909 -90.436089 10787211
99.222931 -51.812305 -89.808876 8484970
99.968407 -51.867378 -89.155128 8814450
100.66668 -52.073303 -88.468483 8486004
101.27805 -52.32626 -87.832344 7564651
156.72093 -51.996483 6.6628189 9011838
156.95171 -51.797585 7.3663559 8353908
157.13579 -51.874645 8.3222733 8945528
157.40405 -51.693005 9.2228928 7959149
98.214294 -50.568623 -91.255508 12431524
98.722946 -50.819714 -90.707161 10392453
99.511871 -50.832146 -90.037659 8222059
100.21214 -51.034679 -89.351051 7631211
157.2765 -51.049175 7.5722504 8089963
157.52699 -50.773693 8.235939 9866370
157.74431 -50.745514 9.1649704 10590092
157.92381 -50.788322 10.042847 10195337
158.15865 -50.532677 10.669449 8089963
97.816307 -49.601654 -92.054451 8485229
98.260162 -49.791363 -91.590202 9340281
99.050797 -49.800571 -90.920937 8353134
99.622887 -50.067635 -90.311638 8089963
157.85765 -49.962666 8.3631897 9537150
158.04948 -49.864292 9.0599899 10458507
158.3217 -49.710976 10.026039 10920086
158.53294 -49.744675 11.03141 9143678
158.79861 -49.470161 11.866096 9208955
97.193306 -48.849548 -92.939598 7038298
97.749229 -48.931263 -92.432816 8090731
98.52784 -48.80312 -91.839661 8748920
99.151054 -48.947334 -91.24633 8089963
158.29608 -49.257153 9.1512985 9537150
158.57582 -48.928528 9.8573685 10196364
158.84282 -48.772293 10.795128 7894382
159.07082 -48.694302 11.88765 6709080
96.721535 -47.830505 -93.825577 7827300
97.235085 -48.07449 -93.276627 7695974
98.016716 -47.84367 -92.730171 9670021
98.667198 -48.058838 -92.079887 9670021
159.10509 -48.080143 10.814102 7565674
159.3752 -47.777512 11.590538 7432545
159.44574 -47.743324 12.302368 6708566
96.159935 -46.787868 -94.817268 9406078
96.812912 -46.996124 -94.168839 7958892
97.521767 -46.973198 -93.592331 7893356
98.10141 -47.003071 -93.062576 8748921
159.68448 -47.01614 11.807198 8616818
159.82387 -46.782898 12.333023 6445394
94.683067 -45.470291 -97.34742 7038047
95.218491 -45.697517 -96.668961 7827818
95.837128 -45.909065 -95.935707 7367269
96.454185 -46.058933 -95.265701 8617079
97.071045 -46.189682 -94.615082 9537410
91.996811 -44.46899 -101.87138 7037274
92.736786 -44.474491 -101.22251 8550256
93.374786 -44.56015 -100.32644 9865602
93.772141 -44.717785 -99.335182 6840154
94.412384 -44.809559 -98.528931 7235169
94.797424 -45.024876 -97.697594 7958634
95.536346 -45.043903 -97.056801 8748407
96.071411 -45.208866 -96.441238 8880507
87.488396 -43.670712 -109.61278 9209472
88.223198 -43.833961 -108.83405 8682356
88.96553 -43.857872 -108.15549 7760995
89.554169 -44.102516 -107.43368 9668733
89.66687 -44.158585 -105.71072 6510930
90.169914 -44.157848 -105.27966 6905945
90.920753 -44.156746 -104.62879 7563875
91.408653 -44.204548 -103.78041 8156012
91.768547 -44.281361 -102.84549 9274237
92.637672 -44.286705 -102.08781 7300446
93.133011 -44.29044 -101.65318 7892584
86.586868 -42.556 -110.90912 9867660
87.061569 -42.842438 -110.35728 9275779
87.783493 -42.872402 -109.71393 9670020
88.505623 -42.904762 -109.07203 9142643
89.108894 -43.195618 -108.41828 8287336
86.050262 -41.555435 -111.86622 9735302
86.525497 -41.840034 -111.30999 14011073
87.247513 -41.867107 -110.66147 9077627
87.968384 -41.89595 -110.01302 9275003
88.440033 -42.183712 -109.45846 8287336
85.508835 -40.555073 -112.82733 9735302
85.986771 -40.838978 -112.26918 10656402
86.770271 -40.829552 -111.58413 13684165
87.454956 -40.945889 -110.92518 12038822
87.909576 -41.178837 -110.41222 8682867
85.109253 -39.663559 -113.61097 8683895
85.635773 -39.833103 -113.06542 8288880
86.368553 -39.891483 -112.39219 10394002
87.084419 -39.9547 -111.73153 15395302
84.433868 -38.68906 -114.67751 10130826
85.111221 -38.87336 -113.99211 9407870
85.883141 -38.853374 -113.32243 8947063
86.543053 -38.950668 -112.69442 8090987
67.231781 -37.601429 -143.89375 8946295
67.787231 -37.528103 -143.2924 8090987
83.979172 -37.795986 -115.47018 11314588
84.559227 -37.871536 -114.96328 11709345
85.334244 -37.850208 -114.29152 12367525
86.011505 -38.036606 -113.60514 10920593
68.476044 -37.436924 -142.53905 12235684
69.159409 -37.346046 -141.78426 10261899
69.836464 -37.255627 -141.02779 10393229
71.298126 -36.94453 -136.91528 8089962
71.815643 -36.874386 -136.31487 6510930
72.457291 -36.787064 -135.563 10459534
73.093643 -36.70015 -134.80984 10591636
73.723999 -36.613628 -134.05537 7038307
74.349075 -36.527473 -133.29967 7037274
83.697395 -36.483479 -116.10177 5920074
84.180618 -36.850052 -115.71877 8288366
84.99807 -36.882923 -115.05603 10130312
85.483101 -37.167297 -114.49136 13551541
74.84491 -36.458839 -132.69415 7037274
76.210785 -36.157734 -128.57753 9735812
76.810158 -36.078972 -127.84216 9340542
77.523087 -35.985119 -126.95876 9340541
78.111969 -35.907501 -126.22188 10327178
78.69558 -35.830383 -125.48428 9997956
79.389694 -35.738609 -124.59841 11905694
80.076744 -35.647533 -123.71162 10458763
82.999176 -35.48299 -117.18714 8485235
83.687576 -35.78997 -116.60139 6709594
84.398369 -35.962421 -116.09656 7696229
84.928436 -36.162258 -115.4665 8090987
82.533073 -35.270351 -118.31715 6445910
83.493668 -35.258526 -117.58627 8485235
126.24643 -61.468395 -45.596283 8616556
124.96542 -60.521191 -47.890385 6511954
125.40015 -60.669777 -47.254051 8551535
125.99046 -60.907055 -46.409729 6972503
126.61517 -60.736778 -45.642578 7695968
126.9392 -60.694481 -44.774414 11445917
127.33764 -60.548782 -43.914398 10195594
127.70165 -60.43013 -43.117847 6774614
122.75259 -59.404762 -52.230881 14605262
123.10186 -59.507893 -51.425331 10525842
123.48515 -59.629997 -50.632851 11249567
124.21812 -59.653572 -49.923744 10460308
124.67595 -59.859962 -49.03841 11314326
125.30403 -59.881432 -48.281857 7959399
125.86636 -60.023209 -47.476715 8748657
126.4398 -60.184433 -46.676254 7169888
127.02845 -60.137974 -45.789707 9932937
127.44827 -59.984921 -44.908867 9604226
127.86665 -59.877388 -43.983139 8748405
128.19534 -59.842522 -43.111553 7038302
128.50371 -59.844879 -42.190269 8287856
129.13356 -59.600933 -41.369949 7827303
129.59441 -59.496277 -40.39542 10786444
130.15073 -59.405548 -39.640526 10062979
130.4435 -59.41214 -38.707718 7695716
130.6843 -59.418404 -37.929272 6510930
105.22466 -58.60915 -81.486511 9998474
105.78496 -58.852905 -80.793083 12564397
106.45983 -58.907402 -80.105667 10393487
107.00439 -59.019478 -79.376656 10195850
107.27359 -59.121853 -78.335434 7892840
107.82954 -59.120773 -77.561928 8484721
108.37994 -59.11969 -76.784363 8287342
109.01476 -59.118435 -75.872116 9536891
109.64226 -59.117176 -74.954796 7695714
110.17376 -59.116096 -74.16423 8156779
110.69952 -59.115013 -73.369896 9801605
111.2196 -59.113941 -72.571762 9077882
111.59209 -59.112793 -71.586189 8419952
111.97334 -59.111721 -70.68882 9341054
112.43883 -59.110516 -69.700768 9471872
113.03236 -59.109329 -68.845207 9932423
113.51969 -59.108257 -68.030357 8813941
114.00108 -59.107193 -67.211975 10656401
114.47659 -59.106121 -66.39016 9932934
114.93601 -59.104965 -65.455719 8616818
115.5735 -59.103725 -64.568832 7564130
116.17264 -59.102623 -63.799652 7301987
116.85306 -59.101425 -62.995274 11579304
117.29806 -59.100357 -62.152927 8025969
117.73694 -59.099293 -61.307457 11643810
118.16972 -59.098228 -60.458813 7039331
118.66666 -59.096996 -59.464691 9142649
119.15556 -59.09576 -58.466644 9865600
119.5678 -59.0947 -57.607849 9405306
119.98268 -59.097973 -56.750221 9536633
120.47623 -59.142731 -55.928303 9536633
121.16566 -59.171543 -55.105095 9076337
121.74004 -59.17868 -54.401409 7760733
122.24216 -59.235252 -53.575623 8419178
122.76122 -59.27533 -52.824039 10261899
123.49193 -59.277622 -52.019238 9998727
123.99144 -59.340458 -51.183746 9670793
130.70522 -59.237129 -39.635361 10062979
130.94998 -59.242786 -38.854996 8288109
131.39198 -59.208893 -37.874786 6510930
131.78256 -59.174835 -37.048363 7893096
132.09837 -59.167637 -36.182419 10788500
132.60231 -59.112179 -35.228653 14605262
133.32114 -59.087696 -34.460674 14077895
133.88533 -59.06311 -33.512108 9077889
134.11696 -59.062084 -32.547607 9142137
134.90619 -59.060989 -31.937473 8681842
135.40938 -59.059929 -31.14267 8814199
135.62389 -59.058895 -30.167244 11315359
136.29932 -59.05764 -29.287254 11907239
136.96866 -59.056381 -28.400219 9536894
137.16336 -59.055359 -27.413567 9536894
137.94351 -59.054237 -26.763943 10457738
138.4234 -59.053162 -25.938454 9669251
138.60027 -59.052139 -24.941353 9011579
139.47993 -59.050819 -24.146606 10065035
139.89867 -59.049583 -23.097004 7960176
140.02962 -59.048733 -22.257359 6446422
141.13474 -59.047344 -21.560482 5392706
141.27995 -59.046326 -20.543957 5392706
141.89217 -59.0452 -19.761543 7828588
142.4996 -59.044071 -18.97364 9209982
142.62611 -59.04306 -17.947266 9670018
143.71381 -59.041798 -17.37812 7893095
143.82875 -59.040787 -16.343094 8617075
144.4297 -59.039639 -15.53104 8681839
145.02562 -59.038494 -14.713554 6511954
145.12125 -59.037483 -13.669128 6117196
146.21642 -59.036179 -13.058514 8024682
146.30003 -59.035168 -12.00547 9142651
147.05969 -59.033955 -11.234928 8089963
147.47255 -59.032841 -10.316166 8879222
147.88425 -59.031727 -9.3922005 12564395
148.63838 -59.030491 -8.6008492 9208435
148.6819 -59.029659 -7.7089233 9208435
149.79747 -59.028122 -6.8594055 10984593
149.83627 -59.027126 -5.7807045 8089963
150.94995 -59.025738 -5.0915146 9735043
150.96788 -59.02507 -4.3669281 10261132
151.70631 -58.873981 -3.4728699 9077369
152.13196 -58.818081 -2.5672913 9209467
152.34077 -58.750854 -1.5334548 10459278
152.66791 -58.480202 -0.74115741 10786957
104.57626 -57.82922 -82.407532 9011577
105.26968 -57.872757 -81.803154 9275264
106.14228 -57.880508 -81.065239 13749697
106.64111 -58.16658 -80.50782 12038054
152.38103 -58.160839 -2.5705566 9209467
152.66859 -57.821743 -1.8410109 9472639
152.91306 -57.819752 -0.74137104 10063747
153.16168 -57.698612 0.17788708 9866109
153.40929 -57.362095 0.73167431 9734779
104.0262 -56.768372 -83.381187 9801087
104.76615 -57.047035 -82.624413 8814195
105.67119 -56.838856 -81.963188 10130826
106.10006 -57.185459 -81.435463 14605262
153.00246 -57.06691 -1.5988463 9603970
153.22261 -56.922714 -0.84693897 9734785
153.4467 -56.821724 -0.0049589872 9800577
153.69167 -56.779495 1.0295335 9866113
103.09696 -55.521336 -84.763474 15723486
103.59789 -55.793739 -84.210838 14736336
104.3092 -55.942871 -83.540558 10459278
105.08034 -56.125008 -82.804031 6775383
105.66956 -56.10775 -82.316559 7038298
153.54332 -56.121437 -0.74219501 9734531
153.78749 -55.904392 -0.0036925077 9208187
154.00768 -55.863815 0.92175305 9076859
154.22792 -55.82473 1.8501436 8814715
102.65691 -54.463131 -85.643211 15197150
103.08892 -54.797253 -85.118851 15262942
103.83346 -54.871136 -84.456871 14473169
104.60683 -55.044426 -83.722733 11709346
105.13689 -55.368546 -83.120628 8814710
154.10831 -55.040878 -0.0025480986 9734531
154.38506 -54.76643 0.7865144 9011323
154.58405 -54.841068 1.8093263 7827823
154.81447 -54.731205 2.6652832 7959408
155.04147 -54.530415 3.3530502 9538438
102.11849 -53.741226 -86.443878 15722462
102.64671 -53.741135 -85.999458 15328478
103.33432 -53.840405 -85.373131 15197150
104.07069 -53.979538 -84.686569 13091774
154.89114 -53.866714 1.5630113 7762030
155.17082 -53.766605 2.6573486 9143423
155.37666 -53.791939 3.6284409 8090994
155.64886 -53.463543 4.303978 8551544
101.67144 -52.692329 -87.325066 12959415
102.10635 -53.020954 -86.800941 15327705
102.88971 -52.785702 -86.255104 14801877
103.61642 -52.972069 -85.553925 15197150
155.175 -53.282265 1.8650972 8814715
155.42575 -52.943836 2.4292526 9999243
155.67952 -52.823177 3.3694534 8946300
155.94371 -52.762196 4.4539261 8814972
156.22458 -52.491032 5.2614288 9406596
101.10825 -51.752548 -88.251396 7565418
101.6572 -51.973888 -87.682991 8551545
102.34694 -52.066746 -87.057899 11446177
103.06152 -51.895664 -86.539093 11512228
155.92848 -52.159111 3.3757477 8092011
156.25383 -51.740025 4.1352692 8092011
156.47487 -51.82523 5.2708588 8354932
156.752 -51.628544 6.1863708 10722454
156.98494 -51.370972 6.8009567 9736329
100.65364 -50.71273 -89.134575 9670535
101.16214 -50.970425 -88.582703 9538693
101.89545 -51.020828 -87.941391 9538438
102.56776 -51.165638 -87.306038 10985883
156.56467 -51.061695 4.3955765 8092011
156.79099 -50.919926 5.1748581 8749691
157.05235 -50.740452 6.0482788 11380639
157.27412 -50.784203 7.1177292 8091505
100.08267 -49.781879 -90.062248 8551284
100.70513 -49.931892 -89.466789 8223348
101.4401 -49.979118 -88.825958 7697260
102.06284 -50.133293 -88.22789 8617850
157.11888 -50.111935 5.2948685 8092019
157.35081 -49.909573 5.9977112 9736329
157.58725 -49.800457 6.8769073 8617335
157.80656 -49.79528 7.8534698 9011063
99.619682 -48.749893 -90.947136 8089963
100.24374 -48.897057 -90.351677 9603200
100.98032 -48.941151 -89.711159 10656916
101.58681 -49.231533 -89.061745 7039331
157.95619 -48.830692 6.910347 9274236
158.18346 -48.709522 7.7283478 9076856
158.37489 -48.792316 8.7268219 8484721
158.661 -48.520439 9.5566177 9933193
99.043983 -47.702145 -91.934341 10196363
99.778625 -47.865971 -91.237907 9603200
100.51672 -47.906994 -90.597595 8221548
101.03017 -48.160595 -90.044006 8879732
158.50298 -47.843048 7.7125778 8353134
158.7415 -47.758827 8.6431122 8024170
158.95132 -47.752743 9.5753403 9209471
159.22424 -47.566441 10.489365 8486262
98.114296 -46.478512 -93.446304 8419700
98.636742 -46.774174 -92.77079 8485749
99.328476 -46.847153 -92.142967 9077884
100.01948 -46.921749 -91.513008 10985365
100.56455 -47.127586 -90.931641 8024682
159.00621 -46.981647 8.5054398 8419185
159.28214 -46.779274 9.4043579 8682358
159.55788 -46.718521 10.432594 9340544
159.78638 -46.663929 11.326218 9801605
160.00685 -46.398846 11.96125 8814710
97.01548 -45.538483 -95.31649 8551029
97.669502 -45.775532 -94.52803 7564135
98.322273 -45.885803 -93.86776 6775133
98.974068 -45.997902 -93.206398 6972256
99.6231 -46.241035 -92.415428 7630181
159.66801 -46.254387 9.6215134 9011323
159.94002 -46.057255 10.153824 9406080
160.30455 -45.866528 11.133217 7564642
160.57919 -45.65284 12.055405 8090987
94.454971 -44.491699 -99.697166 9077369
95.187653 -44.500999 -99.038582 8484464
95.714897 -44.602821 -98.16935 8682099
96.244713 -44.709263 -97.308815 10064266
96.72644 -44.922016 -96.346489 8683128
97.285278 -45.042988 -95.646126 7235428
97.997398 -45.120819 -94.908981 7367013
98.529732 -45.291233 -94.290253 7169633
161.08409 -44.989723 12.047218 8814710
161.09227 -45.000465 12.437248 9735812
89.944489 -43.664898 -107.48324 10853006
90.576431 -43.849495 -106.77861 6510930
91.336021 -43.847385 -106.12243 7169117
91.933266 -44.083004 -105.40763 7169117
92.408279 -44.15453 -103.31097 8484721
93.144882 -44.153427 -102.64404 9209212
93.833237 -44.199303 -101.68143 9735298
94.120476 -44.299541 -100.77969 9406590
94.858727 -44.307709 -100.12128 9077369
95.472298 -44.315296 -99.570442 9208187
88.873497 -42.517235 -108.92582 8287336
89.36618 -42.755276 -108.39176 7629407
90.070831 -42.846569 -107.73923 10655627
90.832146 -42.841984 -107.08041 8681840
91.373932 -43.0672 -106.50941 6510930
88.340927 -41.509556 -109.87231 8682867
88.872993 -41.764324 -109.2806 7760993
89.659088 -41.829487 -108.55853 6642771
90.446335 -41.897831 -107.83928 9734527
90.98098 -42.159473 -107.25628 10458249
87.952744 -40.614525 -110.64761 9340797
88.495605 -40.830849 -110.06502 8617073
89.258698 -40.819557 -109.3989 8550508
89.962204 -40.907574 -108.7371 7168859
90.449768 -41.144188 -108.19337 8089963
87.416458 -39.609455 -111.60665 13881805
87.961899 -39.82481 -111.02216 10854292
88.72776 -39.811916 -110.35435 9735812
89.381805 -39.915226 -109.72871 9669249
86.875488 -38.604362 -112.56958 8090987
87.423615 -38.818939 -111.98328 12565687
88.192413 -38.804474 -111.31369 11183517
88.862556 -38.996746 -110.63073 9472643
66.58728 -37.802383 -147.07181 9208435
67.157249 -37.727493 -146.46281 9734782
67.86409 -37.634365 -145.70001 8617073
68.565338 -37.541641 -144.93565 8682867
85.925095 -37.495701 -113.94321 10657422
86.422203 -37.568748 -113.47034 10262921
87.009506 -37.810223 -112.83648 8485744
87.792343 -37.988277 -112.0612 8682868
88.538445 -38.120247 -111.34063 10327952
69.12178 -37.467758 -144.32298 9340539
70.50811 -37.165596 -140.26985 9537409
71.173508 -37.075977 -139.51045 9274237
71.833496 -36.986717 -138.74966 9340542
72.487366 -36.89793 -137.98738 8485488
73.135818 -36.809494 -137.22382 7038298
73.650253 -36.739037 -136.61195 8485488
85.373024 -36.490456 -114.91616 10261900
85.857918 -36.77557 -114.35127 12827819
86.533173 -36.899044 -113.69714 10657166
87.327942 -36.954597 -112.97073 8616818
87.951225 -37.22541 -112.29095 7366495
75.214615 -36.407471 -132.23961 7037274
75.703888 -36.339352 -131.63264 6511954
76.311066 -36.254478 -130.87308 8617331
76.912315 -36.170017 -130.11235 8288365
77.508423 -36.08593 -129.35054 6511954
78.098557 -36.002258 -128.5876 8617075
78.799721 -35.902416 -127.67078 9405046
79.37822 -35.819592 -126.90573 9800063
79.722641 -35.770142 -126.44625 9537150
80.644196 -35.572178 -122.97198 10984849
81.094513 -35.512325 -122.3798 10984849
84.91214 -35.617695 -116.02397 8617331
85.461243 -35.791534 -115.32249 8353902
86.166046 -35.807091 -114.643 10459534
86.786461 -36.074635 -113.8792 10722707
87.295143 -36.331978 -113.30125 9538433
81.430359 -35.467598 -121.93542 12432037
81.875061 -35.408386 -121.34263 10853778
82.427139 -35.334702 -120.60114 10261639
82.892952 -35.22718 -119.74168 6841175
83.505348 -35.12468 -118.79894 8485235
84.157349 -35.042469 -117.92193 10853262
84.636314 -35.136856 -117.10668 8879992
85.091919 -35.224735 -116.26965 10261900
85.85025 -35.194302 -115.55868 9866113
86.3564 -35.175426 -115.08659 10591121
126.05853 -59.389851 -48.706848 10655627
126.39471 -59.539463 -47.762291 9932422
126.87613 -59.651875 -46.938869 8222578
127.48603 -59.618752 -46.067181 9932937
128.01204 -59.477699 -45.276909 7958633
128.46643 -59.425793 -44.435211 8748661
128.94067 -59.392059 -43.357906 8024940
129.2489 -59.393486 -42.430695 8485235
107.45998 -58.699791 -79.457184 10130057
107.94563 -58.902737 -78.822388 7892840
108.7416 -58.783428 -78.016296 8813686
109.46178 -58.822025 -77.153358 8616306
110.02523 -58.890556 -76.423706 8353387
110.42263 -59.069649 -75.580521 6775126
110.90774 -59.116032 -74.653862 8551280
111.43699 -59.114944 -73.854202 8156779
111.96055 -59.113861 -73.050758 9208953
112.47823 -59.112774 -72.243477 9604226
113.07463 -59.111515 -71.296867 8682356
113.66344 -59.110249 -70.345581 8681843
114.16158 -59.109165 -69.526062 8681843
114.65381 -59.108082 -68.703033 9472127
115.14004 -59.107006 -67.87648 9472383
115.62028 -59.105927 -67.046394 8682867
116.09455 -59.104851 -66.212891 8156267
116.64004 -59.103588 -65.236053 8682355
117.17764 -59.102337 -64.254868 7630953
117.63173 -59.101261 -63.410217 7565675
118.07967 -59.100185 -62.562252 8683898
118.52148 -59.099117 -61.711121 11905692
118.95713 -59.098049 -60.856819 7695714
119.38661 -59.096981 -59.999321 8287594
119.8099 -59.095909 -59.138824 9537149
120.29565 -59.094666 -58.130985 9734271
120.77328 -59.093422 -57.119247 9536633
121.41201 -59.09222 -56.268505 8417896
122.03407 -59.091228 -55.653149 9273716
122.77824 -59.090008 -54.859024 7958112
123.16434 -59.088943 -53.97414 9998469
123.54402 -59.087883 -53.086491 8682867
123.98492 -59.11887 -52.224072 8682867
124.48653 -59.181599 -51.385353 9670793
124.98585 -59.245869 -50.543213 8683384
125.48262 -59.311527 -49.697586 9142648
125.8121 -59.356056 -49.132278 11379348
129.33693 -59.222485 -43.833328 7037789
129.64767 -59.223469 -42.90287 7893355
130.12384 -59.195599 -41.818481 8287855
130.57553 -59.151497 -40.964882 8813171
130.94968 -59.111881 -40.221546 7826791
131.4115 -59.07196 -39.160233 7827303
132.14018 -59.073727 -38.342949 6774873
132.80116 -59.067612 -37.671383 6380372
133.0629 -59.066566 -36.714546 7563619
133.3177 -59.065525 -35.755913 14605262
134.2318 -59.064259 -35.050137 12432296
134.7236 -59.063026 -34.059334 9142390
134.9592 -59.061993 -33.088783 9142906
135.7583 -59.060886 -32.477097 8089963
136.26842 -59.059818 -31.67836 9011577
136.5222 -59.058609 -30.532925 10262929
137.35208 -59.05732 -29.736572 10262929
137.84964 -59.056244 -28.921673 8814200
138.04805 -59.055214 -27.928596 9142393
138.68881 -59.054108 -27.190762 9931651
139.32513 -59.052994 -26.447178 10326923
139.50566 -59.051968 -25.443577 10984852
140.29193 -59.050819 -24.772751 10459792
140.79475 -59.049561 -23.759186 7565675
140.98221 -59.048367 -22.575924 6578008
142.07578 -59.047134 -22.046734 5392706
142.22443 -59.046108 -21.023373 6841181
142.68565 -59.04501 -20.157852 9209982
143.46156 -59.043835 -19.445602 9209982
143.59138 -59.042816 -18.412312 9143932
144.71385 -59.041363 -17.668781 9735812
144.81163 -59.040524 -16.800282 8287853
144.90465 -59.039673 -15.931213 6511954
146.02621 -59.038208 -15.16256 6511954
146.12512 -59.037193 -14.110893 6117196
147.25012 -59.035702 -13.322273 8879736
147.32182 -59.034851 -12.438641 9932166
147.37572 -59.034187 -11.731453 10457996
148.50018 -59.032681 -10.918537 10458251
148.56876 -59.031666 -9.8491173 9800319
149.68681 -59.030308 -9.1954803 8813937
149.92928 -58.936863 -8.3791618 8682607
150.5042 -58.767719 -7.6112022 8090730
150.98964 -58.846634 -6.5437584 9077112
151.32188 -58.687801 -5.7252502 9405821
151.70857 -58.672218 -4.7482834 10063753
151.89853 -58.665581 -3.9020081 9866630
106.98513 -57.859356 -80.36628 12301226
107.55392 -58.021172 -79.725464 10590608
108.33166 -57.985348 -78.905251 9011320
109.12128 -57.824871 -78.140175 8681843
109.67612 -58.080139 -77.402153 7563619
150.97575 -58.211586 -7.2697868 7564643
151.24675 -58.163193 -6.6751404 8222573
151.7325 -57.879128 -5.770092 9537152
152.0289 -57.776707 -4.802887 9471359
152.23473 -57.792049 -3.8485489 9866373
152.48322 -57.62241 -3.0113373 9669506
106.05676 -56.491726 -81.805946 12039079
106.48631 -56.839088 -81.277275 12039079
107.17404 -56.957645 -80.64151 12498861
107.85542 -57.013828 -79.948578 10919573
108.51501 -57.093166 -79.19323 9011319
152.33258 -56.980888 -4.765686 10129289
152.54614 -56.839775 -4.0383911 10063496
152.83183 -56.723808 -2.9435425 9406847
153.03246 -56.707977 -2.0645676 9275004
153.25934 -56.446991 -1.4780349 9538176
105.52525 -55.749714 -82.610466 7038298
106.05529 -55.760502 -82.159233 8288365
106.74432 -55.875221 -81.524269 8419951
107.43423 -55.992538 -80.887321 11314586
108.02736 -56.25555 -80.175949 9668993
152.84898 -56.165905 -3.8005371 9735043
153.13603 -55.725735 -3.2426071 9538176
153.32463 -55.831436 -2.2146988 9406590
153.61961 -55.668007 -1.1571501 9603201
153.89565 -55.39246 -0.37297809 9734531
105.0896 -54.679314 -83.492348 8814710
105.52187 -55.020596 -82.964348 7367264
106.31073 -54.798424 -82.407578 9077881
106.98141 -54.965164 -81.763023 7038298
107.43452 -55.258865 -81.240311 10064777
153.41121 -55.084267 -3.0754089 10261132
153.64694 -54.933437 -2.2643204 9801092
153.91696 -54.7174 -1.4079131 8945271
154.10555 -54.783195 -0.44659412 9800324
104.53632 -53.717667 -84.420883 11117724
105.04133 -53.991127 -83.864357 9735812
105.77484 -54.060005 -83.214043 10393227
106.49394 -53.901222 -82.68544 12498346
153.95268 -54.135487 -2.2215576 9209467
154.22972 -53.857304 -1.4372863 8880249
154.42995 -53.926033 -0.41854846 9406337
154.66107 -53.811707 0.43287671 9077630
154.88831 -53.607536 1.1163331 8814715
103.99937 -52.62162 -85.400436 11645100
104.59978 -52.92804 -84.747719 9013380
105.33452 -52.993309 -84.098137 9998727
105.95572 -53.164383 -83.493103 11906208
154.78194 -52.857952 -0.61945331 8814971
155.02377 -52.799076 0.37326062 7565675
155.22218 -52.869419 1.3864518 10065037
155.4939 -52.537926 2.0568924 10788759
103.52568 -51.615692 -86.283348 9868690
104.09591 -51.89904 -85.667137 11250083
104.8905 -51.931519 -84.982979 10262928
105.51307 -52.099285 -84.378395 11906208
155.32736 -51.908085 0.25072491 7960176
155.58455 -51.765503 1.1708375 10131086
155.81412 -51.793377 2.2495728 8815228
156.08096 -51.603168 3.1295319 8092011
103.01648 -50.59499 -87.20327 8616821
103.60754 -50.839649 -86.588158 7827561
104.44276 -50.8745 -85.868675 10789271
104.95242 -51.142754 -85.310638 9736585
155.82863 -51.083954 1.1269075 9144449
156.12379 -50.786858 1.9550859 9473157
156.37964 -50.759384 3.0584488 9012856
156.59456 -50.697258 3.9197006 9539200
156.82736 -50.437031 4.5295792 8092011
102.40187 -49.819424 -88.093872 9209728
103.08263 -49.923946 -87.470734 9143163
103.94857 -49.86113 -86.772408 11117722
104.50252 -50.087368 -86.19735 9144705
156.4044 -50.141506 2.1350403 8749945
156.65652 -49.857456 2.7919006 10065287
156.89281 -49.812218 3.7774658 12696748
157.18771 -49.703285 4.9195938 8289395
157.48004 -49.377632 5.6873016 8092019
101.82235 -48.792385 -89.074554 5919050
102.579 -49.044739 -88.317123 7696232
103.45793 -48.937088 -87.629738 8748405
103.93501 -49.140697 -87.130745 14078918
156.95747 -49.189297 3.0246048 11379356
157.20876 -48.970009 3.7862396 8946038
157.45927 -48.791946 4.6134415 7302245
157.69521 -48.80555 5.6960297 7894640
157.91679 -48.67033 6.4648209 8092019
101.3682 -47.845127 -89.911278 6248272
102.11857 -48.003746 -89.204193 5919050
102.94014 -48.099457 -88.467377 6708824
103.43011 -48.259415 -87.978607 7037274
157.75755 -48.005295 4.636055 7630953
158.01645 -47.837967 5.5186539 8552056
158.24565 -47.796993 6.4796829 9406849
158.49913 -47.579426 7.254097 8089963
100.43097 -46.580055 -91.394234 12432812
100.92133 -46.819984 -90.816551 10787987
101.66315 -46.970528 -90.100136 8616562
102.48149 -47.060448 -89.359268 6906716
102.92223 -47.381729 -88.827034 5919050
158.37547 -46.883163 5.5325851 8815227
158.61899 -46.813099 6.3872604 9472385
158.83916 -46.77618 7.3189316 9669507
159.08757 -46.630856 8.1777344 9142907
99.34594 -45.625549 -93.26815 6906200
99.874939 -45.79916 -92.648216 7367007
100.62977 -45.957066 -91.853966 11117464
101.34853 -46.133087 -91.071877 11182745
102.06654 -46.35989 -90.239311 8024682
159.33792 -45.978722 7.168602 9472128
159.59831 -45.904037 8.0783615 9406079
159.86862 -45.812504 8.9738007 9866375
160.20027 -45.664326 9.9463882 8353650
160.76314 -45.312469 11.244949 8814710
96.768265 -44.524937 -97.601784 9735558
97.494194 -44.53791 -96.933807 8880507
98.123672 -44.626534 -96.033195 6971998
98.616142 -44.675278 -95.414192 7432032
99.037239 -44.921375 -94.378609 8484720
99.643356 -45.07547 -93.620918 7367007
100.37475 -45.236858 -92.792381 8947063
100.98698 -45.394684 -92.119011 10788755
160.39507 -45.170166 9.0889053 10261132
160.67555 -45.003384 9.7648544 9208702
161.01195 -44.943336 10.763908 8090988
161.36879 -44.73851 11.680321 8814710
161.9471 -44.5168 12.377441 9406847
92.303101 -43.634945 -105.4491 7893099
92.979462 -43.849396 -104.69752 9012091
93.715591 -43.890457 -104.01481 8552562
94.314598 -44.153103 -103.18296 12039591
94.844727 -44.150829 -101.06729 9867141
95.565056 -44.149715 -100.38282 8090474
96.153 -44.217968 -99.467224 7892327
96.692757 -44.257706 -98.790085 9011064
97.303734 -44.343021 -97.90567 9735558
97.911377 -44.353764 -97.346596 8814715
91.414162 -42.498798 -106.72845 6510930
91.867828 -42.741531 -106.22623 9011578
92.548256 -42.873203 -105.57668 8222579
93.325027 -42.883759 -104.89767 10787730
93.795715 -43.184921 -104.35444 10065801
90.877312 -41.479008 -107.65481 10855060
91.350769 -41.774414 -107.10748 10657681
92.072083 -41.815258 -106.46284 8880763
92.792877 -41.857964 -105.81805 8880251
93.26561 -42.157814 -105.27361 9340545
90.226753 -40.469467 -108.71655 8089963
90.824188 -40.760063 -108.04989 8156784
91.543518 -40.797199 -107.3988 9538947
92.262161 -40.836082 -106.74767 8617848
92.731552 -41.132214 -106.19559 7564651
89.714874 -39.572128 -109.60175 10261129
90.217728 -39.961548 -108.97056 9273978
90.980965 -39.954193 -108.30238 8550770
91.74353 -39.948708 -107.63388 9078397
92.21138 -40.115826 -107.14114 9538947
89.216034 -38.787949 -110.42071 10591124
89.766716 -38.925934 -109.86928 9866887
90.542221 -39.110756 -109.09716 9931907
91.254623 -39.249626 -108.40288 9734786
91.863663 -39.439236 -107.77503 7038307
67.364944 -37.81929 -148.78836 8879991
68.082993 -37.724701 -148.0137 10655628
88.825104 -37.88929 -111.20017 7038307
89.371513 -38.107311 -110.61366 9801609
90.139587 -38.097233 -109.94256 10130316
90.795258 -38.203228 -109.31413 10721422
69.536819 -37.41246 -143.86292 9340539
69.949356 -37.357361 -143.40218 8682867
70.632324 -37.265926 -142.63306 9011832
71.3097 -37.174782 -141.86255 9735555
71.980698 -37.084145 -141.09056 11248278
72.646255 -36.99387 -140.31728 10459019
74.033798 -36.686405 -136.15254 8814971
74.541534 -36.616432 -135.53929 8222579
75.171631 -36.529335 -134.77162 9143678
88.285339 -36.879498 -112.16447 7103067
88.834305 -37.09676 -111.5761 9011836
89.605095 -37.085144 -110.90333 7235685
90.263382 -37.189911 -110.27319 9077887
75.795624 -36.442627 -134.0027 9537919
76.414291 -36.356335 -133.23267 8090729
77.026993 -36.270454 -132.46144 10787727
77.634377 -36.184956 -131.68922 6511954
78.116066 -36.116867 -131.0706 6182734
80.064911 -35.720791 -125.98634 8813428
80.631027 -35.638874 -125.21922 8550513
81.192062 -35.557381 -124.45121 10261127
81.63681 -35.492466 -123.83616 8814964
86.968437 -35.463303 -114.18826 10591121
87.629501 -35.985012 -113.17517 9406334
88.351898 -36.050842 -112.50741 9472128
89.152206 -36.07156 -111.79301 10064265
89.740738 -36.267094 -111.18033 8419958
81.968201 -35.443924 -123.37457 8092011
82.406693 -35.379463 -122.75855 8881526
82.954376 -35.300846 -121.99364 5920074
83.506744 -35.226974 -121.24279 7827813
84.163406 -35.139015 -120.34116 11708828
84.705551 -35.066277 -119.58929 8485235
85.190353 -34.97298 -118.76499 8682351
85.786263 -34.869907 -117.80418 9274488
85.920631 -34.885265 -116.81226 9405819
86.456055 -34.82056 -116.08176 9142904
86.868248 -34.939991 -115.09879 10064263
87.423836 -35.102676 -114.14864 8814710
88.120667 -35.114971 -113.43565 7761509
88.734879 -35.282005 -112.66248 8616562
89.226471 -35.39143 -112.06938 10064265
127.62967 -59.381123 -47.039917 7038307
127.77762 -59.398056 -46.7472 8485494
110.4615 -58.572411 -76.286118 5920074
110.89311 -58.746628 -75.725288 6314575
111.48509 -58.832478 -75.03936 9669245
112.13103 -58.890945 -74.310181 9011573
112.87757 -58.749874 -73.567093 8156522
113.38612 -58.998676 -72.712227 8287598
113.91681 -59.111233 -71.63308 8748405
114.42419 -59.110142 -70.811737 8681843
114.92568 -59.109051 -69.986732 9602943
115.42117 -59.10796 -69.15815 9998214
115.91071 -59.10688 -68.32608 9472383
116.39419 -59.105793 -67.490448 8682867
116.87162 -59.104706 -66.651329 9406078
117.34295 -59.103622 -65.808815 9208955
117.88504 -59.10236 -64.821472 10261383
118.41911 -59.101093 -63.829819 7235420
118.87005 -59.100018 -62.976196 10524297
119.31486 -59.098938 -62.119324 10655883
119.75341 -59.097862 -61.25927 7695714
120.18581 -59.096783 -60.396049 8090214
120.61193 -59.095711 -59.529762 9010802
121.03177 -59.094635 -58.660408 9405559
121.44534 -59.093567 -57.788052 10984335
122.26234 -59.092384 -57.101585 9536633
123.07569 -59.091198 -56.406208 10062976
123.53831 -59.089943 -55.370945 8484714
123.99265 -59.088696 -54.332008 10853267
124.37489 -59.087627 -53.4384 9406336
124.75068 -59.086563 -52.542007 7038307
125.11993 -59.085495 -51.642921 7958376
125.8571 -59.089405 -50.820084 8287340
126.33754 -59.117481 -50.031158 7695720
126.76178 -59.150528 -49.148605 7761771
127.23145 -59.207363 -48.281643 8682872
127.74241 -59.256618 -47.497025 9012093
128.54559 -59.190105 -46.588348 9209215
128.97954 -59.15094 -45.786591 7958633
129.29932 -59.14962 -44.856888 8551026
129.8907 -59.075333 -44.0177 6577751
130.19832 -59.074276 -43.081779 6117714
131.01347 -59.073078 -42.37542 6972763
131.68539 -59.071808 -41.478867 6511954
131.97467 -59.070755 -40.530029 6511954
132.25702 -59.069702 -39.579132 6578007
133.07742 -59.068623 -39.01165 7827819
133.62196 -59.067554 -38.244568 6052178
133.9312 -59.066334 -37.12112 7892840
134.23143 -59.065113 -35.995296 12234666
135.32419 -59.063995 -35.588455 8484719
135.57082 -59.062943 -34.613564 9142390
135.81036 -59.061897 -33.636875 9668735
136.4756 -59.060802 -32.931717 8089963
137.13655 -59.059704 -32.220852 10459535
137.39493 -59.058495 -31.068039 11907239
138.08791 -59.057209 -30.179382 8684155
138.74016 -59.056107 -29.449833 10129286
138.94243 -59.055065 -28.450314 8682100
139.44035 -59.053978 -27.622673 10063235
140.23669 -59.05283 -26.962574 8879477
140.42093 -59.051796 -25.95237 13023917
141.06285 -59.050667 -25.194099 9735039
141.70021 -59.049538 -24.430126 9932163
141.89275 -59.048332 -23.239212 8748919
143.02756 -59.046921 -22.53949 7038298
143.15442 -59.046062 -21.680923 7038298
143.3008 -59.045033 -20.649879 13551549
144.43433 -59.043594 -19.923939 10788243
144.5676 -59.042564 -18.883629 10525071
144.65259 -59.041882 -18.189636 8288365
145.78574 -59.040421 -17.438599 7696228
145.91975 -59.03923 -16.213524 7826791
147.00473 -59.031651 -15.792549 8418928
147.34647 -58.863632 -14.800903 8879738
147.80443 -58.784286 -13.964893 10063754
148.26758 -58.755173 -13.157482 9669253
148.63841 -58.751183 -12.138103 9143417
149.11781 -58.688873 -11.212048 10327175
149.46329 -58.716061 -10.371208 9208953
149.89108 -58.688278 -9.3871613 8025194
150.36571 -58.426971 -8.5096664 8419696
109.47862 -57.463589 -77.951111 9405046
109.91183 -57.633045 -77.391151 8813165
110.45348 -57.881458 -76.671089 6906455
111.10027 -57.933792 -75.944298 6248782
111.7475 -57.988861 -75.215553 9274488
112.39523 -58.046597 -74.484825 11050641
112.93542 -58.096729 -73.874374 8682608
148.17365 -58.153625 -13.938465 8419702
148.51939 -58.092819 -13.178802 9471875
148.9525 -57.90889 -12.327419 8485488
149.41649 -57.707867 -11.418919 9866626
149.77675 -57.820312 -10.464005 9669249
150.10905 -57.926071 -9.5811996 7696229
150.56305 -57.77544 -8.6494827 7564643
150.94751 -57.782459 -7.7355385 8419696
151.36143 -57.605785 -6.9225006 8353903
151.66612 -57.603348 -6.2056961 9735043
108.92734 -56.739414 -78.940804 8747376
109.46725 -56.776119 -78.337891 9405046
110.11542 -56.822422 -77.612907 9536632
110.76393 -56.871357 -76.886116 10128771
111.37274 -56.962833 -76.179001 7827043
111.92943 -57.225384 -75.43499 8221801
112.39008 -57.352001 -74.868752 10853262
149.59018 -57.142628 -11.534454 9340539
150.06274 -56.94381 -10.603691 10787473
150.46779 -56.845779 -9.7386665 8288110
150.83202 -56.909248 -8.8197823 7827559
151.25125 -56.793995 -7.9372902 9274748
151.68544 -56.768494 -6.9360886 9735043
152.02643 -56.942162 -5.9578552 10458254
152.32912 -56.72813 -5.2047577 8945015
107.82353 -55.646332 -80.726471 12432037
108.38367 -55.892757 -79.988892 8945271
109.02206 -56.060776 -79.20816 9010549
109.77331 -55.768135 -78.556511 9470839
110.42359 -55.813725 -77.829666 9405046
110.96878 -56.060425 -77.106674 9076594
111.40428 -56.231895 -76.54306 9339768
151.08868 -56.15844 -8.9119072 8419696
151.54668 -56.006073 -7.9723854 9800836
151.97778 -55.816074 -7.1313934 9471871
152.38858 -55.739971 -6.2323647 10195338
152.64958 -55.875282 -5.1870804 9273980
152.87929 -55.754963 -4.3521271 10129289
107.26794 -54.55212 -81.720787 6511954
107.91679 -54.893848 -80.997551 11248279
108.62149 -55.044819 -80.194023 8484720
109.32593 -55.053841 -79.42852 9011063
109.97459 -54.959156 -78.779846 10391685
110.41168 -55.126091 -78.217064 10128513
152.19363 -55.257877 -7.1407013 9471871
152.60956 -54.972401 -6.4242363 9932422
152.98958 -54.79261 -5.4664917 9471615
153.23734 -54.748566 -4.4223404 9800836
153.47777 -54.684299 -3.4451294 9406590
106.83883 -53.591957 -82.544182 10064777
107.40503 -53.843533 -81.946693 7564642
108.22013 -53.989582 -81.16967 8419695
108.93676 -54.048275 -80.39637 8945270
109.49934 -54.295532 -79.65435 8089963
153.26292 -54.129475 -5.3437805 9735043
153.55586 -53.841702 -4.5042191 10590864
153.75905 -53.820484 -3.6228561 9669761
154.02756 -53.684826 -2.6383972 9801347
154.3049 -53.405514 -1.8547133 10064267
106.29993 -52.854454 -83.352745 10196106
106.90697 -52.79813 -82.869072 10196106
107.76972 -52.88311 -82.102287 8551537
108.4845 -53.209846 -81.32177 8551281
153.79263 -53.244293 -4.4364166 10129801
154.07005 -52.962437 -3.6567078 9472639
154.33934 -52.825871 -2.6704865 10721934
154.54312 -52.806957 -1.782463 10919061
154.8488 -52.455708 -0.99149311 9209472
105.8568 -51.788532 -84.238808 10656656
106.36604 -52.062363 -83.67852 9735812
107.28581 -51.837208 -83.013054 10919572
107.97026 -52.215462 -82.255043 10064777
154.6212 -51.960785 -2.8475342 10261640
154.864 -51.896713 -1.8592833 10721938
155.12599 -51.812435 -0.81837451 10590354
155.33525 -51.626999 -0.18453968 8814971
105.29552 -50.831306 -85.171982 10789527
105.92073 -50.998192 -84.565559 11446428
106.76049 -51.041626 -83.838127 11117207
107.40366 -51.13171 -83.253609 10985881
155.16571 -51.008308 -1.986061 9142651
155.4315 -50.810936 -1.1174086 9800580
155.65353 -50.882992 0.0032883883 9077886
155.92068 -50.688446 0.87805951 7565675
104.33324 -49.509159 -86.618172 14078918
104.84522 -49.775085 -86.059425 8881534
105.47183 -49.938725 -85.45343 9144705
106.21384 -50.000698 -84.799294 9998985
106.82126 -50.309307 -84.13961 8025968
155.74956 -50.066841 -0.93162525 10129030
156.02357 -49.730957 -0.26303852 9339773
156.22591 -49.796612 0.75589001 8879736
156.43309 -49.780529 1.6594926 8156527
156.66592 -49.517582 2.2650146 8090730
103.87737 -48.459877 -87.506226 7037274
104.31983 -48.788391 -86.976303 13486525
105.01929 -48.883713 -86.342163 9144191
105.71938 -48.981274 -85.706177 11248792
106.27635 -49.210938 -85.126945 10064006
156.35933 -48.990925 0.005836606 8616307
156.55055 -48.882504 0.68341839 10129289
156.82173 -48.715607 1.6220475 8616307
157.03346 -48.732948 2.6019745 9274748
157.31726 -48.4547 3.4109955 8090730
103.32368 -47.745689 -88.314728 5919050
103.86156 -47.740498 -87.864914 8156268
104.56245 -47.832638 -87.231323 10459791
105.2641 -47.927021 -86.596039 8287340
105.70779 -48.258114 -86.063904 12038049
156.7921 -48.28075 0.76062787 8616307
157.06915 -47.944645 1.4423143 8156012
157.33492 -47.775562 2.3528442 8090730
157.59425 -47.744396 3.4655914 7103835
157.87364 -47.499702 4.3108215 8815227
102.87028 -46.70821 -89.212227 7367525
103.37669 -46.912193 -88.702545 7300961
104.12555 -46.796001 -88.141258 8485489
104.79401 -46.933704 -87.485092 8222316
105.25014 -47.205238 -86.954399 7037274
157.64601 -46.994881 2.409317 6774870
157.89629 -46.863037 3.2993774 6511954
158.14493 -46.760517 4.2685623 8091761
158.39532 -46.671947 5.0890808 8815227
158.72887 -46.352028 5.7374191 8815227
101.88421 -45.589924 -91.167694 11577504
102.41169 -45.769196 -90.543327 7103580
103.0608 -45.956451 -89.80851 5919308
103.65617 -46.092079 -89.170921 7498082
104.19866 -46.175068 -88.630913 10853012
158.32555 -46.213879 3.4371414 6511954
158.55524 -46.11636 4.129158 7565675
158.94424 -45.860497 4.9819412 9933707
159.28294 -45.725899 6.0339432 11314332
159.62654 -45.517773 6.8500519 8287342
