# .PCD v0.7 - Point Cloud Data file format
VERSION 0.7
FIELDS x y z rgb
SIZE 4 4 4 4
TYPE F F F U
COUNT 1 1 1 1
WIDTH 1203
HEIGHT 1
VIEWPOINT 0 0 0 1 0 0 0
POINTS 1203
DATA ascii
-45.236309 -40.367054 123.52449 13156795
-46.338737 -40.423367 123.30804 8222580
-47.28587 -40.473862 123.12129 8748665
-48.235207 -40.526402 122.9334 11116694
-49.186722 -40.58094 122.74435 8155756
-50.140549 -40.637558 122.55415 7366239
-51.097382 -40.489765 122.43893 9208443
-52.079227 -40.596027 122.22539 10984849
-52.97197 -40.686653 122.03349 9537918
-53.980934 -40.884781 121.78122 9406589
-54.625019 -40.929161 121.65045 9209467
-80.242615 -40.998405 114.26775 9012089
-80.897354 -40.864849 114.02827 8879991
-81.960876 -40.511284 113.69416 7959407
-82.870193 -40.468071 113.30454 8617337
-83.804901 -40.52626 112.86285 10327695
-84.741867 -40.586525 112.41932 10392972
-85.681229 -40.648884 111.97389 9011321
-86.600769 -40.612869 111.57681 8550770
-87.443001 -40.216034 111.35905 8946043
-88.201683 -40.130711 111.05372 7564651
3.5334384 -39.799644 138.28804 9406590
2.5279949 -39.504673 137.92261 8484976
1.764056 -39.619324 137.50722 7827046
0.86373019 -39.458771 137.13788 9669762
-0.1254704 -39.444832 136.66602 8551281
-1.1076634 -39.541847 136.15242 10655630
-2.020551 -39.235783 135.83618 8354160
-2.7349083 -39.020523 135.57887 7893358
-39.555786 -39.1609 124.97877 8946044
-40.54055 -39.325764 124.74293 8617847
-41.449055 -39.462418 124.53102 9209984
-42.332859 -39.59082 124.32666 8354933
-43.273598 -39.632114 124.14442 8814453
-44.236038 -39.515747 124.01656 8880250
-45.312195 -39.435757 123.85513 8617339
-46.405445 -39.428753 123.6637 7564651
-47.41441 -39.513405 123.45335 8748409
-48.366432 -39.564842 123.26535 10261132
-49.262413 -39.707413 123.05366 8682099
-50.186066 -39.862766 122.83234 7432032
-83.332565 -39.808784 113.36211 9143681
-84.050369 -39.715244 113.07835 11445919
-84.872696 -39.609344 112.75282 10129801
-85.705978 -39.613762 112.37811 9471872
-86.594376 -39.62925 111.97427 9011321
-87.601074 -39.43745 111.60065 9011576
-88.521622 -39.45805 111.18041 8222323
-89.452515 -39.424938 110.77708 11248797
-90.353439 -39.241215 110.44759 12630191
1.5292766 -38.884224 137.69276 8945527
0.69920611 -38.617329 137.4006 9998986
-0.20010877 -38.453465 137.0331 9537920
-1.1118062 -38.562267 136.54872 10655630
-2.0910084 -38.446239 136.1232 8945785
-3.0273278 -38.445126 135.67169 8748152
-3.9660256 -38.358707 135.25369 9735046
-4.8340769 -38.130852 134.92726 8090736
-35.762047 -38.083328 126.05099 9011321
-36.610153 -38.187168 125.86196 9340286
-37.458851 -38.292641 125.67226 7958892
-38.436474 -38.515606 125.41618 9603460
-39.516369 -38.492199 125.23305 9735045
-40.565453 -38.559845 125.02174 9406592
-41.505569 -38.596451 124.84127 9407362
-42.447254 -38.634933 124.65979 8946554
-43.410137 -38.515736 124.53287 10129797
-44.375664 -38.398193 124.40489 8946038
-45.26667 -38.531345 124.19744 8814456
-46.298355 -38.704025 123.95046 8090737
-47.341301 -38.864307 123.70614 8617080
-85.855392 -38.845341 112.6195 8287342
-86.811562 -38.690735 112.25359 9077370
-87.708946 -38.607666 111.88529 8221804
-88.714462 -38.470959 111.49014 9603971
-89.560699 -38.486198 111.10531 10919574
-90.409409 -38.502773 110.71878 11248282
-91.290344 -38.566753 110.29887 10985366
-92.266876 -38.420235 109.92057 11314590
-93.217911 -38.228432 109.57207 10788759
-93.746307 -38.092945 109.39023 7565675
-1.1152585 -37.744778 136.87944 9866627
-2.0979779 -37.467682 136.51773 9406080
-3.1058114 -37.418114 136.05138 8550773
-4.0402689 -37.57283 135.53737 9537666
-5.0040979 -37.465824 135.11562 7564650
-5.8582621 -37.265087 134.78493 8090736
-6.439683 -37.309734 134.4861 9669253
-32.587444 -37.053619 126.99557 9011579
-33.661461 -37.23568 126.73753 9668993
-34.735592 -37.420216 126.47851 9011321
-35.670231 -37.444511 126.30355 7827047
-36.605927 -37.470604 126.12775 11182488
-37.542736 -37.498505 125.95103 8089706
-38.480766 -37.528217 125.77348 7761772
-39.576832 -37.565262 125.56513 9406079
-40.674721 -37.604633 125.35558 10064777
-41.617455 -37.640438 125.17496 10064521
-42.50581 -37.767487 124.97019 9472382
-43.507774 -37.717632 124.8107 10458505
-87.732445 -38.013672 112.11301 7563618
-88.508041 -37.80426 111.85001 7827046
-89.668869 -37.54644 111.43389 9735043
-90.607399 -37.51149 111.02798 8484721
-91.520546 -37.619995 110.57587 8747893
-92.3769 -37.638348 110.18549 10985106
-93.209457 -37.59948 109.82887 11249053
-94.244385 -37.425819 109.43604 8683641
-95.208923 -37.287857 109.06034 8747892
-95.963242 -37.205059 108.75642 9537408
-3.162719 -36.614815 136.35051 7630443
-4.0528116 -36.598347 135.92752 8090989
-5.0193377 -36.493813 135.50345 7169887
-5.98034 -36.391621 135.0811 8419701
-6.8608313 -36.514084 134.60629 9406847
-7.7611494 -36.487907 134.18231 8420464
-8.831542 -36.098587 133.82388 8025962
-26.955751 -36.071342 128.5683 7696228
-28.027353 -36.058945 128.28928 8880246
-28.945124 -36.050217 128.04961 8617078
-29.922884 -36.181625 127.7913 8617078
-30.829981 -36.295464 127.58807 8485492
-31.711319 -36.401455 127.39233 9800836
-32.801373 -36.422611 127.19093 9800836
-33.892506 -36.446041 126.98852 9274236
-34.82869 -36.468048 126.81412 9273979
-35.765865 -36.491829 126.63892 7629412
-36.704124 -36.517338 126.46287 10194823
-37.643471 -36.544605 126.28593 10062981
-38.54052 -36.612213 126.10165 8484464
-39.595562 -36.789654 125.84869 9143164
-40.747635 -36.967319 125.57839 9998728
-90.773285 -36.82312 111.23059 8089963
-91.515213 -36.734356 110.93458 7760997
-92.470245 -36.590939 110.56533 7892582
-93.442673 -36.660919 110.10239 8156525
-94.387947 -36.589417 109.70854 7103581
-95.210297 -36.394527 109.41927 8287341
-96.141083 -36.509594 108.95685 10129545
-97.105949 -36.48307 108.53613 8880761
-98.042679 -36.30275 108.18989 10064521
-4.3847818 -35.913166 136.04584 7038298
-5.1113005 -35.755371 135.75931 7038298
-6.0376787 -35.456814 135.43353 7630437
-6.9531202 -35.484325 134.98044 8354671
-7.9018621 -35.549885 134.49579 7565667
-8.848815 -35.455963 134.07683 8420210
-9.7907591 -35.364231 133.65944 8222579
-10.728395 -35.276588 133.25079 7564651
-11.670671 -35.218822 132.94856 9077627
-12.615886 -35.180141 132.71178 12562599
-13.559058 -35.143188 132.47488 9077369
-14.575091 -35.185188 132.18878 8814197
-15.432303 -35.23452 131.94221 8880246
-16.369213 -35.202682 131.70503 7695972
-17.304321 -35.172565 131.46771 8945786
-18.303099 -35.381187 131.12337 9669253
-19.152422 -35.436317 130.87665 8090736
-20.236723 -35.407154 130.5993 7893609
-21.31921 -35.380222 130.32156 9142902
-22.276705 -35.477436 130.03035 6380625
-23.160585 -35.498661 129.78795 7893096
-24.084463 -35.481041 129.54997 10063751
-25.007292 -35.465137 129.31168 8485744
-25.929213 -35.450932 129.07297 9012089
-27.003662 -35.436554 128.79395 8090987
-28.077143 -35.424374 128.51436 8419695
-28.996517 -35.415783 128.27422 8748664
-29.924538 -35.419731 128.07274 11708313
-30.860016 -35.433868 127.90138 10656400
-31.796101 -35.449707 127.72928 9801349
-32.889133 -35.470364 127.52753 9603458
-33.983166 -35.493233 127.32478 10720652
-34.921909 -35.514748 127.15012 10457481
-35.845661 -35.697044 126.91863 9931394
-36.769619 -35.881229 126.68645 10194823
-37.396862 -35.898899 126.56859 12431013
-92.964554 -35.922302 110.6135 7037274
-93.6362 -35.881794 110.32945 8616304
-94.446327 -35.675095 110.05045 8616307
-95.443962 -35.494858 109.67693 8945271
-96.355652 -35.505394 109.26509 9340029
-97.232147 -35.527164 108.86445 9209468
-98.111832 -35.550247 108.46182 9801605
-99.024841 -35.621765 108.02486 10919317
-99.893974 -35.497101 107.68644 10985622
-100.74347 -35.086666 107.47186 9998470
-7.1807833 -34.762741 135.16394 9078138
-7.9639425 -34.618763 134.84441 7960169
-8.8747835 -34.490665 134.45682 7631210
-9.8193102 -34.401173 134.03723 9472129
-10.724185 -34.521183 133.55559 8024945
-11.692035 -34.576077 133.18536 9801091
-12.638963 -34.538036 132.94794 10590093
-13.583751 -34.50172 132.71034 10853008
-14.526479 -34.467152 132.47264 9669762
-15.467288 -34.434265 132.23485 9077625
-16.406204 -34.403072 131.99687 7301470
-17.343369 -34.373608 131.75877 8485746
-18.320498 -34.46727 131.46352 9077373
-19.30341 -34.556301 131.16852 9011579
-20.37348 -34.639862 130.85243 9341054
-21.367006 -34.583939 130.60928 10064262
-22.295448 -34.563198 130.37016 8682609
-23.222656 -34.544128 130.13077 8090731
-24.148813 -34.526775 129.89136 7498594
-25.074041 -34.511257 129.65216 8550769
-26.062288 -34.464767 129.40799 8814710
-27.115408 -34.511818 129.1116 9209211
-28.151873 -34.471535 128.85233 8879986
-29.073656 -34.463188 128.61147 8353644
-30.004425 -34.467392 128.41074 9603712
-30.942423 -34.481213 128.23906 8222316
-31.828175 -34.58675 128.04274 9801348
-32.853004 -34.726898 127.8089 9472127
-33.887028 -34.853989 127.57827 10917774
-95.345978 -35.0322 109.90699 8879478
-96.361206 -34.662029 109.60206 8090731
-97.367012 -34.51321 109.21226 9472640
-98.279129 -34.581295 108.77702 10196363
-99.164276 -34.603989 108.37212 9669507
-100.0529 -34.627926 107.96523 9274493
-101.05238 -34.571896 107.54092 9340541
-101.86093 -34.336029 107.2743 8420208
-102.77461 -34.259026 106.89683 7828583
-8.8921404 -33.846218 134.71046 7696747
-9.8902216 -33.524258 134.35956 10129545
-10.819316 -33.412601 133.95682 11182231
-11.724158 -33.610813 133.54123 9603968
-12.673553 -33.573727 133.30249 9472382
-13.620799 -33.538357 133.0639 9933189
-14.566051 -33.504669 132.82524 9802373
-15.509294 -33.472633 132.58647 9998727
-16.450687 -33.442295 132.34756 8288109
-17.505514 -33.381123 132.09009 9275517
-18.576416 -33.411568 131.79378 9143676
-19.598257 -33.468384 131.50058 9275261
-20.47069 -33.533569 131.24396 9735555
-21.424482 -33.62722 130.95496 9867140
-22.355324 -33.60704 130.715 11313815
-23.284933 -33.588451 130.47476 10721682
-24.213472 -33.571484 130.23421 6774870
-25.090395 -33.647865 129.97232 6510930
-26.210304 -33.699791 129.65602 6905944
-27.289789 -33.686317 129.37534 8419693
-28.214254 -33.676556 129.13428 9537659
-29.13802 -33.668381 128.89279 9537659
-30.057758 -33.831814 128.63634 7564643
-98.347778 -33.827152 109.04991 11906725
-99.295059 -33.641502 108.70112 10524815
-100.22501 -33.653706 108.28036 8089963
-101.0606 -33.621124 107.91991 8747893
-102.07948 -33.493824 107.51559 8354159
-103.02122 -33.509781 107.0881 8091755
-103.86789 -33.480228 106.72148 7828585
-104.77219 -33.387108 106.35465 7564651
-105.56662 -33.306244 106.03204 7565667
-11.124726 -32.680958 134.10652 11380380
-11.751048 -32.805561 133.83925 9143419
-12.702424 -32.769005 133.59845 9209467
-13.645547 -32.895321 133.29993 8092011
-14.592416 -32.862209 133.06058 8881527
-15.537333 -32.830791 132.8212 9801604
-16.480362 -32.800945 132.58165 8814966
-100.46495 -32.907673 108.47337 9142907
-101.24422 -32.821735 108.15957 9998472
-102.07907 -32.668011 107.84815 9011321
-102.97619 -32.555473 107.49235 9472639
-104.04836 -32.456673 107.05276 7959665
-104.96465 -32.580566 106.59322 9275527
-105.82079 -32.551125 106.22231 9802635
-106.70322 -32.607197 105.80519 9276030
-107.59708 -32.374725 105.49911 10263180
-108.57089 -32.086803 105.17959 9802374
-103.22985 -31.940193 107.62658 10064526
-104.16125 -31.616808 107.34031 7564651
-105.05914 -31.487591 106.99088 10591644
-105.95062 -31.562767 106.56207 13749959
-106.81258 -31.531979 106.18906 8814969
-107.80024 -31.656153 105.69749 9210239
-108.72495 -31.546501 105.32819 10065288
-109.65466 -31.437254 104.9565 9208954
-110.64126 -31.147686 104.632 8418928
-106.08971 -30.78937 106.8112 14078918
-106.99387 -30.768772 106.43244 8354161
-107.89082 -30.628115 106.12523 9143677
-108.78076 -30.681026 105.69896 8551282
-109.64915 -30.582865 105.37275 9011831
-110.6986 -30.526545 104.93809 9537406
-111.57896 -30.442272 104.61294 9405560
-112.50974 -30.344227 104.21272 9339767
-113.50513 -30.273052 103.77216 10458251
-109.90687 -30.013929 105.70434 10458762
-110.87643 -29.909124 105.3595 10063746
-111.84652 -29.803991 105.00743 9208181
-112.71678 -29.651535 104.70667 9010801
-113.63535 -29.692867 104.22569 9537404
-114.50705 -29.589544 103.86777 10721678
-115.47353 -29.558342 103.39664 9866370
-116.44538 -29.260349 103.41114 9932163
-117.48555 -29.166309 103.07626 9471616
-118.27985 -29.210449 102.5201 9341055
-120.99945 -29.08353 101.60503 9142651
-118.75792 -28.956877 103.18456 9735812
-119.39777 -28.992464 102.73567 10064521
-120.35841 -29.046768 102.05875 9735299
-121.49666 -28.826963 102.27159 9997703
-122.30404 -28.873451 101.69967 10589840
-123.11215 -28.920626 101.12479 8682867
-125.12977 -28.784163 101.02791 9669249
51.089809 -43.162384 152.20316 10788244
50.531395 -43.367924 152.36 10590865
49.755104 -43.543652 152.46994 9998983
48.482315 -43.650238 151.65538 9735555
47.752052 -43.650696 151.88692 10788244
45.844742 -43.652275 150.87828 10327692
44.936356 -43.652851 151.15115 8682867
43.608364 -43.65406 149.97884 10458246
42.885986 -43.654518 150.1864 8747893
42.162727 -43.654976 150.39104 7563619
40.868801 -43.656162 149.2207 9274748
39.970375 -43.656738 149.46327 10130055
37.991516 -43.65836 148.4845 9932934
37.097542 -43.658936 148.70972 10130313
35.334091 -43.660419 147.6757 6708566
34.267124 -43.661102 147.92645 5392706
32.893372 -43.662338 146.80522 7038307
32.186398 -43.662792 146.96123 7432808
31.301775 -43.663372 147.15196 10853012
30.138735 -43.664467 145.99083 9209467
29.435678 -43.664921 146.13358 11248278
28.556108 -43.665497 146.30777 9801347
26.551352 -43.667141 145.30965 9011321
25.501764 -43.667835 145.49748 7432033
24.405085 -43.668884 144.33704 5919050
23.710135 -43.669346 144.45222 5919050
22.666727 -43.670033 144.61916 6313551
21.429628 -43.671173 143.48552 7564130
20.738867 -43.671638 143.58636 5721671
19.701777 -43.672329 143.73177 6510930
17.81238 -43.673908 142.68114 9208443
16.702772 -43.595768 142.87495 8288371
15.801162 -43.392342 142.7493 8288371
14.878684 -43.424217 142.18364 9472127
14.026546 -43.373577 141.8875 9274748
13.113894 -43.383335 141.45569 9209468
12.118754 -43.195938 141.0515 9801091
11.22914 -43.229919 140.6082 10261641
-62.833878 -43.23304 119.3423 10063492
-63.894363 -43.413456 119.08744 9734531
-64.787491 -43.370907 118.94142 8221804
-65.854126 -43.347885 118.76385 8353389
-66.785622 -43.471981 118.55268 9142393
-67.664803 -43.41309 118.41841 9405308
-68.601425 -43.465904 118.15746 9405821
-69.565704 -43.466675 117.89869 8222577
-70.520927 -43.414944 117.64921 7827820
-71.425507 -43.450394 117.23013 8419953
-72.331146 -43.487915 116.80974 8945783
-73.260147 -43.415997 116.42286 8616307
-74.154175 -43.147186 116.13058 7958377
51.44017 -42.326084 152.3802 9143418
50.671551 -42.478203 152.66129 9275005
15.385909 -42.844387 142.77164 9538435
14.841228 -42.759972 142.543 10064262
13.894889 -42.571426 142.16281 9866883
12.965632 -42.42408 141.77415 8616819
12.145347 -42.446426 141.36908 10985107
11.12046 -42.493092 140.85535 9866883
10.269885 -42.457272 140.45934 9406846
9.4123678 -42.19836 140.15065 8880507
-59.334732 -42.26989 120.31919 8682867
-59.988899 -42.323715 120.18322 8682867
-61.020786 -42.368977 119.98338 9735297
-61.960026 -42.491116 119.77155 9735297
-62.951012 -42.578327 119.56344 9603200
-63.945686 -42.667835 119.35385 9471359
-64.837921 -42.41573 119.2886 8484721
-65.723 -42.456009 119.11667 10720910
-66.679794 -42.588463 118.89791 11510168
-67.656036 -42.640678 118.70536 8550256
-68.737297 -42.620667 118.52084 8682611
-69.734558 -42.709259 118.26439 8748407
-70.709778 -42.623425 117.88224 8748920
-71.586639 -42.615112 117.49314 8683122
-72.494461 -42.652031 117.07203 7235933
-73.373886 -42.647446 116.68026 7234910
-74.380875 -42.396957 116.33006 8155756
-75.293465 -42.439758 115.90449 9734788
-76.18779 -42.28017 115.56825 9274493
-76.887062 -42.179703 115.29558 9210491
52.206062 -41.203278 152.48651 9340542
51.462177 -41.478939 152.70743 11314588
12.887389 -41.77779 141.99916 8288365
11.961463 -41.572399 141.63567 11708828
11.107837 -41.515518 141.24673 10327690
10.095698 -41.326576 140.83498 8881015
9.2413054 -41.583603 140.31805 7828077
8.2977018 -41.448715 139.91737 7564651
7.4936094 -41.223312 139.62086 7695204
6.9177961 -41.254353 139.33031 9011320
-56.314835 -41.268452 121.22526 8682867
-57.099766 -41.248806 121.09317 9867140
-58.138401 -41.515823 120.81017 9011832
-59.117477 -41.592804 120.60795 9669762
-60.099911 -41.672001 120.40434 9143161
-60.977501 -41.413357 120.34417 9932419
-61.912277 -41.491497 120.14939 9274747
-62.843712 -41.529423 119.97004 8814198
-63.791607 -41.653744 119.75589 8945272
-64.822182 -41.578644 119.60073 8287084
-65.827087 -41.669914 119.38862 11904668
-66.804794 -41.928616 119.11951 12957357
-67.648254 -42.008701 118.94024 8352878
-71.807556 -41.865868 117.69482 8814707
-72.715309 -41.745628 117.33681 5393730
-73.602211 -41.686378 116.96363 6511699
-74.582329 -41.391216 116.64343 7892840
-75.497551 -41.43314 116.21698 9076858
-76.414223 -41.477108 115.78905 9538689
-77.332481 -41.523109 115.35967 10591373
-78.233444 -41.365875 115.01952 9933701
-79.091782 -41.275703 114.67151 9078394
52.436981 -40.375664 152.71306 8813942
51.660439 -40.538811 152.9933 11248795
10.952361 -40.813763 141.45706 9209467
10.003772 -40.543316 141.10907 8815222
9.063323 -40.504261 140.67099 8552306
8.2211561 -40.477283 140.27544 8156785
7.2781134 -40.522781 139.80165 7695204
6.3434286 -40.458817 139.37646 9537664
5.5623388 -40.3452 139.04561 8353134
4.8811598 -40.309124 138.73148 6510930
-52.150402 -40.112877 122.3913 9340540
-53.181831 -40.260803 122.15361 9537918
-54.054947 -40.400394 121.94704 9340796
-55.044632 -40.590874 121.701 9275260
-55.97192 -40.48888 121.57412 8946039
-56.994667 -40.443592 121.40933 10064518
-57.972462 -40.516132 121.20902 11511706
-58.953423 -40.59079 121.00734 11314584
-59.98175 -40.60495 120.81957 11774622
-60.981754 -40.419979 120.71044 9472125
-61.945381 -40.664337 120.44912 8814454
-62.868439 -40.774742 120.24448 8156783
-63.910294 -40.997246 119.97739 8616307
-73.887085 -41.022617 117.10246 7827814
-74.563965 -40.713531 116.92348 7893096
-75.361801 -40.57967 116.62016 8418928
-76.314606 -40.45401 116.24413 9538943
-77.235016 -40.498367 115.81438 11774876
-78.157066 -40.544727 115.38314 11248789
-79.080856 -40.593098 114.95029 8946552
-79.976906 -40.59914 114.54685 8617331
-80.911545 -40.437965 114.19323 8288110
-81.856537 -40.064224 113.92017 9143681
53.194614 -39.3745 152.77467 9142650
52.514225 -39.492519 153.03009 8287854
8.8610373 -39.843323 140.84207 8881015
8.063941 -39.53249 140.58363 10591123
7.1976614 -39.617435 140.13094 9274492
6.2625723 -39.492561 139.73032 11840675
5.278945 -39.321213 139.32515 9341053
4.5079145 -39.636478 138.8248 7300702
3.5382106 -39.303272 138.49216 9801605
2.6987216 -39.030731 138.19775 9932678
-49.524761 -39.306175 123.15537 8616306
-50.43705 -39.304817 122.99393 7695204
-51.282913 -39.409229 122.80526 8156524
-52.245407 -39.468288 122.61263 8814197
-53.210495 -39.529385 122.41873 10459019
-54.178375 -39.592503 122.22364 9538432
-55.191574 -39.595131 122.04285 11644064
-56.173943 -39.400715 121.94033 9933703
-57.151581 -39.469593 121.74138 11248791
-58.084656 -39.578262 121.53562 10459276
-59.089127 -39.7766 121.28405 9801605
-59.847061 -39.889454 121.10785 12564654
-76.759232 -39.79557 116.30925 12103841
-77.463745 -39.69323 116.035 12366757
-78.368805 -39.533451 115.69407 9275516
-79.295326 -39.580757 115.26043 9012089
-80.223679 -39.630058 114.8252 8485745
-81.153961 -39.681316 114.38826 8485745
-82.190277 -39.440346 114.02111 9077887
-83.066399 -39.405861 113.64286 8946302
-83.875626 -39.268173 113.33589 11577504
-84.423103 -39.186909 113.12347 9932166
53.243145 -38.468231 153.11359 9735043
52.604053 -38.578766 153.35364 9998728
7.1370687 -38.937798 140.3781 10985367
6.2078199 -38.682003 140.03345 11117464
5.2069349 -38.394218 139.66733 9735811
4.3210745 -38.525509 139.18633 7629667
3.5034854 -38.511208 138.79744 8156012
2.5349948 -38.458904 138.3512 12169896
1.5310123 -38.390121 137.89452 12828082
0.53411746 -38.104389 137.52942 9604228
-45.52264 -38.129692 124.30052 9735300
-46.565552 -38.287552 124.05698 8617080
-47.600685 -38.462776 123.80848 10524048
-48.497803 -38.602325 123.59768 10392461
-49.495796 -38.592068 123.42435 9537152
-50.418774 -38.44952 123.31321 8616306
-51.422676 -38.442829 123.1375 9932166
-52.387966 -38.500626 122.94483 9471871
-53.3559 -38.56039 122.75095 11249050
-54.326637 -38.622154 122.55585 12960181
-55.207302 -38.679783 122.37827 13552574
-56.276657 -38.751827 122.16187 10920853
-56.929295 -38.796787 122.02948 8092011
-79.533875 -38.824673 115.45702 8156780
-80.420456 -38.71207 115.10538 8288366
-81.270409 -38.659901 114.74592 9274748
-82.074112 -38.58987 114.41431 9274748
-83.009026 -38.413795 114.06653 9209216
-83.94873 -38.468754 113.62395 9800838
-84.890701 -38.525669 113.17953 8748661
-85.818787 -38.376003 112.82416 8879734
-86.54454 -38.283539 112.53642 9143419
53.359177 -37.494656 153.44933 10129289
4.164752 -37.754459 139.42436 7563874
3.2597225 -37.401909 139.1308 5985874
2.4150989 -37.465199 138.69736 10986137
1.5340374 -37.565739 138.23117 14933970
0.53455234 -37.446632 137.79709 8814969
-0.364362 -37.340992 137.40611 7893609
-1.2816975 -37.234756 137.00648 9866627
-42.007229 -37.014725 125.33719 10590351
-42.685974 -37.169926 125.15921 10524299
-43.566391 -37.238407 124.97754 10458505
-44.495552 -37.439213 124.73825 11313813
-45.446117 -37.482155 124.55361 10853521
-46.398628 -37.526936 124.36785 8617078
-47.512566 -37.581638 124.1498 9734788
-48.629341 -37.638798 123.9304 9668995
-49.588524 -37.483532 123.81752 10195338
-50.596985 -37.420753 123.66174 9537664
-51.503159 -37.564926 123.44761 10195082
-52.437473 -37.72187 123.22383 9340285
-53.452942 -37.913788 122.97266 11907492
-54.100937 -37.954105 122.84282 13552573
-81.36528 -37.979218 114.9766 9471871
-82.182816 -37.851803 114.66178 10195338
-83.257843 -37.493774 114.32425 9997959
-84.17701 -37.447731 113.93139 9997959
-85.121872 -37.503311 113.48621 8879990
-86.019821 -37.601093 113.04514 9669251
-86.860336 -37.610329 112.66525 9143163
-87.693405 -37.48991 112.34064 7563618
-88.788483 -37.300457 111.92657 8484977
-89.568161 -37.09087 111.66173 10656658
53.632034 -36.711201 153.63977 9010808
2.2095478 -36.653812 138.92799 8617334
1.4415882 -36.610905 138.57475 12368046
0.53523517 -36.458553 138.19916 9341570
-0.46050763 -36.454144 137.72029 7827815
-1.4081929 -36.524746 137.23409 7564648
-2.1981823 -36.523781 136.85313 7630186
-3.0207703 -36.190582 136.59151 7893358
-38.932655 -36.265171 126.1603 9142393
-39.805893 -36.35817 125.97089 8813686
-40.855244 -36.422161 125.76087 9801349
-41.724598 -36.479107 125.58543 10392715
-42.714672 -36.400658 125.43862 11774365
-43.664215 -36.438999 125.2558 10392713
-44.615562 -36.479111 125.07202 12234660
-45.568802 -36.521088 124.88721 10590349
-46.52401 -36.564861 124.70139 8682867
-47.481323 -36.610489 124.51453 8813942
-48.528099 -36.7272 124.28548 8879222
-49.562969 -36.715672 124.10596 10853012
-84.486923 -36.775227 114.06245 9011576
-85.156647 -36.640965 113.81662 8288366
-85.986572 -36.516628 113.49503 7959151
-86.938438 -36.574032 113.04597 11183003
-87.89299 -36.633366 112.59508 7563874
-88.820435 -36.649132 112.17382 8353649
-89.868988 -36.512291 111.75997 9275008
-90.616089 -36.345745 111.49302 8813943
-91.48336 -36.258686 111.14034 8090218
0.53568912 -35.79887 138.46762 10525846
-0.50986218 -35.587479 138.04884 8946299
-1.4541142 -35.577229 137.59721 8287859
-2.4398053 -35.469955 137.16496 7301478
-3.3271286 -35.328289 136.79425 8551284
-4.0254259 -35.585716 136.35248 8288621
-4.973279 -35.331913 135.99812 7893607
-5.6836653 -35.128944 135.73773 7038298
-35.89357 -35.219818 127.08664 10391689
-36.818825 -35.40377 126.85432 10392202
-37.787819 -35.550907 126.62782 10523788
-38.687553 -35.617958 126.44322 9208186
-39.844921 -35.56361 126.25781 9603202
-40.888206 -35.48666 126.10096 9406335
-41.879025 -35.405472 125.95505 9208701
-42.829506 -35.441177 125.77307 11774365
-43.781723 -35.478607 125.59014 11905950
-44.690884 -35.556213 125.39995 11380121
-45.671158 -35.719269 125.16557 9735298
-46.607685 -35.922852 124.92394 8682867
-47.246735 -35.952534 124.79952 8682867
-86.459976 -35.851139 113.55027 8617337
-87.191849 -35.755798 113.26146 10590867
-88.110382 -35.702297 112.87234 8880250
-88.93335 -35.653984 112.52381 8485494
-89.758949 -35.606541 112.17378 8025200
-90.783714 -35.423023 111.78948 9011837
-91.752914 -35.48735 111.33022 8089961
-92.632446 -35.547215 110.91289 7497568
-93.439575 -35.338982 110.63584 10392457
-94.113129 -35.29797 110.35123 10853012
-1.5405171 -34.82933 137.85953 7761772
-2.4939435 -34.575748 137.50241 7432808
-3.4303315 -34.384602 137.12811 7762279
-4.3319578 -34.509319 136.64218 8288621
-5.1415873 -34.581764 136.22189 8486000
-6.0163698 -34.447342 135.85425 8157554
-6.9336996 -34.264244 135.48586 9735812
-7.6152029 -34.290043 135.14636 9735812
-32.065937 -34.181427 128.15042 8682867
-33.100933 -34.306858 127.92023 8683126
-34.127384 -34.449276 127.6853 10851981
-35.01524 -34.560192 127.48656 10457481
-35.957512 -34.582912 127.31086 10984081
-36.90086 -34.607243 127.13432 11904669
-37.845371 -34.633263 126.95698 11246997
-38.808426 -34.501331 126.83471 8879478
-39.833073 -34.49612 126.65467 9866373
-40.916431 -34.448444 126.47993 9011321
-41.905418 -34.635376 126.23518 8814201
-42.906162 -34.800831 125.99627 8814201
-89.09565 -34.966026 112.72812 7761772
-90.004204 -34.772766 112.39968 8024944
-90.918304 -34.590462 112.06438 10985110
-91.73175 -34.388191 111.7821 10721937
-92.655212 -34.492668 111.32717 8155754
-93.632858 -34.558441 110.86361 9537667
-94.613823 -34.626118 110.39773 8945531
-95.477791 -34.509853 110.05827 7300446
-96.375076 -34.277897 109.75041 8485745
-97.095367 -34.092564 109.50304 9341054
-3.7645829 -33.696842 137.24646 7564643
-4.5090189 -33.622284 136.91737 9736067
-5.3889303 -33.535378 136.52794 10657169
-6.316905 -33.40461 136.13318 8289141
-7.0886984 -33.417446 135.75536 9472899
-7.9182596 -33.551033 135.30057 8288880
-8.9051447 -33.362244 134.90092 7368039
-9.6999197 -33.128635 134.6123 9998215
-20.84053 -33.002739 131.34587 9735555
-25.3179 -33.235184 130.06734 6510930
-26.245155 -33.222038 129.82616 7037274
-27.326036 -33.208744 129.5451 7433055
-28.251692 -33.199089 129.30367 9537659
-29.176653 -33.191063 129.06175 11379348
-30.097782 -33.354687 128.80568 6906455
-31.024916 -33.527237 128.57724 7104091
-31.966024 -33.542309 128.40448 7630179
-33.064919 -33.562038 128.20209 9341570
-34.164871 -33.583839 127.99866 8551799
-35.108707 -33.604336 127.82349 9010808
-36.053524 -33.626465 127.64752 10786703
-37.040123 -33.534813 127.50621 11575960
-37.946529 -33.675613 127.29316 9340286
-38.824364 -33.62048 127.15765 8024169
-39.527817 -33.721588 126.99537 9011064
-91.115952 -34.041527 112.19696 14076861
-92.011032 -33.746716 111.91542 8617080
-92.932487 -33.554176 111.58091 8814201
-93.785034 -33.559509 111.19762 8945788
-94.598518 -33.518906 110.85025 7301479
-95.533157 -33.626751 110.38901 8616823
-96.493027 -33.649101 109.9508 9012089
-97.521561 -33.529125 109.53927 8090987
-98.31778 -33.288708 109.28004 11182486
-99.19812 -33.173576 108.93278 10985106
-5.5618505 -32.86768 136.71599 12169123
-6.4359598 -32.65456 136.38066 8420726
-7.3397932 -32.375702 136.05769 9407106
-8.1744337 -32.501575 135.60359 11906466
-8.9655123 -32.591381 135.18523 7236710
-9.8766241 -32.469604 134.79494 8748920
-10.78346 -32.349922 134.40584 10196107
-11.707938 -32.195358 134.08273 8484721
-12.719777 -32.285622 133.7762 9209467
-13.664113 -32.412525 133.47716 8289390
-14.612267 -32.379875 133.23732 9736836
-15.649413 -32.323082 132.98288 10789013
-16.773907 -32.391441 132.65805 8880759
-17.750946 -32.443043 132.37874 9802629
-18.690783 -32.417213 132.1385 8748917
-19.629049 -32.392998 131.89812 9998727
-20.565845 -32.370354 131.65749 9932934
-21.491625 -32.50914 131.35895 10458507
-22.425289 -32.489563 131.11801 9537150
-23.347343 -32.631298 130.81931 10063495
-24.278257 -32.614796 130.57794 8156011
-25.322851 -32.569206 130.31732 8682099
-26.382318 -32.61515 130.01823 9274492
-27.374434 -32.571293 129.77161 7498081
-28.301695 -32.561848 129.52965 7104090
-29.228268 -32.553959 129.28735 9932417
-30.164579 -32.558643 129.08823 7169884
-31.107557 -32.571808 128.91588 9143418
-32.051193 -32.586525 128.74287 8419953
-33.15303 -32.605747 128.5401 10130829
-34.255939 -32.626999 128.33635 9999244
-35.148258 -32.737251 128.13712 7301735
-36.067226 -32.858814 127.92898 8616566
-36.749214 -33.003456 127.75437 11904668
-94.063156 -32.81979 111.37098 7038307
-94.821075 -32.727497 111.06925 8814203
-95.771965 -32.678917 110.66372 12432045
-96.566238 -32.579906 110.34843 10064265
-97.424416 -32.645008 109.93854 8354158
-98.519272 -32.510777 109.50301 10655625
-99.382072 -32.469677 109.13384 9734524
-100.24835 -32.42934 108.76276 8879734
-101.21936 -32.333126 108.36736 11314332
-8.4203634 -31.684282 135.8172 12695724
-9.2710142 -31.555723 135.45885 9933192
-10.183442 -31.436829 135.06676 10788243
-11.01019 -31.407063 134.67975 10788243
-11.924815 -31.41268 134.31972 8813686
-12.803874 -31.550245 134.03128 8880503
-13.853719 -31.601542 133.73274 9342078
-14.897061 -31.599018 133.45621 10460559
-15.909183 -31.534952 133.21117 9867914
-16.854895 -31.50675 132.97032 9209982
-17.798853 -31.480103 132.72929 9341309
-18.74111 -31.455004 132.48817 9209467
-19.681829 -31.43145 132.24686 9341053
-20.62105 -31.409441 132.00534 10393484
-21.558874 -31.388973 131.76367 9011063
-22.495382 -31.370043 131.52176 8089963
-23.420254 -31.512573 131.22202 9076600
-24.446032 -31.449545 130.97295 10391944
-25.458513 -31.61277 130.64209 9208443
-26.517067 -31.62509 130.35585 10261131
-27.447279 -31.614143 130.11261 8155756
-28.376797 -31.604795 129.86925 7893351
-29.30578 -31.597092 129.6261 6972505
-30.244816 -31.602003 129.42778 7696228
-31.190313 -31.614807 129.25514 10261899
-32.122257 -31.788902 129.02525 10262158
-33.211834 -31.967403 128.76572 11314846
-96.802696 -31.93392 110.50268 11576994
-97.679718 -31.814148 110.15879 9077108
-98.478935 -31.56999 109.89976 10655625
-99.512215 -31.504143 109.46427 10392709
-100.4472 -31.511648 109.04322 8880248
-101.2872 -31.474632 108.68252 9537665
-102.19476 -31.59178 108.22964 9208444
-103.09405 -31.476616 107.87389 10458507
-103.82619 -31.349293 107.59777 9340543
-9.6072969 -30.880741 135.57101 8092019
-10.308805 -30.692654 135.30858 10393230
-11.242537 -30.517056 134.94173 10854037
-12.153647 -30.376274 134.67915 8682612
-13.137389 -30.618259 134.29422 8880503
-14.05055 -30.628832 134.0511 9276029
-15.003173 -30.599569 133.81462 8749944
-15.953856 -30.571774 133.57793 10459794
-16.860676 -30.585669 133.33112 9604743
-17.838825 -30.676359 133.02191 11644065
-18.783159 -30.651865 132.77997 9932934
-19.72588 -30.628883 132.53793 11380380
-20.667328 -30.607653 132.2968 12235428
-21.608099 -30.588966 132.05988 9668990
-22.463203 -30.651838 131.80719 9142393
-23.472418 -30.712273 131.51009 9799808
-24.56403 -30.694324 131.22652 9668222
-25.707399 -30.805355 130.88049 8550513
-26.575953 -30.826077 130.64168 8024169
-27.508181 -30.81542 130.39778 10458252
-28.42708 -30.966055 130.09654 12365991
-29.357525 -30.958366 129.85222 7564642
-30.140568 -30.961355 129.68318 8880502
-98.910172 -31.001434 109.9358 10655625
-99.628693 -30.870203 109.66737 11379350
-100.62664 -30.642843 109.34693 9012350
-101.43792 -30.639734 108.99326 8222063
-102.416 -30.583467 108.61246 8550513
-103.26887 -30.54752 108.25114 10524555
-104.16322 -30.697567 107.75135 10129800
-105.01193 -30.595879 107.43666 9341317
-106.00257 -30.373558 107.15192 11644064
-106.90714 -30.234358 106.85872 9538432
-107.81175 -30.211857 106.47358 9867911
-103.55894 -29.919609 108.61987 11182228
-104.36698 -29.886957 108.28629 9274747
-105.26033 -29.895281 107.88019 8419697
-106.27037 -29.617201 107.66315 9341053
-107.16014 -29.678356 107.21422 9341053
-108.15987 -29.543701 106.92649 11906468
-109.0118 -29.644224 106.43353 10590348
-109.95242 -29.454746 106.156 9801089
-110.99199 -29.403942 105.86897 9932159
-111.92747 -29.30138 105.5915 10458503
-112.76646 -29.191017 105.3606 9208181
-113.55212 -29.23123 104.82202 8682351
-115.89957 -29.080431 104.18018 10590092
-113.99964 -28.981617 105.48875 8682867
-114.79076 -29.02227 104.94566 10261383
-115.68388 -28.97673 104.65919 10261384
-116.84135 -28.853144 104.51862 10260875
-117.63947 -28.895857 103.96493 10260875
-118.27843 -28.930557 103.51969 10260875
-119.8167 -28.779758 103.85091 10853012
-120.44017 -28.780602 103.12846 9735299
-121.01261 -28.799496 102.61318 9735299
-123.78197 -28.782818 102.67626 10129545
-124.39723 -28.78343 101.92917 10326924
49.317482 -43.2523 152.58005 9538432
48.369907 -43.243046 152.5694 10591377
47.312191 -43.328026 152.40926 11578272
46.312199 -43.463131 152.41879 10327692
45.501438 -43.601452 152.38254 8682867
44.208359 -43.653305 151.36533 8945523
43.479443 -43.653767 151.57602 9537401
41.619644 -43.655319 150.54179 7563619
40.713173 -43.655895 150.78883 10655886
38.890347 -43.657421 149.74742 9866371
37.80838 -43.658119 150.0238 8287853
36.023083 -43.659618 148.97321 9472383
34.946728 -43.660316 149.22884 9340798
33.554893 -43.661568 148.08968 5392706
32.84177 -43.662025 148.24873 7038307
31.949373 -43.662609 148.44341 8287859
30.770464 -43.663715 147.26382 10853012
30.061316 -43.664177 147.40953 11906725
29.17404 -43.664761 147.58749 11708572
28.027849 -43.665848 146.40973 8090995
27.322847 -43.666306 146.54228 9932937
26.264284 -43.667007 146.73526 8683130
24.976423 -43.668182 145.58842 7366240
24.275465 -43.668648 145.7063 7826791
23.223032 -43.669342 145.87726 9734787
22.121664 -43.575848 145.72577 6510930
21.420286 -43.486088 145.13757 6642516
20.523798 -43.420727 144.97765 8550768
19.458841 -43.316837 144.54565 7234653
18.622087 -43.45042 144.00305 7234653
17.578272 -43.363281 143.61894 11380122
16.72117 -43.169163 143.28409 8288371
50.207184 -42.314251 152.92218 9472383
49.342369 -42.403206 152.92075 9209467
48.265057 -42.465897 152.87904 9472639
47.244957 -42.517754 152.8429 10262924
46.389805 -42.901962 152.67612 9932934
20.063601 -42.712898 145.0831 12366244
19.421545 -42.645607 144.80058 8353132
18.483534 -42.437149 144.4325 6576723
17.574404 -42.537228 143.95294 10525070
16.699465 -42.357265 143.60374 9143420
15.814109 -42.522881 143.10901 8354163
14.75627 -42.196598 142.73108 9537919
-68.155762 -42.057533 118.8321 9340286
-68.834312 -42.123711 118.68725 9340286
-69.830147 -42.209572 118.42559 8419696
-70.441208 -42.2351 118.15815 9735558
50.95644 -41.233578 153.02977 11906725
50.207695 -41.436535 153.23674 8814709
49.163368 -41.492828 153.28302 9209467
48.420601 -41.771755 153.15955 9538432
18.216978 -41.89703 144.52341 6774102
17.482 -41.609531 144.28554 7037274
16.501406 -41.534359 143.84273 9077369
15.630973 -41.501537 143.4359 7893611
14.762855 -41.414261 143.05231 8156779
13.799239 -41.57114 142.52333 10919314
12.906604 -41.267727 142.21582 8748660
12.196662 -40.993114 141.98477 11314071
-64.912827 -41.0853 119.76692 7563104
-65.919289 -41.175591 119.55491 11180945
-66.898613 -41.433411 119.28586 13023150
-67.974976 -41.462368 119.08408 8748148
-68.963799 -41.460644 118.90925 9340286
-69.95771 -41.542915 118.64073 9208700
-70.870819 -41.577923 118.2296 13024946
-71.758179 -41.409065 117.90024 10130566
-72.603981 -41.307308 117.56246 7104090
51.120003 -40.326042 153.31815 10393486
50.3102 -40.581059 153.55177 9275260
49.495163 -40.822266 153.55701 9209467
16.397947 -40.924267 144.04088 9208955
15.487147 -40.615856 143.72661 8354676
14.573852 -40.481636 143.34029 9669505
13.659888 -40.52084 142.88313 12893103
12.758731 -40.390678 142.50105 9538433
11.856009 -40.488926 142.02531 9735554
10.968505 -40.306194 141.6712 9341053
10.321605 -40.158596 141.41893 9144187
-62.031387 -40.173344 120.61527 9275004
-63.096909 -40.344669 120.36287 7564649
-64.059921 -40.438114 120.15742 8419440
-65.033707 -40.426964 119.98871 7760223
-66.042343 -40.516033 119.7768 10917773
-67.055084 -40.607399 119.56329 9799549
-68.055573 -40.587124 119.3932 7038299
-68.987373 -40.449169 119.27884 7827815
-69.937286 -40.529942 119.04053 9734788
-70.859322 -40.567589 118.64005 10590609
-71.770966 -40.600578 118.21883 9867140
-72.683762 -40.63554 117.7963 6249038
-73.515076 -40.572388 117.44955 6577747
-74.478432 -40.371304 117.09905 8814709
-75.463577 -40.075718 116.77678 8617330
51.874073 -39.468159 153.32423 9933191
51.156929 -39.485218 153.63622 9538433
14.413306 -39.94149 143.48247 10064262
13.619975 -39.690422 143.20149 12038054
12.613204 -39.440441 142.81715 9143675
11.708186 -39.558201 142.3324 9735812
10.817981 -39.434719 141.95288 9604226
9.9281454 -39.481968 141.50415 9407103
9.0973768 -39.441261 141.11963 9078394
8.0052176 -39.052982 140.75031 9998732
-58.513481 -39.239109 121.58485 8090987
-59.170593 -39.287766 121.45021 9801348
-60.253197 -39.369579 121.22786 11051415
-61.150719 -39.439209 121.04282 10524557
-62.146065 -39.518166 120.83701 8814454
-63.145126 -39.599308 120.6297 7498856
-64.167908 -39.572922 120.45793 9143164
-65.21524 -39.438622 120.32166 9339256
-66.227058 -39.525745 120.10989 9733499
-67.192734 -39.652794 119.89157 9273978
-68.000542 -39.570644 119.77856 7038042
-68.945877 -39.769283 119.53741 7761766
-69.959961 -39.857086 119.2968 9077114
-70.971375 -39.762947 118.91277 8418928
-71.862717 -39.592045 118.58237 8024170
-72.778 -39.626041 118.15915 8617330
-73.694473 -39.661938 117.73452 7433056
-74.634697 -39.587746 117.34351 8748916
-75.599365 -39.403297 116.98575 8946553
-76.491104 -39.400887 116.58764 11380375
-77.419296 -39.231728 116.2401 11380376
52.062149 -38.364208 153.67984 10985879
51.313637 -38.64043 153.90263 10327949
12.269141 -38.952152 142.84962 9341054
11.558002 -38.683784 142.61543 11314586
10.727431 -38.514385 142.28334 11708316
9.8247213 -38.44989 141.87383 9603969
8.9693861 -38.554127 141.41853 8880762
8.0205832 -38.380615 141.0311 9012095
7.0440893 -38.387947 140.55672 9209218
6.2841368 -38.267445 140.23888 11117208
5.5978727 -38.067917 139.98869 11381404
-55.601227 -38.159878 122.50049 11775906
-56.35379 -38.264778 122.32816 9341820
-57.356041 -38.456711 122.07934 8354927
-58.292347 -38.563938 121.87356 8551794
-59.279301 -38.635433 121.67195 9341053
-60.280937 -38.444988 121.56452 10459278
-61.319855 -38.45726 121.37563 9406591
-62.318336 -38.534462 121.16991 8288369
-63.320484 -38.613838 120.96268 7301478
-64.291916 -38.650707 120.77668 6643541
-65.267151 -38.689556 120.58922 8353646
-66.180977 -38.850376 120.36759 9733499
-66.689102 -38.893955 120.26138 9733499
-72.296982 -38.932575 118.65263 7563619
-73.001343 -38.874069 118.36082 8748663
-73.923019 -38.698021 118.01898 9209467
-74.783401 -38.647877 117.65401 9209725
-75.803207 -38.393764 117.29954 11051673
-76.72744 -38.43425 116.86967 10328203
-77.65329 -38.476662 116.43832 9867652
-78.58078 -38.52095 116.00541 8090730
-79.390755 -38.390312 115.69532 6906713
-80.047455 -38.252731 115.45663 8617331
52.82008 -37.505703 153.68454 11380380
52.100517 -37.521183 153.99818 11380380
9.6223822 -37.743851 142.0632 9669249
8.7002707 -37.497005 141.71849 10261903
7.8685865 -37.348125 141.37755 8814460
6.9907866 -37.573727 140.86205 8683131
5.9967031 -37.406342 140.45021 8617592
5.1662054 -37.392433 140.05493 10328204
4.323245 -37.324116 139.67583 8485489
-51.770485 -37.161808 123.54913 9471871
-52.647175 -37.29427 123.3446 10064520
-53.525764 -37.428516 123.13906 11644064
-54.521832 -37.612751 122.8942 11578528
-55.459332 -37.45126 122.78746 10196617
-56.482399 -37.452354 122.60548 10854802
-57.465897 -37.518219 122.40659 8618354
-58.45256 -37.586102 122.20643 9078652
-59.44252 -37.655964 122.0049 9801604
-60.442902 -37.438522 121.90768 11314587
-61.461021 -37.638004 121.65331 10130313
-62.364059 -37.789513 121.43702 9406590
-63.269806 -37.942924 121.21955 8485747
-74.947601 -38.018696 117.83293 9275520
-75.939262 -37.72007 117.50898 11051673
-76.716667 -37.469746 117.26144 9933707
-77.553108 -37.449863 116.89507 9801348
-78.482765 -37.492531 116.46186 9867141
-79.4142 -37.537048 116.02715 7959144
-80.347458 -37.583469 115.59083 9143418
-81.259079 -37.532528 115.20327 9274492
-82.294174 -37.342411 114.81633 9603457
-83.309555 -37.053802 114.47762 10261132
53.126717 -36.4291 153.97656 9340541
52.37159 -36.736855 154.18974 10459278
7.5337896 -36.630341 141.50778 8814460
6.8923635 -36.663277 141.18472 7696237
5.9697218 -36.437588 140.83112 8551542
5.0340223 -36.324139 140.42551 9340799
4.2035971 -36.60043 139.91231 8090989
3.225745 -36.441841 139.50473 6446424
2.2795856 -36.197643 139.14729 6972768
-48.826981 -36.19138 124.43055 9010808
-49.618885 -36.313129 124.24488 9668994
-50.674423 -36.417656 124.0188 8419184
-51.702652 -36.506634 123.80331 8485489
-52.673592 -36.561855 123.61052 9406846
-53.64724 -36.618938 123.41663 8682867
-54.671425 -36.561707 123.25598 9011832
-55.653606 -36.413895 123.13631 10590094
-56.636925 -36.476273 122.93871 12828078
-57.57555 -36.578674 122.73429 10196875
-58.586243 -36.770271 122.48414 9934220
-59.551437 -37.002346 122.22707 11249052
-77.847458 -36.78101 117.03168 9406334
-78.714287 -36.683575 116.68284 8222316
-79.628571 -36.521076 116.3388 7630179
-80.564621 -36.566391 115.90169 8748148
-81.50264 -36.613537 115.46297 8222317
-82.442703 -36.662563 115.02259 9143163
-83.292633 -36.650944 114.64685 9012093
-84.111923 -36.310135 114.41689 9012092
-85.015862 -36.200554 114.05629 8748660
53.795528 -35.343922 154.11099 8681843
53.170006 -35.411667 154.36205 9077113
5.807601 -35.745617 141.03421 8090992
4.8311262 -35.573833 140.63266 8287857
4.014369 -35.486259 140.27399 8288112
3.1913517 -35.480278 139.87915 9604227
2.2164562 -35.437542 139.42587 8749176
1.247401 -35.507381 138.9297 9933447
0.36883426 -35.284824 138.5961 8814968
-0.46386838 -35.028141 138.29849 9998989
-45.094521 -35.210461 125.45621 10853521
-45.732628 -35.237804 125.33272 10129799
-46.670479 -35.440922 125.09106 8682867
-47.654934 -35.607792 124.85452 8814197
-48.570461 -35.486 124.73698 9208699
-49.58094 -35.418118 124.58265 8748149
-50.608765 -35.503422 124.36855 7892840
-51.680958 -35.527973 124.16908 9669763
-52.708359 -35.584549 123.96568 8748660
-53.73291 -35.610149 123.77428 8682867
-54.671848 -35.643257 123.59532 8682355
-55.754799 -35.763409 123.35869 10458254
-80.084023 -35.857578 116.40112 9405822
-80.727692 -35.802597 116.13515 7235421
-81.556793 -35.628502 115.83389 8813941
-82.399834 -35.584839 115.47412 8683127
-83.295654 -35.674389 115.03728 8486263
-84.341766 -35.483849 114.64558 9209215
-85.26825 -35.436108 114.25028 8485749
-86.190735 -35.445152 113.83407 8419958
-87.015869 -35.305138 113.52151 11314589
-87.733856 -35.231857 113.23 9274753
53.731678 -34.368732 154.52736 9076859
3.7521122 -34.834957 140.41217 9735812
2.9690311 -34.545982 140.1516 10130570
2.1246974 -34.508839 139.75909 9999240
1.208041 -34.550079 139.29993 8683892
0.20188785 -34.440292 138.85887 8946808
-0.63183331 -34.35051 138.4929 9800582
-1.3941662 -34.401176 138.10434 9603461
-2.2860425 -34.17593 137.76535 7761772
-41.235058 -34.09774 126.55304 9143422
-42.098866 -34.208168 126.35882 7696235
-42.963699 -34.320114 126.16384 7038307
-43.899384 -34.516899 125.92489 9341564
-44.856052 -34.555145 125.74084 9341564
-45.814682 -34.595165 125.55579 9932677
-46.775307 -34.636875 125.36978 8682867
-47.75951 -34.519199 125.23853 10458766
-48.746788 -34.402992 125.10616 10524815
-49.714989 -34.449619 124.91702 10195850
-50.639336 -34.536404 124.72076 8287598
-51.635376 -34.710155 124.47963 10656657
-52.586838 -34.924442 124.23139 9209211
-53.238091 -34.960297 124.10251 8682867
-82.657158 -34.951965 115.61291 7960176
-83.544907 -34.750755 115.29659 8025969
-84.440811 -34.655643 114.93423 8551800
-85.398239 -34.453541 114.58754 10984852
-86.186447 -34.403912 114.25509 9472387
-87.093994 -34.498493 113.81124 8551544
-88.053795 -34.554287 113.35969 8879995
-88.993561 -34.510742 112.95705 8090736
-89.902344 -34.316525 112.62886 7761772
54.00631 -33.581272 154.71855 9866631
1.8851421 -33.959347 139.8665 8092011
1.1426113 -33.746159 139.59467 8618099
0.20157886 -33.44698 139.26184 9209211
-0.80062604 -33.452446 138.77628 8747893
-1.701318 -33.532242 138.30934 9669254
-2.4966176 -33.538773 137.92278 9735046
-3.4006512 -33.365372 137.5569 8353647
-4.0970469 -33.173317 137.29878 9734788
-38.014065 -33.036438 127.51758 8420213
-39.013588 -33.192814 127.2822 7169374
-39.924122 -33.372547 127.05404 7760997
-40.99099 -33.446682 126.83717 8814457
-42.103905 -33.484177 126.6257 8288371
-43.0597 -33.518124 126.44338 7630441
-44.017193 -33.553734 126.26019 8092011
-44.976574 -33.591049 126.076 10328203
-45.937881 -33.630066 125.89087 13090996
-46.901245 -33.670761 125.70473 8814453
-47.888206 -33.551842 125.57343 10590353
-48.834435 -33.757317 125.32941 11511711
-49.480755 -33.787594 125.20339 10459022
-84.623627 -34.016472 115.10983 8090995
-85.310989 -33.821472 114.8809 8090995
-86.388321 -33.624664 114.47845 10130059
-87.331451 -33.467667 114.12 9274496
-88.294159 -33.521935 113.66771 8682616
-89.209183 -33.618782 113.21964 7301479
-90.00882 -33.572632 112.88068 7630443
-90.845123 -33.629726 112.48377 9998473
-91.932739 -33.389824 112.09409 8814459
-92.831833 -33.094269 111.81109 7170141
-0.93671155 -32.66711 139.02818 9274492
-1.8015416 -32.580173 138.64653 10590096
-2.7529233 -32.444817 138.24272 8813942
-3.5452168 -32.455402 137.85648 8485233
-4.4318037 -32.486443 137.41618 9471872
-5.3604879 -32.467915 136.97571 9998986
-6.299367 -32.228443 136.61987 8486519
-35.454647 -32.225624 128.27191 7038307
-36.236076 -32.258652 128.12091 8616566
-37.131115 -32.371891 127.92013 10129287
-38.081654 -32.396435 127.74226 7565675
-39.033474 -32.422569 127.56356 8815227
-39.986675 -32.450317 127.38403 7235167
-41.100601 -32.484722 127.17345 8091248
-42.216621 -32.52124 126.96178 9209215
-43.175041 -32.554329 126.77936 9406590
-44.090206 -32.627823 126.58965 8157548
-45.077148 -32.786495 126.35573 9538943
-46.020142 -32.985878 126.11449 15329247
-46.663242 -33.012234 125.99052 10262156
-87.811066 -32.796932 114.1755 8287859
-88.3741 -32.711639 113.95818 8287859
-89.210678 -32.569149 113.64144 9406337
-90.150864 -32.57938 113.21696 9603971
-91.124268 -32.636814 112.75862 8288116
-92.007568 -32.690304 112.3422 7367269
-92.933182 -32.453556 112.02361 6117453
-93.790955 -32.40424 111.65996 7827819
-94.79039 -32.2467 111.27653 7564651
-95.554436 -32.207535 110.95068 12432045
-2.13783 -31.886833 138.7643 10064011
-2.8829968 -31.73245 138.4675 8419440
-3.8322232 -31.436626 138.12949 8813942
-4.608964 -31.48703 137.73488 9340543
-5.421504 -31.575676 137.30754 8617849
-6.3942461 -31.486786 136.87466 9604228
-7.3614874 -31.399845 136.44345 8486519
-8.1675425 -31.166367 136.14943 12564138
-32.411812 -31.377764 129.12592 9538435
-33.464611 -31.371677 128.94116 10394002
-34.362366 -31.508665 128.73105 9604486
-35.287209 -31.483797 128.576 8222579
-36.278133 -31.388924 128.43512 9867144
-37.230064 -31.411261 128.25784 8814971
-38.183197 -31.435167 128.07971 9144449
-39.137604 -31.460619 127.90084 12038312
-40.09338 -31.487619 127.72108 8552312
-41.121017 -31.702736 127.45904 7433832
-42.141323 -31.79286 127.24456 8617335
-42.931656 -31.899857 127.06456 8682867
-90.315102 -31.886934 113.42221 11511967
-91.079849 -31.719831 113.14758 9275008
-92.02652 -31.634092 112.75881 7564645
-92.977913 -31.646698 112.32835 7630692
-94.054718 -31.503872 111.90445 7499107
-94.845215 -31.400883 111.59247 7630186
-95.730354 -31.507654 111.15372 9669512
-96.703743 -31.468735 110.73419 12168873
-97.647881 -31.27574 110.38979 9076851
-4.9455652 -30.800323 137.84976 8946557
-5.6717558 -30.526258 137.61928 8092019
-6.453517 -30.545588 137.23837 9801095
-7.3844023 -30.426455 136.85146 9801863
-8.3798609 -30.407766 136.38676 8683898
-9.2596178 -30.546848 135.87813 8354678
-10.181737 -30.273893 135.57297 9011323
-11.057681 -30.129534 135.24678 11380380
-13.130063 -30.036169 134.63054 9735812
-14.088191 -30.008394 134.40433 9735812
-17.239441 -30.224012 133.4196 8684155
-17.872229 -30.209324 133.26733 10328207
