# .PCD v0.7 - Point Cloud Data file format
VERSION 0.7
FIELDS x y z rgb
SIZE 4 4 4 4
TYPE F F F U
COUNT 1 1 1 1
WIDTH 1186
HEIGHT 1
VIEWPOINT 0 0 0 1 0 0 0
POINTS 1186
DATA ascii
15.539158 -51.060844 -132.5791 6906972
16.496128 -51.080856 -132.52289 9012093
17.453869 -51.103165 -132.46576 9340801
18.412453 -51.127815 -132.4077 8485489
19.371922 -51.154839 -132.34879 9406335
20.448099 -51.022781 -132.34206 9275006
21.571072 -50.861835 -132.34343 8617592
22.597511 -50.931667 -132.26543 10854550
23.562851 -50.968666 -132.20256 9933451
24.529533 -51.008072 -132.13872 9144192
25.497686 -51.049858 -132.07396 8419952
26.466801 -51.092876 -132.00537 7104091
27.391546 -51.052029 -131.71327 7762279
28.109535 -50.770706 -131.48586 9406851
-53.134739 -50.605434 -136.74493 9275261
-52.583248 -50.547565 -136.78224 9735812
-47.921314 -49.779587 -136.77089 8813686
-47.291504 -49.834896 -136.55112 9011321
-46.384064 -49.93721 -136.57549 9800579
-45.366093 -50.035267 -136.62115 8945008
-44.33485 -50.030037 -136.55266 9208183
-43.401173 -50.119884 -136.33641 9142648
-42.378944 -50.005859 -136.32405 9932422
-41.394699 -49.981937 -136.22714 9932422
-40.302643 -49.926723 -136.14815 9538177
-39.377762 -49.984699 -136.01823 8617331
-38.457966 -50.044014 -135.88779 8222061
-37.399689 -49.934658 -135.87071 8353135
-36.345432 -49.827824 -135.85217 9274748
-35.371323 -49.938141 -135.68428 9603969
-34.463318 -49.98436 -135.57191 9801349
-33.496834 -49.859657 -135.5732 11840415
-32.478165 -49.971123 -135.45522 10919571
-31.387472 -49.993835 -135.37167 9340798
-30.304371 -49.970303 -135.32478 9274237
-29.320787 -49.981911 -135.27017 8418928
-28.286583 -50.063789 -135.18729 9602425
-27.321692 -50.04002 -135.14658 9010544
-26.468266 -50.083614 -135.0869 9865343
-25.457502 -50.003422 -135.06448 7563877
-24.507978 -50.098652 -134.98102 8221549
-23.533855 -50.193756 -134.89636 8813170
-22.532433 -50.120342 -134.87189 8747120
-21.533726 -50.049419 -134.84666 9208442
-20.537601 -49.980953 -134.82068 9734527
-19.53788 -50.026043 -134.75301 9142392
-18.535019 -50.184471 -134.64374 9471615
-17.547113 -50.122932 -134.6156 8945269
-16.561453 -50.063831 -134.58676 8550513
-15.513918 -49.97028 -134.56731 8353135
-14.433064 -49.944099 -134.52151 9471870
-13.387866 -50.184326 -134.38017 9602943
-12.365526 -50.202835 -134.32106 8616050
-11.327348 -50.119785 -134.29822 7826791
-10.354627 -50.075455 -134.26463 8287342
-9.383482 -50.033482 -134.23027 8484720
-8.4138069 -49.993809 -134.1951 9866114
-7.4455485 -49.956497 -134.15916 9273722
-6.4785628 -49.921497 -134.12245 8813171
-5.5403476 -50.153534 -133.98969 9273721
-4.5432296 -50.18784 -133.92606 8879221
-3.5805745 -50.159584 -133.88712 7695205
-2.4587302 -50.12962 -133.84064 9274750
-1.337999 -50.102627 -133.79314 9472642
-0.37822974 -50.082039 -133.75156 9143934
0.58081138 -50.063713 -133.70917 7696229
1.5392541 -50.047684 -133.66592 6380625
2.4971628 -50.033939 -133.62193 7433313
3.4546199 -50.022491 -133.5771 9143930
4.4117284 -50.01329 -133.53146 8025705
5.5279808 -50.005508 -133.47717 8222833
6.6439953 -50.000656 -133.4218 8419443
7.6004939 -49.999016 -133.37344 8616562
8.556941 -49.99968 -133.32422 9406334
9.5134964 -50.002594 -133.27422 9406334
10.470186 -50.007767 -133.22331 11840931
11.42713 -50.015224 -133.17165 8880246
12.543962 -50.026867 -133.11023 8353646
13.661362 -50.041466 -133.04768 6116429
14.619685 -50.056534 -132.99323 7432801
15.5786 -50.073891 -132.93785 7235421
16.538195 -50.093525 -132.88159 9077114
17.498528 -50.115456 -132.82443 9603715
18.459734 -50.139698 -132.76645 8222573
19.421841 -50.166203 -132.70758 8288366
20.366917 -49.930283 -132.74547 9209211
21.482988 -49.930271 -132.68845 8617588
22.593714 -49.905872 -132.64055 9999242
23.624298 -49.977547 -132.56165 8354933
24.593674 -50.016243 -132.49792 9933193
25.564526 -50.057262 -132.43326 7959407
26.536751 -50.100292 -132.36684 6840922
27.464762 -50.061623 -132.07765 8156785
28.368355 -49.984261 -131.6799 9801609
29.086466 -49.706142 -131.45107 7038307
-47.261864 -49.574966 -136.98685 10985367
-46.756481 -49.560577 -137.12053 10985367
-43.809277 -49.604607 -137.03452 9734788
-41.157471 -49.582184 -136.61592 10261132
-40.441956 -49.507008 -136.60886 9997958
-39.371586 -49.395893 -136.59621 8945781
-38.336185 -49.399784 -136.44324 8616563
-37.370388 -49.329086 -136.39162 9274749
-36.407753 -49.2589 -136.33537 9274748
-35.382462 -49.325092 -136.15855 10260871
-34.308979 -49.319023 -136.04289 10261128
-33.264645 -49.219879 -136.01949 13813947
-32.271812 -49.177841 -135.95543 11182742
-31.45319 -49.241863 -135.82541 8879734
-30.469351 -49.114418 -135.82675 9274237
-29.438755 -49.022766 -135.79585 8550513
-28.390598 -49.089531 -135.6662 9865855
-27.344973 -49.154545 -135.52502 8747628
-26.327299 -49.071819 -135.4971 9010550
-25.312738 -48.99123 -135.46738 8418671
-24.329206 -49.024315 -135.38725 8813428
-23.378075 -49.172314 -135.26173 8154982
-22.374407 -49.100719 -135.23647 8418154
-21.373476 -49.031559 -135.21049 8550256
-20.375099 -48.964809 -135.18375 9405562
-19.369061 -49.085632 -135.08803 9339766
-18.368202 -49.171547 -135.00539 8813682
-17.332478 -49.142269 -134.96309 8484716
-16.280571 -49.047722 -134.94376 8089963
-15.294999 -48.992767 -134.91335 8484721
-14.311466 -48.940144 -134.88223 8747377
-13.35218 -49.156631 -134.75395 8550256
-12.338038 -49.173061 -134.69598 8484464
-11.360981 -49.127174 -134.66275 9142651
-10.385574 -49.083572 -134.62875 8550514
-9.4117498 -49.042274 -134.59392 7958374
-8.4394226 -49.003284 -134.55838 10655627
-7.468472 -48.966591 -134.52206 9076343
-6.4989138 -48.932152 -134.48503 8023913
-5.4991188 -49.018902 -134.40215 8221291
-4.5582991 -49.199532 -134.28796 8484463
-3.4322591 -49.167408 -134.24207 7958377
-2.3075018 -49.138237 -134.19519 10458763
-1.3443767 -49.115715 -134.15405 10590607
-0.38203013 -49.095436 -134.11223 9078398
0.53391969 -49.17215 -134.03729 8551537
1.5404161 -49.225994 -133.96614 7301470
2.5004854 -49.212444 -133.92189 6710105
3.4601121 -49.201096 -133.87694 8486256
4.5109606 -49.167854 -133.83531 11249050
5.6063895 -49.207367 -133.76476 10064265
6.6566882 -49.179512 -133.72118 9406337
7.5507889 -49.210766 -133.66403 9538437
8.5705547 -49.342766 -133.5636 10196106
9.5288143 -49.345577 -133.51344 9011576
10.4872 -49.350727 -133.46257 11051159
11.445864 -49.358032 -133.41083 10130057
12.404842 -49.36768 -133.35818 14077378
13.524208 -49.381817 -133.29581 6708566
14.644224 -49.398849 -133.23233 9011832
15.604874 -49.415985 -133.17691 8616819
16.566208 -49.435387 -133.12067 9734788
17.52829 -49.45702 -133.06357 9734785
18.491257 -49.480946 -133.0056 8814198
19.455168 -49.507149 -132.94673 11182233
27.630749 -49.172649 -132.3571 7038307
28.443998 -48.995083 -132.0426 8222579
29.40716 -48.916683 -131.61702 8288628
30.124231 -48.532948 -131.43127 9933707
-27.438959 -48.552391 -135.97472 9142130
-23.997252 -48.5714 -135.60373 9142649
-23.322556 -48.517941 -135.57274 8089962
-22.313332 -48.439594 -135.52484 9800323
-21.306408 -48.363178 -135.47534 9602941
-20.30357 -48.290535 -135.42863 9602941
-19.232117 -48.355747 -135.34779 8945264
-18.302073 -48.332111 -135.30884 8353130
-17.388338 -48.361259 -135.25136 8024168
-16.312038 -48.382999 -135.18829 8024170
-15.324618 -48.328728 -135.15755 8024170
-14.339279 -48.276699 -135.1261 7892583
-13.17926 -48.550255 -134.96667 8089705
-12.362257 -48.510765 -134.93936 8879734
-11.383359 -48.465416 -134.90576 9734788
-10.40621 -48.422283 -134.87144 9734788
-9.7555351 -48.394772 -134.84818 7037274
28.704296 -48.209236 -132.23576 7038307
29.425095 -47.933426 -132.00476 10459794
30.387798 -47.858902 -131.57779 9078399
29.687117 -47.1492 -132.19641 9736329
30.462917 -46.937744 -131.91356 8683899
31.368271 -47.010086 -131.45477 9275778
32.210285 -46.746014 -131.16199 10460046
30.678076 -46.102917 -132.18097 9341571
31.457245 -46.078983 -131.83803 9012863
32.433044 -46.02845 -131.39926 10459792
33.216007 -45.729748 -131.20049 9210491
31.78849 -45.200203 -132.18649 9407363
32.486519 -45.227085 -131.85089 9604741
33.454399 -45.104279 -131.48988 9603971
34.447941 -44.801662 -131.44873 10392719
35.44519 -44.625309 -131.40958 10195596
36.562885 -44.52504 -131.18303 10327692
37.174995 -44.506344 -130.9563 9406334
36.392502 -44.332458 -131.793 9866885
37.4701 -44.339268 -131.28407 7497825
38.57737 -44.125561 -131.31656 7432802
39.385014 -43.964954 -131.26117 8880502
40.469593 -43.843773 -130.93118 12104099
41.333946 -43.67709 -130.64104 12432037
39.509953 -43.181564 -131.58861 9538175
40.394455 -43.076946 -131.26541 12169891
41.450645 -42.983513 -130.86703 11050641
42.294342 -42.770855 -130.60312 9537660
40.492085 -42.297104 -131.53236 10787726
41.417946 -42.05584 -131.24585 10458761
42.475548 -41.965206 -130.84564 7630178
43.320843 -41.754681 -130.58018 7367013
41.58514 -41.356617 -131.45218 12432037
42.437965 -41.115395 -131.26248 7761508
43.381908 -41.032551 -130.90959 8089961
44.335098 -40.856674 -130.59268 11510170
45.209202 -40.64114 -130.35007 11181463
43.613335 -40.389965 -131.29793 7037274
44.412304 -40.218868 -131.08272 9931652
45.457726 -40.117294 -130.73508 10525074
46.341713 -39.791351 -130.71686 9406852
47.129082 -39.717255 -130.33557 10261903
46.81855 -39.484509 -130.94731 10261903
47.477039 -39.326889 -130.81496 9275007
48.417881 -39.130093 -130.60435 7235421
49.350914 -38.971054 -130.3217 6314575
50.537449 -38.723305 -130.43697 8551281
51.304718 -38.591587 -130.10802 9143675
56.424885 -38.390118 -130.16963 9011576
57.848579 -38.237728 -130.45552 14078918
58.370464 -38.170891 -129.95387 10919830
59.675045 -38.033703 -130.35245 9340286
60.193157 -37.967087 -129.842 9340286
61.638924 -37.811752 -130.10033 10984855
62.152615 -37.745499 -129.58089 13156536
63.609051 -37.588692 -129.82425 13879995
64.118187 -37.522804 -129.29581 12432039
65.459099 -37.380928 -129.65849 8089963
65.964111 -37.315361 -129.12128 10590351
67.442703 -37.15556 -129.33673 6709596
68.68531 -37.026814 -129.82234 7038307
69.184387 -36.961567 -129.26823 6249039
70.688812 -36.798626 -129.46582 6972762
71.182983 -36.733738 -128.90282 7367263
72.57576 -36.585445 -129.22794 7367263
72.943436 -36.536999 -128.79922 7893352
74.470741 -36.371052 -128.97017 7564651
76.255905 -36.172058 -128.84254 11709858
78.269127 -36.000614 -128.71075 7893352
80.29628 -35.827492 -128.55887 9865597
82.336479 -35.652264 -128.38512 8814711
84.275818 -35.491848 -128.35031 9274492
86.231506 -35.32935 -128.29884 8682099
88.313927 -35.147724 -128.06404 9471869
90.409653 -34.964043 -127.8067 8157291
92.287537 -34.806507 -127.84988 9407614
94.145065 -34.632812 -127.82864 8287598
96.118973 -34.437607 -127.60934 10458249
96.416588 -34.380188 -127.05435 9010806
98.10582 -34.240326 -127.37157 8484719
99.817169 -34.098164 -127.68615 10788238
100.10683 -34.040646 -127.11532 9735552
101.74162 -33.915451 -127.61198 8682867
102.0268 -33.857872 -127.03318 8682867
-84.759926 -53.762115 -139.79312 7564651
-84.348785 -53.713783 -139.8725 7564651
-83.937889 -53.665447 -139.95081 7564651
-83.32196 -53.593189 -140.06651 7564386
-82.296585 -53.473026 -140.25423 8616818
-81.477234 -53.377113 -140.40057 9735043
-79.344856 -53.187752 -139.43102 7039331
-78.334671 -53.070091 -139.60051 11116180
-77.128624 -52.932209 -139.80376 8089963
-76.13279 -52.823013 -139.9808 8616822
-74.097725 -52.65416 -139.02864 8090730
-73.311462 -52.568405 -139.15996 9867141
-72.133522 -52.440208 -139.35051 9011831
-71.153191 -52.333778 -139.50313 7038298
-70.369949 -52.248901 -139.62082 7630178
-68.223976 -52.068157 -138.67911 8551280
-67.257713 -51.963924 -138.81308 11182485
-66.292725 -51.860027 -138.94176 9735812
-65.329338 -51.756531 -139.06454 8485749
-64.559448 -51.673946 -139.15916 9735043
-63.982719 -51.612228 -139.22749 8090731
-62.118313 -51.462246 -138.23825 9538950
-61.359016 -51.381294 -138.32106 8881021
-60.221825 -51.26022 -138.43929 12235946
-59.275734 -51.159752 -138.53201 9736326
-58.331272 -51.059616 -138.61906 7170399
-57.199947 -50.940037 -138.71672 9339765
-56.258842 -50.840691 -138.79239 9208179
-54.868256 -50.741417 -137.74886 11378324
-54.310551 -50.682735 -137.78937 8089963
-53.382229 -50.585308 -137.85278 8747891
-52.270332 -50.468838 -137.92221 10788497
-51.160801 -50.352871 -137.98433 9208949
-50.238026 -50.256668 -138.03053 9208955
-49.45826 -50.137138 -137.94594 9735043
-48.55344 -49.889423 -137.50336 9735043
-46.251434 -49.54644 -137.25204 9537665
-45.394302 -49.507122 -137.42372 9208435
-44.30555 -49.394619 -137.44098 9932421
-43.234711 -49.384369 -137.2737 10064264
-42.340248 -49.341396 -137.18684 11380380
-41.343231 -49.209843 -137.218 9800835
-40.26487 -49.097668 -137.2057 9537403
-39.273815 -48.97002 -137.23201 9800835
-38.298538 -48.897537 -137.17647 9538177
-37.327171 -48.826588 -137.11926 9604226
-36.407478 -48.774845 -137.0414 9734784
-35.259293 -48.827297 -136.7494 10457993
-34.392746 -48.791218 -136.63756 10062980
-33.365845 -48.785862 -136.42323 13089969
-32.317074 -48.682465 -136.37732 12498345
-31.619678 -48.614342 -136.34492 8287342
0.73962963 -48.745857 -134.18253 7893607
1.5411485 -48.732986 -134.14619 8814709
2.5025039 -48.719509 -134.10193 7038816
3.4634404 -48.70829 -134.05684 9604482
4.5840259 -48.698059 -134.0032 9933188
5.7042851 -48.69072 -133.94859 10261387
6.6642957 -48.686832 -133.90086 10787729
7.7026577 -48.767288 -133.81825 11907239
8.5807533 -48.850063 -133.74309 10722708
9.5402985 -48.852875 -133.69292 9143162
10.500013 -48.857918 -133.64195 11051159
11.459946 -48.8652 -133.59018 10130057
12.420247 -48.874702 -133.5376 13813692
13.541084 -48.888725 -133.47517 8617074
14.662613 -48.905609 -133.41165 8682868
15.624565 -48.922558 -133.35625 9537409
16.587234 -48.941776 -133.30003 9734788
17.550636 -48.963226 -133.2429 9274228
18.514885 -48.986916 -133.18492 9077369
19.529739 -48.943569 -133.14891 11314332
20.455074 -48.87627 -133.12621 10985622
21.422834 -48.906677 -133.06561 8156780
22.507553 -48.973522 -132.9857 9340798
23.622984 -48.951012 -132.9369 9012348
24.657801 -49.024437 -132.85712 9143677
25.631357 -49.064724 -132.79263 8090992
26.606476 -49.107315 -132.72722 7499369
27.352554 -48.868134 -132.61183 7039331
-36.22258 -48.563019 -137.33435 9997699
-35.338413 -48.477882 -137.31375 10457993
-34.167706 -48.431107 -137.18547 9339772
-33.257492 -48.384541 -137.10133 10063496
-32.303265 -48.322258 -137.03377 11181975
-31.279732 -48.347832 -136.7803 8287342
-30.33672 -48.261414 -136.74287 8089963
-29.252954 -48.288593 -136.49699 8156267
-28.299137 -48.183872 -136.50909 10590349
-27.360758 -48.124363 -136.41858 9668733
-26.360914 -48.18037 -136.22618 9931392
-25.401392 -48.134991 -136.1432 9734014
-24.432119 -48.022984 -136.1396 8353134
-23.415117 -47.942139 -136.08955 7892583
-22.437128 -47.950001 -135.96819 11379351
-21.370771 -47.934719 -135.8672 9602942
-20.364805 -47.86274 -135.82053 9273977
-19.361565 -47.79285 -135.77231 7892582
-18.423788 -47.757805 -135.69942 8484716
-17.267651 -47.918594 -135.45517 8287592
-16.338161 -47.892078 -135.39351 8089961
-15.347651 -47.833176 -135.34811 7958376
-14.360132 -47.779041 -135.30902 7563619
-13.41204 -47.992546 -135.18246 8747634
-12.380383 -48.013992 -135.1218 9735042
-11.400208 -47.969048 -135.08803 9735300
-10.421651 -47.926289 -135.05354 8418928
-9.4005785 -48.008099 -134.97134 7168860
-8.4650249 -48.012714 -134.92168 8287338
-7.4914794 -47.976643 -134.88503 8155499
-6.5192394 -47.942818 -134.84761 7958377
-5.431119 -47.877621 -134.81573 8089962
-4.3675337 -48.235291 -134.63055 7563619
-3.2830667 -48.175323 -134.59692 7760998
-2.3164701 -48.150948 -134.55637 10327175
-1.3507534 -48.128799 -134.51503 10064518
-0.38579762 -48.108879 -134.47292 8486003
0.57845771 -48.091152 -134.43002 9012088
1.5420645 -48.075611 -134.38637 8814709
2.5051541 -48.062302 -134.3419 7499881
3.4677782 -48.051189 -134.29672 9275520
4.590416 -48.041046 -134.24297 8683383
5.712667 -48.033752 -134.18816 8617079
6.6744304 -48.02993 -134.14034 10524814
7.6360669 -48.028309 -134.09171 10394515
8.5977001 -48.028877 -134.04228 10262929
9.5593948 -48.031647 -133.99203 8288627
10.521318 -48.036613 -133.94098 8946039
11.483397 -48.043762 -133.88918 10064520
12.445839 -48.05312 -133.83653 12827310
13.56924 -48.066872 -133.77408 9735811
14.693295 -48.083485 -133.71054 9208958
15.657438 -48.100204 -133.65514 9734788
16.622246 -48.119091 -133.59891 9931907
17.587858 -48.140182 -133.54179 9734523
18.554298 -48.163532 -133.48389 9931647
19.530106 -48.024296 -133.48486 10064522
20.507633 -47.887146 -133.485 10064520
21.478056 -47.916981 -133.42445 8551282
22.449665 -47.949017 -133.36308 8551025
23.485416 -48.018784 -133.28464 7958889
24.559313 -48.026245 -133.22699 8156783
25.635256 -48.036362 -133.16826 8683127
26.676022 -48.113918 -133.0867 8485749
27.611256 -48.080482 -132.80644 7959662
28.427315 -47.904018 -132.49022 7696236
-22.274725 -47.559727 -136.28053 11642524
-21.427849 -47.489567 -136.2162 9866113
-20.419224 -47.41782 -136.16811 8353134
-19.414133 -47.350307 -136.12471 8221545
-18.320391 -47.354034 -136.01968 8353130
-17.396206 -47.370255 -135.92058 8090214
-16.369896 -47.198799 -135.96782 8156263
-15.418062 -47.10046 -135.93625 7695715
-14.423943 -47.039944 -135.87619 8616048
-13.393506 -47.087475 -135.73155 8221291
-12.431956 -47.075077 -135.64598 8748917
-11.445971 -47.023438 -135.59033 9077882
-10.451849 -47.118626 -135.41246 9209212
-9.4713058 -47.073795 -135.36243 8418668
-8.4925728 -47.032021 -135.31421 8945011
-7.4511642 -46.957405 -135.27542 8418927
-6.3771434 -46.948486 -135.20525 8813684
-5.3058968 -46.94733 -135.14932 9603713
-4.2981744 -47.14867 -135.02412 9142648
-3.2946372 -47.187511 -134.95853 10392712
-2.3254418 -47.163589 -134.91765 9603710
-1.357093 -47.141785 -134.87601 10261639
-0.38954842 -47.122189 -134.83363 8616563
0.57727373 -47.104767 -134.79051 9801092
1.5434932 -47.089493 -134.74663 9012089
2.5091662 -47.076385 -134.702 7960175
3.4744148 -47.065426 -134.65659 8617848
4.6000252 -47.055462 -134.6026 9538692
5.7252913 -47.048264 -134.54761 10064522
6.6896176 -47.044502 -134.49965 10262414
7.6538377 -47.04287 -134.45085 11512482
8.6180582 -47.043411 -134.40134 12762291
9.582387 -47.046066 -134.35101 8354165
10.546824 -47.050968 -134.2999 8485750
11.511548 -47.057941 -134.24803 11183001
12.47658 -47.067112 -134.19533 9406846
13.603025 -47.080597 -134.13283 8749175
14.73012 -47.096886 -134.06924 8091762
15.696844 -47.113235 -134.01382 9275008
16.664276 -47.13176 -133.95757 9931903
17.632509 -47.152473 -133.9005 9800316
18.601587 -47.17535 -133.84259 9340283
19.53022 -47.105 -133.82083 9340801
20.551437 -47.062778 -133.78403 9932680
21.524086 -47.092144 -133.72356 6905688
22.497921 -47.123707 -133.66226 6708309
23.473049 -47.157417 -133.60002 8024681
24.449566 -47.193409 -133.537 7630179
25.519205 -47.259026 -133.45833 9012090
26.64222 -47.258343 -133.40114 8814714
27.684544 -47.089615 -133.17099 9209215
28.595293 -47.016197 -132.7683 9143420
29.411156 -46.843094 -132.45085 8157555
-10.492513 -46.539837 -135.89757 9209468
-9.3433504 -46.483753 -135.82539 9472382
-8.1959915 -46.426559 -135.74083 9537148
-7.2146287 -46.379539 -135.66608 8484720
-6.2353988 -46.334396 -135.58975 8879477
-5.2574759 -46.291077 -135.51183 9275004
-4.2136664 -46.369869 -135.35272 9077369
-3.3045826 -46.36948 -135.27539 11313813
-2.3328652 -46.340801 -135.21936 10590347
-1.3624183 -46.31916 -135.17694 10392968
-0.39270031 -46.299816 -135.13429 8616307
0.57631004 -46.282642 -135.091 9274749
1.5447038 -46.26757 -135.04691 9801607
2.5125184 -46.254627 -135.00206 10393743
3.4787884 -46.408161 -134.8965 9407106
4.606451 -46.398277 -134.84241 9670278
5.7337055 -46.391209 -134.78734 10196364
6.699769 -46.387413 -134.7392 10196365
7.6657224 -46.385818 -134.69035 11315359
8.6316633 -46.386322 -134.64076 11709603
9.5976925 -46.388962 -134.59036 9669766
10.563877 -46.393726 -134.53928 9669766
11.369236 -46.399246 -134.49603 8617077
27.946491 -46.305321 -133.37341 9406592
28.712978 -46.07597 -133.13246 8946039
29.591265 -45.972111 -132.7729 8485747
30.412781 -45.8106 -132.47821 9144192
31.144753 -45.553566 -132.28319 9407363
29.739347 -45.214119 -133.14709 10656657
30.655016 -45.066349 -132.84975 10656658
31.519766 -44.91 -132.6411 9407363
32.456917 -44.714203 -132.53278 9736071
33.489994 -44.626854 -132.29903 8947064
34.106495 -44.605328 -132.07832 8618099
32.840984 -44.452339 -133.07674 10262155
33.615456 -44.424641 -132.80096 8223597
34.659416 -44.347168 -132.58949 8617845
35.664677 -44.106712 -132.58488 9670020
36.55127 -43.879864 -132.53145 9735299
37.497887 -43.967545 -132.10661 6708309
38.218147 -43.886208 -131.84212 6643287
36.780502 -43.167778 -132.71893 8485232
37.579586 -43.137711 -132.4014 7563875
38.500149 -43.104992 -132.03496 7236710
39.237865 -42.859718 -131.82774 8486261
37.769093 -42.247944 -132.67387 9933191
38.600189 -42.1087 -132.38622 10130570
39.521648 -42.078594 -132.01831 10525070
40.401371 -41.853168 -131.74458 10985362
38.841068 -41.460499 -132.62813 9209726
39.693981 -41.212578 -132.43683 12630702
40.598686 -41.033504 -132.1702 12038565
41.4739 -40.974514 -131.80757 10261382
42.326813 -40.731209 -131.61256 8156266
41.024078 -40.480236 -132.4328 11709858
41.634117 -40.457249 -132.16443 9275259
42.563042 -40.23785 -132.08235 7563874
43.530342 -39.983566 -131.93021 7563618
44.492912 -39.698006 -131.8457 10195082
45.404015 -39.584579 -131.53113 10787989
44.807781 -39.284058 -132.26083 12432812
45.405231 -39.253296 -131.94614 10590608
46.469032 -39.21928 -131.45541 8880251
47.597267 -39.002293 -131.63867 7959144
48.001911 -38.948002 -131.28725 9406590
52.884731 -38.811493 -131.80832 7761509
53.421383 -38.743462 -131.32721 7761509
54.462727 -38.625607 -131.18324 6379600
55.368996 -38.524734 -131.15355 6774618
55.766647 -38.474083 -130.78514 6510930
56.795166 -38.372311 -131.45567 9011576
57.323124 -38.304867 -130.95604 11512479
58.760506 -38.150963 -131.24347 9735812
59.284248 -38.083813 -130.73471 9735812
60.602409 -37.945164 -131.13666 12235692
61.122173 -37.878304 -130.61896 10261132
62.582069 -37.721413 -130.87881 10261132
63.097328 -37.654819 -130.35201 12236199
64.440285 -37.51305 -130.73079 12236199
64.951492 -37.446785 -130.19508 10260873
66.433861 -37.286926 -130.42697 7893358
67.930458 -37.125286 -130.65239 7038307
68.308647 -37.075996 -130.23758 7038307
69.691063 -36.929348 -130.59009 7038307
70.191559 -36.863804 -130.02824 5920074
71.58699 -36.71553 -130.36977 6511954
72.08297 -36.650333 -129.79915 7367263
73.614502 -36.484108 -129.98473 8616563
75.416786 -36.28994 -129.89082 8880766
77.440025 -36.119072 -129.77979 7827814
79.47654 -35.946056 -129.64696 8944499
81.526352 -35.770973 -129.49243 9208696
83.474533 -35.610733 -129.47653 9209726
85.324654 -35.465546 -129.60754 10260867
85.66642 -35.41431 -129.117 8089963
87.643883 -35.249828 -129.06206 9932163
89.526657 -35.100327 -129.15923 7761769
89.970284 -35.031998 -128.48309 7762277
91.648239 -34.914448 -128.90114 10263180
93.63636 -34.728989 -128.74101 8090737
95.617867 -34.533806 -128.53484 10458249
97.513992 -34.355679 -128.49799 9471356
99.427094 -34.17527 -128.44797 9275004
101.45391 -33.973186 -128.19135 10918798
103.30564 -33.807411 -128.30766 9537918
-85.10627 -53.741222 -141.112 8156530
-84.068512 -53.619484 -141.30528 7038302
-83.239388 -53.5224 -141.45528 6511954
-81.067978 -53.329369 -140.47206 11904668
-80.250168 -53.233948 -140.61188 7565161
-79.229149 -53.115063 -140.78175 7564647
-78.210968 -52.997383 -140.94716 9866371
-77.202293 -52.885555 -141.12158 7827049
-75.138451 -52.714424 -140.15176 9340287
-74.145355 -52.60611 -140.31731 11183004
-73.153618 -52.498245 -140.47655 10590868
-72.163094 -52.390671 -140.63034 7564651
-71.371735 -52.304928 -140.74905 7564651
-69.783081 -52.185398 -139.70685 8287850
-69.196655 -52.121986 -139.79059 9537918
-68.220566 -52.016743 -139.92558 10195591
-67.245735 -51.911777 -140.05533 10590606
-66.272461 -51.80722 -140.17899 8880502
-65.300522 -51.703053 -140.29741 8090987
-64.718124 -51.64072 -140.36584 8090987
-63.2146 -51.530144 -139.31561 9143163
-62.255764 -51.427834 -139.42073 7565675
-61.107147 -51.305553 -139.53979 8223348
-60.151627 -51.20409 -139.63322 7565675
-59.197773 -51.102989 -139.72087 9736326
-58.24543 -51.002266 -139.80347 8748661
-57.484802 -50.922005 -139.86569 8090474
-55.319454 -50.741867 -138.86253 9339769
-54.56905 -50.663048 -138.91527 8089963
-54.007004 -50.604057 -138.95227 9142392
-53.25848 -50.525642 -138.99893 9143673
-52.324482 -50.427986 -139.05232 9210491
-51.205822 -50.311333 -139.10989 8814965
-50.089684 -50.195168 -139.16003 8879477
-49.161514 -50.098835 -139.1964 8089963
-48.235176 -50.002892 -139.22743 8747893
-47.112167 -49.873978 -139.21822 12433069
-46.275726 -49.693729 -138.9438 10458761
-45.823547 -49.566013 -138.69911 10458761
-45.267704 -49.503376 -138.69112 9800830
-44.357307 -49.414383 -138.71625 10327176
-43.263763 -49.30447 -138.72969 8486262
-42.169178 -49.190834 -138.7243 8025454
-41.256519 -49.093544 -138.70607 9668991
-40.343613 -48.993675 -138.67412 9866371
-39.248047 -48.87077 -138.61945 9011833
-38.152699 -48.744469 -138.54654 8814713
-37.240322 -48.63678 -138.47244 7038307
-36.328537 -48.526676 -138.38509 8157039
-35.235401 -48.391685 -138.26439 9274490
-34.143673 -48.253578 -138.12616 9931910
-33.235123 -48.136166 -137.99808 8089963
-32.328102 -48.016582 -137.85727 7893355
-31.2416 -47.870384 -137.6731 8354163
-30.174911 -47.748226 -137.54968 8747893
-29.261955 -47.7966 -137.31966 8353902
-28.375389 -47.784168 -137.18721 11905951
-27.319958 -47.758629 -137.04604 10720907
-26.288691 -47.673222 -137.00078 10654601
-25.431438 -47.603348 -136.96135 9602429
-28.091759 -47.569389 -137.46783 14076861
-27.400543 -47.511612 -137.43831 9734524
-26.366083 -47.426338 -137.39226 10325892
-25.230648 -47.397774 -137.24214 8616047
-24.270975 -47.384682 -137.09822 8089962
-23.247318 -47.304924 -137.04556 9142649
-22.226475 -47.226608 -136.98947 9997699
-21.20676 -47.146568 -136.92078 9866113
-20.222092 -46.950047 -137.058 9208185
-19.256136 -46.846642 -137.03711 9208439
-18.369637 -46.879105 -136.79955 7958630
-17.323795 -46.852913 -136.62564 7761506
-16.332382 -46.726818 -136.66048 8287592
-15.342165 -46.601238 -136.68947 9208435
19.604927 -46.541187 -134.02306 9012093
20.577715 -46.568096 -133.9635 8353649
21.551683 -46.597111 -133.90306 6510930
22.526838 -46.628387 -133.84178 7300702
23.503342 -46.661827 -133.77962 8485488
24.481199 -46.697437 -133.71666 8288109
25.460501 -46.735233 -133.65273 7037532
26.441427 -46.77523 -133.58794 7368039
27.096249 -46.80312 -133.54428 9143422
-18.083483 -46.552692 -137.31602 7300958
-17.240974 -46.495613 -137.25949 7958884
-16.232361 -46.428738 -137.18976 9208435
-15.129564 -46.413551 -136.9975 9405814
-14.196529 -46.406986 -136.80432 9668731
-13.19536 -46.33947 -136.71123 8813939
-12.195892 -46.270191 -136.6055 8485745
-11.198239 -46.199814 -136.48921 8748917
-10.203485 -46.131706 -136.37244 8683124
-9.2132082 -46.073235 -136.27658 9341054
-8.2254925 -46.018341 -136.18411 9998214
-7.239872 -45.965076 -136.08945 9340027
-6.2560663 -45.913025 -135.99118 9603455
-5.2750249 -45.866783 -135.90308 9538176
-4.2963843 -45.82822 -135.83075 10722451
-3.3192549 -45.791279 -135.75616 7892840
-2.3433251 -45.754078 -135.67384 10721676
-1.368878 -45.718418 -135.58891 10721678
-0.47648966 -45.757095 -135.4422 8353135
0.57584894 -45.792774 -135.28181 8748149
1.5453814 -45.774334 -135.22716 9012349
2.5145049 -45.761501 -135.18216 9143935
3.6434112 -45.913628 -135.06877 9341313
4.7725196 -45.904083 -135.01448 9604485
5.7400274 -45.898254 -134.96706 10196364
6.707377 -45.894524 -134.91891 9340288
7.674613 -45.892941 -134.87001 10591124
8.6418543 -45.893429 -134.82039 10854551
9.6091824 -45.896046 -134.76996 9669766
10.576647 -45.900764 -134.71875 8814715
11.588423 -45.978405 -134.63866 8682612
12.507357 -46.080891 -134.5542 9341053
13.475365 -46.091969 -134.50064 10656145
14.605449 -46.107643 -134.43713 9340801
15.736258 -46.126072 -134.37262 9340799
16.743065 -46.083096 -134.35048 10195074
17.688875 -46.010979 -134.35211 10391941
18.66177 -46.03458 -134.2979 9669508
19.645044 -45.89793 -134.30994 8223091
20.619511 -45.923405 -134.24725 7169889
21.59548 -45.951859 -134.18619 6510930
22.572807 -45.982872 -134.12535 7037530
23.551361 -46.015827 -134.06316 8880502
24.531231 -46.050819 -133.99965 8288109
25.511745 -46.086456 -133.93086 7235421
26.493271 -46.123363 -133.8586 7433316
27.422497 -46.092651 -133.72606 9406337
28.255325 -45.757278 -133.52946 9932934
-5.9599953 -45.552681 -136.59822 8682867
-5.3017612 -45.51173 -136.50722 8682867
-4.3163071 -45.451427 -136.36844 11051415
-3.333354 -45.392529 -136.22665 7563619
-2.3526788 -45.335018 -136.08206 7563619
-1.3753625 -45.293568 -135.97849 11708572
-0.33354962 -45.374725 -135.79283 8747892
0.57526863 -45.239552 -135.83835 8155756
1.5483121 -45.203117 -135.72862 8025969
2.5857277 -45.145298 -135.65807 8092018
3.696847 -45.169201 -135.50079 9735813
4.7847705 -45.121414 -135.43251 9275777
5.7540817 -45.105759 -135.35509 9538180
6.7244792 -45.104366 -135.31372 8419445
7.6956072 -45.109222 -135.28413 9340545
8.6669846 -45.11586 -135.25299 9078142
9.6385632 -45.123966 -135.21922 7959408
10.609879 -45.131207 -135.17567 8419957
11.58156 -45.140503 -135.13135 8814198
12.554131 -45.153564 -135.09125 8880247
13.52729 -45.168556 -135.0499 10721938
14.56283 -45.213707 -134.97455 10195596
15.682608 -45.176067 -134.95703 10655885
16.734901 -45.183842 -134.90048 10655625
17.759142 -45.088642 -134.90924 9405816
18.734406 -45.107628 -134.84238 9143679
19.71044 -45.128563 -134.77444 8288884
20.68737 -45.151508 -134.70535 6840152
21.665236 -45.176449 -134.63519 6642516
22.64415 -45.203445 -134.56386 7366751
23.624195 -45.23241 -134.49139 7827302
24.605408 -45.263447 -134.4178 8419695
25.5879 -45.296467 -134.34305 7893607
26.587824 -45.17345 -134.35051 7038299
27.556002 -45.181301 -134.18678 10261643
28.539036 -45.149147 -133.77383 9538176
29.517948 -44.773037 -133.79984 9603969
30.524227 -44.619293 -133.66878 16249831
31.131365 -44.516411 -133.67708 14210248
31.657196 -44.396824 -133.76848 10920343
32.609512 -44.134918 -133.81471 10854036
33.550922 -43.972584 -133.63 8749428
34.538063 -43.876431 -133.32822 7763046
35.386787 -43.637722 -133.10725 8157293
33.787312 -43.182781 -133.94632 8223597
34.529037 -42.92868 -133.74094 8552049
35.514614 -42.920101 -133.33821 8946296
36.396938 -42.685802 -133.06694 9274490
34.743744 -42.255695 -133.91756 10064262
35.594978 -41.997253 -133.7215 9275004
36.590981 -41.953842 -133.3286 9801090
37.424179 -41.739258 -133.07565 9012346
36.756092 -41.252808 -133.76622 8288624
37.55545 -41.067711 -133.54985 8946295
38.468834 -41.00016 -133.23805 9867398
39.419346 -40.772476 -133.00955 10460307
40.282795 -40.532986 -132.84285 15723486
39.621353 -40.30154 -133.53139 10131085
40.64904 -40.061188 -133.31754 14210248
41.549473 -39.945644 -133.01097 13486268
42.461937 -39.744816 -132.80542 9275003
43.324753 -39.602131 -132.55179 8287341
43.977619 -39.393433 -132.94148 9537408
44.39333 -39.338696 -132.60155 10853012
49.848793 -39.16708 -132.88878 6511954
50.531944 -39.080849 -132.30183 8551026
51.801804 -38.948662 -132.76711 6511954
52.344521 -38.87999 -132.28818 6906200
53.762096 -38.729103 -132.62146 7761509
54.434757 -38.643623 -132.01094 7103579
55.729675 -38.508308 -132.4519 9537667
55.997147 -38.474133 -132.20319 7038307
56.396923 -38.423172 -131.82968 8024941
57.704025 -38.286224 -132.25827 14868434
58.233791 -38.218468 -131.75131 11709858
59.685169 -38.063023 -132.04057 13683904
60.210655 -37.995525 -131.52441 11709858
61.542717 -37.855419 -131.93001 10392974
62.064224 -37.788246 -131.40489 10261132
63.538406 -37.62978 -131.6664 9868169
65.026756 -37.469643 -131.92146 9868169
65.541115 -37.402893 -131.37869 10855061
66.912872 -37.257858 -131.75648 7038307
67.42292 -37.191505 -131.2047 7038307
68.807724 -37.044834 -131.57161 12432037
69.187462 -36.995193 -131.15123 7038307
70.71122 -36.830441 -131.36694 7367272
71.212982 -36.764572 -130.79738 6511954
72.623726 -36.614677 -131.14224 7959400
73.121056 -36.549171 -130.56386 9209467
74.568359 -36.408966 -130.93852 10787988
76.600586 -36.238289 -130.84679 7169884
78.64637 -36.06546 -130.73331 6116684
80.705711 -35.890453 -130.59805 8352875
82.662056 -35.730476 -130.60129 8288883
83.011787 -35.679043 -130.11948 8288883
84.75013 -35.551216 -130.42465 9142643
85.095566 -35.499672 -129.93443 10260867
86.851952 -35.369751 -130.22562 8090475
87.19294 -35.318256 -129.72707 9932163
88.742111 -35.220478 -130.34178 7761771
89.079933 -35.168835 -129.83511 7038307
90.763298 -35.051903 -130.27486 9209217
91.096931 -35.000191 -129.7598 9736070
92.911575 -34.863846 -130.01616 7564651
93.224899 -34.806377 -129.47137 8617080
94.804199 -34.688869 -130.01714 9735046
95.111107 -34.630596 -129.46106 9735043
96.812622 -34.491375 -129.81377 10064004
97.114822 -34.433041 -129.24966 11905692
98.835472 -34.291538 -129.59172 7564651
99.033691 -34.252682 -129.2104 7564651
100.77468 -34.108936 -129.54463 9340289
101.06719 -34.050598 -128.9644 10524554
102.82782 -33.904369 -129.28792 9537918
103.11531 -33.846069 -128.69962 9537918
-86.086067 -53.79377 -142.33328 10261388
-85.456345 -53.719898 -142.45013 9340545
-84.827354 -53.646225 -142.5643 11182231
-82.204491 -53.401478 -141.6369 8945783
-81.170967 -53.280907 -141.81284 7827813
-80.139153 -53.160892 -141.98227 8617328
-79.108833 -53.041237 -142.14597 9735039
-78.494141 -52.971416 -142.24606 10458505
-76.197441 -52.775768 -141.29395 7169891
-75.394371 -52.68819 -141.42799 6511962
-74.993202 -52.644554 -141.4935 6511962
-74.191582 -52.557369 -141.62123 7564651
-72.990707 -52.427036 -141.80627 7564651
-70.778763 -52.240772 -140.83566 7038298
-70.186272 -52.176807 -140.92007 8551023
-69.200058 -52.070427 -141.05614 8222316
-68.018433 -51.943287 -141.21204 12563880
-67.035324 -51.837727 -141.33591 10590606
-66.249962 -51.753574 -141.43071 8090987
-64.136292 -51.578548 -140.43198 8090987
-63.167751 -51.47522 -140.53783 7893867
-62.200729 -51.372238 -140.63849 7565675
-61.235352 -51.269718 -140.73329 8223348
-60.078941 -51.147133 -140.84009 9736326
-59.117054 -51.045422 -140.92325 12959663
-58.540722 -50.984528 -140.9706 7761253
-56.91486 -50.861912 -139.91014 8485232
-56.156204 -50.782097 -139.96597 7695204
-55.20908 -50.682644 -140.03159 8550514
-54.263847 -50.583546 -140.09167 8418927
-53.131691 -50.465183 -140.15703 10788497
-52.190193 -50.36697 -140.20598 9210491
-51.250523 -50.269146 -140.24933 9669760
-50.125263 -50.15226 -140.29483 8879477
-49.189438 -50.055298 -140.32735 8353135
-48.628925 -49.997334 -140.34435 8681843
-47.125851 -49.888248 -139.25848 12433069
-24.217602 -47.334072 -138.68393 9866109
-23.139156 -47.168228 -138.37518 9800320
-22.241035 -47.022446 -138.08943 10458253
-21.346674 -46.874958 -137.79247 10129286
-15.338251 -46.310833 -138.08333 9471607
-14.284679 -46.114944 -137.61255 11575959
-13.260637 -45.991856 -137.35146 9537404
-12.258722 -45.932041 -137.27197 9011577
-11.259282 -45.87389 -137.19026 8222573
-10.261946 -45.817509 -137.10645 8090987
-9.2802906 -45.729469 -137.20209 8683124
-8.2725487 -45.701046 -136.90611 9340797
-7.2798948 -45.636539 -136.77608 9340284
-6.4540524 -45.583813 -136.66557 11905692
-8.9754038 -45.558685 -137.55803 9341054
-8.2998247 -45.465324 -137.32208 9603455
-7.3056784 -45.411556 -137.22339 9603455
-6.3140936 -45.361942 -137.12996 11576217
-5.3240604 -45.311539 -137.02696 9275004
-4.2762685 -45.165066 -137.08073 12564655
-3.3552561 -45.084644 -136.98235 8419184
-2.3696895 -45.034134 -136.85709 7958633
-1.3858343 -44.979897 -136.71333 9537407
-0.31137288 -44.875668 -136.65378 8418927
0.5747565 -44.720352 -136.79231 9801093
1.7163895 -44.711502 -136.48009 11183003
2.8553543 -44.652836 -136.291 9933450
3.8287687 -44.604118 -136.12576 8747891
4.8007245 -44.559235 -135.96529 8091248
9.0212822 -44.544346 -135.73798 8091760
9.6710978 -44.548225 -135.71001 9012093
10.645805 -44.555126 -135.6657 10591121
11.620876 -44.563255 -135.61818 9604226
12.596009 -44.572712 -135.56743 7827047
13.571412 -44.583366 -135.5136 10261644
14.546978 -44.595345 -135.45654 10458768
15.68574 -44.610909 -135.38588 11708315
16.824688 -44.628174 -135.31108 11839899
17.80155 -44.644371 -135.24342 10524039
18.778641 -44.661839 -135.1725 9603454
19.756262 -44.680592 -135.09845 8748921
20.734247 -44.700615 -135.0211 7563874
21.814682 -44.672783 -135.06056 7563874
22.733805 -44.642559 -135.11053 7958632
23.715342 -44.666443 -135.02348 8090474
24.697531 -44.691635 -134.93323 8024937
25.680944 -44.719296 -134.84326 7169885
26.713137 -44.643856 -134.99649 7169884
27.688154 -44.655006 -134.84241 9472128
28.63138 -44.617535 -134.53439 10327692
1.0661949 -44.544453 -137.10806 10459537
1.8841189 -44.501701 -136.97385 10920087
2.8637505 -44.451641 -136.81026 9669508
3.8411608 -44.402946 -136.64377 8089963
4.8164201 -44.355537 -136.47444 8089963
5.8301268 -44.350632 -136.28705 9669509
6.7663064 -44.30278 -136.24596 8682616
7.7402291 -44.283718 -136.14262 9406337
8.6769466 -44.243084 -136.1102 8091760
9.7000532 -44.136505 -136.14717 9144190
10.677957 -44.142864 -136.10115 9208956
11.709143 -44.097359 -136.12944 9077370
12.647793 -44.024433 -136.15474 7827047
13.630356 -44.044598 -136.13036 11117209
14.613874 -44.06691 -136.10556 11314588
15.597107 -44.087429 -136.06818 11116692
16.572622 -44.270973 -135.95483 13484724
17.64806 -44.316849 -135.88806 10721162
18.668297 -44.34861 -135.8255 10918029
19.82863 -44.476654 -135.6059 10064006
20.810423 -44.49667 -135.52853 8287853
21.628998 -44.514328 -135.4617 7563874
26.977425 -44.443214 -135.49037 8617331
27.792042 -44.45084 -135.35587 9142907
28.739117 -44.414001 -135.048 10919829
29.789879 -44.201508 -135.00204 9867141
30.697254 -44.073517 -134.737 11380893
31.667542 -43.893219 -134.53853 9209467
32.3965 -43.801472 -134.27452 9077625
30.896685 -43.212624 -135.12564 9209467
31.736565 -43.059021 -134.84029 9077881
32.669388 -43.0135 -134.47386 8221805
33.506653 -42.863686 -134.18791 8617843
31.95521 -42.393627 -135.0526 8813942
32.812111 -42.13298 -134.86996 8221805
33.7122 -42.000374 -134.5649 9471871
34.610741 -41.869202 -134.25739 10393226
35.465584 -41.612652 -134.06821 8288624
33.976856 -41.387688 -134.94478 10722194
34.846901 -41.237854 -134.72504 9998214
35.789719 -41.062321 -134.4879 8288624
36.662388 -40.903572 -134.23616 9406847
37.692776 -40.663464 -134.04433 10985107
36.852337 -40.429733 -134.75899 11642780
37.750191 -40.2766 -134.50089 12827053
38.662727 -40.187279 -134.15543 7893865
39.711033 -40.022816 -133.83606 10393742
40.463039 -39.763805 -134.02434 13025718
46.652447 -39.541233 -134.01685 12432812
47.071136 -39.48864 -133.67413 7037274
47.487919 -39.436344 -133.33072 8090995
48.74567 -39.306049 -133.82401 8090995
49.298748 -39.236408 -133.35692 9406590
50.70673 -39.087139 -133.72128 8156267
51.392586 -39.000465 -133.12544 9011320
52.812004 -38.849625 -133.47316 8749947
53.356144 -38.780613 -132.98689 7761509
54.651623 -38.645481 -133.44388 9406078
55.326828 -38.559574 -132.82436 9537667
56.769371 -38.405651 -133.14301 9142910
57.304783 -38.337284 -132.6378 10853012
58.625557 -38.198853 -133.07016 10393486
59.157154 -38.130756 -132.55594 9735812
60.622837 -37.973789 -132.847 14210509
62.102654 -37.815155 -133.13184 9208443
62.627415 -37.747437 -132.59967 8617077
63.988194 -37.604115 -133.00467 7565675
64.508774 -37.536758 -132.46346 8289397
65.882675 -37.391842 -132.85779 9143936
66.399124 -37.32468 -132.3075 10262670
67.91449 -37.161388 -132.55119 8419702
68.426071 -37.094635 -131.9917 8814201
69.698509 -36.963062 -132.50426 8222065
70.206726 -36.89658 -131.93591 7038307
71.620049 -36.746635 -132.29755 9209474
72.123749 -36.680489 -131.72023 7367263
73.585213 -36.545944 -132.13281 7563618
74.078888 -36.477287 -131.53609 8616563
75.627533 -36.375511 -132.06342 6840151
76.116165 -36.306717 -131.45552 6511954
77.805069 -36.185627 -131.81766 8090729
78.167198 -36.133999 -131.35316 6511954
79.873917 -36.010818 -131.7019 7760741
80.231934 -35.959133 -131.22906 7760741
81.838326 -35.851078 -131.72452 7564651
82.192696 -35.799278 -131.2433 7893871
83.936424 -35.671925 -131.56743 9142643
84.286453 -35.620075 -131.07776 11379348
85.932686 -35.507839 -131.55394 8616299
86.279274 -35.455883 -131.05598 9142643
86.509041 -35.421352 -130.72392 9142643
87.946091 -35.341618 -131.5235 8287592
88.288544 -35.289608 -131.0172 10261123
90.314743 -35.121113 -130.96138 9209217
92.469337 -34.933041 -130.71393 9274495
94.391045 -34.767082 -130.75912 9735046
96.406342 -34.569492 -130.56644 9208953
98.43557 -34.369686 -130.35526 9603460
100.38065 -34.187031 -130.31903 8156530
102.34367 -34.001999 -130.2695 9077368
104.42076 -33.794922 -130.00723 10261132
-86.870865 -53.822319 -143.61459 8419440
-86.234383 -53.747784 -143.73067 8814454
-83.98941 -53.548218 -142.7133 8090475
-83.152496 -53.450516 -142.85826 6511954
-82.10788 -53.328808 -143.03378 9143416
-81.064774 -53.207478 -143.20346 10261894
-80.439758 -53.134941 -143.30235 10261894
-77.884361 -52.904808 -142.35176 11905692
-77.072205 -52.81617 -142.48941 8090479
-76.260841 -52.727737 -142.62325 7564392
-75.652908 -52.661617 -142.72124 6511962
-75.045525 -52.595596 -142.81686 7564651
-74.236443 -52.507851 -142.94116 8419959
-71.991447 -52.318867 -141.9541 11381404
-70.993729 -52.211098 -142.09583 7959408
-69.997391 -52.103668 -142.23215 8814457
-69.002625 -51.99667 -142.36221 7894126
-68.009277 -51.890057 -142.48689 10062979
-65.661568 -51.690643 -141.49956 9340539
-65.269562 -51.648689 -141.54437 9340539
-64.877914 -51.606934 -141.58813 8090987
-64.095329 -51.523449 -141.67279 8090987
-63.118443 -51.419418 -141.77412 7565675
-62.143269 -51.315884 -141.86963 9736326
-60.975113 -51.192097 -141.9771 9143418
-60.197639 -51.109898 -142.04469 7169373
-57.965023 -50.923882 -141.01581 7761253
-57.006947 -50.823078 -141.08681 8485232
-56.050438 -50.722603 -141.1528 9734788
-55.477314 -50.662506 -141.18993 9734788
-54.904984 -50.6026 -141.22482 8616307
-54.142769 -50.522911 -141.26863 9274236
-53.191715 -50.423641 -141.31854 10129545
-52.052738 -50.305088 -141.37161 8946039
-51.105541 -50.206669 -141.41042 9340027
-50.349213 -50.128262 -141.43762 10590091
-48.069038 -49.939465 -140.35944 10655630
-47.142742 -49.848953 -140.39597 13419191
-46.037689 -49.745342 -140.44637 12498605
-45.116997 -49.657764 -140.4785 9800830
-44.192936 -49.564945 -140.48936 9209211
-43.078175 -49.444733 -140.46947 7960175
-42.151348 -49.344788 -140.44705 8288624
-41.226704 -49.245049 -140.41873 8090987
-40.119728 -49.125607 -140.37778 9472124
-39.015839 -49.006496 -140.32901 8879992
-38.09816 -48.907463 -140.28265 7038307
-37.182785 -48.808632 -140.23059 11511450
-36.0872 -48.690372 -140.16129 9406848
-35.358532 -48.611652 -140.11115 8814969
-34.813007 -48.552788 -140.07109 8418928
-34.086979 -48.474361 -140.01483 8813686
-33.181499 -48.376545 -139.93965 9273980
-32.097931 -48.259472 -139.84294 8748921
-31.017776 -48.142792 -139.7388 8683385
-30.120211 -48.045792 -139.64655 9077112
-29.225193 -47.949028 -139.54903 8221544
-28.15432 -47.833233 -139.42557 7826531
-27.086992 -47.717861 -139.29491 9142130
-26.375202 -47.637394 -139.19347 8681835
-26.014343 -47.587315 -139.11212 9405046
-25.294361 -47.486492 -138.94481 9405302
-20.946096 -47.056679 -139.56767 8681835
-20.245256 -46.980839 -139.44594 8550514
-19.196995 -46.867317 -139.25804 8813686
-18.151518 -46.751144 -139.05444 8550514
-17.271763 -46.6245 -138.78993 8813686
-16.743008 -46.541321 -138.60701 8813686
-16.215908 -46.457787 -138.42097 8484970
-12.079208 -46.095936 -138.93022 8681835
-11.041982 -45.934326 -138.53346 8682352
-10.179326 -45.786793 -138.15811 8090987
-9.6639376 -45.697964 -137.92941 9341054
-6.044302 -45.385151 -138.35667 11446432
-5.1977386 -45.23082 -137.92586 9538950
-4.6924014 -45.137913 -137.66402 10459278
-1.7376534 -44.913967 -138.21808 9340027
-1.0726854 -44.7859 -137.83527 8747891
-0.24616539 -44.623878 -137.34654 7563619
2.2248068 -44.471134 -138.02971 10459537
2.8772149 -44.339104 -137.61211 9538178
3.853642 -44.1992 -137.16115 8418927
4.8326712 -44.153599 -136.99588 8089963
5.8298626 -44.023808 -137.33296 7564386
6.8106475 -43.87664 -137.22118 6840925
7.7903981 -43.850193 -137.0938 9932937
8.7818375 -43.709732 -137.18407 7302245
9.7598076 -43.681423 -137.03627 9538435
10.737677 -43.661106 -136.90677 8682612
11.489139 -43.674706 -136.69963 10261644
16.599964 -43.791481 -136.19112 11181969
17.589609 -43.8241 -136.17761 10195330
18.694469 -43.80957 -136.18867 11378324
19.638071 -43.931507 -136.13544 10063747
20.733761 -43.941296 -136.12988 9538432
21.784132 -43.981758 -136.10243 8222060
22.778915 -44.018185 -136.06287 9208955
23.775255 -44.056389 -136.0217 7629411
24.773188 -44.096474 -135.97894 8090734
25.714418 -44.131355 -135.92282 7433057
26.586916 -43.933102 -136.08406 7761765
27.663265 -43.952709 -136.06044 8353391
28.762421 -43.852959 -135.74911 9801093
29.656309 -43.833572 -135.39093 9735555
11.110043 -43.290371 -137.46957 6643284
11.818558 -43.383404 -137.23932 8945528
12.730055 -43.394726 -137.08275 9340286
13.708801 -43.380302 -136.95013 12038311
14.684246 -43.35989 -136.79143 9340802
15.662623 -43.352222 -136.66568 9143422
16.642838 -43.352306 -136.5574 9208696
17.6507 -43.23843 -136.66907 9669244
18.59816 -43.165504 -136.65675 10129281
19.637274 -43.114304 -136.61023 9735040
20.629425 -43.140434 -136.55626 9538432
21.62339 -43.169792 -136.50523 8946039
22.619308 -43.202213 -136.45671 9866885
23.618799 -43.240673 -136.41982 8419183
24.620239 -43.281414 -136.38278 7630186
25.624525 -43.32576 -136.34991 9143681
26.644913 -43.209122 -136.39076 8419186
27.742039 -43.174461 -136.37346 10261643
28.676872 -42.988647 -136.14656 9471872
29.708506 -43.040966 -135.69937 9208955
30.611275 -42.894669 -135.36894 9209467
29.861528 -42.315819 -136.08763 8682867
30.697376 -42.140961 -135.85214 9274748
31.605652 -41.938354 -135.6064 9406334
32.525887 -41.763878 -135.30681 10064265
32.00547 -41.373505 -136.00539 10064006
32.686676 -41.273674 -135.77896 9669507
33.620609 -41.05114 -135.58601 10130058
34.576321 -40.78558 -135.45386 10327436
35.379505 -40.778049 -135.06052 9341055
35.722542 -40.4291 -135.38429 10129800
36.533894 -40.246059 -135.18361 9998470
37.245159 -40.135544 -134.93117 12432295
43.00351 -39.970116 -135.40343 10789009
43.715668 -39.881313 -134.84874 8749684
45.103477 -39.735191 -135.26723 14077894
45.669113 -39.664467 -134.81351 13748929
46.720905 -39.546528 -134.73039 14341065
47.770508 -39.428684 -134.63821 8683131
48.329021 -39.35844 -134.17343 8090995
49.738625 -39.20929 -134.55235 9406335
51.162106 -39.058517 -134.92567 7761509
51.714901 -38.988564 -134.4426 10261132
52.265232 -38.918907 -133.9585 9144448
53.698349 -38.76659 -134.30849 8881276
55.145588 -38.61264 -134.65271 8092019
55.689766 -38.543346 -134.15042 8287859
56.231319 -38.474312 -133.64726 8287859
57.687988 -38.318874 -133.96796 8617080
59.158905 -38.161705 -134.28262 9735046
59.693882 -38.093128 -133.76138 9341056
61.043175 -37.951523 -134.19362 9208443
61.574257 -37.883198 -133.66309 9208443
62.936802 -37.739998 -134.08478 7762277
63.463821 -37.67194 -133.54512 7301726
64.970741 -37.51009 -133.81903 8420210
65.492958 -37.442345 -133.27007 8617337
66.881752 -37.295845 -133.66821 9143936
67.399719 -37.228439 -133.11 8090995
68.801964 -37.080208 -133.49738 5920074
69.187584 -37.0299 -133.07195 8814201
70.858849 -36.846527 -133.16246 11775142
72.838539 -36.649391 -133.02637 8222580
74.76458 -36.496418 -133.12552 7037274
75.135986 -36.444489 -132.67065 7037274
76.829926 -36.323967 -133.05428 8090729
77.319298 -36.254669 -132.43631 11314071
78.909386 -36.149376 -132.96121 6973280
79.393463 -36.079922 -132.33182 7760741
81.003128 -35.972538 -132.84607 7629928
81.481651 -35.903019 -132.20538 7564651
82.992424 -35.81086 -132.8717 7564651
83.465935 -35.741291 -132.2198 7564651
85.116295 -35.629681 -132.71506 9735814
85.467537 -35.577316 -132.21756 9734523
87.254547 -35.44614 -132.53575 7367005
87.601234 -35.393772 -132.02971 6511954
89.635338 -35.225449 -131.99074 9143163
