# .PCD v0.7 - Point Cloud Data file format
VERSION 0.7
FIELDS x y z rgb
SIZE 4 4 4 4
TYPE F F F U
COUNT 1 1 1 1
WIDTH 1194
HEIGHT 1
VIEWPOINT 0 0 0 1 0 0 0
POINTS 1194
DATA ascii
104.32082 -32.204552 -101.3484 10261133
105.23198 -31.997616 -100.89658 8617080
106.0728 -31.84539 -100.25258 8748408
106.95485 -31.588356 -100.12115 9471616
107.47566 -31.565289 -99.410408 9011321
108.68588 -31.297703 -98.853889 9012606
115.88347 -30.939117 -96.377243 11971488
117.75256 -30.710155 -95.337479 8222579
119.62289 -30.479694 -94.271759 9538433
121.39172 -30.277657 -93.561836 7563619
123.21986 -30.058823 -92.639923 8222323
125.05385 -29.838192 -91.695114 9406078
126.80222 -29.645287 -91.120201 9143163
128.71945 -29.435997 -90.179008 8748661
130.67551 -29.231358 -89.234016 7104091
132.59848 -29.015366 -88.235847 7432032
134.31772 -28.797009 -87.532539 6973536
136.05801 -28.578217 -86.818398 10787988
137.81062 -28.356995 -86.086815 11380380
137.84015 -28.320854 -85.648293 10064777
139.58772 -28.11533 -85.116928 9209467
141.36258 -27.889156 -84.348793 10327947
143.14258 -27.678307 -83.787537 11379348
-29.082619 -47.686543 -163.27225 10130313
-28.048649 -47.591698 -163.12477 9670019
-27.018055 -47.497322 -162.97166 9406333
-25.13961 -47.35323 -161.24274 10262667
-24.531544 -47.297626 -161.14612 10262667
-23.520588 -47.205341 -160.98108 8222317
-22.512459 -47.113369 -160.81143 9077370
-21.708336 -47.040131 -160.67189 10591121
-19.921738 -46.904396 -158.95567 7563619
-18.933678 -46.814617 -158.77327 8484975
-17.948608 -46.725151 -158.58635 11906716
-17.162819 -46.653919 -158.43318 10261123
-16.57465 -46.600609 -158.31639 11313812
-14.47375 -46.388145 -156.36487 9933193
-13.700133 -46.304314 -156.15396 9407106
-12.544032 -46.179005 -155.83257 10525070
-11.584746 -46.075043 -155.55975 8683124
-10.629497 -45.9715 -155.28214 11446174
-9.6778898 -45.868355 -155.00021 9340542
-8.7304373 -45.765671 -154.71364 8024425
-6.03688 -45.469952 -152.47235 7958120
-5.482162 -45.40976 -152.29449 8814451
-4.5605922 -45.309841 -151.99466 11313814
-3.4596665 -45.190353 -151.62946 9143417
-2.5463822 -45.091316 -151.3206 8880246
-1.6371912 -44.992611 -151.00737 8683639
-0.73160875 -44.894344 -150.69023 9209727
0.16975084 -44.79649 -150.36884 9407104
1.2463843 -44.679569 -149.97792 7959656
1.961289 -44.601978 -149.7144 7038298
2.3176925 -44.56321 -149.58153 10261644
3.0282753 -44.48608 -149.31371 9209471
3.7369125 -44.409058 -149.04384 5920082
10.921571 -43.593433 -144.68059 9208697
42.95414 -43.643379 -129.98151 6510930
43.561829 -43.629566 -129.73703 9603458
44.472557 -43.610493 -129.37007 7564651
45.427071 -43.724525 -128.93237 6774870
46.271034 -43.743549 -128.57777 6445650
47.17881 -43.730511 -128.20966 6182733
48.085865 -43.719463 -127.84098 7960175
48.968178 -43.87302 -127.40816 9670280
49.989567 -43.837326 -127.00961 10655629
51.018284 -43.89555 -126.5653 9011319
51.987598 -43.859993 -126.18077 10262156
52.891895 -43.859722 -125.809 9867654
53.795494 -43.861092 -125.43535 8682613
54.697304 -43.863098 -125.05716 8748409
55.598152 -43.866467 -124.6762 7827819
56.498043 -43.871159 -124.29259 9998726
57.397072 -43.877224 -123.90626 11116693
58.295231 -43.884609 -123.51718 8420213
59.192581 -43.89336 -123.12537 7631721
60.089157 -43.903473 -122.73083 9539206
60.985004 -43.914925 -122.33348 11578017
61.880142 -43.927727 -121.93341 8617336
62.813042 -43.965164 -121.46288 9142908
63.764519 -43.957287 -121.07412 9735560
64.657455 -43.974205 -120.66487 10525071
65.74865 -43.908504 -120.50228 8156009
66.810829 -43.944359 -120.05128 7037274
67.631409 -44.057606 -119.66903 9143681
68.585289 -44.166222 -119.18719 8814715
69.437286 -44.164703 -118.6924 6446424
70.285583 -44.163151 -118.19139 7959661
71.130249 -44.161594 -117.68429 10920086
71.971275 -44.160038 -117.17103 9802629
72.808533 -44.158474 -116.65176 8552050
73.642021 -44.15691 -116.12646 11051669
74.471725 -44.155346 -115.59513 10985620
76.767677 -44.15258 -115.48779 8287342
77.592682 -44.15099 -114.93391 9274237
78.413635 -44.149403 -114.37407 8813686
79.230537 -44.147812 -113.80836 9274237
80.043365 -44.146217 -113.23679 9208187
80.717613 -44.14489 -112.75608 9471359
82.895607 -44.14225 -112.63949 9669249
83.833359 -44.140366 -111.94104 7958120
84.839951 -44.053741 -111.44317 8813428
85.601875 -43.872219 -111.0436 9406851
86.343323 -43.781601 -110.54152 8223348
87.14827 -43.707329 -109.93885 7565675
87.69178 -43.527569 -109.54553 7565675
11.762181 -43.500671 -144.31042 8814453
12.598546 -43.408413 -143.93661 9011576
13.597192 -43.298244 -143.48372 8485745
14.590058 -43.18877 -143.02591 8485745
15.413266 -43.097897 -142.64078 6972762
16.232201 -43.007561 -142.2522 8090991
16.884884 -42.935555 -141.93924 9209214
34.659866 -42.595028 -133.8063 9341052
35.432892 -42.562992 -133.50098 9472382
36.428047 -42.606529 -133.07452 9932162
37.250961 -42.824116 -132.6505 8419183
38.172859 -42.791302 -132.28416 7762796
39.07634 -42.926479 -131.85936 8420468
39.994957 -42.897606 -131.4929 11709341
40.937027 -42.993977 -131.06746 10524554
41.810032 -43.0116 -130.70148 10787470
42.724457 -42.988708 -130.3344 6971481
43.637756 -42.967838 -129.96698 9340288
44.550064 -42.948963 -129.59923 8353652
45.461395 -42.932068 -129.231 6445653
46.37191 -42.917183 -128.8624 6248783
47.281635 -42.904312 -128.4933 6972248
48.190666 -42.893406 -128.12369 9537406
49.21307 -42.853565 -127.71888 9472384
50.244644 -42.909138 -127.2727 10918541
51.216785 -42.871445 -126.88773 10129284
52.123741 -42.869129 -126.51558 10854805
53.030441 -42.868809 -126.14281 9933702
53.936924 -42.870522 -125.76929 8025194
54.843334 -42.874168 -125.39503 8748664
55.749725 -42.879799 -125.02004 8090987
56.656143 -42.88744 -124.6442 9275261
57.537632 -43.062435 -124.2128 10721935
58.444008 -43.074078 -123.83542 8815225
59.350658 -43.087765 -123.45714 7039841
60.191963 -43.13541 -123.09238 9736071
61.138512 -43.286678 -122.64353 10327695
62.046101 -43.306423 -122.26244 10393487
62.954353 -43.328205 -121.88033 9735302
63.560165 -43.343742 -121.62502 9340545
85.923561 -43.110626 -111.27811 7893872
86.56633 -42.87051 -110.82854 9341316
87.327988 -42.854496 -110.16703 8552313
88.066917 -42.798798 -109.54527 9867141
88.730476 -42.604549 -109.05327 9208436
21.560299 -42.419952 -140.88083 8420464
22.19735 -42.349663 -140.54659 8091499
22.990456 -42.262184 -140.12642 7367263
26.506361 -41.738941 -137.7359 9735812
27.414602 -41.866928 -137.49043 9735812
28.203102 -42.024769 -137.10927 9143163
29.146433 -41.966946 -136.72102 9603201
30.086264 -41.910061 -136.32942 9208955
30.950748 -41.895138 -135.93143 9406333
31.825066 -41.955616 -135.46555 9537921
32.728668 -42.05368 -134.95662 8353391
33.658012 -42.005554 -134.5701 9406335
34.586143 -41.960712 -134.18767 10787727
35.512108 -41.917805 -133.80492 9472382
36.435951 -41.876774 -133.4218 9866883
37.339325 -42.001339 -132.97128 9209468
38.239128 -42.126865 -132.51842 11116950
39.161167 -42.096478 -132.15112 9933191
40.081757 -42.068111 -131.78366 10985105
41.001007 -42.041702 -131.41599 10458761
41.918961 -42.017277 -131.04802 9274744
42.835743 -41.994823 -130.67978 6577493
43.751415 -41.974358 -130.31123 10524047
44.666088 -41.955807 -129.94231 8551031
45.579826 -41.939243 -129.57303 7367015
46.492691 -41.924633 -129.20331 5985868
47.404831 -41.911995 -128.83319 6774870
48.376972 -41.900677 -128.43779 10523528
49.419312 -42.079773 -127.93851 9340021
50.418766 -42.049259 -127.53947 9997695
51.262989 -42.0783 -127.18085 10918285
52.214363 -42.208092 -126.73849 9604738
53.122631 -42.207783 -126.36504 9209724
53.879417 -42.208935 -126.05329 8157036
86.971008 -42.185947 -110.80107 9867660
87.577042 -41.877716 -110.41512 9077884
88.315887 -41.821445 -109.78952 9143417
89.076019 -41.808903 -109.12388 7958371
89.830948 -41.54483 -108.5849 6445392
25.569597 -41.451359 -138.20427 10196365
26.567364 -41.461575 -138.05806 9735812
27.56974 -41.480106 -137.93245 9735812
28.53644 -41.447376 -137.62871 9603970
29.481379 -41.388138 -137.23012 10326924
30.110054 -41.349503 -136.96393 10853012
32.070309 -41.507393 -135.78519 10064265
32.83902 -41.452782 -135.41745 9208700
33.767544 -41.400715 -135.01454 10722450
34.696548 -41.353828 -134.62218 10458763
35.623383 -41.309013 -134.23013 7696744
36.547977 -41.26606 -133.83766 8946296
37.47036 -41.22485 -133.44467 9143674
38.359455 -41.336147 -132.94153 9933191
39.276989 -41.298485 -132.54791 10262155
40.19257 -41.262611 -132.15367 12104615
41.10659 -41.228889 -131.7599 10590347
42.021988 -41.199997 -131.37523 8814194
42.870621 -41.207298 -131.0025 7037274
43.827244 -41.311588 -130.54086 12365221
44.743492 -41.293308 -130.1712 9932168
45.658844 -41.276997 -129.80118 8288116
46.268532 -41.267078 -129.55426 7038307
87.962051 -41.152172 -110.42685 10656913
88.606384 -40.915138 -109.97251 8682867
89.309441 -40.791119 -109.41142 8682094
90.070724 -40.78072 -108.74375 7366494
90.773254 -40.65995 -108.18156 8089962
89.547226 -39.975437 -109.59701 9340540
90.247528 -39.859608 -109.03439 9931907
91.029282 -39.923595 -108.31255 8813428
91.747337 -39.832706 -107.72213 8552055
90.55159 -39.250877 -109.06108 10589836
91.142494 -39.075024 -108.62423 9537150
91.947678 -39.034149 -107.93254 8353650
92.695396 -38.950294 -107.31246 8420209
91.327583 -38.281418 -108.84577 11445144
91.997543 -38.091602 -108.34577 9668992
92.783264 -38.07798 -107.65806 7696228
93.52787 -37.943645 -107.06524 8551793
94.15329 -37.812618 -106.57613 8091242
92.390823 -37.366486 -108.35014 9142649
93.003967 -37.065033 -107.95447 10261897
93.748337 -37.019321 -107.31887 8420463
94.51413 -37.017784 -106.64294 10591632
95.277756 -36.762318 -106.09209 8616307
94.050598 -36.109756 -107.49312 9867396
94.760132 -35.994736 -106.92188 9472639
95.527618 -35.994877 -106.24363 8090218
96.237404 -35.882664 -105.67085 7037274
95.008553 -35.175179 -107.09998 11182743
95.733597 -35.012943 -106.53804 8748660
96.502266 -34.937683 -105.89527 7563874
97.256905 -34.860989 -105.26566 9406333
97.911575 -34.636543 -104.7961 11380380
95.953705 -34.290314 -106.71947 9209467
96.567268 -34.159813 -106.27303 8550508
97.362785 -33.965637 -105.71862 11117208
98.113754 -33.963028 -105.01322 10261640
98.895035 -33.714882 -104.46452 7565675
98.426811 -33.325657 -105.34842 9274229
99.303253 -33.179298 -104.77032 8749434
100.09526 -33.029251 -104.24286 10985110
100.98563 -32.743603 -103.92606 9405822
101.78624 -32.568764 -103.45584 10787213
102.53006 -32.443169 -102.87524 8485235
103.07268 -32.199501 -103.17127 10261132
103.70715 -32.166836 -102.32895 9471612
104.80482 -31.901924 -101.93766 9735046
105.01514 -31.891655 -101.65551 9735046
111.89793 -31.454803 -99.108673 6840151
113.77299 -31.228447 -98.127815 9077369
115.59064 -31.015945 -97.307137 9011323
117.41387 -30.801777 -96.464035 10326923
119.24274 -30.585842 -95.598442 11183001
120.97124 -30.39854 -95.093361 7564643
121.13041 -30.353043 -94.518456 8617075
122.91779 -30.148746 -93.798927 6643290
124.7151 -29.942543 -93.06012 8025201
126.52298 -29.734272 -92.301567 8814197
128.47226 -29.528839 -91.385338 8748661
130.40329 -29.339378 -90.6558 9143163
130.52138 -29.292938 -90.045845 7038298
132.34836 -29.147579 -89.905212 8681843
132.45958 -29.101288 -89.288864 9405566
134.1976 -28.907009 -88.8302 6510930
134.23849 -28.870266 -88.396812 9405566
135.95155 -28.687881 -88.127144 7037274
135.98782 -28.651134 -87.69017 7037274
137.7336 -28.447948 -87.186531 10788244
137.78036 -28.393234 -86.5261 11380380
139.50983 -28.22385 -86.447021 8090995
139.54971 -28.169437 -85.78109 8090995
141.2989 -27.997223 -85.689857 12696236
141.33163 -27.943008 -85.018372 9209467
143.10963 -27.750019 -84.689171 10853520
-30.19577 -47.760265 -164.90572 9209467
-29.358501 -47.683445 -164.78748 9735812
-28.314365 -47.587742 -164.6355 11380380
-27.689335 -47.530571 -164.54187 9143675
-25.990269 -47.40332 -162.81383 10590862
-24.965816 -47.309692 -162.65053 9473152
-23.944324 -47.216434 -162.48251 10789267
-23.129368 -47.142143 -162.34427 10064775
-21.106476 -46.985313 -160.56538 16777199
-20.505814 -46.930695 -160.45677 12697009
-19.507286 -46.839935 -160.27193 7827303
-18.31308 -46.731503 -160.04387 10656396
-17.519329 -46.659508 -159.88815 11313812
-15.98783 -46.547447 -158.19774 11313812
-15.009212 -46.449905 -157.96454 8420467
-14.031005 -46.343918 -157.69695 7762796
-13.057078 -46.238369 -157.42429 7499625
-12.086688 -46.133198 -157.14735 7630699
-11.120582 -46.028496 -156.86559 9077886
-7.7866054 -45.663361 -154.42287 7893349
-7.2221484 -45.602158 -154.24637 9405566
-6.6593318 -45.541058 -154.06805 10129289
-5.9108958 -45.459915 -153.828 7958120
-4.9791369 -45.358852 -153.52399 9273977
-3.8659432 -45.238075 -153.15363 10984849
-2.9425156 -45.137871 -152.84052 10524556
-2.0232918 -45.038128 -152.52293 9867140
-1.1077684 -44.938721 -152.20145 10985622
-0.19647536 -44.839813 -151.87567 10854292
0.53006423 -44.760906 -151.61241 9933702
4.266438 -44.351566 -148.83961 5920082
4.9702306 -44.273331 -148.5593 7696492
5.8442883 -44.160912 -148.15479 8551542
6.7153058 -44.057575 -147.77618 9143675
7.5828824 -43.961891 -147.41762 6511954
8.6189089 -43.847603 -146.98276 6511954
9.477952 -43.752857 -146.61649 8616819
10.332726 -43.658581 -146.24644 7564642
11.013906 -43.583424 -145.94814 8682867
67.849007 -43.614059 -119.75465 7959409
68.695808 -43.679935 -119.38046 8156787
69.610611 -43.716846 -118.98964 6973024
70.526703 -43.755878 -118.59744 9471871
71.444214 -43.797024 -118.2039 10985367
72.363159 -43.840263 -117.80886 9012600
73.283684 -43.885643 -117.41238 8683127
74.205818 -43.933105 -117.01438 8617335
75.113594 -43.853592 -116.66679 9340798
75.903587 -43.840256 -116.28559 8682355
76.741936 -43.73481 -116.04952 7760998
77.671753 -43.789822 -115.64537 8945272
78.603691 -43.847054 -115.2396 8089963
79.53772 -43.906422 -114.83206 8879479
80.537613 -43.842728 -114.4407 10129546
81.415169 -43.844563 -114.01564 9734787
82.31414 -43.887756 -113.54469 8748660
83.324829 -43.802746 -113.22211 8880246
84.095337 -43.78146 -112.57038 8879221
84.812881 -43.675598 -111.98906 10063494
11.52295 -43.527275 -145.72275 8682867
12.368112 -43.434036 -145.34433 8682867
13.209462 -43.341206 -144.96274 9340286
14.04654 -43.248886 -144.57747 9471872
15.045918 -43.13863 -144.1109 9208956
15.874402 -43.047207 -143.71854 9011064
16.69862 -42.956295 -143.32263 6972768
17.682526 -42.847775 -142.84335 9209214
18.660606 -42.739891 -142.35953 6971481
19.471355 -42.65044 -141.95291 6774618
20.116978 -42.57917 -141.62524 7893615
57.612873 -42.566326 -124.37712 9077883
58.52047 -42.577847 -123.99928 8617847
59.428387 -42.59137 -123.62053 8092016
60.399132 -42.691002 -123.18204 11313820
61.218674 -42.789936 -122.80603 10130316
62.127522 -42.809471 -122.42452 10656658
63.037037 -42.830997 -122.04199 9406594
63.964108 -42.979931 -121.60204 9735041
64.829803 -43.046043 -121.22002 7958886
65.741196 -43.073719 -120.83426 8879987
66.708557 -43.138763 -120.41077 8616820
67.657097 -42.845573 -120.13604 9735561
68.596725 -42.871861 -119.73919 7959409
69.560135 -42.875973 -119.34136 6906717
70.478149 -42.913864 -118.94887 9274492
71.397514 -42.953823 -118.55499 10854037
72.318367 -42.995846 -118.1597 8748404
73.240768 -43.039936 -117.76298 9472641
74.10881 -43.041 -117.40553 9275262
75.03212 -42.905537 -117.0791 8419698
75.98246 -42.843739 -116.71253 8287597
76.912628 -42.89563 -116.30953 8024170
77.844795 -42.949677 -115.90489 9011064
78.779037 -43.005894 -115.49852 8813684
79.715477 -43.064201 -115.09041 8550514
80.630043 -43.025356 -114.72953 9011065
81.631699 -43.018444 -114.32025 9472128
82.575668 -43.083084 -113.90659 8682867
83.525223 -43.050732 -113.41464 9932934
84.278969 -42.932514 -112.81776 8551028
85.042282 -42.909687 -112.15429 11905695
85.744896 -42.778042 -111.5973 10261388
20.599564 -42.525925 -141.37828 8814715
21.080612 -42.472893 -141.13008 8881015
24.454943 -42.100788 -140.63643 7631211
25.086243 -42.031113 -140.28929 7631211
48.965908 -41.564365 -128.32791 10261124
49.573425 -41.559277 -128.08 9537400
50.484398 -41.553135 -127.70775 9208435
51.459511 -41.631359 -127.2759 10326667
52.28236 -41.712029 -126.90572 9538177
53.191845 -41.711693 -126.53181 7959401
54.134365 -41.784283 -126.11558 8946552
54.986519 -41.882183 -125.72651 9472897
55.895332 -41.887711 -125.3506 8814710
56.804218 -41.895123 -124.97383 9077882
57.713234 -41.904518 -124.59629 9471872
58.622467 -41.915859 -124.21784 9603972
59.532028 -41.92915 -123.83851 10261645
60.441963 -41.944405 -123.45828 10919573
61.352341 -41.961601 -123.07704 8485493
62.26329 -41.980747 -122.69483 8485494
63.174858 -42.001904 -122.31157 9669252
64.087158 -42.025021 -121.92724 8945269
65.000252 -42.05011 -121.54185 7432799
65.914238 -42.077187 -121.15528 8222314
66.829147 -42.106281 -120.76749 9341055
67.784843 -41.915417 -120.44952 12827828
68.722504 -41.837357 -120.09463 8682871
69.641716 -41.872181 -119.70283 6775126
70.562202 -41.909 -119.30975 6971737
71.48407 -41.947849 -118.91532 7498081
72.407402 -41.988735 -118.51942 9472125
73.269699 -42.125187 -118.11108 9998214
74.226059 -42.244072 -117.67096 8946298
75.09317 -42.203457 -117.33033 8156525
76.117249 -42.172749 -116.92119 7103579
77.049271 -42.223915 -116.51769 8747893
77.827423 -42.268108 -116.18024 9471357
84.507256 -42.115925 -113.01217 8288628
85.2658 -41.891254 -112.45094 9537923
86.029884 -41.870865 -111.78563 10064266
86.770638 -41.810726 -111.16024 13550780
87.377289 -41.50185 -110.77405 8682867
27.63324 -41.201771 -138.25545 9538177
28.60136 -41.167904 -137.94664 9406847
29.548536 -41.108921 -137.54663 9603457
30.527628 -41.1595 -136.99333 10129545
31.435316 -40.99789 -136.75175 10655631
32.372128 -40.942097 -136.34294 10129800
33.307716 -40.890018 -135.94012 10393229
34.240448 -40.839664 -135.53651 10459022
35.05405 -40.842747 -135.1255 9998727
35.903259 -40.890862 -134.64029 8551795
36.822418 -40.839027 -134.21494 10656399
37.738979 -40.789452 -133.79065 9143418
38.659828 -40.748714 -133.38898 8486261
39.57626 -40.707188 -132.97842 12105131
40.311848 -40.739857 -132.55013 13683904
41.206711 -40.776951 -132.08429 10722191
42.120796 -40.744942 -131.68758 8156265
43.091522 -40.78743 -131.20337 7629411
43.90818 -40.836548 -130.78493 9734274
44.817799 -40.81086 -130.39021 10984341
45.820206 -40.765583 -129.97939 8156786
46.824524 -40.89431 -129.48326 6380629
47.767967 -40.949253 -129.06346 7432542
48.74638 -40.905312 -128.67757 10063745
49.659382 -40.897339 -128.30519 10129538
50.571896 -40.891258 -127.93224 9471352
51.483994 -40.8871 -127.55876 9142650
52.395744 -40.884842 -127.18463 8484977
53.307266 -40.884457 -126.80989 8420208
54.218613 -40.886013 -126.43444 8749433
55.129848 -40.889427 -126.05829 9209728
56.041096 -40.894779 -125.6814 8946553
56.952404 -40.902035 -125.30372 8156267
57.863873 -40.911167 -124.92524 7761509
58.775566 -40.922245 -124.54589 8485489
59.687572 -40.935211 -124.1657 9341055
60.599987 -40.950085 -123.78457 10854036
61.512886 -40.9669 -123.40249 9077626
62.426319 -40.985626 -123.01939 8616822
63.340427 -41.006283 -122.63532 8616050
64.255241 -41.02887 -122.25018 9142393
65.110954 -41.147152 -121.85167 8616816
66.05851 -41.246143 -121.42297 7038299
66.975555 -41.274693 -121.03455 7433057
67.832062 -41.219299 -120.7041 8814456
68.689728 -41.165401 -120.37253 8551284
85.542618 -41.208286 -112.53765 8880252
86.162071 -40.8918 -112.14381 10393230
86.977036 -40.801025 -111.46773 13618373
87.762177 -40.775867 -110.78613 12367787
88.429291 -40.580044 -110.29159 8682867
35.405258 -40.504631 -135.37376 10459022
36.179825 -40.465767 -135.03496 10130055
37.106739 -40.420666 -134.62762 13155761
38.031441 -40.377193 -134.21948 10261641
38.95359 -40.3354 -133.81049 7368037
39.873463 -40.295235 -133.4005 13683904
40.76107 -40.319084 -132.89116 13157560
41.490856 -40.348057 -132.44173 10459790
42.405121 -40.314259 -132.03581 7826789
43.365677 -40.290676 -131.54898 7366239
44.357742 -40.227291 -131.08969 10720911
45.266567 -40.199566 -130.6837 10985111
46.175602 -40.175121 -130.2821 8617337
47.143822 -40.087376 -129.90842 7498601
48.02924 -39.981174 -129.58481 6249039
48.935009 -39.962009 -129.18066 8484972
49.791653 -39.982857 -128.76605 8945522
50.702168 -40.079773 -128.26569 9800579
51.609238 -40.06995 -127.87288 8945272
52.516697 -40.062717 -127.48185 8089962
53.424026 -40.057674 -127.09126 7762024
54.336124 -40.058155 -126.71192 8683898
55.249367 -40.061501 -126.33495 9736071
56.162647 -40.066719 -125.95729 9932680
57.07597 -40.073795 -125.57883 9011320
57.989513 -40.082745 -125.19962 8156267
58.877689 -40.259388 -124.76476 7301214
59.791359 -40.272133 -124.384 8682867
60.705418 -40.286736 -124.00225 8946039
61.467468 -40.300381 -123.68346 9538176
87.052727 -39.931316 -111.82275 13881805
87.802292 -39.836391 -111.20644 13486786
88.651527 -39.786633 -110.48016 9669762
89.45256 -39.502808 -109.91001 9538178
87.994865 -39.036888 -111.42418 13552581
88.713852 -38.811661 -110.89809 9735815
89.482849 -38.926239 -110.16298 10262159
90.204895 -38.882221 -109.5463 9932422
89.101784 -38.084396 -110.90813 7893615
89.677414 -38.075405 -110.40384 9604230
90.444168 -38.064922 -109.73136 10195852
91.151596 -37.943619 -109.16507 11445143
91.80024 -37.710976 -108.70483 10787215
90.030014 -37.278057 -110.4791 7630443
90.679909 -37.042946 -110.01888 9012094
91.447922 -37.034428 -109.34438 10392714
92.193359 -36.985298 -108.70951 9734785
92.806931 -36.68317 -108.31385 12432037
90.9655 -36.359341 -110.09821 9208443
91.708115 -36.053497 -109.59035 8616306
92.455276 -36.004486 -108.95387 8418927
93.224075 -35.999546 -108.27694 9735041
93.875832 -35.769333 -107.81269 14932686
92.514023 -35.208767 -109.28857 8353134
93.305054 -34.979553 -108.72242 8419951
94.109848 -34.972729 -107.99586 11709599
94.812332 -34.714397 -107.49871 13551034
95.34613 -34.62822 -107.06809 9209467
93.723633 -34.325645 -108.85921 9210491
94.332504 -34.189548 -108.4086 9472638
95.145912 -34.032097 -107.81228 10459277
95.858017 -33.940098 -107.19131 9867140
96.66684 -33.73262 -106.61259 8945523
96.364105 -33.406662 -107.69147 10656398
96.937897 -33.382648 -107.03956 9406331
97.806824 -33.229977 -106.45544 10459019
98.749863 -32.978821 -106.09814 9735040
99.454514 -32.866798 -105.55759 8945527
100.5497 -32.612663 -105.07178 10327180
101.23386 -32.505814 -104.52984 8681843
102.64787 -32.22187 -103.73277 9537406
105.71911 -32.252754 -103.31391 8814971
107.74413 -31.998241 -102.0668 8879991
109.62885 -31.774265 -101.14862 10589832
109.89351 -31.711124 -100.42506 10853004
111.51511 -31.548805 -100.20471 8682609
113.34091 -31.337502 -99.419426 8287083
115.23287 -31.108879 -98.42511 9801093
117.06802 -30.894146 -97.593163 10984852
118.8528 -30.693092 -96.928734 9210491
119.02126 -30.646942 -96.358154 7564643
120.70168 -30.474754 -96.053185 9341054
120.86407 -30.428905 -95.477051 7564643
122.50401 -30.269939 -95.348816 7827306
122.71272 -30.209137 -94.573143 6643290
124.36717 -30.047935 -94.429085 8090736
126.19684 -29.841164 -93.690033 10458767
126.33316 -29.794067 -93.090897 9208443
128.17456 -29.638111 -92.796906 7563618
128.30363 -29.591164 -92.191307 7037274
130.12083 -29.448444 -92.082634 7037274
130.24307 -29.4016 -91.470512 8090218
132.19673 -29.209698 -90.728706 8681843
134.12399 -28.983406 -89.706146 6510930
135.87648 -28.761608 -89.003563 9142907
137.65192 -28.53968 -88.290825 8090218
139.45441 -28.296844 -87.337395 10525076
141.25296 -28.069859 -86.5877 13419961
143.06479 -27.84029 -85.82016 9933193
144.89014 -27.608086 -85.034645 12432036
-30.484772 -47.757778 -166.45085 9209467
-29.850357 -47.69965 -166.35994 9209467
-29.216923 -47.641613 -166.2674 9210491
-27.273415 -47.492416 -164.47832 8090987
-26.443188 -47.416546 -164.34851 9012089
-25.407909 -47.321976 -164.18207 8682867
-24.376068 -47.22784 -164.01013 11512476
-22.519558 -47.086567 -162.23862 10985876
-21.91095 -47.031193 -162.13089 10985876
-20.899117 -46.939163 -161.94745 13355195
-19.89027 -46.847488 -161.75941 11709858
-19.085587 -46.774437 -161.60527 10262156
-17.123165 -46.623653 -159.80914 9208435
-16.332832 -46.552094 -159.64835 11708313
-15.347445 -46.462994 -159.44348 8879991
-14.365397 -46.374256 -159.23364 8222579
-13.38388 -46.277615 -158.99094 7828077
-12.794986 -46.213844 -158.82224 9538947
-10.158156 -45.924179 -156.57953 13551289
-9.199893 -45.820286 -156.28865 8879478
-8.2453604 -45.716797 -155.99371 8089963
-7.4846492 -45.634296 -155.75436 7827307
-6.9157977 -45.572632 -155.57318 10064011
-6.3484759 -45.51107 -155.39021 10853012
-5.406116 -45.408867 -155.08174 8747893
-4.2804866 -45.286739 -154.7061 7563619
-3.3467019 -45.185413 -154.38855 9010806
-2.60271 -45.10466 -154.13138 9471870
0.89218962 -44.721638 -151.4798 9933702
1.6144758 -44.6432 -151.21219 8946551
2.6933219 -44.525986 -150.80644 7697002
3.588166 -44.428761 -150.46413 10262159
4.4787641 -44.332081 -150.11766 11907240
5.3646321 -44.227737 -149.74052 9406851
6.2446065 -44.113934 -149.32562 10524559
7.2969861 -43.993603 -148.8763 11905951
8.1700563 -43.89735 -148.50977 7761509
9.0388384 -43.801483 -148.13931 9011320
10.076047 -43.687073 -147.69017 9669508
10.936093 -43.592232 -147.31215 12630442
11.791707 -43.497822 -146.93039 11972512
12.813302 -43.385117 -146.4678 9406078
13.660222 -43.291679 -146.07878 9734782
14.502843 -43.198738 -145.68599 8288622
15.508702 -43.087765 -145.21045 7695716
16.342499 -42.995785 -144.81064 7760997
17.172035 -42.904293 -144.40732 9603457
18.162197 -42.795055 -143.9192 10853268
19.146519 -42.686462 -143.42642 9866117
19.962368 -42.596447 -143.01248 8681843
80.955284 -42.45974 -114.81837 8551028
81.741249 -42.511459 -114.47471 8880504
82.686684 -42.575394 -114.06075 8682867
83.453033 -42.618412 -113.68259 11183001
20.773857 -42.506927 -142.59508 8419696
21.742409 -42.400066 -142.09032 8420464
22.705105 -42.293877 -141.58109 9736068
23.502956 -42.205833 -141.15355 10985368
23.979773 -42.153187 -140.89552 8288627
26.720894 -41.850998 -140.6927 9538176
27.348963 -41.781662 -140.33478 9735555
73.551407 -41.704369 -118.16086 10195593
74.324493 -41.741695 -117.82818 8222577
75.342308 -41.657379 -117.4427 8090471
76.218445 -41.669231 -117.07771 7103835
77.151833 -41.71983 -116.67388 8747893
78.116928 -41.847195 -116.22682 9800319
78.989662 -41.995697 -115.80944 9340026
79.928902 -42.052757 -115.40067 9274237
80.906639 -41.942978 -115.0417 8946042
81.887466 -41.835003 -114.68081 8683127
82.785995 -41.93771 -114.27083 8880246
83.637482 -41.935162 -113.84032 10064521
84.40638 -41.646545 -113.32906 9012605
65.380569 -40.725182 -121.90684 8748659
66.145134 -40.747189 -121.5837 7893608
67.063499 -40.775421 -121.1949 7301470
68.068054 -40.674313 -120.82149 9077626
68.964546 -40.743935 -120.42538 8288365
69.825272 -40.871624 -120.02109 7564642
70.748383 -40.907642 -119.62726 7959144
71.672905 -40.945618 -119.23204 8879989
72.598915 -40.985577 -118.83545 12168866
73.526505 -41.027523 -118.43745 10590349
74.45578 -41.071518 -118.03794 7301472
75.420181 -40.949631 -117.68923 7235420
76.387154 -40.829479 -117.33879 6511954
77.322868 -40.879128 -116.93441 8550511
78.26059 -40.930794 -116.52837 9076599
79.200455 -40.984531 -116.12066 8747891
80.142548 -41.04034 -115.71123 8485491
81.056641 -41.05344 -115.33013 8683128
82.006027 -40.862125 -115.01492 8485749
82.788971 -40.820557 -114.70925 8748662
83.673508 -40.914291 -114.27209 9735814
84.466385 -40.901512 -113.63749 8946556
85.211304 -40.837376 -113.01038 7630955
85.81987 -40.524971 -112.62414 9735302
36.279057 -40.205482 -135.40875 9932677
37.190926 -40.141483 -134.93561 12432295
38.117626 -40.098217 -134.52621 8090987
39.041958 -40.056545 -134.11589 8617331
40.08247 -39.922783 -133.86913 12104616
40.93235 -39.84124 -133.45372 14999764
41.848083 -39.801918 -133.03105 11907235
42.764565 -39.766853 -132.61642 7629667
43.678856 -39.733421 -132.20085 8682099
44.591301 -39.701546 -131.78424 10721682
45.501629 -39.671314 -131.36661 9603974
46.330952 -39.665318 -130.92323 9603974
47.071938 -39.724453 -130.33623 10261903
50.222794 -39.637917 -128.85231 8813936
50.825603 -39.627544 -128.5804 9143163
51.72929 -39.613434 -128.17255 9142651
52.632259 -39.601292 -127.76463 8089962
53.534332 -39.590851 -127.3558 7498081
54.435543 -39.582077 -126.94588 10196364
55.335953 -39.574997 -126.535 10196364
56.237301 -39.570759 -126.1268 10195852
57.150185 -39.5765 -125.74403 8353649
58.064945 -39.585377 -125.36432 9800837
58.954342 -39.761917 -124.92899 8288366
59.869255 -39.774479 -124.54776 9011832
60.784542 -39.788948 -124.16561 8946039
61.732422 -39.877258 -123.741 9998470
62.589504 -39.989559 -123.34428 13089712
63.506111 -40.009727 -122.95936 9865859
64.423454 -40.031784 -122.57338 9339516
65.341629 -40.055706 -122.18631 9208956
66.260712 -40.081566 -121.79814 8814710
67.180771 -40.109314 -121.40879 7959401
68.141693 -39.916653 -121.08939 9077882
69.08461 -39.836864 -120.73299 8814709
70.00901 -39.870079 -120.33968 9209467
70.934776 -39.9053 -119.94507 9209467
71.861954 -39.942345 -119.54913 8814453
72.790604 -39.981411 -119.15179 10261384
73.720901 -40.022388 -118.75305 8748402
74.652878 -40.065338 -118.35285 7367006
75.608932 -39.998207 -117.986 9800575
76.589783 -39.820827 -117.65242 8353132
77.528275 -39.869305 -117.24731 8287084
78.468834 -39.919792 -116.84061 9668734
79.346405 -40.066223 -116.42205 9274234
80.320755 -40.19582 -115.97028 8486262
81.10952 -40.242924 -115.62733 8617335
81.839203 -40.201931 -115.34335 8617335
82.887894 -40.182117 -114.91981 9801348
83.82196 -40.234669 -114.47614 8946298
84.710663 -39.922123 -113.89684 10788500
85.457245 -39.858406 -113.26801 8683895
86.22554 -39.8382 -112.59891 9209470
86.872826 -39.596973 -112.14394 9999243
44.192928 -39.357887 -132.69711 10853012
44.753815 -39.293049 -132.26932 11906212
45.655613 -39.252522 -131.81465 9340543
46.616749 -39.291622 -131.28481 8617337
47.423462 -39.336792 -130.82442 9538178
48.330399 -39.311401 -130.40245 6643540
49.229324 -39.282425 -129.96231 6380368
50.114468 -39.245762 -129.49071 8748659
51.004848 -39.216198 -129.03635 8222317
51.899372 -39.192863 -128.59612 7826790
52.780762 -39.162827 -128.12746 8024169
53.667423 -39.139416 -127.67459 8551026
54.643734 -38.999306 -127.43407 9998728
55.529652 -38.979687 -126.98019 8946813
56.420364 -38.966148 -126.53988 9142910
57.32185 -38.96209 -126.12422 8485237
58.222893 -38.959763 -125.70786 9735044
59.125072 -38.96019 -125.29379 9341054
60.030807 -38.964867 -124.8868 9801605
60.936733 -38.971455 -124.47937 10459278
61.846432 -38.982147 -124.07842 11379605
62.758842 -38.996178 -123.6813 11576983
63.672592 -39.012524 -123.2849 8155755
64.591858 -39.033665 -122.89692 8287598
65.512573 -39.057034 -122.50904 8353391
66.434189 -39.082245 -122.12003 8880247
67.356842 -39.109322 -121.72989 9538433
68.320366 -38.915714 -121.40977 8814710
69.265938 -38.835041 -121.05266 8880503
70.131218 -38.961464 -120.647 8880502
71.090248 -39.069172 -120.21017 8814709
72.019608 -39.105553 -119.81361 9077881
72.950523 -39.143803 -119.41566 9866883
73.883034 -39.183968 -119.01629 9143675
74.784378 -39.394012 -118.56297 6511954
75.563828 -39.430676 -118.22787 10458505
85.092606 -39.191696 -113.91369 11380380
85.696251 -38.93309 -113.50581 9210491
86.451042 -38.816891 -112.89514 8880758
87.220177 -38.798943 -112.22419 9341312
87.983009 -38.579628 -111.65648 11512997
58.582439 -38.365417 -126.09071 12039085
59.319817 -38.355129 -125.70875 10459793
60.222462 -38.355774 -125.28767 9735812
61.124657 -38.358017 -124.86539 10656655
62.026546 -38.361923 -124.44187 9800572
62.928162 -38.367462 -124.01711 9800572
63.830162 -38.374966 -123.59206 8813680
64.732544 -38.384373 -123.16663 8287598
65.634933 -38.395477 -122.73987 8089963
66.549995 -38.415462 -122.33484 9077370
67.474319 -38.442081 -121.94418 9275261
68.091087 -38.460804 -121.68308 8814710
86.737473 -37.905979 -113.08398 10459787
87.406258 -37.820084 -112.53468 8090987
88.179657 -37.931438 -111.79723 8551025
88.790588 -37.863586 -111.29034 10261903
87.792831 -37.090485 -112.54709 8287597
88.371185 -37.079018 -112.04151 7497825
89.141602 -37.065243 -111.36743 8682872
89.851707 -36.9408 -110.80029 7038307
88.5438 -36.311001 -112.26161 9143163
89.235352 -36.086143 -111.7596 10064265
90.016617 -36.031433 -111.09576 8748665
90.849121 -35.89267 -110.42742 10655887
91.508553 -35.672245 -109.95168 11181974
89.532578 -35.359322 -111.85847 10064265
90.149117 -35.221069 -111.42332 9274747
90.942116 -35.015499 -110.87858 9866116
91.697578 -35.000282 -110.17957 12234661
92.47683 -34.741707 -109.64289 8879221
91.4823 -34.374485 -110.9957 9208443
92.10273 -34.289536 -110.53206 10195080
92.830338 -34.196537 -109.92884 7168861
93.68808 -34.000069 -109.41068 7235421
94.623703 -33.734436 -108.95246 8091242
95.391296 -33.522663 -108.67684 8748916
96.032272 -33.426159 -108.09744 13550517
96.569168 -33.192223 -108.43988 12563879
97.223907 -33.150341 -107.61234 10130311
98.528938 -32.867752 -106.98161 10459019
98.745468 -32.854584 -106.70441 8681835
101.34229 -32.823845 -106.40252 7564392
103.31638 -32.58733 -105.40568 10129801
103.46559 -32.554752 -105.05397 10129801
105.14424 -32.381855 -104.73373 8813680
105.43301 -32.317139 -104.02348 9274749
107.32864 -32.094185 -103.1425 7762022
109.15843 -31.885666 -102.41696 9142386
111.06006 -31.659508 -101.48589 9142386
112.89941 -31.447636 -100.71394 10720651
114.74457 -31.233997 -99.919472 6248015
114.99063 -31.171219 -99.17173 9537920
116.59564 -31.018589 -99.102432 9406080
116.83374 -30.956146 -98.347145 10261132
118.45274 -30.801422 -98.262764 6774358
118.68277 -30.739346 -97.499969 8288621
120.26022 -30.597939 -97.592804 7433057
120.48254 -30.536194 -96.822411 9341054
122.07777 -30.392551 -96.903801 8089963
122.18558 -30.361778 -96.514534 8089963
122.29265 -30.331009 -96.125618 8089963
124.00952 -30.154461 -95.802277 10261132
124.16422 -30.108704 -95.213188 8419443
125.87227 -29.951797 -95.091576 13024949
126.0126 -29.904247 -94.490356 14210509
127.86655 -29.74839 -94.213188 9208443
127.99973 -29.701042 -93.605667 10458766
129.95453 -29.511311 -92.900269 8748661
131.96359 -29.303425 -91.966904 8681843
133.94572 -29.108849 -91.216438 6380368
134.05661 -29.062 -90.590294 6510930
135.77893 -28.854454 -90.102592 5919050
137.5659 -28.632092 -89.399315 7826790
139.36568 -28.407238 -88.678619 8946039
139.41092 -28.351864 -88.007103 8090995
141.19128 -28.161446 -87.714478 11380127
143.0256 -27.913132 -86.728615 9933193
144.86078 -27.680523 -85.950645 15721430
-30.778942 -47.755329 -168.02333 9209467
-30.351528 -47.716167 -167.96112 15723486
-28.584641 -47.583679 -166.17264 9210491
-27.743519 -47.506706 -166.04352 9144187
-26.695004 -47.410892 -165.87729 9670019
-25.649521 -47.31546 -165.70627 9538176
-23.347187 -47.134056 -163.83345 12762285
-22.321777 -47.040668 -163.65146 9801603
-21.2994 -46.947727 -163.46475 8617331
-20.483898 -46.873657 -163.31163 8090987
-18.48341 -46.719856 -161.48773 8814454
-17.88242 -46.665375 -161.36827 8485488
-17.282486 -46.610996 -161.24725 8485488
-16.68396 -46.55687 -161.12424 8090470
-15.887542 -46.484859 -160.95772 8353647
-14.895122 -46.395206 -160.74518 8288116
-12.207583 -46.150169 -158.65163 8881019
-11.426623 -46.065556 -158.42178 10196875
-10.454135 -45.960079 -158.13017 10854550
-9.4854269 -45.855042 -157.83437 12103846
-8.5210333 -45.750477 -157.53371 8879478
-7.5604205 -45.646286 -157.22897 8814203
-6.6040912 -45.542557 -156.91951 11379356
-5.6516185 -45.43922 -156.60596 10064011
-2.0463364 -45.04425 -153.93689 9932934
-1.4915308 -44.984035 -153.74063 11380380
-0.57012498 -44.88401 -153.41035 11380380
0.34750047 -44.784401 -153.07622 11052440
1.2607771 -44.68523 -152.73779 11118489
1.9888235 -44.60611 -152.46446 11381404
2.5329711 -44.547043 -152.25755 9736583
3.2562034 -44.468491 -151.97957 10985881
4.1565022 -44.370686 -151.62846 11906726
5.0527539 -44.270954 -151.26581 12498347
5.9425626 -44.156002 -150.84526 7564651
6.8284345 -44.045555 -150.43515 8419702
7.7114606 -43.948128 -150.06422 8485490
8.7657938 -43.831795 -149.61453 9208956
9.6399927 -43.735336 -149.23595 10261132
10.509728 -43.63945 -148.85355 9736329
11.202855 -43.562996 -148.54532 11380639
11.720712 -43.505829 -148.31253 13024949
12.408971 -43.429932 -148.00024 11708831
13.265462 -43.335438 -147.6067 9208435
14.287858 -43.222645 -147.13007 10063749
15.135434 -43.12912 -146.72928 9340027
15.978601 -43.036106 -146.32495 8550513
16.98505 -42.925091 -145.83553 8155755
17.819359 -42.833038 -145.42418 6511962
18.649242 -42.741489 -145.00945 8484722
19.639751 -42.63224 -144.50761 7958120
20.296993 -42.559696 -144.17079 10262156
20.62447 -42.523621 -144.00148 10262156
21.27729 -42.451576 -143.66125 9012093
22.251873 -42.344036 -143.14751 9341822
23.220425 -42.237183 -142.62929 11445918
24.023163 -42.148624 -142.19426 10261388
24.821466 -42.060535 -141.7561 7828333
25.77416 -41.955433 -141.2265 9340797
29.00036 -41.607231 -140.73967 8551796
29.465361 -41.550556 -140.4463 8814710
29.928608 -41.494087 -140.15176 8814710
30.543901 -41.419075 -139.75761 9537921
31.156279 -41.344357 -139.36179 9208955
36.122581 -40.761452 -137.45638 10063753
79.639343 -39.643459 -116.46793 8420470
80.26992 -39.67952 -116.19439 9340801
81.059647 -39.725899 -115.85132 8156530
82.10215 -39.651581 -115.45178 9472640
82.998795 -39.673054 -115.07457 8485488
83.933235 -39.724487 -114.62906 9472641
84.504707 -39.547565 -114.26051 9933193
43.916027 -39.394264 -132.92345 9537408
47.668743 -38.985947 -131.50345 8880246
48.499947 -38.896381 -130.86194 6972505
49.402393 -38.868141 -130.42184 7038297
50.469669 -38.774193 -130.22704 9012088
51.29277 -38.700859 -129.76878 8090474
52.176842 -38.666172 -129.2868 7366239
53.079937 -38.648739 -128.85677 9274748
53.981949 -38.632801 -128.42546 7103323
70.409103 -38.538555 -120.69916 8090986
71.183594 -38.567097 -120.36936 8485744
72.114296 -38.603065 -119.97243 8485744
73.046555 -38.640842 -119.57412 8090986
73.980423 -38.680508 -119.17438 9472639
74.883102 -38.890095 -118.72066 7959400
75.820038 -38.933769 -118.31811 10984592
76.792679 -38.810928 -117.96639 8945012
77.733955 -38.858292 -117.56061 9470842
78.629196 -38.947701 -117.1572 9603198
79.407417 -38.898178 -116.85664 8420470
80.254402 -38.994072 -116.47053 8420470
81.20372 -39.048615 -116.0586 9275008
82.192154 -38.935436 -115.69663 9538176
83.1838 -38.823872 -115.33266 6511954
84.117775 -38.872986 -114.8827 11051416
84.886505 -38.816639 -114.27779 9604994
85.626801 -38.499271 -113.77763 9210491
54.251381 -38.272701 -129.07004 6510930
55.00631 -38.337624 -128.283 7300702
55.907635 -38.324837 -127.84799 7235684
56.805313 -38.311779 -127.40604 8485237
57.758202 -38.153656 -127.08761 8945531
58.654728 -38.067059 -126.75641 10919577
59.625374 -38.000309 -126.35762 14013135
60.497227 -37.978603 -125.86034 10065034
61.367115 -37.958244 -125.36163 10131082
62.238323 -37.941357 -124.86768 9208435
63.10944 -37.926701 -124.37501 9208435
64.095108 -37.798092 -124.10642 8419435
64.976295 -37.793076 -123.63187 8287598
65.858078 -37.790386 -123.15881 9077370
66.757622 -37.799572 -122.71832 9471873
67.662514 -37.813305 -122.28606 9077882
68.56958 -37.82975 -121.85583 8946296
69.482658 -37.850952 -121.43407 9077626
70.397331 -37.874378 -121.01256 7498337
71.318977 -37.902809 -120.60004 8683123
72.243378 -37.933861 -120.18889 8353902
73.174683 -37.969627 -119.78555 9143163
74.110352 -38.008656 -119.38539 10064777
75.047775 -38.049549 -118.98373 8551538
75.986984 -38.092342 -118.5806 8024169
76.92086 -37.909725 -118.26838 8616048
77.672836 -37.790154 -118.00613 9865343
78.570427 -37.877811 -117.60243 8616049
79.518005 -37.927197 -117.19327 7959662
80.467857 -37.978432 -116.78245 7631468
81.420074 -38.031635 -116.36984 9143677
82.344032 -38.041943 -115.98575 10064777
83.406036 -37.803627 -115.64275 8024937
84.339409 -37.849968 -115.18732 11906725
85.131325 -37.834801 -114.53783 12038563
85.904663 -37.813667 -113.8647 11446680
86.555511 -37.571022 -113.40733 10131335
67.37883 -37.246624 -123.15916 8419702
67.932449 -37.227341 -122.77524 9998216
68.797615 -37.21899 -122.26257 9538433
69.705688 -37.235577 -121.82539 9932678
70.676682 -37.102261 -121.49443 8550770
71.583313 -37.120434 -121.04882 9209467
72.493408 -37.141712 -120.60665 8616307
73.404076 -37.164619 -120.16291 8945272
74.315887 -37.189426 -119.71835 10327949
75.235229 -37.219234 -119.28288 8221804
76.093338 -37.285156 -118.87359 9537409
76.80175 -37.195602 -118.60281 8682099
77.862549 -37.027706 -118.24976 9800322
78.745773 -37.033466 -117.86681 9274237
79.693733 -37.080833 -117.45405 8484978
80.610352 -37.300591 -116.99062 7499367
81.564438 -37.352921 -116.57758 8288110
82.521057 -37.407108 -116.1628 9143675
85.190865 -37.086361 -114.8483 10459277
85.956535 -36.793697 -114.31369 12499111
86.751137 -36.811718 -113.60282 10986130
87.478928 -36.870651 -112.93104 8616818
86.149109 -36.108776 -114.47582 10657422
86.858727 -35.996365 -113.91516 11314588
87.570145 -36.075451 -113.23647 9538433
88.283371 -35.947441 -112.66815 9143163
88.935974 -35.708408 -112.20744 10064265
87.278717 -35.432457 -113.98145 10591121
87.88961 -35.287483 -113.53821 8551538
88.680183 -35.075508 -112.99046 7629667
89.520264 -34.900074 -112.39231 8551281
90.231438 -34.796535 -111.77084 8682866
90.511795 -34.411804 -111.98134 7038298
91.332031 -34.219013 -111.62564 9208443
92.320724 -33.976429 -111.19751 8616307
93.08017 -33.823933 -110.7592 8089963
94.023415 -33.627018 -110.26595 7695972
94.715302 -33.51392 -109.74362 7827814
96.730133 -33.42622 -109.66757 8288621
98.886978 -33.158413 -108.4018 8090987
100.79935 -32.939125 -107.61997 7038049
101.11066 -32.873165 -106.92413 8090479
102.71399 -32.718342 -106.81225 10129801
103.01682 -32.652683 -106.10847 10129801
104.8517 -32.446938 -105.44495 8287592
106.76392 -32.223316 -104.57945 10261132
108.67848 -31.998085 -103.68775 9471607
110.52745 -31.787346 -102.95362 10721418
110.79563 -31.723255 -102.21932 9405558
112.38231 -31.574806 -102.19709 9537665
112.64281 -31.511051 -101.45492 9536635
114.30682 -31.344578 -101.23035 8615790
114.49589 -31.297012 -100.66813 7694946
116.17191 -31.128654 -100.4267 7761514
116.35486 -31.081341 -99.858711 10261132
118.04315 -30.910904 -99.600258 7959144
118.22003 -30.863838 -99.026558 7367007
119.9207 -30.691315 -98.750832 8749428
120.09152 -30.644501 -98.171486 9210491
121.74944 -30.485481 -98.073494 9537921
121.91439 -30.438915 -97.488304 10262156
123.642 -30.262173 -97.17971 9537921
123.80069 -30.215912 -96.588898 9866630
125.68187 -30.015545 -95.894531 11183260
127.68561 -29.812004 -95.024742 9208443
129.69919 -29.606159 -94.12957 8813685
131.68222 -29.413834 -93.416168 8089963
131.80434 -29.366329 -92.794273 8089963
133.68027 -29.21904 -92.681236 7761253
133.79523 -29.171684 -92.052834 7300958
135.6882 -28.950642 -91.214294 6445394
137.47498 -28.725445 -90.512665 8089962
139.30295 -28.481548 -89.576454 11707804
141.12534 -28.253708 -88.845772 8090995
142.97247 -28.004871 -87.868835 13024949
144.82004 -27.771862 -87.100372 8946556
146.68187 -27.536114 -86.313622 11644061
-29.92461 -47.677006 -167.89803 15722454
-29.498184 -47.638039 -167.83417 11381145
-29.072384 -47.59898 -167.76938 9210491
-28.222416 -47.521286 -167.63713 9210491
-27.162632 -47.424484 -167.46756 9735039
-24.815659 -47.239437 -165.56549 10459278
-23.776268 -47.144737 -165.38489 9932422
-22.740025 -47.050385 -165.19949 11051158
-21.707264 -46.956528 -165.0087 10064262
-19.873589 -46.818222 -163.19479 8090987
-19.264618 -46.763035 -163.07605 8814454
-18.252224 -46.671326 -162.87416 9932934
-17.242966 -46.579941 -162.66779 7761765
-16.237209 -46.489025 -162.45619 8682615
-13.905719 -46.305935 -160.52814 8617080
-12.919826 -46.217094 -160.30612 12630192
-11.935977 -46.124641 -160.06581 11183260
-10.952193 -46.017982 -159.76971 8157042
-9.9722586 -45.911743 -159.46928 9209985
-8.9966345 -45.805901 -159.16415 12104361
-8.2188978 -45.721588 -158.91713 9736067
-4.7034907 -45.33638 -156.28787 9471356
-3.7591507 -45.233906 -155.96574 7563619
-2.8192589 -45.131935 -155.63919 8747889
-1.88314 -45.0303 -155.30856 10853012
-0.95143068 -44.929153 -154.97362 11182745
-0.023520797 -44.82843 -154.6348 11316124
0.89994109 -44.7281 -154.29164 11316124
1.8195387 -44.628262 -153.94476 10262156
2.7347572 -44.52882 -153.59354 9275777
3.8277366 -44.410103 -153.1671 8092019
4.7340436 -44.3116 -152.80753 9604998
5.6343923 -44.200478 -152.39862 11183513
6.5294576 -44.083111 -151.96306 8354163
7.4214444 -43.980309 -151.57214 7893611
8.3100977 -43.882275 -151.19292 8880503
9.1942911 -43.784752 -150.80978 11906468
10.249902 -43.668297 -150.34543 12433068
10.950505 -43.591003 -150.03326 11380639
11.299672 -43.552517 -149.87625 9736329
11.995728 -43.475685 -149.56035 8092016
12.862493 -43.3801 -149.16263 10261895
13.724664 -43.284981 -148.76129 10655632
14.753919 -43.171436 -148.27538 8813680
15.607091 -43.077297 -147.86679 9142907
16.455788 -42.983665 -147.45471 9801092
17.46883 -42.871891 -146.95596 7301220
18.308426 -42.779308 -146.53694 8090992
19.14365 -42.68716 -146.11447 9735558
19.974907 -42.595417 -145.6891 10524816
20.471622 -42.540649 -145.43225 9341057
20.966606 -42.486034 -145.17429 10262156
21.788315 -42.395336 -144.74174 8748921
22.768951 -42.287209 -144.21881 7564648
23.581669 -42.197563 -143.77979 8813686
24.389843 -42.108326 -143.33755 9537665
25.354252 -42.001934 -142.80312 9012095
26.314203 -41.898617 -142.27271 9340797
27.115168 -41.821484 -141.85632 9998727
27.90847 -41.739334 -141.41811 8749176
28.533867 -41.664005 -141.03217 8288883
31.128178 -41.373585 -140.82703 9735043
31.897573 -41.279549 -140.32343 9537664
32.814934 -41.167328 -139.71576 9340280
33.574574 -41.074253 -139.2066 9735299
34.329247 -40.981712 -138.69478 10064264
35.229084 -40.871227 -138.0773 9668994
35.825577 -40.797932 -137.66383 9537664
37.636494 -40.60107 -137.84987 8813686
38.079754 -40.546394 -137.53117 10063753
38.521595 -40.491917 -137.21178 11379356
39.107605 -40.419483 -136.78439 8353903
39.981613 -40.311436 -136.14072 6840925
42.941895 -39.970753 -135.3864 11644317
43.796196 -39.864475 -134.72096 8092011
47.425381 -39.438232 -133.31415 8090995
53.734917 -38.344398 -129.56709 7761253
56.607468 -38.0387 -128.61362 6510930
57.115173 -37.967125 -128.10304 7432808
59.338737 -37.74889 -127.72274 11182489
59.959743 -37.659798 -127.06912 12367791
60.744469 -37.58123 -126.37643 9802118
61.639915 -37.574539 -125.92052 10065803
62.539337 -37.572285 -125.47324 9472379
63.438114 -37.571541 -125.02449 9208435
62.299759 -37.421623 -126.50417 7565675
62.785744 -37.350742 -125.96864 8946552
63.581806 -37.2878 -125.30838 8550763
64.481743 -37.288548 -124.8571 7367005
65.486343 -37.165821 -124.60456 7564641
66.347572 -37.147549 -124.07566 9143165
67.183807 -37.113472 -123.64329 8551288
68.315269 -36.881805 -123.46734 8879995
69.177521 -36.869308 -122.93793 10196107
70.042 -36.860058 -122.41338 9603713
71.063576 -36.63195 -122.29449 8616562
71.860168 -36.598446 -121.84998 8419440
72.716103 -36.589283 -121.30632 9668995
73.577644 -36.584961 -120.77217 8945272
74.35173 -36.724571 -120.09688 11643040
75.113564 -36.745804 -119.72382 9800837
76.092972 -36.61871 -119.37597 9011065
77.009537 -36.647148 -118.92463 8945015
77.883652 -36.597538 -118.55976 9537408
78.91243 -36.554585 -118.11708 9997960
79.832825 -36.587791 -117.65998 8813686
80.719666 -36.792801 -117.15035 7433317
81.672859 -36.843346 -116.73353 8288110
82.630882 -36.896828 -116.31844 8814454
83.550385 -36.892323 -115.94204 6577747
84.314659 -36.776978 -115.66203 7499106
85.087486 -36.613525 -115.16906 8485745
74.388275 -36.443672 -120.47784 11379356
75.393623 -36.325974 -120.17049 9668738
76.368301 -36.194321 -119.8083 9603202
77.211296 -36.186462 -119.2365 8879478
78.24028 -36.080746 -118.94854 8879478
79.11853 -36.092117 -118.42625 9997960
80.036987 -36.122944 -117.96154 8616563
81.033943 -36.003544 -117.60757 7695717
81.900116 -36.075237 -117.1342 8090475
82.730164 -36.069653 -116.75515 9472384
83.615891 -35.948254 -116.44924 6841183
84.570297 -35.826469 -116.08701 7367264
85.376396 -35.815315 -115.44605 8551538
86.137169 -35.697048 -114.82714 9077625
86.901352 -35.446098 -114.33543 10591121
85.783997 -35.17897 -115.70846 9142904
