# .PCD v0.7 - Point Cloud Data file format
VERSION 0.7
FIELDS x y z rgb
SIZE 4 4 4 4
TYPE F F F U
COUNT 1 1 1 1
WIDTH 1168
HEIGHT 1
VIEWPOINT 0 0 0 1 0 0 0
POINTS 1168
DATA ascii
-125.94678 -38.353062 -149.89867 11050644
-125.32638 -38.578869 -150.25749 10261132
-68.025124 -38.382175 -174.91774 8090987
-67.067421 -38.253349 -175.24922 8354159
-66.110016 -38.125473 -175.58017 10459278
-65.246025 -38.112068 -175.83932 12235690
-64.382515 -38.099442 -176.09807 9734788
-63.38438 -38.130627 -176.37944 9142909
-62.360596 -38.028439 -176.71999 8419696
-61.363373 -38.061783 -177.00026 9669246
-60.501507 -38.052834 -177.25713 9471867
-59.666801 -37.821709 -177.59196 9011574
-59.020489 -37.816086 -177.78415 9011574
-130.28046 -36.897606 -147.33673 9274492
-129.43727 -37.235245 -147.81029 10656656
-128.55656 -37.286762 -148.44241 8551283
-127.75098 -37.300167 -149.03596 9076857
-126.96832 -37.507401 -149.52408 10327436
-65.334236 -37.44173 -176.07277 11314588
-64.416847 -37.279243 -176.40532 9734787
-63.633965 -37.194107 -176.66838 8879993
-62.553753 -37.180901 -176.99112 8288111
-61.474049 -37.168758 -177.31325 9208952
-60.610626 -37.16 -177.5705 10129539
-59.747482 -37.152046 -177.82732 8748659
-58.668888 -37.143234 -178.14784 8682867
-57.671051 -37.061634 -178.47278 8814709
-56.753685 -36.907139 -178.80228 5920074
-131.32835 -36.044567 -146.94606 8617078
-130.3943 -36.121006 -147.60643 8683127
-129.53339 -36.058102 -148.27596 10525072
-128.81944 -36.12447 -148.77704 9209214
-62.638325 -36.510048 -177.22581 9274491
-61.503529 -36.348179 -177.62212 8813939
-60.719952 -36.26572 -177.88432 10063234
-59.855225 -36.257938 -178.14157 9405562
-58.774712 -36.249298 -178.46259 9143161
-57.694458 -36.241806 -178.78308 7499106
-56.830463 -36.236717 -179.03908 8288622
-55.96656 -36.232365 -179.29475 12433069
-55.102715 -36.228828 -179.55008 7498338
-54.263351 -36.002472 -179.88446 10852750
-131.0345 -35.37677 -147.46954 5393738
-130.46449 -35.366173 -147.89871 6840926
-129.89464 -35.355976 -148.32747 6511962
-59.936172 -35.586472 -178.37761 10260100
-58.867424 -35.465908 -178.7384 9076859
-57.933617 -35.302616 -179.07614 8287859
-56.932983 -35.34156 -179.35529 6775130
-56.067524 -35.337303 -179.61134 6511954
-55.202099 -35.333839 -179.86711 9998471
-54.108395 -35.32275 -180.14641 9405819
-57.659966 -34.672871 -179.40022 8287859
-57.009972 -34.669289 -179.59271 6775130
-56.168682 -34.440735 -179.92847 7959144
-55.273289 -34.302505 -180.24518 9932934
-54.233154 -34.203747 -180.55272 10590606
-53.176464 -34.150639 -180.56865 9275003
-53.246971 -33.180435 -180.93294 10722192
-52.250435 -33.101543 -180.85632 6183246
-53.042969 -32.115852 -181.30278 7367264
-52.317467 -32.070946 -181.24243 6249039
-51.441422 -31.942263 -181.19688 7367264
-52.339142 -31.251322 -181.58275 6117453
-51.468998 -31.128057 -181.56203 7169885
-50.603405 -31.00725 -181.5495 9932163
-51.366722 -30.480188 -182.02454 7367264
-50.598259 -30.296085 -182.08359 11181460
-49.601639 -30.129093 -182.10533 8616817
-48.623734 -29.581366 -183.16801 6510930
-47.68705 -29.544947 -183.18007 7958888
-46.752113 -29.509125 -183.19058 7564130
-38.637302 -29.387783 -187.53244 9143417
-37.738693 -29.386995 -187.71857 11181972
-36.614223 -29.385994 -187.94583 9208958
-35.766953 -29.186224 -188.39641 8419697
-34.839699 -29.16564 -188.4395 8485744
-34.154118 -28.917137 -188.5192 9209467
-35.615166 -28.520407 -188.82031 10262924
-34.916443 -28.262316 -188.84122 9407615
-33.964668 -28.223515 -188.7545 7499106
-34.743458 -27.338356 -189.1631 11315868
-34.028564 -27.310251 -189.0976 10262412
-33.161793 -27.200319 -189.04614 8815227
-34.007763 -26.468237 -189.40546 10328463
-33.065868 -26.279806 -189.37492 8289140
-32.441868 -26.104145 -189.3734 8420726
-33.098511 -25.209095 -189.77266 7960432
-32.090549 -25.116222 -189.69991 8814970
-32.256458 -24.106087 -190.08946 10985110
-31.248898 -23.94994 -190.04004 9406081
-32.147987 -23.334099 -190.36217 8090736
-31.209629 -23.073469 -190.35866 8879995
-30.258186 -23.043695 -190.26863 9735046
-31.253597 -22.382528 -190.61769 9735046
-30.315392 -22.123299 -190.61359 9077627
-29.378361 -21.86503 -190.60927 9734788
-30.365379 -21.316061 -190.91631 8485491
-29.327816 -21.124786 -190.8768 8420465
-29.475677 -20.249653 -191.21504 10591124
-28.36961 -20.143162 -191.13704 9932934
-29.278812 -19.548935 -191.45239 10591124
-28.485126 -19.250259 -191.47841 11379609
-27.626076 -19.275198 -191.3781 7563619
-28.393078 -18.365492 -191.79472 10260871
-27.44046 -18.342878 -191.70207 8879477
-26.739994 -18.094526 -191.71936 9340027
-28.194553 -17.662813 -192.0327 11181972
-27.452488 -17.273233 -192.09763 9340027
-26.552792 -17.160345 -192.04384 9800580
-25.864162 -16.680359 -192.1478 10261132
-27.319492 -16.244658 -192.46802 9340027
-26.541901 -16.077982 -192.51311 9603202
-25.677647 -15.985595 -192.49194 10261132
-24.988369 -15.746236 -192.60229 10261132
-25.750435 -15.306344 -193.01926 9340030
-24.829014 -15.066191 -193.16765 9471609
-23.968971 -14.978113 -193.18565 9931904
-23.200226 -14.8186 -193.30177 11379356
-22.164921 -14.411763 -194.47914 9735296
-20.976696 -14.395256 -194.4014 9669503
-10.955368 -14.198153 -199.52356 11904668
-10.237404 -13.948829 -199.53917 10260871
-9.2741165 -13.937646 -199.44106 10128771
-10.01136 -13.223625 -199.78212 9208435
-9.2928543 -12.974476 -199.79759 9208435
-8.4108582 -12.884836 -199.73703 9735037
-9.229538 -12.088285 -200.11713 9208435
-8.2008667 -12.045854 -200.02359 9405816
-7.6270833 -11.750392 -200.07152 10261132
-8.2813873 -11.110788 -200.37634 10064521
-7.3976979 -11.022086 -200.31526 8814197
-6.6777349 -10.773659 -200.33034 8682867
-7.1675954 -10.292529 -200.55939 9208955
-6.6847997 -10.28866 -200.50969 8682867
-104.99456 -43.947784 -159.09001 6971734
-104.16081 -43.918079 -159.48866 5919050
-103.11993 -43.882355 -159.98575 7696487
-102.08037 -43.848015 -160.48167 9209726
-101.20432 -44.048576 -160.80632 9209726
-100.37487 -44.02306 -161.20122 9405046
-99.546143 -43.99847 -161.59541 9207667
-98.60276 -43.926105 -162.06224 7958891
-97.662277 -44.059887 -162.44385 7564651
-96.607834 -44.146244 -162.89763 7893356
-95.782539 -44.125782 -163.28857 10854036
-94.957733 -44.106361 -163.67891 10195850
-94.133453 -44.087795 -164.06853 8089963
-93.10392 -44.066025 -164.55476 9208435
-92.074997 -44.045578 -165.04007 8418927
-91.252335 -44.030354 -165.42766 8813683
-90.335838 -44.215385 -165.64397 9011577
-89.5252 -44.207119 -166.04921 9669509
-88.46669 -44.175701 -166.4705 10392717
-87.37323 -44.127663 -166.82283 10589582
-86.584641 -44.018112 -167.10321 10655376
-85.664909 -43.828766 -167.45496 7038298
-85.010162 -43.801609 -167.66205 8090730
-115.82407 -43.02179 -154.44563 9471612
-114.97308 -42.980972 -154.85678 9405819
-114.12353 -42.941059 -155.26689 9405819
-113.27523 -42.902245 -155.67596 11051928
-112.37759 -43.0937 -156.01433 8090987
-111.53242 -43.056568 -156.42125 8617075
-110.57191 -42.969334 -156.90201 8616563
-109.54116 -43.018963 -157.3597 8089706
-108.48605 -43.391315 -157.69753 8352877
-107.64702 -43.358208 -158.10001 9405306
-106.80906 -43.326038 -158.50156 9208695
-105.97211 -43.294846 -158.90228 10130055
-105.13618 -43.264606 -159.30208 7958886
-104.09269 -43.228184 -159.80072 7695972
-103.05051 -43.193172 -160.2981 9209211
-102.21782 -43.166199 -160.69513 9208956
-101.38597 -43.14024 -161.09132 9208956
-100.55491 -43.115173 -161.48689 8945267
-99.724609 -43.091057 -161.88162 9208955
-98.687782 -43.06229 -162.37401 7894381
-97.584488 -43.169746 -162.84187 7565419
-96.780876 -43.240513 -163.18564 8946297
-95.953964 -43.220493 -163.57715 9932418
-95.127686 -43.201363 -163.96802 8748402
-94.157608 -43.123356 -164.44949 9471607
-93.13797 -43.431564 -164.79691 9471608
-92.198959 -43.368084 -165.25923 8945269
-91.376564 -43.353699 -165.6498 8813683
-90.555267 -43.340611 -166.04111 8945271
-89.728012 -43.325371 -166.42033 9142651
-88.636635 -43.279854 -166.78587 8023913
-87.538597 -43.231544 -167.13425 8879478
-86.661812 -43.194057 -167.41199 9866117
-85.786308 -43.157543 -167.68895 7038298
-84.912148 -43.121979 -167.96512 8616818
-83.916306 -43.037628 -168.29739 9406334
-82.771057 -42.81398 -168.73053 9472895
-82.118111 -42.789867 -168.93587 10263180
-119.57767 -41.972134 -152.98878 9537665
-118.60133 -42.225864 -153.48166 8287854
-117.76559 -42.277428 -153.8481 9011831
-116.83543 -42.371815 -154.24098 11774621
-115.98168 -42.330601 -154.65355 10326664
-115.12937 -42.290379 -155.06509 11049873
-114.27854 -42.251118 -155.47554 9865856
-113.42903 -42.212799 -155.88493 9077882
-112.58085 -42.175484 -156.29338 9077882
-111.52251 -42.130184 -156.80246 8353646
-110.466 -42.086292 -157.31009 10590094
-109.6222 -42.052254 -157.71515 9668993
-108.73061 -42.24799 -158.04897 9142905
-107.88951 -42.215691 -158.45204 9866628
-107.0495 -42.184299 -158.85423 8748404
-106.1628 -42.382298 -159.18483 8814453
-105.20917 -42.302711 -159.65938 9209212
-104.18672 -42.359722 -160.1102 9735812
-103.23556 -42.282612 -160.58252 10919574
-102.4013 -42.256172 -160.98006 10195594
-101.56784 -42.230682 -161.37682 9669250
-100.73519 -42.206108 -161.77289 9340285
-99.787529 -42.133568 -162.24173 9208955
-98.772614 -42.19746 -162.68628 9275519
-97.881462 -42.204723 -163.09648 9341313
-96.954048 -42.333813 -163.47398 10327434
-96.125641 -42.31414 -163.86604 9735039
-95.297813 -42.295425 -164.25745 8288108
-94.264893 -42.273781 -164.74779 9406071
-93.148628 -42.705917 -165.09021 9932416
-92.325485 -42.691154 -165.48312 9537403
-91.502724 -42.677349 -165.87541 8813683
-90.680328 -42.664387 -166.26729 8089962
-89.636726 -42.64201 -166.72676 8418927
-88.542343 -42.596519 -167.08932 7037274
-87.704224 -42.334106 -167.44606 7629411
-86.825653 -42.297314 -167.72406 8287341
-85.948372 -42.261501 -168.00122 7038298
-85.072464 -42.226585 -168.27771 8616818
-83.979362 -42.184368 -168.62216 9867398
-82.888062 -42.143482 -168.96552 9736323
-82.016342 -42.111862 -169.23935 10263180
-81.145813 -42.081173 -169.51254 12038567
-80.36129 -41.979481 -169.78844 8748917
-79.228287 -41.79258 -170.20317 8813685
-121.40366 -40.870152 -152.13228 10458246
-120.60147 -41.096085 -152.62639 9997695
-119.66557 -41.089039 -153.32631 9537665
-118.87103 -41.068733 -153.82703 10458509
-117.93665 -41.163586 -154.22169 10853522
-117.10069 -41.217125 -154.58755 12366245
-116.2665 -41.271324 -154.95221 9866372
-115.33807 -41.368515 -155.34312 10787215
-114.4855 -41.330048 -155.75403 7564642
-113.63427 -41.292534 -156.16394 7959142
-112.57217 -41.24699 -156.67487 7959142
-111.512 -41.202785 -157.18437 9998470
-110.66536 -41.168545 -157.59084 11379865
-109.81987 -41.135231 -157.99635 9866371
-108.92654 -41.332039 -158.33047 8090218
-108.08379 -41.300426 -158.7341 9143419
-107.24214 -41.269653 -159.13676 9340286
-106.35373 -41.468464 -159.46783 7564643
-105.25774 -41.660744 -159.89783 9603970
-104.21091 -41.625771 -160.39735 9735812
-103.3745 -41.598854 -160.79608 12432812
-102.53901 -41.572788 -161.19408 11182745
-101.91295 -41.553905 -161.49205 11182745
-86.070091 -41.588581 -168.23578 7038298
-85.000351 -41.396317 -168.63365 8419695
-84.042183 -41.329979 -168.94745 9735811
-83.044205 -41.248352 -169.27922 9999751
-82.170784 -41.217354 -169.55339 8682867
-81.298515 -41.187244 -169.82677 9077882
-80.427353 -41.158077 -170.09953 8090987
-79.339951 -41.122921 -170.43942 8682098
-78.254013 -41.089069 -170.77835 8484207
-77.470711 -40.990829 -171.05247 8484717
-76.555542 -40.81496 -171.39748 9931646
-75.905876 -40.796749 -171.59943 10654857
-122.45726 -40.10323 -151.69785 9011315
-121.56409 -40.172314 -152.33128 10524039
-120.6265 -40.16433 -153.03288 11445141
-119.87641 -40.158985 -153.59367 9735302
-119.03312 -40.373428 -154.03459 11905953
-118.17239 -40.332207 -154.45035 12498088
-117.31322 -40.291988 -154.86514 9011579
-116.1361 -40.705227 -155.24286 9011579
-115.49479 -40.67625 -155.55193 8682867
-114.64089 -40.638432 -155.9632 8682867
-113.78837 -40.601463 -156.37346 8551280
-83.161514 -40.57608 -169.51483 9209467
-82.286812 -40.545509 -169.78918 9209467
-81.451515 -40.291874 -170.14156 10064777
-80.360596 -40.256336 -170.48267 9735812
-79.271278 -40.222027 -170.8228 9734015
-78.400978 -40.195667 -171.09412 8484207
-77.531662 -40.17012 -171.36479 9207927
-76.663284 -40.145527 -171.63487 9931646
-75.579147 -40.115959 -171.97151 9734525
-74.496246 -40.087715 -172.30727 10457479
-73.665314 -39.843243 -172.65466 10457479
-73.016418 -39.827679 -172.85526 9734270
-124.08768 -39.031128 -150.97324 11379348
-123.46925 -39.257759 -151.33023 9669503
-122.52975 -39.247711 -152.03423 9800831
-121.59042 -39.238846 -152.73756 10721674
-120.88395 -39.310951 -153.23062 10326916
-80.037178 -39.570667 -170.85561 10853012
-79.382904 -39.550659 -171.05977 10720651
-78.548157 -39.300789 -171.41042 8418671
-77.677185 -39.275814 -171.68137 9602687
-76.807106 -39.251698 -171.95174 9997443
-75.720863 -39.222729 -172.2888 9340025
-74.635849 -39.195053 -172.62498 10128771
-73.768799 -39.173885 -172.8932 9734527
-72.902519 -39.153568 -173.1609 7827558
-72.037033 -39.134125 -173.42802 8616560
-71.080696 -39.001835 -173.76775 9668992
-70.124809 -38.870502 -174.10687 9143419
-125.1489 -38.263931 -150.53333 10261132
-124.43998 -38.333054 -151.02956 10458507
-123.49856 -38.322189 -151.73529 10655883
-122.55742 -38.312511 -152.44032 10458503
-121.93906 -38.540791 -152.79643 9208435
-76.9151 -38.580341 -172.18976 9668995
-75.736206 -38.437183 -172.60054 9142651
-74.775642 -38.300896 -172.94316 9142907
-73.906914 -38.280174 -173.21173 8089963
-73.038994 -38.260303 -173.47972 8484979
-72.171837 -38.241211 -173.74719 10523529
-71.088234 -38.218281 -174.07915 9932163
-70.004601 -38.195976 -174.4079 9208954
-69.138123 -38.178871 -174.66924 9998472
-68.354561 -38.089367 -174.93422 8090987
-67.437325 -37.923626 -175.26804 8090987
-127.65907 -36.734047 -149.36272 9405822
-127.0359 -36.959827 -149.72359 10129801
-126.1688 -37.417385 -150.16026 11050902
-125.41392 -37.407192 -150.72694 14208450
-124.47063 -37.395615 -151.43443 10853524
-123.57234 -37.463829 -152.07204 8946296
-74.010696 -37.608917 -173.45097 8089963
-73.141502 -37.58934 -173.71915 7761515
-72.304298 -37.345505 -174.06081 10654859
-71.217117 -37.322231 -174.38939 9866370
-70.130997 -37.300133 -174.71732 8288108
-69.262886 -37.283405 -174.97897 10064521
-68.395386 -37.267471 -175.24019 7893615
-67.311913 -37.24873 -175.56599 7367013
-66.229218 -37.231106 -175.8911 9603714
-65.393143 -36.994305 -176.22855 9537665
-64.744003 -36.985035 -176.42297 10261387
-128.64229 -35.807137 -149.05376 9209214
-128.01732 -36.03297 -149.41592 9405822
-127.18836 -36.161793 -149.9742 8945015
-126.31886 -36.185024 -150.6109 11840161
-125.40127 -36.388905 -151.20096 14208450
-124.63502 -36.693169 -151.63249 10261132
-71.095901 -36.644588 -174.68719 9537918
-70.174492 -36.476292 -175.02324 7827814
-69.387886 -36.38649 -175.28923 7893610
-68.518776 -36.37088 -175.5508 7893615
-67.514084 -36.398811 -175.83537 8485492
-66.484886 -36.292564 -176.17908 8945272
-65.481598 -36.322529 -176.46248 9669251
-64.614922 -36.310463 -176.72195 9998215
-63.748734 -36.299164 -176.98096 9735299
-62.694752 -36.062305 -177.38245 8813939
-61.828976 -36.052773 -177.64061 8813939
-129.71779 -35.037743 -148.60435 9209214
-129.0024 -35.104691 -149.10637 10525072
-128.24312 -35.092846 -149.67693 9866886
-127.2945 -35.079094 -150.38924 10327436
-126.48011 -35.303913 -150.89279 10261132
-68.39399 -35.693844 -175.84952 7038307
-67.741814 -35.682964 -176.04536 9143422
-66.685646 -35.441406 -176.44936 10261388
-65.629189 -35.200981 -176.85298 10524560
-64.760597 -35.189251 -177.11287 9801092
-63.892403 -35.17823 -177.37233 10064008
-62.807777 -35.165638 -177.69611 9931649
-61.723717 -35.154099 -178.01935 10457736
-60.856773 -35.14576 -178.27742 9799807
-59.99015 -35.138241 -178.5351 9010550
-59.340309 -35.133022 -178.72816 10260100
-129.02075 -34.238243 -149.4881 8814970
-128.25096 -34.26609 -150.04837 8814197
-64.659859 -34.287971 -177.49123 9209467
-64.007561 -34.280003 -177.68605 9735299
-62.949318 -34.042839 -178.08893 8353645
-61.862782 -34.031628 -178.4127 9405819
-60.993904 -34.023514 -178.67125 9602429
-60.098289 -34.240692 -178.85059 9010550
-59.230362 -34.233955 -179.10837 9471358
-58.206459 -34.170876 -179.43373 8879995
-57.087051 -33.995998 -179.83055 7762025
-56.244625 -33.767349 -180.16666 8682867
-55.593575 -33.764717 -180.35907 9406590
-61.728817 -33.354904 -178.71388 10063235
-61.076328 -33.348972 -178.90802 9010550
-60.233734 -33.11665 -179.24562 7103841
-59.363846 -33.110142 -179.50391 7827308
-58.27681 -33.103031 -179.82625 8879995
-57.189976 -33.096947 -180.1481 8353904
-56.320694 -33.09293 -180.40521 8682867
-55.451504 -33.089615 -180.66203 8748403
-54.582317 -33.086983 -180.91861 13682362
-53.93573 -32.849155 -181.12782 11182486
-59.226334 -32.43314 -179.80627 8682867
-58.355591 -32.427631 -180.06436 9142910
-57.429016 -32.15189 -180.44347 8419951
-56.422321 -32.192322 -180.72379 8683123
-55.551537 -32.189083 -180.98106 10985365
-54.680832 -32.186516 -181.23804 13024433
-53.770679 -32.161411 -181.36319 12432296
-56.498604 -31.515854 -180.96309 8092011
-55.626705 -31.512617 -181.2207 11182228
-54.78862 -31.289419 -181.58788 9734529
-53.642303 -31.255117 -181.72174 10129798
-52.713593 -30.982038 -181.78409 5920074
-53.779411 -30.614182 -182.17859 13023917
-52.754818 -30.385399 -182.24451 7235677
-51.75148 -30.21612 -182.26726 6840919
-50.981506 -30.032013 -182.32619 9340283
-50.973854 -29.674618 -183.13159 9405823
-50.032234 -29.636898 -183.14723 9340283
-49.327316 -29.608957 -183.15804 7564643
-43.786236 -29.392166 -186.37605 7563619
-42.893196 -29.391422 -186.58733 8156011
-41.775291 -29.390484 -186.84525 8813939
-40.655876 -29.38953 -187.09677 8813939
-39.759388 -29.38876 -187.29306 8353902
-39.086388 -29.388176 -187.43755 7564643
-37.974022 -29.080753 -188.86423 9734529
-37.254669 -29.049171 -188.79961 9734529
-36.536613 -29.01799 -188.73495 8089963
-37.221405 -28.435326 -189.02208 9142649
-36.208908 -28.270061 -188.97551 8486001
-37.119724 -27.664415 -189.2952 8089963
-36.263466 -27.322495 -189.33022 8814966
-35.476742 -27.137646 -189.31485 11315612
-35.248402 -26.151144 -189.65384 11315612
-34.209602 -25.862949 -189.6497 9604996
-35.370358 -25.29151 -189.9834 10262924
-34.428406 -25.026474 -189.98097 8157553
-33.487682 -24.762606 -189.97839 7565675
-34.25341 -24.097097 -190.30464 9538435
-33.295998 -24.064283 -190.21512 7565161
-32.594776 -23.810137 -190.23434 7565675
-33.499329 -23.193365 -190.55742 9142907
-32.48666 -23.037186 -190.50743 7695976
-33.33638 -22.29298 -190.87166 9340286
-32.463081 -22.188505 -190.81749 8089963
-31.591434 -22.084677 -190.76321 8353391
-32.439228 -21.338007 -191.12813 9011320
-31.566399 -21.235027 -191.07352 9208699
-30.864037 -20.983128 -191.09186 9011320
-32.330288 -20.560823 -191.40302 9011320
-31.626022 -20.308517 -191.42134 9932678
-30.668797 -20.282051 -191.32961 8814714
-31.430843 -19.605642 -191.65971 10854036
-30.726757 -19.354242 -191.67775 8354165
-29.85434 -19.254129 -191.62215 9998987
-30.699963 -18.499626 -191.98991 7038307
-29.840488 -18.167398 -192.02119 8814715
-29.122753 -18.15011 -191.95149 8946043
-29.67115 -16.996218 -192.43494 9143166
-28.896278 -17.118837 -192.30762 8682098
-28.079781 -16.88299 -192.30794 7563619
-28.993423 -16.279554 -192.62724 8879478
-28.062271 -16.032757 -192.71033 9602943
-27.132404 -15.787319 -192.79919 9340028
-27.902 -15.34699 -193.21722 9734529
-26.959118 -15.215736 -193.23003 9142649
-26.049591 -14.861922 -193.47563 9537150
-24.549 -14.446115 -194.6312 9471355
-23.355709 -14.428771 -194.55573 9471868
-12.312218 -14.022267 -199.73228 10720907
-11.28434 -13.881067 -199.67514 9734784
-11.46624 -12.998584 -200.01933 10260871
-10.339996 -12.90544 -199.9341 9537403
-10.396736 -12.140636 -200.22173 9208438
-9.5579605 -11.768968 -200.26945 10064003
-9.0839081 -11.279902 -200.39922 11906725
-97.663033 -41.895126 -163.32358 9341313
-97.040749 -41.879948 -163.61833 9867141
-96.211571 -41.860481 -164.01064 10458505
-95.38385 -41.842316 -164.40388 9735039
-94.351677 -41.821632 -164.89746 9406071
-93.277321 -42.028263 -165.31519 10261639
-92.45298 -42.013756 -165.70856 9537403
-91.629044 -42.000114 -166.10135 8616305
-90.805473 -41.987377 -166.49365 8353134
-89.762848 -41.966473 -166.95816 8747893
-88.626091 -42.147079 -167.24516 7037274
-109.02462 -40.873535 -158.47141 8090218
-108.18102 -40.84222 -158.87532 9143419
-107.33858 -40.811802 -159.27829 9340286
-106.15818 -40.88578 -159.79543 8879991
-105.18974 -40.968235 -160.21088 9735812
-104.40552 -41.019215 -160.55377 9735812
-103.46727 -41.142597 -160.93858 15459802
-102.63091 -41.116833 -161.33682 14144198
-101.69562 -41.241817 -161.71962 10524559
-100.91574 -41.295776 -162.05925 9735043
-99.874107 -41.266998 -162.55389 10063753
-98.833534 -41.239502 -163.0475 8880763
-98.0019 -41.218559 -163.44154 8618104
-97.1717 -41.198822 -163.83633 9604227
-96.343117 -41.180431 -164.23213 10064004
-95.400291 -41.115337 -164.70242 10458504
-94.390602 -41.18644 -165.14682 10064003
-93.449028 -41.123665 -165.61557 9537657
-92.623131 -41.109451 -166.00957 10261124
-91.797653 -41.096092 -166.40298 8747890
-90.972519 -41.083595 -166.79593 8484719
-89.931122 -41.064499 -167.26691 9076857
-88.793839 -41.247059 -167.55746 8879735
-87.911583 -41.210243 -167.83656 8682099
-87.030792 -41.174339 -168.11487 7629411
-86.151291 -41.139492 -168.39238 9143163
-85.273186 -41.105419 -168.6691 8616818
-119.14131 -39.909328 -154.17311 9735302
-118.27975 -39.86861 -154.58914 11445402
-117.41964 -39.828846 -155.00406 9011579
-116.50832 -40.021297 -155.34825 8024943
-115.53379 -39.931297 -155.83669 7762021
-114.53123 -40.167606 -156.20546 8682867
-113.35999 -40.273003 -156.70561 7498592
-112.56293 -40.317436 -157.05707 8485229
-111.71335 -40.283016 -157.46498 9208953
-110.865 -40.249451 -157.87198 9340540
-110.01786 -40.216782 -158.27798 8682867
-109.1719 -40.185036 -158.68309 8616818
-108.32705 -40.154221 -159.08728 9143419
-107.27264 -40.116959 -159.59129 8419440
-106.21977 -40.080994 -160.09404 8879991
-105.37865 -40.053276 -160.49529 9735300
-104.4685 -40.162292 -160.87296 9735812
-103.65292 -40.228973 -161.22395 11709346
-102.81503 -40.203773 -161.62268 11511710
-102.00161 -40.271942 -161.97209 10787731
-100.88775 -40.378437 -162.44521 9734787
-99.844421 -40.350433 -162.94054 9208955
-99.011589 -40.329514 -163.33755 9143419
-98.180504 -40.309799 -163.73573 9275519
-97.350288 -40.291145 -164.13353 9538434
-96.52066 -40.273312 -164.53085 10392969
-95.484398 -40.252289 -165.02646 11905694
-94.448898 -40.232529 -165.52127 9734015
-93.621017 -40.217693 -165.91643 8089963
-92.79361 -40.203754 -166.31099 9405560
-91.96656 -40.190666 -166.70508 10129286
-91.007591 -40.221985 -167.14235 8747635
-89.800613 -40.228676 -167.66348 9603713
-89.003868 -40.120136 -167.94839 9735043
-88.119392 -40.084267 -168.2278 9735043
-87.236351 -40.049274 -168.50639 8814197
-86.313957 -40.24015 -168.70584 8813680
-85.214333 -40.19862 -169.05194 8616558
-84.144653 -40.249832 -169.35175 9406590
-83.239777 -40.127434 -169.6721 9209467
-82.364197 -40.097214 -169.94655 9209467
-120.70424 -38.998348 -153.50702 10984590
-120.08762 -39.227497 -153.86142 10787731
-119.30373 -39.212524 -154.38115 9143423
-118.44077 -39.172451 -154.79745 8288115
-117.5794 -39.133282 -155.21275 9011579
-116.60128 -39.043079 -155.70291 6906719
-115.55065 -39.091164 -156.17049 6906712
-114.5246 -39.234421 -156.58794 10459278
-113.67022 -39.199116 -156.99837 10392710
-112.76627 -39.395493 -157.33763 9208694
-111.915 -39.361748 -157.74606 8945780
-111.06493 -39.328949 -158.15347 8682867
-110.21613 -39.296978 -158.56003 8682867
-109.36848 -39.265911 -158.96561 7563618
-108.31067 -39.228333 -159.47136 7234909
-107.25439 -39.192062 -159.97581 9077368
-106.41063 -39.164066 -160.37837 9603454
-105.5679 -39.136917 -160.78009 9603712
-104.72616 -39.11063 -161.18106 9736067
-103.88535 -39.085209 -161.58119 10130825
-103.04549 -39.060688 -161.98065 9012606
-101.92867 -39.374268 -162.37144 8552312
-100.97701 -39.509544 -162.76001 10195339
-100.02699 -39.439659 -163.2348 10261132
-99.193855 -39.41967 -163.63457 9735043
-98.316185 -39.628059 -163.95915 9735555
-97.484772 -39.6096 -164.35753 9735555
-96.446327 -39.587879 -164.85446 11314071
-95.40873 -39.567341 -165.35057 13550517
-94.786537 -39.555622 -165.64781 9142392
-88.023026 -39.398796 -168.53264 9735043
-87.359863 -39.373085 -168.7417 9471871
-86.430435 -39.186474 -169.09528 9341307
-85.415237 -39.073624 -169.44479 9011571
-84.24704 -39.167854 -169.75684 8814453
-83.396553 -39.228889 -169.98703 10130313
-82.519203 -39.199268 -170.26175 9801348
-81.643036 -39.170544 -170.53577 10589840
-80.606514 -39.318127 -170.78683 10524303
-79.457382 -39.102604 -171.21783 10392461
-121.75971 -38.227394 -153.07298 10063744
-121.05183 -38.299797 -153.56696 10984590
-120.2991 -38.294678 -154.12959 10655885
-119.51942 -38.281784 -154.65727 8090737
-118.53704 -38.190762 -155.15198 7433065
-117.48034 -38.237999 -155.62263 7169635
-116.50088 -38.148888 -156.11299 6643030
-115.6415 -38.112816 -156.52614 6775638
-114.78358 -38.077595 -156.93819 8354670
-113.98129 -38.123177 -157.29161 9866627
-112.96993 -38.472046 -157.61867 10327175
-112.11692 -38.43903 -158.02756 9274746
-111.26522 -38.40696 -158.43549 9077624
-110.46899 -38.45507 -158.78506 10458505
-109.30419 -38.568165 -159.2791 6906456
-108.245 -38.531429 -159.78513 7761509
-107.39896 -38.50296 -160.18898 9735296
-106.76508 -38.482281 -160.49118 9209467
-84.433784 -38.358913 -170.02664 8682867
-83.50634 -38.176445 -170.37794 10722450
-82.71331 -38.074997 -170.65639 10919829
-81.834969 -38.047001 -170.93074 10458510
-80.700829 -38.237888 -171.19365 9603457
-79.606651 -38.2052 -171.53459 9274237
-78.732506 -38.180031 -171.80656 8089963
-77.888443 -38.246567 -172.03258 8682100
-76.987183 -38.132286 -172.34859 9142651
-76.115936 -38.109619 -172.61871 9142651
-123.39319 -37.14933 -152.3488 9932675
-122.77328 -37.377762 -152.70613 9538175
-122.0191 -37.371159 -153.27057 10524039
-121.26502 -37.365368 -153.83458 9340279
-120.51098 -37.360371 -154.39827 8814455
-119.46442 -37.572956 -154.96849 8090995
-118.38499 -37.525967 -155.49278 7300962
-81.730598 -37.364952 -171.23671 10129545
-80.852402 -37.338497 -171.51045 8682867
-79.793526 -37.081505 -171.93117 9208187
-78.917244 -37.056973 -172.20351 9471359
-77.976379 -37.166885 -172.44109 9405823
-77.131554 -37.234932 -172.66678 9142651
-76.04052 -37.207352 -173.0047 9866629
-74.950554 -37.180851 -173.34119 9142907
-74.11319 -36.936028 -173.68718 8353135
-73.207947 -37.140575 -173.87436 7761515
-125.23308 -35.759666 -151.6132 10261132
-124.53989 -36.128052 -151.96118 9669505
-123.79963 -36.214298 -152.47292 7368037
-123.04362 -36.207096 -153.03899 9077369
-122.28778 -36.200687 -153.60463 9735811
-121.52372 -36.50787 -154.03323 9735812
-78.808998 -36.376076 -172.51019 8089963
-78.151764 -36.358707 -172.71404 8089963
-77.226784 -36.184177 -173.06017 11379356
-76.216576 -36.083401 -173.39885 8418928
-75.121895 -36.056629 -173.73106 8616307
-74.247208 -36.036118 -173.99615 8616307
-73.340256 -36.241409 -174.18343 7958893
-72.467598 -36.222347 -174.44733 10391944
-71.45845 -36.072586 -174.80191 9603455
-70.404053 -35.880104 -175.18642 9537918
-69.481773 -35.712883 -175.52226 8814715
-68.828941 -35.701256 -175.71864 8814715
-126.30169 -34.987282 -151.1702 10327436
-125.58807 -35.057243 -151.66948 9472383
-124.83006 -35.048744 -152.23766 8090987
-124.07223 -35.04105 -152.80528 9471871
-123.3596 -35.112946 -153.30299 10524047
-75.881226 -35.39595 -173.76347 8089963
-75.223709 -35.380424 -173.96274 8089963
-74.297157 -35.208271 -174.30177 8222064
-73.505882 -35.115475 -174.5703 7761515
-72.63121 -35.09697 -174.83458 10654859
-71.538963 -35.074966 -175.16423 12037794
-70.447861 -35.054111 -175.49309 13287604
-69.575714 -35.038284 -175.75563 10591124
-68.704269 -35.023243 -176.01761 9670023
-67.833427 -35.008938 -176.27919 8814200
-66.775711 -34.767437 -176.68362 10459023
-127.95535 -33.90715 -150.43221 7959144
-127.32891 -34.135033 -150.79449 7564386
-126.56902 -34.125313 -151.36458 9077625
-125.80936 -34.116348 -151.93413 8551281
-125.04996 -34.108101 -152.50314 8551281
-124.42577 -34.337719 -152.86296 8090987
-72.72953 -34.420589 -175.06743 8617335
-71.574104 -34.216839 -175.48595 10064006
-70.574944 -34.153 -175.80438 12038049
-69.701248 -34.137539 -176.06721 13222585
-68.828239 -34.122833 -176.32957 12762035
-67.95578 -34.108871 -176.59148 9143420
-66.86602 -34.092476 -176.91821 11314332
-65.777115 -34.07716 -177.24426 11643040
-64.988792 -33.991707 -177.50914 9538176
-64.065239 -33.830227 -177.84314 9472383
-127.49731 -33.427956 -150.99188 7235421
-126.71009 -33.260365 -151.65431 8156523
-126.07609 -33.253075 -152.12959 8354159
-70.451599 -33.47226 -176.10397 10064006
-69.79557 -33.460934 -176.30125 14077894
-68.869095 -33.294872 -176.63791 14077894
-68.0783 -33.207207 -176.9043 11511967
-66.986603 -33.191189 -177.23146 10722450
-65.895653 -33.176243 -177.558 10262155
-65.023514 -33.165104 -177.8187 10130825
-64.151833 -33.15472 -178.07896 9932934
-63.280525 -33.144981 -178.33893 8945784
-62.284573 -33.089703 -178.65309 9668994
-61.131355 -32.898754 -179.06606 9010550
-67.077148 -32.514214 -177.46677 11051415
-66.014481 -32.27367 -177.87227 10855060
-65.140747 -32.26281 -178.13332 10130825
-64.267464 -32.252674 -178.39403 9998471
-63.3946 -32.24316 -178.65427 9998217
-62.304043 -32.232368 -178.97908 9735044
-61.21402 -32.222538 -179.30334 8090987
-60.342293 -32.2155 -179.56235 8090987
-59.552353 -32.134499 -179.82591 8682867
-58.626041 -31.978033 -180.15878 8682867
-65.010132 -31.582441 -178.43495 8682867
-64.354294 -31.575014 -178.63063 9801093
-63.431461 -31.41674 -178.97977 9932424
-62.424282 -31.333017 -179.31819 9472385
-61.332718 -31.32369 -179.64444 9012089
-60.459709 -31.317001 -179.90498 8683124
-59.586952 -31.310965 -180.16502 8682867
-58.714226 -31.305573 -180.42461 8682867
-57.623634 -31.299809 -180.7485 8486256
-56.56781 -31.074097 -181.18063 8092011
-55.695206 -31.071106 -181.43936 11182228
-60.383461 -30.667297 -180.38689 9341054
-59.727615 -30.663118 -180.58295 8682867
-58.853294 -30.65793 -180.84393 8682867
-57.785816 -30.545511 -181.24799 8552049
-56.858963 -30.391775 -181.64389 8354926
-55.842587 -30.431005 -181.91087 9669504
-54.967625 -30.428684 -182.16983 8089963
-54.137566 -30.211443 -182.57776 9274235
-53.355938 -29.901983 -182.8847 6775126
-52.153492 -29.722555 -183.10983 7367263
-50.450676 -29.39747 -184.65459 10260617
-49.565727 -29.396791 -184.8979 10260871
-48.67955 -29.396099 -185.13708 10525071
-47.79245 -29.395403 -185.37195 9275004
-46.681702 -29.394524 -185.65936 12761775
-45.56945 -29.393625 -185.94044 11182998
-44.678467 -29.3929 -186.16046 8287598
-39.529167 -28.965807 -189.07161 9472125
-38.454433 -29.102009 -188.90742 9734529
-39.157806 -28.365461 -189.25325 10787727
-38.394833 -28.112762 -189.26537 9603199
-37.582573 -27.91391 -189.2524 8089963
-38.376614 -27.024675 -189.66408 9208700
-37.412849 -26.985258 -189.57637 9471613
-36.708992 -26.726511 -189.59689 9734529
-38.189285 -26.323812 -189.90227 8682867
-37.483391 -26.06461 -189.92281 9011576
-36.520462 -26.02714 -189.83449 9867142
-37.312592 -25.132654 -190.24789 8682867
-36.589333 -25.105591 -190.18114 9275521
-35.712841 -24.996195 -190.12842 9735814
-36.572144 -24.256004 -190.49217 8618105
-35.694435 -24.147423 -190.43898 11774366
-34.973083 -24.122108 -190.37178 10525071
-35.761753 -23.222622 -190.78667 11774366
-34.798603 -23.190102 -190.69647 9866629
-34.093884 -22.935148 -190.71553 15723486
-35.570957 -22.519552 -191.02527 9735814
-34.864254 -22.2642 -191.0444 10261644
-33.987228 -22.158934 -190.99005 13880770
-34.688683 -21.328491 -191.37033 10261644
-33.965866 -21.306398 -191.30174 12959669
-33.089344 -21.202625 -191.24699 8024170
-33.944229 -20.452166 -191.61415 12433325
-32.925381 -20.298668 -191.5627 10722194
-33.090202 -19.277332 -191.95668 9603970
-32.078506 -19.156843 -191.89378 8945784
-31.905396 -18.21842 -192.22133 7432546
-31.061642 -17.84709 -192.26875 7564393
-32.062046 -17.28602 -192.58167 7366752
-31.113163 -17.029287 -192.57567 8090736
-30.151131 -17.007126 -192.48183 9143166
-31.157238 -16.326838 -192.83929 7038307
-30.221508 -16.077835 -192.91406 9537666
-29.047329 -15.825486 -192.97398 10524044
-29.268421 -15.190507 -193.48169 9076600
-28.258034 -15.049499 -193.48816 8616306
-27.479656 -14.884535 -193.56012 8089963
-26.463627 -14.47494 -194.74965 10260358
-25.505424 -14.460377 -194.69084 9405564
-14.340988 -14.241439 -199.86682 10063488
-13.620583 -13.990561 -199.88275 10063488
-12.900299 -13.740133 -199.89842 10063488
-12.670673 -13.254357 -200.05296 9997696
-90.561661 -39.943348 -167.46927 8089963
-90.148338 -39.93787 -167.66571 9932678
-102.0451 -38.803535 -162.55467 9012606
-101.00025 -38.776657 -163.05685 8880507
-100.16531 -38.756142 -163.45778 10261132
-99.330978 -38.736427 -163.85797 9011834
-98.506378 -39.022724 -164.12483 10393486
-97.574478 -39.154804 -164.50693 9735555
-96.535133 -39.133266 -165.00429 11314071
-95.496521 -39.112995 -165.50072 13550517
-94.568153 -39.247829 -165.88008 8418927
-93.793304 -39.310318 -166.21776 8089963
-92.964317 -39.296627 -166.61296 8353131
-92.135735 -39.283787 -167.0076 9931906
-91.100471 -39.269012 -167.50018 9274237
-90.055244 -39.250881 -167.97261 10393229
-89.172218 -39.21685 -168.26175 10064009
-88.373619 -39.109375 -168.54424 10063753
-87.442352 -38.921837 -168.89877 9735043
-86.779236 -38.89682 -169.10741 9341307
-113.76441 -37.803352 -157.52216 9866627
-113.12287 -37.77853 -157.82971 10787727
-112.26861 -37.746105 -158.23895 9274747
-110.25181 -38.137516 -159.0148 10458505
-109.40253 -38.107613 -159.42078 6906456
-108.34232 -38.071232 -159.92709 9011320
-107.49545 -38.043163 -160.33115 9472381
-106.54733 -38.166855 -160.72038 10458504
-105.75742 -38.21912 -161.0654 9472124
-104.91424 -38.193474 -161.46709 9406846
-104.07309 -38.169106 -161.86972 10130825
-103.02428 -38.14032 -162.37404 8683898
-101.97699 -38.11285 -162.87767 9670278
-101.14005 -38.091812 -163.27971 9340801
-100.30382 -38.071648 -163.68105 10261132
-99.4683 -38.052261 -164.08171 8551540
-98.564583 -38.169594 -164.45683 10130313
-97.677788 -38.176945 -164.87036 10853779
-96.649696 -38.278774 -165.31047 10656142
-95.67234 -38.202942 -165.80151 9735297
-94.840439 -38.188004 -166.19862 9471356
-94.033386 -38.265545 -166.54509 10457736
-93.135307 -38.388031 -166.91541 10918288
-92.189056 -38.328274 -167.3851 9537147
-91.176605 -38.405285 -167.82828 9800835
-90.223183 -38.344292 -168.28171 10130057
-89.34082 -38.312019 -168.57562 9471871
-88.452812 -38.277645 -168.85547 9603457
-87.566132 -38.244072 -169.13461 9997959
-86.556389 -38.161461 -169.47035 9077364
-85.479866 -38.213844 -169.7717 8945521
-84.513298 -37.908066 -170.18439 8814451
-83.852272 -37.885853 -170.39142 9538176
-119.99818 -37.123344 -154.88808 8090995
-119.3585 -37.0979 -155.21544 8090995
-118.49238 -37.060223 -155.63229 7300962
-117.57453 -37.256104 -155.97816 7760997
-116.71195 -37.219997 -156.39276 7432032
-115.85087 -37.184727 -156.8064 7039322
-114.99116 -37.150307 -157.21893 9538944
-114.1329 -37.116734 -157.63049 12762286
-113.276 -37.084026 -158.04103 9866627
-112.42043 -37.052158 -158.45061 9406077
-111.43888 -37.182972 -158.85257 9406332
-110.3848 -37.270351 -159.30574 10195335
-109.40966 -37.27161 -159.75732 9734788
-108.48838 -37.380207 -160.1403 9603458
-107.64025 -37.352589 -160.54472 9209467
-106.79356 -37.325916 -160.94882 9998211
-105.94914 -37.300526 -161.35396 9538175
-105.10667 -37.276287 -161.75984 9012088
-104.14864 -37.203636 -162.24046 9407104
-103.12101 -37.268471 -162.69595 8815227
-102.16521 -37.197971 -163.17468 10393486
-101.32664 -37.177429 -163.57727 9998217
-100.48877 -37.157684 -163.97917 9340801
-99.651642 -37.138744 -164.3804 8091503
-98.815193 -37.120609 -164.78098 10788244
-97.770569 -37.099125 -165.28078 10590864
-96.726768 -37.078819 -165.77966 8090987
-95.947304 -37.140739 -166.11981 8288109
-95.014915 -37.277046 -166.50041 10260358
-94.083794 -37.413914 -166.88014 9142392
-93.306587 -37.477913 -167.21832 9340026
-92.341721 -37.509441 -167.65831 9602940
-91.186089 -37.676292 -168.13092 10129798
-90.349396 -37.663342 -168.51385 9471871
-89.421448 -37.478382 -168.88722 9143162
-88.619957 -37.371944 -169.17018 8880503
-87.731476 -37.339111 -169.44952 9406591
-86.622978 -37.299358 -169.79761 9407358
-85.516388 -37.26083 -170.14464 9538943
-84.632668 -37.23093 -170.42137 9209723
-83.750175 -37.201931 -170.69743 9077625
-82.868919 -37.173702 -170.97275 10919829
-82.074928 -37.07349 -171.25096 10129545
-80.928337 -36.888145 -171.6691 8880246
-121.1541 -36.192638 -154.45229 7761766
-120.44813 -36.469788 -154.85135 8156530
-119.5211 -36.397816 -155.42467 8090995
-118.65362 -36.360893 -155.84187 6182735
-117.78771 -36.324745 -156.258 8353134
-116.92339 -36.289467 -156.6731 8682099
-116.06047 -36.255013 -157.08716 8289133
-115.1991 -36.22142 -157.50014 9538944
-114.33911 -36.188644 -157.91222 10591118
-113.4805 -36.15667 -158.32327 9866627
-112.40922 -36.117985 -158.83566 8682355
-111.33979 -36.080433 -159.34677 8880245
-110.48571 -36.051334 -159.75453 8682867
-109.56133 -36.160492 -160.13994 7498337
-108.73412 -36.227158 -160.4989 9800837
-107.88602 -36.200996 -160.9071 9735299
-106.99011 -36.406086 -161.24158 9472381
-106.14507 -36.381645 -161.64888 10196103
-105.18417 -36.308598 -162.13106 10130825
-104.15332 -36.373268 -162.5881 8880761
-103.14713 -36.531811 -162.99394 9012606
-102.30651 -36.510746 -163.39772 10393486
-101.46677 -36.490585 -163.80077 10261132
-100.62771 -36.471222 -164.20314 11051160
-99.998871 -36.457096 -164.50441 8682867
-87.855667 -36.659378 -169.6861 8617843
-86.654892 -36.503128 -170.10872 9735811
-85.677582 -36.355919 -170.46077 11380380
-84.792061 -36.326717 -170.73776 10524814
-83.907814 -36.298393 -171.0141 9734784
-83.024826 -36.270813 -171.28973 10655886
-82.14299 -36.244038 -171.56461 10393227
-81.042336 -36.211758 -171.9073 9012600
-79.943336 -36.180626 -172.24908 9471613
-79.150772 -36.083542 -172.52557 9011063
-78.225037 -35.908405 -172.87347 8089963
-77.567062 -35.89138 -173.07611 11379356
-122.98981 -34.796032 -153.7229 9471871
-122.28106 -35.072895 -154.12419 9209212
-121.43322 -35.322193 -154.6416 6971994
-120.61035 -35.25024 -155.28699 6577752
-119.79253 -35.228977 -155.77402 6446421
-118.94476 -35.28841 -156.14288 5196094
-118.0013 -35.391705 -156.53833 8024169
-117.13512 -35.357311 -156.95387 9603202
-116.27055 -35.323685 -157.36839 12696496
-115.40742 -35.290882 -157.78189 10788755
-114.49404 -35.491577 -158.12376 9670017
-113.41943 -35.452518 -158.63786 10459019
-112.3468 -35.414639 -159.15059 8353647
-111.49021 -35.385265 -159.5596 8682867
-84.690269 -35.640434 -171.04463 10786958
-84.026253 -35.619671 -171.25195 11313045
-83.180969 -35.366199 -171.60721 11904668
-82.297394 -35.340073 -171.8824 10262665
-81.194595 -35.308563 -172.22548 9670785
-80.093216 -35.278103 -172.56726 9603455
-79.212624 -35.254272 -172.83818 8946039
-78.332184 -35.230865 -173.1067 8617077
-77.452538 -35.208157 -173.37413 10261133
-76.449074 -35.137875 -173.69633 7893615
-75.291679 -34.929066 -174.11745 7959408
-74.634018 -34.91404 -174.3166 8419958
-124.12829 -33.981167 -153.24716 9011576
-123.25518 -34.138672 -153.82527 8222573
-122.39336 -34.084965 -154.49138 9077626
-121.63457 -34.080017 -155.0585 7761766
-121.01228 -34.311943 -155.41595 5919050
-81.750412 -34.642254 -172.32729 9210491
-81.087502 -34.62368 -172.53159 10657166
-80.153923 -34.445835 -172.87483 9077368
-79.356361 -34.34853 -173.14696 8682867
-78.473984 -34.325584 -173.4153 9735046
-77.592674 -34.303402 -173.68298 9143167
-76.492516 -34.276764 -174.01672 9406593
-75.3937 -34.251244 -174.34964 8880507
-74.515762 -34.231712 -174.61533 8222578
-73.638641 -34.212894 -174.88046 7564649
-72.795166 -33.96912 -175.22276 8617335
-72.1381 -33.956104 -175.42093 10064006
-125.89633 -32.935776 -152.40822 8090987
-125.1672 -33.117435 -152.868 10064521
-124.23255 -33.203175 -153.52457 10655633
-123.3691 -33.148735 -154.19214 8288109
-122.6543 -33.222157 -154.6908 9275006
-78.580551 -33.645546 -173.64708 10261133
-77.647835 -33.47084 -173.98891 8946044
-76.630867 -33.371017 -174.32649 9012093
-75.529991 -33.346088 -174.65973 8683128
-74.650406 -33.327049 -174.92577 9472642
-73.771645 -33.308739 -175.19118 9143678
-72.893715 -33.2911 -175.45615 9143678
-71.797493 -33.270149 -175.78648 8089963
-70.785881 -33.176231 -176.12022 8747892
-69.858429 -33.009426 -176.45747 12630448
-69.20211 -32.998642 -176.6546 14077894
-125.05501 -32.454128 -153.25421 10854036
-124.29343 -32.447334 -153.82422 9670787
-123.72237 -32.442638 -154.25143 8090730
-75.632362 -32.666191 -174.89273 7564651
-74.700615 -32.494812 -175.23299 9867399
-73.904922 -32.402863 -175.50249 9406849
-73.089172 -32.250458 -175.80127 9143678
-71.927078 -32.365219 -176.09851 8089963
-70.829887 -32.345829 -176.42859 8089963
-69.952995 -32.331169 -176.69209 10459279
-69.076683 -32.317127 -176.95512 13354171
-68.201057 -32.303841 -177.21771 13617343
-67.137604 -32.062275 -177.62383 11051415
-72.904198 -31.701389 -176.06815 10064006
-71.963249 -31.502827 -176.42397 9274235
-70.959717 -31.440605 -176.74649 10590608
-70.082054 -31.426672 -177.01265 9011833
-69.192497 -31.282274 -177.37076 9998984
-68.380447 -31.183475 -177.67599 11051415
-67.285065 -31.168926 -178.00742 11051415
-66.19046 -31.155302 -178.33806 9472895
-65.376144 -31.057716 -178.63531 8946039
-64.483208 -30.916019 -178.98253 9735557
-63.770851 -31.1229 -179.02533 9340801
-66.189949 -30.290878 -178.98509 9406846
-65.531502 -30.283604 -179.18396 9406846
-64.654037 -30.274466 -179.44852 10195850
-63.720627 -30.479982 -179.55728 8420470
-62.702286 -30.513729 -179.82924 8420469
-61.781334 -30.203295 -180.4131 10591121
-60.794506 -30.165159 -180.74306 10591121
-59.911934 -30.033787 -181.13072 8682867
-59.035889 -30.029226 -181.39566 12039082
-58.259029 -29.958651 -181.71829 13486270
-57.142406 -29.820696 -182.23253 8552305
-56.045963 -29.817568 -182.56221 10458762
-55.168663 -29.815626 -182.82423 8089963
-54.510277 -29.814447 -183.01996 8089963
-54.356148 -29.48402 -184.09889 8089963
-53.640453 -29.454573 -184.11336 7367263
-52.688244 -29.415689 -184.13145 8288365
-51.555222 -29.398308 -184.34402 7630184
-42.323765 -29.279085 -189.25276 9536894
-41.614498 -29.014662 -189.2749 9142135
-40.644592 -28.97016 -189.18834 9274747
-41.430271 -28.312223 -189.51392 8812912
-40.721382 -28.049196 -189.5356 9734788
-39.839314 -27.933603 -189.48463 9734788
-40.71088 -27.199759 -189.84723 9734788
-39.827538 -27.085032 -189.79581 10326924
-39.101227 -27.05464 -189.72992 10129545
-39.815552 -26.234991 -190.10757 10590095
-38.791424 -26.070118 -190.05962 9669250
-39.716209 -25.457256 -190.38335 11510938
-39.0065 -25.1973 -190.40384 10261131
-38.037563 -25.160124 -190.31471 9406078
-38.81876 -24.493185 -190.64314 10853012
-37.867264 -24.225592 -190.64073 9866373
-36.917103 -23.959162 -190.63805 8092019
-38.094414 -23.381044 -190.97585 10195339
-36.969582 -23.264133 -190.89954 9144191
-36.938915 -22.3787 -191.22237 9209470
-35.915394 -22.220779 -191.17189 10261900
-37.091724 -21.637302 -191.51152 9011579
-36.139248 -21.373598 -191.5076 9077628
-35.171505 -21.343403 -191.41608 7827819
-35.947865 -20.66729 -191.74733 9275263
-35.198528 -20.11907 -191.86993 9933451
-34.303638 -19.918154 -191.84914 8092019
-35.009125 -19.080404 -192.23273 9736329
-34.068707 -19.116869 -192.11958 8749691
-33.417488 -18.725239 -192.19479 5919050
-34.191345 -18.042475 -192.52859 8091247
-33.223194 -18.017717 -192.43498 6971994
-32.514099 -17.76576 -192.45267 7366752
-33.997219 -17.333084 -192.76942 8814454
-33.286163 -17.08062 -192.78714 6642773
-32.404335 -16.981411 -192.73021 6840408
-33.091022 -16.370602 -193.02809 5919050
-32.392494 -16.124897 -193.11833 7695976
-31.515652 -16.02935 -193.09026 7696235
-32.239174 -15.433819 -193.61259 3749937
-31.452175 -15.264502 -193.65765 7433318
-30.57576 -15.170406 -193.63605 7564393
-29.880074 -14.927566 -193.74684 9734529
-28.866886 -14.512553 -194.89371 12168610
-27.904202 -14.497289 -194.83661 10524044
-27.183411 -14.48599 -194.79335 9142392
-95.727905 -36.831619 -166.3531 9142905
-95.102287 -36.820892 -166.65147 8090470
-94.268547 -36.807224 -167.049 8090470
-93.435165 -36.794361 -167.44585 9076853
-92.269005 -36.891891 -167.95259 9603199
-91.311775 -36.993389 -168.35957 9537919
-90.475685 -36.981407 -168.74631 8814713
-89.682732 -36.878891 -169.05035 9735812
-103.2423 -36.072876 -163.14253 9012606
-102.40092 -36.052155 -163.54657 11972519
-101.56028 -36.032188 -163.94994 12696240
-100.72042 -36.013035 -164.35258 12696240
-99.780792 -36.14571 -164.73808 11576729
-98.787895 -36.20163 -165.18098 10129798
-97.741356 -36.180794 -165.68143 8090987
-96.904854 -36.165035 -166.08099 8353646
-96.068916 -36.15004 -166.48 8748147
-95.233452 -36.135872 -166.87849 6972504
-94.398537 -36.122433 -167.27632 7695969
-93.447464 -36.06234 -167.74843 9866368
-92.429642 -36.139629 -168.19409 10063748
-91.479568 -36.08157 -168.66484 8616820
-90.644402 -36.070843 -169.05682 8090992
-89.76384 -36.042774 -169.36284 8814713
-88.829269 -36.237366 -169.56436 7696741
-87.980057 -35.978565 -169.92305 8617843
-87.09034 -35.947685 -170.20195 9077881
-114.38212 -35.018459 -158.36797 9735554
-113.30678 -34.980068 -158.88211 7565675
-112.44805 -34.950294 -159.2924 9077884
-111.5926 -34.921925 -159.70461 9011320
-110.68793 -35.125931 -160.04366 7038298
-109.83616 -35.099266 -160.45509 9077889
-108.98544 -35.073322 -160.86566 10591127
-108.13583 -35.048134 -161.27538 7959664
-107.23769 -35.254353 -161.61046 10261132
-106.24407 -35.168709 -162.1133 9077886
-105.19833 -35.264671 -162.56421 11445658
-104.22876 -35.404823 -162.96063 10064778
-103.38529 -35.383659 -163.36577 9012606
-102.54262 -35.363293 -163.77017 10459794
-101.70074 -35.343685 -164.17393 12301482
-100.85966 -35.324844 -164.57701 12696240
-99.902473 -35.258301 -165.0547 9537918
-98.876793 -35.329529 -165.50661 10129798
-97.921349 -35.264984 -165.98265 8485488
-97.083229 -35.249592 -166.38281 9537406
-96.245659 -35.234982 -166.78247 9932164
-95.408661 -35.221104 -167.18152 7695970
-94.572166 -35.208008 -167.58 8090470
-93.527153 -35.192722 -168.07739 10063747
-92.482758 -35.17852 -168.57396 9932163
-91.647713 -35.168072 -168.97066 8616820
-90.812881 -35.158325 -169.36678 7433064
-89.93351 -35.132072 -169.67873 7433064
-89.039154 -35.100334 -169.95946 7236190
-87.923218 -35.06181 -170.30927 11315612
-86.740425 -35.159214 -170.62434 10261899
-85.879486 -35.222378 -170.85677 11051415
-85.052078 -35.104755 -171.15204 10919315
-84.205536 -35.017696 -171.44066 11115666
-120.83031 -33.997078 -155.69504 6644059
-120.06461 -34.057598 -156.12408 6710365
-119.11681 -34.161644 -156.52126 6578522
-118.26881 -34.222927 -156.88948 9471872
-117.42262 -34.284721 -157.25667 8945272
-116.36169 -34.339191 -157.72643 9340539
-115.30334 -34.39439 -158.19464 11512217
-114.3216 -34.31216 -158.68341 10525586
-113.46148 -34.282585 -159.09663 8354934
-112.60395 -34.254093 -159.51086 9077884
-111.74805 -34.226528 -159.92455 8682355
-110.89336 -34.19968 -160.33737 7103835
-110.03982 -34.173615 -160.74933 13683139
-109.18743 -34.14835 -161.16043 14406862
-108.33611 -34.123837 -161.57068 8222579
-107.27351 -34.09425 -162.08232 9012093
-106.21239 -34.065823 -162.59283 9077886
-105.36457 -34.043926 -163.00031 8881019
-104.46951 -34.25333 -163.3326 9209727
-103.62396 -34.23283 -163.73842 7697004
-102.77926 -34.213062 -164.14359 7697004
-101.93536 -34.194031 -164.54808 8946039
-101.04563 -34.405907 -164.87679 8682867
-99.993301 -34.383991 -165.38037 8682867
-98.941948 -34.363232 -165.88303 8682867
-98.101639 -34.347469 -166.28442 9274490
-97.317009 -34.410164 -166.6266 9142905
-96.378448 -34.547581 -167.00958 10786959
-95.54026 -34.534016 -167.40915 9537402
-94.702507 -34.521091 -167.80809 10261124
-93.865303 -34.509026 -168.20654 9142647
-89.165215 -34.416752 -170.19696 12697265
