# .PCD v0.7 - Point Cloud Data file format
VERSION 0.7
FIELDS x y z rgb
SIZE 4 4 4 4
TYPE F F F U
COUNT 1 1 1 1
WIDTH 1172
HEIGHT 1
VIEWPOINT 0 0 0 1 0 0 0
POINTS 1172
DATA ascii
-62.766861 -74.276634 -115.02718 6972250
-61.802498 -74.276207 -115.55689 7169372
-60.972305 -74.27581 -116.00439 9603971
-60.13887 -74.275383 -116.44582 9998728
-59.302269 -74.274979 -116.88121 8484976
-58.35825 -74.274391 -117.30287 7958632
-57.58604 -74.066147 -118.28561 7564134
-56.641071 -74.041626 -118.59652 8484973
-55.725883 -73.958382 -118.87407 8813937
-54.812153 -73.878464 -119.14993 8551282
-54.079529 -73.639313 -119.43852 10261132
-115.24787 -73.015556 -84.123306 9012606
-114.68049 -73.144897 -84.842987 8091250
-114.11274 -73.276741 -85.561577 8551287
-56.690334 -73.369812 -118.84185 8616558
-55.868748 -73.082855 -119.17271 8550767
-54.952637 -73.003693 -119.44891 8748405
-54.06916 -72.974564 -119.69714 8617075
-53.30925 -72.987328 -119.89606 9734788
-116.14098 -71.857132 -83.594818 9604227
-115.50998 -72.019554 -84.383446 8683898
-114.92879 -72.303856 -85.024521 8815228
-55.829781 -72.370071 -119.45746 8024680
-55.061096 -72.052017 -119.78609 8025194
-54.120338 -72.126488 -120.00982 7564643
-53.117188 -72.18087 -120.25795 6972249
-52.202049 -71.845528 -120.63251 7038042
-51.458317 -71.675079 -120.89765 6840922
-116.78418 -71.08445 -83.175217 8354159
-116.2857 -71.084557 -83.879333 9143676
-115.78661 -71.086685 -84.583038 8881277
-54.192749 -71.292236 -120.31143 7959144
-53.395061 -71.113045 -120.5944 8419184
-52.325554 -71.034096 -120.9117 7432544
-51.30217 -70.918449 -121.23071 7498851
-50.673676 -70.744835 -121.46616 4998977
-117.70275 -69.907372 -82.62249 11445398
-117.16249 -70.153374 -83.230026 10261383
-116.57416 -70.199669 -84.03186 8814455
-116.05235 -70.527016 -84.561806 10064265
-53.349747 -70.406204 -120.87857 7037274
-52.502495 -70.12529 -121.21397 7037274
-51.565849 -69.928932 -121.54081 9866629
-50.413383 -70.159332 -121.76129 5919819
-49.643761 -69.892998 -122.07025 5787977
-118.63803 -68.79718 -82.003899 10985364
-118.06793 -69.003052 -82.678947 11314329
-117.46472 -69.143448 -83.442299 11247762
-116.98502 -69.408478 -83.952255 9932163
-51.523479 -69.176498 -121.84173 7169628
-50.597229 -69.166481 -122.09406 7169884
-49.67952 -69.110115 -122.36195 6379601
-48.807026 -69.015793 -122.63229 5919050
-48.0476 -68.669472 -122.96932 5656394
-119.23351 -67.934639 -81.708572 10985364
-118.77693 -68.115288 -82.23922 10985365
-118.17574 -68.110069 -83.091827 11314587
-117.71899 -68.293846 -83.620834 11379348
-50.657349 -68.333061 -122.3987 8419439
-49.828529 -68.074081 -122.72071 6840408
-48.909012 -68.021393 -122.98763 6379601
-47.990444 -67.971817 -123.25311 5525066
-47.190262 -67.815384 -123.52798 5393738
-120.17259 -66.83139 -81.080231 10063235
-119.64784 -67.148659 -81.620682 10392715
-119.05697 -67.187317 -82.430946 11380381
-118.51402 -67.430328 -83.044144 11248795
-49.620518 -67.366432 -123.04884 6971994
-48.997154 -67.083771 -123.32484 8551281
-48.133621 -66.938797 -123.61228 7104095
-47.092331 -67.134247 -123.8164 6446423
-46.186356 -66.993088 -124.11378 5854030
-120.53278 -65.93277 -81.140244 7367007
-119.89566 -66.081505 -81.946114 7629923
-119.38519 -66.322701 -82.514587 10656658
-48.039639 -66.126015 -123.9503 7038307
-47.306641 -66.205399 -124.1164 8354161
-46.269432 -66.189018 -124.40092 7170147
-45.269867 -66.0383 -124.7271 5788496
-44.434898 -65.737274 -125.06693 6512217
-121.85682 -64.630966 -80.093849 7037274
-121.32974 -64.944435 -80.64006 7300702
-120.73652 -64.978607 -81.456421 7958887
-120.19137 -65.217453 -82.07531 6511954
-47.210213 -65.394669 -124.45428 9933960
-46.47818 -65.174667 -124.73533 8420725
-45.483086 -65.120911 -125.02296 7039331
-44.434616 -65.014481 -125.34517 8618357
-43.532585 -64.808754 -125.66183 13157042
-122.11343 -64.015854 -80.120766 7432031
-121.62378 -64.065895 -80.780792 7234652
-121.11913 -64.055138 -81.500473 8748401
-45.644714 -64.269859 -125.30713 7039331
-44.691708 -64.058144 -125.64426 8684150
-43.640327 -63.955139 -125.96474 9210491
-42.92411 -63.917351 -126.04484 12762541
-144.79829 -63.412941 -67.530663 8089963
-144.4445 -63.364716 -68.003006 8353135
-143.07634 -63.327888 -67.999985 8879992
-142.36472 -63.230747 -68.929276 8748921
-141.85378 -63.151279 -69.52919 8090992
-140.42635 -63.079136 -69.46907 9209211
-139.76527 -62.970356 -70.194763 8814453
-138.96846 -62.840256 -71.059143 8617076
-137.43935 -62.750027 -71.124237 8617080
-137.0419 -62.685822 -71.548615 8617080
-136.64369 -62.621708 -71.971466 8617080
-122.96104 -62.952908 -79.633621 10326919
-122.37924 -63.153267 -80.293404 8616303
-121.77148 -63.297749 -81.058289 7760995
-44.740921 -63.34169 -125.90684 9210491
-43.848492 -63.036339 -126.2637 10262922
-42.814327 -62.977451 -126.37518 11840670
-42.031994 -62.731213 -126.39166 10984335
-136.24437 -62.557789 -72.392258 7827303
-135.57666 -62.45142 -73.089546 7564643
-134.21307 -62.386734 -72.990707 11972000
-133.54765 -62.281677 -73.676003 11839901
-132.87979 -62.177021 -74.356674 9669247
-132.20927 -62.072735 -75.03215 7037274
-130.87827 -62.011929 -74.912338 7037274
-130.20032 -61.861794 -75.361763 9076596
-125.59521 -61.659134 -78.063721 8616307
-124.88264 -61.753216 -78.668602 8089963
-124.04222 -62.097012 -79.219452 8616306
-123.41772 -62.203049 -79.894241 10261127
-122.73459 -62.379589 -80.558464 10326919
-42.846535 -62.141209 -126.68478 10064003
-41.905823 -61.909286 -126.68123 10260356
-127.42508 -61.237064 -77.082169 9011065
-126.68331 -61.317642 -77.681335 8484721
-126.01408 -61.289612 -78.445984 7563619
-125.10687 -61.425163 -79.08783 8747893
-124.32913 -61.54631 -79.580215 8353135
-42.679047 -61.3512 -126.96378 8418670
-41.980598 -60.973343 -127.03347 9010805
-41.222992 -60.88398 -126.98985 9536633
-41.823326 -60.238243 -127.43764 8287342
-41.089989 -60.046276 -127.5135 8879219
-40.296219 -59.700184 -127.76117 8813423
-40.082588 -59.447559 -128.32205 8681835
-39.381012 -59.405228 -128.38211 10129288
-38.414955 -59.273438 -128.74327 10918031
-37.755016 -59.26643 -129.63071 9800321
-36.809364 -59.265953 -130.14308 9011065
-35.874657 -59.26516 -130.40953 8485236
-34.919548 -59.264656 -130.9108 7038302
-34.23391 -59.265175 -131.80428 6840926
-33.284664 -58.9799 -132.20418 9274235
-32.379494 -58.983936 -132.1855 8879215
-33.234772 -58.253601 -132.49963 9997960
-32.459682 -58.132801 -132.50122 9273976
-31.622004 -57.846462 -132.55992 9866372
-32.438076 -57.176437 -132.84987 9076595
-31.515459 -56.991669 -132.86676 9998216
-30.824823 -56.619278 -132.96501 7563619
-31.626699 -56.051979 -133.21657 9932678
-30.716265 -55.923702 -133.21347 7695205
-31.623602 -55.331852 -133.47983 9340798
-30.811167 -55.031559 -133.54506 8419440
-29.94589 -54.992073 -133.51196 9340798
-30.635225 -54.262951 -133.81657 8945528
-29.79986 -54.048962 -133.84898 9472127
-30.756212 -53.534363 -134.08981 10261132
-29.931009 -53.182194 -134.17328 9471872
-29.042646 -52.917244 -134.22141 9340030
-29.839079 -52.252754 -134.50827 9011065
-29.004633 -52.006111 -134.55267 8945272
-28.062948 -51.695305 -134.61461 8879476
-29.048765 -51.057095 -134.9023 9274237
-28.198618 -50.952232 -134.89394 8879476
-28.189528 -50.120918 -135.19759 9536634
-27.340746 -50.049404 -135.17711 9010544
-28.021955 -49.372799 -135.46858 10851980
-27.308214 -49.133427 -135.58244 9207667
-26.460516 -48.855209 -135.6808 8944752
-27.117708 -48.534035 -135.99983 8681835
-26.425337 -48.269176 -136.16566 9996928
-25.565771 -47.929214 -136.50073 9996929
-24.893644 -47.682751 -136.74712 9010550
-24.569136 -47.390137 -137.18712 8352876
-23.809961 -47.229092 -137.30144 7563619
-22.819429 -47.167477 -138.44318 10129281
-22.280416 -47.080334 -138.27199 9603199
-20.441961 -47.025768 -139.56613 8682354
-19.390474 -46.915966 -140.56522 9208955
-18.686655 -46.839588 -140.43265 9537409
-17.617712 -46.727814 -141.42235 9471356
-16.912413 -46.651299 -141.2787 9537409
-16.179903 -46.575993 -142.33562 9405560
-15.825982 -46.537598 -142.25916 9734788
-15.295846 -46.480061 -142.14294 9011065
-14.370294 -46.383854 -143.15681 8748404
-13.252995 -46.26683 -144.13168 10853012
-12.541558 -46.189514 -143.95767 7762027
-11.585259 -46.089939 -144.96858 9538950
-11.050458 -46.031857 -144.83031 9208443
-9.8998499 -45.911125 -145.78947 15657441
-9.1856318 -45.833435 -145.59419 16777207
-8.1965075 -45.730328 -146.59468 9933958
-7.1937652 -45.625748 -147.59866 9734782
-6.6547637 -45.567081 -147.43779 8879222
-6.1170249 -45.508511 -147.2755 9734273
-5.6361976 -45.460804 -148.43849 9274488
-4.9163947 -45.382389 -148.21341 9208443
-3.8812306 -45.274281 -149.20837 7827302
-2.288995 -45.105495 -150.02364 8485488
-1.2232831 -44.994106 -151.01897 9209467
-0.67967343 -44.934784 -150.82762 8486262
0.58367801 -44.801861 -151.75291 10393742
2.0447376 -44.647369 -152.60802 11183769
3.1578357 -44.530857 -153.59959 9933193
3.7048175 -44.471138 -153.38548 8092019
4.8342652 -44.352848 -154.37318 9736071
5.3819947 -44.292969 -154.15102 9209467
6.5259233 -44.157417 -155.08052 10722963
7.3169999 -44.058876 -156.16464 9735558
7.8654389 -43.986607 -155.8853 9078142
9.2230444 -43.833309 -156.75566 10722450
10.781386 -43.66206 -157.55403 10459278
11.619292 -43.570747 -158.69495 10985881
12.172622 -43.509346 -158.43303 11906725
13.395408 -43.375298 -159.39981 9736071
13.948836 -43.313938 -159.12964 9933193
14.819106 -43.21899 -160.27742 9012606
-113.02625 -73.99559 -86.461426 7695719
-112.44344 -74.005081 -87.02179 7629667
-111.65117 -73.99118 -87.706482 6905944
-110.88612 -74.046242 -88.322166 9076854
-110.10373 -74.230042 -88.984879 8156008
-108.89978 -74.296921 -88.999283 12696241
-108.26012 -74.29731 -89.787445 10064009
-107.39911 -74.296768 -90.172836 8287341
-106.53714 -74.296219 -90.550911 9010806
-105.62874 -74.296303 -91.367371 8221806
-104.59951 -74.295212 -91.544418 8353651
-103.9415 -74.295532 -92.301422 12300452
-103.08047 -74.294922 -92.655266 9537921
-102.10752 -74.294395 -93.125244 8157040
-101.32632 -74.294708 -93.987137 9471872
-100.42625 -74.293617 -94.060783 9603203
-99.601067 -74.293465 -94.647934 8616822
-98.717484 -74.293304 -95.288773 8287859
-97.855446 -74.292633 -95.603622 8616823
-96.965958 -74.292458 -96.229401 9011065
-96.074432 -74.292252 -96.847778 8287342
-95.211868 -74.291565 -97.143089 8353132
-94.314758 -74.291321 -97.746307 8813680
-93.612274 -74.291473 -98.428902 8945523
-92.657257 -74.290489 -98.610115 9143159
-91.648849 -74.290077 -99.19873 9274487
-90.935959 -74.290176 -99.862038 9603453
-89.958351 -74.289574 -100.33064 8353902
-89.16153 -74.289101 -100.67912 7432543
-88.246719 -74.288727 -101.23067 8221543
-87.519257 -74.288803 -101.86946 7037274
-86.534927 -74.28817 -102.30777 7037274
-85.797043 -74.287872 -102.73171 6905944
-84.809113 -74.287216 -103.15414 6511954
-84.067825 -74.287178 -103.76807 8287850
-83.322205 -74.287186 -104.37654 7432544
-82.293404 -74.286438 -104.77738 7827046
-81.4589 -74.285881 -105.12099 6906714
-80.458694 -74.285385 -105.65504 5919821
-79.572662 -74.285286 -106.33417 8155239
-78.808586 -74.285172 -106.91014 11378068
-77.862717 -74.284645 -107.37315 9405050
-77.042694 -74.284111 -107.73501 8024170
-76.268562 -74.283989 -108.29273 8353135
-75.445168 -74.283417 -108.64198 8089963
-74.489746 -74.282822 -109.07599 8089963
-73.574844 -74.2826 -109.70432 8287853
-72.65493 -74.282379 -110.32529 12300458
-71.862236 -74.282158 -110.8512 7037786
-71.065681 -74.281921 -111.3714 6840919
-70.26548 -74.281677 -111.88583 8616819
-69.461487 -74.281372 -112.39445 12631217
-68.51889 -74.281067 -112.98034 11907495
-67.571541 -74.280731 -113.5586 9933703
-66.755623 -74.280411 -114.04773 9933703
-65.744194 -74.279312 -114.2028 6709849
-64.92366 -74.278976 -114.67873 6052176
-64.286873 -74.279388 -115.47964 4867385
-63.457218 -74.279022 -115.94504 5920074
-62.484844 -74.278572 -116.48019 9209467
-61.501472 -74.16555 -117.12955 7367271
-60.74366 -74.01548 -117.49961 7038307
-59.765011 -73.991577 -117.77777 7498598
-58.843288 -73.89743 -118.0613 8484973
-58.014717 -73.726357 -118.34936 7761512
-113.96567 -72.876076 -86.022934 8748665
-113.36395 -73.131882 -86.573402 7761767
-112.63966 -73.066711 -87.31591 8353131
-111.93875 -73.195847 -87.929596 7300445
-111.39952 -73.340454 -88.377609 9536891
-60.59721 -73.422127 -117.77369 7038307
-59.872353 -73.153023 -118.07171 7893097
-58.994358 -73.019836 -118.35847 8550765
-58.10289 -72.977348 -118.61398 7761512
-57.080502 -72.955383 -118.8967 8090474
-114.7819 -71.902634 -85.485931 10064778
-114.21214 -72.035446 -86.206818 9735812
-113.54971 -72.047867 -86.947037 9275261
-112.81847 -72.317688 -87.524979 9274229
-59.732327 -72.379951 -118.40678 8484973
-59.077408 -72.172607 -118.66224 8616561
-58.163551 -72.12542 -118.92557 7761512
-57.114216 -72.129776 -119.20541 7367013
-56.099998 -71.938286 -119.55116 8024683
-55.330086 -71.61982 -119.88026 10261132
-115.4868 -71.089005 -85.005043 11380380
-115.08669 -71.093452 -85.567558 11380380
-114.48563 -71.102562 -86.410866 9406847
-113.99569 -71.275482 -86.90612 7893608
-58.246685 -71.435585 -119.16875 7564130
-57.326885 -71.164291 -119.51994 6708309
-56.327873 -70.965759 -119.86431 9339773
-55.316677 -71.013519 -120.11719 9142907
-54.554173 -70.968391 -120.33912 7301471
-116.47366 -69.78138 -84.438606 7038307
-115.92026 -70.073853 -85.035233 10459279
-115.28207 -70.204277 -85.854294 10195851
-114.74998 -70.541672 -86.392418 9867142
-57.249878 -70.371033 -119.84582 7563618
-56.436901 -70.149666 -120.14915 9011065
-55.369022 -70.167915 -120.4286 8484976
-54.477985 -70.140961 -120.678 6840407
-53.616085 -69.974678 -120.97321 7037274
-52.84338 -69.667358 -121.29874 7892582
-117.23663 -68.788818 -83.988937 9406077
-116.6947 -69.037659 -84.597 7827564
-116.10367 -69.08773 -85.400223 8616563
-115.5806 -69.417442 -85.930527 10064265
-56.129086 -69.569695 -120.45493 7958888
-55.446278 -69.27977 -120.74969 6972249
-54.642406 -69.099632 -121.03464 6643284
-53.71846 -69.030075 -121.30926 7432031
-52.795845 -68.963631 -121.58234 9997955
-52.096508 -68.798668 -121.83345 7564386
-117.54468 -68.070686 -84.008286 10195334
-116.97081 -68.108711 -84.794876 7498600
-116.56841 -68.110764 -85.362022 9932163
-54.597435 -68.394569 -121.31806 11642524
-53.820213 -68.087067 -121.64491 8813683
-52.986198 -67.971672 -121.91306 11050386
-51.946262 -68.162933 -122.1184 9274748
-51.077896 -68.001083 -122.41365 8748404
-118.38719 -67.022568 -83.481422 10064777
-117.78374 -67.179993 -84.234253 8879735
-117.22079 -67.403267 -84.888275 7301478
-52.936096 -67.22641 -122.2133 10655888
-52.133575 -67.172821 -122.44922 10195338
-51.092148 -67.13826 -122.7419 6972508
-50.090893 -66.969261 -123.07555 7235680
-49.257366 -66.651939 -123.42126 8090730
-119.14976 -66.019493 -83.039032 11248795
-118.5867 -66.068886 -83.803139 9275261
-118.10509 -66.160286 -84.425636 8551539
-52.048077 -66.354912 -122.78695 8616822
-51.31596 -66.120934 -123.07337 6775133
-50.317741 -66.049812 -123.36853 7697003
-49.267296 -65.924843 -123.6984 9341568
-48.507515 -65.919182 -123.9044 7038307
-120.10182 -64.844498 -82.437897 7498593
-119.47032 -65.146965 -83.138443 10525072
-118.8936 -65.180084 -83.932114 8880505
-50.491932 -65.196259 -123.65028 7828845
-49.538609 -64.967278 -123.99416 8091760
-48.339157 -65.175919 -124.23561 7630699
-47.564911 -65.066254 -124.48553 9736325
-46.876408 -64.804306 -124.77101 10855060
-120.76749 -63.986965 -82.04039 8156267
-120.31063 -64.042366 -82.650566 7827302
-119.71724 -64.327469 -83.30835 8485233
-119.23317 -64.588676 -83.826874 9340800
-49.427071 -64.353577 -124.26028 8157297
-48.631256 -64.166481 -124.54575 8946811
-47.586517 -64.147476 -124.83333 7564650
-46.6595 -64.10585 -125.09801 7368295
-45.844021 -63.81361 -125.42924 7039331
-145.59224 -63.369843 -68.321236 8485749
-144.08952 -63.316586 -68.474106 8814713
-143.61401 -63.25267 -69.099319 7564650
-143.0168 -63.17292 -69.877304 7564649
-142.10905 -63.110481 -70.076225 8617335
-141.05428 -63.019505 -70.408279 9011834
-140.25082 -62.888245 -71.28038 9735555
-139.57829 -62.779255 -72.001663 8353647
-138.30147 -62.732204 -71.774048 8617080
-137.76585 -62.64603 -72.342209 8879993
-121.64464 -62.887432 -81.497253 7432031
-121.09698 -63.125301 -82.120224 8288107
-120.50043 -63.163189 -82.938965 7564386
-119.97196 -63.48201 -83.483612 6511954
-48.454285 -63.499214 -124.85001 8881019
-47.755424 -63.160297 -125.16799 7893869
-46.796387 -63.079529 -125.45629 10130572
-45.867428 -63.041267 -125.72021 7565418
-44.995831 -62.909866 -126.00458 9276031
-44.363808 -62.642227 -126.27714 9210491
-137.36301 -62.581516 -72.76635 8089963
-136.82428 -62.49575 -73.328583 9472382
-136.14873 -62.388844 -74.027313 10459276
-134.77211 -62.324291 -73.919922 7300958
-134.09889 -62.218674 -74.606567 5919050
-133.42305 -62.113556 -75.287933 5919050
-132.74477 -62.008671 -75.964531 7827305
-131.40147 -61.948067 -75.836273 7037274
-130.5901 -61.823853 -76.633331 9405822
-129.92999 -61.729492 -77.303177 9734015
-129.38287 -61.646191 -77.825256 9010550
-123.24458 -61.815369 -80.572258 10590091
-122.78398 -61.929668 -81.033783 10655885
-122.08958 -62.100552 -81.721115 9077365
-121.40701 -62.322895 -82.327988 9143158
-120.93046 -62.387596 -82.858231 6511954
-47.508591 -62.42281 -125.51822 9209467
-46.843712 -62.256844 -125.76039 11774883
-46.001434 -62.016785 -126.07866 7563619
-45.070454 -61.981773 -126.34177 8550770
-44.140121 -61.949566 -126.60373 8090730
-43.54129 -61.759071 -126.83767 8616563
-128.96646 -61.581451 -78.211792 9010550
-127.58102 -61.235523 -78.856339 7563619
-126.30323 -60.958279 -79.128601 7563619
-125.46431 -60.988541 -79.692375 8353135
-124.63979 -61.150108 -80.198296 8747893
-123.80311 -61.304829 -80.690735 9931908
-123.08023 -61.39204 -81.31147 11116182
-122.57858 -61.443165 -81.831436 10064003
-45.935211 -61.328445 -126.3616 8353135
-45.157761 -61.000778 -126.69777 10459023
-44.269989 -60.929012 -126.96691 9143163
-43.339439 -61.049004 -127.11098 9142907
-44.236694 -60.292355 -127.35422 7037274
-43.357517 -60.250675 -127.56523 8418927
-42.528175 -59.957886 -127.75626 9142651
-41.837059 -59.740898 -127.81635 9011065
-41.654434 -59.445377 -128.49475 9208443
-40.844421 -59.350708 -128.72438 9274233
-39.910713 -59.268597 -129.20625 9340027
-38.849968 -59.268036 -129.72655 10326664
-38.314415 -59.268753 -130.65158 10063492
-37.375999 -59.267979 -130.92886 9471358
-36.435604 -59.26712 -131.19946 9011065
-35.497715 -59.179474 -131.89023 8484980
-34.712868 -58.941463 -132.32921 8222321
-33.925415 -58.792118 -132.34058 8616822
-34.75177 -58.125 -132.62999 8879737
-33.823643 -57.932442 -132.64944 9274494
-34.542515 -57.194313 -132.95894 8616822
-33.876892 -56.947338 -133.0127 8747891
-33.086227 -57.118172 -132.90677 9471355
-33.726662 -56.127071 -133.30446 8747630
-32.920353 -56.154495 -133.25017 8681836
-32.256035 -55.91201 -133.30241 9997702
-33.667702 -55.547028 -133.51346 9010550
-32.970253 -55.171978 -133.61232 9536635
-32.040993 -54.989357 -133.6281 9273979
-32.863998 -54.316666 -133.91946 10523016
-32.088192 -54.008739 -133.98944 9076600
-31.276377 -53.858986 -133.99963 8945272
-32.094616 -53.187138 -134.29041 9076858
-31.281225 -52.944542 -134.33446 8945272
-30.475576 -52.824272 -134.33415 9537409
-31.17832 -52.165424 -134.61385 9340030
-30.295298 -52.07605 -134.59801 8353135
-31.277449 -51.533848 -134.85033 10261132
-30.452318 -51.115746 -134.95796 8945272
-29.520948 -50.945957 -134.9689 8813686
-30.357172 -50.219948 -135.28047 9603458
-29.469954 -49.97398 -135.32172 9142651
-28.688581 -49.597 -135.4167 8287342
-29.55562 -49.284241 -135.64745 9405823
-28.668547 -48.933437 -135.84166 8682098
-27.972116 -48.605717 -136.02924 9735297
-28.707525 -48.363136 -136.28259 7564643
-27.711161 -48.20401 -136.4044 9735297
-26.955042 -47.860737 -136.86842 10589835
-26.136602 -47.669308 -137.03288 10457478
-26.731012 -47.465206 -137.44984 8681835
-26.041197 -47.408272 -137.41652 10128513
-25.352938 -47.352169 -137.38228 10851980
-24.254137 -47.380394 -138.8313 10853004
-23.53768 -47.277687 -138.6499 9866109
-22.37731 -47.235577 -139.89214 9143163
-21.67211 -47.159157 -139.77618 8945784
-20.803728 -47.069149 -140.82083 9734788
-20.096334 -46.992481 -140.69426 9011576
-19.034002 -46.881481 -141.70084 9471871
-18.324934 -46.804577 -141.56305 9011317
-17.244989 -46.691662 -142.56029 9866113
-16.53441 -46.614483 -142.4113 9405560
-16.150274 -46.577076 -143.55721 8813939
-15.436704 -46.499634 -143.39941 8813939
-14.682248 -46.42207 -144.4705 10063235
-13.966821 -46.344353 -144.30229 10589582
-13.017468 -46.245609 -145.32925 9537667
-12.300466 -46.167679 -145.15004 9077630
-11.334634 -46.067139 -146.17201 9538950
-10.616033 -45.989052 -145.98241 9538950
-9.6336184 -45.886684 -146.99925 8880760
-8.7755404 -45.795605 -147.40929 11314583
-7.9145408 -45.70417 -147.81042 10787983
-6.9013 -45.598499 -148.82603 11906725
-6.539125 -45.55904 -148.71619 9734782
-6.177484 -45.519688 -148.6057 8681835
-5.147718 -45.412247 -149.61559 8814451
-3.5580342 -45.243786 -150.44899 8419951
-2.6799252 -45.15284 -151.52202 8090987
-1.9506085 -45.073376 -151.27159 8617074
-0.87369657 -44.960835 -152.27879 10656657
-0.32597473 -44.901047 -152.08284 10985622
0.95017886 -44.766773 -153.01851 11117977
2.4257343 -44.610779 -153.88255 10591633
3.5505664 -44.492962 -154.88628 9933193
4.1017137 -44.432838 -154.66725 7762796
5.243361 -44.313301 -155.66722 8092019
5.7951341 -44.252953 -155.44019 8092019
6.5823121 -44.155762 -156.53537 11051415
7.750525 -44.007626 -157.4489 7564651
8.3032522 -43.936958 -157.17159 8090993
9.4904013 -43.805264 -158.14571 12433581
10.044982 -43.743782 -157.89308 12433581
10.878585 -43.652878 -159.04189 9735043
12.097632 -43.51931 -160.02554 9538950
12.654952 -43.457447 -159.75815 8092019
13.89115 -43.321999 -160.73756 7960176
14.448539 -43.260071 -160.4619 7565675
-110.23132 -73.77916 -89.283279 9142390
-109.47865 -74.049416 -89.840645 8484977
-108.71277 -74.084824 -90.597313 10721939
-107.90491 -74.073471 -91.253517 7695206
-107.11164 -74.252235 -91.563217 7300705
-106.19693 -74.298431 -92.252319 7761511
-105.16867 -74.297447 -92.480423 8025197
-104.34611 -74.297333 -93.102707 9735297
-103.5217 -74.297211 -93.719307 8683383
-102.60931 -74.296127 -93.801193 8354676
-101.82199 -74.296448 -94.666931 8156784
-100.83981 -74.295815 -95.123238 6314583
-99.970024 -74.295219 -95.448936 6446169
-99.283966 -74.295418 -96.172462 8024944
-98.29924 -74.29483 -96.606659 9471617
-97.313454 -74.294159 -97.031609 9208444
-96.616043 -74.294266 -97.735901 9208444
-95.732689 -74.293861 -98.158592 8221547
-94.758453 -74.292969 -98.434425 8353130
-93.932793 -74.293175 -99.234222 7958376
-93.081772 -74.292854 -99.768379 8681838
-92.32988 -74.292122 -99.925369 9931135
-91.47551 -74.291809 -100.44614 9472640
-90.632706 -74.291901 -101.21792 8748660
-89.620277 -74.291328 -101.70238 8550765
-88.768761 -74.290352 -101.82098 8484714
-87.91449 -74.290413 -102.56989 7366238
-87.054199 -74.290428 -103.31189 7037274
-86.184883 -74.290062 -103.79137 6905944
-85.353432 -74.289375 -104.059 7695970
-84.314285 -74.288773 -104.576 8287850
-83.562759 -74.288773 -105.18624 7432544
-82.806862 -74.288696 -105.79108 8418671
-81.803558 -74.288017 -106.18393 6445909
-81.04361 -74.28775 -106.67496 5262149
-80.040863 -74.286842 -106.95057 8879733
-79.272301 -74.286766 -107.52992 9733499
-78.499573 -74.286575 -108.10368 9733499
-77.722679 -74.286476 -108.67184 8089963
-76.811111 -74.286316 -109.32745 8879474
-75.768906 -74.285515 -109.6855 8089963
-74.92778 -74.285049 -110.10904 8221549
-74.092323 -74.28495 -110.74848 8353134
-73.081413 -74.283951 -110.96304 7563618
-72.284035 -74.283699 -111.49199 6840151
-71.482895 -74.283463 -112.0153 6511954
-70.678001 -74.283241 -112.53268 8945784
-69.869385 -74.282974 -113.04429 11907495
-68.921227 -74.282646 -113.63355 10789016
-67.968391 -74.282265 -114.21523 9012347
-67.147713 -74.281975 -114.70718 8486001
-66.323494 -74.281647 -115.19324 6906713
-65.4814 -74.235397 -115.80877 5591367
-64.735947 -74.025566 -116.35445 5591367
-63.903671 -74.012825 -116.65353 6512211
-62.76115 -73.959572 -116.98634 8617330
-61.770737 -73.758263 -117.3295 7038307
-111.86136 -72.617592 -88.303696 7037274
-111.17478 -73.093582 -88.723145 9405049
-110.48602 -73.076843 -89.399513 9536891
-109.68933 -73.159264 -90.129196 7892838
-108.99744 -73.204887 -90.776367 9932679
-108.26962 -73.4869 -91.336113 7563618
-63.897209 -73.25042 -116.95454 8288109
-62.922771 -73.078705 -117.28201 8683123
-61.867054 -73.006157 -117.59312 8090992
-60.943977 -73.005371 -117.84105 7696235
-60.288818 -72.79361 -118.09831 7893614
-113.40028 -71.60434 -87.320038 9735812
-112.7188 -72.022873 -87.773392 8813680
-112.0256 -72.060318 -88.431854 7760995
-111.24271 -72.18679 -89.126213 8813680
-110.53143 -72.179237 -89.819679 8353129
-109.87668 -72.336143 -90.373215 9800319
-62.859406 -72.209984 -117.63329 10789011
-61.994648 -72.07972 -117.91542 9143676
-61.031776 -72.156403 -118.14423 7630438
-60.148888 -72.02095 -118.43319 9011575
-59.29771 -71.713745 -118.77977 9537918
-113.76978 -71.026131 -87.254257 8090986
-113.02431 -71.190712 -87.89991 9077109
-112.29651 -71.130898 -88.643173 9406075
-111.57243 -71.182602 -89.324486 9668735
-110.97399 -71.40741 -89.789749 10129025
-61.902771 -71.414436 -118.19613 8419952
-61.171722 -71.14492 -118.49599 9341054
-60.286198 -71.010727 -118.78512 10853520
-59.383057 -71.023659 -119.02246 8946038
-58.465519 -70.977097 -119.28647 7103580
-57.809395 -70.77478 -119.54036 7563618
-115.06902 -69.795242 -86.414078 10064265
-114.53458 -70.121552 -86.932953 9077626
-113.83763 -70.116898 -87.652824 7827815
-113.12408 -70.104568 -88.357742 8353903
-112.39102 -70.378204 -88.935699 9800581
-60.370651 -70.165955 -119.08774 7564643
-59.444889 -70.174026 -119.33289 7564643
-58.545647 -70.134201 -119.58942 7300702
-57.662815 -70.010147 -119.87397 7563618
-56.809898 -69.715218 -120.21629 7366495
-116.00104 -68.671616 -85.808609 7563619
-115.4774 -69.002251 -86.339066 9932679
-114.87513 -69.052734 -87.134285 10459022
-114.21038 -69.133682 -87.791161 12432552
-113.56789 -69.333138 -88.317741 8090987
-59.533463 -69.429588 -119.59586 9537918
-58.676491 -69.129471 -119.94115 8353391
-57.791065 -69.006508 -120.22591 7563618
-56.814098 -69.001053 -120.49003 7892840
-55.918633 -68.936829 -120.75494 8682355
-116.26629 -68.113365 -85.787224 7300702
-115.7123 -68.093681 -86.582291 7893095
-115.1228 -68.218178 -87.319946 11116440
-57.867973 -68.167519 -120.52845 7169884
-56.947002 -68.129761 -120.78987 8616561
-55.889782 -68.144318 -121.06775 6972249
-54.866302 -67.964584 -121.41142 11774109
-54.087898 -67.656662 -121.73875 8813683
-117.07066 -66.959373 -85.381233 7498857
-116.46884 -67.223267 -86.064453 8090475
-115.86407 -67.316917 -86.859497 7761509
-57.025326 -67.446259 -121.03223 9011061
-56.144848 -67.147545 -121.38332 9537147
-55.088329 -66.999519 -121.72346 11642009
-54.04071 -66.954491 -122.02166 8419695
-53.266964 -66.900116 -122.25009 10787727
-117.88224 -65.99366 -84.845985 7038307
-117.37501 -66.069504 -85.514519 7959151
-116.79889 -66.197052 -86.247681 9274494
-56.012859 -66.401909 -121.70604 9734270
-55.15266 -66.118851 -122.0456 9340282
-54.23378 -65.965172 -122.35104 7761765
-53.217667 -66.199905 -122.53291 9669505
-52.408989 -66.030388 -122.81504 9932424
-51.721077 -65.755013 -123.10556 8616822
-118.7175 -64.95697 -84.322083 7367781
-118.20744 -65.115425 -84.942383 8090991
-117.53009 -65.205887 -85.842072 8616823
-54.18425 -65.221489 -122.65091 8156779
-53.375546 -65.166611 -122.88873 8616819
-52.44368 -65.10601 -123.1618 7827564
-51.513084 -65.048409 -123.4334 7170147
-50.698372 -64.74054 -123.77036 8091760
-119.48586 -63.972557 -83.859879 5723468
-118.93896 -64.217125 -84.477608 7367781
-118.34204 -64.263161 -85.291649 7959404
-117.81446 -64.588249 -85.831108 9734788
-53.290436 -64.350288 -123.22613 6117202
-52.553108 -64.115463 -123.51417 7959406
-51.665085 -64.018066 -123.7897 9012092
-50.732857 -63.964069 -124.06034 9867655
-49.91325 -63.861347 -124.31956 8420724
-146.75496 -63.374996 -68.643402 9208958
-146.27357 -63.309914 -69.280411 7433064
-144.87514 -63.272987 -69.268555 9735812
-144.15294 -63.176582 -70.209442 7038307
-143.66885 -63.112446 -70.833435 8090992
-142.22636 -63.047279 -70.771263 9670021
-141.55092 -62.937031 -71.503746 8814712
-140.87274 -62.827038 -72.231476 7630187
-140.46451 -62.76128 -72.665543 9537667
-138.90291 -62.670624 -72.717461 9537664
-120.3978 -62.744762 -83.348862 6511954
-119.8689 -63.064507 -83.893509 7761767
-119.27094 -63.107922 -84.710739 9077885
-118.80917 -63.292198 -85.246468 7367781
-51.724171 -63.191086 -124.09254 9275521
-50.881851 -62.935764 -124.41666 10853524
-49.868771 -63.127537 -124.61424 7300703
-49.011993 -63.139099 -124.83937 9867653
-48.238396 -62.80014 -125.17728 11512220
-138.08891 -62.540783 -73.56987 10261643
-137.40782 -62.432953 -74.274849 16248798
-136.99792 -62.368473 -74.69532 10459276
-135.47037 -62.282318 -74.720612 7959144
-134.65318 -62.154964 -75.546219 6445394
-133.96941 -62.049221 -76.228806 7563874
-133.05922 -61.958607 -76.636795 8287857
-131.92754 -61.883362 -76.76976 11051418
-131.24953 -61.782063 -77.438477 10459023
-130.48264 -61.684315 -78.26403 9010550
-129.94658 -61.608669 -78.797417 7563619
-121.42214 -61.874535 -82.84893 8287850
-120.75739 -62.009472 -83.54126 7038042
-120.08491 -62.160648 -84.257599 8813941
-119.4921 -62.368851 -84.866035 11379356
-50.825012 -62.242271 -124.69908 12827314
-50.045296 -62.200939 -124.92398 9603201
-49.110535 -62.153782 -125.19263 9209467
-48.17683 -62.109421 -125.45998 9670018
-47.222694 -61.838093 -125.82021 8879991
-128.53944 -61.512222 -78.590477 8287342
-124.92785 -60.741276 -80.805283 9208442
-124.14923 -60.798031 -81.496086 9537410
-123.36638 -60.909012 -82.045212 9406079
-122.53156 -61.098976 -82.53067 6709333
-121.77028 -61.217583 -83.120346 6709333
-121.08503 -61.388817 -83.818611 7958888
-49.830269 -61.500977 -125.2513 15722462
-49.195431 -61.224155 -125.52808 12170149
-48.3172 -61.084988 -125.81707 9209467
-47.314751 -61.075485 -126.08939 8682355
-46.323387 -60.886703 -126.42779 8813686
-45.557304 -60.629528 -126.73271 11906725
-48.279968 -60.427059 -126.16518 9209467
-47.472412 -60.277012 -126.50056 7563619
-46.599911 -60.104233 -126.87132 8945528
-45.594009 -60.06139 -127.17458 10524816
-44.614208 -59.893139 -127.57047 8024169
-43.663506 -59.748688 -127.91763 8353135
-44.857521 -59.516209 -128.13153 8616563
-44.081947 -59.503994 -128.37738 7892584
-42.9674 -59.412849 -128.73627 9274237
-42.304646 -59.299526 -129.21588 9011065
-41.272362 -59.271233 -129.72859 9537407
-40.185074 -59.270336 -130.07663 9340027
-39.44516 -59.270222 -130.62978 8682867
-38.893677 -59.270733 -131.44121 9011575
-37.949554 -59.269958 -131.72272 10326665
-36.970402 -59.070984 -132.27951 9340030
-36.157921 -58.881439 -132.42757 9603202
-36.872108 -58.158859 -132.73409 9866886
-36.041008 -58.128914 -132.69942 8682614
-35.345833 -57.804844 -132.77977 8616822
-36.102253 -57.200783 -133.04227 8353646
-35.179127 -57.059731 -133.04312 8682357
-36.001148 -56.496685 -133.29427 9734014
-35.300854 -56.114708 -133.39551 10391686
-34.365864 -55.92445 -133.41376 9536636
-35.199333 -55.254528 -133.70464 9339513
-34.458511 -54.986805 -133.76189 9142135
-33.608418 -54.967339 -133.72231 9602429
-34.377853 -54.188808 -134.04939 8944757
-33.503254 -54.111137 -134.02974 10260101
-32.803238 -53.738335 -134.12767 9931137
-34.209427 -53.539948 -134.27757 9010550
-33.55407 -53.128414 -134.39207 9602429
-32.648853 -52.922527 -134.41763 8484464
-33.384918 -52.166771 -134.73463 8550769
-32.618835 -52.005215 -134.75163 8550513
-31.854094 -51.84536 -134.7681 9668995
-32.610348 -51.025158 -135.10971 9472382
-31.721556 -50.989582 -135.0739 9472383
-32.431133 -50.273815 -135.37471 11182742
-31.702997 -50.163212 -135.37521 9670017
-30.92325 -50.066219 -135.36786 9406334
-31.645731 -49.538433 -135.67146 11182742
-30.908861 -49.166958 -135.88725 9011320
-29.908335 -48.895607 -136.00029 9011065
-30.073103 -48.438354 -136.4261 8418928
-29.191271 -48.14209 -136.82137 8156012
-28.31188 -47.78904 -137.22923 9735297
-25.692461 -47.582348 -139.17284 8681835
-27.421949 -47.522945 -137.48192 11182229
-25.332216 -47.532135 -139.08966 9405046
-24.792692 -47.456413 -138.96193 9010800
-23.970797 -47.40823 -140.1412 9734523
-23.084585 -47.312191 -140.00453 9800575
-22.224276 -47.223156 -141.06419 8945784
-21.335608 -47.126854 -140.91353 9143163
-20.636217 -47.055222 -141.99973 9340542
-19.74489 -46.958591 -141.8356 10261132
-18.850595 -46.865837 -142.88498 8945782
-17.860075 -46.760555 -143.30424 9734527
-17.045153 -46.674274 -143.75023 9405560
-16.119787 -46.578197 -144.79768 7564643
-15.400243 -46.500019 -144.63528 7959144
-14.277558 -46.382469 -145.63521 8550771
-13.556741 -46.304184 -145.46141 9537667
-12.778012 -46.223999 -146.54323 7038307
-12.055085 -46.145458 -146.35924 9538950
-11.079473 -46.043888 -147.39262 8881277
-10.355252 -45.965115 -147.19763 7565675
-9.3626947 -45.861755 -148.22609 9867139
-8.3560762 -45.756809 -149.25847 10459275
-7.6277747 -45.677605 -149.04338 10458763
-6.7868629 -45.590698 -150.12683 9734782
-6.2389922 -45.531101 -149.95805 8681835
-5.8746276 -45.491436 -149.84464 9734782
-4.8340812 -45.382805 -150.8665 8814451
-3.4122937 -45.2327 -151.76923 10787727
-2.1574414 -45.10075 -152.73015 10524556
-1.4229672 -45.020721 -152.47314 9209467
-0.51829648 -44.926979 -153.55669 11117208
0.217406 -44.84668 -153.28914 11380380
1.1383655 -44.751236 -154.37178 11316124
2.0732028 -44.65424 -155.46307 10789012
2.6283863 -44.593662 -155.24789 11051928
3.1822193 -44.533184 -155.03146 11380380
3.7645404 -44.474758 -156.26616 7762796
4.5053163 -44.393852 -155.968 9933193
5.4735017 -44.293266 -157.05759 9275777
7.0107484 -44.105171 -157.82729 9143935
8.1913519 -43.955395 -158.75174 9735558
8.7485189 -43.887527 -158.48051 10854036
9.9488287 -43.755997 -159.47275 9208443
11.351508 -43.602062 -160.37984 8946300
12.584044 -43.466999 -161.37633 9538950
13.145331 -43.404671 -161.10338 8223348
14.207931 -43.288525 -162.18939 9340801
14.769767 -43.226181 -161.9082 10261132
-107.23199 -73.894157 -92.13147 6511962
-106.54234 -73.948448 -92.771965 7564392
-105.69201 -74.006859 -93.439262 8485488
-104.98111 -74.015564 -94.113007 9866883
-104.19896 -74.233833 -94.664101 10919314
-103.15808 -74.298332 -94.749329 10720909
-102.32226 -74.298195 -95.353683 8354162
-101.42757 -74.298019 -96.013336 7958893
-100.55019 -74.297401 -96.339493 7104099
-99.649361 -74.297226 -96.983742 8485237
-98.952248 -74.297432 -97.704926 10129541
-98.043411 -74.296265 -97.749191 9274236
-97.077179 -74.296059 -98.430504 8682867
-96.251465 -74.296272 -99.249847 8945526
-95.386658 -74.295387 -99.409897 9537149
-94.493645 -74.294838 -99.818367 8418927
-93.776215 -74.29496 -100.50221 7761250
-92.784897 -74.294411 -100.98885 9734013
-91.976326 -74.293884 -101.35133 9077368
-91.050789 -74.293579 -101.92245 9209468
-90.318222 -74.29361 -102.5814 9208950
-89.315872 -74.292847 -102.93385 7629408
-88.506622 -74.29245 -103.37492 8089958
-87.570892 -74.292099 -103.91631 9406334
-86.824036 -74.292068 -104.55008 9406334
-85.883217 -74.291656 -105.07733 10261383
-85.064995 -74.291245 -105.49369 8813937
-84.057281 -74.290398 -105.79974 6972249
-83.296928 -74.290321 -106.40812 8747887
-82.532227 -74.290283 -107.01099 7761506
-81.763191 -74.290169 -107.60833 7103835
-80.711578 -74.289383 -107.98708 7629923
-79.876984 -74.289017 -108.44653 8222317
-78.832802 -74.288208 -108.82787 9735812
-77.920135 -74.288071 -109.49315 9142645
-77.133293 -74.287918 -110.05711 9142645
-76.342331 -74.287712 -110.61539 9142649
-75.54744 -74.287529 -111.16795 8747893
-74.74852 -74.287323 -111.71469 8945272
-73.728676 -74.286331 -111.93112 8418928
-72.924309 -74.286102 -112.46473 8221549
-72.111458 -74.28109 -112.98531 7169884
-71.353409 -74.120728 -113.59157 8024681
-70.354149 -74.072136 -114.11901 7893614
-69.353958 -74.026382 -114.64243 7762030
-68.495857 -73.989555 -115.08766 8157039
-67.637024 -73.954926 -115.52983 9801861
-66.780083 -74.004662 -115.88266 7367522
-65.853951 -73.932236 -116.1672 6315349
-65.193451 -73.705704 -116.43158 6315349
-108.84553 -72.768929 -91.149086 9143419
-108.251 -73.000023 -91.605949 7563875
-107.49191 -73.023338 -92.329819 8222064
-106.72366 -73.017067 -93.07782 8616822
-106.02686 -73.168083 -93.675255 9011576
-105.49164 -73.329247 -94.110855 8090987
-70.125328 -73.400352 -114.66523 7037274
-69.539864 -73.36216 -114.94464 8418928
-68.631203 -73.161354 -115.4357 6774102
-67.819252 -73.077866 -115.83567 8221549
-66.863167 -73.141884 -116.1946 6971737
-65.954597 -73.076385 -116.46988 6775384
-65.045822 -73.010857 -116.73868 7235936
-64.233788 -72.869431 -117.01081 8485232
-110.37975 -71.74176 -90.192932 8681835
-109.74159 -71.948418 -90.704742 9603454
-109.05881 -72.027908 -91.325539 9011833
-108.33112 -71.981339 -92.055107 7958632
-107.55087 -72.122948 -92.738228 8813944
-106.89256 -72.274132 -93.298279 8616822
-66.969238 -72.385475 -116.45559 7892840
-66.110352 -72.057404 -116.82076 7893352
-65.182236 -72.081184 -117.06034 8353647
-64.209358 -72.147369 -117.29557 7168860
-63.397743 -71.935432 -117.59471 8682867
-62.712585 -71.620613 -117.8996 8419952
-111.55495 -70.693771 -89.59301 9011060
-110.8219 -70.970459 -90.163147 8813421
-110.12556 -71.01506 -90.815155 10721419
-109.32516 -71.102486 -91.545898 8222061
-108.63362 -71.096321 -92.219528 7432032
-107.82988 -71.574905 -92.751167 9734788
-65.232941 -71.248032 -117.36785 8616819
-64.406395 -71.093079 -117.64902 7958888
-63.466183 -70.987808 -117.94152 9275004
-62.411709 -71.026566 -118.20918 8419952
-61.592049 -70.787216 -118.52106 10262156
-112.97195 -69.664803 -88.731743 7564643
-112.43095 -69.81221 -89.18605 8748405
-111.71547 -70.137329 -89.720436 9077111
-110.986 -70.084846 -90.460999 8681835
-110.25941 -70.159836 -91.127708 9865853
-109.57611 -70.403137 -91.664276 8682868
-64.380356 -70.373497 -117.9333 8485232
-63.62751 -70.111679 -118.23588 10393997
-62.49873 -70.169334 -118.51618 8814710
-61.404919 -70.056099 -118.85294 8551538
-60.593307 -69.708626 -119.20431 9998469
-114.07468 -68.741943 -88.123871 12893103
-113.34011 -69.086975 -88.666702 8617074
-112.64607 -69.070686 -89.354706 8879991
-111.86099 -69.201736 -90.056473 9142906
-111.13454 -69.258667 -90.738762 11576471
-110.53693 -69.487854 -91.206123 8681835
-63.409805 -69.552704 -118.50961 7038307
-62.612995 -69.184097 -118.86518 7300958
-61.591103 -69.008911 -119.20655 9274490
-60.68005 -69.020477 -119.44627 10656400
-59.754662 -68.972618 -119.71268 10721934
-59.093086 -68.769768 -119.96809 7564643
-114.86093 -67.92215 -87.77581 12037540
-114.31512 -68.065948 -88.234619 11906465
-113.56699 -68.195076 -88.900757 8419952
-112.87064 -68.188766 -89.585884 8945784
-112.16222 -68.373047 -90.185402 9932423
-61.652058 -68.216888 -119.49541 7892581
-60.74324 -68.172935 -119.75591 9933192
-59.836296 -68.131889 -120.01474 9077885
-58.89975 -68.046722 -120.29854 7564645
-58.086288 -67.711205 -120.64583 7498849
-115.77061 -66.948967 -87.224426 7761509
-115.19579 -67.187843 -87.810341 9208699
-114.4642 -67.129974 -88.567337 9669761
-113.77338 -67.201462 -89.206856 8288111
-113.12928 -67.404587 -89.733635 8089963
-60.833214 -67.430176 -120.018 8156786
-59.969242 -67.129547 -120.36538 7893614
-59.076439 -67.0056 -120.65239 7301217
-58.170559 -66.971207 -120.9084 6906712
-57.242283 -66.990219 -121.14983 7958630
-116.70564 -65.828545 -86.612648 9734788
-116.12985 -66.045494 -87.288712 9011320
-115.48048 -66.121658 -88.079605 10261388
-114.77027 -66.302521 -88.69149 10064265
-59.1548 -66.168388 -120.95401 7762023
-58.226257 -66.129456 -121.21784 7104091
-57.316448 -66.154861 -121.45185 6511954
-56.426086 -66.040527 -121.73451 8879475
-55.564491 -65.75647 -122.07485 7958630
-117.29887 -64.961136 -86.323486 8813945
-116.83807 -65.150429 -86.854744 8945530
-116.29435 -65.019699 -87.705536 9801349
-115.74972 -65.341682 -88.227837 9932934
-58.30595 -65.447273 -121.45936 8419695
-57.440495 -65.15831 -121.80263 7695974
-56.547623 -65.045021 -122.08556 7038300
-55.610046 -64.974815 -122.36388 7301214
-54.798729 -64.916336 -122.60384 8814452
-118.23733 -63.847504 -85.702591 7367781
-117.70934 -64.173592 -86.242126 8748152
-117.11073 -64.22525 -87.055092 8879479
-116.70345 -64.2304 -87.627319 8616307
-57.286304 -64.403275 -122.13483 7038307
-56.618652 -64.212738 -122.38725 8419700
-55.774345 -63.941456 -122.71803 11248280
-54.625557 -64.208267 -122.92307 10853779
-53.73399 -63.999214 -123.24257 8551027
-52.961739 -63.750946 -123.5452 8092019
-147.93272 -63.380276 -68.969376 9208958
-147.44716 -63.314678 -69.610794 7038307
-145.91115 -63.261234 -69.756317 8814713
-145.42551 -63.196445 -70.388046 7630442
-144.81569 -63.115711 -71.174042 7104096
-143.41447 -63.075493 -71.138641 10262156
-142.86909 -62.986538 -71.729317 9012088
-142.18526 -62.875656 -72.463516 8287859
-141.63609 -62.787189 -73.046921 9537667
-140.05525 -62.695618 -73.097672 10524559
-139.6451 -62.630154 -73.528069 10261643
-118.58639 -63.015675 -85.736084 7893869
-117.94762 -63.111221 -86.57795 8353136
-117.43074 -63.484398 -87.07196 8089963
-55.726807 -63.241962 -123.00031 13222581
-54.942921 -63.18742 -123.23138 13618111
-53.885052 -63.148392 -123.52991 12236459
-52.820877 -63.014774 -123.86658 11316129
-51.932819 -62.736553 -124.21178 11118237
-139.2339 -62.564728 -73.956367 10261643
-138.68419 -62.477795 -74.52478 8089963
-138.13286 -62.391003 -75.089859 9011322
-136.58693 -62.304039 -75.113815 13353909
-135.89999 -62.197071 -75.807083 8156271
-135.21062 -62.090439 -76.495682 8617075
-134.51868 -61.9842 -77.178818 8222317
-133.00801 -61.901886 -77.17585 10261903
-132.45624 -61.817936 -77.712128 7038307
-131.67061 -61.713291 -78.537315 7366499
-131.03539 -61.63681 -79.233215 8090219
-120.15601 -61.701046 -84.683495 9077114
-119.4387 -61.979504 -85.313919 9932166
-118.82085 -62.057663 -86.066307 9143163
-118.23698 -62.24873 -86.715149 8287859
-54.736378 -62.47913 -123.55965 12038823
-54.101822 -62.190037 -123.8411 14144967
-53.064297 -62.026249 -124.18225 15263960
-51.96854 -61.961281 -124.50094 14210505
-51.155678 -61.915504 -124.73643 15130325
-129.52502 -61.543522 -79.184219 7563619
-128.96164 -61.456779 -79.697098 8814201
-128.2551 -61.348583 -80.333237 10590351
-127.40416 -61.219044 -81.089844 7498598
-126.6926 -61.111454 -81.714767 8090474
-126.26461 -61.046967 -82.087051 9208435
-124.95724 -60.70224 -82.534035 9208702
-123.32156 -60.625301 -82.748848 8287850
-123.09148 -60.609634 -83.025223 8287850
-122.03493 -60.810616 -83.605034 6511954
-121.18811 -60.901848 -84.319427 7235421
-120.48831 -61.034401 -84.987015 9142906
-119.8299 -61.218056 -85.622551 8814202
-119.37207 -61.343208 -86.079636 9735041
-53.132275 -61.223568 -124.47335 13158330
-52.230965 -60.973827 -124.81551 15723742
-51.096928 -61.179707 -125.03569 15722462
-50.236359 -61.134544 -125.28371 15722462
-49.45768 -60.794716 -125.62331 13880509
-124.4348 -60.545586 -82.622971 7564392
-123.78716 -60.376015 -82.841965 7564392
-123.01849 -60.434036 -83.492188 7564384
-122.311 -60.487164 -84.114868 6906718
-121.57909 -60.506779 -84.804214 6511954
-51.28405 -60.405193 -125.3787 15722462
-50.39135 -60.214397 -125.76928 15722462
-49.462811 -60.07148 -126.1508 12169894
-48.629135 -59.914898 -126.52364 8486260
-47.800156 -59.779381 -126.87154 7695205
-47.041519 -59.782841 -127.00871 7563619
-47.489933 -59.564457 -127.27442 13154994
-46.964584 -59.469372 -127.7282 14010046
-46.033848 -59.45203 -128.03223 10458252
-45.224686 -59.39584 -128.4326 9537663
-44.244186 -59.322521 -129.08893 9537407
-43.537544 -59.290928 -129.5984 10853525
-42.649105 -59.273876 -130.24734 9932423
-41.713528 -59.273079 -130.55602 8879733
-40.775703 -59.27235 -130.85788 9471614
-40.064354 -59.272659 -131.66862 8419183
-39.122299 -59.144318 -132.4267 10458254
-38.283447 -58.953648 -132.5209 9340029
-37.505367 -58.757309 -132.55003 9537409
-38.271172 -58.155788 -132.8121 9142906
-37.338612 -57.992031 -132.82071 9406847
-38.173447 -57.44746 -133.06581 8814710
-37.414577 -57.008678 -133.18463 8946296
-36.654503 -56.918797 -133.1757 8090987
-37.428078 -56.229103 -133.47058 8946296
-36.555141 -56.021839 -133.49846 8813940
-35.72702 -55.773808 -133.54362 10851980
-36.600212 -55.21904 -133.79463 8550769
-35.664242 -54.92775 -133.84976 8287084
-36.560017 -54.48373 -134.06143 9734014
-35.729298 -54.046825 -134.17561 8155753
-34.772728 -53.714077 -134.24483 8023913
-35.738014 -53.098213 -134.52319 9734523
-34.856834 -52.987953 -134.51511 8945010
-34.870388 -52.145302 -134.82413 8682354
-34.006313 -52.045078 -134.81331 8221804
-34.772476 -51.3605 -135.10585 8616818
-34.023266 -51.148113 -135.1424 7761253
-33.24691 -50.866024 -135.20296 8090218
-33.983913 -50.153549 -135.52379 9538433
-33.160782 -50.009342 -135.54213 9998727
-32.379547 -49.714581 -135.63011 15195086
-33.052982 -49.265606 -136.02888 11182742
-32.232639 -49.025646 -136.14229 14405827
-31.372622 -48.680706 -136.3271 9932677
-31.412539 -48.381966 -136.86154 9866372
-30.597914 -48.092587 -137.17679 8287599
-29.695513 -47.769772 -137.50377 8682356
-27.116831 -47.744705 -139.3835 8747887
-26.22883 -47.64856 -139.2692 8681835
-25.572786 -47.581684 -140.37483 9405046
-25.037928 -47.5238 -140.29861 9405302
-24.503817 -47.465919 -140.22092 8681835
-23.651739 -47.37788 -141.29553 10129281
-22.936937 -47.300346 -141.1817 9734788
-21.888865 -47.191051 -142.22139 8353903
-20.825472 -47.080032 -143.26202 8682867
-20.105719 -47.001991 -143.12749 9011576
-19.204813 -46.908649 -144.19504 10261132
-18.483103 -46.830292 -144.04956 10129544
-17.384161 -46.715462 -145.07425 8681835
-16.660982 -46.636898 -144.91731 8747887
-15.906899 -46.559433 -146.01576 11378324
-15.543828 -46.520023 -145.93248 8813939
-15.000401 -46.461044 -145.80612 8813939
-14.04783 -46.362038 -146.85869 10195339
-13.502709 -46.302757 -146.72475 9537667
-12.351975 -46.182236 -147.72722 9012092
-10.63741 -46.000374 -148.58025 8289139
-9.6365938 -45.896149 -149.62764 9011833
-8.9040613 -45.816444 -149.41768 8682867
-7.8863158 -45.710434 -150.45979 8681835
-7.3358893 -45.650494 -150.29424 8681835
-6.6700339 -45.582726 -151.44844 11905692
-6.1176887 -45.522617 -151.27562 9274488
-5.5665145 -45.462612 -151.10143 8814451
-4.6996131 -45.37294 -152.19566 9143160
-3.4488537 -45.241566 -153.17345 11379607
-2.8944714 -45.181129 -152.98444 10524556
-1.8117154 -45.067974 -154.01917 9471870
-1.2563565 -45.007477 -153.82211 11380380
-0.15673187 -44.892548 -154.85352 11182745
1.3302066 -44.735378 -155.7475 11118745
2.4616001 -44.617004 -156.78215 10262156
2.834708 -44.576275 -156.63554 9933193
3.2071292 -44.535652 -156.48831 8486262
4.1693406 -44.43576 -157.59311 7367524
4.7294755 -44.374607 -157.36464 9867657
5.8947816 -44.249596 -158.38177 8420725
7.4463029 -44.053696 -159.13808 9801606
8.6394796 -43.902386 -160.07385 9933702
9.2016134 -43.838882 -159.81477 9208443
10.226996 -43.726791 -160.90724 8813944
11.644378 -43.571259 -161.82832 11445660
12.208785 -43.508579 -161.55754 10985881
13.455649 -43.371941 -162.56195 9012093
14.725081 -43.250916 -163.63646 8420470
15.104857 -43.215149 -163.4684 8420470
-104.33299 -73.80217 -94.989433 9341055
-103.55605 -73.93399 -95.62426 11181202
-102.86718 -74.002922 -96.257019 11050644
-102.07317 -74.116661 -96.963799 11313814
-101.15514 -74.101021 -97.434372 8946038
-100.30586 -74.17054 -97.905785 9011063
-99.466225 -74.200256 -98.581139 9800577
-98.428284 -74.298508 -98.832924 8485489
-97.54245 -74.297806 -99.13205 9603455
-96.829903 -74.297966 -99.837936 8814196
-95.909042 -74.297707 -100.44843 9142392
-95.022552 -74.296928 -100.72913 8813427
-94.096321 -74.296684 -101.32404 7300957
-93.368004 -74.296761 -102.00497 7761250
-92.358963 -74.296036 -102.37918 8682610
-91.349434 -74.295273 -102.74406 8748660
-90.610954 -74.295326 -103.40517 9011315
-89.867714 -74.295341 -104.06094 8813939
-88.95787 -74.294739 -104.42319 9076853
-87.967293 -74.293762 -104.63276 9142650
-87.089622 -74.293762 -105.37515 9405566
-86.332245 -74.293747 -106.00542 13288120
-85.570358 -74.293724 -106.63017 11971746
