# .PCD v0.7 - Point Cloud Data file format
VERSION 0.7
FIELDS x y z rgb
SIZE 4 4 4 4
TYPE F F F U
COUNT 1 1 1 1
WIDTH 1200
HEIGHT 1
VIEWPOINT 0 0 0 1 0 0 0
POINTS 1200
DATA ascii
-135.84549 -57.702133 70.700035 9736071
-136.78268 -57.63047 70.154633 11511966
-137.3053 -57.931549 69.701019 14340035
-174.19559 -58.282608 15.303823 9341054
-174.47668 -57.974152 14.650708 9866631
-174.78455 -57.764774 13.744138 7894383
-175.04865 -57.732185 12.74738 9670020
-175.28644 -57.601601 12.000928 8092011
-134.86407 -56.346542 71.898003 8092019
-135.29877 -56.635708 71.503761 11380639
-136.24139 -56.681488 70.903488 10195082
-136.8248 -56.954708 70.424667 8815227
-175.07727 -56.934677 13.8224 8091762
-175.33029 -56.914154 12.851438 8880761
-175.573 -56.970299 11.807157 8092011
-175.87759 -56.575989 11.189046 8092011
-134.73978 -55.723831 72.24733 7565163
-135.54614 -55.637848 71.788628 8089706
-136.24936 -55.831116 71.271164 7958120
-175.58841 -56.121498 13.010846 8486258
-175.8894 -55.938091 12.092725 8092011
-176.2312 -55.679729 11.12489 10591630
-176.47046 -55.549583 10.37206 9538438
-134.31189 -54.566216 73.017845 9933191
-134.92432 -54.766159 72.553276 8287853
-135.72165 -54.82523 72.036613 9405566
-176.23917 -55.029362 12.0621 7038307
-176.47873 -54.897942 11.309957 9801350
-176.74515 -54.866985 10.301709 8222835
-176.98495 -54.737183 9.5460024 7565675
-133.67001 -53.467075 73.894424 9012601
-134.3541 -53.748238 73.350159 10065288
-135.19724 -53.892532 72.76796 10394253
-176.77347 -54.064613 11.384549 7038307
-177.07639 -53.881596 10.458524 7894383
-177.35562 -53.822113 9.4421587 7960176
-177.64038 -53.645077 8.5788546 8946297
-132.94067 -52.543316 74.748032 10460302
-133.79462 -52.619728 74.188934 10131337
-134.62265 -52.857601 73.575043 8287853
-177.42795 -52.970367 10.424367 9012606
-177.66907 -52.839153 9.6657381 8683898
-177.93735 -52.808891 8.6491671 8025453
-178.09845 -52.894901 7.8835802 8813936
-132.61896 -51.569855 75.372513 9604481
-133.20544 -51.675797 74.96508 12828594
-133.95767 -51.747318 74.470718 14407626
-177.94489 -52.154472 9.5937853 7565675
-178.18674 -52.02346 8.8321505 8091504
-178.53278 -51.765202 7.8472109 9208694
-178.83835 -51.584236 6.9076967 8287849
-131.95074 -50.410328 76.291718 9142906
-132.61603 -50.738091 75.738686 8024681
-133.54907 -50.756508 75.156212 12828594
-133.98618 -51.031147 74.76696 15197142
-178.54361 -51.121948 8.7623491 10656142
-178.85306 -50.72472 8.1294451 11116693
-179.10098 -50.783577 7.0606279 9669504
-179.35934 -50.76786 6.0616655 8682868
-131.3754 -49.40435 77.086578 8287597
-132.05249 -49.630219 76.570694 7892839
-132.98999 -49.728424 75.949905 7958632
-133.58597 -50.174599 75.387604 10460302
-179.14423 -50.087936 7.9256334 14603206
-179.38773 -49.95686 7.1572695 12234916
-179.65884 -49.92741 6.1283464 9932422
-179.96832 -49.695408 5.2492723 8419696
-131.04263 -48.379925 77.739639 11906724
-131.47595 -48.644943 77.356575 8616818
-132.28696 -48.731194 76.818542 8419183
-132.98352 -48.896935 76.316406 8287597
-179.66599 -49.268761 7.0807238 8682867
-179.95685 -49.022846 6.2962389 9143163
-180.30838 -48.713055 5.3663301 9340286
-180.56885 -48.697529 4.358861 10129546
-130.37479 -47.306572 78.619659 10261899
-130.87473 -47.707993 78.136131 13222584
-131.79767 -47.598343 77.614319 9209211
-132.40131 -47.890808 77.114304 10854036
-180.5831 -47.832428 5.5909548 9866885
-180.83386 -47.892303 4.5092287 9997959
-181.09525 -47.877079 3.4978535 9602945
-130.39371 -46.602798 78.914764 9077625
-131.13742 -46.654373 78.433258 11314587
-131.7402 -46.94294 77.935486 8682867
-180.87714 -47.192184 5.3811693 10459020
-181.16837 -46.881691 4.6907625 10261896
-181.39059 -46.907616 3.7726567 10196102
-181.6821 -46.751869 2.8510945 8748658
-129.05408 -45.221352 80.598862 9209467
-129.73093 -45.574093 79.879333 8156523
-130.57953 -45.75589 79.222061 9275004
-131.23398 -45.89666 78.703918 10261899
-181.83649 -45.837997 3.8011296 9932930
-182.06631 -45.813538 3.0020115 9011830
-182.26068 -45.860508 2.1273701 8287595
-182.53738 -45.689762 1.4709064 5919050
-128.23575 -44.308594 82.174889 8551538
-128.83234 -44.49369 81.540718 8090730
-129.41574 -44.733044 80.823349 8485744
-130.06949 -44.912327 80.255829 7564642
-130.7247 -45.093063 79.686028 9406590
-182.5733 -45.221844 2.7896168 9011830
-182.83469 -45.125286 2.0594914 6642516
-183.0589 -45.099941 1.253873 5919050
-183.51938 -44.812721 0.52011603 5656134
-183.79456 -44.720901 -0.43812069 5064765
-185.04147 -44.38483 -2.2982509 9341059
-119.04623 -43.403496 95.444832 8617331
-119.83784 -43.56654 94.978531 7696229
-120.69102 -43.753059 94.361214 8156781
-121.41058 -43.852562 93.402748 7038307
-121.85893 -43.854034 92.817055 7038307
-126.45547 -43.947281 84.365883 8092019
-126.88606 -43.992336 83.992615 9010808
-127.6038 -44.068237 83.367416 9931910
-128.31656 -44.143353 82.735611 10263180
-184.8877 -44.344063 -1.1834363 5590855
-185.90271 -44.104855 -2.0854671 8682867
-185.9949 -44.12965 -2.7583644 11183001
-186.09341 -44.157902 -3.6561611 10854296
-118.68044 -42.66251 95.934456 7038307
-119.25916 -42.543446 95.691666 7169885
-119.97506 -42.758659 95.242104 8419952
-118.04276 -41.261127 96.833153 9537667
-118.67949 -41.667278 96.344803 8287859
-119.54948 -41.628567 95.922096 7827819
-118.10976 -40.588024 97.076561 9537667
-118.90926 -40.651558 96.647301 9866375
-119.54909 -41.058327 96.157127 7038307
-117.41844 -39.427967 97.902855 8945782
-118.12347 -39.710274 97.431145 9471871
-118.9062 -39.655788 97.05899 10853012
-116.98743 -38.313377 98.579247 9077368
-117.48055 -38.601295 98.212051 8946039
-118.34071 -38.772778 97.70771 9603455
-116.40147 -37.311932 99.287148 8089963
-117.0147 -37.64341 98.841438 9865858
-117.908 -37.655155 98.386169 8682867
-116.33531 -36.506134 99.652382 9537409
-117.26215 -36.692451 99.108284 8748149
-117.90362 -37.087807 98.622009 8682867
-115.76559 -35.495995 100.35569 8550514
-116.55644 -35.634033 99.900063 8879479
-117.2523 -35.701206 99.521538 9471614
-115.1545 -34.376209 101.12492 8813683
-115.79237 -34.622036 100.70209 8616305
-116.6818 -34.830139 100.16792 9076855
-114.73585 -33.402096 101.73724 8089963
-115.3156 -33.602802 101.36227 9340025
-116.14507 -33.65147 100.92433 9077368
-114.72234 -32.597878 102.07571 8090219
-115.59184 -32.772652 101.56586 9143161
-114.0899 -31.600239 102.80645 8419952
-114.93573 -31.544081 102.40417 8156010
-115.5767 -31.784742 101.98214 12169892
-113.46986 -30.326162 103.82223 10458251
-114.14561 -30.737068 103.18633 9011832
-114.98718 -30.677441 102.77931 8813683
-111.77608 -29.189705 106.03974 10787467
-112.41422 -29.22464 105.621 10260869
-113.14703 -29.556953 104.71932 8747886
-113.86267 -29.857122 104.02922 10129542
-114.52847 -30.047564 103.53059 10590092
-104.0652 -28.253668 117.63046 9866117
-104.88364 -28.365179 117.22221 9142907
-105.55175 -28.595837 116.83308 9142907
-105.51372 -28.798819 115.38847 8089963
-106.20587 -28.800728 114.75104 8354934
-107.03155 -28.80302 113.98079 10853012
-107.85163 -28.805309 113.20472 8748404
-108.39538 -28.806835 112.68425 9735299
-110.75471 -28.860012 107.63186 9208435
-111.40323 -28.895584 107.22364 9208435
-112.37531 -28.949423 106.60671 10261123
-104.08401 -27.519247 117.91587 9142651
-104.99601 -27.647568 117.45936 9142651
-103.46124 -26.47604 118.60991 8616307
-104.24294 -26.613605 118.20757 8287342
-104.91216 -26.841387 117.81907 8616307
-103.04925 -25.597717 119.14433 7564651
-103.8373 -25.556593 118.81063 8353393
-104.43513 -25.860798 118.42336 8089963
-102.98504 -24.593901 119.57473 8485495
-103.77008 -24.756834 119.16087 9669253
-102.40632 -23.469383 120.28323 7893871
-103.15701 -23.55204 119.91694 7762029
-103.83733 -23.91918 119.46753 9340289
-101.91076 -22.428928 120.92126 9868427
-102.56274 -22.664478 120.53731 7960177
-103.40466 -22.750332 120.12923 8681843
-101.26664 -21.127626 121.73002 9868427
-101.89094 -21.535723 121.28902 11907750
-102.73495 -21.647818 120.86951 8090991
-101.22713 -20.551878 121.97892 9275008
-102.12608 -20.587303 121.56586 10986650
-100.78794 -19.385321 122.64259 8813945
-101.52089 -19.604097 122.22945 8682871
-102.08711 -20.009911 121.81519 9670022
-100.12095 -18.402323 123.33352 8813945
-100.79388 -18.61755 122.94852 9274238
-101.61893 -18.71073 122.54501 8551285
-100.09633 -17.504488 123.70533 12696240
-100.96959 -17.709473 123.23551 7630186
-101.65484 -18.069893 122.78657 7762027
-99.736015 -16.388857 124.31358 10919829
-100.48002 -16.488462 123.94341 11182487
-100.85133 -16.886148 123.61881 8089963
-98.963905 -15.297434 125.2511 8813686
-99.695732 -15.586875 124.71657 9866626
-100.40709 -15.713475 124.28728 12432037
-97.889015 -14.163598 126.99957 10590094
-98.688141 -14.422124 126.24736 8813686
-99.2388 -14.741086 125.59696 8616307
-99.865875 -14.945745 125.14794 9405822
-90.092949 -13.499948 138.55898 8419697
-90.993248 -13.589388 138.0459 9538177
-91.671066 -13.748054 137.48465 9011833
-96.750313 -13.816788 128.69518 9932419
-97.630089 -13.833856 128.25122 9932419
-89.539803 -12.228803 139.31226 8879995
-90.250725 -12.59029 138.85283 8353908
-90.910263 -12.750984 138.4964 9011833
-88.985298 -11.316788 139.92259 9735046
-89.681557 -11.527124 139.53006 9537667
-90.418854 -11.537191 139.19946 8617080
-88.489182 -10.101183 140.62845 8680811
-88.962029 -10.51027 140.2554 10062982
-89.828239 -10.571396 139.84726 9537924
-88.499649 -9.4273758 140.89322 9404792
-89.348412 -9.5041609 140.48654 9602428
-87.965446 -8.0700302 141.67264 9340031
-88.476669 -8.5317221 141.26154 10128774
-89.252937 -8.5903111 140.89427 9931394
-87.900108 -7.4590287 141.94583 8222579
-88.751328 -7.5344887 141.53867 8747635
-87.207832 -6.5698686 142.60806 8222579
-88.077034 -6.5570149 142.22812 8156530
-88.762032 -6.8546119 141.80576 7564651
-86.813835 -5.4078579 143.24719 9932419
-87.516945 -5.6173759 142.85197 8354164
-88.260246 -5.622786 142.52054 7564651
-86.682426 -4.5448852 143.65044 10786701
-87.633904 -4.6327672 143.19386 9011833
-86.20327 -3.4162264 144.31403 9669504
-87.114014 -3.6098502 143.83316 9406334
-85.729584 -2.311445 144.96593 8683124
-86.316612 -2.5622633 144.60558 9077368
-86.996559 -2.5235906 144.32016 10195850
-85.031723 -1.0631925 145.77608 9341054
-85.700539 -1.480967 145.31232 9341054
-86.521797 -1.5876048 144.90617 10327693
-84.514732 -0.22802845 146.50266 9209467
-85.225334 -0.33399412 146.10506 10590864
-85.897141 -0.54441369 145.64211 10130058
-84.087273 0.61151934 147.39307 10064777
-84.698631 0.44237629 146.98184 9670019
-85.426796 0.18877777 146.44838 11182745
-77.34185 1.7429305 157.73851 10393485
-78.172813 1.5257108 157.51176 9209467
-83.44886 1.0388912 148.7579 12827820
-84.203949 1.037828 148.42491 10064777
-76.657227 2.8324256 158.26074 12433069
-77.394417 2.5721192 158.03468 11906725
-76.860725 3.5335553 158.48302 10130313
-77.599068 3.2730868 158.25671 14076870
-76.079933 4.5837107 159.00775 11906725
-76.818504 4.3237615 158.78162 10788244
-76.288666 5.521647 159.31641 9406847
-77.059479 5.2506185 159.08052 8617591
-75.572105 6.7880979 159.90945 8090987
-76.312843 6.5283861 159.68303 9077625
-75.775223 7.5006948 160.13611 8484976
-76.517021 7.2407603 159.90932 7563619
-75.025291 8.785903 160.742 13023917
-75.731331 8.3024502 160.43922 10326664
-75.216667 9.5878143 161.00357 8550256
-75.935181 9.0201664 160.66756 12432037
-74.439651 10.572319 161.50345 8353135
-75.219772 10.538139 161.3531 8616306
-74.67823 11.522982 161.81152 9142651
-75.423607 11.262981 161.58412 9537150
-73.858742 12.592505 162.28444 11379356
-74.617805 12.334985 162.08688 9800581
-74.069954 13.652685 162.57047 10064010
-74.673859 13.210743 162.34192 11379356
-73.446037 14.884135 163.44952 9933961
-74.094933 14.410101 162.79472 9801608
-72.856117 15.708943 164.2435 8880762
-73.379265 15.35756 163.82626 9012862
-69.829147 16.598776 169.38005 7695971
-68.957275 17.639879 169.86539 9537664
-69.678932 17.444742 169.70673 10788243
-68.345909 18.927418 170.40919 11380380
-69.126472 18.662712 170.21794 9208443
-68.447266 19.6443 170.65833 11116696
-69.045097 19.580961 170.56265 9208699
-68.583183 20.604174 170.99191 10853012
-67.803535 21.541765 171.42819 10853012
-68.490227 21.561993 171.35234 10129289
-67.86956 22.468502 171.83206 7366751
-67.359238 23.525133 172.72223 9339773
-66.226341 24.528271 174.34396 9735556
-66.850471 24.342768 173.8826 8089962
-138.35519 -58.539619 68.788406 6906202
-139.20175 -58.644062 68.208832 7629923
-139.72894 -58.845905 67.407227 7366752
-140.15543 -58.917561 66.265991 9011576
-140.55148 -58.9193 65.420998 10853012
-140.8645 -58.920685 64.743263 10064007
-142.46707 -58.924084 64.030464 9208435
-142.77316 -58.925468 63.343357 11313555
-143.22647 -58.927551 62.310177 9407106
-143.59863 -58.929272 61.446754 8486262
-143.9653 -58.930992 60.580948 8880762
-144.32703 -58.932709 59.713158 9735812
-145.91907 -58.936176 58.935818 9735812
-146.13058 -58.937206 58.408298 8681843
-146.47891 -58.938919 57.527355 8682099
-146.89008 -58.940968 56.467518 8288624
-147.29358 -58.943012 55.404747 8486519
-149.00858 -58.94722 54.213589 10919830
-149.33163 -58.948917 53.315445 9142907
-149.71231 -58.950947 52.235115 9866885
-150.02371 -58.952637 51.332825 11183003
-151.72119 -58.956894 50.083275 9275265
-152.07849 -58.958912 48.98584 10261391
-152.37039 -58.960587 48.069336 7827566
-152.54279 -58.961594 47.518608 7038307
-154.1131 -58.965233 46.586025 7563619
-154.33536 -58.966568 45.843189 7563619
-154.60788 -58.968235 44.913116 8092011
-154.82233 -58.969559 44.168011 8092011
-156.33676 -58.972919 43.38065 6510930
-156.54321 -58.974251 42.627083 6510930
-156.8465 -58.976231 41.494995 7366239
-157.04449 -58.977547 40.739067 8814969
-158.51022 -58.980629 40.10194 9735044
-158.74814 -58.982277 39.146809 7366240
-158.98068 -58.983913 38.190388 7037274
-160.63187 -58.988361 36.75016 9998471
-160.85001 -58.989998 35.782486 9143675
-161.02011 -58.991299 35.007282 8617331
-162.53836 -58.994808 34.109097 9141878
-162.70047 -58.996109 33.325905 8088931
-162.89752 -58.997723 32.345715 10392459
-164.49408 -59.001942 31.018377 7368295
-164.71338 -59.003868 29.829222 7630435
-166.30792 -59.008125 28.465868 7565154
-166.47604 -59.009731 27.464125 7959144
-166.57413 -59.010685 26.8626 6511954
-168.10144 -59.014347 25.863878 8089963
-168.22333 -59.015625 25.053926 8418928
-168.34204 -59.016891 24.243425 9142651
-169.87289 -59.020603 23.212111 8287592
-169.95532 -59.021557 22.598272 7367005
-170.06189 -59.022816 21.779501 7367005
-171.57257 -59.026264 20.92346 9931910
-171.67081 -59.027527 20.096838 8089963
-172.07263 -58.969524 19.164495 10196107
-173.05771 -58.842838 18.570425 11906468
-173.41251 -58.764385 17.679708 9011832
-173.57581 -58.836754 16.725683 7893608
-173.89301 -58.678837 15.911069 9341054
-137.79379 -57.632679 69.531265 10065036
-138.6416 -57.62677 69.012001 7696231
-139.33557 -57.832706 68.494629 7498594
-173.73062 -58.034367 17.513655 8880247
-174.01334 -57.785233 16.766088 8419952
-174.22833 -57.829189 15.849675 8288366
-174.55917 -57.438351 15.122602 9801093
-137.22174 -56.568542 70.349525 8354934
-138.09546 -56.668621 69.767921 8486519
-138.82574 -56.908546 69.213295 7565675
-174.37604 -56.941055 16.587843 9341054
-174.58725 -56.708374 16.098577 9735555
-174.84424 -56.807468 14.93414 9341313
-175.11789 -56.63522 14.108151 7565675
-136.90472 -55.564396 70.984596 6839895
-137.50394 -55.687584 70.561737 7170402
-138.10547 -55.812138 70.136971 8157555
-174.90561 -55.976677 15.928563 12104104
-175.11087 -55.941956 15.168019 11182489
-175.38867 -55.901573 14.128697 8354676
-175.7478 -55.500248 13.305417 8749174
-136.18787 -54.485485 71.898491 8418671
-136.76581 -54.734261 71.433769 8155499
-137.61218 -54.744469 70.908302 6708567
-175.41638 -55.160942 15.122243 13023917
-175.72296 -54.824848 14.409505 9406332
-176.02505 -54.750309 13.325192 9340542
-176.27991 -54.728783 12.348722 7038307
-135.49878 -53.421139 72.788895 9538688
-136.17392 -53.76775 72.221504 8353390
-137.13434 -53.686466 71.665863 7103068
-137.56885 -54.09306 71.220436 6510930
-176.06641 -54.065952 14.180501 13023917
-176.29294 -53.88232 13.557698 9735297
-176.53839 -53.935001 12.507993 8682615
-176.94302 -53.559685 11.465894 8024943
-135.10159 -52.551991 73.414146 7827302
-135.77792 -52.626789 72.964897 9538688
-136.5657 -52.747288 72.426926 6774615
-176.57993 -53.249229 13.365003 8090987
-176.88638 -52.851044 12.745099 11642780
-177.10455 -52.898041 11.811963 7301478
-177.44928 -52.625397 10.853856 10459280
-134.52383 -51.522499 74.220772 10460302
-135.0853 -51.682037 73.804916 8156267
-135.92377 -51.667259 73.294151 11051159
-136.56738 -51.900826 72.795166 7038298
-177.25366 -52.002243 12.555821 12432037
-177.48157 -51.818649 11.927487 7235684
-177.7287 -51.872337 10.869771 9603970
-177.98587 -51.852116 9.8820467 8486519
-133.9234 -50.233932 75.153564 12828594
-134.52206 -50.68449 74.587677 12236457
-135.38095 -50.690777 74.05484 9143419
-135.98337 -50.866009 73.606651 10985622
-177.77017 -51.183731 11.731 8485235
-178.05652 -50.873108 11.060452 10063749
-178.2941 -50.890121 10.095105 8617073
-178.58902 -50.710827 9.1950426 9011575
-133.87234 -49.597069 75.462608 9538432
-134.83746 -49.720299 74.813263 10722707
-135.41931 -50.10487 74.28656 9340542
-178.66724 -49.82505 10.204511 10458505
-178.89023 -49.842892 9.2956133 9340282
-179.1655 -49.740833 8.3582964 12103587
-133.3718 -48.571705 76.218552 9011323
-134.13318 -48.700451 75.692497 7893099
-134.74359 -49.001129 75.184639 10591377
-179.19775 -48.928829 9.4400454 9011574
-179.41125 -49.022724 8.4553118 10261385
-179.7739 -48.688808 7.5176516 10656142
-180.08942 -48.425072 6.6618853 10261132
-132.87216 -47.578606 76.959755 9867146
-133.55219 -47.741928 76.468903 9274755
-134.2258 -47.801445 76.027184 7564651
-179.48898 -48.290894 9.2378283 9735043
-179.77805 -47.979282 8.5577822 8748148
-180.08148 -47.717896 7.7463274 9537409
-180.33231 -47.774361 6.6697741 10261130
-132.15829 -46.524574 77.859764 8683899
-133.14447 -46.632305 77.204185 10130318
-133.81906 -46.95219 76.648415 9735305
-180.39462 -46.92625 7.6860247 9537409
-180.60611 -46.894585 6.8964739 9998214
-180.85385 -46.903389 5.9029818 9998727
-131.3631 -45.182579 79.210144 9142907
-131.68964 -45.520992 78.71769 9933965
-132.42825 -45.703823 78.124123 9407365
-133.11771 -45.930538 77.526604 10065038
-180.93387 -46.10495 6.835042 9406591
-181.28348 -45.869804 6.0466738 9933190
-181.48926 -45.915741 5.0850039 10130055
-181.93091 -45.545567 4.3139849 9011830
-129.54175 -44.261456 81.552528 10263180
-129.94901 -44.301262 81.155098 8354671
-130.57327 -44.501209 80.37043 7629412
-131.36035 -44.716621 79.638954 10064265
-132.12051 -44.805523 79.088547 15196118
-132.57367 -44.990784 78.639244 8092019
-182.05725 -45.103977 5.1937685 10064774
-182.40305 -44.945896 4.3243227 9735551
-182.74661 -44.882915 3.4077885 9603966
-183.20209 -44.656914 2.5777028 12300706
-183.59665 -44.511806 1.6986667 5919050
-121.17886 -43.35569 94.389198 8617331
-121.97565 -43.496758 93.929382 8287600
-122.08186 -43.854767 92.523308 7563619
-122.52536 -43.856236 91.934059 7891811
-123.18569 -43.858433 91.046494 9273721
-123.73122 -43.860256 90.303291 9536894
-124.272 -43.862083 89.556602 9734788
-124.91515 -43.864273 88.656433 11840161
-125.55173 -43.866455 87.751671 9537924
-126.0774 -43.868275 86.994301 8090987
-126.59821 -43.870087 86.233604 8946296
-127.21732 -43.872261 85.316719 9668994
-127.72828 -43.874069 84.54937 9931910
-128.25668 -43.883492 83.793259 10524047
-129.05927 -43.953949 82.993759 9012344
-129.87918 -44.032036 82.201248 9867653
-130.56204 -44.098083 81.537186 9011319
-184.44357 -44.234943 1.9281512 7367005
-184.57245 -44.265366 1.0406162 5920074
-184.73151 -44.304218 -0.070437267 6510930
-185.80359 -44.076599 -0.51851922 7103067
-185.82065 -44.082977 -1.4134091 7760997
-187.84998 -44.083977 -3.6909969 10721938
-120.44178 -42.435329 95.139931 7169885
-121.16522 -42.670944 94.678108 7301217
-122.04247 -42.763699 94.197594 8747893
-120.13189 -41.508156 95.678001 8617331
-120.56598 -41.614887 95.415184 8156528
-121.38029 -41.787212 94.933662 7630187
-119.43163 -40.284744 96.534988 8287859
-120.07381 -40.69212 96.043396 7432550
-120.9521 -40.652615 95.616806 8551031
-121.42171 -40.899662 95.278351 9537667
-119.48829 -39.531361 96.816658 9997700
-120.30711 -39.671841 96.345947 8616050
-120.95249 -40.079872 95.852486 8287859
-118.80414 -38.444172 97.609413 10721166
-119.52759 -38.667431 97.152641 10984593
-120.30537 -38.671722 96.75872 8813428
-118.8385 -37.563374 97.954834 8944758
-119.73586 -37.785309 97.41095 9405565
-117.78094 -36.319714 99.000206 8681843
-118.39924 -36.6521 98.551613 9536894
-119.30072 -36.663094 98.092522 9602431
-117.77358 -35.509235 99.337776 10195848
-118.65043 -35.696644 98.818474 9734016
-119.2972 -36.093224 98.329033 9931395
-117.14217 -34.496124 100.07338 9405816
-117.94015 -34.634155 99.614563 9274229
-118.6426 -34.701107 99.233459 8681835
-116.58389 -33.188637 100.89471 9209467
-117.17143 -33.618385 100.4214 9801090
-118.06896 -33.826694 99.883713 10129798
-116.10827 -32.394054 101.46276 13156786
-116.69294 -32.595192 101.0854 11577755
-117.53011 -32.643299 100.64436 9998983
-116.09661 -31.586203 101.80279 14603974
-116.97359 -31.76095 101.28931 12433063
-115.60619 -30.485123 102.62476 9208441
-116.31721 -30.585567 102.19697 9998469
-116.90403 -30.952696 101.65869 9209467
-114.32558 -29.414049 104.22396 9932419
-115.1412 -29.632732 103.58035 10590092
-115.72392 -29.848782 103.1013 8813683
-106.04174 -28.396547 116.69511 9274236
-106.95878 -28.529259 116.23457 9076858
-108.66624 -28.8076 112.42287 9209467
-109.20589 -28.809128 111.89802 9341053
-110.01086 -28.811415 111.10623 9406592
-110.81011 -28.813704 110.30861 9670020
-111.47186 -28.815609 109.63972 10787985
-111.99821 -28.817131 109.10162 10787468
-113.32957 -28.999533 105.96764 9274491
-114.12064 -29.040844 105.42741 8682867
-114.75387 -29.074492 104.99298 10261383
-105.48521 -27.446878 117.32225 10261643
-106.23838 -27.538462 116.951 9800324
-106.87794 -27.720076 116.59419 9931910
-105.4371 -26.625086 117.67239 9273980
-106.20522 -26.646374 117.32259 10655633
-104.91924 -25.394783 118.39479 8616307
-105.70219 -25.600456 117.96477 9142394
-106.23748 -25.95837 117.58355 10853012
-104.30907 -24.452503 119.04389 10655633
-105.1347 -24.557974 118.63518 9273980
-105.80879 -24.784525 118.24502 9010808
-103.6692 -23.145506 119.85304 8681843
-104.35133 -23.512962 119.40276 9931910
-105.22536 -23.73127 118.92718 9602945
-103.83723 -22.482355 120.04502 8813429
-104.59862 -22.65151 119.63921 9208187
-105.21152 -22.833906 119.29398 10129289
-103.26438 -21.497658 120.69487 8418928
-104.05367 -21.62771 120.29238 9339773
-104.6811 -22.040152 119.84831 9405566
-103.20835 -20.630869 121.06809 9011065
-104.04669 -20.568913 120.72103 9537409
-102.69462 -19.520214 121.74241 9274237
-103.41988 -19.786745 121.31351 9734788
-102.158 -18.395855 122.43234 8748918
-102.95116 -18.549696 122.01861 8551026
-103.63861 -18.91305 121.56748 10261132
-101.48076 -17.292402 123.17625 7038307
-102.1579 -17.508018 122.78921 7498856
-102.9886 -17.600664 122.38342 8683125
-101.03748 -16.118929 123.84454 8089963
-101.63497 -16.475729 123.43607 7827563
-102.42318 -16.678215 123.00494 7104100
-100.94357 -15.50235 124.21479 8089963
-101.8503 -15.604226 123.7405 9142650
-99.83149 -14.295386 125.87786 9340030
-100.59599 -14.528255 125.23499 8287342
-101.17389 -14.886247 124.61857 8089963
-101.84971 -14.999254 124.22453 8089963
-91.523354 -13.362863 137.98018 9011833
-92.19606 -13.468584 137.55234 8288114
-92.74575 -13.659766 136.94324 8156270
-93.64669 -13.752858 136.1459 9011577
-98.687363 -13.854851 127.71589 9208955
-99.569756 -13.872846 127.26759 8879479
-91.43734 -12.5007 138.36304 10787732
-92.310387 -12.629319 137.9249 8222322
-90.972618 -11.544917 138.9511 7827821
-91.814583 -11.597307 138.55719 8222065
-90.335701 -10.123004 139.80174 9735046
-90.993828 -10.535663 139.34523 8946039
-91.806343 -10.647548 138.94061 8222575
-90.458786 -9.5168209 139.98964 9011577
-91.310089 -9.5944805 139.5815 10129798
-89.78981 -8.4129066 140.72739 9669506
-90.607521 -8.5536203 140.30891 9603457
-91.324516 -8.9175472 139.84575 10129798
-89.272972 -7.403255 141.36003 9603199
-90.126396 -7.4790869 140.95169 10064008
-90.829124 -7.6899381 140.55603 10261387
-88.551659 -6.0347247 142.2267 7893608
-89.271309 -6.3984814 141.76254 8748660
-90.091591 -6.5382957 141.34325 9801092
-88.755348 -5.3799033 142.39835 7696229
-89.604469 -5.4269261 142.00345 8354159
-88.128944 -4.3887429 143.07208 8814710
-88.834656 -4.5989671 142.67552 8156780
-89.581291 -4.6036334 142.34293 7038298
-87.623474 -3.1476047 143.79233 9011838
-88.253685 -3.5123351 143.36746 9340802
-89.005226 -3.7333255 142.94623 9341054
-87.557259 -2.5259285 144.07117 7564651
-88.409874 -2.5710771 143.67587 10459281
-87.063057 -1.4021945 144.74123 11840675
-87.839264 -1.4879924 144.36331 9801353
-88.427605 -1.9065351 143.93494 9011838
-86.576302 -0.23274395 145.58853 10524559
-87.120583 -0.48473281 145.14914 11379868
-87.920837 -0.65408522 144.66217 9340544
-85.966774 0.60830736 146.56064 10655884
-86.695732 0.35465369 146.02676 9076857
-87.306473 0.18513152 145.61548 11379868
-78.73967 1.7880238 157.50832 11446942
-79.479179 1.526613 157.28146 12236458
-84.770813 1.0369794 148.17499 11446174
-85.716713 1.0356632 147.7581 10326660
-78.178078 2.836652 157.99371 12235437
-78.776039 2.5097377 157.76773 12894387
-78.166466 3.5386207 158.25436 14076870
-78.90731 3.2777884 158.02745 10459796
-77.603104 4.5920348 158.74188 10459796
-78.300827 4.3314576 158.52267 12235437
-77.668358 5.5391045 159.07925 8354420
-78.370277 5.2593169 158.85229 10459796
-77.099129 6.8014679 159.64478 9735299
-77.700066 6.4734983 159.41785 7563619
-77.086143 7.5136151 159.90938 9274492
-77.83036 7.2534566 159.68213 8616563
-76.29966 8.576807 160.43991 12432037
-77.04409 8.316968 160.21274 8813942
-76.510773 9.5322838 160.75464 10392458
-77.287773 9.2612572 160.51764 9603456
-76.008858 10.819931 161.31757 10260871
-76.612755 10.490307 161.08949 9866114
-75.994652 11.543395 161.58658 9405821
-76.742348 11.283271 161.35876 8089963
-75.184326 12.616215 162.08215 9142651
-75.945015 12.358448 161.88193 9340030
-75.439888 13.593027 162.33604 10392461
-76.162384 13.314955 162.13814 9998216
-74.77198 14.911167 163.23691 10393743
-75.486259 14.561223 162.72406 10919318
-74.217293 15.744183 164.10437 9473411
-74.929428 15.390252 163.57846 9407619
-70.28524 16.609512 169.32855 5393730
-70.970833 16.625814 169.25142 7695971
-70.326714 17.673817 169.7117 8287597
-70.987663 17.256145 169.47922 7695971
-69.716011 18.963428 170.25613 8681843
-70.574593 18.589897 170.01578 9471615
-69.837059 19.801809 170.54718 9076857
-70.473137 19.460949 170.34578 9735299
-69.859581 20.592804 170.83298 8682356
-69.342842 21.667818 171.28757 9340285
-69.932747 21.525021 171.16406 9274748
-68.496666 22.788683 171.96268 7958888
-69.240211 22.508766 171.66342 9471871
-68.11544 23.802755 172.81351 8879478
-68.685875 23.433903 172.43462 8748148
-66.966469 24.932737 174.80963 9012088
-67.553032 24.551008 174.03983 9340285
-68.388115 24.36657 173.50363 10260875
-140.31781 -58.527313 67.585762 8222060
-141.08496 -58.655701 67.036819 10524045
-141.59457 -58.853466 66.21714 8682867
-141.92307 -58.921646 65.229027 8945523
-142.23517 -58.923042 64.544693 9208435
-143.85251 -58.926472 63.821453 10458246
-144.15753 -58.927868 63.127724 8946556
-144.60913 -58.929958 62.084515 7960175
-144.97995 -58.93169 61.21278 7301474
-145.34512 -58.933422 60.338718 7563874
-145.70544 -58.935143 59.462627 9735812
-147.31207 -58.938648 58.674252 10656913
-147.52261 -58.939682 58.141628 8682867
-147.86929 -58.941406 57.252354 9998727
-148.27844 -58.943462 56.182495 9472900
-148.67981 -58.945515 55.109718 8486519
-150.40866 -58.949768 53.903545 11380380
-150.7298 -58.951477 52.99696 10064520
-151.04581 -58.953171 52.088551 10591380
-151.35602 -58.954868 51.178143 8223091
-153.12878 -58.959515 49.73077 9669511
-153.42508 -58.961205 48.807983 8617081
-153.71552 -58.962887 47.883324 7366499
-153.94424 -58.96423 47.142471 7563619
-155.41754 -58.967239 46.571575 7563619
-155.69443 -58.968922 45.634933 7893864
-156.0195 -58.970924 44.508938 8092011
-156.23203 -58.97226 43.756992 8092011
-157.70972 -58.975323 43.148151 7564651
-157.96597 -58.97699 42.197823 8617080
-158.21698 -58.978653 41.246052 7563619
-158.36472 -58.979641 40.674274 10459023
-159.94345 -58.983425 39.64534 8616563
-160.1322 -58.984749 38.874538 7629411
-160.36267 -58.986397 37.909756 8287341
-161.9855 -58.990559 36.64904 7893608
-162.24551 -58.992523 35.47781 9340797
-162.41452 -58.993832 34.696068 8088931
-163.90842 -58.997066 33.984203 11182742
-164.1095 -58.998695 32.996738 10854034
-164.30496 -59.00032 32.008194 7039331
-165.80597 -59.003605 31.26523 9144190
-165.91736 -59.004574 30.666079 10591374
-166.09842 -59.006199 29.666594 9736322
-167.74478 -59.010822 28.087999 7235421
-167.91025 -59.012432 27.077547 6511954
-168.59818 -58.902027 26.494505 7959145
-169.32611 -58.723072 25.842638 9734531
-169.74518 -58.817062 24.861891 9142651
-170.16479 -58.768635 23.835943 7629920
-170.78348 -58.613987 23.126043 7169371
-171.19559 -58.761379 22.217077 7037530
-171.65823 -58.715027 21.352827 8551030
-172.25739 -58.597111 20.304716 8617337
-172.62491 -58.536518 19.645712 9077886
-172.99319 -58.476639 18.984648 13024949
-139.83188 -57.533337 68.320297 7695972
-140.44531 -57.736088 67.853851 7367264
-141.22861 -57.841293 67.325714 9471869
-169.93533 -58.182671 25.097746 9144699
-170.4584 -58.032162 24.210596 7432800
-171.10611 -57.774719 23.168295 8024169
-171.47964 -57.865025 22.378477 9011320
-171.94354 -57.902092 21.457067 8617337
-172.40042 -57.784737 20.671125 8617337
-172.9169 -57.713833 19.733816 11511968
-173.33463 -57.866692 18.809805 11182745
-173.65323 -57.867165 18.069014 11051415
-174.02429 -57.329632 17.401121 11183001
-139.08072 -56.421841 69.269592 7565675
-139.97421 -56.663353 68.613831 7498593
-140.75723 -56.863007 68.044388 6775126
-171.72266 -57.234447 22.409124 10985366
-172.17502 -57.037018 21.695166 8617337
-172.71869 -56.785213 20.848265 9406852
-173.13663 -56.93457 19.926573 9801351
-173.70605 -56.798473 18.938963 8880246
-174.03479 -56.875076 18.036535 9603969
-174.30832 -56.69891 17.216536 9341054
-138.6922 -55.66489 69.840324 7564904
-139.37704 -55.672672 69.415382 7826790
-140.15677 -55.768726 68.893295 10261899
-173.34229 -56.24445 20.07604 8617334
-173.79974 -56.047962 19.351469 7235421
-174.37552 -55.843651 18.197424 9011573
-174.62222 -55.844921 17.246161 8222061
-174.82776 -55.808372 16.487257 8551026
-138.18561 -54.417656 70.698547 7892584
-138.68445 -54.778088 70.233467 8023913
-139.57281 -54.699631 69.720253 9208187
-140.19638 -55.030994 69.191032 9208187
-174.97137 -54.834034 17.37007 9340285
-175.21109 -54.814175 16.450994 8747893
-175.47614 -54.713295 15.552381 13550777
-137.51324 -53.280159 71.610161 8089963
-138.09982 -53.682129 71.0728 7234654
-138.99655 -53.774132 70.479362 9602945
-139.61917 -54.101387 69.952431 8353134
-175.55936 -53.782108 16.6099 10458767
-175.80142 -53.782684 15.651013 10853780
-176.04346 -53.784767 14.690183 8748659
-137.11157 -52.402599 72.240501 5919050
-137.55637 -52.687763 71.841766 8089963
-138.43109 -52.706528 71.293686 7432033
-139.04153 -53.177986 70.711494 7563618
-176.07166 -52.963345 15.801915 10590094
-176.3143 -52.9646 14.839871 8090987
-176.64749 -52.743614 13.850522 10129798
-137.15103 -51.611782 72.56089 7300958
-137.91498 -51.755459 72.02681 7432289
-138.43448 -51.853985 71.663155 7366240
-176.40326 -52.292812 15.488256 11511193
-176.68808 -51.980171 14.826894 8353133
-176.98697 -51.716728 14.036458 7563619
-177.23047 -51.71978 13.068364 12432037
-136.46661 -50.55722 73.442986 11643552
-137.15869 -50.73629 72.93782 8617074
-137.84546 -50.80962 72.481972 7761766
-177.29437 -50.93251 13.987996 7563619
-177.50278 -50.897007 13.216184 11445144
-177.74689 -50.900627 12.244763 9669250
-178.18869 -50.34341 11.326375 10458505
-135.35605 -49.304249 74.67453 9340542
-135.79166 -49.696625 74.234673 9669506
-136.73697 -49.660503 73.666977 9801348
-137.43854 -49.937748 73.113159 9011832
-177.59213 -50.222588 13.867063 7563619
-177.87866 -49.909523 13.199529 8879736
-178.09964 -49.86121 12.396894 9142907
-178.37997 -49.786324 11.399137 11839900
-178.70764 -49.523117 10.49426 10458505
-135.30493 -48.664719 74.984886 9077114
-136.14853 -48.651981 74.469765 8682356
-136.77441 -48.839897 74.001625 10590864
-178.48856 -48.859093 12.350423 10326923
-178.6983 -48.823963 11.572484 10524301
-178.94809 -48.875618 10.507314 11379605
-134.77582 -47.552933 75.796066 7827307
-135.50885 -47.803265 75.234505 8221549
-136.32574 -47.694489 74.777794 8616307
-179.00836 -48.035927 11.51917 9800837
-179.27692 -47.873466 10.698415 10392717
-179.521 -47.830917 9.7959871 9603201
-179.86111 -47.435925 9.0385256 9537409
-134.11362 -46.478603 76.673065 8288117
-134.80881 -46.739971 76.130066 9143168
-135.75085 -46.691807 75.569672 8287342
-136.19031 -47.07951 75.129402 9142907
-179.63681 -46.923302 10.689404 8946040
-179.90158 -46.744194 9.9083147 9406335
-180.11694 -46.835636 8.9200411 9340030
-180.38492 -46.611656 8.1929216 9142651
-133.75177 -45.527256 77.435333 13353404
-134.44659 -45.632065 76.932861 11905701
-135.16693 -45.849731 76.330345 10656147
-180.1431 -46.094269 9.9205523 9143163
-180.46533 -45.928482 9.0665865 9340030
-180.78711 -45.829967 8.1165667 8550514
-181.11795 -45.600353 7.3508043 9603457
-181.41492 -45.431419 6.7063875 11182228
-131.51755 -44.192337 80.601624 7563619
-132.06317 -44.247093 80.063629 10787988
-132.66406 -44.416515 79.268341 10460052
-133.23279 -44.676365 78.54216 8092019
-133.8736 -44.883804 77.935455 8420728
-134.44409 -44.892658 77.575478 9734788
-180.94339 -45.333797 8.8713579 8813686
-181.44476 -44.9739 8.0196733 9405560
-181.70679 -44.87326 7.3005571 9800578
-181.93228 -44.842976 6.5053606 9538177
-182.49542 -44.640667 5.689168 9537920
-182.89807 -44.511135 4.849309 10985104
-183.27063 -44.437954 3.9024937 9340539
-122.47099 -43.33062 93.748062 8287342
-123.05992 -43.561359 93.356102 8089963
-123.82774 -43.726837 92.816643 8418154
-124.34998 -43.859051 91.906136 8088931
-125.01014 -43.861267 91.005348 9076342
-125.55536 -43.863106 90.25116 9734788
-126.09573 -43.864948 89.493538 11314074
-126.73835 -43.867153 88.580185 12564906
-127.26901 -43.868988 87.815689 8354159
-127.79475 -43.870819 87.047813 8419952
-128.41968 -43.873013 86.122307 8682355
-128.93549 -43.874836 85.347672 8089963
-129.44632 -43.876659 84.569733 8748148
-130.05331 -43.878845 83.632431 9274747
-130.55414 -43.880657 82.847984 10459019
-131.0733 -43.890285 82.075096 8287853
-131.56342 -44.036953 81.152512 7563619
-132.41614 -44.014862 80.71347 7563619
-184.11334 -44.161469 4.141881 9340539
-184.24655 -44.19043 3.2571919 10458761
-184.3783 -44.219952 2.3715107 7367005
-185.79868 -44.073887 1.4944888 7367005
-185.80325 -44.075092 0.59989661 6708821
-187.87711 -44.081585 -1.8817395 11183001
-187.86572 -44.082783 -2.7865016 8682867
-122.59428 -42.501091 94.027519 9274237
-123.3624 -42.72448 93.548264 8287342
-124.01217 -43.146503 93.046745 7563619
-121.85194 -41.462143 94.829735 8287859
-122.58208 -41.698208 94.364342 9011066
-123.46774 -41.790653 93.879692 8747893
-121.95322 -40.532558 95.161476 9866375
-122.80033 -40.810444 94.619942 8287601
-120.83495 -39.303089 96.23172 9537150
-121.30574 -39.662498 95.846306 9537410
-122.1919 -39.650528 95.404404 10326923
-120.8932 -38.546291 96.514015 8550513
-121.71955 -38.686676 96.039536 10129287
-122.3706 -39.095951 95.542671 11905692
-120.20406 -37.454872 97.310997 9537150
-120.93404 -37.678429 96.850838 9273978
-121.71918 -37.68203 96.453476 11246995
-120.2401 -36.570057 97.657341 11378838
-121.14571 -36.792145 97.109406 9997699
-119.17487 -35.321724 98.708916 9931395
-119.64709 -35.672539 98.326347 10918032
-120.5317 -35.647537 97.891579 11971231
-119.16965 -34.507893 99.048225 10326151
-120.0548 -34.695381 98.525406 10392201
-120.70702 -35.093163 98.032776 10129030
-118.5348 -33.490891 99.7883 10327434
-119.34011 -33.628761 99.326195 9734786
-120.04902 -33.69529 98.942017 9405308
-117.97379 -32.17783 100.61369 10854036
-118.56597 -32.609005 100.13744 11051415
-119.47146 -32.817299 99.595802 9669250
-117.49527 -31.379833 101.1846 9209467
-117.96752 -31.609226 100.85211 9012091
-118.85146 -31.685369 100.37595 10459279
-116.9269 -30.225643 102.17194 9209467
-117.48952 -30.58643 101.60903 8419956
-118.36598 -30.807102 101.01443 8748920
-119.0228 -31.13015 100.51942 8813942
-116.02164 -29.143248 104.11841 10590092
-116.69196 -29.256027 103.4591 10392715
-116.90572 -29.684917 102.6488 8879991
-117.80192 -29.842144 102.06303 9012091
-107.45203 -28.329922 116.09521 8089963
-108.06402 -28.521656 115.74655 8287853
-108.8101 -28.700233 115.31596 8287853
-109.3733 -28.805483 114.80083 10853012
-112.39141 -28.818274 108.6965 9208435
-112.91308 -28.819796 108.15374 10590349
-113.56184 -28.821699 107.47223 10129801
-114.2062 -28.823601 106.78653 8879990
-114.97414 -28.825882 105.95879 11511191
-115.53524 -28.931536 105.11298 9735296
-115.54612 -29.117184 104.44732 10590092
-107.40714 -27.505295 116.44498 8879222
-108.31998 -27.663513 115.9761 10326924
-106.8133 -26.566067 117.08459 9010808
-107.53863 -26.60784 116.74558 8813429
-108.26571 -26.650192 116.40559 9932423
-106.43484 -25.201477 117.7996 9931910
-106.89259 -25.562366 117.45157 9340030
-107.6948 -25.783274 117.00684 8221807
-106.30299 -24.579762 118.10806 10063496
-107.22819 -24.705389 117.64704 10129803
-105.68562 -23.369497 118.86835 10260875
-106.46779 -23.66464 118.40269 9932167
-107.1462 -23.891727 118.01041 9932681
-105.86675 -22.431372 119.16498 10326924
-106.53316 -22.704109 118.75969 9932681
-105.19892 -21.630026 119.78332 9339773
-106.10029 -21.525654 119.42533 9012091
-104.58028 -20.417459 120.54517 9603202
-105.43447 -20.530361 120.12074 9274750
-106.06567 -20.944292 119.67439 9012091
-104.08765 -19.31657 121.20618 10261132
-104.64823 -19.570364 120.85542 9340542
-105.41943 -19.627043 120.49047 9209469
-103.46696 -18.133463 121.95699 8089963
-104.15617 -18.497124 121.50503 9735300
-104.95432 -18.652918 121.08834 9735555
-103.50535 -17.489365 122.19883 9143418
-104.34019 -17.583067 121.79077 9209211
-103.03489 -16.180544 122.93349 7300963
-103.60801 -16.587193 122.5158 8617076
-104.27381 -16.868587 122.10731 9077369
-102.38332 -15.391829 123.65763 7762027
-103.02807 -15.601027 123.22424 7827048
-103.85192 -15.689713 122.80186 9011577
-101.22572 -14.235065 125.29552 8089963
-101.90149 -14.398993 124.77499 8089963
-102.59646 -14.642068 124.21655 8682867
-103.2574 -14.943847 123.64769 8222061
-93.554001 -13.39743 137.06693 8813942
-94.294594 -13.410604 136.73355 10262156
-94.464302 -13.754864 135.57994 8813942
-95.278282 -13.756868 135.0088 8485490
-96.089043 -13.758876 134.43301 10262156
-100.09993 -13.883865 126.99761 7563619
-100.80743 -13.89876 126.63633 8418928
-101.51572 -13.913892 126.27392 9340030
-92.839821 -12.379019 137.79047 7564393
-93.53846 -12.591758 137.3959 8879993
-94.346771 -12.874376 136.92491 9998215
-92.30883 -11.362249 138.43222 7038307
-92.942619 -11.533141 138.08313 8880251
-93.729485 -11.686655 137.6732 9142908
-92.344719 -10.472584 138.77206 7695977
-93.162498 -10.615503 138.35268 8156271
-91.798805 -9.3296738 139.47095 9406332
-92.500816 -9.5412903 139.07529 8814196
-93.202858 -9.7535744 138.67944 7300963
-91.1185 -8.1008711 140.26361 10261387
-91.836655 -8.4650745 139.79985 10853263
-92.656982 -8.60674 139.37987 10524043
-91.263786 -7.3877444 140.48444 10655889
-92.055038 -7.5385714 140.07358 12629416
-90.631874 -6.3584027 141.1759 9866885
-91.451057 -6.4678516 140.76924 10064009
-92.114525 -6.8841248 140.30896 10261132
-90.205299 -5.2256894 141.81776 8814710
-90.72477 -5.4350686 141.50395 9603713
-91.430901 -5.6462612 141.10674 9537667
-90.141975 -4.6072221 142.09314 7630436
-90.994499 -4.6540732 141.69673 8551030
-89.640213 -3.3644652 142.8129 8814710
-90.256477 -3.6337538 142.43221 7696233
-90.869453 -3.7852693 142.10002 7959408
-88.908409 -2.3241785 143.55452 10459281
-89.617653 -2.5348103 143.1561 9012093
-90.480049 -2.6079581 142.74518 8090994
-88.402863 -1.0730319 144.28059 7564651
-89.095947 -1.373118 143.8535 7761514
-89.859474 -1.6338845 143.411 8616565
-87.891502 -0.23577887 145.00542 9734787
-88.465561 -0.37654254 144.64076 8682615
-89.226036 -0.49005136 144.21548 8813944
-87.859428 0.43674478 145.58162 9734787
-88.762489 0.2876423 145.05832 9274494
-80.049133 1.7896206 157.27768 11973286
-80.79126 1.5277051 157.05008 9735812
-86.853447 1.034127 147.25726 8879217
-87.612251 1.0331233 146.92303 8089963
-79.535316 2.6943271 157.70164 10130570
-80.325676 2.6233184 157.53595 10722963
-79.477699 3.5439172 158.02478 9670277
-80.259453 3.5031214 157.87177 10460046
-79.133537 4.600647 158.47487 8684155
-79.614609 4.33847 158.2933 9209472
-78.982414 5.5485396 158.85071 10130830
-79.686623 5.2683554 158.62311 11709089
-78.461967 6.6654534 159.35406 8617077
-79.169365 6.5233374 159.17676 9998215
-78.402611 7.5270052 159.68185 7564390
-79.149345 7.266542 159.45406 7039331
-77.835274 8.5947142 160.17535 8617076
-78.538605 8.3341055 159.95514 8222833
-77.901848 9.5586195 160.51866 11446172
-78.609322 9.2783403 160.29053 9736326
-77.377449 10.689691 161.02792 10722194
-78.087898 10.549541 160.85085 10393743
-77.316429 11.56452 161.36096 9933193
-78.066566 11.304253 161.13263 7039331
-76.737984 12.644983 161.84531 7565161
-77.351418 12.31516 161.63022 7762796
-76.712311 13.553396 162.12306 7827820
-77.499229 13.341546 161.93494 7565161
-76.325882 14.943899 162.98843 10525073
-76.896431 14.4772 162.47432 8090992
-75.195419 15.894392 164.1575 11907749
-75.864731 15.746034 163.87996 10065292
-76.486931 15.424165 163.33032 9735558
-71.657738 16.642315 169.1741 9208184
-72.34626 16.659111 169.09677 10260871
-71.781647 17.473463 169.46225 9734527
-72.417671 17.134073 169.26138 10260871
-71.091988 19.000628 170.10291 8090218
-71.799706 18.475504 169.8255 7497824
-71.297127 19.771318 170.35905 8682612
-72.084099 19.506403 170.16696 7037274
-70.453064 20.898436 170.87253 9143419
-71.240265 20.633459 170.6804 9340798
-70.789101 21.631727 171.09912 10721938
-71.446198 21.410513 170.93881 9143419
-70.088661 22.833305 171.73608 9932678
-70.691399 22.478165 171.44254 10261387
-69.483894 23.842264 172.62083 9669250
-70.054176 23.473261 172.24097 9209467
-68.542442 24.968168 174.50734 9734531
-69.048607 24.377497 173.34204 10853012
-69.710266 24.388824 173.18108 9734531
-142.13086 -58.455486 66.501228 9471869
-142.99564 -58.628914 65.869202 9932161
-143.63919 -58.752266 65.111305 9800572
-143.69858 -58.925774 64.167717 9208435
-145.55743 -58.930298 62.906422 10787988
-146.00751 -58.932392 61.853168 11051159
-146.56897 -58.852654 60.983593 12038054
-147.03757 -58.831367 60.2117 9866885
-147.5726 -58.763233 59.354443 10130313
-148.35602 -58.62809 58.675335 10985878
-148.83337 -58.679901 57.830601 13618110
-149.30737 -58.732372 56.982662 10394514
-149.81772 -58.77478 55.941032 8355189
-150.33878 -58.625187 55.106373 10986391
-150.86981 -58.584511 54.331177 11381148
-151.45847 -58.585491 53.456936 10526095
-151.93805 -58.649315 52.59977 12038823
-152.418 -58.715008 51.740681 10130829
-152.86615 -58.770454 50.868649 10854552
-153.52914 -58.526176 49.995941 10261391
-154.06064 -58.548809 49.213203 9932683
-154.66394 -58.667934 48.38195 8090222
-155.1561 -58.800747 47.594379 8484721
-155.9379 -58.540363 46.848976 7498594
-156.51337 -58.615723 46.078518 7300958
-157.11465 -58.739544 45.229519 6840663
-157.70123 -58.718327 44.331043 6972250
-158.21689 -58.657291 43.736568 9274752
-159.00055 -58.711655 42.883385 9735046
-159.52643 -58.812908 41.996933 9340287
-159.84073 -58.891335 41.13475 8682356
-160.39636 -58.906525 40.509769 8484977
-161.29871 -58.985592 39.56868 8287341
-161.53336 -58.987259 38.596809 8682099
-161.76254 -58.988911 37.62368 9735043
-163.44473 -58.993446 36.152107 9800320
-163.65921 -58.995094 35.167458 9209467
-164.41785 -58.902653 34.571117 11840415
-165.17316 -58.72155 33.830795 14142656
-165.59232 -58.800827 32.8792 8815225
-166.02109 -58.742046 31.885065 7828845
-166.60043 -58.569122 31.206278 10262155
-167.05679 -58.666153 30.251883 11840928
-167.51398 -58.765251 29.294451 8683891
-167.85349 -58.762146 28.590631 8880246
-168.51794 -58.582882 27.507624 10261899
-169.03653 -58.429146 26.63172 8748148
-141.73242 -57.541706 67.146812 8682867
-142.43546 -57.642872 66.669624 8682867
-143.21631 -57.73494 66.148239 9077367
-149.03745 -58.088802 57.908569 13618110
-149.51584 -58.1422 57.060959 7894125
-150.06305 -58.000084 56.236912 9144447
-150.61118 -57.859699 55.410076 11118232
-151.15997 -57.720825 54.58099 10526095
-151.64032 -57.781563 53.724796 10789267
-152.2084 -57.786659 52.760063 8815225
-152.71368 -57.664299 51.992729 7697004
-153.20859 -57.836777 51.031891 9867914
-153.71542 -57.717598 50.259796 10196109
-154.23431 -57.733517 49.471848 13090225
-154.90546 -57.772732 48.601826 10787988
-155.51996 -57.771954 47.826763 9932166
-156.13681 -57.772968 47.04776 7695716
-156.81464 -57.81831 46.165649 7235421
-157.3049 -57.918919 45.487961 6117453
-157.79639 -58.021107 44.807808 7761253
-165.85794 -58.193447 32.930969 8091760
-166.2995 -58.060791 32.186378 7302246
-166.91101 -57.740887 31.262938 8156783
-167.27713 -57.817326 30.49851 13682363
-167.79538 -57.831516 29.490591 8946039
-168.27335 -57.806595 28.590998 8880504
-168.65482 -57.800293 27.862379 10393227
-169.1821 -57.782608 26.862234 9998982
-169.64456 -57.88776 25.889818 8092011
-170.17511 -57.555237 25.132101 9671043
-170.6272 -57.432514 24.359529 9604226
-170.90671 -57.498234 23.769972 7037274
-141.14893 -56.456467 67.981331 6511954
-141.87823 -56.665543 67.4403 8419694
-142.64862 -56.782257 66.914154 8682867
-143.27036 -56.918926 66.470955 8682867
-152.04123 -57.212456 53.453987 6511954
-152.23386 -57.237309 53.110264 8091242
-153.04886 -56.930458 51.95116 9866630
-153.43527 -56.983177 51.259632 12630191
-153.98944 -56.852135 50.41597 12564138
-154.52853 -56.941647 49.564636 12958895
-155.10129 -57.008644 48.802502 10788243
-167.60272 -57.214367 30.348379 11709089
-167.96127 -57.140392 29.717325 9866630
-168.59555 -56.796322 28.769205 9143677
-169.03629 -56.846443 27.881994 8025711
-169.47269 -56.806534 27.07419 7039331
-169.90674 -56.869316 26.189787 8618355
-170.45499 -56.663853 25.297705 11512991
-170.86801 -56.803913 24.392794 11709601
-171.28174 -56.946205 23.484747 9011320
-171.87186 -56.581406 22.637899 9603715
-172.42319 -56.483078 21.655203 7827822
-140.7475 -55.553493 68.623116 8090986
-141.27429 -55.664722 68.249504 7301470
-141.97449 -55.731483 67.788231 7762021
-142.51038 -55.928356 67.371666 9932163
-169.36584 -56.241268 27.725954 7039331
-169.72372 -56.093037 27.154886 8618359
-170.25937 -55.833237 26.329882 10986647
-170.66809 -55.893623 25.49608 8092011
-171.22937 -55.746731 24.532698 8880248
-171.64468 -55.841431 23.659033 12104104
-172.10159 -55.718246 22.877707 11182746
-172.51892 -55.861977 21.961584 7564650
-173.06836 -55.793163 20.959227 9932166
-173.58832 -55.610458 20.103544 7038302
-174.05093 -55.491356 19.307837 6511954
-174.33691 -55.561554 18.702436 9011573
-140.14288 -54.207485 69.583 9208187
-140.58463 -54.623131 69.129181 9472127
-141.39136 -54.754997 68.573799 8485488
-142.10504 -55.020977 68.017303 9340289
-170.96136 -55.231846 25.454706 6510930
-171.14871 -55.273369 25.061602 6510930
-171.96063 -54.885666 23.806265 10788247
-172.42542 -54.876808 22.919371 10261904
-172.87137 -54.841778 22.089407 9339774
-173.26416 -54.841255 21.334402 10457738
-173.82135 -54.7421 20.341078 8879735
-174.2981 -54.856018 19.334196 6511954
-174.63782 -54.935455 18.52107 9011573
-174.86749 -54.749729 17.906683 10064009
-139.38956 -53.246742 70.466675 7563618
-140.01477 -53.573513 69.938339 6971738
-140.97165 -53.644081 69.31707 7958892
-141.51309 -53.944283 68.851997 8156530
-172.76315 -54.266819 22.751608 9209217
-173.12891 -54.120663 22.163412 10063238
-173.67697 -53.863342 21.312796 10457738
