# .PCD v0.7 - Point Cloud Data file format
VERSION 0.7
FIELDS x y z rgb
SIZE 4 4 4 4
TYPE F F F U
COUNT 1 1 1 1
WIDTH 1171
HEIGHT 1
VIEWPOINT 0 0 0 1 0 0 0
POINTS 1171
DATA ascii
-32.969002 -48.158028 -138.11884 9931910
-31.457886 -48.231995 -139.89554 8814457
-30.654671 -48.14978 -141.03252 8420470
-29.929768 -48.071381 -140.95296 7565675
-29.291687 -48.007027 -142.10869 7959143
-28.511444 -47.924973 -142.63435 7629921
-27.726933 -47.842445 -143.15167 9537921
-27.061459 -47.775185 -144.3161 8814457
-26.325516 -47.69548 -144.2083 9734788
-25.644497 -47.626541 -145.37381 8682615
-24.766071 -47.536263 -146.51744 6511962
-24.208515 -47.475845 -146.42279 8616822
-23.313492 -47.383743 -147.56483 9406335
-22.753754 -47.323112 -147.46252 10261385
-22.029781 -47.249565 -148.63918 9932420
-21.105087 -47.15432 -149.78735 9011320
-20.539665 -47.092949 -149.67126 9011320
-19.977016 -47.037018 -150.89946 7037274
-123.39204 -78.546684 -55.465466 7564651
-123.1707 -78.574936 -56.080948 9341825
-123.88271 -78.076241 -54.478992 10787987
-123.61809 -78.063019 -55.336521 10262414
-123.35886 -78.205811 -55.986637 9341825
-124.57053 -76.856644 -53.782745 9340795
-124.24329 -76.986572 -54.662853 12827054
-123.92905 -77.244194 -55.346443 12300970
-125.43099 -75.69632 -53.031605 5656645
-124.98655 -75.92305 -53.912777 8616817
-124.54288 -76.204315 -54.72171 9734274
-126.86789 -74.669785 -51.769318 6511441
-126.31683 -74.875832 -52.525547 4867385
-125.84183 -75.083862 -53.35453 5787975
-125.43727 -75.298439 -54.032852 8089963
-132.45174 -74.026566 -46.354042 7367007
-132.25465 -74.027191 -47.104618 8025193
-131.6459 -74.237549 -47.743111 11249051
-130.79518 -74.237663 -48.452271 9603714
-129.94679 -74.237785 -49.153717 9142651
-129.3735 -74.238304 -49.892239 7695717
-128.66223 -74.297829 -50.3354 8813936
-127.92586 -74.412361 -51.119995 9668989
-127.34416 -74.508705 -51.960247 7366237
-64.20845 -74.259575 -111.16878 5919050
-63.675983 -74.259415 -111.47903 7826787
-62.874729 -74.259186 -111.93995 6840150
-61.935665 -74.258888 -112.47015 7563618
-61.421223 -74.259575 -113.26 9274237
-60.665009 -74.25988 -114.00706 7826790
-59.708813 -74.259544 -114.51895 9537664
-59.251617 -74.260315 -115.31725 10130057
-58.396832 -74.260445 -116.0369 7827047
-57.640965 -74.260696 -116.75485 7892840
-56.980026 -74.260712 -117.25077 7893357
-56.207783 -74.241898 -118.13244 7761771
-55.531414 -74.056351 -118.71881 8550768
-54.61795 -73.841721 -119.20401 8814198
-132.84007 -73.018059 -46.309204 10590865
-132.5004 -73.287994 -47.242603 10854037
-55.516048 -73.2939 -119.17563 8748146
-54.841053 -72.999306 -119.46873 8748405
-54.012806 -72.930298 -119.71586 8682612
-133.42252 -71.906616 -45.655968 8024681
-133.14737 -72.030807 -46.550144 12235690
-132.84746 -72.381165 -47.210709 10261899
-54.813843 -72.005936 -119.85822 9143163
-53.872189 -72.172684 -120.04485 7301471
-53.257488 -71.9282 -120.30264 6511954
-133.96292 -70.94046 -44.954811 7563619
-133.73572 -71.026497 -45.717232 9406335
-133.50786 -71.114357 -46.479618 12367276
-54.155064 -71.220085 -120.33606 7696229
-53.220272 -71.103577 -120.62983 8550770
-52.569782 -70.703445 -120.95703 7827046
-134.31734 -69.993469 -44.952702 8089962
-134.01711 -70.208359 -45.812496 9274236
-54.00272 -70.459633 -120.66922 6511954
-53.397694 -70.106163 -120.96635 7037274
-52.415779 -69.958809 -121.28456 7300446
-51.655136 -69.587173 -121.63013 6511954
-134.91246 -68.842049 -44.3083 11313558
-134.61255 -69.054214 -45.170742 8221548
-53.362953 -69.240929 -121.30853 7037274
-52.680706 -68.958443 -121.59893 10195334
-51.85247 -68.959457 -121.81911 7038042
-135.33829 -67.993904 -43.725685 9735038
-135.19368 -68.026825 -44.399799 7169371
-135.01707 -68.045067 -45.06411 8090216
-52.598011 -68.136688 -121.93718 12432037
-51.759693 -68.196526 -122.13738 9537664
-51.031403 -67.940048 -122.43005 8748404
-148.56668 -66.983444 -32.165081 7432804
-147.54538 -66.929459 -32.695271 7235426
-146.90854 -66.843117 -33.487808 8353647
-146.27205 -66.757446 -34.274719 8089962
-145.26111 -66.705864 -34.78315 7168861
-144.76724 -66.595741 -35.776306 7959401
-143.62479 -66.571495 -36.052223 9538432
-136.16724 -66.743668 -42.906101 8090736
-135.85715 -67.04409 -43.650513 6248782
-135.48672 -67.343079 -44.422615 6445905
-51.921432 -67.210861 -122.47357 10195338
-51.024921 -67.138824 -122.74007 7104093
-50.405743 -66.834389 -123.02211 6841693
-144.4353 -66.52269 -36.435806 7564651
-143.2106 -66.480995 -36.869049 9340545
-142.70885 -66.372948 -37.844776 8617080
-141.66556 -66.368629 -37.940075 9405822
-141.16144 -66.262016 -38.903629 7958888
-140.3085 -66.189735 -39.584564 9011834
-137.25534 -65.738388 -42.362675 8616822
-136.6604 -66.171127 -43.013676 7235681
-136.35815 -66.380798 -43.808823 7366750
-51.81089 -66.45755 -122.79285 10261132
-51.198368 -66.115273 -123.08774 6972512
-50.316227 -66.019127 -123.35963 7368295
-49.628426 -65.748726 -123.64688 8815225
-137.93919 -65.312088 -41.636021 7301478
-137.72379 -65.388397 -42.115894 7038307
-51.034641 -65.367607 -123.41902 6972512
-50.465023 -64.987846 -123.71687 7828589
-49.536163 -64.935959 -123.98418 8091760
-48.965427 -64.559753 -124.28087 8091760
-50.373596 -64.175056 -124.0542 10262156
-49.714748 -63.95179 -124.31552 7960174
-48.794193 -63.998642 -124.54244 9538947
-49.602268 -63.143242 -124.65694 7432289
-48.846645 -63.17366 -124.84622 9604482
-48.159534 -63.053947 -125.07516 9933447
-49.013466 -62.225235 -125.16728 8946039
-48.055161 -62.102928 -125.46933 9406846
-47.35968 -61.842484 -125.75467 9735555
-48.288757 -61.159073 -125.7708 9406846
-47.3731 -60.965973 -126.08884 8946040
-46.680367 -60.670326 -126.38706 7563619
-47.558708 -60.22628 -126.48677 8222061
-46.696636 -60.007423 -126.88969 8156012
-45.849888 -59.839729 -127.24797 9472128
-46.74509 -59.543663 -127.48276 15720406
-46.093845 -59.489166 -127.83455 11576475
-45.285763 -59.432671 -128.23427 9800835
-44.504612 -59.317406 -128.96057 8353132
-43.898212 -59.277283 -129.61014 10327180
-42.830086 -59.264603 -130.13867 11182489
-42.499371 -59.265968 -131.23268 9800834
-41.55629 -59.265366 -131.54001 10853004
-40.817772 -59.090805 -132.49969 8682355
-40.062103 -58.866737 -132.67894 8089963
-40.930962 -58.512405 -132.85794 6511962
-40.148212 -58.02948 -132.99023 8418929
-40.086082 -57.120682 -133.31935 9471358
-39.489079 -56.860146 -133.38083 9997703
-40.119892 -56.309364 -133.61824 10261132
-39.363186 -56.023102 -133.68005 10063752
-39.435299 -55.179543 -133.99292 9800322
-38.702145 -55.023186 -134.00851 8682867
-39.437382 -54.482719 -134.24811 9734529
-38.729156 -54.020706 -134.37698 9603968
-37.934578 -53.614357 -134.48059 8682867
-38.700359 -53.105217 -134.71042 13025974
-38.016216 -52.859894 -134.76138 10064777
-38.786434 -52.320213 -135.00266 10262156
-37.960922 -52.055832 -135.05255 8551538
-37.93689 -51.235489 -135.35144 8551538
-37.332008 -50.948486 -135.42213 8221549
-37.914639 -50.48996 -135.62312 8814710
-37.15012 -50.133011 -135.81105 8484977
-36.458618 -49.716698 -136.05197 8089963
-37.229332 -49.484695 -136.30234 8616563
-36.486389 -49.184067 -136.58138 9406847
-35.841373 -48.814224 -137.00983 9537919
-35.594139 -48.532829 -137.40112 9537662
-35.092442 -48.465485 -137.72517 9866113
-34.423183 -48.343002 -138.31557 9537662
-32.722084 -48.368622 -140.01396 9208444
-31.563145 -48.247971 -141.12732 9998216
-30.570007 -48.145302 -142.25804 8089963
-30.021515 -48.085999 -142.19542 8089963
-29.194115 -48.001228 -143.34349 6511954
-28.353382 -47.915077 -144.49712 8682867
-27.79908 -47.855049 -144.42072 7894126
-26.941826 -47.767059 -145.57315 7039331
-26.385059 -47.706772 -145.48906 8814457
-25.51136 -47.61705 -146.64024 9011322
-24.999359 -47.566536 -147.86147 7564392
-24.623833 -47.525848 -147.79697 7564392
-24.061588 -47.464867 -147.69855 7564392
-23.345863 -47.392311 -148.88876 7037792
-22.05003 -47.256821 -149.97679 7037274
-20.926571 -47.140114 -151.10074 7037274
-20.356403 -47.078232 -150.98058 8287597
-20.169521 -47.063148 -152.3093 10854036
-122.95604 -78.566505 -56.520947 9341825
-122.65565 -78.547981 -57.100937 8354673
-123.18913 -77.989647 -56.524368 8025457
-122.64112 -78.065178 -57.50507 8354674
-122.17932 -78.194359 -58.27364 8156779
-121.75237 -78.5009 -58.838058 8288365
-123.82149 -77.039627 -55.938107 8156272
-123.44681 -77.096764 -56.744232 7762029
-122.98088 -77.175766 -57.559696 9341825
-122.57022 -77.420265 -58.14185 10263180
-125.00148 -75.632072 -54.562157 8286573
-124.61063 -75.874054 -55.228321 8286573
-124.25803 -76.02166 -56.030384 7760229
-123.78313 -76.22641 -56.825062 7235172
-126.76494 -74.53743 -53.514801 4867385
-126.29292 -74.630638 -54.036079 7235428
-125.51439 -74.985001 -54.663235 6905692
-125.08424 -75.181877 -55.469692 7233886
-124.6746 -75.392761 -56.215603 10655121
-131.95963 -73.861008 -48.379887 10525072
-131.64323 -73.973663 -49.256458 8485488
-130.72366 -74.239937 -49.86198 7104092
-130.03288 -74.240173 -50.501282 5920074
-129.34315 -74.240372 -51.135605 6643027
-128.45831 -74.260887 -51.902859 6576722
-127.85019 -74.324631 -52.522114 5392706
-127.17828 -74.447563 -53.147095 5262145
-68.671082 -74.260582 -108.42712 5920082
-68.151833 -74.260468 -108.75894 6644317
-67.239365 -74.260292 -109.33369 8486518
-66.322334 -74.260094 -109.90115 9143930
-65.631004 -74.260506 -110.66481 7367520
-64.926346 -74.260475 -111.1714 6972762
-64.312309 -74.261002 -111.9585 6840150
-63.373035 -74.260773 -112.50085 6971480
-62.74649 -74.261284 -113.28225 6708566
-62.11108 -74.26178 -114.06064 8353135
-61.154381 -74.261482 -114.58472 7695461
-60.610538 -74.262085 -115.36197 9735300
-59.850632 -74.262444 -116.12601 10590865
-59.03204 -74.262482 -116.76279 8616562
-58.438084 -74.262741 -117.36175 7958632
-57.718929 -73.993736 -118.26498 8024425
-56.812443 -73.97406 -118.5665 8024682
-132.52957 -72.897682 -47.698711 11906725
-132.28348 -72.96965 -48.555611 9341053
-132.0574 -73.206947 -49.092796 8288365
-57.596073 -73.247131 -118.63963 7761512
-56.951633 -73.142288 -118.85164 8484973
-56.042435 -73.025146 -119.13884 8024681
-133.19049 -71.627686 -46.970448 7038298
-132.8661 -71.956223 -47.758556 8288109
-132.56648 -72.212814 -48.554947 8419951
-57.035336 -72.246902 -119.17388 7629927
-56.168446 -72.086441 -119.46647 7695975
-55.385059 -71.865303 -119.76025 8551282
-133.37575 -71.038147 -47.107422 10261899
-133.1718 -70.97065 -48.003174 6972249
-56.285061 -71.117386 -119.8083 8221549
-55.437145 -71.006012 -120.07697 9932166
-54.715446 -70.868187 -120.3222 7958888
-133.92987 -70.029823 -46.414253 15195603
-133.69783 -70.148621 -47.147701 12432812
-133.58252 -69.988701 -47.832027 8354158
-55.502338 -70.168846 -120.38175 9405822
-54.56522 -70.120125 -120.65006 6775126
-53.80394 -69.74144 -120.99851 7037274
-134.64955 -68.61702 -45.664696 7563619
-134.34003 -68.972298 -46.355972 9340029
-134.05052 -69.162254 -47.210403 9669505
-55.426685 -69.341171 -120.72036 9405822
-54.837048 -69.118782 -120.96297 6511954
-53.889641 -68.968491 -121.27309 7037274
-134.87042 -68.0261 -45.666515 7629412
-134.64981 -67.999718 -46.570705 6708822
-54.758869 -68.293953 -121.30118 10853012
-54.073746 -68.009048 -121.59326 10392713
-53.192337 -67.901657 -121.86929 9668991
-149.59114 -66.973923 -32.192371 8024682
-149.18269 -66.878922 -33.0485 7498592
-147.99847 -66.851418 -33.354851 7038298
-147.58784 -66.757675 -34.200214 7169628
-147.17357 -66.664276 -35.042351 8616307
-146.00537 -66.638962 -35.329124 8945272
-145.6727 -66.565193 -35.99472 8616307
-135.53831 -67.047302 -44.99411 7169371
-135.2063 -67.169594 -45.851498 10984337
-134.98032 -67.166756 -46.501938 7169885
-53.989296 -67.041283 -121.98817 9143417
-53.253998 -67.018456 -122.19274 8946038
-52.506252 -67.025414 -122.38918 10392716
-145.42136 -66.510071 -36.492249 7301479
-144.71854 -66.470642 -36.876614 8617080
-143.93233 -66.413612 -37.420338 8617080
-143.42429 -66.305199 -38.400131 10064010
-142.42216 -66.257439 -38.874336 10129289
-141.6898 -66.158669 -39.781288 7564651
-140.99995 -66.08696 -40.448471 9801610
-140.13771 -66.050484 -40.815712 8287856
-139.47784 -65.833336 -41.357937 10655886
-137.10785 -65.71051 -43.63319 7893349
-136.60014 -66.003334 -44.450222 8419181
-136.04007 -66.334991 -45.192825 6117196
-135.63766 -66.520935 -45.995632 10786958
-53.316853 -66.151184 -122.5099 8880245
-52.481411 -66.153267 -122.73141 10261132
-51.792946 -65.877075 -123.02103 9142909
-138.69383 -65.270241 -42.954205 7893349
-137.87924 -65.151985 -43.071815 9406076
-137.65927 -65.253319 -43.732693 10327175
-53.206238 -65.505394 -122.7881 9143417
-52.591557 -65.160934 -123.08433 9011323
-51.64325 -65.057838 -123.37633 6972512
-51.135098 -64.680351 -123.65698 6972512
-52.550068 -64.30484 -123.42518 6446168
-51.85778 -64.031029 -123.71484 8946556
-50.969604 -63.935234 -123.98802 9209471
-50.352215 -63.59771 -124.28235 10262156
-51.768272 -63.217918 -124.05196 8881790
-51.141453 -62.916634 -124.33475 10459281
-50.316223 -62.974297 -124.53212 9340029
-51.130943 -62.121834 -124.64375 13946051
-50.287971 -62.099022 -124.87683 11511454
-49.540977 -61.945328 -125.13475 9669250
-50.337982 -61.22596 -125.19986 15722462
-49.444801 -61.137619 -125.47154 14998735
-48.843243 -60.936615 -125.709 11512220
-49.684906 -60.353973 -125.82034 15985630
-48.790943 -60.067139 -126.29749 10064776
-48.09354 -59.719589 -126.84383 7696746
-48.174198 -59.403221 -127.57095 7039331
-47.415562 -59.455368 -127.59822 12102563
-46.653103 -59.330177 -128.36008 14141632
-45.930771 -59.266663 -129.05748 7037274
-45.210411 -59.266716 -129.64667 8221546
-44.69101 -59.267525 -130.48909 9537663
-43.596752 -59.266777 -130.86523 9800836
-43.111347 -59.268082 -132.02498 7563619
-42.243587 -59.090492 -132.58598 9405819
-41.59523 -58.875282 -132.74786 9932161
-42.378059 -58.351578 -132.99899 11378324
-41.572624 -58.021973 -133.07388 8024169
-41.504482 -57.183617 -133.37688 8417896
-40.814205 -56.979065 -133.41254 8352616
-41.5481 -56.3125 -133.69817 9141619
-40.792747 -56.04306 -133.75391 9076338
-40.198971 -55.620399 -133.87494 9208182
-40.877121 -55.053955 -134.12076 8813165
-40.189938 -54.920921 -134.13043 9076595
-40.710426 -54.284622 -134.39288 8681835
-40.107403 -54.082199 -134.43272 9602942
-40.072693 -53.206062 -134.75143 9537662
-39.336758 -52.990929 -134.78839 10130312
-40.200108 -52.479446 -135.02466 8682867
-39.405788 -52.009872 -135.15143 9077625
-39.33791 -51.105797 -135.47849 8090987
-38.732697 -50.854668 -135.53604 8814710
-38.529747 -50.069496 -135.99333 8551538
-37.952007 -49.766624 -136.16257 8090475
-37.861645 -49.27829 -136.6723 8946040
-37.219154 -48.90847 -137.11148 9538177
-36.481464 -48.619652 -137.42453 9406847
-36.24453 -48.566551 -138.51895 7039331
-35.697758 -48.500465 -138.46307 7828331
-34.172554 -48.52533 -140.1366 8287855
-33.446484 -48.446846 -140.07715 8813686
-32.839054 -48.385918 -141.25131 8813686
-32.037174 -48.303925 -142.41626 9537665
-31.302792 -48.224564 -142.33878 9537665
-30.667992 -48.16066 -143.52229 8550514
-29.883335 -48.078239 -144.06322 9735555
-29.094231 -47.995216 -144.59581 7959144
-28.431469 -47.928368 -145.7887 8682867
-27.685776 -47.847641 -145.68253 7894126
-26.82 -47.758797 -146.84779 9340799
-26.128658 -47.688881 -148.05008 10062979
-25.563522 -47.627609 -147.95657 8287342
-24.668049 -47.53566 -149.12862 7563619
-24.100502 -47.474068 -149.02716 7037274
-23.188087 -47.380295 -150.19791 8682099
-22.643898 -47.326424 -151.45096 10853012
-21.87944 -47.243492 -151.297 9142650
-21.128422 -47.167213 -152.51553 10854036
-20.552616 -47.104675 -152.3923 10854036
-122.14645 -77.772614 -58.664551 6511954
-121.71916 -78.08017 -59.229023 7038298
-121.22501 -78.074509 -60.163654 9274232
-120.69793 -78.251549 -61.017723 9471608
-123.04056 -76.698807 -57.819599 10263180
-122.48932 -76.9692 -58.646271 9143674
-121.953 -77.057594 -59.586926 7564642
-121.48991 -77.127533 -60.404079 8682867
-124.21202 -75.716347 -56.730423 8286573
-123.79722 -75.822411 -57.336903 7432807
-123.27913 -76.033043 -58.039154 10327695
-122.80926 -76.018913 -58.933964 11051160
-122.33463 -76.179222 -59.601353 10130057
-126.11336 -74.573822 -55.220589 7037792
-125.44016 -74.73024 -56.132927 8418673
-124.77911 -75.025826 -56.744183 8089965
-124.28583 -75.171097 -57.487526 8484721
-123.77271 -75.294807 -58.249962 8813941
-131.64844 -73.744217 -49.906567 8288109
-131.34834 -73.901489 -50.63979 6380369
-130.83612 -74.121277 -51.290813 7827814
-129.87749 -74.242622 -52.066608 5656390
-129.17603 -74.242798 -52.694187 6313808
-128.47568 -74.242966 -53.316788 6182222
-127.61011 -74.277802 -53.955616 7169634
-127.13574 -74.319572 -54.752483 8485237
-126.52771 -74.415565 -55.580227 8682616
-72.376656 -74.380127 -106.20284 7432800
-71.579857 -74.34565 -106.67757 8090987
-70.781311 -74.312607 -107.14836 7432545
-69.977356 -74.271332 -107.88983 10525328
-69.3255 -74.261673 -108.58713 8617336
-68.546005 -74.261971 -109.37859 6644317
-67.759781 -74.261871 -109.87476 7960431
-67.072433 -74.262321 -110.6502 9933961
-66.460159 -74.262451 -111.1979 8748916
-65.625328 -74.26284 -112.04467 7499106
-64.685562 -74.262558 -112.59843 6708821
-64.16629 -74.26326 -113.39227 7958373
-63.430698 -74.263641 -114.17973 6116172
-62.609966 -74.26342 -114.63885 7168860
-61.966331 -74.263931 -115.42285 7038043
-61.314667 -74.264435 -116.20353 8157038
-60.479389 -74.264122 -116.64725 9735812
-59.801167 -74.129738 -117.48067 7696234
-58.888462 -73.909637 -118.04057 8287595
-58.150669 -73.657326 -118.33418 8484973
-131.94092 -73.052063 -49.774391 6972505
-131.70609 -73.036163 -50.715511 5196350
-59.74918 -73.460854 -117.98401 7761512
-59.193638 -73.047165 -118.29114 8682351
-58.208378 -72.949974 -118.59093 8024682
-132.49895 -72.013397 -49.110168 8156523
-132.23936 -72.127159 -49.958706 5985610
-131.95029 -72.526901 -50.504917 4867385
-59.128834 -72.20858 -118.63106 8813938
-58.380344 -72.076653 -118.88118 8156269
-57.561558 -71.963928 -119.14261 7564391
-133.16864 -70.576302 -48.591667 6510930
-132.83846 -71.010422 -49.248234 6577235
-132.5224 -71.264046 -50.113167 4867385
-58.369747 -71.258507 -119.19881 7564643
-57.522751 -71.141533 -119.46938 6971481
-56.7579 -70.775467 -119.81393 7563618
-133.4032 -70.015068 -48.494553 7959144
-133.1386 -70.091217 -49.417995 6510930
-57.692444 -70.18074 -119.7939 7366239
-56.769367 -70.013893 -120.10393 7892583
-56.100712 -69.689804 -120.40674 8419183
-133.9603 -68.987297 -47.820469 7038042
-133.71988 -69.092369 -48.608612 7564387
-133.47678 -69.304253 -49.249973 7761509
-57.6213 -69.349892 -120.13255 7563618
-57.012596 -68.988838 -120.43358 7695204
-55.977886 -69.078362 -120.67468 8287853
-134.61157 -67.740715 -47.102707 5393730
-134.34833 -67.919769 -47.871635 5591109
-134.04582 -68.227966 -48.604195 5722439
-56.862156 -68.228012 -120.7665 8616307
-56.241337 -68.177063 -120.95139 7301214
-55.28912 -68.023415 -121.26405 8682353
-151.10924 -66.949806 -32.319969 9011316
-150.29776 -66.887764 -32.90929 8484973
-149.88327 -66.792458 -33.768639 8484973
-148.92389 -66.757973 -34.124092 9208182
-148.2709 -66.67141 -34.919765 9208183
-147.61848 -66.585457 -35.709866 9800582
-146.67139 -66.552864 -36.047989 9208703
-135.20247 -66.845963 -46.577477 15721430
-134.96667 -66.900856 -47.271229 5920074
-134.65582 -67.042076 -48.029793 6906713
-56.162319 -67.205833 -121.34653 8945011
-55.409267 -67.094528 -121.58976 9800319
-54.560871 -66.895775 -121.89205 10985106
-146.41829 -66.497391 -36.549068 11379356
-146.16373 -66.442017 -37.048584 9208703
-145.36858 -66.384361 -37.598213 9471875
-144.48856 -66.30925 -38.305729 8946044
-143.97238 -66.200562 -39.28775 9012093
-142.8251 -66.179405 -39.536819 7564651
-142.39255 -66.090111 -40.344318 7564651
-141.6515 -65.991875 -41.246986 12893877
-140.7377 -65.964348 -41.538738 11839901
-140.29912 -65.876724 -42.331863 6313810
-139.94597 -65.806847 -42.964165 6510930
-136.82579 -65.621284 -45.110168 5393730
-136.36224 -65.806862 -45.810928 6709078
-135.83452 -66.084564 -46.535927 10590094
-135.44525 -66.321075 -47.146778 8089963
-55.519787 -66.135368 -121.92987 9405562
-54.640232 -65.988815 -122.22034 8485488
-53.999912 -65.791931 -122.46657 7564643
-137.73517 -65.065704 -44.48777 10853262
-137.41026 -65.133652 -45.207966 6972505
-136.92189 -65.340637 -45.873432 8089963
-54.775089 -65.126846 -122.51653 8156779
-53.783329 -65.158096 -122.76836 8748660
-53.155476 -64.80677 -123.07073 6446422
-54.638371 -64.385895 -122.83838 10393228
-54.040272 -64.171043 -123.08028 9932678
-53.149487 -64.068665 -123.35672 6972767
-52.532043 -63.725807 -123.65307 8092019
-53.955189 -63.354942 -123.41731 12038823
-53.260132 -63.078789 -123.70865 11644580
-52.367775 -62.980026 -123.98409 10921114
-53.217396 -62.106422 -124.0946 15724510
-52.475441 -61.992172 -124.33603 14540238
-51.657089 -61.829346 -124.61647 14867922
-52.507008 -61.073402 -124.68295 15263704
-51.68848 -60.913567 -124.96773 15722974
-50.937862 -60.984932 -125.13316 15722462
-51.832203 -60.279922 -125.30872 15722718
-50.990292 -60.078575 -125.69429 14340811
-50.119122 -59.822121 -126.15229 14603723
-49.373199 -59.599907 -126.60463 10261641
-50.344879 -59.452827 -126.83528 12827573
-49.569965 -59.434464 -127.1003 8222833
-48.858757 -59.326523 -127.70723 7959918
-48.085567 -59.268066 -128.25635 8551028
-47.326473 -59.26844 -129.04181 9931909
-46.559582 -59.268784 -129.82236 7695205
-45.836243 -59.268852 -130.4187 7629410
-45.316296 -59.269638 -131.27097 11774364
-44.372936 -59.268997 -131.59865 10985109
-43.664074 -59.113571 -132.62692 8221804
-42.909557 -58.892532 -132.83113 8418928
-43.793064 -58.542084 -133.00967 7564386
-43.0028 -58.050957 -133.14449 10260616
-42.946209 -57.136269 -133.47607 9865600
-42.342751 -56.870193 -133.53918 8088931
-42.986164 -56.320259 -133.77695 10259843
-42.221069 -56.027344 -133.84079 8878447
-42.223984 -55.16964 -134.15489 9207668
-41.558064 -55.017181 -134.1729 9141876
-42.129105 -54.456345 -134.41057 9866366
-41.530628 -54.03334 -134.53143 9603196
-40.790211 -53.595154 -134.64972 8682867
-41.508533 -53.097206 -134.87282 9734783
-40.8703 -52.905739 -134.90668 9274747
-40.780235 -52.127007 -135.18661 9997699
-40.759274 -51.263229 -135.50159 9668991
-40.073467 -50.954414 -135.57568 8551281
-40.046806 -50.162331 -136.07339 9340798
-39.324982 -49.859123 -136.22926 9538433
-39.312119 -49.35955 -136.7887 9274487
-38.564678 -49.013618 -137.1877 9603455
-37.727913 -48.743423 -137.45457 9735812
-37.156315 -48.674744 -138.60052 8354163
-35.629009 -48.682663 -140.24594 9406848
-34.899902 -48.603882 -140.19322 8814969
-34.853214 -48.603607 -141.42639 7039331
-34.11953 -48.524277 -141.3656 8419699
-33.325996 -48.443275 -142.54388 9537409
-32.773045 -48.38353 -142.4904 9866374
-31.963097 -48.300751 -143.668 9537665
-31.407341 -48.240639 -143.60698 9537665
-30.580822 -48.15612 -144.78386 12235434
-29.740723 -48.070129 -145.96675 9868171
-29.178993 -48.009285 -145.89154 8354675
-28.322121 -47.921501 -147.07352 8618359
-27.757782 -47.860344 -146.99066 9210491
-26.884106 -47.770744 -148.17157 8288621
-25.996376 -47.679634 -149.35849 10062979
-25.426418 -47.617844 -149.2612 8155499
-25.094978 -47.587105 -150.55078 11378324
-24.521526 -47.52491 -150.44702 9800065
-23.949192 -47.462799 -150.34169 7037274
-23.410793 -47.409653 -151.60114 10392461
-22.476376 -47.313492 -152.79619 10854036
-21.898022 -47.250763 -152.677 10854036
-20.946041 -47.152725 -153.87086 7037274
-20.365353 -47.089729 -153.74352 7037274
-120.64167 -77.844543 -61.441296 13024949
-120.20689 -78.082474 -62.074066 10590605
-119.75002 -78.076393 -62.938854 7695713
-119.28004 -78.178619 -63.743805 6972504
-118.86777 -78.440933 -64.315262 9208435
-121.45828 -76.756264 -60.753422 9406334
-121.02303 -76.991165 -61.389442 11511709
-120.54715 -76.944763 -62.321503 11183001
-120.0667 -77.195938 -63.029892 6840919
-122.86398 -75.654518 -59.369392 10590609
-122.35965 -75.821457 -60.064659 11116952
-121.831 -75.944733 -60.876839 9933446
-121.28326 -76.053551 -61.74929 10591375
-120.72812 -76.248245 -62.524464 11906725
-125.30853 -74.613144 -57.223541 7038307
-124.66321 -74.666969 -58.096436 7367014
-124.02493 -74.82682 -58.777149 7695204
-123.31126 -75.074249 -59.50948 10064008
-122.80547 -75.11422 -60.385124 12959153
-122.24612 -75.32048 -61.081291 10591374
-76.85936 -74.601318 -103.43634 7366239
-76.20372 -74.565918 -103.85131 7695205
-131.08435 -73.874634 -51.921093 8551281
-130.70093 -74.056206 -52.782143 6511442
-129.83003 -74.24469 -53.320641 8287597
-129.25275 -74.245415 -54.180729 6510930
-128.41219 -74.245003 -54.562134 7103069
-127.79639 -74.24604 -55.487423 9208703
-126.88313 -74.260254 -56.098164 9734788
-126.28059 -74.373543 -56.82412 9932422
-125.63707 -74.448189 -57.736496 7630186
-75.678108 -74.538353 -104.18133 7037274
-75.080147 -74.443573 -104.77907 7168860
-74.368668 -74.39254 -105.27406 8419183
-73.574295 -74.354881 -105.75906 8551026
-72.824951 -74.290848 -106.41626 7235421
-72.01503 -74.262924 -107.31676 7038298
-71.450005 -74.263329 -107.98597 8419695
-70.737091 -74.263519 -108.62 8814456
-69.99221 -74.263771 -109.32951 7696235
-69.206383 -74.263634 -109.83607 5920082
-68.511986 -74.264137 -110.65527 7039331
-67.83181 -74.264557 -111.40619 9933961
-66.948074 -74.264587 -112.12244 8946553
-66.170898 -74.264832 -112.80917 8222572
-65.523331 -74.265015 -113.41076 6841177
-64.896385 -74.265587 -114.2114 6776158
-64.075424 -74.265312 -114.68109 5789003
-63.236496 -74.265556 -115.44292 6051660
-62.788994 -74.266403 -116.26934 6972762
-61.963161 -74.102867 -116.96558 8222576
-61.097824 -73.979591 -117.38739 7104100
-60.304134 -73.877045 -117.67602 7038307
-131.66029 -72.754715 -51.305592 7893607
-131.375 -73.018738 -52.035183 9801861
-131.07198 -73.276642 -52.842949 7564643
-61.97607 -73.34095 -117.43709 8814713
-61.401203 -73.021942 -117.71291 7498857
-60.321404 -73.130432 -117.95874 7564648
-132.20308 -71.784691 -50.600826 4867385
-131.95836 -72.00354 -51.237816 6643798
-131.69058 -72.0896 -52.158859 8683893
-61.202953 -72.361305 -118.01996 7301475
-60.545624 -72.149712 -118.27641 7827559
-59.629864 -71.887375 -118.62121 9472124
-132.55812 -70.909416 -50.491604 5854280
-132.25565 -71.079887 -51.425468 6973023
-131.96539 -71.4814 -51.972977 7039331
-60.550571 -71.282219 -118.6089 8419952
-59.798618 -71.005455 -118.91566 10129798
-58.998318 -70.892143 -119.17236 7959144
-133.10641 -69.887047 -49.844193 6510930
-132.85637 -69.961533 -50.715343 7696488
-132.59009 -70.151062 -51.480694 8157554
-59.80061 -70.141159 -119.24774 7564643
-58.863499 -70.138016 -119.49844 7432801
-58.060585 -69.860184 -119.81921 7563618
-133.66692 -68.751068 -49.319546 9012344
-133.35977 -69.148972 -49.938187 9341053
-133.19673 -69.00248 -50.793823 9340286
-59.797436 -69.54985 -119.47641 13550517
-59.187847 -69.182732 -119.77999 8551280
-58.192909 -69.015869 -120.10898 8089963
-57.42627 -68.627815 -120.46246 6510930
-134.00275 -67.951775 -49.180553 7103836
-133.7395 -68.042877 -50.079067 10459022
-133.43182 -68.441299 -50.698723 10459023
-59.041241 -68.418167 -120.11354 7038307
-58.429829 -68.05497 -120.41615 7827558
-57.500416 -67.969467 -120.69633 7432800
-152.56642 -66.906105 -32.623482 8485229
-151.91241 -66.882111 -32.870312 9208695
-151.09221 -66.82 -33.460499 8485229
-150.58746 -66.70517 -34.495613 9405561
-149.38068 -66.678658 -34.794933 9931648
-148.95743 -66.58429 -35.646156 9734788
-134.74196 -66.720596 -48.486996 7433057
-134.3615 -66.949493 -49.328564 9603969
-134.03767 -67.298988 -50.005726 10459023
-58.280544 -67.293571 -120.74922 7761765
-57.606251 -67.119141 -120.9958 7301470
-56.737217 -67.064125 -121.24821 9142390
-148.53072 -66.490372 -36.493954 9077117
-147.34055 -66.465973 -36.773586 10392719
-146.82549 -66.354782 -37.777454 8485238
-146.11644 -66.279564 -38.476646 10393229
-145.21909 -66.240402 -38.869537 8156787
-144.69638 -66.131332 -39.855549 8156786
-143.80733 -66.09333 -40.238312 10130831
-143.10049 -66.020844 -40.91309 9538696
-142.5705 -65.913841 -41.88139 12761776
-141.55882 -65.86879 -42.332264 11380122
-140.80646 -65.772003 -43.222591 7958632
-140.26993 -65.668304 -44.172501 7432288
-136.15315 -65.615326 -47.083221 9340028
-135.60652 -65.871147 -47.858604 7037787
-135.24677 -65.95787 -48.742729 7564643
-134.82362 -66.249115 -49.373081 9011832
-57.629086 -66.25528 -121.32253 6249039
-56.771656 -66.147682 -121.59209 7498336
-55.995392 -65.792847 -121.93533 9273976
-138.94655 -65.201103 -44.866802 7893349
-137.67036 -64.782494 -45.751591 7367006
-137.16357 -64.980568 -46.504559 10195337
-136.65916 -65.165031 -47.301327 10918802
-136.1936 -65.340645 -48.016399 8089963
-56.935932 -65.195816 -121.91515 7301215
-56.00124 -65.039352 -122.22407 7301214
-55.222908 -64.688606 -122.56625 7301470
-56.239544 -64.022629 -122.55238 9932422
-55.304295 -63.94976 -122.82926 10853780
-56.081768 -63.270699 -122.88403 12432037
-55.424267 -63.124489 -123.11533 11117209
-54.489498 -63.082298 -123.38022 14078918
-55.366474 -62.26432 -123.46207 8089963
-54.672268 -62.130676 -123.69823 10261900
-53.826954 -62.026131 -123.96341 13684160
-54.70892 -61.208969 -124.04358 7827819
-53.886562 -61.041107 -124.32703 11710372
-53.064571 -60.875732 -124.60971 12697524
-53.968372 -60.313469 -124.71447 8552056
-53.175804 -60.045212 -125.13896 11118494
-52.305756 -59.915436 -125.47346 14209992
-51.698013 -59.671143 -125.83035 12827573
-52.511169 -59.509583 -126.0772 12170668
-51.634716 -59.442841 -126.52893 9932940
-50.944672 -59.353577 -127.00611 8485495
-49.92498 -59.273201 -127.54953 7039331
-49.651764 -59.270721 -128.6515 11905692
-48.727123 -59.270157 -129.01059 7367525
-48.013844 -59.270287 -129.619 8089963
-47.352211 -59.271004 -130.53741 9339772
-46.466377 -59.266823 -131.18961 10655886
-45.96003 -59.082542 -132.09085 12104104
-45.010384 -59.081535 -132.42245 8879735
-44.278503 -59.024178 -132.70023 7564386
-45.866806 -58.556664 -132.32967 10787988
-45.180393 -58.206001 -132.70656 7564130
-44.207226 -58.16066 -133.05475 7301214
-45.223446 -57.330688 -133.03493 6511954
-44.539791 -57.190979 -133.32582 7235421
-43.685524 -56.99865 -133.56845 9274235
-44.493549 -56.340569 -133.67789 8221802
-43.669495 -56.055664 -133.90968 9142390
-43.071148 -55.627609 -134.0354 9141619
-43.648003 -55.067566 -134.27313 8747885
-43.005177 -54.986336 -134.26636 9734523
-43.59927 -54.286858 -134.55612 9866366
-42.844643 -54.149399 -134.56358 10787211
-42.211914 -53.765091 -134.6683 9866366
-42.901962 -53.196915 -134.91548 11971485
-42.160126 -52.987617 -134.94997 9866366
-42.187458 -52.041557 -135.29779 9603453
-41.386494 -51.567123 -135.42598 9537662
-42.153297 -51.217285 -135.5976 8813941
-41.544495 -50.838852 -135.74011 9076856
-41.409157 -50.241692 -136.14893 9669249
-40.852604 -49.817406 -136.46277 10261643
-40.595528 -49.428833 -136.90909 10327181
-39.997478 -49.16127 -137.21407 9734784
-39.159286 -48.888489 -137.48471 9537403
-38.616173 -48.843315 -138.70694 9143162
-37.091183 -48.840546 -140.34178 8814713
-36.35923 -48.761513 -140.29584 12432037
-35.588654 -48.683044 -141.48341 8223089
-34.805 -48.603172 -142.67712 8288621
-34.064816 -48.523163 -142.61197 9274237
-33.449364 -48.461441 -143.82199 10261132
-32.705444 -48.381027 -143.74661 8814200
-31.88728 -48.297424 -144.93727 8814714
-31.243679 -48.23275 -146.15761 8486006
-30.491489 -48.151344 -146.06351 10591380
-29.831902 -48.084923 -147.28577 9868171
-29.076103 -48.00309 -147.1813 8947327
-28.400406 -47.934998 -148.40529 7037789
-27.641075 -47.852699 -148.29039 7367007
-26.949265 -47.782883 -149.51611 8551793
-26.053272 -47.69091 -150.71939 9405307
-25.477943 -47.628616 -150.61885 11378324
-24.949406 -47.574883 -151.88715 8813171
-24.372055 -47.513885 -151.78479 9537408
-23.247833 -47.393341 -152.9388 9800838
-22.49062 -47.301231 -154.13632 7959664
-21.719059 -47.2304 -154.01657 8420470
-20.944828 -47.135376 -155.21165 8683637
-119.19006 -77.798042 -64.210228 9208435
-118.67996 -78.075172 -64.954147 8090471
-118.21957 -78.080238 -65.816971 8286569
-117.77024 -78.209953 -66.561508 9470843
-119.94316 -76.852081 -63.530807 7103833
-119.49492 -76.972984 -64.280243 8419178
-119.03429 -76.974663 -65.146126 7498081
-118.5229 -77.253975 -65.890785 9142905
-121.42445 -75.616379 -62.142242 10327947
-120.87479 -75.833969 -62.836426 7498849
-120.38292 -75.921768 -63.637749 6643540
-119.88703 -76.010338 -64.435692 8879990
-119.34705 -76.241859 -65.129311 7037274
-124.22208 -74.587997 -59.464523 7037274
-123.85367 -74.581215 -60.208023 8091248
-123.25313 -74.639259 -60.949432 9078140
-122.50784 -74.871048 -61.517059 8618098
-121.86443 -75.041939 -62.302795 8354926
-121.30823 -75.178474 -63.08004 6840919
-120.8705 -75.298668 -63.706421 7300958
-81.105049 -74.92067 -100.80769 7563615
-80.27359 -74.822227 -101.26201 7563615
-79.524582 -74.685104 -101.95895 6051404
-78.703674 -74.640724 -102.47892 6643285
-77.644821 -74.645042 -102.93464 7432289
-130.75089 -73.805664 -53.325497 5919050
-130.50375 -74.032707 -53.959755 9735300
-130.19531 -74.108116 -54.863556 7892840
-128.99127 -74.247078 -55.35379 9076857
-128.33398 -74.24794 -56.359913 9076858
-127.48717 -74.247459 -56.727154 8813686
-127.07957 -74.248543 -57.650185 7629929
-126.28329 -74.276253 -58.028618 7433064
-125.42874 -74.342926 -58.846565 8551029
-124.87952 -74.386536 -59.589817 9538432
-124.31882 -74.418976 -60.430538 8091248
-78.592949 -74.536011 -102.89403 6971994
-77.944679 -74.458168 -103.45493 7892584
-77.294098 -74.381424 -104.01299 7366239
-76.504601 -74.341202 -104.51607 7432289
-75.814835 -74.309952 -105.04885 7300446
-75.008888 -74.26432 -105.89989 7760998
-74.120514 -74.264259 -106.53287 5919050
-73.567993 -74.264984 -107.37611 6708566
-72.889771 -74.265083 -107.93503 6906201
-72.22924 -74.265617 -108.74522 7695972
-71.316772 -74.265488 -109.35439 7235679
-70.399414 -74.26535 -109.95614 5920082
-69.916809 -74.266113 -110.77983 8946301
-69.216393 -74.266647 -111.60737 11315357
-68.414116 -74.266479 -112.10826 12236714
-67.639397 -74.266663 -112.80694 10065036
-66.994247 -74.266869 -113.41874 9933703
-66.372093 -74.267456 -114.23106 8486001
-65.550888 -74.267273 -114.71142 6709849
-64.71492 -74.267502 -115.48642 5065021
-64.193878 -74.084038 -116.36766 5591108
-63.276386 -74.028915 -116.82607 7235934
-62.407627 -73.86869 -117.11908 9209467
-131.0965 -72.893105 -53.307461 6050892
-130.7475 -73.185867 -54.243919 8156523
-63.476803 -73.231522 -117.07954 8353902
-62.51857 -72.970741 -117.43504 8880759
-61.7925 -72.603485 -117.76978 8814713
-131.61069 -71.897728 -52.751545 6511443
-131.38689 -71.97879 -53.508812 6116685
-131.13376 -72.170799 -54.217716 5919050
-63.41338 -72.424927 -117.40678 8485232
-62.735634 -72.070122 -117.72383 10262411
-61.821098 -71.942009 -118.01664 9341054
-132.21815 -70.740288 -52.071499 9341313
-131.90891 -71.146751 -52.685822 6907230
-131.73711 -71.066833 -53.477512 7169629
-62.669491 -71.267059 -118.05067 9933190
-61.852413 -71.147202 -118.31429 8880503
-60.923122 -70.964035 -118.63212 9801604
-132.55424 -69.935333 -51.939564 10656658
-132.28366 -70.079987 -52.787891 7565674
-131.97821 -70.442932 -53.451195 9341313
-61.983753 -70.212585 -118.6394 8156780
-61.140106 -70.037178 -118.93143 8748917
-60.247593 -69.877151 -119.23052 9143160
-133.06049 -69.026344 -51.293385 8419698
-132.83243 -69.068054 -52.126709 11380379
-132.54053 -69.296265 -52.93568 7039331
-61.356815 -69.111458 -119.23045 8879732
-60.437077 -68.973793 -119.52814 11116950
-59.60577 -68.823654 -119.80717 11511449
-133.68456 -67.704185 -50.79385 10459023
-133.39444 -68.101021 -51.347279 9011321
-133.1319 -68.2173 -52.206036 8617077
-60.485615 -68.199539 -119.81352 10656914
-59.581043 -68.04422 -120.11401 8880507
-58.846901 -67.695374 -120.44377 6840919
-153.38263 -66.837585 -33.17997 8485487
-152.44543 -66.792824 -33.624424 7959142
-151.72308 -66.712997 -34.364624 8551022
-151.29567 -66.617073 -35.229931 7958886
-150.31726 -66.583183 -35.580944 8419440
-134.38257 -66.579033 -49.948643 13024949
-134.03819 -66.911621 -50.604061 10722195
-133.7504 -67.042862 -51.510681 8813942
-60.472076 -67.491135 -120.0901 9341057
-59.735958 -67.141113 -120.42075 7959407
-58.768795 -66.90625 -120.76855 7367008
-149.64789 -66.496338 -36.379711 7761766
-148.97911 -66.41021 -37.172855 9471617
-147.92661 -66.359604 -37.674469 8945532
-147.49089 -66.266769 -38.513535 9537150
-146.80322 -66.197685 -39.157475 11379865
-145.7793 -66.134323 -39.769695 8419958
-145.33737 -66.043213 -40.593697 8880507
-144.53058 -65.987747 -41.124893 6972768
-143.6355 -65.915009 -41.812073 7893611
-143.11066 -65.813919 -42.786461 9012088
-142.22252 -65.778145 -43.149395 10459020
-141.51205 -65.709389 -43.807728 8879990
-140.99445 -65.616966 -44.769249 9471870
-140.26363 -65.570816 -45.100815 7037274
-135.33228 -65.608116 -49.372116 10985622
-134.90041 -65.905312 -50.015484 11840931
-134.42152 -66.172546 -50.885567 9669506
-59.834171 -66.257416 -120.73509 7038307
-59.020985 -65.983589 -121.05691 7959146
-58.07531 -65.988289 -121.30669 7761765
-137.58981 -64.548553 -47.386379 10590094
-136.94037 -64.781044 -47.905075 11248022
-136.37849 -65.027428 -48.634914 6643283
-135.88158 -65.198853 -49.383984 8288365
-135.39311 -65.322121 -50.133583 13024949
-59.067188 -65.136314 -121.37105 8682867
-58.157261 -65.177315 -121.59733 8025194
-57.30579 -64.875153 -121.94022 7827561
-137.25858 -64.500496 -48.014606 10326663
-137.03116 -64.502037 -48.677948 4867385
-58.388569 -64.195869 -121.91393 6446423
-57.385193 -64.066246 -122.23078 7038305
-56.655052 -63.661308 -122.58102 7038307
-58.286083 -63.438286 -122.23305 6446423
-57.665314 -63.084381 -122.53453 6578012
-56.656658 -62.93322 -122.86111 7301479
-57.508606 -62.331573 -122.86627 10590351
-56.932571 -61.94091 -123.17004 9603458
-55.946682 -62.118607 -123.36383 8353393
-56.850681 -61.123756 -123.50662 10327434
-56.025963 -61.216461 -123.69032 8946041
-55.24239 -60.920647 -124.01273 8091762
-56.165325 -60.438171 -124.03171 9275006
-55.365326 -60.107269 -124.52119 8288884
-54.57486 -59.928993 -124.89732 9275522
-53.896519 -59.780685 -125.15909 8092019
-54.364185 -59.563698 -125.41011 9012350
-53.854259 -59.461983 -125.8811 8092019
-53.055553 -59.395699 -126.31085 8092019
-52.408741 -59.301437 -127.10416 7301735
-51.646015 -59.271835 -127.85046 9932940
-50.573799 -59.271271 -128.28574 10130058
-50.306641 -59.272835 -129.40872 9735037
-49.376419 -59.27224 -129.77258 8813936
-48.660381 -59.272377 -130.38831 7892840
-48.184727 -59.019966 -131.33945 9537665
-47.13858 -59.062408 -131.68768 11248283
-48.05106 -58.217201 -131.70094 7827559
-47.337513 -58.212273 -131.95177 9998472
-46.431107 -58.164192 -132.28676 10787988
-45.794735 -57.856071 -132.62961 7563619
-47.350555 -57.278046 -132.31369 8813942
-46.517349 -57.157646 -132.65152 7892584
-45.659946 -57.10585 -132.97089 7366496
-46.615776 -56.370293 -132.92601 7958635
-45.811527 -56.074493 -133.32254 8550768
-44.854572 -55.990021 -133.68942 7826787
-46.019001 -55.173592 -133.60355 8353389
-45.112049 -55.092117 -133.95184 7826786
-44.282764 -54.93718 -134.28502 8353128
-45.185928 -54.124626 -134.30554 7629408
-44.336845 -54.001434 -134.62201 8221545
-43.663692 -53.767014 -134.75006 11708313
-44.451763 -53.055595 -134.96294 8287340
-43.690731 -52.96096 -135.04665 11839899
-43.568752 -52.17263 -135.32829 9866367
-42.819286 -51.732674 -135.44678 9866366
-43.592354 -51.384216 -135.61821 9142647
-42.845325 -50.919579 -135.80318 9010804
-43.013073 -50.29525 -136.26773 9010803
-42.20797 -49.926437 -136.52379 9405822
-41.43243 -49.648277 -136.71994 11380380
-42.098392 -49.45826 -137.12924 11380380
-41.342651 -49.220306 -137.36104 10985622
-40.598103 -49.037254 -137.5105 9537403
-39.893974 -48.98597 -138.77405 9997958
-38.37516 -48.979149 -140.41464 8814713
-37.82428 -48.919708 -140.38492 7893614
-37.063763 -48.842316 -141.58769 6511447
-36.307812 -48.763062 -142.16722 8551795
-35.546909 -48.683311 -142.73843 7103323
-34.755177 -48.602654 -143.94577 8090736
-34.194977 -48.542061 -143.89392 9143166
-33.386421 -48.459526 -145.10077 9669253
-32.823429 -48.398666 -145.04128 9143166
-31.997986 -48.314362 -146.24776 10392975
-31.158913 -48.228554 -147.46063 7039331
-30.589481 -48.166962 -147.38686 8092019
-29.733189 -48.079323 -148.59914 8092019
-29.161232 -48.01741 -148.51746 8092019
-28.28693 -47.926514 -149.72479 7037786
-27.392467 -47.823921 -150.90639 8617334
-26.820244 -47.770988 -150.84039 9340028
-25.90694 -47.663254 -152.01025 8024943
-25.3321 -47.610161 -151.93704 7038307
-24.594582 -47.518669 -153.13274 9669509
-23.845043 -47.425842 -154.33847 9932681
-23.26395 -47.37236 -154.25299 9012350
-22.304668 -47.260139 -155.43167 7959664
-21.721073 -47.206543 -155.33875 10263180
-20.939823 -47.110657 -156.55019 7038302
-117.73346 -77.845993 -66.914742 9273720
-117.27592 -78.06459 -67.605339 10195081
-116.72185 -78.152458 -68.579269 7563876
-116.12425 -78.194237 -69.445984 7695978
-115.41897 -78.390259 -70.2174 8485235
-118.57369 -76.736641 -66.198891 9142904
-118.00059 -77.023582 -67.053818 8878705
-117.49058 -77.00425 -68.028908 9010807
-117.05108 -77.260681 -68.656029 7038307
-119.9677 -75.606186 -64.903732 9274492
-119.38992 -75.842155 -65.618515 8090218
-118.85271 -75.960426 -66.465416 9209212
-118.34061 -76.026917 -67.327843 10721426
-117.80111 -76.269386 -68.018028 11708063
-122.88306 -74.568123 -62.134529 8092011
-122.35222 -74.604897 -62.888279 8092011
-121.72629 -74.676117 -63.731354 8156012
-120.8835 -74.965965 -64.317268 8616050
-120.40991 -75.002701 -65.139748 9603199
-119.82657 -75.175858 -65.873962 8682612
-119.4012 -75.302742 -66.467239 10262156
-84.718697 -75.381355 -98.805527 7892582
-83.959503 -75.124275 -99.361618 8287079
-83.124001 -75.016129 -99.825905 8616301
-82.291664 -74.807678 -100.53365 8221544
-81.475784 -74.671593 -101.13828 8353128
-80.552589 -74.654198 -101.60899 7695201
-130.21332 -73.755966 -55.499313 6511698
-129.84439 -73.987198 -56.195076 7432800
-129.31056 -74.199265 -57.059517 7563619
-128.31546 -74.249779 -57.459267 8155756
-127.70898 -74.250412 -58.301376 10063754
-126.9781 -74.250519 -58.897762 7432806
-126.17342 -74.250763 -59.639797 9275005
-125.37724 -74.255875 -60.379154 8617847
-124.63689 -74.253632 -60.953453 7367271
-123.96693 -74.342957 -61.636055 7433320
-123.26867 -74.40522 -62.512421 8092011
-122.88843 -74.402115 -63.253212 10261132
-81.510391 -74.548981 -101.55204 8681835
-80.856895 -74.507629 -101.98747 8089957
-80.222481 -74.385544 -102.6973 6774614
-79.436584 -74.341469 -103.21687 6511699
-78.621292 -74.30909 -103.84343 7760998
-77.843307 -74.265915 -104.74162 7826532
-77.090347 -74.265915 -105.30498 8088931
-76.333328 -74.26593 -105.86294 8287342
-75.792618 -74.266701 -106.72117 8484721
-74.921135 -74.266533 -107.27745 7037275
-74.470169 -74.267395 -108.12163 6248015
-73.56282 -74.267311 -108.74959 5787720
-72.65052 -74.267181 -109.37033 8353646
-71.979599 -74.267738 -110.18465 9800836
-71.282166 -74.267769 -110.7345 7893354
-70.691734 -74.268456 -111.57018 6511954
-69.889648 -74.268303 -112.08175 10459023
-69.003029 -74.268425 -112.81825 13157817
-68.460938 -74.268913 -113.51307 11446945
-67.857613 -74.269379 -114.23856 9012347
-66.899002 -74.269142 -114.81062 9012345
-66.168243 -74.189064 -115.66907 6644055
-65.509201 -73.975365 -116.19885 6183763
-64.65065 -73.771049 -116.55933 6052176
-130.75992 -72.770073 -54.803013 6510930
-130.49768 -73.076042 -55.381081 6511698
-130.27313 -73.113358 -56.204784 7959144
-65.590195 -73.178001 -116.53748 6644055
-64.702049 -72.935112 -116.86738 7696230
-63.972492 -72.848892 -117.09474 8485232
-131.08983 -71.923149 -54.754673 6840407
-130.75604 -72.214104 -55.635517 6709077
-64.78614 -72.13472 -117.15332 8156268
-63.838139 -72.069595 -117.43062 7563874
-63.23035 -71.686844 -117.73978 8485232
-131.63629 -70.944763 -54.053043 6971994
-131.34488 -71.118851 -54.939873 7893095
-131.07881 -71.325958 -55.678417 6840151
-64.862762 -71.514191 -117.37199 8813942
-64.094719 -71.099998 -117.73592 8485232
-63.093357 -70.91124 -118.07504 9011832
-132.21915 -69.819885 -53.424458 7762541
-131.92007 -70.111214 -54.168514 7169374
-131.67293 -70.23307 -54.958614 7564130
-63.959454 -70.335884 -118.06627 9209211
-63.405979 -69.95768 -118.35926 9933448
-62.434635 -70.099564 -118.563 8814710
-132.57893 -68.901093 -53.367546 7630186
-132.29381 -69.045029 -54.273956 8353651
-63.303223 -69.252968 -118.65811 7762028
-62.492279 -69.07296 -118.94318 6971994
-61.732227 -68.793983 -119.25291 7892581
-133.06497 -68.074295 -52.679474 7564649
-132.84346 -68.03093 -53.61253 7958895
-62.666775 -68.193466 -119.23561 10326664
-61.736561 -67.931488 -119.584 8353132
-61.039082 -67.898628 -119.78226 7038307
-154.46262 -66.827011 -33.212902 8091503
-154.11984 -66.748726 -33.919113 8090988
-153.36659 -66.705528 -34.339344 8156009
-152.52795 -66.643608 -34.928982 9076851
-152.18195 -66.566513 -35.624634 8813680
-133.74368 -66.654472 -52.109726 5920082
-133.41025 -67.092018 -52.77293 7038049
-133.14969 -67.196205 -53.641644 8156529
-61.908268 -67.054253 -119.8763 8484718
-60.893604 -67.133598 -120.11564 7564650
-60.278446 -66.767349 -120.42036 9341057
-151.92068 -66.508919 -36.144596 7695461
-150.77774 -66.502518 -36.263317 7761766
-150.34181 -66.407646 -37.120293 8419440
-149.9023 -66.313103 -37.973854 8090995
-148.68973 -66.289726 -38.245964 9537150
-148.1595 -66.177872 -39.256489 9011063
-147.44669 -66.108261 -39.960487 8156270
-146.51997 -66.064484 -40.346622 7827822
-146.01323 -65.96859 -41.347481 8288622
-145.20084 -65.914467 -41.879036 8157036
-144.38846 -65.86087 -42.403942 9012088
-143.88477 -65.771889 -43.390667 9012088
-143.07678 -65.7192 -43.904995 8090987
-142.26891 -65.667046 -44.41275 10590606
-141.81453 -65.581322 -45.212349 14340802
-134.66452 -65.726547 -51.254204 8485488
-134.19815 -65.986862 -52.098541 7169635
-133.7605 -66.202576 -52.970654 7235427
-61.975868 -66.220795 -120.17942 7892581
-61.186516 -66.146324 -120.41809 8880506
-60.208324 -65.939102 -120.75817 8156786
-141.52628 -65.523758 -45.686058 12959151
-140.78397 -65.4758 -46.013176 8813684
-139.85033 -65.390472 -46.647438 7103834
-139.21634 -65.226295 -47.374199 6511954
-136.14729 -64.858612 -49.942944 10327178
-135.66188 -64.984428 -50.788929 8156523
-135.03038 -65.237785 -51.4846 7827557
-134.65375 -65.34861 -52.27301 10853012
-61.165043 -65.351067 -120.73019 9012606
-60.382671 -64.984673 -121.0795 9473157
-59.516907 -64.870682 -121.35374 7696745
-137.00043 -64.453705 -49.411369 6643282
-136.59383 -64.454468 -50.160198 10261128
-60.417011 -64.106209 -121.40881 10920087
-59.600788 -64.001152 -121.66645 8288625
-58.830986 -64.006912 -121.86899 5393738
-59.687862 -63.202835 -121.95084 7762538
-58.777515 -63.05069 -122.25166 7169888
-58.084209 -62.72419 -122.56194 5393738
-59.725292 -62.505974 -122.20934 8682867
-58.978657 -62.166374 -122.53883 8024937
-57.999271 -61.943031 -122.88542 9801091
-58.97485 -61.223946 -122.9029 7235421
-58.247314 -61.025955 -123.17273 9406589
-57.384109 -60.81723 -123.49027 10787728
-58.206867 -60.336845 -123.56975 9537918
-57.508564 -60.14035 -123.91257 8288108
-56.668224 -59.937943 -124.30106 9932677
-55.906136 -59.612953 -124.84129 9472644
-56.129833 -59.446678 -125.33258 9472644
-55.238354 -59.359596 -125.92213 10459025
-54.548813 -59.304436 -126.44409 8881021
-53.6278 -59.272987 -127.01877 8092019
-53.16291 -59.273895 -127.90125 7828329
-52.466503 -59.274017 -128.53394 11182486
-51.388409 -59.273445 -128.97565 13682362
-50.93689 -59.14666 -130.27327 6446418
-50.160107 -58.902466 -130.68088 6775125
-49.190845 -58.884262 -131.036 7827557
-48.560093 -58.572365 -131.38406 10853012
-50.312874 -58.125916 -130.94789 6840918
-49.422009 -58.055779 -131.28616 7959144
-48.530746 -57.987663 -131.62369 8222573
-49.57579 -57.297623 -131.52989 8945525
-48.675362 -57.206299 -131.87976 9997958
-47.880058 -56.95446 -132.25594 7959145
-49.472252 -56.478371 -131.88734 10062979
-48.835323 -56.165314 -132.23232 10523273
-47.924305 -56.114258 -132.57004 8287342
-47.088497 -55.992912 -132.90913 9077116
-48.653015 -55.419319 -132.58852 8813171
-48.013428 -55.108299 -132.93356 8221550
-47.099682 -55.059753 -133.2713 7959151
-46.382183 -54.824318 -133.61392 7630186
-47.381065 -54.09877 -133.55013 7893358
