# .PCD v0.7 - Point Cloud Data file format
VERSION 0.7
FIELDS x y z rgb
SIZE 4 4 4 4
TYPE F F F U
COUNT 1 1 1 1
WIDTH 1204
HEIGHT 1
VIEWPOINT 0 0 0 1 0 0 0
POINTS 1204
DATA ascii
157.83467 -29.868975 -38.937222 8618105
158.26109 -29.830524 -37.902809 11314327
158.70351 -29.684505 -37.086781 11314327
159.10762 -29.565241 -36.225746 10788243
159.39792 -29.579096 -35.287529 9933193
159.88922 -29.423279 -34.390705 9998727
160.16876 -29.437037 -33.446835 8682867
160.49553 -29.4603 -32.511169 8682867
160.85565 -29.490683 -31.580214 8418928
161.17555 -29.521364 -30.839888 10261643
163.06116 -29.339836 -27.961313 7037274
163.33267 -29.364502 -27.200853 9997187
163.67087 -29.396008 -26.248312 10589324
164.0076 -29.428247 -25.293169 9866366
164.33461 -29.459759 -24.334478 10261123
166.67334 -29.334558 -19.786425 10062979
166.97433 -29.366764 -18.805906 9012088
102.96658 -28.593103 -153.21869 11181972
103.73 -28.832802 -152.76917 10787214
104.24255 -29.265581 -150.40851 5919050
104.91315 -29.251635 -149.83943 6708566
105.7497 -29.234653 -149.12729 13550517
133.83557 -29.079252 -90.402954 6510930
133.90402 -29.001318 -89.521072 6510930
134.00616 -28.908808 -88.435715 8485491
134.06686 -28.854063 -87.787575 7565416
135.89441 -28.54603 -85.991096 11380380
135.97578 -28.456553 -84.909874 9209468
142.56433 -28.608364 -70.218948 10261899
143.14792 -28.859186 -69.654373 8946040
143.88889 -28.99663 -69.021149 8420470
161.3441 -29.196342 -32.678719 8682867
161.6212 -29.218046 -31.927752 8089963
161.96626 -29.245893 -30.986971 8089963
162.30989 -29.274405 -30.044031 9077114
162.65218 -29.303715 -29.098631 10064265
162.92514 -29.327684 -28.340834 8813942
165.14557 -29.184965 -24.652533 9866365
165.45461 -29.213446 -23.684156 9011572
165.76155 -29.242659 -22.713205 9735812
166.067 -29.272552 -21.740088 6709078
166.37077 -29.303215 -20.764357 9207928
167.81056 -29.087751 -19.099566 9538175
168.05257 -29.113747 -18.30961 12432552
168.35359 -29.146927 -17.319792 12169639
168.65327 -29.180826 -16.327608 11380380
168.95158 -29.215521 -15.33256 10590350
169.24857 -29.250952 -14.335001 8615276
169.828 -29.192987 -13.491854 8156014
170.6429 -29.03302 -12.797358 8090736
170.8784 -29.062504 -11.989386 10261132
171.07137 -29.083323 -10.970945 8682613
171.23866 -29.100805 -9.9494839 8813680
173.46292 -29.01144 -7.3533916 11379353
173.49132 -29.010653 -6.5201817 14932944
173.52177 -29.009666 -5.4786243 10985105
176.27243 -29.003433 -0.89261794 10262156
176.26997 -29.002651 -0.045999289 9340027
176.26569 -29.002068 0.58902574 9931137
178.68645 -28.949017 3.6153548 9932678
178.92973 -28.839605 4.3383236 7827046
179.05995 -28.833986 5.2603741 8682354
179.28441 -28.752642 6.0729198 9932674
179.76094 -28.682682 7.1010799 9406334
180.12978 -28.52018 8.2013683 7366239
180.33519 -28.482201 9.0081387 7695463
103.19173 -27.891668 -153.39577 7695204
103.91167 -27.953203 -153.0379 8813683
136.05296 -28.367821 -83.832626 9866628
137.8569 -28.0263 -81.564774 11445658
141.6069 -27.39793 -72.082115 10065291
142.23373 -27.589594 -71.245705 9472640
142.78639 -27.861803 -70.540123 9537920
143.37016 -28.142015 -69.847061 10129802
179.46663 -28.173538 5.3603649 7563619
179.71184 -28.06365 6.0893536 8484975
180.03249 -27.879822 6.9886532 10524815
180.36165 -27.688673 7.9085827 8156011
180.6256 -27.644705 8.9654446 9011837
180.73114 -27.637424 9.9003124 7564651
102.51672 -26.814384 -154.14035 12433069
103.28236 -27.053015 -153.69023 8484976
139.21962 -27.03702 -77.065262 9735043
140.73676 -26.696671 -75.066101 9931910
141.0354 -26.869436 -74.144569 8484720
141.58945 -26.982721 -73.249504 11051669
142.14505 -27.09749 -72.353439 11313813
142.64957 -27.127119 -71.751076 9800834
180.59047 -26.993481 7.7887478 8813682
180.88863 -26.861666 8.8049755 7958893
181.03308 -26.799303 9.8595943 7564651
181.12827 -26.790375 10.796988 7367272
102.8166 -26.008356 -154.32478 10722195
103.46325 -26.170435 -153.96054 9537665
181.16838 -26.172728 8.9067287 7564651
181.34766 -25.89945 9.7174129 8419701
181.51212 -25.720945 10.729788 8090737
181.61476 -25.709373 11.733282 7498601
181.80655 -25.376291 12.448622 7038307
102.25823 -24.738853 -155.09241 9998216
102.79339 -25.119911 -154.69189 9998216
181.8468 -24.755686 10.549635 10064266
181.967 -24.703762 11.581503 7696236
182.08719 -24.652334 12.615385 8288114
102.28669 -23.923828 -155.40619 9800576
103.05624 -24.16135 -154.95474 9537665
182.24776 -23.900293 11.453558 8419956
182.36838 -23.848049 12.488989 8682871
182.48906 -23.796335 13.526571 7959151
101.8542 -23.024633 -155.967 10721162
102.58681 -23.11215 -155.5928 10195077
182.70659 -22.928064 12.513205 8222322
182.87724 -22.716246 13.46443 8156529
182.98137 -22.703587 14.479239 9800835
183.17564 -22.366358 15.204428 8814713
101.82862 -22.131371 -156.33711 10721164
102.60044 -22.368143 -155.88489 9735812
183.21581 -21.741299 13.287481 8353908
183.31335 -21.730106 14.240438 9274749
183.44341 -21.662939 15.316442 8814713
183.58162 -21.50251 16.128798 9735812
101.3633 -20.941484 -157.02975 9602940
102.13157 -21.129496 -156.59874 10392714
183.6218 -20.876024 14.206144 11379348
183.71979 -20.864504 15.162466 9143677
183.8504 -20.796749 16.242445 8419956
100.92449 -19.803431 -157.6893 4801338
101.66059 -19.888752 -157.31442 8419184
184.02936 -20.00761 15.129599 9801604
184.19907 -19.79207 16.057501 9406592
184.36325 -19.620867 17.094023 11182485
184.56268 -19.320162 18.00881 10984849
100.90426 -18.934298 -158.04727 4866361
101.63374 -18.989016 -157.68768 4866361
184.56155 -18.842119 16.218023 10064774
184.70573 -18.631281 16.902815 11116179
184.80927 -18.651543 18.033827 10721678
184.97453 -18.444895 18.948973 8682867
100.45753 -17.997942 -158.62962 5392961
101.19567 -18.082132 -158.25418 4866361
185.01411 -17.814529 17.006842 9800322
185.11789 -17.75412 17.840124 10721422
185.19713 -17.817135 18.88262 10721936
185.36722 -17.562099 19.666578 14933196
99.978455 -16.939487 -159.2767 7958629
100.55086 -17.171667 -158.91815 6051403
101.16775 -17.178827 -158.62971 4866361
185.42909 -16.934629 17.94618 10063750
185.53323 -16.873573 18.78269 8880509
185.61232 -16.936182 19.828886 13156534
185.78369 -16.679823 20.616385 11511966
99.519852 -15.591619 -160.24625 9405304
100.16848 -15.893062 -159.72197 10128514
100.73183 -16.269552 -159.20541 7958629
185.88599 -16.21035 19.045553 7564651
186.06001 -15.998354 19.742582 8419959
186.20793 -15.879118 20.710592 7959660
186.46889 -15.504132 21.528013 9472640
186.58904 -15.365333 22.300589 8617331
99.07003 -14.706364 -161.23946 9405560
99.729271 -14.887339 -160.755 8945009
100.31616 -15.157389 -160.24194 8681838
187.3181 -14.955654 22.391287 7827559
187.60533 -14.751031 23.342993 9471359
187.89076 -14.546842 24.298277 8089963
95.457008 -14.218879 -170.53575 11182489
98.876266 -14.321723 -162.6636 9602940
188.67552 -14.140286 25.096418 6840919
188.50954 -14.136774 25.996939 6380368
189.23726 -13.724692 27.029425 6445906
189.13168 -13.723888 27.710562 7037274
148.14531 -34.528191 -60.57069 10655115
148.51071 -34.717197 -59.972973 6708819
148.91133 -34.555946 -59.017422 5392706
110.05561 -33.546371 -140.78973 7565675
110.53102 -33.537025 -140.35672 13684681
111.32246 -33.522354 -139.63498 12895160
148.20335 -33.809357 -60.870594 11575961
148.8571 -33.800964 -60.029316 9931649
149.17033 -33.791008 -59.119514 5392706
149.4818 -33.781979 -58.209583 7892834
149.85777 -33.582745 -57.324623 10063753
150.15659 -33.538242 -56.492348 10721427
150.54382 -33.378994 -55.528961 9866630
109.512 -32.729076 -141.83524 8287597
110.00632 -32.976906 -141.28337 9012346
110.76072 -32.924252 -140.64854 9539458
111.19115 -33.129162 -140.15692 16777207
147.33081 -32.459087 -62.310711 7037274
147.70517 -32.81649 -61.801437 8155753
148.38972 -32.923794 -61.137291 10194823
149.18185 -32.84341 -60.159687 8813686
149.49452 -32.833416 -59.247356 7037274
149.80659 -32.824627 -58.335419 7037274
150.11816 -32.81683 -57.423725 9734529
150.42924 -32.810204 -56.512199 9734529
150.80182 -32.803619 -55.41856 9011579
151.1118 -32.799335 -54.507271 9735559
151.48692 -32.604641 -53.619022 8682355
109.49174 -32.091484 -142.16098 7037274
110.3037 -32.079983 -141.4565 7630180
110.74263 -32.286942 -140.97267 8092011
119.15249 -32.210289 -123.49705 10722705
119.46056 -32.13467 -122.63767 11381404
119.83964 -32.040737 -121.56533 7038307
120.21285 -31.947395 -120.495 7039331
120.50673 -31.873142 -119.64027 8682867
120.79659 -31.79929 -118.78694 8682867
121.08247 -31.725794 -117.935 9405566
121.4341 -31.634474 -116.87203 8879222
121.71143 -31.561823 -116.02308 7037274
147.31262 -31.826706 -62.636177 6643290
148.07364 -31.830305 -61.954666 6577751
148.6882 -31.950834 -61.346664 6511955
149.50159 -32.263763 -59.872269 9931136
149.68929 -32.258072 -59.324211 9931136
150.06685 -32.057426 -58.436253 8944499
150.44414 -31.857733 -57.547726 8089963
150.75568 -31.851231 -56.634193 9866115
151.12895 -31.84481 -55.538109 10721938
151.43959 -31.840591 -54.624825 9406338
151.74976 -31.837503 -53.711525 8156269
152.05957 -31.835373 -52.798218 9142387
152.38905 -31.724819 -51.949707 9076593
152.80818 -31.546711 -50.912621 9471355
153.11938 -31.451708 -50.100563 9208182
108.55827 -30.62542 -143.776 8090728
109.14317 -30.982054 -143.03244 7563873
109.90199 -31.023298 -142.34189 7432545
110.42455 -31.297541 -141.72876 7893352
125.55303 -30.908701 -110.03389 10524556
125.85145 -30.821505 -108.97325 15724510
126.14449 -30.734863 -107.91485 6510930
126.37453 -30.665916 -107.06985 8353135
126.65673 -30.580322 -106.01585 8748921
126.87884 -30.512247 -105.17429 10261132
146.5737 -30.418573 -64.073502 4340793
146.89691 -30.760509 -63.544327 6643548
147.59482 -30.91115 -62.838982 6182739
148.28015 -30.983015 -62.186958 6182737
151.07957 -31.081699 -56.548878 9734529
151.39339 -30.948936 -55.771889 9011579
151.70575 -30.880898 -54.925632 7959150
152.07878 -30.877108 -53.827316 10853524
152.38925 -30.874987 -52.912014 8681835
152.69936 -30.87405 -51.996559 8879215
153.00911 -30.874044 -51.081028 9076595
153.31854 -30.875143 -50.165226 9010802
153.67804 -30.839081 -49.143436 9734785
154.06494 -30.688736 -48.170223 10853012
107.34606 -29.499313 -146.49673 8814715
108.0059 -29.487778 -145.92734 9406851
108.231 -29.929684 -144.77832 10392969
108.88285 -30.058611 -144.06242 9077109
109.56423 -30.073845 -143.436 9143158
129.74544 -30.067989 -101.40913 11379612
129.89238 -30.018301 -100.77624 11379612
130.08542 -29.952332 -99.93364 11381404
130.32155 -29.870367 -98.882881 10131081
130.55261 -29.7889 -97.834511 9077881
130.68857 -29.74032 -97.206741 8682867
146.04329 -29.607748 -65.306374 4735552
146.67998 -29.860542 -64.537827 4932930
147.42444 -29.932589 -63.812359 6445912
147.88458 -30.168188 -63.170765 5655879
152.52188 -30.322653 -53.572247 12432037
152.70891 -30.321709 -53.021812 10787985
153.01971 -30.320766 -52.104622 9143934
153.45956 -30.140108 -51.229797 9340279
153.76949 -30.141083 -50.311111 9076849
154.16336 -30.082878 -49.283298 9602940
154.5663 -29.919847 -48.477474 9734781
154.88829 -29.969496 -47.408424 10261128
155.19608 -29.974361 -46.487137 11840161
155.63564 -29.799494 -45.603451 12958897
155.94272 -29.806204 -44.680145 8092019
156.2847 -29.722502 -43.866684 10525841
156.68788 -29.641237 -42.867035 15393234
156.93272 -29.648773 -42.125984 14209219
157.85918 -29.351206 -41.156723 9144702
158.1469 -29.359165 -40.220562 8091762
158.43286 -29.367706 -39.283371 7565675
158.66014 -29.375097 -38.532894 10459019
104.92681 -28.859459 -152.16885 9800579
105.71162 -28.918882 -151.49013 6708566
106.41729 -29.221643 -148.55684 11379609
107.24984 -29.206093 -147.84268 9407617
108.66456 -29.476604 -145.35727 7038307
133.18318 -29.370031 -94.195618 8089963
133.30319 -29.322464 -93.565559 7892840
133.46031 -29.259371 -92.726891 7761253
133.65192 -29.181101 -91.681183 6511954
133.80182 -29.118786 -90.846321 6510930
135.66115 -28.782265 -88.823036 10261644
135.71771 -28.727268 -88.166954 7826790
135.80818 -28.636282 -87.076996 10590865
144.42657 -28.710224 -68.739548 9078142
144.93288 -28.829018 -68.171913 8618105
145.43742 -28.994226 -67.488815 9011579
145.8493 -29.257029 -66.480324 8024943
146.50574 -29.308382 -65.721092 6774877
147.03108 -29.349901 -65.111389 4340793
156.74841 -29.327291 -44.704067 8092019
156.98434 -29.331562 -43.958504 11380892
157.27795 -29.337402 -43.02565 15393234
157.56944 -29.343979 -42.091629 12499115
159.31133 -29.103432 -39.2943 7565675
159.54083 -29.111103 -38.539879 9274747
159.82562 -29.121138 -37.595818 10459019
160.1077 -29.131708 -36.650005 10656914
160.38785 -29.142984 -35.703365 8486262
160.66623 -29.15489 -34.755074 10393487
160.94283 -29.167475 -33.805695 14077637
161.13567 -29.180313 -33.240906 11380124
163.18053 -29.040955 -31.212626 10261643
163.32379 -29.040127 -30.42874 9274493
163.49829 -29.039093 -29.447855 8156012
163.79414 -29.060492 -28.487314 7761254
164.13655 -29.09091 -27.532797 8813171
164.47765 -29.122099 -26.575624 11181204
164.81744 -29.153992 -25.616159 10261123
166.97005 -29.030685 -23.076406 9538433
167.07451 -29.029869 -22.274321 5920074
167.20425 -29.02968 -21.271482 8352877
167.44588 -29.04966 -20.281511 10062979
167.62852 -29.068579 -19.691011 10062979
170.29837 -29.021791 -16.065657 9735812
170.38596 -29.020784 -15.042978 10260617
170.46773 -29.019779 -14.019899 10260617
173.3632 -29.013632 -9.6438236 9142651
173.41203 -29.012638 -8.6028996 10655631
173.44704 -29.011839 -7.7699947 11379353
176.25525 -29.005795 -3.4324358 11708313
176.26662 -29.004808 -2.3741853 9406076
176.8017 -28.86594 -1.5294054 9998472
177.59657 -28.657076 -0.67893386 9077114
177.90053 -28.547926 0.26136613 8682867
178.14423 -28.632124 1.2472365 8748403
178.38837 -28.717468 2.2359221 9537663
178.69426 -28.610233 3.1859496 9932678
178.96196 -28.542213 4.052145 9932678
104.46746 -27.8932 -152.80469 11971487
105.09221 -28.090414 -152.40961 12563880
137.69302 -28.254841 -84.381317 7563619
137.74669 -28.183949 -83.511459 7563619
137.79745 -28.113558 -82.644493 7563619
139.57242 -27.805298 -80.779968 10590606
139.59909 -27.753578 -80.129082 9997955
143.82426 -27.668907 -69.875153 11642524
144.52863 -27.907755 -69.103104 8749691
145.32823 -27.962872 -68.427528 13023917
178.15892 -27.959028 0.39094377 8682867
178.46593 -27.781816 1.2504561 9735554
178.69304 -27.817904 2.1117918 9077625
178.92053 -27.854666 2.9755003 9538175
179.20544 -27.901648 4.0586147 9735298
179.59373 -27.647882 5.1053753 7827559
179.89156 -27.485216 5.9516888 8748405
104.49996 -27.08165 -153.1152 11576729
105.26682 -27.322227 -152.66373 13550517
141.0816 -26.81229 -75.898743 10261124
142.47166 -26.586975 -73.507507 10590347
142.97034 -26.644629 -72.769547 10261383
143.2498 -26.911715 -71.728745 9011576
143.6812 -27.021036 -70.978348 9143163
144.15022 -27.13859 -70.245613 10129802
144.86047 -27.286205 -69.41301 8092019
178.76448 -27.151749 1.4682295 13024943
179.00832 -27.038837 2.188246 9866883
179.30476 -26.873816 3.0262434 11511450
179.55475 -26.82254 3.8515532 10590863
179.83049 -26.790913 4.7956448 8288366
180.19276 -26.652208 5.9047756 9603712
180.4417 -26.738974 6.912756 8682099
180.75533 -26.562201 7.7964153 9340027
104.04433 -25.897854 -153.80089 9866371
104.80788 -26.089813 -153.37048 10064776
179.938 -25.973785 4.0773144 11906725
180.19261 -25.785521 4.7340527 8683124
180.42357 -25.821491 5.6091366 10919830
180.67323 -25.906864 6.6179256 8550513
180.9846 -25.865479 7.6763134 11379349
181.31902 -25.644577 8.6525784 8814459
181.5269 -25.313049 9.3628674 8617080
103.577 -24.617182 -154.53084 9471356
104.21543 -24.897699 -154.12285 8813424
180.66986 -25.174931 5.6175213 8682612
181.04555 -24.866404 6.5455456 8287342
181.30125 -24.879742 7.4785824 9340027
181.62247 -24.680725 8.4054012 8945787
181.79048 -24.618584 9.4649639 8814459
181.92679 -24.459429 10.2619 10853012
103.59985 -23.904699 -154.80603 10260100
104.32557 -23.963863 -154.44644 9405304
181.68976 -23.955441 7.6207485 10590091
181.93901 -23.839508 8.3626995 8945787
182.08644 -23.788647 9.3935909 8617080
182.18724 -23.809071 10.497129 10393486
182.32793 -23.603203 11.165426 9143678
103.12318 -22.824369 -155.45998 10261128
103.76347 -23.104372 -155.0513 10851980
182.3669 -22.985136 9.2624187 9339773
182.48817 -22.930559 10.295431 8946043
182.66992 -22.731667 11.407911 8748921
182.8112 -22.524858 12.0791 9143678
103.14509 -22.109348 -155.73666 10326921
103.8727 -22.16715 -155.37675 10851980
182.76958 -22.124676 10.165274 9339771
182.98535 -21.774244 11.060713 9865856
183.15849 -21.603794 12.191618 9405822
183.29655 -21.44231 12.998205 7564651
102.72468 -20.937353 -156.40137 9932934
103.42615 -21.128355 -156.00003 10458507
183.29512 -20.970549 11.227636 10128771
183.43352 -20.807922 12.033613 9932422
183.56418 -20.738377 13.106756 9538180
183.70284 -20.576067 13.916456 11380380
102.32031 -19.673769 -157.09531 10261385
102.75897 -19.95002 -156.78146 9998727
103.46169 -20.140881 -156.37964 9735812
183.78244 -19.882298 12.146292 8617337
183.84023 -19.939981 12.94969 9143680
183.97148 -19.869911 14.026663 10130570
184.11067 -19.706816 14.839384 10064774
102.2497 -18.997551 -157.39914 8419184
102.98815 -19.083252 -157.02306 9735812
184.14958 -19.082808 12.913076 8748923
184.31969 -18.865234 13.837744 10130570
184.43756 -18.818861 14.866751 10393739
184.6432 -18.500441 15.778204 13222579
101.81218 -18.089994 -157.96573 5721670
102.42933 -18.098131 -157.67682 7498082
103.00166 -18.331684 -157.31818 8089963
184.68207 -17.914591 13.993704 7564643
184.82701 -17.702354 14.675795 7564643
184.90599 -17.763458 15.711905 10261640
185.07535 -17.507999 16.489103 10524043
101.30148 -16.501724 -158.84015 6511954
101.93134 -16.896879 -158.38956 4735290
102.52567 -17.270727 -157.96414 5788493
185.17465 -17.043571 14.928747 7564643
185.2942 -16.905283 15.686537 8090731
185.36717 -16.888077 16.650999 9340029
185.53593 -16.631195 17.431623 10063750
101.38059 -15.756511 -159.24515 6972248
102.00654 -15.910003 -158.82596 4933954
185.85326 -16.188572 16.561613 9208443
186.0253 -16.055393 17.555136 9734786
186.05672 -15.987087 18.385893 8156529
186.71147 -15.50463 19.285498 8156787
186.78969 -15.363806 20.277746 8946299
101.07087 -14.832023 -160.16592 8747631
101.55402 -15.169151 -159.65826 7367006
187.57442 -14.963941 21.051802 6775383
188.31017 -14.556524 21.826345 8617331
188.1832 -14.554631 22.728827 10853012
96.077576 -13.79446 -171.16284 9208443
96.068367 -14.218119 -170.19122 11182489
96.881691 -14.217101 -169.72859 8616823
100.11043 -14.329869 -162.05984 10326666
100.93354 -14.3356 -161.65622 9405560
188.80614 -14.141529 24.190611 8550257
96.118874 -13.163332 -171.39764 8815227
96.117073 -12.372696 -171.71664 10262670
112.08636 -33.500835 -138.88062 7565675
112.51259 -33.479168 -138.38963 7565675
111.29479 -32.70541 -140.28784 8092011
111.72346 -32.910267 -139.79449 8092011
112.4734 -32.858921 -139.15546 7565675
112.88683 -33.221573 -138.39819 7565675
113.36167 -33.436878 -137.40744 9736326
114.02335 -33.390018 -136.53777 9538175
114.39938 -33.309734 -135.66431 8682867
114.76687 -33.228607 -134.78714 7564642
115.12998 -33.147888 -133.91113 7367262
115.48866 -33.067619 -133.03639 10064771
115.93078 -32.967762 -131.94469 8681325
116.36652 -32.868557 -130.85483 9010547
116.71009 -32.789654 -129.98439 5920074
117.04941 -32.711105 -129.11526 7630692
117.3845 -32.632957 -128.24733 14210248
117.71539 -32.555218 -127.38073 15723486
118.042 -32.477882 -126.5154 12236458
111.18935 -32.026154 -140.70807 8092011
111.92542 -32.060307 -140.04794 8092011
112.50327 -32.125248 -139.51134 8355185
118.28442 -32.420109 -125.86726 8814966
118.52413 -32.362637 -125.21983 13023663
118.84039 -32.286263 -124.35776 12037025
123.56883 -31.462568 -116.66355 7037274
149.13895 -31.603842 -61.113708 5920074
149.47031 -31.884882 -60.394321 9011064
149.85979 -31.644653 -59.516056 9602428
150.26222 -31.481256 -58.511951 9405049
110.85852 -30.869207 -141.58606 9144443
111.60999 -30.940119 -140.88425 8092011
112.20681 -31.248079 -140.19421 8092011
123.83763 -31.389879 -115.80314 8682867
124.16867 -31.299446 -114.7295 9209467
124.42902 -31.227566 -113.87237 8551280
124.74879 -31.138243 -112.80315 9736324
125.06298 -31.049484 -111.73614 9735297
125.30991 -30.978912 -110.88428 9735297
128.60513 -30.439037 -106.07935 7039331
148.6566 -30.627474 -62.03001 5920074
149.19528 -30.882116 -61.415096 5920074
149.76808 -30.924274 -60.603474 7827303
150.08191 -30.914608 -59.687046 8681584
150.45776 -30.904335 -58.58773 9405049
150.77045 -30.89691 -57.671909 8484720
151.08418 -30.79496 -56.860115 8089963
151.39766 -30.693855 -56.048103 8089963
110.06842 -29.797951 -143.26497 7959144
110.50794 -30.032286 -142.63216 8617587
111.18726 -30.049145 -142.00586 9736836
111.6639 -30.176517 -141.44868 9736836
128.71332 -30.404863 -105.65273 7039331
128.87379 -30.353754 -105.01366 7828326
129.1367 -30.269051 -103.95051 7038810
129.3943 -30.184862 -102.88977 8287853
129.59616 -30.117933 -102.04308 9208443
132.46635 -29.643318 -97.784996 9538688
132.6834 -29.562267 -96.726082 9538688
132.89549 -29.48175 -95.669777 9866374
133.02013 -29.433727 -95.03727 10261132
147.55679 -29.392054 -64.499054 6117205
147.95119 -29.424093 -64.038162 5392706
148.44019 -29.733141 -63.135979 5458499
148.96942 -29.969681 -62.410667 5919563
149.5271 -30.237223 -61.65535 5920074
150.06598 -30.366995 -60.72303 5920074
150.51047 -30.212803 -59.772499 8023912
150.89064 -30.167929 -58.75481 9931908
151.20671 -30.16115 -57.837296 9472127
151.64977 -29.974339 -56.967407 7827302
151.96451 -29.969416 -56.049194 7827561
152.27846 -29.965506 -55.130924 8288115
152.59172 -29.962513 -54.212585 10854036
153.03311 -29.779703 -53.338478 11050900
153.4075 -29.778494 -52.235088 10787985
153.84853 -29.597345 -51.358109 9537659
154.1595 -29.598333 -50.437225 9406072
154.4079 -29.599707 -49.700226 9537659
105.9886 -28.618406 -151.37201 11906469
106.53162 -28.77467 -150.76117 9735044
107.28506 -28.837091 -149.99217 8090730
107.87265 -28.774763 -149.44905 9275773
108.25222 -29.18985 -146.99261 9998987
109.1209 -29.186573 -146.33099 7893615
108.99345 -29.471203 -145.07193 6511954
109.65006 -29.4608 -144.50064 11379348
110.46925 -29.448343 -143.78558 6511954
133.10205 -29.401875 -94.616188 9537409
135.4442 -28.987215 -91.245827 6445394
135.52248 -28.911589 -90.360222 5919050
135.60283 -28.837467 -89.48082 8616306
137.53061 -28.4522 -86.78817 11380380
146.17314 -28.699343 -67.402107 8353651
146.76193 -28.82412 -66.891754 7038307
147.35275 -28.950008 -66.379265 7038307
147.7093 -29.247498 -64.986671 4340793
154.44031 -29.308155 -51.758221 9274745
154.81296 -29.308756 -50.647865 9735296
155.12149 -29.309959 -49.721664 9866623
155.42715 -29.311764 -48.794502 10261123
155.73079 -29.3141 -47.866356 9208435
156.03232 -29.317242 -46.937317 9734788
156.62726 -29.233633 -46.024807 11182232
157.09021 -29.165104 -45.288086 8420470
157.73058 -29.063318 -44.367439 10065291
158.0273 -29.069323 -43.430305 11117976
158.32231 -29.075907 -42.492233 12959409
158.61533 -29.083193 -41.552753 10525840
158.90663 -29.091146 -40.612549 10788759
159.13831 -29.09803 -39.859512 9144449
162.40569 -29.045134 -35.121758 9537406
162.52771 -29.044502 -34.536587 11511193
162.72652 -29.043459 -33.560371 9537406
162.9576 -29.042206 -32.387333 10590866
163.10724 -29.04137 -31.60441 11380380
166.5137 -29.033979 -26.279478 9999751
166.66273 -29.032948 -25.279493 10262152
166.80615 -29.031916 -24.278601 10787984
166.88924 -29.0313 -23.677637 10262156
170.02008 -29.024637 -18.925943 10985364
170.10454 -29.023823 -18.109213 10854036
170.20438 -29.022806 -17.087713 9735812
173.23309 -29.015846 -11.932718 7367013
173.29613 -29.014837 -10.892557 8418928
173.33086 -29.014233 -10.268263 9537409
175.66521 -28.928879 -7.2234364 9208443
175.9662 -28.74971 -6.3881931 10195080
176.18916 -28.780996 -5.5481434 10655631
176.33873 -28.845091 -4.5775394 10458246
176.77094 -28.643257 -3.6521165 11247762
177.05109 -28.684994 -2.593271 9997699
177.35526 -28.507687 -1.7442796 8287342
177.60365 -28.321966 -1.1059129 9011065
105.52743 -27.759863 -152.26007 13550517
106.07246 -27.916563 -151.64705 11906469
106.82844 -27.979181 -150.87549 11445918
107.50941 -27.986526 -150.20547 7761510
137.60722 -28.362013 -85.691437 8814710
137.651 -28.308226 -85.035416 7564643
139.47176 -27.979786 -82.961502 9537921
139.50368 -27.92716 -82.305191 10590606
139.54391 -27.857372 -81.432587 10590606
141.33179 -27.496222 -78.885254 9537916
145.67758 -27.73704 -68.306999 13023917
146.34187 -27.799965 -67.762886 8156270
147.05014 -28.061357 -67.022522 6577497
176.49654 -28.012222 -5.4861164 9208443
176.78679 -27.845495 -4.6724491 9208435
177.03305 -27.854898 -3.7784517 10458246
177.34666 -27.78068 -2.7565477 9011063
177.61491 -27.786432 -1.7887208 7563619
177.89986 -27.694706 -0.89298415 9077113
178.13388 -27.655361 -0.10861373 9406333
178.37621 -27.542625 0.60639024 8682867
105.68204 -26.985786 -152.48416 10788241
106.36916 -27.118858 -151.76263 10129802
107.05231 -27.12628 -151.09038 7563619
142.92873 -26.581141 -74.694572 8813936
143.88152 -26.529165 -72.149315 9077369
144.51587 -26.565884 -71.386627 9143163
144.97742 -26.728333 -70.451866 9143421
145.4933 -26.912661 -69.499893 8617592
145.9341 -27.189013 -68.63932 11511193
146.54283 -27.051394 -68.282021 6840669
177.40532 -26.953478 -3.6634767 9208435
177.6465 -26.838217 -2.9559648 9011061
177.93692 -26.804655 -1.9620378 9208444
178.22014 -26.845274 -0.89362502 9932420
178.44716 -26.878572 -0.036386251 10261897
178.6745 -26.912535 0.82313371 11906720
179.1144 -26.482615 1.8168089 12235172
179.43079 -26.349764 2.7697585 14076861
105.38651 -25.769716 -153.23105 7368036
105.97335 -26.05179 -152.68228 8091501
106.59258 -26.263634 -151.97919 8287342
144.48448 -26.231138 -72.448807 9932421
144.95334 -26.252813 -71.816422 8814198
178.17668 -26.167349 -1.9641206 11378324
178.48425 -25.986082 -1.1085374 9472382
178.8481 -25.748466 -0.12735152 9472641
179.07796 -25.845467 0.82619309 8091245
179.38771 -25.664818 1.690985 8748403
179.63538 -25.746572 2.6873381 9340796
179.94531 -25.634155 3.6448271 9801349
105.36732 -24.878319 -153.59752 5789519
106.08392 -25.106108 -153.06583 8091501
179.22942 -24.966204 0.18117356 8486262
179.47459 -24.849695 0.90115952 7696233
179.71228 -24.807554 1.6949904 8287340
179.9426 -24.840086 2.5630095 7892583
180.1916 -24.92144 3.5639174 9471870
180.50188 -24.876043 4.6129436 9932164
180.91663 -24.527069 5.6259136 9603456
181.17365 -24.336748 6.2887554 8089963
104.93864 -23.976574 -154.15758 6511954
105.67329 -24.0667 -153.78145 5394762
180.0139 -24.171236 1.9150221 9011318
180.26878 -23.979717 2.568701 9735039
180.58226 -23.796007 3.4425337 8484204
180.81456 -23.828381 4.3173962 8484205
181.09419 -23.792065 5.2690182 9931906
181.46144 -23.646851 6.3871593 8814710
181.72231 -23.654154 7.330534 8814710
181.97322 -23.538023 8.0718975 9734531
104.5545 -22.851412 -154.78659 7958629
104.99096 -23.128448 -154.47354 7038041
105.69135 -23.321825 -154.07185 5920074
181.14337 -22.963387 4.3262844 9536635
181.45964 -22.778168 5.2078915 7169373
181.69398 -22.810232 6.0898571 7367264
181.94749 -22.891474 7.1066723 8814710
182.2574 -22.843679 8.1733456 8616307
182.44682 -22.688543 8.9735928 9734531
104.45832 -21.889723 -155.2169 10457479
105.22813 -22.080296 -154.78418 8747889
181.76636 -22.134411 5.4362774 5920074
182.01765 -22.015211 6.1747417 7367264
182.3233 -21.842009 7.0347118 9801348
182.57928 -21.850346 7.975111 8616307
182.7935 -21.758566 9.0467663 8616307
182.97086 -21.536991 10.03002 9865856
104.02479 -20.749439 -155.87495 9735812
104.76285 -20.836946 -155.49828 11378324
182.97536 -20.917156 8.119566 7563619
183.15065 -20.711161 8.789732 10853012
183.25317 -20.72851 9.8991451 9866114
183.37572 -20.671892 10.938009 9602941
103.55257 -19.692341 -156.51755 9735812
104.12385 -19.926422 -156.15918 9537663
104.74116 -19.93648 -155.86952 10260871
183.41351 -20.054302 9.0240536 8090986
183.55612 -19.843754 9.6951199 9997955
183.65909 -19.860891 10.808096 9734527
183.74129 -19.875038 11.699842 8748407
103.56701 -18.941437 -156.81204 9537150
104.307 -19.027744 -156.43491 9537150
183.8199 -19.184669 9.9313869 9209467
184.01608 -18.84112 10.652655 8157552
184.12242 -18.82312 11.669813 9406336
184.35309 -18.449612 12.631094 8748666
103.09222 -17.881145 -157.45706 8089963
103.66529 -18.115 -157.09799 9537150
104.28411 -18.123732 -156.80807 10984593
184.47523 -17.879873 11.526304 9274494
184.66008 -17.719069 12.563963 8485493
184.78508 -17.575649 13.555136 8814712
103.12673 -16.885698 -157.84058 5196871
103.83385 -17.076052 -157.43677 6577753
185.14311 -17.026665 12.688231 7039331
185.26294 -16.887783 13.443075 7367528
185.32921 -16.821793 14.26943 7564651
185.50562 -16.612299 15.181387 7564647
102.61735 -15.769507 -158.66086 5657165
103.44861 -15.896531 -158.16888 3355953
186.02116 -16.189308 14.550787 8419958
185.89833 -16.183233 15.215178 8419958
186.37007 -15.918674 16.083685 9801348
186.74272 -15.646594 17.173574 8814197
187.19586 -15.378823 18.049818 6511954
187.08533 -15.374984 18.7199 7564651
102.15753 -14.879231 -159.62109 6840919
102.99168 -15.005971 -159.12842 5986129
187.87659 -14.971473 19.031263 7367775
187.75209 -14.968681 19.93054 7630438
188.40498 -14.558083 21.149351 5920074
97.146523 -13.799709 -170.66591 10721938
97.74633 -14.010262 -169.82364 9735302
98.299454 -14.215316 -168.90945 8486512
101.55105 -14.340121 -161.35258 7761765
102.1688 -14.344743 -161.04843 7761765
96.674889 -12.849775 -171.26651 9143936
97.351952 -13.137348 -170.8374 8419702
96.201744 -11.897776 -171.86859 10262670
96.802559 -12.137768 -171.49387 10657427
97.44619 -12.140452 -171.19496 9735302
96.32888 -11.183846 -172.09694 9143936
96.973228 -11.186104 -171.7977 9670535
96.656319 -10.150338 -172.36058 8090995
96.886223 -10.469818 -172.12575 8090995
96.668922 -9.2723179 -172.70749 8090995
113.40043 -32.82045 -138.35031 8486519
114.0751 -32.841328 -137.73291 12300967
114.71403 -32.975292 -137.02943 10064009
112.96745 -31.978968 -139.17603 8486519
113.65163 -32.001549 -138.56691 7958632
114.32882 -32.145508 -137.90526 8747634
121.04416 -32.115772 -124.2557 10459022
121.34839 -32.039642 -123.38236 10195338
121.64856 -31.96382 -122.51058 11182489
121.94459 -31.888498 -121.6401 13617603
122.30875 -31.794811 -120.5542 8682867
122.66695 -31.701719 -119.47042 9011320
122.94894 -31.627714 -118.60509 10853012
123.22688 -31.554113 -117.74126 7958120
123.43291 -31.499165 -117.09432 6510930
112.62109 -30.706255 -140.11554 8814709
113.2289 -30.922377 -139.46625 11445146
113.9249 -31.09861 -138.76535 8418669
127.35358 -30.821407 -110.7993 9669504
127.64811 -30.733496 -109.72227 9538432
127.87933 -30.663584 -108.86248 12631471
128.16289 -30.576771 -107.79008 11051159
128.44098 -30.490496 -106.72016 8091248
111.69222 -29.774351 -141.83307 9538690
112.24502 -29.968086 -141.13998 7433056
112.89233 -29.960238 -140.56757 9670019
113.44226 -30.155071 -139.87592 8814709
131.49431 -29.989912 -102.26227 13551037
131.63902 -29.939766 -101.61973 11379612
131.82903 -29.873234 -100.76449 8682867
132.06145 -29.790628 -99.698029 9209723
132.28865 -29.708534 -98.634117 9077881
149.48448 -29.560593 -62.372112 5920074
150.03615 -29.768986 -61.674187 7169885
150.44644 -29.824137 -60.875561 7498849
150.79648 -29.725588 -60.073036 9142907
151.20958 -29.626253 -59.086174 12433069
151.52638 -29.619423 -58.16637 9932678
108.19342 -28.764696 -149.14017 8814966
108.83427 -28.745241 -148.52301 7169376
109.63413 -28.72172 -147.75238 8814715
110.06541 -28.926916 -147.22603 9011579
109.99361 -29.185335 -145.67372 8616815
110.86195 -29.184093 -145.0121 9471608
111.28637 -29.436623 -143.06921 9143677
112.10168 -29.425634 -142.35181 9340801
112.59003 -29.41938 -141.92075 9340801
135.01863 -29.253138 -94.520378 9471873
135.21158 -29.173578 -93.456444 11510425
135.36339 -29.087099 -92.371727 6510930
137.29253 -28.708668 -89.882484 8616563
137.36407 -28.634796 -88.994942 7037274
137.44978 -28.543056 -87.889168 10261644
147.84523 -28.867531 -66.032875 6840669
148.47119 -28.715508 -65.572205 6050637
148.90561 -28.949892 -64.799423 6116942
149.41612 -29.224119 -63.60656 5920074
150.07939 -29.278734 -62.828224 6380368
150.47771 -29.311859 -62.359394 7761765
151.2234 -29.341143 -60.975887 8682867
151.48811 -29.336033 -60.240551 10985367
151.81732 -29.330231 -59.320824 10985367
152.14436 -29.325127 -58.400566 9406591
152.46953 -29.320606 -57.479897 10130313
152.79253 -29.316853 -56.558647 7827561
153.17758 -29.31325 -55.452362 9735558
153.49622 -29.310934 -54.529938 10854036
153.81284 -29.309349 -53.606762 8091761
154.45776 -29.227835 -52.724869 8617847
155.36545 -29.065899 -52.063393 9735296
155.67021 -29.064816 -51.130051 10262156
155.96898 -29.063734 -50.194763 10129795
156.26251 -29.062654 -49.257786 10261123
156.54997 -29.061581 -48.318939 11840158
156.8322 -29.060505 -47.378571 10787475
157.0537 -29.059647 -46.624947 9734788
159.81697 -28.927435 -42.884979 9538688
160.10011 -28.94149 -42.138515 7826533
160.52426 -28.762388 -41.221996 8352876
160.87869 -28.78159 -40.285946 7431775
161.23329 -28.801924 -39.34837 10787724
161.58812 -28.823141 -38.409336 12433061
161.93794 -28.844555 -37.467468 12433061
162.24086 -28.858564 -36.513763 10985617
162.54765 -28.83511 -35.641171 8551281
163.08215 -28.719908 -34.651649 7563619
163.5152 -28.554998 -33.923347 8024169
163.99518 -28.602983 -32.996777 9077882
164.47647 -28.652058 -32.067074 12697016
164.90556 -28.738222 -31.205851 10460048
165.40021 -28.707535 -30.312445 9012600
165.83167 -28.795628 -29.44523 11052440
166.27086 -28.840954 -28.494104 10985878
166.60481 -28.869011 -27.52289 8420208
167.16565 -28.643379 -26.830942 9473152
167.77794 -28.635706 -25.936735 10131594
168.24457 -28.603355 -25.016066 10525327
168.64717 -28.691116 -24.12388 9932934
169.05078 -28.78006 -23.228643 9998470
169.52025 -28.750257 -22.2974 10589839
169.87358 -28.832298 -21.389448 9866368
170.0663 -28.888342 -20.460512 9932160
170.61322 -28.810017 -19.610426 9537400
171.29538 -28.795855 -18.645182 9998211
171.66655 -28.842751 -17.850676 8880503
172.03874 -28.890543 -17.053385 7959401
172.50557 -28.951384 -16.052752 8682873
172.95219 -29.009775 -15.046297 9340289
173.08871 -29.017872 -14.011927 9735559
173.52661 -28.858858 -13.207678 8486007
174.34631 -28.650867 -12.318766 8814713
174.63371 -28.576376 -11.390467 8550513
174.85521 -28.603601 -10.561064 9997960
175.13242 -28.638573 -9.5219479 9406079
175.40996 -28.674522 -8.4802151 9208443
175.6398 -28.631664 -7.7155323 9208443
175.87746 -28.51689 -7.019968 9208443
107.78672 -27.686817 -150.08667 7893352
108.38247 -27.887022 -149.40179 8485745
109.18478 -27.863329 -148.62881 7498856
109.61762 -28.069052 -148.10065 7038307
139.34076 -28.17532 -85.382271 9209467
139.39082 -28.103767 -84.499458 9209467
139.43811 -28.03282 -83.619583 9209467
141.23907 -27.720573 -81.735611 9537921
141.27042 -27.65107 -80.855446 10919054
141.30634 -27.564747 -79.758965 9208435
147.36691 -27.506662 -67.165871 6116687
147.98065 -27.955561 -66.37616 6576724
148.8056 -27.903107 -65.747337 6510930
161.16066 -28.192087 -40.150623 7037274
161.37379 -28.20406 -39.587414 10787724
161.80019 -28.127703 -38.561604 12433061
162.15581 -28.047895 -37.722237 12433061
162.58319 -27.922466 -36.743286 11314582
162.93974 -27.894905 -35.848892 11314070
163.29987 -27.919746 -34.902023 9932164
163.81102 -27.759489 -33.983982 8550512
164.23882 -27.842304 -33.127251 8682867
164.73186 -27.808226 -32.239288 9735813
165.16211 -27.892952 -31.376925 9209724
165.64746 -27.942753 -30.439203 7301726
166.13411 -27.993656 -29.498121 8091242
166.46667 -28.098713 -28.801336 8420208
166.93776 -28.289562 -27.782076 8420208
174.92165 -27.956541 -11.197512 8287341
175.15846 -27.839169 -10.508169 9142394
175.40602 -27.840336 -9.6205692 7367271
175.70448 -27.789934 -8.6205158 7367271
175.94536 -27.86478 -7.6575108 8682356
176.18645 -27.94076 -6.6921864 9273979
176.57961 -27.580757 -5.7713642 10721938
176.90915 -27.330009 -4.9306507 9208435
107.33009 -26.825766 -150.97147 7563619
107.92805 -27.026543 -150.28427 7168861
108.73286 -27.002773 -149.50888 7498856
109.16735 -27.208992 -148.97885 7564651
143.06668 -27.236944 -77.617599 7038298
146.16824 -26.665285 -69.390106 7169629
146.786 -26.589682 -68.964546 6709334
147.1869 -26.797153 -68.151344 5392706
147.78728 -26.968483 -67.355827 6248530
148.28076 -27.204643 -66.723343 6643031
163.58951 -27.123432 -34.963169 10853264
164.03328 -27.161894 -34.029522 9537406
164.41891 -27.198328 -33.286366 8682867
175.67799 -27.171972 -9.5501537 7893614
175.94032 -27.094187 -8.7160816 7893614
176.31529 -26.755371 -7.8316441 8024427
176.5619 -26.84145 -6.8328266 9208699
176.78642 -26.870378 -5.9903507 10854036
177.14665 -26.696243 -4.9363728 11906725
177.43611 -26.660816 -3.9482973 9735812
177.67734 -26.54529 -3.241205 8090216
106.94102 -25.630365 -151.96043 7629668
107.54673 -25.996668 -151.1814 7234654
108.27828 -26.13987 -150.39268 6510930
108.76196 -26.126062 -149.9265 7169634
144.75969 -26.343468 -73.453461 9735296
145.20856 -26.267544 -71.509666 8682867
145.91144 -26.173752 -71.073845 7761253
146.48592 -26.343227 -69.968887 8879735
146.99754 -26.374352 -69.349487 5920074
176.88867 -25.888418 -6.9507389 8616563
177.18158 -25.813955 -6.0025883 10854036
177.40733 -25.842382 -5.156229 11643553
177.69 -25.878857 -4.0954914 10393485
177.97318 -25.916206 -3.0317628 7300957
178.30084 -25.647398 -2.2221239 8090216
178.66818 -25.338951 -1.3239 7499108
106.47887 -24.763351 -152.85378 7433316
107.16064 -24.897472 -152.11847 8221805
107.91558 -24.831604 -151.41327 6905688
108.39819 -25.331364 -150.68677 6774102
177.47591 -25.185602 -5.7983723 10985623
177.71753 -25.067276 -5.0930653 10985623
178.03172 -24.809662 -4.316515 10854036
178.28175 -24.896837 -3.3038957 8813938
178.66286 -24.62174 -2.3114336 6775126
178.90953 -24.698528 -1.3249528 7104607
179.1384 -24.728941 -0.46493697 8486262
179.44855 -24.545746 0.3977263 8486262
106.18587 -23.774284 -153.60686 7563619
106.6982 -24.028316 -153.01315 8089963
107.45554 -23.962418 -152.30568 8616307
107.89533 -24.170897 -151.76935 7366239
178.57935 -23.985851 -3.4695451 10523529
178.90642 -23.847244 -2.4858491 8418924
179.21358 -23.79595 -1.4554689 9209211
179.46158 -23.872381 -0.46479964 8091761
179.69168 -23.902317 0.39903092 9538692
180.01498 -23.794567 1.4104064 8748146
180.45589 -23.325541 2.3551085 9932674
106.21751 -23.059797 -153.88962 7761254
106.99279 -23.090431 -153.20212 8813686
107.43426 -23.29966 -152.66367 9011065
179.41678 -23.193197 -1.5426805 8486260
179.84207 -22.79583 -0.55718398 7367523
180.09782 -22.82741 0.40115952 9933190
180.35046 -22.768829 1.2261641 11380374
180.64317 -22.670496 2.140898 7563619
180.93411 -22.708149 3.2329085 9668221
181.30815 -22.529963 4.3307171 9536635
105.82446 -21.889826 -154.58458 7301213
106.5053 -22.07873 -154.14975 8813427
106.97066 -22.42573 -153.562 9734788
180.42383 -21.965437 0.40286088 9077368
180.7379 -21.777281 1.2733824 9011319
180.97087 -21.805603 2.1457884 7563619
181.20444 -21.83445 3.0205824 9997439
181.45711 -21.911856 4.0292797 9931390
181.77307 -21.79281 4.999258 10524300
182.19188 -21.504032 6.1081829 7367264
182.45227 -21.308773 6.7763882 8814710
105.37983 -20.847855 -155.20837 9536891
105.99746 -20.859015 -154.91795 7235420
106.56888 -21.094845 -154.55896 7695714
181.21741 -21.155598 2.14942 7563619
181.59529 -20.837162 3.0719969 9208435
181.85155 -20.776766 3.9079649 11708057
182.08867 -20.870722 4.8836498 12761264
182.3904 -20.76652 5.8227215 8222579
182.74312 -20.611956 6.8762264 7959150
183.00786 -20.614569 7.8272686 7958888
105.35917 -19.946815 -155.57928 10457479
106.09974 -20.034681 -155.20128 7695714
182.24217 -19.911671 4.1366787 9208435
182.49477 -19.788538 4.8749447 7762030
182.73991 -19.740875 5.6883297 8748923
182.97765 -19.768953 6.5773602 9012093
183.23506 -19.845806 7.6023388 7762021
183.4902 -19.716825 8.5860653 8090986
104.92545 -19.037304 -156.14481 10984593
105.5447 -19.047138 -155.85431 9076598
106.11772 -19.282537 -155.49466 7695714
183.05037 -19.089836 5.9191341 11709349
183.3176 -18.967091 6.6643047 9275261
183.55525 -18.917801 7.4839153 6906712
183.85201 -18.787838 8.4775448 8551281
183.99751 -18.610487 9.4980755 8946552
184.18651 -18.305777 10.396383 9209467
104.90363 -18.132792 -156.51773 10984593
105.64616 -18.219378 -156.1393 8550513
184.55128 -17.722984 9.3807812 8091760
184.58742 -17.700127 10.331671 8946552
184.79712 -17.448677 11.324934 8946041
104.43339 -16.879799 -157.23804 7169376
105.21035 -17.068626 -156.8026 8024682
185.10976 -17.012054 10.452543 8617845
185.3076 -16.879282 11.209639 9209213
185.35143 -16.810572 12.032148 8814457
185.47371 -16.595596 12.936377 7039331
104.05607 -15.638253 -158.10419 4473663
104.58404 -15.865568 -157.67046 4802113
105.11314 -16.093586 -157.23932 5722697
186.26663 -16.20097 12.995581 8156786
186.39769 -16.062531 13.981497 7827822
186.82249 -15.793358 14.843542 8880507
187.24512 -15.522017 15.710249 10130313
187.37973 -15.384084 16.705244 9538176
103.60015 -14.745672 -159.06471 6249045
104.23485 -15.019068 -158.54131 5722444
187.96959 -14.97368 18.356436 8289133
98.644707 -13.807747 -169.96927 9209465
99.287437 -13.811504 -169.67024 11381404
99.308121 -14.214039 -168.31737 8486512
100.1124 -14.213013 -167.83923 9735812
102.58073 -14.347958 -160.8454 6840919
103.40499 -14.354516 -160.43814 6183246
98.560631 -13.09601 -170.29456 12695209
98.09008 -12.143332 -170.89575 10129802
98.734383 -12.146264 -170.59631 12168867
97.617973 -11.188509 -171.49821 10262670
98.2631 -11.191089 -171.19855 10985109
98.864944 -11.43228 -170.82306 9867657
97.722557 -9.925601 -171.95726 8748920
98.350105 -10.315456 -171.5101 10327950
97.056465 -8.9132786 -172.67236 8354165
97.833412 -8.7953777 -172.35999 9012089
97.357719 -7.8317938 -172.96735 8683124
97.096977 -6.8661213 -173.47604 9209211
97.530098 -6.8668222 -173.27525 9209211
97.269112 -5.8981833 -173.78523 11906725
115.17404 -32.672169 -136.91174 8089963
115.666 -32.825756 -136.30034 10458767
116.3427 -32.886395 -135.51262 6511954
116.87367 -33.007477 -134.62534 6511954
117.39979 -32.974304 -133.93164 9077366
117.8577 -32.879269 -132.84409 9932163
118.28916 -32.779232 -131.73567 8088931
118.62919 -32.699665 -130.85045 7564643
118.965 -32.62051 -129.96664 7564643
119.29645 -32.541748 -129.08417 8419696
119.54243 -32.482956 -128.42322 9340286
114.72645 -31.82354 -137.71301 8089963
115.26877 -31.990774 -137.15808 8089963
116.02438 -32.072361 -136.45792 9274237
116.56539 -32.240734 -135.90347 8288362
119.70502 -32.443836 -127.9831 9340286
119.94669 -32.385448 -127.32346 7037274
120.26546 -32.307907 -126.44521 7103579
120.65784 -32.211544 -125.3494 6314832
114.3771 -30.546852 -138.63861 8089704
114.84655 -30.909105 -138.04965 8089704
115.60089 -31.01915 -137.33694 9274493
116.12017 -31.3901 -136.70375 8089963
125.46233 -31.361301 -117.3139 9209467
125.66119 -31.306402 -116.65845 8485747
125.92313 -31.233406 -115.78579 7762027
126.24477 -31.14275 -114.69736 8089963
126.56077 -31.052681 -113.61123 8814198
126.80908 -30.981098 -112.74419 8090987
127.05358 -30.90987 -111.87872 9735297
113.47403 -29.752705 -140.25748 10591121
113.94829 -29.881714 -139.70071 7695459
114.62443 -29.902079 -139.07373 6971480
115.21649 -30.138367 -138.30211 6248014
130.42339 -30.346924 -106.78751 9735046
130.68726 -30.261017 -105.7058 7630435
130.9458 -30.175646 -104.62669 7827814
131.14838 -30.107803 -103.76538 8748404
131.34735 -30.040314 -102.90578 9208443
134.10707 -29.609821 -99.235008 8813686
134.2375 -29.56053 -98.588875 8089963
134.45049 -29.478848 -97.514275 8813686
110.41638 -28.772152 -146.96136 8616563
111.18111 -28.896315 -146.14984 5919050
111.81748 -28.879736 -145.53561 9208435
111.72659 -29.182852 -144.3445 7695716
112.58689 -29.181606 -143.67253 7038307
113.10162 -29.180857 -143.26633 7038307
113.07754 -29.413328 -141.48914 7038298
113.72654 -29.405729 -140.91304 8814709
114.37447 -29.398529 -140.33609 7038298
134.65839 -29.397686 -96.442375 11380380
134.82076 -29.333183 -95.586922 9932937
137.02953 -28.973856 -93.020638 9010549
137.0997 -28.895735 -92.114861 6971738
137.19853 -28.801811 -90.9963 8089962
137.25558 -28.745806 -90.327446 8089962
139.15822 -28.411125 -88.271614 8090995
149.69453 -28.658636 -64.713295 8879991
150.29759 -28.78776 -64.189972 8156267
151.00653 -28.960285 -63.530258 6314832
151.18111 -29.210678 -62.224964 6577748
151.67426 -29.144148 -61.577698 7038298
152.30159 -29.075977 -60.559761 8550514
152.6575 -29.074871 -59.644699 8813686
153.0076 -29.073769 -58.727394 9867141
153.35245 -29.072668 -57.808083 10854036
153.69147 -29.071575 -56.886612 8156785
154.02533 -29.070477 -55.963249 7564651
154.56905 -28.999046 -55.009087 9866887
155.05258 -28.929586 -54.240311 11445658
155.54518 -28.821638 -53.367508 7893867
156.20552 -28.606344 -52.548851 9210491
156.55971 -28.61368 -51.625446 9210491
156.91374 -28.621944 -50.701439 9012859
157.2677 -28.631256 -49.776581 8223346
157.62163 -28.641468 -48.850975 7105122
157.97548 -28.6527 -47.924454 8485235
158.358 -28.70578 -46.881653 8485235
158.72528 -28.639776 -45.998241 9011831
159.06567 -28.733387 -45.023582 10459019
159.43323 -28.669184 -44.137749 10920340
159.81528 -28.626474 -43.192543 8880502
160.23982 -28.546675 -42.174973 7826533
171.08255 -28.34026 -19.454519 9208435
171.45328 -28.385807 -18.661974 9998211
171.82513 -28.432154 -17.866682 8419952
172.19788 -28.479246 -17.068716 9341054
172.66548 -28.539213 -16.06716 9932168
173.13457 -28.60041 -15.061514 7564651
173.51117 -28.65019 -14.253633 9538181
174.37932 -28.328516 -12.636827 12169898
110.00957 -27.731049 -147.88918 7038307
110.66822 -28.0399 -147.08746 9274750
111.37496 -28.021248 -146.40549 6445394
111.75573 -28.446692 -145.81641 5919050
139.20303 -28.356222 -87.602188 9735561
139.274 -28.265427 -86.490067 8090995
141.13763 -27.914503 -84.172035 10854292
141.18617 -27.825974 -83.061996 9735556
141.22215 -27.755596 -82.176926 9537921
143.01411 -27.442078 -80.263962 11840156
149.12938 -27.668844 -65.605034 9932937
149.82713 -27.852612 -64.993362 11116954
150.51424 -28.074013 -64.353172 6511955
156.83456 -28.025423 -51.507301 9210491
157.11826 -28.031982 -50.767029 9012859
157.5558 -27.884249 -49.784016 8815483
157.89571 -27.854027 -48.935329 10525843
158.2504 -27.864964 -48.00724 9406077
158.605 -27.87677 -47.078224 9208699
158.95958 -27.889578 -46.148193 8682867
159.31424 -27.903311 -45.217102 10459019
159.66899 -27.918043 -44.284832 10854290
160.02379 -27.933645 -43.351471 8287853
160.4487 -27.75243 -42.435081 7300446
160.80394 -27.769859 -41.498707 9668478
161.15923 -27.737839 -40.612175 7431775
161.58557 -27.60943 -39.638844 10787724
161.92729 -27.588322 -38.776314 12433061
162.3689 -27.452215 -37.771278 12433061
162.58295 -27.465233 -37.204681 12433061
165.97099 -27.351135 -30.292089 6511954
166.36139 -27.391104 -29.53784 6183246
166.7346 -27.569366 -28.709589 6709590
167.16693 -27.685247 -27.819593 8420208
167.65869 -27.738571 -26.867258 9736323
168.04478 -27.780731 -26.101198 10263180
168.49924 -27.829651 -25.135836 10788499
168.9548 -27.879585 -24.167044 10261899
169.32024 -27.920351 -23.389261 9932934
169.81364 -27.816917 -22.469973 10195335
170.29866 -27.758448 -21.530619 10326922
170.68481 -27.864326 -20.656965 10853004
171.06767 -27.823971 -19.910673 9471607
171.59756 -27.75876 -18.885599 10195589
172.06322 -27.815304 -17.890768 7564643
172.43697 -27.861395 -17.09173 8880503
172.8118 -27.908255 -16.289862 8879995
173.31874 -27.809784 -15.339128 8419702
173.81735 -27.757017 -14.367933 10064781
174.214 -27.870638 -13.466932 13024949
174.61136 -27.702513 -12.652971 11380639
174.88184 -27.689959 -11.70109 9011064
175.18819 -27.551275 -10.791445 8287341
109.55991 -26.870062 -148.76715 7235428
110.23208 -27.004732 -148.04092 7038307
110.97823 -26.941395 -147.34308 9998215
111.40936 -27.148769 -146.81569 7038307
143.0343 -27.373196 -79.378754 9932934
143.0518 -27.304817 -78.496696 7761765
144.80315 -26.992294 -76.546646 6511954
144.80458 -26.958786 -76.105263 6511954
147.89391 -26.430246 -68.260368 5392706
148.40739 -26.463043 -67.635742 6445910
148.87141 -26.763109 -66.711494 6445395
