# .PCD v0.7 - Point Cloud Data file format
VERSION 0.7
FIELDS x y z rgb
SIZE 4 4 4 4
TYPE F F F U
COUNT 1 1 1 1
WIDTH 1226
HEIGHT 1
VIEWPOINT 0 0 0 1 0 0 0
POINTS 1226
DATA ascii
72.434677 -42.297668 142.73642 9340541
71.570488 -42.295387 143.16252 8879990
70.706131 -42.294643 143.58812 10985110
69.841537 -42.295177 144.01335 10459278
68.883469 -42.451981 144.42168 9866886
67.90876 -42.494667 144.88411 9077625
67.043449 -42.499691 145.30786 11183001
66.177628 -42.506226 145.73119 12630448
65.311333 -42.514118 146.1543 11907239
64.44445 -42.52346 146.57712 11709603
63.403324 -42.536499 147.08414 10261899
62.535027 -42.548882 147.50635 10261899
61.665913 -42.562756 147.92845 9603193
60.796062 -42.577972 148.35028 9800572
59.886616 -42.512642 148.82404 9208952
59.079384 -42.418953 149.2589 10458763
58.206348 -42.438438 149.68063 9209210
57.157383 -42.463623 150.18663 9735555
56.276207 -42.481667 150.59239 9538176
55.593014 -42.185581 150.79079 9209467
99.516457 -41.084511 129.8905 8814200
98.804588 -41.048969 130.25526 11248795
95.705803 -41.300228 131.68027 8616819
94.99971 -41.269371 132.04034 9340800
94.118118 -41.231934 132.48952 11183003
93.237839 -41.195976 132.93736 9274751
92.358711 -41.161373 133.38412 11181972
91.378632 -41.281803 133.81842 9406076
90.56424 -41.291553 134.21553 9406332
89.688889 -41.261185 134.65875 13023917
88.8144 -41.232082 135.10106 10525075
87.902466 -41.399162 135.48303 10327696
86.992119 -41.567181 135.86385 9735302
86.121101 -41.542213 136.30281 9537665
85.153786 -41.477016 136.80531 8221802
84.304169 -41.533474 137.20097 9340280
83.338379 -41.471531 137.7014 9603197
82.470016 -41.45232 138.1367 9603457
81.566673 -41.628399 138.51082 8682867
80.699661 -41.6119 138.94437 9209467
79.833069 -41.59687 139.37704 8551537
78.845367 -41.53281 139.88905 9274748
77.99205 -41.624821 140.27228 9472127
77.061813 -41.557877 140.75706 9275004
76.196152 -41.548515 141.18681 10459278
75.330597 -41.540615 141.61586 12564398
74.465073 -41.534 142.04439 9143418
73.599548 -41.528847 142.47235 9406590
72.560852 -41.524433 142.98518 10129801
71.695145 -41.522221 143.41202 9340285
70.829254 -41.521465 143.83836 10195594
69.963158 -41.521984 144.26428 10459278
69.096733 -41.523994 144.6898 9932934
68.05661 -41.528156 145.19992 7959408
67.189392 -41.533092 145.62457 9012350
66.321724 -41.539516 146.04897 11710372
65.453537 -41.547184 146.47305 14078918
64.584785 -41.556347 146.89685 13288890
63.541431 -41.569111 147.40509 11906981
62.671265 -41.581207 147.82834 10130570
61.800274 -41.594799 148.25145 9669504
60.928566 -41.609676 148.67441 9537660
60.106075 -41.576725 149.09233 9866626
59.208199 -41.449768 149.58517 11643036
58.333302 -41.468884 150.00793 9274748
57.282089 -41.493526 150.51527 11906725
56.404926 -41.515579 150.93803 8682867
55.424961 -41.463696 151.08206 9209467
54.643642 -41.21265 151.2007 9209467
110.46425 -40.090378 124.74542 5920074
109.75021 -40.049168 125.14753 5920074
108.58504 -40.388222 125.63721 6511954
107.69734 -40.339378 126.13614 8814709
106.93682 -40.498768 126.47315 8287597
106.03038 -40.443962 126.94197 8879990
105.12546 -40.390388 127.40877 9538177
104.15136 -40.420265 127.87605 9340798
103.27583 -40.485508 128.28065 9209470
102.41092 -40.488026 128.70523 7564649
101.43556 -40.585663 129.14589 8946043
100.54121 -40.53912 129.6048 7959151
99.648552 -40.493938 130.06247 10064006
98.688164 -40.532078 130.52008 11511967
97.825012 -40.604462 130.91602 9341054
96.937653 -40.563469 131.36943 7301471
96.051643 -40.523842 131.82167 7498594
95.167068 -40.485741 132.27249 9143422
94.283745 -40.448929 132.72224 10196110
93.428787 -40.527416 133.11169 10064266
92.480438 -40.57518 133.55956 11181972
91.601265 -40.542488 134.00555 9471869
90.723122 -40.511147 134.45053 8682867
89.846085 -40.481266 134.89444 11576729
88.96994 -40.452694 135.33734 9932939
88.056351 -40.620361 135.71989 11183004
87.118385 -40.53672 136.21532 11446175
86.256248 -40.617439 136.60745 11840932
85.262619 -40.542351 137.12686 8287596
84.391075 -40.520809 137.56467 9274486
83.520218 -40.500732 138.00156 9932162
82.649857 -40.481937 138.43768 10129546
81.780052 -40.464573 138.87292 9208955
80.91069 -40.448448 139.30746 9209467
80.041718 -40.433792 139.7412 7367263
78.999428 -40.417973 140.26076 8682611
78.097168 -40.600048 140.63187 9735299
77.229469 -40.589668 141.06326 11182489
76.361984 -40.580532 141.49403 10459278
75.494553 -40.572857 141.92419 12564398
74.627151 -40.566376 142.35359 9932934
73.759712 -40.561337 142.78246 9275004
72.718727 -40.556992 143.29643 10524303
71.851128 -40.554806 143.72415 9537664
70.98333 -40.554066 144.15149 9077369
70.115326 -40.554592 144.57835 10459278
69.247055 -40.55653 145.00478 9077625
68.204628 -40.560585 145.51607 9012349
67.335556 -40.565426 145.94179 7828079
66.465973 -40.571674 146.36708 8946557
65.595947 -40.579193 146.79214 10262416
64.725258 -40.588142 147.21693 14078406
63.854053 -40.598343 147.64153 12762290
62.982105 -40.610023 148.06583 10656914
61.934799 -40.625759 148.57483 8748405
61.061203 -40.640308 148.99883 9011577
60.186707 -40.656303 149.42264 9471872
59.311371 -40.673569 149.84644 10129801
58.500072 -40.729603 150.22307 9076857
57.357006 -40.910923 150.71266 11906725
56.478676 -40.932663 151.13611 9341054
55.50544 -40.54985 151.44385 9341053
54.55027 -40.432484 151.51337 9275260
53.791885 -40.507526 151.5016 9736836
115.99235 -39.207024 122.12483 8090987
115.08488 -39.148819 122.63826 9208700
114.12856 -39.293194 123.09506 10064265
113.29102 -39.34359 123.52628 9866624
112.22551 -39.584763 124.00229 9603195
111.50755 -39.542122 124.40714 8880243
110.61195 -39.490173 124.91158 5920074
109.65331 -39.557423 125.40125 6117453
108.77818 -39.590096 125.85992 6972505
107.88866 -39.542156 126.35945 7235677
106.99368 -39.492992 126.84856 8287597
106.10309 -39.521439 127.27707 9537920
105.21384 -39.550804 127.70287 8551026
104.32685 -39.581234 128.12706 9340798
103.50571 -39.495869 128.56543 9209470
102.53414 -39.529671 129.02989 8946300
101.66092 -39.598362 129.43199 9406592
100.76427 -39.552803 129.89151 9603713
99.869202 -39.508549 130.34972 9011578
98.97596 -39.465794 130.80649 11117465
98.102631 -39.504765 131.22078 8090987
97.151398 -39.581192 131.65848 7630180
96.263222 -39.542419 132.11139 7761766
95.376511 -39.505112 132.56297 8879994
94.491081 -39.469124 133.01343 7564651
93.532082 -39.579758 133.44128 8616822
92.683426 -39.597069 133.85219 9471358
91.802185 -39.565105 134.29898 9866114
90.921936 -39.534428 134.74471 8880248
90.042847 -39.505215 135.18935 8485490
89.042717 -39.424423 135.71422 9208959
88.176178 -39.503502 136.10919 12300968
87.270218 -39.470554 136.5685 11182745
86.322891 -39.591839 136.98631 10393486
85.448669 -39.569523 137.42574 8024681
84.575142 -39.548443 137.86438 8419182
83.702255 -39.528782 138.30209 8814198
82.829941 -39.510395 138.73898 9143675
82.027496 -39.592205 139.10124 8946296
81.051529 -39.671917 139.5498 9866372
80.181 -39.65752 139.98421 8287342
79.136833 -39.641937 140.50462 8287085
78.232994 -39.824368 140.87639 9800836
77.363785 -39.814178 141.30846 12563886
76.494682 -39.805195 141.73996 9209467
75.592934 -39.991528 142.10909 9998983
74.550758 -39.984085 142.6252 10196106
73.68222 -39.979301 143.0546 9472383
72.81356 -39.975925 143.48332 10064008
71.944824 -39.973774 143.91167 9537664
71.075867 -39.973034 144.33954 8419439
70.206741 -39.97356 144.76695 10459278
69.337311 -39.975449 145.194 8682867
55.267284 -39.708965 151.78421 9932419
54.685902 -39.474255 151.89149 9932419
53.647327 -39.595825 151.86794 9275517
52.740936 -39.276764 152.01657 9735809
121.07956 -38.312866 119.74672 9734531
120.34034 -38.261353 120.16655 7695204
119.549 -38.414017 120.53098 8353134
118.63017 -38.351898 121.0521 8353905
117.66087 -38.493668 121.51692 9998727
116.94553 -38.529247 121.88821 8682867
115.96667 -38.589725 122.39156 9340541
115.05811 -38.532516 122.90517 10064265
114.23454 -38.440975 123.38698 11380380
113.27481 -38.628258 123.82802 10195847
112.47617 -38.581017 124.27825 10327434
111.57663 -38.52911 124.78482 9801859
110.67894 -38.478546 125.28979 7696741
109.88644 -38.502705 125.70747 10789268
108.9388 -38.627441 126.16765 12564654
108.12813 -38.544373 126.63901 8222572
107.23222 -38.49683 127.13046 7037274
106.25775 -38.562401 127.58654 9011576
105.36656 -38.593052 128.01276 7892583
104.47755 -38.624695 128.43744 8222061
103.50928 -38.693478 128.88625 8880249
102.60699 -38.646351 129.3492 10262156
101.78758 -38.564709 129.7852 9275263
100.90679 -38.601154 130.20398 10195592
100.04608 -38.719364 130.57999 9406335
99.150986 -38.677383 131.03728 10591121
98.169098 -38.765335 131.48508 9012344
97.322693 -38.794304 131.89003 9867141
96.477921 -38.824238 132.29399 7827559
95.502373 -38.916073 132.7375 8879994
94.615578 -38.880547 133.18837 7038307
93.730255 -38.846485 133.63799 6643546
92.846039 -38.813683 134.08662 9537664
92.316017 -38.794643 134.35519 9537664
54.564316 -38.884472 152.12914 10655371
53.749725 -38.490257 152.3055 9340796
52.643303 -38.600784 152.28793 9932674
51.988796 -38.326458 152.41277 9209467
123.08583 -37.163136 118.83447 9275262
122.2765 -37.414776 119.38726 7103843
121.42416 -37.557861 119.87005 9208441
120.57327 -37.530663 120.34029 7892581
119.66504 -37.552639 120.82118 7893096
118.75975 -37.575573 121.3002 7893611
117.92566 -37.480186 121.78927 8288111
116.98743 -37.508942 122.28361 9340797
116.10779 -37.630341 122.70847 11380124
115.31595 -37.523178 123.17953 8813942
114.40741 -37.468822 123.69194 8813942
113.45035 -37.61731 124.14747 9735038
112.62889 -37.529381 124.62662 10393227
111.80035 -37.625511 125.03424 10788498
110.87599 -37.67646 125.51207 8617843
109.9299 -37.828644 125.96019 12565423
108.98631 -37.981731 126.40646 11183001
108.27202 -37.944946 126.80698 7630435
53.507782 -37.650841 152.64539 9735296
52.90007 -37.611595 152.67551 10129797
51.889885 -37.547482 152.72514 9669762
50.983204 -37.233788 152.87164 11117208
123.84409 -36.495651 118.51438 10656401
123.24704 -36.547215 118.98933 9012091
122.45433 -36.524235 119.65572 7169892
121.57324 -36.47607 120.2328 7892581
120.6886 -36.486721 120.70567 6576723
119.79062 -36.61832 121.13623 6708823
118.94287 -36.594799 121.60316 7893611
118.03816 -36.620575 122.0807 8025196
117.19382 -36.712555 122.4985 9275004
116.25262 -36.758198 122.98757 10525071
115.7049 -36.725353 123.29655 11380380
113.78355 -37.023045 124.21111 9735038
52.801933 -36.830563 152.98865 10261382
51.931938 -36.621761 153.09258 9932934
50.80677 -36.514992 153.16194 10656657
50.026253 -36.275684 153.27583 10986390
125.68513 -35.168434 117.59904 10261899
124.97244 -35.443272 118.06573 9274236
124.20155 -35.59816 118.6375 10327180
123.41077 -35.464642 119.3615 9275262
122.6437 -35.806026 119.83997 8090992
121.73816 -35.862465 120.3952 7432548
121.17982 -35.825916 120.71133 7892581
51.689957 -35.987423 153.35081 9932934
50.982529 -35.687302 153.48718 9932934
50.080624 -35.457882 153.59999 9210491
49.217785 -35.19997 153.72325 9210491
126.61061 -34.503998 117.13771 10261899
125.92445 -34.510143 117.70853 9998727
125.13972 -34.569595 118.33675 9603457
124.42018 -34.507153 118.96771 9932422
123.73151 -34.695774 119.45486 9735557
50.162254 -34.582199 153.94655 8486774
49.037979 -34.481667 154.01343 9210491
48.257191 -34.246605 154.12564 8682867
128.31183 -33.167713 116.34389 9735555
127.55098 -33.477165 116.8344 8880246
126.92218 -33.540577 117.33029 11051415
126.12489 -33.516121 118.00838 10854036
125.27372 -33.699516 118.63383 9340285
124.74197 -33.892509 118.98776 9208443
49.917442 -33.948734 154.20456 8092019
49.101757 -33.565979 154.37639 8552312
48.150505 -33.467865 154.43811 8682867
47.444336 -33.174202 154.57191 9011576
129.33852 -32.364166 115.86361 11906725
128.64059 -32.550495 116.35941 11183001
127.83973 -32.524517 117.04114 8682867
127.03983 -32.499836 117.72147 10985622
126.34518 -32.688126 118.21356 13551549
48.384811 -32.550583 154.79764 9208955
47.261192 -32.456051 154.86208 9866630
46.480011 -32.224846 154.97279 9735043
130.96782 -31.158724 115.06851 8617337
130.42694 -31.350649 115.43046 10261903
129.56528 -31.531898 116.06558 10261903
128.76164 -31.50581 116.74966 11117209
128.12918 -31.569937 117.24821 10130058
127.36653 -31.882067 117.73895 10262155
48.137253 -31.917665 155.05542 9735043
47.320488 -31.538774 155.22574 9932166
46.369652 -31.445589 155.28555 9537664
45.662621 -31.155142 155.41805 9340542
132.00653 -30.351288 114.58025 6511954
131.30402 -30.538347 115.08344 8156527
130.50003 -30.51194 115.77431 7827304
129.6969 -30.486525 116.46379 9406335
128.98709 -30.672853 116.95299 10787988
47.065201 -30.702171 155.5648 9735043
46.483204 -30.481802 155.66791 8617075
45.478882 -30.438538 155.71748 9340542
44.703308 -30.214996 155.84842 12433069
134.95673 -29.244173 113.2113 9011576
133.99016 -29.372168 113.89164 8222573
133.10938 -29.584274 114.41835 6840664
132.47168 -29.564409 114.98354 6511954
131.58679 -29.775982 115.4986 6972249
130.62872 -29.906567 116.16927 7103323
45.508076 -29.792585 156.16957 9143163
44.613754 -29.558039 156.39133 10459534
43.757545 -29.353466 156.61313 9801604
42.787033 -29.076384 156.98997 8354675
41.999046 -29.055414 157.07715 7565675
154.81538 -28.316244 103.98109 9142389
154.13797 -28.343712 104.76885 11444375
153.70523 -28.332933 105.28783 11049874
151.18549 -28.756315 105.71248 9932418
150.54568 -28.754358 106.61952 9801090
145.56641 -28.754089 108.44122 8616563
145.04179 -28.752611 109.13988 8879991
140.12653 -28.752689 110.8173 9339515
139.59059 -28.751299 111.48987 11904668
139.05139 -28.749922 112.15974 7563619
137.32559 -28.983496 112.13634 9010550
136.858 -28.969841 112.58058 9537409
136.07851 -28.947592 113.3187 9537409
135.45439 -28.930193 113.90769 8287859
41.82021 -28.776646 157.93564 9012347
40.983986 -28.725471 157.84648 9012347
40.020012 -28.716972 158.04012 9735299
33.706253 -28.539986 161.75528 9275005
32.981613 -28.336803 161.5208 10129798
155.53883 -27.403469 103.63489 7826787
154.98564 -27.464279 104.25665 9537402
154.43298 -27.525484 104.8775 11181718
33.616669 -27.872969 161.97923 10129798
32.908722 -27.475729 161.82849 10590092
156.39139 -26.521965 103.11813 6972249
155.83658 -26.582787 103.74178 8024424
155.25665 -26.568071 104.4375 9208701
32.651463 -26.675207 162.03233 10656141
32.122196 -26.284739 161.95642 9472898
157.19598 -25.485531 102.745 6511954
156.69086 -25.699137 103.22414 7893096
156.00853 -25.727076 104.01732 8814201
32.036247 -25.553158 162.20721 8486518
158.12457 -24.373175 102.26738 8222573
157.61746 -24.587469 102.74846 7761254
156.97154 -24.571087 103.52338 8748149
156.45975 -25.012711 103.88268 9735299
31.847101 -24.626875 162.48988 8815484
31.135759 -24.389071 162.27478 9538950
159.05759 -23.257118 101.78667 7893608
158.54848 -23.472221 102.26962 8090987
157.86153 -23.500484 103.06813 8748661
31.742529 -23.746195 162.79128 9144449
30.969442 -23.4459 162.57396 10130829
159.30212 -22.462784 101.94173 8485747
158.60757 -22.6056 102.68515 7498850
158.02429 -22.774275 103.28197 7893608
30.945032 -22.650881 162.87642 10919571
30.314222 -22.245792 162.76215 12366244
160.17102 -21.567678 101.41313 8617080
159.47424 -21.710962 102.15892 8946297
158.95889 -21.652617 102.80252 8354159
30.157053 -21.440485 163.01102 11116949
161.10516 -20.279573 101.02753 8814458
160.38376 -20.604118 101.70088 9208960
159.70613 -20.828918 102.37825 10458766
29.964102 -20.512239 163.2928 10459019
29.341387 -20.588291 162.99257 10459019
161.87891 -19.421282 100.59114 8814713
161.28601 -19.407137 101.3019 8090737
160.71953 -19.470934 101.93768 10459280
29.855593 -19.628164 163.59378 10459019
29.247221 -19.508326 163.37697 9866883
162.73383 -18.438473 100.1283 9209470
162.16467 -18.502398 100.7672 8090993
161.59631 -18.566555 101.40501 9077886
29.194029 -18.654278 163.69017 10261384
28.61495 -18.551617 163.47928 9735297
163.56693 -17.373894 99.737061 8092019
163.0472 -17.594481 100.22964 8683641
162.45117 -17.581102 100.94368 11709858
161.93304 -17.801868 101.43417 9735812
29.112188 -17.782892 163.99777 8880246
28.379713 -17.482653 163.79807 9472125
164.45538 -16.461861 99.194778 9932681
163.93375 -16.683346 99.689201 8747893
163.23175 -16.714497 100.50395 8879478
28.232382 -16.57114 164.09302 9537920
27.46261 -16.289139 163.87001 10853012
165.47485 -15.08902 98.994888 8682867
164.79852 -15.461426 99.490417 8682355
164.01566 -15.799365 100.11641 8681843
163.40315 -15.972259 100.71692 8681843
28.146814 -15.924803 164.31039 10458767
27.465437 -15.428468 164.29578 10655630
26.711233 -15.067812 164.24329 10853012
167.04868 -14.195203 98.034317 9011579
166.69781 -14.194273 98.639313 8814455
166.0027 -14.524971 99.039062 8682867
165.37958 -14.63116 99.749802 8682867
27.200041 -14.701792 164.74713 10261124
26.449148 -14.433447 164.63719 9406079
169.05968 -13.802451 97.039703 10262155
168.59029 -13.800697 97.852226 9800838
25.473524 -13.903929 165.43736 6906716
24.831861 -13.88083 165.23846 7038307
17.475725 -13.539377 169.27185 9932166
16.710909 -13.473873 169.03712 9340030
17.165388 -12.874437 169.4702 9734788
16.628935 -12.443004 169.40714 9011065
15.908977 -12.00656 169.26651 9011065
16.502405 -11.476341 169.73254 9734788
15.791759 -11.315944 169.48734 9471616
16.385401 -10.783223 169.95447 9011579
15.621226 -10.512159 169.7296 8880249
15.494906 -9.6524687 170.01305 9011577
14.942309 -9.085227 169.99643 9603970
15.601581 -8.6854105 170.43973 11380380
14.836791 -8.4178324 170.21323 10327436
14.69081 -7.6648307 170.44617 10525072
13.927352 -7.3993921 170.21931 8682867
14.584479 -6.9946232 170.66402 9340798
13.958491 -6.4456921 170.6088 7235421
13.773528 -5.5152621 170.89545 6117453
13.130767 -5.5062337 170.61998 5920074
13.5852 -4.6722317 171.14622 5920074
12.948417 -4.4546208 170.95563 6972762
12.906077 -3.4712074 171.32509 8617331
12.336905 -3.3963737 171.1075 9143675
12.789832 -2.5537658 171.63641 8090987
12.146682 -2.5503943 171.35858 8025193
11.958472 -1.6111691 171.64732 9143417
11.330726 -1.0642862 171.59056 10064521
11.984649 -0.63880074 172.04216 9537918
11.226127 -0.38339251 171.90816 9867142
10.9574 0.21429926 172.27498 9604226
10.330962 0.53393203 172.25798 9604226
9.3295851 1.072917 173.0202 10591124
8.6880369 1.06952 172.73531 9341059
2.0616901 1.5343859 176.66774 9209467
1.2935321 1.7930341 176.45288 8551025
1.2094104 2.6273293 176.72067 8222316
0.99654269 3.5070508 176.95328 7498082
0.35617712 3.5005276 176.6938 6643285
0.35607794 4.3840575 177.01318 6709078
0.14150122 5.4903584 177.32698 7695461
-0.49893305 5.4809656 177.06647 8682356
-0.50115323 6.5936098 177.47345 7038043
-0.71734738 7.4847155 177.7337 6840664
-1.3580487 7.4727249 177.47708 6117197
-0.93333554 8.1538773 177.90877 8287598
-1.4471905 8.4133816 177.80753 6774870
-1.6229107 9.4012079 178.12228 9537663
-2.3290341 9.5882978 177.9173 8354159
-1.7991574 10.392837 178.43834 11181460
-2.5706189 10.645868 178.23325 11313559
-2.5190365 11.435142 178.56026 10326665
-3.0897076 11.495737 178.35939 9011832
-2.6686184 12.420402 178.88422 8485488
-3.310693 12.401776 178.62456 7827302
-3.4617093 13.390295 178.95129 8419695
-4.1079645 13.829734 178.87325 7959144
-3.5434353 14.464888 179.3734 7366751
-4.3177042 14.717616 179.18185 6577494
-4.4129725 15.370883 179.49773 5393738
-5.1905451 15.634267 179.4245 5393738
-6.17904 16.356499 180.43088 5393738
-6.6029367 16.328083 180.11531 6510930
-7.9419947 16.854563 180.87698 8222317
-7.9526072 17.441957 181.10103 7827046
-8.6041269 17.772596 180.98997 6643802
-8.8419199 18.378988 181.3665 6314838
-9.5015116 18.725065 181.39391 5393738
-9.9584284 19.216383 181.71561 6643802
-10.67096 19.774172 182.60678 8616819
-11.307351 19.731243 182.18642 9998472
63.762756 -40.01889 147.91937 11512223
63.06424 -40.028206 148.25935 10262156
62.015598 -40.043758 148.76906 8024426
61.140869 -40.058094 149.1937 8616819
60.265282 -40.073868 149.61813 9274236
59.388744 -40.090965 150.04256 9405822
58.410793 -40.208511 150.47649 8551025
57.607738 -40.323589 150.82538 10591121
56.728477 -40.344879 151.24948 9604226
56.024902 -40.151272 151.59006 9932419
81.819351 -39.29575 139.32274 9143675
80.947746 -39.280403 139.75809 9866372
80.076447 -39.266293 140.19273 7563619
79.205559 -39.253582 140.62662 8287085
78.334946 -39.242142 141.05984 9537408
77.464523 -39.232037 141.49246 12696498
76.59433 -39.223148 141.92451 8092019
75.691429 -39.409702 142.29422 9999241
74.64782 -39.402397 142.81094 10327692
73.778191 -39.397705 143.24097 9933190
72.908447 -39.394382 143.67044 10064008
72.038544 -39.392246 144.09932 10524047
71.168472 -39.391506 144.52773 10195594
70.298218 -39.391979 144.95575 10919829
69.42762 -39.393898 145.3833 9143677
68.352867 -39.591713 145.83264 8090994
67.481888 -39.596428 146.25928 7762029
66.610443 -39.602547 146.68559 7433063
65.73851 -39.609875 147.11166 8551800
64.865959 -39.618629 147.53749 11907238
64.03891 -39.550564 147.97177 10985879
63.146439 -39.445904 148.45296 9801605
62.096466 -39.461208 148.96344 8024426
61.220608 -39.47538 149.38866 8287598
60.343903 -39.490959 149.81383 8681843
59.466286 -39.507797 150.23889 9405822
58.587639 -39.526009 150.66386 8287853
57.708061 -39.545486 151.08882 9933191
56.827312 -39.566372 151.51376 9603969
55.788509 -39.5131 151.8497 10326663
104.37154 -38.136395 128.68593 8419440
103.64731 -38.098351 129.05763 9209468
102.74363 -38.051868 129.52098 9538433
99.955307 -38.315968 130.78676 9538689
99.059586 -38.274601 131.24417 9210491
98.165565 -38.234631 131.70015 9802371
97.272995 -38.195915 132.15491 11511711
96.360786 -38.257027 132.57932 8024170
95.548737 -38.362953 132.93665 7235171
94.64209 -38.248104 133.42923 7038307
93.774445 -38.294449 133.83786 6577753
92.859444 -38.3204 134.27803 7695973
91.82679 -38.580269 134.68216 9537664
90.944733 -38.550659 135.1284 9669511
90.063683 -38.522247 135.57365 7827566
89.183678 -38.495262 136.01781 9997700
88.304565 -38.469521 136.461 12168610
87.359932 -38.527416 136.90294 9735555
86.511215 -38.617096 137.28484 9670019
85.635017 -38.595272 137.72508 8090731
84.75943 -38.574665 138.16449 9208700
83.884544 -38.555439 138.60298 9405823
83.010254 -38.537411 139.04076 9012089
82.136467 -38.520809 139.47771 8683124
81.088554 -38.502529 140.00101 12234661
80.215668 -38.488647 140.43634 12234661
79.343216 -38.476181 140.87093 9076600
78.471039 -38.464897 141.30487 10129545
77.599068 -38.454979 141.73817 11906725
76.727303 -38.446285 142.17088 9407363
75.855659 -38.438938 142.603 10065035
74.809784 -38.431774 143.12082 9669762
73.938225 -38.427181 143.5518 11315100
73.066628 -38.423931 143.98222 10327693
72.194923 -38.421886 144.41223 9735043
71.322998 -38.421196 144.84167 11576987
70.450867 -38.421696 145.27072 11511193
69.578377 -38.423546 145.69928 9471869
68.530968 -38.427372 146.21306 8288112
67.65773 -38.431961 146.64085 8485747
66.784027 -38.437889 147.06837 10064522
65.909821 -38.445042 147.49567 9077372
65.035072 -38.453529 147.92265 10459279
64.159698 -38.463234 148.34946 10525328
63.283623 -38.474312 148.77603 9998727
62.2314 -38.489296 149.2878 9011321
61.353672 -38.503113 149.7141 9142906
60.475063 -38.518311 150.14029 9076601
59.595604 -38.534775 150.56639 9405822
58.715076 -38.552601 150.99249 10459022
57.83363 -38.571583 151.41856 10591121
56.951035 -38.592049 151.84462 10130313
55.946808 -38.645359 152.18451 9800833
55.040958 -38.417938 152.30344 9406589
54.266243 -38.088543 152.45302 9209467
111.51451 -37.30423 125.32005 11315612
110.97464 -37.274944 125.62331 8617843
109.96227 -37.322754 126.14989 11446687
109.13142 -37.381134 126.57421 10591379
108.16591 -37.419079 127.07959 7828846
107.29051 -37.489357 127.50983 8353902
106.48162 -37.444359 127.92593 10196364
105.51912 -37.634129 128.32321 13816007
104.69237 -37.549675 128.76399 10854551
103.7855 -37.502571 129.22917 9472640
102.88041 -37.456741 129.69295 9341054
101.93221 -37.610523 130.09769 9012091
101.03125 -37.567192 130.55838 8617335
100.13221 -37.525314 131.01765 9143933
99.23468 -37.484718 131.47562 9210491
98.338882 -37.445473 131.93213 9407613
97.401642 -37.60474 132.32932 10985367
96.5093 -37.568016 132.78313 8879479
95.618317 -37.532547 133.23584 7300963
94.728882 -37.498463 133.68744 7038307
93.840683 -37.465652 134.13791 6446422
92.879105 -37.579914 134.56555 7235678
92.02787 -37.600204 134.97656 9800836
91.14373 -37.571236 135.42354 10392977
90.260574 -37.543472 135.86955 8353909
89.378517 -37.517109 136.31448 8616564
88.497314 -37.491966 136.75851 9997700
87.617065 -37.468143 137.20151 10195850
86.737595 -37.445557 137.64363 11314588
85.858955 -37.424335 138.08481 9998728
84.944016 -37.599556 138.46503 8287854
84.067085 -37.580753 138.90437 8748149
83.01561 -37.559807 139.43054 9143675
82.139908 -37.543777 139.86818 9143675
81.264725 -37.529011 140.30502 9800579
80.389915 -37.515495 140.74121 11642524
79.515472 -37.503292 141.17661 10261130
78.641296 -37.492264 141.61147 10458510
77.76741 -37.482555 142.04561 10984853
76.893669 -37.474022 142.4792 13550774
76.020142 -37.466862 142.9122 10065035
74.971947 -37.45985 143.43109 9275004
74.098457 -37.455334 143.86299 13157560
73.22493 -37.452187 144.29434 11183001
72.351349 -37.450203 144.72531 8879991
71.477539 -37.449524 145.15575 12234916
70.603569 -37.45005 145.58588 9537406
69.729256 -37.451874 146.01553 7892840
68.743713 -37.494232 146.48355 9011831
67.775154 -37.654633 146.89566 9538175
66.89991 -37.660446 147.32393 8418928
66.024178 -37.667423 147.75197 9142907
65.147911 -37.675766 148.17981 9669762
64.271065 -37.685322 148.60739 9933190
63.393478 -37.696159 149.03487 9472383
62.33947 -37.710812 149.54758 9076601
61.460243 -37.724396 149.97469 8681843
60.580158 -37.739349 150.40179 9866117
59.699135 -37.755451 150.82875 9405566
58.817181 -37.772923 151.25571 11182745
58.110886 -37.787777 151.59724 11380380
55.951332 -37.812973 152.52251 9209467
55.162155 -37.565323 152.63986 9341053
54.0271 -37.451859 152.71217 9472382
118.84994 -36.092445 121.85912 7893611
118.29717 -36.058201 122.17136 7893611
116.90598 -36.385921 122.78765 8682867
116.35678 -36.352982 123.09737 9275004
115.3293 -36.456676 123.60921 10327436
114.48125 -36.448639 124.07001 8879736
113.68776 -36.52639 124.46624 9801090
112.79774 -36.55864 124.93319 9867398
111.89378 -36.509377 125.44107 9275518
110.99197 -36.461571 125.94715 9209467
110.04321 -36.61581 126.3958 12104873
109.32513 -36.579399 126.79813 8815484
108.42928 -36.535118 127.2996 9736329
107.53005 -36.490311 127.79358 10657172
106.54208 -36.523598 128.26637 13684164
105.6541 -36.592003 128.67578 16777207
104.74332 -36.544994 129.14285 13092027
103.83437 -36.49921 129.60851 9998984
102.98416 -36.407341 130.06377 8814453
102.07668 -36.655136 130.41066 8748920
101.25489 -36.576584 130.84663 8288371
100.35358 -36.535671 131.30656 9604226
99.453819 -36.496021 131.76526 9210491
98.555817 -36.457767 132.22253 9802371
97.616325 -36.618164 132.62033 9866630
96.721786 -36.582314 133.07484 9077114
95.828629 -36.547642 133.52829 7300963
94.936951 -36.514366 133.98042 9011582
94.046494 -36.482307 134.4315 8814201
93.15744 -36.451599 134.88144 8287854
92.288948 -36.501884 135.28888 9866629
91.343002 -36.590378 135.71913 10524306
90.457787 -36.563313 136.16591 9406340
89.573639 -36.537548 136.61163 8813687
88.690361 -36.512966 137.05638 8879478
87.871025 -36.53072 137.45276 9471870
86.888733 -36.663445 137.88318 9933191
86.008438 -36.642582 138.325 10195851
84.916122 -36.814583 138.79382 8287854
84.037712 -36.79631 139.2337 7564643
83.159897 -36.779373 139.67273 9538433
82.282646 -36.763618 140.11108 9275261
81.370522 -36.944237 140.48764 8945784
80.494514 -36.930893 140.9243 9866372
79.618919 -36.918846 141.36029 11445661
78.743622 -36.907986 141.79565 10458510
77.868553 -36.898396 142.23033 9142907
76.993675 -36.889988 142.66443 10065035
76.293884 -36.88419 143.01134 8092019
54.990021 -36.840389 152.9325 9275261
54.074249 -36.522217 153.08099 9801346
53.108238 -36.383987 153.15915 10721933
52.474426 -36.228577 153.23608 9932934
122.58522 -35.218143 120.16714 8156785
121.94719 -35.320347 120.50453 7301219
120.79955 -35.551884 121.02876 7103066
119.93526 -35.538738 121.50044 7893096
119.19511 -35.49271 121.91852 7893611
118.1971 -35.520477 122.44562 8156783
117.29947 -35.584682 122.90353 9669761
116.50182 -35.47897 123.37715 12301222
115.59152 -35.536839 123.84453 13484472
114.75317 -35.520241 124.30362 9472901
113.77577 -35.589378 124.80255 10196109
112.86769 -35.540302 125.31256 10130571
112.04421 -35.456074 125.79134 10722964
111.15656 -35.492035 126.25548 9472896
110.28761 -35.611122 126.67551 10525327
109.38794 -35.566887 127.17902 10657173
108.50671 -35.605812 127.63848 11249053
107.62087 -35.643761 128.08835 9735812
106.72177 -35.677483 128.51813 16185070
105.88927 -35.594025 128.9613 16184813
104.92951 -35.747677 129.3718 12828598
104.01874 -35.702797 129.83795 10854551
103.11002 -35.659317 130.3026 9341054
102.15792 -35.815807 130.70818 9143675
101.32143 -35.878033 131.09477 9012091
100.30616 -35.933174 131.57216 9735812
99.585472 -35.902042 131.9393 9210491
98.686157 -35.864323 132.39694 11578524
97.788322 -35.827812 132.85344 13025202
97.25032 -35.806564 133.12666 7563619
53.977219 -35.737938 153.39548 10327949
53.316025 -35.463955 153.52031 12433325
52.161163 -35.516838 153.52686 10064262
51.386673 -35.194302 153.67372 9340539
123.99818 -34.287701 119.42382 9208443
123.4334 -34.411045 119.83806 8156785
122.8342 -34.46468 120.3138 7959406
121.84904 -34.566826 120.8661 7367011
120.94946 -34.562717 121.35313 9734531
120.20557 -34.517044 121.77312 10129804
119.31116 -34.514988 122.25648 8353910
118.30025 -34.610554 122.7627 8353910
117.56267 -34.567627 123.17819 12959408
116.64301 -34.515221 123.69579 15722454
115.72562 -34.46402 124.21166 8683642
114.85454 -34.485069 124.67297 8881021
113.97881 -34.780315 125.02447 10327694
113.06881 -34.732224 125.53506 8289397
112.22696 -34.79113 125.96513 11183515
111.20609 -34.841778 126.49514 9209467
110.66391 -34.814949 126.79863 9209467
53.216816 -34.783314 153.79359 16248807
52.300987 -34.470272 153.94003 9340539
51.285145 -34.412308 153.98735 8748403
50.6772 -34.378231 154.01543 8092019
125.43776 -33.079235 118.78839 9011579
124.5065 -33.417862 119.40778 8748407
123.74782 -33.532978 119.98803 7893610
122.87625 -33.632557 120.64391 8616819
121.97005 -33.583126 121.20379 8156527
121.22235 -33.537811 121.62572 9932169
120.35396 -33.527786 122.09834 8879996
119.2097 -33.765526 122.61823 8090738
118.51279 -33.794468 122.98231 10327441
117.53646 -33.946075 123.44695 12827565
116.61566 -33.894642 123.96474 11380377
52.149406 -33.553326 154.30859 8156523
51.411469 -33.447594 154.36832 7564643
50.428413 -33.539841 154.35509 8092019
49.61068 -33.15662 154.52713 8814971
126.20584 -32.405552 118.46304 9933190
125.4424 -32.453751 119.07861 8946299
124.64483 -32.432331 119.75552 8354163
123.86519 -32.55135 120.35152 7827817
123.03882 -33.013878 120.8028 9208700
122.13528 -32.966393 121.36727 8353650
51.436329 -32.734962 154.65132 8156523
50.520294 -32.426754 154.79587 9669509
49.481243 -32.567463 154.76468 9669509
48.898151 -32.343651 154.86775 9208955
127.81957 -31.19721 117.68237 11511967
127.15736 -31.457054 118.11378 10788755
126.37627 -31.602331 118.69839 9604225
125.58649 -31.664331 119.32949 9604227
124.8974 -31.674076 119.90096 7696235
124.32898 -31.798918 120.31755 7038307
50.364487 -31.509655 155.16464 9537923
49.602669 -31.601246 155.14635 9735302
48.645569 -31.505507 155.20732 9603457
47.82692 -31.12615 155.37791 9735043
128.96307 -30.256519 117.21363 10787988
128.17535 -30.482714 117.74339 11774883
127.32728 -30.487499 118.461 11709857
126.55127 -30.723186 118.97633 9472639
125.75578 -30.86038 119.56615 9538434
49.700066 -30.826736 155.45229 9143677
48.72287 -30.503904 155.6199 8814453
47.694767 -30.536833 155.61557 9603457
47.111156 -30.315687 155.71753 9208955
132.25017 -29.160948 115.63077 7959144
131.6348 -29.275524 116.02754 8222060
130.94498 -29.283855 116.61982 7761253
130.08537 -29.559765 117.00082 7958632
129.21147 -29.704971 117.55301 10458767
128.51312 -29.712255 118.12906 10787988
127.74557 -29.824818 118.65857 13552061
48.406906 -30.004507 155.92825 9209467
47.84523 -29.797398 156.10892 9866629
46.879738 -29.573889 156.31186 9603459
45.914879 -29.351999 156.51398 8879991
45.155159 -29.141275 156.71611 9472127
153.27271 -28.322533 105.80638 8617591
152.69627 -28.309208 106.49721 8223089
152.14609 -28.37183 107.11432 8814967
149.9001 -28.752422 107.52237 11577500
149.24948 -28.750502 108.42165 11906208
144.38112 -28.750784 110.00965 9209214
143.71558 -28.748974 110.87563 8814203
138.64499 -28.748896 112.66056 7563619
138.23657 -28.747875 113.15981 8089963
137.6893 -28.746525 113.8232 8617336
135.14218 -28.921762 114.20151 7038307
134.51762 -28.905176 114.78777 8287859
133.73622 -28.885048 115.51888 10853524
133.11061 -28.869453 116.10194 9406590
45.000393 -28.866631 157.6084 8090995
44.206161 -28.844904 157.70024 9209467
43.214577 -28.818296 157.81297 9143675
42.422218 -28.797495 157.90163 7565675
37.895073 -28.710569 161.02264 11906725
37.118519 -28.710823 161.20213 10656402
35.952236 -28.711226 161.46501 9340800
34.957985 -28.606609 161.89748 9275265
34.296501 -28.457451 161.98279 9275265
154.09245 -27.36705 105.36999 11314071
153.5403 -27.429119 105.98972 8749433
152.98862 -27.491705 106.60857 8091760
34.096207 -27.523617 162.32512 11182229
154.82195 -26.557415 104.95881 9735046
154.38745 -26.547132 105.47964 9012092
153.80846 -26.533932 106.17343 9538434
153.3075 -26.748346 106.64717 9143934
34.166843 -26.736763 162.66585 10129798
33.516754 -26.478096 162.48553 9735297
155.74152 -25.44869 104.48993 8617080
155.23779 -25.663054 104.96684 8879995
154.65729 -25.649645 105.66255 7828078
154.15488 -25.86446 106.13784 9143934
33.321297 -25.51795 162.77881 9932676
156.73376 -24.110725 104.06313 9735299
156.15976 -24.551338 104.49681 10458767
155.51505 -24.536503 105.26939 8748666
154.86003 -24.975376 105.79998 8090737
33.16457 -24.52684 163.10104 10854036
32.458607 -24.500124 162.80516 9670535
157.59335 -23.220356 103.54302 9735299
157.08588 -23.436214 104.02367 9143163
156.35571 -23.419447 104.89864 10327436
33.073189 -23.855158 163.32581 9932937
32.360588 -23.464937 163.17024 10854037
157.92142 -22.467203 103.57605 8748404
157.21497 -22.527142 104.37999 9208442
156.56107 -22.740818 105.03546 9866112
32.284523 -22.59536 163.47961 10854037
31.670309 -22.468338 163.26306 10459280
158.66498 -21.645752 103.1548 8814710
158.0777 -21.632324 103.85863 9340796
157.49069 -21.619349 104.56169 9866112
31.479773 -21.537161 163.54703 8551284
159.70836 -20.177574 102.74049 9537922
158.97382 -20.63707 103.35383 9604226
158.2341 -20.795712 104.14186 10656399
31.287882 -20.604536 163.83098 8682867
30.572401 -20.37496 163.61084 9077625
160.46846 -19.157684 102.41086 11380380
159.88113 -19.421532 102.95934 9077628
159.14592 -19.58984 103.73661 8156012
30.662386 -19.521688 163.98587 10459019
29.886251 -19.230852 163.76353 12235172
161.34482 -18.252384 101.87917 10525328
160.7554 -18.517197 102.42965 11117208
160.08813 -18.456827 103.2546 9735815
30.492495 -18.568628 164.28741 11577243
29.777376 -18.343773 164.06558 12497830
162.07617 -17.340775 101.52299 14605262
161.55847 -17.561815 102.01297 11709858
160.96419 -17.549471 102.72459 10064779
160.44807 -17.770668 103.21261 10064779
29.674242 -17.374914 164.4023 8748919
162.95976 -16.429331 100.98633 9735812
162.44025 -16.651192 101.47808 12960181
161.84409 -16.638994 102.19181 11315100
161.39738 -16.630114 102.72652 9406851
29.422586 -16.596569 164.59955 7564651
28.776232 -16.360092 164.41223 10064779
164.3331 -15.069535 100.47219 8681843
163.49142 -15.420106 101.09647 11182490
162.6803 -15.679732 101.78984 11973030
162.05875 -15.945296 102.32623 10525328
28.845095 -15.563404 164.8091 9011835
28.018316 -15.130152 164.75826 10261124
165.9787 -14.191512 99.83889 10919829
165.29805 -14.330012 100.42538 10459022
164.48122 -14.613688 100.8344 10326924
163.58572 -14.825979 101.64445 15394266
28.513884 -14.763112 165.2659 10261124
27.757887 -14.493035 165.15512 9340280
171.57858 -13.475916 97.393585 9932936
168.0027 -13.798832 98.867363 7762282
167.53166 -13.797631 99.679184 8025453
26.763041 -13.950716 165.83571 7367005
26.117022 -13.927224 165.63638 8287592
20.814955 -13.705026 168.87567 9143419
19.593439 -13.705818 169.02072 8814453
18.531332 -13.58267 169.37131 9142906
18.011488 -13.318354 169.66251 9735043
172.09668 -12.517861 97.139099 10261132
171.76758 -12.877658 97.499863 10261644
17.990625 -12.543264 169.95847 9997959
17.198874 -12.050536 169.80879 9734788
172.40045 -11.557341 97.308899 10985111
172.03265 -12.038469 97.648872 10261132
17.798586 -11.518638 170.27826 10326666
17.082766 -11.357217 170.0312 10326923
17.682772 -10.82288 170.50183 10984852
16.913271 -10.550286 170.27515 9406080
16.859636 -9.7168884 170.57977 9011579
16.225416 -9.3254404 170.45859 8419442
16.128965 -8.4475899 170.76219 10327436
15.855773 -7.6470523 170.95868 10064265
15.369456 -7.1487985 170.944 9603714
15.253009 -6.3777561 171.19751 8945527
15.066188 -5.5335789 171.44931 8222317
14.418506 -5.5243859 171.17184 7761765
14.871634 -4.8984714 171.61542 10591121
14.330512 -4.4697657 171.54956 9209724
13.604949 -4.0403252 171.40402 5920074
14.198211 -3.4815753 171.88187 9341054
13.48352 -3.3347676 171.62953 9406590
14.076919 -2.7733467 172.10851 9341054
13.435733 -2.5571561 171.9155 9537918
13.24734 -1.6629829 172.18633 10984849
12.685649 -1.2075472 172.12216 10458763
13.278167 -0.63831967 172.60381 10984849
12.515349 -0.38196075 172.46802 10919056
12.463981 0.21860594 172.9295 10984849
11.701625 0.47449189 172.80307 9735555
10.619407 1.0798206 173.591 11445406
9.9732122 1.0764172 173.30551 11906725
3.3490512 1.5417407 177.18726 8486262
2.5769565 1.8011611 176.9711 8617330
2.4083698 2.5930591 177.18962 8090986
2.3541629 3.4472528 177.47673 6511954
1.7818515 3.5889108 177.29816 8880502
1.6407535 4.3998818 177.53468 7629924
1.4275043 5.2864337 177.76956 7169117
0.89107394 5.6129026 177.67223 7695461
0.78436923 6.6155953 177.99266 6182734
0.56944919 7.5090818 178.24913 7761510
-0.074967593 7.4968095 177.99104 6117197
-0.075959414 8.3968229 178.34035 9143419
-0.33586237 9.4307957 178.63989 10327949
-1.0454266 9.6181164 178.43369 10722193
-1.0271313 10.594251 178.82021 10524301
-1.8014538 10.847136 178.61391 9932163
-1.231271 11.470232 179.08025 10326664
-1.9484112 11.602731 178.84973 8682867
-1.3780072 12.228764 179.31735 8682867
-2.0245984 12.439183 179.14484 8682867
-2.0297177 13.357866 179.4998 8551281
-2.6750805 13.337708 179.23819 8288109
-2.2494519 14.043679 179.69397 8288109
-2.8988507 14.48694 179.63647 7432544
-3.5481122 14.929568 179.57883 7366751
-3.1245053 15.421217 180.07982 6840408
-3.9049771 15.685496 180.0134 6182480
-5.5405664 16.400051 180.91068 7170656
-6.649766 16.897976 181.36856 6313551
-6.6591883 17.487822 181.60341 6050636
-7.31318 17.81958 181.49927 6510930
-7.5498667 18.429945 181.9026 6577494
-8.2107477 18.776371 181.92987 8157039
-8.4633799 19.307487 182.61816 9735812
-9.1056528 19.268093 182.22998 8814711
-10.031617 19.817713 183.02997 8616563
68.359276 -37.26273 146.76578 10459019
67.833862 -37.265511 147.02313 9538175
66.957939 -37.271324 147.45183 8418928
66.081413 -37.278206 147.88031 9142907
65.204407 -37.286507 148.30855 8682355
64.326797 -37.295898 148.73653 9472383
63.448494 -37.306709 149.16435 9208699
62.569435 -37.318596 149.59209 9932166
61.689629 -37.331909 150.01964 8681843
60.632698 -37.349453 150.53262 9602945
59.750946 -37.365379 150.96002 10129289
58.868244 -37.382694 151.38747 11182745
57.896099 -37.403049 151.85757 11380380
57.099697 -37.420963 152.24225 10393229
56.248611 -37.35614 152.65092 8880763
55.653221 -37.013645 152.84773 10261132
87.493439 -36.284958 137.7374 9143675
86.964378 -36.271923 138.00307 9933191
86.083282 -36.251305 138.44522 9143420
85.026886 -36.22813 138.9747 9537664
84.147278 -36.210079 139.41502 9208443
83.26828 -36.193428 139.85461 10130313
82.389824 -36.177914 140.29344 9077625
81.476524 -36.358829 140.67047 8616819
80.599297 -36.345665 141.10762 9011065
79.722527 -36.333786 141.54411 10853781
78.846031 -36.323059 141.97998 10721940
77.969749 -36.313618 142.41519 9077628
76.918571 -36.303898 142.93669 9209726
75.98793 -36.413723 143.3508 8486519
75.134377 -36.486378 143.74188 8880246
74.258972 -36.481972 144.17465 11315100
73.38353 -36.47887 144.60696 9801605
72.508011 -36.476921 145.03885 8617075
71.632309 -36.47625 145.47025 10261129
70.756393 -36.476757 145.90126 8879477
69.880264 -36.478539 146.33199 9340027
68.828438 -36.48222 146.84834 12235172
67.951485 -36.486618 147.27832 9538175
67.07402 -36.492283 147.70787 9011321
66.196053 -36.499073 148.13713 8616307
65.31752 -36.507179 148.56615 8682356
64.438416 -36.516396 148.99501 8550769
63.558567 -36.526951 149.42366 10327948
62.678055 -36.538647 149.8522 11972518
61.796692 -36.551666 150.28062 8813429
60.737984 -36.568844 150.79465 9668738
59.854778 -36.584488 151.22289 9010808
58.970516 -36.601486 151.65115 9735299
58.130798 -36.540638 152.08878 10656657
57.223793 -36.443466 152.57414 9801093
56.330059 -36.460175 152.98653 8092019
55.414001 -36.374161 153.10793 9012092
108.40648 -35.114056 127.89403 9538950
107.68144 -35.078751 128.28511 11644325
106.94727 -35.040806 128.66315 16777207
105.02275 -35.348591 129.48637 9735812
104.11105 -35.304184 129.95288 9538433
103.20141 -35.261101 130.41772 9209468
102.29356 -35.219234 130.88129 9011832
101.27954 -35.33453 131.33392 9012091
100.43909 -35.337971 131.74603 9735812
99.537102 -35.299847 132.2052 8617843
98.63665 -35.262863 132.66315 11840927
97.80117 -35.269634 133.07156 11248536
96.755424 -35.588104 133.45802 9669507
96.039314 -35.561226 133.82121 8090733
95.14547 -35.528774 134.27409 10327438
94.252823 -35.49749 134.72588 10919318
93.36161 -35.467514 135.17651 10590864
92.411674 -35.555607 135.60849 9209724
91.542656 -35.607841 136.01529 10788245
90.590546 -35.52309 136.5181 9208701
89.714989 -35.604164 136.9167 8814200
88.760704 -35.479813 137.43652 8287858
87.88739 -35.563148 137.83308 7959150
86.939247 -35.484001 138.33173 8090992
86.056633 -35.46394 138.77441 9143164
85.174789 -35.445145 139.21617 9537664
84.293549 -35.427498 139.65721 9537664
83.447983 -35.460819 140.06021 10327692
82.497086 -35.591484 140.47595 9077625
81.617935 -35.577457 140.91447 8879991
80.739174 -35.564522 141.35236 9142907
79.860786 -35.552879 141.78947 9472386
78.982689 -35.542366 142.22604 9867403
78.104919 -35.533127 142.66197 8617847
77.051819 -35.523575 143.18431 9077625
76.174385 -35.516869 143.61899 8880502
75.297043 -35.511436 144.05313 8287341
74.419701 -35.507156 144.4868 9537408
73.542328 -35.504101 144.92004 9472128
72.664886 -35.502193 145.35284 10064777
71.787292 -35.501511 145.78519 9801092
70.9095 -35.501972 146.21722 8616819
70.031441 -35.503738 146.64882 9932421
68.977341 -35.507332 147.16637 10458765
68.098526 -35.511608 147.59732 8617075
67.219238 -35.517147 148.02806 8089963
66.33947 -35.523815 148.45851 10261643
65.459091 -35.531734 148.88866 9142907
64.578026 -35.54073 149.3185 8089963
63.696331 -35.551025 149.74825 10130313
62.813969 -35.562401 150.17778 11182489
61.930717 -35.575073 150.60727 9471615
60.935284 -35.629787 151.0751 10853012
60.150085 -35.360153 151.56981 9471359
59.124153 -35.427837 152.04739 9209211
58.26215 -35.52306 152.43324 10196106
57.323223 -35.660271 152.8401 9012091
56.433598 -35.680195 153.26871 8420727
55.464157 -35.440208 153.47845 8946299
54.489624 -35.509769 153.47403 9209467
113.94881 -34.16309 125.29347 9933193
113.21991 -34.125443 125.70216 8552312
112.19832 -34.237476 126.20738 10196878
111.39816 -34.306755 126.61066 10262155
110.37633 -34.49519 127.08472 9670276
109.54858 -34.598419 127.48904 11249053
108.7302 -34.519661 127.96281 10196364
107.82507 -34.476891 128.4557 11380895
106.8412 -34.548752 128.91321 16250863
105.94169 -34.585037 129.3412 13092026
105.02647 -34.540535 129.80939 9603713
104.23079 -34.44519 130.23929 9406334
103.32735 -34.511517 130.65714 8748661
102.49295 -34.50404 131.07072 8354159
101.52209 -34.582161 131.51704 7564651
100.61649 -34.54348 131.97816 7564651
99.712738 -34.506104 132.4379 8090987
98.810501 -34.469894 132.89641 9537918
97.840179 -34.517921 133.35457 10064263
96.968224 -34.599186 133.75096 9801348
96.071114 -34.566593 134.20551 9275260
95.175278 -34.535107 134.65892 10064776
94.280838 -34.504925 135.11116 9933446
93.387634 -34.475853 135.56235 8947064
92.495697 -34.448082 136.01239 9538688
91.604866 -34.421463 136.46146 9866886
90.675529 -34.593025 136.84979 9537664
89.787277 -34.568645 137.29677 8419443
88.900131 -34.545616 137.74283 7695980
88.013832 -34.523678 138.18811 7564650
87.128418 -34.502975 138.63235 7564649
86.243774 -34.483398 139.07585 9143421
85.359863 -34.465076 139.5184 11512478
84.476624 -34.447868 139.9603 10788243
83.52816 -34.514977 140.40036 10722450
82.676132 -34.612888 140.78061 9669762
81.794983 -34.599213 141.21997 9077626
80.914223 -34.586594 141.65869 8024938
80.033875 -34.575241 142.09671 9340543
79.030365 -34.514671 142.61508 8815228
78.163841 -34.610847 143.00313 8157552
77.218666 -34.546631 143.49431 8683123
76.339264 -34.540092 143.92989 8485744
75.427361 -34.730316 144.30252 7629411
74.5485 -34.726067 144.73697 7037274
73.669556 -34.723106 145.17088 8222060
72.790596 -34.721203 145.60442 9735812
71.911484 -34.720585 146.03752 10393485
71.032166 -34.721001 146.47029 9998983
70.152573 -34.722713 146.90273 9669506
69.096649 -34.726192 147.42119 8287600
68.186844 -34.925823 147.78902 6117203
67.306396 -34.931316 148.22028 6445394
66.425529 -34.937862 148.65141 9998727
65.544067 -34.945671 149.08224 8090736
64.662003 -34.954544 149.51289 7564651
63.779118 -34.964657 149.94321 9932678
62.895645 -34.975887 150.37341 9932166
62.011242 -34.98838 150.80351 9932166
61.126106 -35.001976 151.2336 10853012
55.318298 -34.518814 153.84868 9275261
54.547417 -34.602467 153.83376 9209467
53.678062 -34.420727 153.92688 11512223
119.97196 -33.25584 122.4158 7564651
119.41443 -33.223698 122.72975 7564651
118.67238 -33.181591 123.14724 11576994
117.69453 -33.334213 123.61235 9932933
116.77226 -33.283672 124.1306 10788497
116.00052 -33.530956 124.44559 8289140
115.01581 -33.602406 124.94756 10064524
114.10117 -33.554859 125.46047 11840161
113.1889 -33.508671 125.97151 8749690
112.27872 -33.463627 126.48102 9669762
111.48613 -33.548035 126.87399 11116696
110.59673 -33.587666 127.33759 10129540
109.69269 -33.545876 127.84242 12103072
108.79073 -33.505421 128.34566 9340539
107.88204 -33.463474 128.83734 10854551
107.16222 -33.509293 129.1731 13881800
106.17725 -33.583561 129.62794 10985881
105.25969 -33.54018 130.09683 9077113
104.34431 -33.498169 130.56413 8419183
103.43083 -33.457325 131.03011 7564643
102.49992 -33.50322 131.46964 8288112
101.62978 -33.638874 131.84329 7959409
100.77361 -33.488571 132.32503 11051421
99.876343 -33.560184 132.73772 8288367
99.028198 -33.476955 133.18852 9537918
98.125435 -33.442974 133.64641 9143161
97.181404 -33.608559 134.04433 9340797
96.282097 -33.576797 134.49962 9538176
95.384087 -33.546169 134.95377 9209467
94.487518 -33.516754 135.4068 9143931
93.592133 -33.488461 135.85872 8091755
92.76722 -33.562824 136.23474 8618099
91.765045 -33.632889 136.69972 8089963
90.834 -33.805141 137.08858 8616307
89.944046 -33.781231 137.53612 7564651
89.055092 -33.758629 137.9826 8550772
88.167038 -33.737118 138.42834 8024943
87.242111 -33.913532 138.81302 7696235
86.356186 -33.894299 139.25691 9143678
85.471115 -33.876228 139.70003 11644321
84.58667 -33.859272 140.14235 11315100
83.702866 -33.843552 140.58388 11380380
82.81958 -33.828949 141.0247 10459278
54.605042 -33.693565 154.19414 9209467
53.726738 -33.493656 154.29468 9275003
52.710743 -33.454769 154.33444 9340539
123.58324 -32.197517 120.75368 9011321
123.03777 -32.389408 121.09225 8616819
122.30079 -32.34874 121.53105 9471617
121.36917 -32.451122 121.99168 8485238
120.46285 -32.590134 122.4237 7695980
119.57546 -32.609245 122.89458 7564651
118.64676 -32.557629 123.41673 11840165
117.72047 -32.507225 123.93708 9209467
