# .PCD v0.7 - Point Cloud Data file format
VERSION 0.7
FIELDS x y z rgb
SIZE 4 4 4 4
TYPE F F F U
COUNT 1 1 1 1
WIDTH 1230
HEIGHT 1
VIEWPOINT 0 0 0 1 0 0 0
POINTS 1230
DATA ascii
-36.93895 21.818089 177.35045 8945527
-37.771023 21.804873 177.07149 9208699
-38.81221 21.790506 176.73425 7827048
-39.881622 21.604021 176.20068 7104095
-40.529675 21.421539 175.78691 7432802
-41.383938 21.237759 175.31195 7826533
-42.454189 21.244621 175.12611 8616048
-43.314232 21.252205 174.99077 7037274
-82.551567 1.9257379 156.87927 10262667
-83.347961 1.9257418 156.55942 12564397
-84.326797 1.9253989 156.12578 10393483
-85.267288 1.705189 155.62102 9604224
-86.051399 1.7049184 155.27357 9406845
-87.032501 1.704656 154.83899 9209467
-88.014694 1.7044253 154.40385 9143418
-88.801331 1.7043016 154.05545 9208187
-89.785843 1.7042431 153.61935 8617075
-90.771652 1.7041998 153.18282 8354159
-91.561295 1.7042222 152.8331 9208187
-92.549767 1.7043337 152.39532 10064008
-93.53968 1.7044849 151.957 10195594
-94.33284 1.7046531 151.60577 10393485
-95.325905 1.7049254 151.16609 9472382
-96.320587 1.7052543 150.72566 10524811
-97.117714 1.7055421 150.37271 10459020
-98.026871 1.6615345 149.95244 13221810
-99.005028 1.750909 149.55505 11248278
-99.917572 1.7069873 149.13335 8090987
-100.72053 1.7074926 148.77786 10524815
-101.60196 1.5965781 148.34312 9406590
-102.68637 1.4857556 147.81841 7959144
-103.49401 1.4861304 147.46092 8156527
-104.3032 1.4866527 147.10271 9012603
-105.31701 1.4872655 146.65395 9210238
-106.33321 1.4879756 146.20418 9012091
-107.14816 1.4885908 145.84351 9735812
-107.96481 1.489254 145.48204 9011577
-108.98829 1.4901044 145.02911 8288112
-110.01444 1.4910518 144.57504 8420470
-110.83756 1.4918067 144.21077 9340801
-111.66265 1.4926095 143.84572 8420470
-112.48966 1.4934595 143.47972 10063753
-113.52644 1.4946098 143.02106 9010808
-114.56633 1.4957731 142.56102 8550257
-115.4006 1.4967638 142.19188 8879480
-116.23719 1.4978018 141.82184 10195339
-117.076 1.4988869 141.4507 9537667
-118.12785 1.5003016 140.98541 9604741
-119.18317 1.5017118 140.51863 9405566
-120.0302 1.5029366 140.14398 8681843
-120.87966 1.5042081 139.76825 8089963
-121.73171 1.5055267 139.39137 8748405
-122.58628 1.5068418 139.01346 9340286
-123.44349 1.5082036 138.63435 10327434
-124.5189 1.5099883 138.15877 11314329
-125.59827 1.5117682 137.68147 10459278
-126.46505 1.513368 137.29826 9143677
-127.33471 1.5149139 136.9137 10065291
-128.20741 1.5165062 136.52811 9077625
-129.07259 1.5180006 136.13016 9801605
-129.91843 1.5193048 135.70773 9537921
-130.76677 1.5207055 135.28398 8419185
-131.61772 1.5220528 134.85893 8814200
-132.68526 1.5238862 134.32582 9998987
-133.75671 1.5257311 133.79073 11906469
-134.61714 1.5272661 133.36104 9011833
-135.48032 1.5288477 132.92996 11446431
-136.34651 1.5304754 132.49748 11446947
-137.21553 1.5321493 132.06354 5919050
-138.08757 1.5338695 131.6281 5919050
-138.96263 1.5356357 131.19116 7762281
-139.84082 1.5373976 130.7527 7958632
-140.72221 1.5392556 130.31265 10130057
-141.60675 1.5411596 129.87105 7959144
-142.49461 1.5431092 129.4278 6511954
-143.38577 1.5450544 128.98288 8485229
-144.28038 1.5470953 128.53636 11248535
-145.17839 1.5491819 128.08803 9472387
-146.07999 1.5513138 127.63806 8156787
-146.98512 1.553441 127.18627 10063751
-147.89395 1.5556635 126.73266 12168352
-148.80644 1.5579811 126.27723 11182228
-149.72276 1.5602942 125.81992 9603711
-150.64288 1.5626519 125.36067 9997700
-151.56697 1.5650545 124.89955 8418928
-152.49498 1.5675521 124.43638 8221549
-153.42708 1.5700445 123.97124 9470843
-154.3633 1.5725816 123.50414 9340027
-155.0681 1.5745186 123.15247 8089963
-155.77567 1.5765519 122.79961 8814715
-156.68457 1.5788521 122.2976 8814715
-81.707802 2.6934726 157.33533 9736067
-82.667557 2.5864153 157.09789 9801860
-83.462837 2.5866933 156.77333 11643550
-84.442986 2.5866237 156.3392 10656655
-85.424049 2.5866783 155.90474 9406845
-86.209648 2.5867805 155.55684 9933189
-87.192642 2.5870159 155.1216 9735811
-88.176697 2.5873332 154.6859 9472639
-88.964874 2.5876822 154.33698 9735556
-89.951302 2.5881634 153.9003 8485745
-90.939018 2.5887511 153.46309 9275261
-91.730194 2.5892711 153.11287 9603969
-92.720634 2.5900807 152.67455 10129801
-93.712509 2.5909302 152.23561 9932423
-94.507233 2.591696 151.88394 9998215
-95.413704 2.5481567 151.46504 9538175
-96.388138 2.6381762 151.06953 9538175
-97.297684 2.5948532 150.64937 10787727
-98.097633 2.5958626 150.29547 13353138
-99.099464 2.5973158 149.8524 10064262
-100.10321 2.5987914 149.4084 8419696
-100.90779 2.6000452 149.05257 10853268
-101.80088 2.3780453 148.5681 9143418
-102.73809 2.4353909 148.17601 7103835
-103.687 2.3809841 147.7339 7893352
-104.4979 2.382338 147.37534 7762285
-105.45058 2.3278267 146.93156 9078396
-106.45895 2.4499943 146.53392 8616823
-107.34882 2.3875191 146.11478 8485234
-108.16727 2.389147 145.75294 8156012
-109.04925 2.1202638 145.25462 9471358
-110.0563 2.2122624 144.84547 8617078
-110.99393 2.1689336 144.41287 9077886
-111.82032 2.1705847 144.04752 9077628
-112.64874 2.1722581 143.68127 9866373
-113.6872 2.1744485 143.22223 8813686
-114.72878 2.1767175 142.76183 7893099
-115.56451 2.178582 142.39246 9536894
-116.34731 1.952646 141.95525 10195339
-117.18703 1.9543803 141.584 8287859
-118.2401 1.9565433 141.11852 10262926
-119.29658 1.9588022 140.65152 8681843
-120.14458 1.960676 140.27672 8681843
-120.99506 1.9625963 139.90079 8089963
-121.84808 1.9645641 139.52386 9669251
-122.70359 1.9665778 139.14574 9340286
-123.34695 1.9681611 138.86137 8682867
-133.67154 1.9944977 134.02673 10525330
-134.74777 1.9973863 133.4897 7564643
-135.61209 1.9997166 133.05841 11052188
-136.47923 2.0020936 132.62575 7827561
-137.34937 2.0045662 132.19159 5919050
-138.22252 2.0071347 131.75597 5130561
-139.21732 2.1683764 131.32492 6117713
-140.04659 2.2502918 130.94395 7234653
-140.92963 2.2534482 130.50366 8945527
-141.81587 2.2566497 130.06172 8616304
-142.70543 2.2598977 129.61816 7959142
-143.59834 2.2632911 129.17302 9932418
-144.49464 2.26668 128.72614 10788501
-145.39442 2.2701392 128.27756 10064779
-146.29774 2.2736945 127.82724 8485751
-147.2047 2.2772944 127.37516 8814459
-148.11533 2.2809896 126.92126 12103072
-149.02965 2.2847304 126.46552 9800833
-149.94778 2.2885911 126.00796 8025193
-150.86977 2.2924972 125.54838 9800581
-151.69286 2.2146821 125.10469 9011065
-152.49275 2.2993698 124.73958 7563619
-153.29567 2.3845038 124.37313 9011062
-154.12834 2.3067262 123.9248 10918799
-155.06895 2.3109832 123.45657 8089963
-156.01385 2.3153095 122.98637 7564135
-156.91743 2.3190129 122.47839 9866885
-157.78342 2.3221653 121.93645 8221548
-158.43489 2.3245828 121.52885 9143417
-80.012573 3.677361 157.99962 9735812
-80.719215 3.5339251 157.8212 9867653
-81.734215 3.4653659 157.61574 9143674
-82.822701 3.4701104 157.39038 9735555
-83.616447 3.4707119 157.05948 9735554
-84.598457 3.4710569 156.62476 12432552
-85.581352 3.4715426 156.18959 10393484
-86.368446 3.472018 155.8412 9209211
-87.353371 3.4727426 155.40527 9801604
-88.339348 3.4735909 154.96896 9998727
-89.129036 3.4743633 154.61954 13880515
-90.117371 3.4754667 154.18225 8946296
-91.107002 3.4766521 153.74443 8485745
-91.899757 3.477721 153.39374 9472127
-92.804039 3.4344945 152.97595 10130057
-93.687004 3.4803772 152.60329 9800581
-94.638435 3.2590525 152.0932 9800581
-95.435478 3.2603409 151.74077 9274748
-96.43338 3.2620738 151.2995 9472638
-97.433098 3.263905 150.85747 9932419
-98.234222 3.2654881 150.50328 9932419
-99.237587 3.2675481 150.05972 9406333
-100.24291 3.2697384 149.61542 8879990
-101.04869 3.2716157 149.25925 9537664
-145.83687 2.9942541 128.35518 10064779
-146.51613 2.9980242 128.017 7564651
-147.42488 3.0030975 127.56459 9143166
-148.3373 3.0083158 127.11041 9208956
-149.02397 3.0122266 126.76864 9340539
-149.71298 3.0161846 126.42564 8419695
-150.63484 3.0215905 125.9668 7762021
-151.68901 3.1909063 125.50952 9011065
-152.56772 3.2781343 125.10633 8287342
-153.50264 3.2843492 124.64179 8353647
-154.4417 3.2907336 124.17536 9932163
-155.38506 3.2971621 123.70689 8353135
-156.33263 3.3037355 123.23624 7432549
-157.22905 3.3092427 122.72021 7563619
-157.99857 3.2308588 122.20284 7563619
-79.068207 4.5543442 158.49117 10459796
-79.9076 4.3387942 158.26259 8946299
-80.787247 4.3442106 158.10843 9933190
-81.890717 4.3512044 157.91512 9143674
-82.939476 4.1351123 157.61041 10459278
-83.732025 4.1358128 157.27487 9538176
-84.715416 4.1365142 156.83955 12169380
-85.699745 4.1373143 156.40396 10459278
-86.290825 4.1379147 156.14238 8682867
-157.24644 4.0529451 123.0377 7563619
-157.68068 4.0559578 122.76667 7563619
-77.323402 5.8682208 159.28621 7563619
-78.027344 5.7263556 159.10881 8288627
-79.000008 5.4389348 158.82999 10328209
-80.098778 5.4475641 158.63814 13814721
-80.921059 5.3651862 158.46173 13222841
-81.786995 5.0161524 158.17908 10855060
-76.378914 6.7464542 159.7782 7827303
-77.215599 6.5324321 159.5506 9471871
-78.091125 6.5405536 159.39821 7826791
-79.18914 6.5509624 159.20717 9406336
-80.031731 6.3361931 158.97829 14209736
-75.2164 7.6234379 160.30844 9340027
-76.270248 7.4121089 160.04335 8353391
-77.363426 7.4235644 159.85349 8879735
-78.240814 7.4329596 159.70123 7958891
-78.862587 7.2162843 159.51085 7039331
-73.739136 8.7946997 161.00325 7563619
-74.546738 8.5961943 160.78654 8221548
-75.302292 8.4265165 160.5898 11839901
-76.416336 8.30546 160.34732 10392714
-77.426254 8.2428074 160.14491 8221805
-72.577095 9.6735163 161.5341 8616048
-73.578773 9.6118565 161.3335 8484719
-74.667503 9.6260347 161.14551 7695205
-75.563103 9.50352 160.9413 8945014
-76.435081 9.0887651 160.6333 11313558
-71.149231 10.69913 162.16635 11710114
-71.848236 10.559371 161.99065 9472126
-72.632217 10.49542 161.8279 9405306
-73.719994 10.510681 161.64043 9339513
-74.72612 10.450049 161.43942 8221549
-70.892563 11.411044 162.4283 10129801
-71.891342 11.381958 162.26085 9076855
-72.766403 11.395886 162.12405 10260101
-73.556877 11.333241 161.96863 8221547
-69.033676 12.9051 163.17517 11510938
-69.903648 12.560772 162.93288 10787473
-70.939697 12.48861 162.74648 9997959
-72.033546 12.507546 162.57841 9931910
-72.799583 12.220533 162.36996 9734014
-68.327232 13.642259 163.51016 9867397
-69.115509 13.581278 163.36652 10328203
-69.987228 13.597086 163.23277 10129545
-70.986908 13.570397 163.0659 9340541
-66.33696 14.682969 164.46329 10262156
-67.21299 14.700632 164.35001 9866371
-68.210617 14.48116 163.96696 10327692
-69.196037 14.420137 163.73761 10656913
-70.070442 14.27586 163.4247 10524816
-70.726425 14.288617 163.32431 8814198
-63.647667 15.590796 165.79063 9340541
-64.537079 15.448893 165.52338 9735299
-65.52243 15.387424 165.30124 9867142
-66.509178 15.326253 165.07904 10262156
-67.40242 15.184944 164.81157 9736323
-50.940002 16.635113 171.74069 8880246
-52.027763 16.651613 171.61388 9011576
-52.899841 16.665337 171.51234 8682867
-59.974056 16.073198 167.57288 9274493
-61.069889 16.095358 167.45212 9603202
-61.949574 16.113726 167.35709 8353390
-50.006702 17.391258 172.13121 9208954
-51.013538 17.329601 171.98567 9143162
-52.102917 17.346895 171.85889 8682867
-52.732342 17.125351 171.70103 8682867
-48.410931 18.758978 172.82585 9209467
-49.229351 18.554764 172.65138 9998468
-50.046741 18.474773 172.52238 10129800
-51.060196 18.358265 172.35608 9669250
-51.959869 18.040674 172.13008 8682867
-47.360241 19.830835 173.3454 9735296
-48.206745 19.61068 173.16177 9801089
-49.295242 19.628382 173.03534 9472639
-50.086796 19.563698 172.91513 9932934
-45.37167 20.778055 174.28581 8420208
-46.399269 20.542885 173.93503 9735556
-47.400295 20.603672 173.81735 9734788
-48.313389 20.442085 173.54114 9998211
-49.367714 20.332621 173.28661 9208953
-40.929996 21.784716 176.22784 6249556
-41.779186 21.784592 176.03537 6774616
-42.841396 21.785233 175.79585 8616048
-43.709126 21.609695 175.37785 8090217
-44.680183 21.526775 175.07814 8748916
-45.683819 21.27611 174.62004 9077882
-46.547085 21.285877 174.48579 9734788
-47.195202 21.293491 174.38524 9734788
-38.566097 22.348091 177.64917 10063753
-39.190319 22.337778 177.4332 7695718
-40.042206 22.335876 177.23549 6249814
-41.108219 22.334848 176.99269 4473660
-41.961224 22.334682 176.79924 3749937
-109.08977 2.8421261 145.52592 9142650
-110.11883 2.8449538 145.07126 8813686
-111.15064 2.8478601 144.61543 7565675
-111.97845 2.8503094 144.24983 9208955
-112.80817 2.8528066 143.88335 9471871
-113.64002 2.8554008 143.51604 9077113
-114.68284 2.8587275 143.05545 8484979
-115.7288 2.86215 142.59358 8879479
-116.51294 2.6367128 142.15599 8551030
-117.35407 2.6393199 141.78452 9209984
-118.19752 2.6419995 141.412 10526097
-119.15913 2.5992556 140.96898 9538948
-120.20057 2.6944709 140.54591 9274493
-121.16859 2.6519287 140.10016 8616307
-122.02302 2.6549695 139.72292 9142907
-122.88016 2.6580319 139.3446 8682868
-123.7473 2.5227757 138.90651 9340796
-124.54259 2.4332294 138.51852 12235172
-125.48286 2.370224 138.07703 10525070
-126.53033 2.2543125 137.56694 10065291
-127.52 2.211108 137.11172 7828079
-128.39441 2.2138984 136.72606 8551285
-129.2588 2.2165177 136.32533 9537921
-130.10608 2.2188451 135.90257 9143163
-130.95592 2.2212689 135.4785 8221806
-131.80843 2.2237396 135.05318 9537922
-132.6635 2.2262819 134.62656 7893615
-133.586 2.4637816 134.26323 8814715
-134.44705 2.4668162 133.8338 7564643
-135.52751 2.4706831 133.29504 9736073
-136.61226 2.4747112 132.75417 6445910
-137.48347 2.4779828 132.31987 5919050
-138.35762 2.4813004 131.884 4342073
-139.01515 2.4838986 131.55623 4342073
-94.128494 3.7039826 152.49731 7564643
-94.726135 3.705174 152.23312 9340286
-95.523926 3.7067616 151.88042 8879991
-96.522911 3.7088432 151.43881 9867139
-97.52356 3.711123 150.99657 9932419
-98.325577 3.7130048 150.64214 10524555
-99.329903 3.7155471 150.19835 9406333
-100.33622 3.7182028 149.75375 8287853
-101.1429 3.7204792 149.39738 8287853
-101.90347 3.498172 148.97142 8024937
-102.91522 3.5009379 148.52448 7564387
-103.92917 3.5038512 148.07661 6511443
-104.74216 3.5063188 147.71751 6314066
-105.55676 3.5088356 147.35771 9208703
-106.57749 3.5121067 146.90701 8682616
-107.60066 3.5155418 146.4552 8879995
-108.42124 3.5183752 146.09291 9011064
-109.24367 3.5213065 145.72986 8089963
-110.18137 3.4793575 145.29774 8089963
-111.19424 3.5739689 144.88702 8353904
-112.13703 3.5322344 144.4528 9471871
-112.96818 3.5355799 144.08603 9603457
-113.80135 3.5389977 143.71838 9142906
-114.75127 3.4973187 143.28101 7498600
-115.77872 3.5931923 142.86436 9010808
-116.73438 3.5517755 142.4245 8747635
-117.57746 3.5556059 142.05267 8092019
-118.42283 3.5595837 141.67987 8618361
-119.27058 3.5636322 141.306 9407875
-120.23708 3.5222175 140.86143 8749172
-121.28436 3.6196461 140.43707 10261643
-122.25768 3.5785429 139.98988 9669251
-123.117 3.5830278 139.61153 7433063
-123.97903 3.5876346 139.23206 8682867
-124.84375 3.5923378 138.85146 9077625
-125.71122 3.5971119 138.46956 9538433
-126.52013 3.3691428 138.02003 8683385
-127.46876 3.3075342 137.57559 7696237
-128.48766 3.3795257 137.15378 8551288
-129.49635 3.4517052 136.71494 8945785
-130.42009 3.3893611 136.22858 8813942
-131.27245 3.3935738 135.80402 9537405
-132.12747 3.3978002 135.37816 9340542
-132.98511 3.4021893 134.95096 8222579
-133.84555 3.4066415 134.52254 7104099
-134.70869 3.4112239 134.09274 8946555
-135.50865 3.1789258 133.59677 11052188
-136.37703 3.1832511 133.16431 8354422
-137.24835 3.1877222 132.7303 6511961
-138.24059 3.145308 132.21661 5000003
-139.21977 3.1979694 131.74861 4342073
-140.10104 3.202703 131.30978 5393733
-140.98552 3.2075579 130.86949 7563617
-141.87318 3.2124829 130.42757 9734527
-142.76418 3.2175293 129.98402 8748146
-143.65849 3.2226713 129.53883 9801349
-144.55626 3.2279336 129.09203 9933708
-145.3311 3.3128703 128.73958 10788759
-146.20851 3.4793148 128.36945 7564651
-147.11662 3.4852891 127.91776 7564393
-148.02838 3.4913583 127.46426 8090736
-148.94388 3.4975729 127.00894 9340539
-149.86317 3.5039325 126.55178 7893350
-150.78632 3.5103376 126.09274 7762021
-151.48117 3.5152376 125.74729 9340030
-83.017456 4.579597 157.75754 9998727
-83.80925 4.5804467 157.41872 9998727
-84.793633 4.5812969 156.98311 11116950
-85.778877 4.5822964 156.54716 11380380
-86.606941 4.4349351 156.1214 9867141
-87.514702 4.3619018 155.69008 9604225
-88.502571 4.3632727 155.25313 9209211
-89.293831 4.3644681 154.9032 9867141
-90.284111 4.3661532 154.46529 9341054
-91.275658 4.3680029 154.02686 9011833
-92.069984 4.3695946 153.67569 9735299
-92.865265 4.3713102 153.32417 9998215
-93.860863 4.3735633 152.88412 9011832
-94.858032 4.3759804 152.44353 8879991
-95.657036 4.3780661 152.09045 8879991
-96.657494 4.3808126 151.64848 10524556
-97.659676 4.3837247 151.20575 9932419
-98.462837 4.3861303 150.85101 9603455
-99.267365 4.3886843 150.49571 9603454
-100.27498 4.3920059 150.05081 8879990
-101.28455 4.395524 149.60512 7958888
-102.09389 4.398447 149.24785 7564386
-102.90475 4.4014931 148.88995 6182478
-103.92044 4.4054456 148.4417 8024682
-104.93849 4.4095621 147.99248 6182480
-105.75481 4.4130259 147.63226 8945531
-106.57281 4.416563 147.27144 7038307
-107.59782 4.4211459 146.81932 9274495
-108.62539 4.4258842 146.3661 12168865
-109.44957 4.4298134 146.00267 11839903
-110.2756 4.4338903 145.63847 9142650
-111.21743 4.3930111 145.20494 9011065
-112.23511 4.4895167 144.79292 8945783
-113.18218 4.4489522 144.35722 9340285
-114.01719 4.4535427 143.98923 9998215
-114.85434 4.4582067 143.62036 7564135
-115.80875 4.4177661 143.18144 9536894
-116.84144 4.5156941 142.76338 10787731
-117.80192 4.4755664 142.32216 9011835
-118.64941 4.4808164 141.9492 8092019
-119.49937 4.4861884 141.57532 7960171
-120.35178 4.4916568 141.20045 8947319
-121.20666 4.4972477 140.82452 9143419
-122.18118 4.4573841 140.37733 9472129
-123.11973 4.4326739 139.95227 7695979
-124.159 4.2848601 139.43297 8682867
-125.02526 4.2906113 139.05209 9603968
-125.89431 4.2965598 138.67012 9538433
-126.76616 4.3025537 138.28679 9538435
-127.64093 4.3087945 137.90227 8880508
-128.51862 4.3150816 137.51659 9735559
-129.39334 4.3212671 137.12323 10459281
-130.45924 4.3281398 136.59645 8287083
-131.52667 4.3351569 136.06541 9734523
-132.38374 4.3408976 135.63916 9208179
-133.24348 4.346734 135.21159 7893615
-134.10596 4.3527174 134.78273 8354159
-135.08749 4.5178432 134.36002 8617331
-135.83949 4.365356 133.92099 11512738
-136.71051 4.3717122 133.48798 7828077
-137.5845 4.3781805 133.05353 9538434
-138.46153 4.3847957 132.61765 7697259
-139.34163 4.3915391 132.18025 7499880
-140.22485 4.3984118 131.7413 5656135
-141.04167 4.1649675 131.23651 6708566
-141.93077 4.1716161 130.79457 10260871
-142.82321 4.1784358 130.35103 8485230
-143.71904 4.1853509 129.90587 8091759
-144.61824 4.1923866 129.45909 9933708
-145.52094 4.1996179 129.01053 11183260
-146.42723 4.2069449 128.56035 10130059
-147.33711 4.2143917 128.10835 8090736
-148.25072 4.2219601 127.65456 7301222
-149.16801 4.229672 127.19901 8617076
-150.08922 4.2375541 126.7416 9012088
-151.01447 4.2454815 126.28252 8354158
-151.94389 4.2536535 125.8216 9537920
-152.87733 4.2619209 125.35873 9340798
-153.81483 4.2703323 124.89391 9867142
-154.75655 4.2788391 124.42707 10919057
-155.59688 4.2040691 123.97636 8551030
-156.28279 4.3754463 123.7047 8222323
-157.06071 4.3826303 123.29868 7761515
-81.279572 5.9019856 158.59637 11709089
-82.173065 5.5916233 158.32314 9406590
-83.174065 5.4715004 158.0527 9669762
-83.964272 5.4724994 157.7075 9538176
-84.950516 5.4737635 157.27124 11051415
-85.937675 5.475244 156.83459 10722450
-86.728157 5.4766064 156.48506 9209211
-87.657639 5.4223418 156.05168 9209211
-88.634384 5.5442853 155.66797 9209211
-89.500793 5.4822707 155.2594 9209211
-90.294762 5.4841967 154.90849 9340540
-91.288582 5.486763 154.46941 10655888
-92.283714 5.4895558 154.02982 10261387
-93.081001 5.4919429 153.67763 9866886
-94.035294 5.2702074 153.16615 8880248
-95.034454 5.2733727 152.72493 9800581
-95.835045 5.276082 152.37144 9077370
-96.748169 5.2342987 151.9503 12957870
-97.730232 5.3279696 151.55286 10590093
-98.646591 5.2865376 151.13042 9603711
-99.452705 5.2898149 150.77472 8485229
-100.46236 5.2941003 150.32928 8748403
-101.47402 5.2985754 149.88301 8551025
-102.28506 5.3023214 149.52531 10129289
-103.09754 5.3061657 149.16704 6642772
-104.11541 5.3112321 148.71825 6511443
-105.13562 5.3164544 148.26851 7038307
-105.95365 5.3207917 147.90797 8222579
-106.77337 5.3252268 147.54666 7038307
-107.70805 5.2849727 147.11659 8617076
-108.62409 5.3357534 146.73122 8682867
-109.6045 5.1134424 146.20796 13484726
-110.43195 5.1183424 145.84349 9537151
-111.26122 5.123291 145.4782 9866374
-112.30072 5.1296721 145.02034 9208700
-113.34327 5.1362505 144.56128 9143163
-114.17966 5.1417394 144.19302 9735043
-115.01817 5.147275 143.82388 8089963
-115.64851 5.151525 143.5466 9536894
-141.2506 4.8863091 131.42972 6445394
-142.21175 5.1358862 131.05199 8616304
-143.10646 5.1445026 130.60808 9011576
-144.00456 5.1532645 130.16252 6776152
-144.90611 5.1621733 129.71532 8354934
-145.8112 5.1712766 129.26643 9801348
-146.71983 5.1805005 128.81581 9932420
-147.63213 5.1899204 128.36337 8616823
-148.54826 5.1994853 127.90936 8551286
-149.46832 5.2092195 127.45369 9669764
-150.39236 5.2191486 126.99619 8354159
-151.32033 5.2292233 126.53686 6775126
-152.14865 5.15622 126.0929 9012092
-152.95387 5.2471352 125.72828 9538178
-153.76218 5.3386297 125.36237 8551026
-154.60002 5.2658563 124.91374 9603715
-155.54643 5.2766814 124.4455 11511200
-156.49718 5.2877011 123.97516 9208961
-157.12511 5.0459127 123.55239 8814203
-80.377289 6.636847 159.02795 14209736
-81.175362 6.5704203 158.86177 12959412
-82.28476 6.5816488 158.66896 9866630
-83.368599 6.5907779 158.4194 10656657
-84.158783 6.5920501 158.0699 9669762
-85.1474 6.5938373 157.63283 9998216
-86.136932 6.59584 157.19539 10459022
-86.929306 6.5976839 156.84517 9143418
-87.642723 6.5244727 156.49988 9340797
-88.673744 6.3772693 155.98421 9340797
-89.667015 6.3800426 155.54547 9209211
-90.462509 6.3824334 155.19412 10260871
-91.458282 6.3857031 154.75439 9734784
-92.455391 6.3891544 154.31415 9735299
-93.25428 6.3920898 153.96152 8880507
-94.210426 6.1704512 153.44925 9801606
-95.167252 5.948679 152.93666 9800581
-95.969048 5.9518614 152.58282 9866628
-96.772003 5.955142 152.22853 12234149
-97.777473 5.9595332 151.78496 10721678
-98.784767 5.9640884 151.34062 10787470
-99.592216 5.9679141 150.9846 7498591
-100.40091 5.9718885 150.62807 8485229
-101.41388 5.9770861 150.18152 8748148
-149.00279 5.9380121 127.98792 9932937
-149.69481 5.9465671 127.6457 9011838
-150.38872 5.9551196 127.30259 10262156
-151.08513 5.963819 126.95829 7762021
-152.01701 5.975563 126.49776 7564651
-152.95284 5.9875026 126.03522 9209471
-153.89287 5.9996371 125.5707 9867142
-154.83707 6.0119662 125.10419 9933196
-155.91801 6.1923337 124.63886 10064269
-156.49947 6.0340161 124.28294 8814203
-79.436913 7.4907122 159.51022 8879992
-80.445305 7.4572845 159.31891 9800836
-81.331673 7.4673944 159.16533 10064009
-82.312263 7.3664017 158.95392 12038311
-77.768692 8.5453672 160.19594 7563619
-78.391151 8.3290901 160.00549 7828075
-79.493889 8.3427525 159.81479 9736326
-80.600388 8.3567343 159.62355 9735300
-81.449364 8.1425238 159.39374 10261388
-76.731773 9.6988726 160.80597 10063493
-77.698334 9.442668 160.53976 11774879
-78.579964 9.4549246 160.3878 10196620
-79.60041 9.3403711 160.16437 9736326
-80.495079 9.0306215 159.89117 9736326
-75.065697 10.755145 161.49185 8089963
-75.686501 10.539195 161.30186 9866114
-76.784378 10.555706 161.11307 10063750
-77.885765 10.572604 160.92381 10656658
-78.731674 10.359522 160.69495 8354932
-74.16394 11.493206 161.92255 10260616
-74.95517 11.430614 161.76093 8616307
-75.832542 11.444659 161.61038 10129286
-76.837082 11.415766 161.42139 9406078
-77.777687 11.249919 161.19313 7039331
-73.13105 12.526731 162.40987 10851980
-73.982712 12.316648 162.21103 9997702
-75.086479 12.336679 162.04173 8879479
-75.972061 12.35302 161.90512 9668995
-76.603073 12.137718 161.72958 8089963
-71.546463 13.852021 163.06212 8090987
-72.17643 13.638148 162.89742 8617075
-73.02713 13.428475 162.69888 9800580
-74.129776 13.449979 162.5302 10195338
-75.122162 13.167086 162.28699 10590097
-69.634827 14.751409 164.03987 10656913
-70.298798 14.765862 163.95552 9209463
-71.394012 14.593937 163.56766 8353903
-72.380173 14.564968 163.3544 8090987
-73.143349 14.337169 162.95503 8420212
-74.026596 14.355516 162.82021 9933961
-66.891106 15.648295 165.26015 10262156
-67.543137 15.660601 165.15388 9670022
-68.560913 15.44334 164.80574 9802116
-69.652138 15.464512 164.62865 9736323
-70.453819 15.243114 164.31557 9208435
-71.111038 15.256215 164.2092 9208435
-53.992214 16.683064 171.38536 10195082
-55.086994 16.701437 171.25836 10853012
-55.96487 16.716656 171.15672 9537920
-56.624355 16.728317 171.0804 10130059
-63.053257 16.137564 167.24025 8551025
-64.161079 16.162264 167.12546 6511954
-65.05069 16.182673 167.03513 9998215
-53.057663 17.439875 171.77629 9471871
-54.07037 17.379826 171.63065 10063496
-55.166866 17.399042 171.50374 10392461
-55.799011 17.17782 171.34561 9209467
-51.404427 18.963102 172.53496 9735043
-52.282627 18.605345 172.2971 9077113
-53.168911 18.449968 172.13203 9405822
-54.257587 18.267357 171.93233 10129289
-55.02702 18.094742 171.77522 9010808
-50.628948 19.88518 172.96631 9932934
-51.342945 19.616911 172.78117 10327180
-52.355267 19.682131 172.68146 8813941
-53.328583 19.372263 172.44949 8945015
-48.822842 20.818565 173.75032 9735296
-49.471897 20.827078 173.65034 8682867
-50.507153 20.596771 173.32045 9932934
-51.596897 20.614616 173.1738 11248538
-52.431522 20.38814 172.9299 9405822
-45.81115 21.7887 175.10478 9735812
-46.866146 21.788515 174.83421 11313818
-47.895168 21.550934 174.46951 10129545
-48.762119 21.562199 174.33585 10392717
-49.540047 21.489719 174.15202 8551284
-50.445518 21.336494 173.88469 9932934
-42.387901 22.334885 176.70291 3749937
-43.027874 22.335384 176.55888 7037274
-44.095245 22.33712 176.31966 8288109
-45.163166 22.339741 176.08179 8748660
-46.018028 22.342543 175.89235 10459021
-123.41486 4.7444406 139.94716 8024943
-124.27932 4.7508936 139.56732 8814455
-125.14666 4.7574439 139.18626 8814710
-126.01671 4.7640905 138.80405 9538433
-126.88961 4.7708836 138.42062 9143675
-127.76543 4.777874 138.036 7564651
-128.64418 4.7849593 137.65007 10459281
-129.51915 4.7918949 137.25572 11183003
-130.37212 4.7980924 136.83392 9537662
-131.22621 4.8043857 136.40938 8681835
-132.2977 4.8123822 135.87679 9339765
-133.37312 4.8206062 135.34235 8946299
-134.23662 4.8273387 134.91328 9143675
-134.88599 4.8324981 134.59065 9143675
-109.08807 5.5665326 146.61827 10590347
-109.70811 5.5704951 146.3452 11511193
-110.53642 5.5758443 145.98055 8418928
-111.3666 5.5813918 145.61507 9537409
-112.40726 5.5884218 145.157 9011320
-113.45086 5.5957479 144.69771 8616307
-114.28835 5.6017361 144.32944 8089963
-115.12809 5.6079206 143.9604 9142907
-116.00324 5.4609995 143.51422 9471358
-116.87383 5.3444862 143.0822 10393230
-117.91222 5.4445653 142.6631 9340286
-118.87754 5.4058228 142.22046 9144189
-119.72946 5.4124932 141.84627 6906968
-120.58387 5.4193344 141.47104 8486512
-121.44073 5.4263234 141.09479 9341052
-122.30021 5.4334579 140.7175 10458765
-123.16226 5.440691 140.33905 9472129
-124.14494 5.4024658 139.88895 9274748
-125.2109 5.5052314 139.45869 9538175
-126.20084 5.4673371 139.0056 8617331
-127.07526 5.4753289 138.62193 8354160
-127.95269 5.4834671 138.23709 8288372
-128.83305 5.4917512 137.85098 10064524
-129.70833 5.4998608 137.45502 10064524
-130.56171 5.507031 137.03169 9603714
-131.4173 5.5143986 136.6068 9997695
-132.2756 5.5218625 136.18065 11313555
-133.25298 5.483079 135.67581 9734785
-134.21658 5.5392251 135.21709 12433069
-135.18396 5.5958176 134.75662 8156780
-136.17183 5.557569 134.24675 6709594
-137.04555 5.5658884 133.81323 6643547
-137.92229 5.5744042 133.37827 9143677
-138.80206 5.5830908 132.94188 10130828
-139.68489 5.5919724 132.50392 9603713
-140.57091 5.6009769 132.06456 6313808
-141.46016 5.6101756 131.62363 5919050
-142.4232 5.8615746 131.24576 10261132
-143.31966 5.8715644 130.80153 9011576
-87.961693 6.8250904 156.4791 8682867
-88.756165 6.8273821 156.12811 9340797
-89.750359 6.83042 155.68906 8946039
-90.546715 6.8331099 155.3374 9734784
-91.543396 6.8366451 154.89735 9340283
-92.541534 6.8404284 154.45685 9998727
-93.341202 6.8436642 154.10399 9341057
-94.141808 6.8470473 153.7507 9341057
-95.188911 6.6709452 153.21645 9998216
-96.103432 6.6299167 152.79497 8089963
-96.9076 6.6336961 152.44032 9273979
-97.914665 6.6387181 151.99634 10458508
-98.9235 6.6439381 151.55164 11445143
-99.732109 6.6483374 151.19527 8485229
-100.54211 6.6528597 150.83836 7498591
-101.55659 6.6587806 150.39142 8747891
-102.52514 6.4374762 149.87383 9734531
-103.33976 6.4423938 149.51498 8879478
-104.15594 6.4474578 149.15558 8222317
-105.17843 6.4540491 148.70531 8814459
-106.20336 6.4608936 148.25415 7827822
-106.96389 6.3746791 147.88278 7630699
-107.79797 6.2432203 147.46069 9340539
-108.82958 6.2504373 147.00673 9077624
-109.86389 6.2578511 146.55162 9274748
-110.69353 6.263999 146.18669 8616307
-111.52518 6.2703195 145.82104 8945272
-112.35889 6.2767859 145.45467 8945272
-113.40414 6.2851515 144.99561 9274750
-114.45245 6.2937312 144.53531 8089963
-115.29359 6.3007898 144.16605 9603458
-116.13692 6.3080206 143.7959 9537923
-116.98254 6.315424 143.42474 7563619
-117.83044 6.322999 143.05273 7563619
-118.89378 6.3327088 142.58623 8748662
-119.96059 6.3426728 142.1183 7565154
-120.81695 6.3508368 141.74278 8420462
-121.67579 6.3592238 141.36621 9340537
-122.53726 6.3677316 140.98856 11708316
-123.40133 6.376411 140.60983 9472129
-124.26812 6.3853121 140.22993 9340281
-125.13761 6.3943858 139.84894 8814194
-126.12875 6.3578658 139.39581 8485745
-127.20451 6.4635792 138.96242 8748918
-128.2032 6.4275241 138.50613 8025199
-129.08569 6.4374309 138.11972 9011838
-129.96028 6.44699 137.7204 8288116
-130.81535 6.4555831 137.29633 9011838
-131.67299 6.4643731 136.87097 8747887
-132.53333 6.4733095 136.44443 8945009
-133.39633 6.4824681 136.01657 9274236
-134.26213 6.4918237 135.58739 10327437
-135.13078 6.501349 135.15692 9143675
-136.00223 6.5110464 134.72511 9011833
-136.8766 6.5209389 134.29181 7103583
-137.87233 6.4843416 133.77873 8222576
-138.85495 6.5437794 133.31183 10130572
-139.73927 6.554285 132.87393 10722452
-140.62669 6.565012 132.43451 8748405
-141.51738 6.5759101 131.99358 6708566
-142.41136 6.5870285 131.55101 8353135
-143.30869 6.5983171 131.1069 9932167
-144.21278 6.3671179 130.55933 7959400
-145.11667 6.3783488 130.11197 8222576
-146.01012 6.2920985 129.62956 10327176
-147.0139 6.1582565 129.07253 9011831
-147.8277 6.0867968 128.63637 10655888
-148.48936 6.2582726 128.37682 9011838
-149.38414 6.4333129 128.00235 8551288
-150.30934 6.4457159 127.54533 9472387
-151.23845 6.4583144 127.08642 8288369
-152.17155 6.471158 126.62565 7564651
-153.10872 6.4841962 126.16293 9801350
-154.04996 6.4974289 125.69819 10327694
-154.99541 6.5108557 125.2315 9143681
-155.70726 6.5211358 124.88021 7564651
-82.706169 7.7082076 159.01024 9537665
-83.523415 7.4903245 158.71124 9537664
-84.315132 7.491919 158.36122 11314332
-85.107437 7.4936638 158.01102 11314332
-86.098755 7.4960971 157.57297 9011321
-87.091003 7.498796 157.13457 9209211
-87.885719 7.5011868 156.7836 9735555
-88.88015 7.5043998 156.34445 9275004
-89.875771 7.5078869 155.90486 8879990
-90.673294 7.5108995 155.55295 10786958
-91.671486 7.514924 155.11241 9340540
-92.671074 7.5192142 154.67149 9669506
-93.471909 7.5228729 154.31821 9341057
-94.273773 7.5266814 153.9646 9077886
-95.277702 7.5316987 153.52203 9011580
-96.283264 7.5370312 153.07878 9273979
-97.089066 7.5415339 152.72371 9273979
-98.00811 7.5013795 152.3006 11313559
-98.99691 7.5983014 151.90147 10327176
-99.919365 7.5586181 151.4771 9932418
-100.73101 7.5639133 151.11972 8353387
-101.65657 7.5245709 150.69405 9471615
-102.65363 7.6229043 150.29187 8813942
-103.58311 7.5840206 149.86461 9997958
-104.40141 7.5901833 149.50468 9998726
-105.33453 7.5516062 149.07594 9998987
-106.3409 7.6513662 148.67029 8617337
-107.28926 7.47579 148.1801 7631467
-108.05331 7.3904171 147.80765 9604227
-108.8807 7.397418 147.44434 8682867
-109.91763 7.4064646 146.98915 8879991
-110.95744 7.4157686 146.5329 9011321
-111.79156 7.4234447 146.16699 9932167
-112.62769 7.4313183 145.80029 9011324
-113.46583 7.4393554 145.43274 9932169
-114.45019 7.3911381 144.97791 9208957
-115.51499 7.2278056 144.44113 9472387
-116.36028 7.2362843 144.07057 9012350
-117.20779 7.244935 143.69916 8155756
-118.05762 7.253758 143.3268 7038816
-118.90979 7.2628036 142.95345 8682870
-119.88126 7.2266378 142.50912 8419696
-120.93383 7.3316612 142.08577 8879987
-121.82024 7.2169738 141.64745 9866624
-122.71568 7.07091 141.19254 6906711
-123.58129 7.0806627 140.81358 7893353
-124.44962 7.090713 140.43347 8090470
-125.32067 7.1008592 140.05223 6643539
-126.19452 7.1112514 139.66986 9011573
-127.07127 7.12184 139.28625 8485747
-127.95089 7.1326756 138.90147 8090991
-131.22072 7.1718946 137.38921 9011838
-131.86543 7.1793604 137.06982 8090475
-132.72734 7.1893954 136.64293 9274236
-133.5919 7.1996765 136.21474 8681843
-134.45926 7.2102046 135.78526 9932166
-135.32947 7.2208786 135.35451 9077626
-136.2025 7.2317991 134.9223 9340798
-137.07855 7.2429147 134.4888 7563619
-138.07637 7.4164224 134.0614 7235684
-138.90822 7.5079198 133.68311 9209473
-139.79396 7.5200987 133.24515 9670023
-140.68282 7.5324988 132.80568 9867143
-141.575 7.5451202 132.36472 8024425
-142.4704 7.5579619 131.9222 6708309
-143.36923 7.571075 131.4781 9537408
-144.27159 7.584383 131.03252 11050902
-145.1776 7.5979114 130.58551 8551543
-146.08876 7.4650612 130.07542 10327434
-146.85118 7.2805767 129.61821 9143160
-147.7683 7.1469178 129.10483 10064005
-148.6877 7.1604042 128.65111 9669766
-149.61095 7.1741352 128.19566 8748667
-150.53804 7.1881366 127.73835 8748409
-151.46901 7.2022824 127.27915 7827822
-152.40411 7.2166991 126.81807 8617336
-153.3432 7.23136 126.35503 9603972
-154.28639 7.2462654 125.89007 9538438
-155.23386 7.2613912 125.42307 8748923
-155.86705 7.0219245 125.00773 7564651
-81.52803 8.5939102 159.54645 10261388
-82.60302 8.3828583 159.27769 8813686
-83.678932 8.3936186 159.00429 8879990
-84.472137 8.3954887 158.65372 9669507
-85.265968 8.3975554 158.30301 8089963
-86.259163 8.4004593 157.86426 8089963
-87.253387 8.403657 157.42522 8813941
-88.049606 8.4064465 157.07375 9867141
-89.04599 8.4102068 156.63393 9142906
-90.043587 8.4142656 156.19374 9011320
-90.842659 8.4177771 155.84125 10523786
-91.75415 8.3765631 155.42105 9011832
-92.732796 8.4722576 155.02597 9077113
-93.646828 8.4316196 154.60484 9209470
-94.450317 8.4360256 154.25078 8880507
-95.45623 8.4418392 153.80759 9274749
-96.463852 8.4479446 153.36383 9077113
-97.271278 8.4530964 153.00824 9866116
-98.079979 8.4584455 152.65224 10721677
-99.09269 8.4654264 152.2065 9340539
-100.10733 8.472724 151.76007 8945780
-100.92071 8.4787912 151.4023 11049874
-101.73537 8.4851093 151.04399 10260873
-102.70749 8.2636671 150.52475 10458511
-103.72968 8.2718868 150.0753 12432551
-104.54929 8.278698 149.71507 9209467
-105.37072 8.2857065 149.35446 9209467
-106.39997 8.2948513 148.90279 8617849
-107.43166 8.3042431 148.45015 8618105
-108.25915 8.3120432 148.08725 11906725
-108.88085 8.3180065 147.81465 9340539
-115.25912 7.9209352 144.83319 9472387
-145.62401 8.3388491 130.66927 11512220
-146.30792 8.3503151 130.33232 10525069
-147.24977 8.2024841 129.80067 9669504
-148.06691 8.1342192 129.36429 8353902
-148.98877 8.1497793 128.91017 9143419
-149.91452 8.1655312 128.45432 10459023
-150.8441 8.1815796 127.99665 8353134
-151.77766 8.1978979 127.53706 7564134
-152.61092 8.1296883 127.09258 8222579
-153.42107 8.2269497 126.72822 9209726
-154.23442 8.3248224 126.36242 9143935
-154.97151 8.1718054 125.93089 11314590
-79.984367 9.9264097 160.31265 10525329
-80.855286 9.5779009 160.02934 11709089
-81.625496 9.4083891 159.82996 9932422
-82.53936 9.2859688 159.62257 9537665
-83.626953 9.2990913 159.36806 9209211
-84.629768 9.3028049 158.94745 9275004
-85.425186 9.3052454 158.59616 9142907
-86.420303 9.3085909 158.15677 10064264
-87.416443 9.3122683 157.71704 9932678
-88.133919 9.2392521 157.37003 9932935
-89.170853 9.0919094 156.85181 8485232
-90.169838 9.0964079 156.41109 9011320
-90.970123 9.1002426 156.05827 8814197
-91.771278 9.1043758 155.70508 9209211
-92.774155 9.1098032 155.26305 9340798
-93.778503 9.1155777 154.82057 9143163
-94.583214 9.1204081 154.46613 9603970
-95.187393 9.1241426 154.20009 9011576
-153.65672 8.9794636 126.9219 9209726
-154.3665 8.9934473 126.57314 10262155
-78.807884 10.813411 160.84911 7762796
-79.87854 10.60423 160.5818 8880760
-80.991051 10.622398 160.39101 9275261
-81.905052 10.501332 160.18402 9735555
-82.61161 10.118745 159.91734 9735299
-77.411049 11.697414 161.42358 11380380
-78.122818 11.558308 161.24582 7039331
-78.922394 11.496422 161.08096 8815226
-80.033592 11.515793 160.89093 9011832
-81.060898 11.458087 160.68727 9143675
-77.17466 12.420547 161.72626 7499625
-78.187912 12.393917 161.54285 8486262
-79.075745 12.410402 161.39137 8749176
-79.878868 12.349328 161.22626 8946039
-75.349869 13.776946 162.43517 11379356
-76.123955 13.490073 162.22548 9209214
-77.156174 13.381237 162.02863 7564905
-78.323753 13.307951 161.82097 9538692
-78.964394 13.093367 161.65431 9538176
-73.378387 14.82876 163.4771 9933961
-74.534477 14.731255 163.1541 10262413
-75.474014 14.629823 162.87123 11379612
-76.25724 14.566957 162.67641 9735558
-77.341949 14.20108 162.27286 8090992
-78.193718 13.98947 162.04755 9933193
-70.601471 15.720813 164.65829 9734779
-71.729355 15.554312 164.33264 9405816
-72.739983 15.530408 164.16325 8814714
-73.526588 15.468334 163.98155 9276289
-74.639061 15.330359 163.64098 9012862
-57.284977 16.740231 171.00403 10130059
-58.167347 16.75654 170.90221 10130059
-59.273075 16.777521 170.77484 10524047
-65.719788 16.198328 166.96826 8813942
-66.390823 16.214384 166.90213 9143163
-67.288124 16.236286 166.81517 9143681
-67.963043 16.253038 166.75073 9143681
-56.359627 17.46722 171.38292 9472382
-57.368191 17.439629 171.24963 10195592
-58.251888 17.45664 171.14789 9998216
-58.887325 17.235764 170.9895 9931910
-55.355946 18.412226 171.85117 9406590
-56.375267 18.354004 171.70528 9603967
-57.479481 18.375862 171.5784 9998211
-58.115219 18.154486 171.41982 10261382
-53.754513 19.786856 172.54889 9142650
-54.526402 19.489187 172.34598 9998215
-55.407894 19.506718 172.24475 10326921
-56.390903 19.244623 172.02904 10129796
-57.341896 19.076208 171.85129 9209467
-52.508938 20.870874 173.18307 9800580
-53.564083 20.648857 172.9101 9603457
-54.660172 20.669088 172.7641 9471872
-55.460033 20.606781 172.64009 9537665
-56.124645 19.991629 172.33435 9735296
-50.117962 21.829998 174.32045 8682867
-51.02499 21.677223 174.05325 8682867
-51.8055 21.606066 173.87 9471615
-52.797466 21.571917 173.68057 10655890
-53.931244 21.390989 173.35437 8353647
-44.502796 22.892935 177.04097 6905944
-45.360905 22.895184 176.85005 7366751
-46.434433 22.899027 176.61259 9340801
-47.255905 22.569706 175.94461 10787731
-48.157803 22.352396 175.42241 9734788
-49.229214 22.358828 175.18919 9603460
-50.295277 22.363291 174.93488 9340289
-51.139862 22.363684 174.70126 8945527
-122.18661 7.5332685 141.61264 9866624
-122.83496 7.5410471 141.32904 6906711
-123.70161 7.5515485 140.94978 5920074
-124.57095 7.5622463 140.5696 7367005
-125.44302 7.5731926 140.18816 7367005
-126.31795 7.5843334 139.80563 9011573
-127.1957 7.5956702 139.42195 7367271
-128.2551 7.4518156 138.89532 7762027
-129.118 7.3841662 138.48637 8024941
-130.09532 7.4440832 138.06126 7827822
-131.01984 7.4868145 137.61963 8485751
-131.99413 7.6573348 137.20274 7564135
-132.85696 7.6681681 136.77562 9274236
-133.72264 7.6791987 136.34726 8681843
-134.59105 7.690475 135.91762 9932166
-135.46233 7.7019477 135.48659 8287598
-136.33649 7.7136669 135.05418 9340798
-137.21359 7.7255816 134.6205 9340798
-137.87323 7.7346797 134.29436 7367269
-102.80447 8.72293 150.66579 9866885
-103.82793 8.7317486 150.21638 10788241
-104.64862 8.7389584 149.85623 9998726
-105.47096 8.7464666 149.49547 9209467
-106.50128 8.7562065 149.04362 8618105
-107.5341 8.7661982 148.59074 9407364
-108.36243 8.774498 148.22766 11906725
-109.227 8.6293917 147.7868 10129800
-109.97202 8.5600662 147.42928 9998471
-111.01423 8.570961 146.97263 8419184
-112.05933 8.5822449 146.51483 8747894
-112.89776 8.5915327 146.14766 9208703
-113.73825 8.601017 145.77968 9932169
-114.58085 8.6106987 145.41081 8485491
-115.60005 8.4675026 144.90236 9735559
-116.56588 8.4680071 144.4753 9801095
-117.49072 8.4125605 144.04385 9800835
-118.34298 8.4230127 143.67101 8682613
-119.19762 8.4336634 143.29726 9011579
-119.99648 8.2093983 142.85364 9669251
-120.85555 8.2202101 142.47791 8946037
-121.93308 8.2340698 142.00682 10853262
-123.01443 8.2482004 141.53415 6972246
-123.88258 8.2598009 141.1548 7235418
-124.75347 8.2716475 140.77428 7695969
-125.62711 8.2837152 140.39262 6249038
-126.50356 8.29603 140.00984 7169629
-127.38297 8.308567 139.62593 7169893
-128.26529 8.3213491 139.24074 7564393
-129.15054 8.3343763 138.85432 7563619
-130.03436 8.3473539 138.46182 10261388
-131.01212 8.3127222 137.96432 9275010
-131.97186 8.3733759 137.50934 7563619
-132.93529 8.4346342 137.05275 8945015
-133.9193 8.4005556 136.54663 8681843
-134.78926 8.412982 136.11661 8682868
-135.66219 8.4256516 135.68526 9011833
-136.53795 8.438571 135.25266 7892840
-137.41667 8.4517336 134.8186 9866886
-138.29839 8.4650936 134.38315 8419702
-139.18324 8.4787741 133.94621 8814715
-140.07118 8.4926758 133.50787 7433065
-140.96234 8.5068226 133.06796 6972512
-141.85678 8.5212154 132.62668 8287341
-142.75473 8.5359058 132.18398 6905688
-143.65625 8.5508394 131.73984 8748150
-144.56125 8.5660448 131.29411 9538435
-145.41826 8.6624126 130.9059 8880507
-146.45543 8.8441696 130.46301 8814199
-147.3717 8.8606348 130.01213 9143417
-88.455101 9.5440674 157.34995 9735555
-89.25428 9.5476866 156.99744 8156267
-90.254311 9.5524349 156.55647 8353646
-91.055367 9.5565672 156.20329 7761509
-91.857277 9.5609007 155.84984 9340798
-92.861176 9.5666771 155.40761 9472384
-93.866524 9.5728006 154.9648 9011320
-94.672005 9.5779295 154.61012 8814453
-95.635429 9.35569 154.09441 9669250
-96.532974 9.4076452 153.71773 9340285
-97.454269 9.3684835 153.29399 9866627
-98.264618 9.3745298 152.9375 9800833
-99.279396 9.3824272 152.49124 9932419
-100.29617 9.3907042 152.0443 8288622
-101.11129 9.397521 151.68623 9800836
-101.92785 9.4046345 151.32768 8617334
-102.85906 9.3669853 150.90057 9209211
-103.86278 9.4684706 150.49745 10459276
-104.79803 9.4314222 150.06879 11182742
-105.62168 9.4396267 149.70767 10129800
-106.44701 9.4480305 149.34604 10392717
-107.4811 9.4589291 148.89293 9144192
-108.51781 9.4701815 148.43884 9866629
-109.34936 9.4794779 148.07471 10655887
-110.18266 9.4889717 147.70987 9406335
-111.01798 9.4987612 147.34428 8353134
-112.06496 9.5113516 146.88622 7826790
-113.11492 9.5242796 146.42691 8814202
-113.9573 9.5349379 146.05858 10130315
-114.8018 9.5458937 145.68936 9933190
-115.64851 9.5570202 145.31932 8288112
-116.49741 9.5684452 144.94835 8881019
-117.56189 9.5831041 144.48338 9801088
-118.62977 9.5981436 144.01701 8945267
-119.48686 9.6104565 143.64285 9669508
-120.28802 9.387023 143.19853 10985879
-121.14955 9.3995304 142.82237 9341054
-122.01368 9.4123039 142.44527 11182227
-122.95628 9.3589439 142.00679 9405815
-124.0062 9.2530584 141.49977 10458246
-124.9977 9.2209139 141.04822 8287851
-125.87344 9.2345285 140.66629 6511955
-126.75201 9.2483664 140.28317 5920074
-127.63351 9.262476 139.89888 6775131
-128.51796 9.2769051 139.51343 8089963
-129.40541 9.2915306 139.12672 8879479
-130.28975 9.3060055 138.73219 10260875
-131.15181 9.3189688 138.30974 10458766
-132.01433 9.3320274 137.88373 9340286
-132.87953 9.345335 137.45653 9800837
-133.74742 9.3589373 137.02805 12959157
-134.73584 9.3264303 136.52036 10853525
-135.71056 9.3904238 136.05923 9538177
-136.68918 9.4549818 135.59644 8616563
-137.68845 9.4234419 135.08366 10458770
-138.5724 9.4384985 134.6478 9011582
-139.45943 9.4538507 134.21049 7893615
-140.34978 9.4695005 133.77187 6314839
-141.24345 9.4854202 133.33188 6446423
-142.14058 9.5016594 132.89047 7366239
-143.041 9.5181971 132.44754 8090219
-143.94487 9.5349789 132.00299 8880507
-144.85216 9.5521059 131.55687 7564651
-145.763 9.5694799 131.10912 9998985
-146.57637 9.5029716 130.67532 10721679
-147.36563 9.6005344 130.32141 9340540
-148.28825 9.371645 129.76579 8353902
-149.18872 9.0589676 129.1866 9143417
-149.98701 9.1567516 128.82832 10392718
-150.78821 9.2551327 128.46886 8089962
-151.61913 9.1887188 128.02632 7037274
-152.55725 9.2073069 127.56541 7301733
-153.44705 9.3084641 127.16279 9209726
-154.28789 9.4923429 126.81889 7039331
-82.868271 10.729921 160.09747 9275004
-83.825195 10.43857 159.74281 10722450
-84.827866 10.442639 159.31642 9472383
-85.625137 10.44546 158.96442 10788756
-86.622665 10.449396 158.5242 9669506
-87.621262 10.453679 158.08368 10064264
-88.420959 10.457397 157.73102 9603457
-89.29525 10.396344 157.31931 8550769
-90.283913 10.524251 156.93268 8221804
-91.226387 10.472404 156.49451 7959400
-92.029953 10.477251 156.14058 9603969
-92.974503 10.425917 155.70169 9208955
-93.998909 10.260586 155.18176 8682355
-94.805626 10.266212 154.82672 8748660
-95.613403 10.272064 154.47133 9669250
-96.62487 10.279746 154.02641 9669250
-97.638107 10.287845 153.58104 9209211
-98.450241 10.29459 153.22427 9143161
-99.263649 10.301584 152.86717 12563366
-100.28253 10.310777 152.42015 10130569
-101.30335 10.320249 151.9724 9932936
-102.12177 10.328212 151.61357 7433573
-102.9416 10.336396 151.2542 7564642
-103.96865 10.347003 150.80408 10327689
-104.99802 10.358015 150.35316 11971744
-105.82342 10.367121 149.99167 9208187
-106.65044 10.376472 149.62959 10129289
-107.59345 10.340998 149.19814 8025712
-108.61137 10.446184 148.79019 9208443
-109.55912 10.411384 148.35687 10063751
-110.39434 10.421974 147.99168 9932165
-111.23142 10.432816 147.62575 10787215
-112.07054 10.443975 147.25903 9932164
-113.12241 10.458268 146.79947 9142650
-114.17729 10.472982 146.33873 9670018
-114.96812 10.249788 145.89905 8550769
-115.81622 10.261813 145.52878 8089963
-116.66658 10.274186 145.15749 11380380
-117.5192 10.286806 144.78542 11380380
-118.58843 10.30302 144.31891 8945264
-119.66122 10.319643 143.85106 9341054
-120.52223 10.333201 143.4756 10591121
-123.8708 9.9139223 141.82559 11379348
-124.96281 9.9318562 141.34975 10063491
-126.05885 9.950201 140.87221 9077114
-126.93909 9.9652386 140.48892 5920074
-134.16245 10.088738 137.12166 14076870
-134.81712 10.099993 136.79895 13024438
-135.69226 10.11531 136.36755 12037799
-136.57033 10.130925 135.93488 9537922
-137.4514 10.146887 135.50078 11971495
-138.33549 10.163044 135.06531 11971495
-139.22269 10.179546 134.62852 9011582
-140.11345 10.196396 134.19057 6972765
-141.00731 10.213491 133.75119 7235936
-142.02692 10.396836 133.3177 6972765
-142.87677 10.495671 132.93414 8353906
-143.7812 10.514229 132.48997 9867143
-144.68918 10.533055 132.04428 9209471
-145.6006 10.552228 131.59694 9143422
-146.51567 10.571696 131.14793 10063750
-147.43434 10.591559 130.69724 10524300
-148.35669 10.611693 130.24484 10064005
-149.13112 10.131874 129.65947 9471614
-150.05988 10.151698 129.20369 10063752
-150.99261 10.171768 128.74612 8616306
-151.92928 10.192234 128.28673 7432032
-152.86995 10.212993 127.82545 8551027
-153.73576 9.9815531 127.29715 9209726
-81.411575 11.768636 160.73976 9735555
-82.043678 11.552025 160.54749 8880503
-82.941582 11.568648 160.39423 9669250
-84.024414 11.58385 160.11949 10656145
-85.026894 11.588175 159.68724 10525584
-85.826111 11.591435 159.33458 11183258
-86.826073 11.5959 158.89354 9209468
-87.827072 11.600821 158.45213 11248794
-88.628716 11.605054 158.09875 10788243
-89.431221 11.609562 157.74519 8353135
-90.435532 11.615655 157.30286 6907224
-91.441101 11.622136 156.86005 7565410
