# .PCD v0.7 - Point Cloud Data file format
VERSION 0.7
FIELDS x y z rgb
SIZE 4 4 4 4
TYPE F F F U
COUNT 1 1 1 1
WIDTH 1182
HEIGHT 1
VIEWPOINT 0 0 0 1 0 0 0
POINTS 1182
DATA ascii
-5.8341103 -45.493073 -158.22887 11379356
-5.0668182 -45.409515 -157.96991 10918289
-4.3017941 -45.326225 -157.70847 10063235
-2.8118534 -45.168514 -158.67416 9143163
-2.0479736 -45.085304 -158.39883 9340286
-1.2863789 -45.002331 -158.12132 10129286
0.034423798 -44.863056 -159.13202 8552052
0.98519897 -44.759415 -158.7684 10065800
2.516531 -44.597145 -159.69044 9011576
-134.83856 -44.426403 -134.33958 10591635
-134.35605 -44.426456 -134.82745 9538948
-132.61618 -44.558044 -134.37894 9538948
-131.93326 -44.545219 -134.97899 9143422
-131.24973 -44.532825 -135.57753 9143422
3.0860481 -44.535038 -159.46211 9011576
3.8430233 -44.452404 -159.15575 8090732
5.2053299 -44.308624 -160.13216 8486003
5.9601212 -44.216522 -159.77838 9407102
7.9005928 -43.966404 -160.33975 8880503
8.6511803 -43.874611 -159.97153 9208443
10.049704 -43.720703 -160.89459 9208443
10.80018 -43.637573 -160.54468 8617335
12.591896 -43.440144 -161.27486 8157812
13.339571 -43.3573 -160.91158 8420470
14.776497 -43.201611 -161.81447 10261132
15.71312 -43.112682 -161.39754 9603968
17.748436 -42.945171 -162.19202 9735812
18.495453 -42.87455 -161.84497 10261899
20.553114 -42.704704 -162.61024 8089963
21.297354 -42.634129 -162.24771 9866371
22.819838 -42.514889 -163.26576 10459537
23.563023 -42.44418 -162.88939 9736071
25.665415 -42.269665 -163.60567 9143675
26.220675 -42.216682 -163.31212 8288365
28.344778 -42.039898 -164.0016 9734523
29.082109 -41.969204 -163.59525 9734523
30.675951 -41.843155 -164.56958 10854036
31.41157 -41.772495 -164.14935 9406590
33.37323 -41.580467 -164.78418 8354933
35.522293 -41.350548 -165.22224 9735554
37.510071 -41.14056 -165.77254 9209727
38.044731 -41.0741 -165.37369 8486262
39.552628 -40.966442 -166.46344 7039331
40.268089 -40.882938 -165.93925 8287084
42.377541 -40.750622 -166.7863 9207924
42.911064 -40.687656 -166.38025 10853012
44.830021 -40.536827 -167.19334 9931910
45.390938 -40.501526 -166.89087 9734529
46.187889 -40.114307 -167.45299 9734529
46.996346 -39.895802 -167.26244 8484720
47.793484 -39.779751 -167.0262 6511954
47.248943 -39.135605 -167.65245 8090474
48.189537 -38.97308 -167.33414 6709333
48.731705 -38.545952 -167.28307 6511954
48.088081 -37.981968 -167.76604 8288365
48.989082 -37.918503 -167.42546 8288365
48.349976 -37.173649 -167.97784 8288365
49.185707 -37.126179 -167.65749 8090986
49.874554 -36.861629 -167.48219 8683124
49.208527 -36.128971 -168.04062 8090987
50.11174 -35.973999 -167.7352 9472640
50.066566 -34.986961 -168.14186 9867400
50.971275 -34.926811 -167.79858 10656658
50.348343 -34.14772 -168.35779 7565675
51.132359 -34.13213 -168.04591 9998212
51.93792 -33.908356 -167.80716 9866371
51.224094 -33.254021 -168.3542 8814452
52.039333 -32.952568 -168.14212 9340281
52.85606 -32.639889 -167.93384 9866371
52.137787 -32.02504 -168.46716 8748657
53.062347 -31.939516 -168.12578 9011577
52.204544 -31.395569 -168.6877 8288621
53.03611 -31.089491 -168.51744 8550769
53.903912 -30.660799 -168.45891 8156780
54.041199 -30.067347 -168.89323 9011577
54.943367 -29.916569 -168.65056 8156268
55.692612 -29.748724 -168.48405 5920074
56.168556 -29.444597 -169.24922 7827303
56.966763 -29.437267 -168.94566 6511955
59.046104 -29.214291 -169.73576 8090992
59.858002 -29.212772 -169.45213 8551026
64.808861 -29.033154 -170.75163 8813685
65.675743 -28.907223 -170.40918 9011320
65.105965 -28.19137 -170.96375 8682355
65.845222 -28.108974 -170.65085 8287342
66.470619 -27.88373 -170.4487 9011320
65.892876 -27.082726 -171.04128 8616306
66.755524 -26.922691 -170.70184 9472127
66.801544 -25.962624 -171.06645 9538433
67.668892 -25.836384 -170.71123 9735812
67.013206 -25.260908 -171.24962 9735812
67.727707 -24.990461 -171.02383 9472640
68.471031 -24.807747 -170.74942 9735812
67.83242 -24.200766 -171.29245 9275005
68.702393 -24.075138 -170.93578 9736836
68.045876 -23.496281 -171.47583 9143931
68.763908 -22.994762 -171.34187 11907234
69.538528 -22.822882 -171.04837 11709855
68.978561 -22.02038 -171.63451 14998220
69.744698 -21.896191 -171.32578 14471620
69.77858 -21.057045 -171.64864 14274240
70.583443 -21.050688 -171.27425 12629674
69.868965 -20.392683 -171.87437 13550517
70.735771 -19.942886 -171.64995 11248794
70.888626 -18.83182 -172.02678 8947070
71.618912 -18.900919 -171.65688 8618360
71.73336 -17.980232 -171.97482 9276285
72.505058 -17.856623 -171.6633 8092011
71.944862 -17.041513 -172.25462 9736836
72.755173 -17.036793 -171.87703 8947320
72.743156 -16.218134 -172.23532 9539457
73.501534 -16.140312 -171.92316 9604483
73.785583 -15.33699 -172.4016 9998985
74.735771 -14.973773 -172.33913 8814715
75.649933 -14.616297 -172.37364 7893098
76.742485 -14.236728 -173.17448 7037274
77.5653 -14.234154 -172.79343 10787988
-118.81439 -55.945858 -137.86679 9011321
-118.13261 -56.047543 -138.1926 10459023
-117.42699 -56.0826 -138.60019 9274493
-116.32766 -56.199482 -138.99039 8089963
-113.84966 -56.131065 -138.73175 8089963
-113.23626 -56.074581 -139.00415 7564135
-112.41801 -55.999542 -139.36391 7037274
-111.39455 -55.905895 -139.80742 8683635
-110.36504 -55.809875 -140.23792 9209979
-119.79471 -55.113087 -137.65706 9143675
-119.23019 -55.326233 -138.01054 9011321
-118.4325 -55.358189 -138.62874 8682356
-106.52981 -55.533005 -140.17229 6971994
-105.50597 -55.437233 -140.57173 8419695
-104.48185 -55.341782 -140.96519 7366751
-103.66225 -55.265667 -141.27513 9209467
-102.63771 -55.170746 -141.65662 8880509
-98.50457 -54.870441 -141.62285 9867654
-97.489594 -54.777695 -141.9771 8484976
-96.677528 -54.703743 -142.2558 7037274
-120.79916 -53.798374 -137.46703 10261899
-120.1666 -54.143101 -137.81346 8485745
-119.35495 -54.275261 -138.40347 8419184
-118.53676 -54.652264 -138.8838 7563619
-95.662483 -54.611607 -142.5984 10391945
-94.647469 -54.519779 -142.93517 7761515
-93.835419 -54.44656 -143.20001 8946043
-93.023422 -54.373535 -143.46092 8683379
-89.221779 -54.109192 -143.20403 10787727
-88.591133 -54.038784 -143.34113 11708316
-87.740219 -53.938763 -143.50328 11708316
-86.890289 -53.838985 -143.66139 8419440
-86.041412 -53.739563 -143.81548 8814454
-121.09264 -53.063038 -137.57635 10590864
-120.27599 -53.123985 -138.20377 9538176
-119.53819 -53.335255 -138.69728 11906725
-85.405342 -53.665058 -143.92842 7893096
-84.769981 -53.590855 -144.03883 7432805
-83.923637 -53.492111 -144.18274 9011579
-82.867325 -53.369129 -144.35689 11445657
-81.812614 -53.246536 -144.52504 12433061
-121.91605 -52.039986 -137.39494 9736836
-121.25532 -52.206501 -137.84758 10919572
-120.58653 -52.314381 -138.33418 9735555
-71.261444 -52.034115 -147.42641 8287859
-70.227776 -51.92358 -147.5432 8353651
-69.195854 -51.813492 -147.6546 9340030
-68.16581 -51.703823 -147.75963 8484721
-122.92953 -50.722977 -137.19884 10788759
-122.23111 -51.155567 -137.55692 10394001
-121.36458 -51.474571 -138.10329 9998727
-67.137466 -51.594585 -147.85931 8682867
-66.111137 -51.485744 -147.95274 8682867
-65.088593 -51.378868 -148.04536 11381404
-64.281845 -51.301613 -148.13777 11381404
-63.276207 -51.20639 -148.2511 8881017
-62.271725 -51.111351 -148.35876 8616822
-61.268669 -51.016628 -148.46001 9340287
-60.266914 -50.922054 -148.55568 8090470
-59.266617 -50.827778 -148.64493 7367005
-123.17319 -50.014412 -137.33575 8486520
-122.28123 -50.26569 -137.93439 9144449
-121.55339 -50.698936 -138.31575 8682867
-55.185257 -50.41898 -150.32484 9011579
-54.383629 -50.343948 -150.36891 9011579
-53.38311 -50.250355 -150.41858 8682867
-52.384151 -50.157009 -150.46275 10459275
-51.387035 -50.063999 -150.50081 9275515
-50.391579 -49.971161 -150.53349 8683891
-49.398003 -49.878674 -150.56013 9143929
-48.604233 -49.80479 -150.57771 10064777
-124.13589 -49.110909 -136.98654 6510930
-123.31203 -49.169453 -137.62096 8354934
-122.5673 -49.37923 -138.12079 9144449
-46.248386 -49.557076 -151.94131 8813686
-45.650215 -49.500504 -151.93695 8879991
-44.654881 -49.406483 -151.92528 9735297
-43.46323 -49.294067 -151.90408 10459019
-42.472412 -49.200653 -151.88058 9077371
-41.681389 -49.126144 -151.8577 9537667
-39.47467 -48.893761 -153.10789 7563619
-38.68227 -48.819454 -153.06767 7958377
-37.693562 -48.726902 -153.01297 8682612
-36.904305 -48.653011 -152.96532 9406849
-124.96976 -48.085175 -136.79822 6510930
-124.22256 -48.293633 -137.3006 6708309
-123.53086 -48.28051 -137.86253 9144449
-36.313274 -48.597801 -152.92738 11906725
-35.919827 -48.561028 -152.90096 8618105
-33.870888 -48.344891 -154.07637 6775126
-32.688606 -48.234898 -153.97307 7762027
-31.706009 -48.143574 -153.88145 8485747
-30.921827 -48.070747 -153.80429 7038307
-29.427523 -47.907223 -154.97617 13023917
-28.837856 -47.852673 -154.9084 10524556
-27.85717 -47.762016 -154.79132 7565675
-26.683767 -47.653633 -154.64441 7038307
-125.99657 -46.763863 -136.59363 6511954
-125.16201 -47.138195 -137.08836 7300446
-124.33733 -47.267349 -137.69028 7958376
-24.765181 -47.451813 -155.71761 9012350
-23.787376 -47.361923 -155.57469 7696749
-22.812248 -47.272327 -155.4272 7959664
-22.228521 -47.218754 -155.3364 10263180
-20.670177 -47.050865 -156.41882 10853262
-19.890568 -46.979557 -156.28461 9735039
-18.918827 -46.890781 -156.1123 7169373
-16.944534 -46.684868 -157.08632 9077108
-16.358562 -46.623917 -156.94568 7564392
-126.83694 -45.917339 -136.50987 8616049
-126.03931 -46.108822 -136.96729 8089963
-125.36788 -46.164524 -137.44878 8089963
-15.773077 -46.560345 -156.7934 9997961
-15.188738 -46.49688 -156.6396 9208702
-13.773651 -46.347618 -157.71187 8486262
-12.994301 -46.262867 -157.49295 7960175
-12.217127 -46.178356 -157.27165 8288627
-10.778276 -46.026527 -158.31758 9538947
-10.00136 -45.941994 -158.08217 11446687
-9.2266426 -45.857727 -157.84428 11380639
-7.7646961 -45.70322 -158.86365 9736067
-7.1838665 -45.639957 -158.67502 8617591
-129.09134 -44.786762 -136.27455 10261132
-128.18668 -44.943649 -136.63168 9406080
-127.24393 -45.345051 -136.74657 8682099
-126.48882 -45.357594 -137.3405 8747891
-6.4116287 -45.555935 -158.4211 9471875
-4.3485565 -45.335918 -159.21584 8353645
-3.3869324 -45.231239 -158.87846 10063235
-2.0727978 -45.092716 -159.91728 8617075
-1.3043041 -45.008961 -159.63388 9011834
-0.53818321 -44.925499 -159.34822 8814713
0.79788971 -44.784565 -160.36606 8814713
1.7542858 -44.68029 -159.99211 9275005
-133.87166 -44.426506 -135.31349 8289139
-133.22308 -44.426567 -135.95891 8091248
-130.90733 -44.526897 -135.87625 10261132
-130.22215 -44.515564 -136.47211 8419956
3.6838799 -44.474617 -160.76274 8617332
4.6361294 -44.370701 -160.36971 7368039
6.0127354 -44.215054 -161.3159 8486000
6.7703724 -44.115257 -160.92683 7959656
8.729105 -43.868176 -161.5056 8880509
9.4849663 -43.783302 -161.15549 8090995
10.710102 -43.648617 -162.17403 7564651
11.27667 -43.585861 -161.90579 11445660
11.84165 -43.523296 -161.63626 10985881
13.462938 -43.344688 -162.45825 9340801
14.214478 -43.261421 -162.08621 10261132
15.869324 -43.122578 -163.04877 9735812
16.622972 -43.051483 -162.70798 10985879
18.680668 -42.882122 -163.50606 8682867
19.431728 -42.81102 -163.14957 8288109
21.512016 -42.639206 -163.91809 10458507
22.260614 -42.568111 -163.54642 13550517
24.363155 -42.393894 -164.28528 9473156
25.108553 -42.322849 -163.89795 10788244
26.488745 -42.217388 -165.0078 9143675
27.233322 -42.146225 -164.60701 9998472
29.380777 -41.967476 -165.29927 11051416
30.122267 -41.896366 -164.88338 9406590
31.55114 -41.786411 -165.97459 10130313
32.288368 -41.711498 -165.53036 9209727
34.263268 -41.506599 -166.12787 10722707
34.804504 -41.439548 -165.7404 11906725
36.434364 -41.274284 -166.56786 9734782
36.973419 -41.207321 -166.17059 9209467
38.471519 -41.092152 -167.24541 7367263
39.013077 -41.029243 -166.85507 7762796
41.303951 -40.876957 -167.59492 9734014
41.841988 -40.813686 -167.19119 9734014
43.318047 -40.625118 -167.96661 9734782
44.074661 -40.580956 -167.58121 10787985
44.237152 -40.282112 -168.20764 10787985
45.048862 -40.06242 -168.02309 8287340
45.860733 -39.843765 -167.83826 8089963
45.16127 -39.26321 -168.44913 9143419
45.961929 -39.032974 -168.21497 7958632
46.899277 -38.730949 -167.9536 8682354
46.184143 -38.059437 -168.50786 8748661
46.924603 -37.928928 -168.25887 9208955
47.644115 -37.744335 -168.0396 8288365
46.996925 -37.179958 -168.52423 8946040
47.842468 -37.04768 -168.23325 9143675
47.178791 -36.510345 -168.71391 8617331
47.861294 -36.025402 -168.62785 9209468
48.699059 -35.953552 -168.31633 11906725
48.164467 -35.098801 -168.86949 8814968
49.00412 -35.051762 -168.54735 9538949
49.500034 -34.790905 -168.44882 7565675
48.364006 -34.399246 -169.06381 7565675
49.026176 -34.050529 -168.93239 8092018
49.871231 -33.88937 -168.65298 7762797
49.275772 -33.126194 -169.19482 7565675
50.001026 -32.943863 -168.97243 8091504
50.746651 -32.81757 -168.71959 7630435
50.03117 -32.13419 -169.27878 7433059
50.957378 -32.046448 -168.93752 6906200
50.996414 -31.143982 -169.31819 6510930
51.893372 -30.877337 -169.11832 7234653
52.741989 -30.579792 -168.99817 8681843
52.039429 -30.196426 -169.6006 9011320
52.876236 -29.985577 -169.43407 8945271
53.713753 -29.775358 -169.26668 9011320
53.969292 -29.467096 -170.07796 9011320
54.769386 -29.458534 -169.77762 9472384
55.56934 -29.450342 -169.47617 8419440
57.010498 -29.218067 -170.42764 9406337
57.825691 -29.216558 -170.15387 8090992
58.43634 -29.215427 -169.94603 8090992
62.864204 -29.211542 -171.41348 9209467
63.616695 -28.959826 -171.30853 8879734
64.368408 -28.780998 -171.07185 8682099
63.727886 -28.182337 -171.61246 11906980
64.593178 -28.053665 -171.25916 9472127
63.935074 -27.483044 -171.79671 15197142
64.703362 -27.03628 -171.61674 10261386
65.415916 -26.808762 -171.37471 9011320
64.90007 -26.161097 -171.87666 9932420
65.613609 -25.889629 -171.65186 9077369
66.35611 -25.70574 -171.37822 9735812
65.714981 -25.101105 -171.92148 9077625
66.584511 -24.973936 -171.5656 9735812
65.72496 -24.399796 -172.19887 10262156
66.584106 -23.95088 -171.97729 9867398
67.415192 -23.722292 -171.68016 8879991
66.851822 -22.922392 -172.26646 9341310
67.617371 -22.797012 -171.95854 9144187
67.647697 -21.959467 -172.28236 8024938
68.452377 -21.95171 -171.90865 11709855
67.735191 -21.296312 -172.50902 7563619
68.57045 -21.067457 -172.21022 11577243
68.694771 -20.136534 -172.52766 10459017
69.542885 -19.825382 -172.25607 9735557
69.589012 -18.885962 -172.61359 7038307
70.359886 -18.761473 -172.30281 7367528
69.796532 -17.949066 -172.89455 9208187
70.606392 -17.943199 -172.51759 10392202
70.525864 -17.050682 -172.91548 11115668
71.336845 -17.045279 -172.53786 11313820
70.820526 -16.377401 -173.04915 11905701
71.584709 -16.195265 -172.79066 11642785
72.326134 -15.924988 -172.59265 10787732
71.842995 -15.492807 -173.18347 11905701
72.626457 -15.313781 -172.96458 10985367
73.397209 -14.794421 -173.17574 10788243
74.217354 -14.621959 -173.03354 8814715
75.507622 -14.241273 -173.7446 9998472
76.331062 -14.238166 -173.36467 7037274
-117.07868 -55.908546 -139.201 8089963
-116.55767 -55.898613 -139.60011 8089963
-115.63149 -56.02005 -139.85507 12629416
-114.65073 -56.114761 -140.03751 10261644
-113.63119 -56.026623 -140.50732 7235683
-112.80399 -55.951057 -140.86574 7761509
-109.53822 -55.731842 -140.57391 8090986
-118.09026 -55.089882 -139.03719 7563619
-117.42555 -55.255714 -139.47346 7958377
-116.61795 -55.393326 -140.01056 8089963
-108.71127 -55.653999 -140.90569 8617330
-107.67711 -55.556995 -141.31432 10854036
-106.64272 -55.460266 -141.71689 9209214
-105.81503 -55.383156 -142.03406 8813683
-105.19415 -55.325451 -142.26927 7563619
-101.61291 -55.076191 -142.0321 8551540
-100.79303 -55.000805 -142.3278 7564643
-99.767952 -54.906784 -142.69145 8485745
-98.742836 -54.813114 -143.04915 7564643
-97.922729 -54.738411 -143.33061 10458505
-119.08999 -53.772869 -138.85199 9011321
-118.39299 -54.059872 -139.27731 8024170
-117.58787 -54.325569 -139.79941 8879478
-96.89756 -54.645382 -143.67662 8879989
-96.077415 -54.571098 -143.94933 7564643
-92.414452 -54.31889 -143.6541 6512978
-91.805504 -54.264381 -143.84477 10064518
-90.993668 -54.191902 -144.09584 9143417
-89.979012 -54.101608 -144.4039 9143417
-88.964516 -54.011631 -144.70631 9866371
-88.118408 -53.9189 -144.88724 8089963
-87.045296 -53.793198 -145.08018 9472127
-86.187859 -53.69302 -145.23047 7037274
-119.381 -53.037334 -138.96342 10261643
-118.56451 -53.101482 -139.5892 9340540
-85.75956 -53.642944 -145.30397 7037274
-85.117767 -53.568123 -145.412 7037790
-84.049408 -53.44376 -145.58717 7038307
-82.982689 -53.319824 -145.75636 9274748
-82.130638 -53.221054 -145.88701 9538174
-81.067253 -53.098068 -146.04469 9801346
-80.010933 -52.978935 -146.20602 9011576
-79.172829 -52.887646 -146.34079 9011576
-78.126595 -52.774014 -146.50354 8289141
-77.290634 -52.683357 -146.62981 7565675
-120.14725 -52.233864 -138.72488 10261641
-119.46145 -52.224831 -139.28011 9077882
-118.72285 -52.438007 -139.77341 8486003
-76.872963 -52.638077 -146.69131 9867401
-76.247154 -52.570461 -146.78156 11905692
-75.205345 -52.45789 -146.92715 8090728
-74.16507 -52.345787 -147.06706 10524557
-73.126549 -52.234127 -147.20061 10656398
-72.089714 -52.122803 -147.32857 9340799
-121.10181 -51.136749 -138.4731 10261641
-120.44038 -51.30497 -138.92546 10261641
-119.64739 -51.450066 -139.49445 9340798
-66.509583 -51.486492 -149.30672 9275004
-65.491463 -51.389984 -149.42839 9077625
-64.474594 -51.293671 -149.54439 9077881
-63.459034 -51.197651 -149.65381 9670021
-62.444801 -51.101772 -149.75742 9340801
-61.431992 -51.006187 -149.85466 9406077
-60.420528 -50.910847 -149.94621 8681835
-59.410553 -50.815701 -150.03131 8681835
-58.402061 -50.72084 -150.11086 8089963
-57.797607 -50.664082 -150.15573 9208443
-122.11401 -49.817345 -138.27925 12433069
-121.34785 -50.123428 -138.75113 12103330
-120.53545 -50.387321 -139.27997 11905951
-57.19384 -50.607372 -150.19826 8484976
-56.38966 -50.531902 -150.25177 9077115
-55.787102 -50.475346 -150.28941 9011579
-52.261406 -50.120316 -151.84641 8682867
-51.657593 -50.064022 -151.86644 8683891
-50.652657 -49.970428 -151.89537 9341307
-49.649467 -49.877064 -151.91893 10327690
-48.648132 -49.783863 -151.93591 10064777
-47.647163 -49.689484 -151.94321 7564643
-47.047211 -49.632664 -151.94385 9537409
-122.30374 -49.040459 -138.49165 10328465
-121.50658 -49.184227 -139.06458 10985364
-46.647621 -49.594822 -151.94301 8813686
-43.859993 -49.306057 -153.26523 8617337
-42.659744 -49.193008 -153.23282 9208957
-41.661945 -49.099125 -153.19986 8879995
-40.666451 -49.005592 -153.16109 9735302
-39.871593 -48.93103 -153.12657 7563619
-37.837547 -48.715099 -154.3658 9011577
-37.040943 -48.64061 -154.31506 8617075
-123.18507 -48.274353 -138.14323 7565675
-122.49354 -48.262966 -138.70419 8091762
-121.74815 -48.474598 -139.20369 7564392
-36.643345 -48.603439 -154.28816 7564643
-35.849293 -48.529305 -154.23167 8222317
-34.85881 -48.436966 -154.15688 7300958
-32.787392 -48.218845 -155.32451 8551540
-31.994179 -48.14521 -155.24796 7038307
-31.005022 -48.053444 -155.14734 8814455
-30.018349 -47.961971 -155.0419 11379607
-27.913027 -47.742008 -156.14062 9143934
-26.926348 -47.650932 -156.01379 8617847
-124.08781 -46.726032 -138.14491 8616307
-123.42691 -47.289425 -138.41141 8682871
-122.57718 -47.445827 -139.02065 8486006
-25.94232 -47.5602 -155.88228 9144704
-25.353184 -47.505981 -155.80087 9012350
-23.807312 -47.338467 -156.92444 7564643
-23.02026 -47.26622 -156.80275 9341825
-22.039124 -47.176205 -156.6461 7828078
-21.256063 -47.104458 -156.51764 6511954
-19.876358 -46.952904 -157.6349 13023917
-19.092094 -46.88126 -157.49324 9866114
-18.114164 -46.792042 -157.31227 8287340
-17.528833 -46.738678 -157.20137 10459017
-16.512478 -46.620594 -158.36574 11313812
-125.10488 -45.884304 -137.93365 8616307
-124.38923 -46.119831 -138.27745 8945271
-123.53283 -46.2794 -138.86206 9340287
-122.8737 -46.705814 -139.12993 8288627
-15.925261 -46.567226 -158.24693 11313812
-15.143346 -46.494564 -158.08031 11313812
-14.360096 -46.411346 -157.87366 7039331
-12.340349 -46.196388 -158.7791 8288883
-11.362806 -46.090076 -158.4921 10196875
-9.3212223 -45.872597 -159.35855 10657173
-8.3471413 -45.76659 -159.05054 11380639
-6.6735363 -45.589108 -160.00832 7565667
-127.895 -44.76889 -137.30684 9142392
-127.38114 -44.761833 -137.74788 9142392
-126.2898 -45.097763 -137.89581 8879221
-125.42465 -45.2691 -138.28233 8089963
-124.79691 -45.465549 -138.59253 10261643
-6.0899849 -45.525631 -159.81253 8618099
-5.3142567 -45.441135 -159.54913 8813939
-4.0069733 -45.303463 -160.61351 10261132
-3.4249744 -45.240074 -160.40633 9274235
-2.6513424 -45.155766 -160.12782 8090987
-0.5488739 -44.931381 -160.88237 7893614
0.22192571 -44.847378 -160.58842 8814713
1.7661495 -44.683861 -161.53711 7235421
2.343401 -44.620838 -161.30649 7235421
-136.22383 -44.430756 -136.02957 9538949
-135.57199 -44.43082 -136.68671 7564651
-132.73465 -44.426601 -136.44109 9143422
-132.24448 -44.42664 -136.9212 10261132
-131.75273 -44.426666 -137.39978 10261132
-129.36458 -44.502052 -137.2148 10261132
-128.67725 -44.491928 -137.80722 9142907
2.9190636 -44.558014 -161.07454 7959144
4.6758842 -44.371204 -161.92026 7367778
5.4414616 -44.286839 -161.5939 8486003
6.8312206 -44.112751 -162.48492 11381404
7.5924625 -44.012466 -162.08661 8946551
9.3808842 -43.795834 -162.79482 9341059
10.141541 -43.711586 -162.44087 8419959
11.571238 -43.554306 -163.37921 10458507
12.330162 -43.470169 -163.01234 9735300
14.352894 -43.265553 -163.72166 9012348
15.30204 -43.176117 -163.30235 12235946
17.169216 -43.025043 -164.2104 10130569
18.11521 -42.935627 -163.77142 13353909
19.628271 -42.817875 -164.83678 10985620
20.38386 -42.746277 -164.47107 10261384
22.487118 -42.572479 -165.24321 9538435
23.239658 -42.500904 -164.86174 8486519
25.177725 -42.34264 -165.7029 7564643
25.928009 -42.270985 -165.30664 11577760
27.51432 -42.146221 -166.32935 11182746
28.263172 -42.07457 -165.91902 9932423
30.434387 -41.893768 -166.61415 10130313
30.993557 -41.839993 -166.29504 10130313
33.174568 -41.641258 -166.90044 9407363
33.720131 -41.573753 -166.51463 10065035
35.168404 -41.431408 -167.49165 9734782
35.712391 -41.363888 -167.09622 10261383
37.381657 -41.218369 -168.02231 9209467
37.927544 -41.155205 -167.63445 8748916
40.040146 -41.024994 -168.53226 5919050
40.583199 -40.961468 -168.13144 8616048
41.987022 -40.704353 -168.63968 9207924
42.74807 -40.658909 -168.25545 9208180
42.87561 -40.099129 -168.93652 8681835
43.814056 -40.069241 -168.56987 10787985
43.928696 -39.231514 -168.96159 10393226
44.736992 -38.930443 -168.75217 9143419
44.081905 -38.258591 -169.28226 10262156
44.885208 -38.027157 -169.0475 9670019
45.668888 -38.004585 -168.7384 9143419
44.824844 -37.26704 -169.37105 9537663
45.766533 -36.963364 -169.10857 8419439
46.570774 -36.73391 -168.87259 7038298
45.939163 -35.959984 -169.43335 11183001
46.84676 -35.894627 -169.09085 7038298
46.730118 -35.064198 -169.46495 8551537
47.654373 -34.971966 -169.1263 7038298
47.007088 -34.222519 -169.68378 8617330
47.736374 -33.936508 -169.50047 8288367
48.564091 -33.698883 -169.25816 8025969
47.917183 -32.946728 -169.81659 9735812
48.828278 -32.884769 -169.47139 8683898
48.176079 -32.312706 -169.96097 9735812
48.789093 -32.08989 -169.80002 10722708
49.5196 -32.004829 -169.53712 9012606
48.932434 -31.318472 -170.04962 12367532
49.840233 -31.080431 -169.82478 9077625
50.565556 -30.615795 -169.85306 7827814
50.055954 -30.230257 -170.37895 9208443
50.804893 -30.058741 -170.21587 9011576
51.708729 -29.905071 -169.97505 8683379
52.766876 -29.480818 -170.52612 9077370
53.569092 -29.471558 -170.22749 9340798
54.762001 -29.222195 -171.16054 8287598
55.580669 -29.220699 -170.89722 8287598
56.398247 -29.219196 -170.63062 9735812
60.808159 -29.215416 -172.15128 9998727
61.704372 -29.018147 -172.06367 9735811
62.466248 -28.943533 -171.81255 9736836
61.630264 -28.390121 -172.51076 9209211
62.410248 -28.066275 -172.27589 9736836
63.281639 -27.928118 -171.92358 9736836
62.763123 -27.282927 -172.42572 9736836
63.474918 -26.908571 -172.2431 10854804
64.244743 -26.606627 -172.0042 12432037
63.600838 -26.004356 -172.54785 10393226
64.470085 -25.875563 -172.19276 9077368
63.607872 -25.30419 -172.82616 9932419
64.437752 -25.073732 -172.53038 8682867
65.267723 -24.84387 -172.23431 8682867
64.554001 -24.151052 -172.84712 9406332
65.395851 -23.839382 -172.57848 9472639
65.520607 -22.864063 -172.9135 8881015
66.325394 -22.854776 -172.54034 10262156
65.605377 -22.201929 -173.14104 9341310
66.439659 -21.971992 -172.84309 9472896
66.539986 -21.197811 -173.10855 9604224
67.375687 -20.968138 -172.8098 8287340
66.640526 -20.422062 -173.37457 10459017
67.448814 -20.025942 -173.15585 9537661
68.219254 -19.667646 -172.93964 9932674
67.652542 -18.857765 -173.53188 9011318
68.462273 -18.850679 -173.15553 9998468
68.378014 -17.960257 -173.55437 9471611
69.188782 -17.95368 -173.17726 9931651
68.669777 -17.288061 -173.68904 9931651
69.424255 -17.103346 -173.41019 9011065
69.947586 -16.831116 -173.27493 9931651
69.493057 -16.238722 -173.74727 9076858
70.392052 -15.939179 -173.52606 9603200
70.743843 -15.062675 -174.0562 8682867
71.386772 -15.148822 -173.72771 9275004
72.238312 -14.772058 -173.74861 9669506
73.446815 -14.249924 -174.69168 10459278
74.271645 -14.246284 -174.31328 10722450
-115.34186 -55.87772 -140.5296 7038307
-114.79398 -55.856903 -140.89482 7038307
-113.86108 -55.813984 -141.47794 7037792
-112.39032 -55.913254 -141.04326 7761509
-111.7682 -55.856136 -141.30574 8815477
-110.72452 -55.757919 -141.72984 8946295
-116.38528 -55.073772 -140.41438 8089963
-115.70655 -55.235256 -140.83174 7761771
-114.88624 -55.369625 -141.35089 8090736
-109.67989 -55.659729 -142.14696 8090986
-108.84398 -55.581417 -142.47565 6709593
-108.21685 -55.522816 -142.71962 9209214
-104.57311 -55.267902 -142.50201 8155755
-103.74503 -55.191315 -142.80884 8617331
-102.91687 -55.114883 -143.11156 8090987
-102.08857 -55.038742 -143.41008 7564643
-101.05318 -54.943787 -143.77731 8025194
-100.01768 -54.84919 -144.13861 9011833
-99.396408 -54.792599 -144.35237 7564643
-117.38068 -53.754257 -140.23393 12433061
-116.64854 -54.135735 -140.6431 8814196
-115.86818 -54.362877 -141.16338 8353904
-95.667274 -54.534142 -144.08405 7564643
-95.052223 -54.478645 -144.28415 8617331
-94.027161 -54.386517 -144.61261 10525073
-93.002174 -54.294704 -144.93523 8156787
-92.182358 -54.221508 -145.18883 9143420
-91.157677 -54.130302 -145.49989 8551281
-90.133247 -54.039478 -145.80528 8617331
-89.313805 -53.966953 -146.04494 9209467
-88.277863 -53.86948 -146.3192 6775126
-87.200096 -53.746624 -146.51746 8747885
-117.6164 -53.047707 -140.37614 10327432
-116.82666 -53.196411 -140.94078 9143673
-86.334206 -53.645657 -146.66318 7366237
-85.253548 -53.51989 -146.83931 9866368
-84.174591 -53.394569 -147.00958 10064006
-83.312782 -53.294693 -147.14104 9274748
-82.452126 -53.19511 -147.2684 8814452
-81.37883 -53.071579 -147.4231 9867394
-80.315559 -52.953815 -147.58694 9011576
-79.469131 -52.861858 -147.71866 8354158
-78.412521 -52.747295 -147.87747 8289141
-118.56461 -52.140553 -140.04019 7959917
-117.74677 -52.206787 -140.66617 8617073
-117.00874 -52.4226 -141.15793 7564643
-77.357475 -52.633137 -148.03058 9867401
-76.514694 -52.542114 -148.14839 9471867
-75.462761 -52.42873 -148.29005 9669502
-74.412422 -52.315758 -148.42599 8617073
-73.36396 -52.203152 -148.55545 8419951
-72.317093 -52.091022 -148.67931 9734528
-71.481033 -52.001625 -148.77394 9734528
-70.437614 -51.890362 -148.88664 9010808
-69.395889 -51.779366 -148.99373 8616307
-68.563942 -51.690952 -149.07512 9011065
-119.38344 -51.113743 -139.8644 9932675
-118.64336 -51.327908 -140.35847 8222832
-117.95626 -51.32148 -140.91359 8025195
-67.940742 -51.62479 -149.13376 8682867
-67.324974 -51.563904 -149.20477 8682867
-60.575493 -50.899364 -151.35739 10457990
-59.759621 -50.822594 -151.42267 9537144
-58.741119 -50.72686 -151.49876 8089963
-57.927391 -50.650402 -151.55582 8089963
-120.39092 -49.792236 -139.67546 8682867
-119.65188 -50.172585 -140.0907 8486003
-118.8648 -50.397533 -140.61745 8485747
-57.520916 -50.612286 -151.58264 8089963
-56.708885 -50.53616 -151.63333 9735300
-55.69519 -50.441162 -151.69188 7761772
-54.683243 -50.346493 -151.74417 9274751
-53.672928 -50.252056 -151.79091 11314583
-52.865891 -50.176758 -151.8239 8682867
-49.702286 -49.856659 -153.30217 8814710
-48.893745 -49.781471 -153.31277 10722450
-47.883163 -49.686108 -153.3154 9867142
-120.55119 -49.12672 -139.85919 7761769
-119.72833 -49.191292 -140.48996 8616822
-46.874115 -49.590626 -153.31146 8813686
-45.867336 -49.495472 -153.30153 9011065
-44.862431 -49.400604 -153.28638 8354166
-42.647869 -49.166252 -154.59966 11906725
-42.043686 -49.109451 -154.57724 7826790
-41.03854 -49.015068 -154.53546 9011320
-39.835312 -48.902187 -154.47836 10919829
-38.835178 -48.80846 -154.425 8813942
-121.48331 -48.136421 -139.57527 7564392
-120.68513 -48.282162 -140.14816 7104098
-120.02048 -48.452583 -140.60216 7564392
-36.978806 -48.60931 -155.67146 9735043
-36.177094 -48.534466 -155.61234 10129801
-34.977413 -48.422665 -155.5177 8089963
-33.980354 -48.32983 -155.43312 8089963
-33.383354 -48.274288 -155.37988 9406590
-31.687531 -48.091228 -156.57521 7959144
-31.088997 -48.03577 -156.51154 7564647
-30.093603 -47.943604 -156.40106 8090987
-29.100777 -47.851738 -156.28586 9735297
-28.506302 -47.796772 -156.21426 10787985
-26.973995 -47.629787 -157.37914 9143934
-122.41849 -47.145634 -139.28908 9734788
-121.67163 -47.358376 -139.78926 9340287
-120.979 -47.349468 -140.34996 8616822
-26.179569 -47.556591 -157.27032 11381404
-25.18923 -47.465496 -157.12955 10262926
-24.398735 -47.392754 -157.01372 8092019
-23.033304 -47.241779 -158.16946 8420464
-22.241364 -47.169216 -158.04019 7564131
-21.25378 -47.078831 -157.87486 6511954
-20.465969 -47.006763 -157.73888 9735039
-18.872829 -46.835571 -158.82359 7563619
-18.281168 -46.781601 -158.71165 9011318
-17.297445 -46.692028 -158.52124 9998465
-123.37232 -45.856869 -139.35237 9734788
-122.57112 -46.266693 -139.65276 9274751
-121.75729 -46.542294 -140.11147 8616822
-15.284533 -46.483116 -159.49426 10261123
-14.30188 -46.394024 -159.28412 8222579
-13.321432 -46.302364 -159.05943 7828077
-12.068491 -46.165798 -160.17703 14077894
-11.478348 -46.107319 -160.02066 11183260
-10.495491 -46.000393 -159.72235 7762029
-8.4334717 -45.780746 -160.58583 9209985
-7.4542065 -45.674145 -160.26657 7894632
-126.35211 -44.748619 -138.62709 9668736
-125.44657 -44.845383 -139.08293 10590865
-124.53562 -45.14864 -139.23851 9011321
-123.68719 -45.241863 -139.70425 8617335
-123.06093 -45.439854 -140.01181 8288627
-5.5670052 -45.473381 -161.15793 8946040
-4.5906487 -45.367058 -160.81897 8089963
-2.4877281 -45.142742 -161.60612 7695717
-1.5158939 -45.036846 -161.24648 8353903
0.21848866 -44.852612 -162.14464 8222577
1.1871624 -44.746979 -161.76614 7564386
2.5550499 -44.602722 -162.79626 8682867
-138.13269 -44.435139 -137.25764 10656657
-135.08092 -44.430866 -137.17705 9998732
-134.42334 -44.430923 -137.82832 10788247
-131.25893 -44.426693 -137.87648 7038819
-130.59814 -44.426716 -138.50926 11904668
-128.16103 -44.48473 -138.25056 10260358
-127.4722 -44.475681 -138.83983 10457737
-126.78229 -44.467163 -139.42796 9143419
3.32864 -44.518272 -162.47977 5393729
4.0996761 -44.434097 -162.16115 4867385
5.4893436 -44.286266 -163.16551 8618103
6.257555 -44.188313 -162.78235 9736583
7.661808 -44.008945 -163.66568 10460308
8.4267464 -43.908573 -163.25967 8485752
10.234987 -43.702305 -164.01532 9735043
10.999762 -43.61758 -163.65266 9011579
12.445644 -43.458492 -164.59756 11905951
13.209064 -43.375786 -164.22873 11905951
15.264074 -43.204857 -165.07626 16773095
16.028151 -43.132816 -164.73177 13748158
18.298395 -42.943855 -165.46983 9801347
19.059439 -42.871845 -165.10904 10985620
21.162395 -42.698395 -165.90398 9735297
21.920465 -42.626362 -165.52731 8814711
23.857178 -42.468517 -166.39018 10393486
24.613155 -42.396484 -165.99847 7564643
26.384794 -42.25425 -166.94008 10788244
26.950365 -42.200233 -166.63531 11314588
29.122395 -42.019627 -167.35368 10656401
29.873255 -41.947586 -166.93202 10130313
31.880373 -41.782619 -167.72874 9012600
32.627033 -41.708965 -167.28537 9210491
34.0737 -41.567047 -168.27975 9210491
34.62204 -41.499123 -167.88609 9734782
36.649765 -41.30275 -168.53716 9208952
38.936287 -41.140587 -169.28146 8288365
39.49456 -41.088722 -168.93198 7564130
40.650723 -40.7854 -169.30989 6445394
41.416058 -40.738705 -168.92693 6445394
40.928967 -40.410622 -169.58209 5919050
41.683731 -39.987556 -169.53152 6511187
42.577827 -39.757553 -169.29636 7432030
41.925949 -39.019756 -169.85736 7695204
42.766434 -38.964291 -169.53821 8550511
43.455917 -38.693161 -169.36522 10853779
42.725349 -38.093086 -169.89769 12498605
43.63327 -38.023083 -169.55693 13024691
42.97718 -37.461109 -170.04424 13024949
43.683754 -37.082611 -169.90649 11577245
44.532555 -36.748463 -169.69366 10722193
43.895317 -35.975113 -170.25648 8092019
44.683632 -35.952637 -169.94551 8881020
45.490528 -35.721893 -169.70892 13023917
44.750511 -35.22065 -170.20638 8881020
45.63147 -35.050789 -169.91592 14340810
44.817497 -34.48772 -170.46764 9735814
45.690685 -34.098797 -170.26643 11380380
46.544281 -33.920422 -169.99039 9801604
45.724289 -33.20858 -170.60315 9209467
46.534828 -32.979115 -170.36459 9998983
47.325142 -32.9603 -170.05142 9472639
46.689659 -32.178844 -170.61668 9275260
47.603722 -32.11581 -170.27066 9735812
48.217224 -31.892567 -170.10956 9735812
47.558327 -31.19112 -170.67842 10854293
48.484268 -30.974741 -170.43752 10985879
49.177582 -30.641176 -170.39629 11314844
48.75845 -30.122387 -170.9953 12367788
49.501873 -30.042389 -170.75903 12301739
50.140919 -29.832869 -170.67201 12762546
50.558414 -29.508524 -171.34099 14605262
51.563133 -29.495539 -170.97165 9208956
52.709579 -29.225922 -171.80075 9735555
53.531342 -29.224434 -171.54732 9472383
54.352119 -29.22294 -171.29056 8287598
58.536469 -29.219646 -172.93427 10129545
59.363667 -29.218115 -172.65269 9537920
60.331291 -28.939751 -172.77654 8946039
61.178028 -28.832888 -172.54436 9735555
60.443268 -28.302423 -173.10164 9538176
61.297939 -27.836149 -172.88907 9604738
61.48938 -26.910913 -173.17162 9407103
62.358673 -26.780376 -172.81721 9736836
61.493492 -26.211676 -173.45087 9011320
62.322853 -25.979753 -173.15594 9473152
63.15234 -25.748457 -172.86069 9736836
62.416481 -25.212078 -173.42079 9538433
63.247128 -24.980665 -173.12508 9669505
62.510315 -24.442936 -173.68628 9735812
63.369446 -23.991268 -173.46609 10064519
64.201736 -23.760382 -173.16943 9932419
63.478748 -23.110043 -173.77055 9735811
64.312401 -22.878822 -173.47337 8814709
64.409462 -22.105831 -173.73993 9538432
65.244415 -21.875059 -173.442 8881015
64.506752 -21.331285 -174.00697 10855060
65.342934 -21.100248 -173.70857 10065289
66.17926 -20.869741 -173.4099 9341310
65.36882 -20.102623 -174.09904 9209467
66.250168 -19.926901 -173.75719 8945782
66.234108 -18.871204 -174.19077 8287342
67.044846 -18.863377 -173.81422 9471358
66.523033 -18.199911 -174.32639 9010808
67.363792 -17.969042 -174.0258 9471359
67.335258 -17.15007 -174.36972 8681843
68.217941 -17.023361 -174.00746 9076851
67.568115 -16.401632 -174.5627 10261129
68.373207 -16.100536 -174.368 9537402
69.132133 -15.727785 -174.25745 9997955
69.804977 -15.505558 -174.12889 9208435
69.313675 -15.072084 -174.71907 10261129
70.22583 -14.85394 -174.57738 8617073
71.142281 -14.636693 -174.44061 8354159
72.415016 -14.254916 -175.16379 8354159
73.034409 -14.251859 -174.88062 8682867
82.64917 -13.960563 -177.26767 9932166
-112.92712 -55.771809 -142.05699 7037274
-112.15514 -55.726788 -142.48674 8486000
-114.67931 -55.064754 -141.789 7038307
-113.89305 -55.258453 -142.21028 7629925
-113.04417 -55.314014 -142.78404 9011065
-111.55235 -55.681641 -142.7774 6972762
-110.94934 -55.63699 -143.06667 6446418
-110.347 -55.592743 -143.35449 7564392
-107.79871 -55.483788 -142.8808 7564648
-106.9624 -55.405945 -143.19969 7564134
-105.91682 -55.308918 -143.59311 7563619
-105.08021 -55.231529 -143.90302 10063747
-104.24354 -55.154388 -144.20868 9735555
-103.19754 -55.058243 -144.5847 9011832
-98.982124 -54.754944 -144.49339 9011574
-98.567894 -54.717285 -144.63351 9011574
-115.61915 -53.963535 -141.55075 8419952
-114.884 -54.181763 -142.03906 7959401
-114.01833 -54.474361 -142.59709 8419696
-97.946671 -54.660999 -144.84157 9011574
-97.118271 -54.586071 -145.11571 9932677
-96.289879 -54.511387 -145.38574 9143675
-95.25457 -54.418327 -145.71745 9801606
-94.219398 -54.325577 -146.04326 11380380
-93.391327 -54.251675 -146.29927 8156787
-92.356468 -54.159565 -146.6134 9537918
-116.56202 -52.862522 -141.31012 9143673
-115.82522 -53.07988 -141.80014 8814709
-115.00879 -53.150517 -142.42291 9012089
-116.7436 -52.088631 -141.52765 8748915
-115.95248 -52.239449 -142.09248 8222572
-75.510559 -52.376209 -149.69922 10261382
-74.662315 -52.285156 -149.80402 9143416
-73.603729 -52.171749 -149.92938 8090987
-72.546837 -52.058792 -150.04901 9208185
-71.702698 -51.96867 -150.14026 9208185
-70.649971 -51.856937 -150.24997 8550514
-69.610542 -51.754074 -150.37885 9010808
-68.784973 -51.675663 -150.48776 9931910
-117.61259 -51.318764 -141.19092 9143673
-116.92527 -51.314144 -141.74536 8617329
-116.18621 -51.531754 -142.23695 7564643
-67.754181 -51.577805 -150.61792 7564128
-66.724548 -51.480125 -150.74237 6511954
-65.696266 -51.382755 -150.86009 8156523
-64.66925 -51.285572 -150.97198 9538688
-63.643707 -51.188679 -151.07736 8814712
-62.619507 -51.091976 -151.17691 9340801
-61.801186 -51.014778 -151.252 8420470
-61.188049 -50.956966 -151.30592 8681835
-118.61527 -49.995365 -141.00681 8551284
-117.87391 -50.211384 -141.50098 9537664
-117.00105 -50.50148 -142.06604 8747893
-57.032795 -50.540443 -153.03748 7564135
-56.009167 -50.444637 -153.09233 8485494
-54.987175 -50.34906 -153.14163 10261642
-53.967087 -50.253796 -153.18462 9998211
-52.948647 -50.15876 -153.22208 8814195
-51.932159 -50.064056 -153.25334 12300197
-50.917458 -49.969574 -153.2791 13023663
-50.309517 -49.913067 -153.29173 8682867
-47.918499 -49.663284 -154.70866 9537918
-119.56888 -48.892998 -140.75819 8616822
-118.82576 -49.10841 -141.25414 8419443
-118.00301 -49.175915 -141.88342 7892841
-47.103867 -49.58633 -154.70151 9735043
-46.087326 -49.490314 -154.68805 9537409
-45.073143 -49.394619 -154.66855 7564651
-44.06105 -49.299244 -154.64383 9998732
-43.25301 -49.223206 -154.61984 10525075
-41.011303 -48.986645 -155.91365 9867395
-40.20179 -48.910717 -155.87189 11051667
-39.191883 -48.816124 -155.81534 9867395
-38.184505 -48.721931 -155.75291 9011577
-37.380184 -48.64679 -155.69958 8617075
-119.66941 -48.181881 -141.01137 7301477
-118.86358 -48.219028 -141.64131 8090479
-35.097366 -48.408089 -156.90012 10261388
-34.29237 -48.333141 -156.82919 8089963
-33.288429 -48.239872 -156.7355 8419695
-32.287022 -48.146877 -156.63692 7959144
-30.169575 -47.924873 -157.78178 8814713
-29.367971 -47.850792 -157.68611 9406332
-28.368629 -47.758453 -157.56165 10787985
-27.570883 -47.684814 -157.45872 9143934
-120.53497 -47.270058 -140.74405 9340287
-119.86012 -47.381924 -141.2337 7104098
-119.19457 -47.554047 -141.68761 6511962
-25.421114 -47.461063 -158.53662 9473668
-24.424131 -47.369434 -158.38721 9210495
-23.628654 -47.296429 -158.26387 7564643
-22.047714 -47.125523 -159.39047 7563619
-21.450123 -47.070908 -159.28789 7563619
-20.456543 -46.980045 -159.11299 7563619
-19.465815 -46.889645 -158.93356 7563619
-17.458035 -46.680611 -159.93936 11511446
-16.66573 -46.608566 -159.78038 9208435
-121.76052 -45.939098 -140.56648 9142909
-120.87608 -46.300583 -140.99588 9405823
-120.02413 -46.52335 -141.51588 8616822
-16.270479 -46.572609 -159.69962 12432037
-15.875694 -46.536755 -159.61803 12432037
-14.43557 -46.37989 -160.7114 7564651
-13.644642 -46.308296 -160.53604 8288116
-12.658512 -46.219147 -160.31303 12959413
-10.600727 -46.006874 -161.23723 7892840
-9.6143608 -45.909203 -160.96294 8485492
-9.0230846 -45.844925 -160.77525 7039331
-7.7297516 -45.708885 -161.88866 9736067
-6.9408531 -45.622978 -161.62546 8618099
-124.63206 -44.729599 -140.08447 8089963
-123.71838 -44.825172 -140.52589 8682355
-122.64434 -45.228127 -140.55524 9274749
-121.97233 -45.289135 -141.03474 9603457
-121.32377 -45.419754 -141.42686 9011576
-6.3507881 -45.558735 -161.42625 10854036
-4.6409378 -45.377354 -162.38281 10261132
-3.659584 -45.270466 -162.03226 8550770
-1.5361633 -45.043919 -162.81595 12037795
-0.75437927 -44.958725 -162.51938 10985109
1.1935024 -44.751175 -163.34358 8682867
1.9724979 -44.666256 -163.03175 8682867
-138.31102 -44.0905 -138.09201 10656657
-137.58932 -44.34536 -138.03732 10459278
-136.8136 -44.43528 -138.58624 9143681
-133.59683 -44.430981 -138.63777 7958120
-132.93268 -44.431015 -139.28212 9405566
-129.7677 -44.426731 -139.29559 8616821
-129.10031 -44.426735 -139.92155 8617075
-126.43708 -44.463123 -139.72119 9143419
-125.74546 -44.455505 -140.30675 8419184
4.1343441 -44.435352 -163.74431 5591108
4.9099884 -44.350719 -163.41705 9209979
6.3137169 -44.186558 -164.37447 12828597
7.0853519 -44.084873 -163.97012 11644324
8.8896179 -43.855022 -164.65804 10327947
9.6594467 -43.766029 -164.28596 11906725
11.102251 -43.607319 -165.24931 10458507
11.871042 -43.522129 -164.87761 10458507
13.91954 -43.331604 -165.6718 8682867
14.688898 -43.259113 -165.33246 11248281
16.959446 -43.070503 -166.09462 9998728
17.725843 -42.998077 -165.73877 8682867
19.828272 -42.825008 -166.55675 10458764
20.591957 -42.752529 -166.18484 8090987
21.954712 -42.649689 -167.35901 7038307
22.527481 -42.595139 -167.07008 7038307
23.098667 -42.540787 -166.77975 8288371
25.058016 -42.381035 -167.64534 9736323
25.817341 -42.308514 -167.24321 7564643
27.80044 -42.146328 -168.08575 10525584
28.55724 -42.073856 -167.6685 11182746
29.996964 -41.963657 -168.81097 9406590
30.752611 -41.891106 -168.37973 9867141
32.970043 -41.703587 -169.06453 11512732
33.522911 -41.63522 -168.67256 10328715
35.545143 -41.429737 -169.30544 10326664
37.592758 -41.226433 -169.94365 7630952
38.478565 -41.080296 -169.77318 7367263
39.49556 -40.850975 -169.85989 6708822
39.658424 -40.197628 -170.26387 6182222
40.47464 -39.896912 -170.08121 5919050
41.223171 -39.59761 -169.9151 5919050
40.563465 -39.039127 -170.4024 6840152
41.413231 -38.898632 -170.11296 6642516
40.814899 -38.225883 -170.62041 8945271
41.543915 -38.131744 -170.36174 8484976
42.134979 -38.112122 -170.1297 9011320
41.555161 -37.228966 -170.71236 8682355
42.574898 -37.005177 -170.3868 10195850
41.901951 -36.244404 -170.95921 8089962
42.513176 -36.016491 -170.80086 9076858
43.303349 -35.992588 -170.48975 8486519
42.783913 -35.172691 -171.02307 9735297
43.575096 -35.149483 -170.71126 9735813
44.384384 -34.917618 -170.47424 8092019
43.559998 -34.208652 -171.08749 12168866
44.415512 -34.027988 -170.81158 12103330
45.289848 -33.638481 -170.6102 14209480
44.472069 -33.073303 -171.16429 10195848
45.357513 -32.903522 -170.87189 9209209
44.612434 -32.398109 -171.373 9208435
45.390198 -32.010765 -171.20993 9537401
46.238113 -31.937704 -170.89476 9209467
45.774376 -31.248203 -171.35416 9668730
46.451927 -31.042645 -171.22943 10590605
47.389065 -30.676678 -171.09399 9735812
46.67202 -30.296534 -171.69963 10524811
47.510025 -30.081034 -171.53693 9998725
48.370682 -29.814741 -171.61028 13485755
49.149368 -29.527941 -171.85515 14605262
49.552406 -29.522282 -171.70853 14605262
50.302231 -29.373169 -171.98909 14605262
51.474373 -29.228144 -172.17276 11315100
52.298134 -29.226662 -171.9259 9735555
56.462425 -29.223471 -173.61986 9406078
57.292969 -29.221945 -173.34822 8682867
58.249283 -29.053497 -173.45383 9735043
59.177757 -28.870518 -173.46556 10195594
58.426311 -28.450132 -173.98637 9406078
59.264824 -28.122272 -173.72571 10919061
60.120041 -27.65476 -173.5134 10064264
59.381172 -27.122856 -174.07323 10655889
60.210289 -26.889269 -173.77902 9669762
61.039436 -26.656446 -173.48456 9011320
60.300774 -26.122393 -174.04506 9603970
61.131092 -25.889431 -173.75011 9340798
60.391468 -25.354132 -174.31163 9735812
61.222916 -25.121069 -174.01613 9603970
62.054451 -24.888706 -173.72035 9735812
61.185112 -24.316654 -174.35776 9603970
62.117516 -23.954313 -174.06728 9735811
62.281799 -23.016443 -174.36885 9998983
63.116264 -22.784399 -174.07173 10262155
62.375885 -22.242907 -174.63701 9735811
63.211483 -22.010719 -174.33936 10196106
64.047173 -21.77906 -174.04147 10262155
63.176632 -21.20018 -174.68275 10064776
64.054749 -21.071064 -174.32361 10525583
63.402779 -20.458557 -174.87622 10262155
64.144836 -20.068897 -174.68594 10196874
64.904587 -19.774788 -174.44882 9538688
64.379768 -19.113451 -174.96143 10130825
65.132912 -18.927082 -174.68398 10855060
65.654045 -18.654417 -174.55003 9010808
65.187775 -18.064314 -175.00647 10196618
66.070076 -17.936428 -174.64485 9010808
65.417549 -17.316988 -175.20045 11183260
66.172966 -17.130692 -174.92184 10129802
66.899391 -16.85553 -174.69275 9010808
66.235077 -16.264963 -175.2598 11379869
67.046913 -15.964568 -175.08334 10853268
67.860283 -15.664771 -174.9073 10063749
67.472801 -15.085532 -175.57112 12039591
68.21434 -14.938121 -175.40912 9208435
68.958138 -14.79121 -175.25026 9208435
69.703888 -14.644902 -175.09447 8090987
70.969231 -14.262544 -175.82286 8419951
71.795609 -14.258071 -175.44655 8090987
81.108765 -14.19609 -177.83766 9537665
81.895767 -13.915779 -177.64662 10458511
81.806847 -13.10149 -178.05467 9208960
82.597763 -13.020988 -177.71693 9668991
82.067337 -12.313487 -178.25063 8814198
82.741737 -12.075274 -178.03111 8813941
82.94516 -11.205778 -178.28671 8551282
83.208183 -10.413173 -178.48338 8814198
-112.93619 -55.045521 -143.11656 8089963
-112.15204 -55.160187 -143.39584 8747894
-111.17325 -55.182346 -143.84761 7104098
-110.23078 -55.260391 -144.09258 8616822
-109.25945 -55.442314 -144.07852 8156524
-108.12829 -55.428429 -144.38345 8288365
-107.28432 -55.350742 -144.70245 8551024
-106.43895 -55.272507 -145.01534 7892581
-105.8049 -55.214027 -145.24741 8813680
-102.15157 -54.962387 -144.95465 7564643
-101.31469 -54.885918 -145.2459 9011833
-100.26858 -54.790749 -145.60379 9472384
-99.431747 -54.71479 -145.88609 7564643
-113.93423 -53.848522 -142.95857 8813942
-113.09913 -54.225979 -143.40822 9405823
-112.14619 -54.34391 -143.88243 9142908
-111.51149 -54.531467 -144.13792 8616822
-99.013306 -54.676926 -146.02544 7564643
-98.385696 -54.620171 -146.23256 9735039
-97.548965 -54.544685 -146.50525 8617331
-96.503136 -54.450726 -146.84016 9011832
-91.321815 -54.067772 -146.92175 9537918
-90.494278 -53.994644 -147.16386 9340796
-89.460167 -53.903492 -147.46062 7696228
-88.426331 -53.812687 -147.75171 6906199
-87.573776 -53.724648 -147.9369 6905687
-114.84844 -52.855198 -142.6904 9341054
-114.11184 -53.075336 -143.17883 8879991
-113.28004 -53.142155 -143.78157 8813686
-112.49458 -53.694458 -143.96986 8813686
-86.480522 -53.597485 -148.11406 8089957
-85.388954 -53.470737 -148.28522 8681835
-84.517174 -53.369743 -148.4174 9273972
-83.646622 -53.269093 -148.54549 10984337
-82.560204 -53.143677 -148.69966 10984337
-81.479568 -53.021252 -148.85498 8354676
-80.623657 -52.928276 -148.98758 10787985
-79.555237 -52.812439 -149.14746 12103843
-78.488373 -52.697083 -149.30145 10458508
-115.00178 -52.192032 -142.87859 9012089
-114.14336 -52.190918 -143.5688 9603200
-77.636169 -52.605045 -149.42004 9209468
-76.57251 -52.490391 -149.56255 9143159
-115.91978 -51.198406 -142.60756 8090215
-115.12733 -51.351139 -143.17256 8616300
-114.46764 -51.527332 -143.61993 10261132
-67.773643 -51.552345 -152.10408 9734270
-66.941765 -51.473549 -152.19969 10523529
-65.903214 -51.375286 -152.31335 8419695
-64.865929 -51.277252 -152.4211 7235421
-64.037193 -51.198994 -152.50269 9274744
-63.002651 -51.101421 -152.59894 8681835
-61.969498 -51.004051 -152.68927 9997183
-60.938026 -50.906998 -152.77315 11641752
-59.90799 -50.810188 -152.85135 8681835
-58.879726 -50.713623 -152.9231 11050385
-116.91834 -49.872475 -142.42789 8813686
-116.09553 -50.25705 -142.90837 8813425
-115.27919 -50.494923 -143.45253 8681835
-57.852901 -50.61729 -152.98911 9340027
-54.059616 -50.236294 -154.60846 8814195
-53.237198 -50.159641 -154.63469 9340539
