# .PCD v0.7 - Point Cloud Data file format
VERSION 0.7
FIELDS x y z rgb
SIZE 4 4 4 4
TYPE F F F U
COUNT 1 1 1 1
WIDTH 1176
HEIGHT 1
VIEWPOINT 0 0 0 1 0 0 0
POINTS 1176
DATA ascii
-145.8087 -67.48996 -27.928999 9866886
-132.82594 -67.757195 -53.944695 7038307
-132.52614 -67.987335 -54.754719 9340288
-132.27521 -67.908722 -55.819923 9011323
-132.01532 -67.920586 -56.789978 8287082
-131.72632 -67.984138 -57.796711 9799806
-131.38046 -68.268425 -58.704205 9273463
-131.11676 -68.46743 -59.421501 9340286
-122.11948 -68.327156 -77.444809 8419702
-121.56725 -68.035919 -78.3908 7761510
-121.0226 -67.90934 -79.223549 8222061
-120.41578 -67.8909 -80.074829 8946038
-119.75211 -68.061203 -80.88707 9602941
-119.14443 -68.048729 -81.735924 10063235
-118.61465 -67.947128 -82.532593 10985364
-164.52098 -66.821465 9.5186186 8287342
-164.71355 -67.007561 8.6802626 7563619
-145.39815 -67.39566 -28.942759 9142907
-145.01952 -67.302628 -29.77799 10261132
-144.63673 -67.209991 -30.609674 9011577
-144.17252 -67.09938 -31.603374 9011833
-143.78157 -67.007629 -32.427856 9537918
-143.38663 -66.916344 -33.248772 7039331
-142.90785 -66.807259 -34.229538 9142646
-142.42372 -66.698769 -35.205418 6248783
-142.01637 -66.608818 -36.015011 5920074
-141.60509 -66.519318 -36.820976 6445906
-133.76811 -66.552002 -52.088638 8287342
-133.42975 -66.857323 -52.937321 7038048
-133.12396 -67.010971 -53.879097 6972513
-132.83911 -67.064743 -54.883919 8419444
-132.60219 -67.013374 -55.85717 8484975
-132.3203 -67.084084 -56.826653 8484717
-132.07243 -67.223015 -57.569641 9536635
-121.04759 -67.159798 -79.656593 8090219
-120.64687 -66.998451 -80.311882 8617075
-120.03365 -67.132812 -81.076752 8813939
-119.42445 -67.120522 -81.927536 9865857
-118.85682 -67.164955 -82.68541 10722195
-118.39609 -67.060013 -83.388573 11314588
-117.85175 -66.916794 -84.231339 9735812
-117.39659 -66.729919 -84.977882 8814455
-164.69807 -65.80336 10.191981 9011321
-164.91823 -65.872803 9.4076948 9142651
-164.98338 -66.355431 8.6142187 7563619
-141.10692 -66.412415 -37.78371 7892584
-140.60353 -66.306114 -38.741547 8419183
-140.09502 -66.200401 -39.694405 7958888
-139.75333 -66.130249 -40.327099 10262156
-139.73711 -65.922379 -42.151321 8287856
-136.38307 -65.55159 -46.770088 8089963
-136.09532 -65.549721 -47.589584 8879478
-135.62798 -65.613136 -48.621563 7366752
-135.24312 -65.691353 -49.497608 7433057
-134.81937 -65.828934 -50.496651 11183001
-134.47806 -65.887985 -51.433739 10459278
-134.21318 -65.862587 -52.340881 8551027
-133.88638 -65.967346 -53.111229 6709341
-133.55075 -66.044388 -53.997776 7761771
-133.17487 -66.154373 -55.0224 8945530
-132.85063 -66.374008 -55.827133 8879475
-120.15703 -66.388435 -81.370514 7564643
-119.80604 -66.194946 -81.976898 7761509
-119.313 -66.047394 -82.751335 7432544
-118.74036 -65.994225 -83.577087 10590865
-118.12752 -65.989922 -84.427933 9867397
-117.51387 -65.988564 -85.278046 7893868
-116.95985 -65.884148 -86.110062 7761772
-116.41673 -65.716278 -86.966454 9011323
-164.99309 -64.885269 10.369147 9537151
-165.24934 -64.826576 9.6255827 9340031
-137.87151 -64.957687 -44.144947 9866624
-137.57756 -65.042336 -45.149841 10195589
-137.33885 -64.996056 -46.050949 6840662
-136.86012 -65.161423 -46.822102 8550514
-136.57153 -65.132645 -47.754807 9734786
-136.22591 -65.133911 -48.741844 9603456
-135.70441 -65.269226 -49.665115 6972505
-135.31927 -65.258133 -50.636387 12301482
-134.93858 -65.252464 -51.608929 7695972
-134.71301 -65.263962 -52.26796 7038298
-118.93848 -65.160233 -83.82325 10854037
-118.4031 -65.063881 -84.624321 8946298
-117.78801 -65.062538 -85.476418 7367781
-117.1721 -65.064148 -86.327881 8813945
-116.55534 -65.068626 -87.17878 9274238
-116.0406 -65.074448 -87.887489 8879736
-115.63271 -64.71225 -88.67804 9932934
-165.33641 -63.936611 10.429633 9471100
-118.36314 -64.507828 -85.026642 7367781
-117.95504 -64.359352 -85.683998 7367781
-117.45669 -64.185051 -86.482452 8551029
-116.92949 -64.142471 -87.238686 9340031
-116.40141 -64.101997 -87.994873 8616307
-115.84762 -63.972122 -88.842384 9669762
-115.21609 -64.010323 -89.538536 8683124
-165.49887 -62.843899 11.240413 10260101
-165.67963 -62.987831 10.490836 9010805
-117.14636 -63.402657 -87.400139 8089963
-116.67709 -63.144493 -88.21067 8287342
-116.11609 -63.047592 -89.047646 8682355
-115.41994 -63.019527 -89.844795 8090987
-114.73164 -62.859787 -90.583382 8090219
-114.26923 -62.55772 -91.179039 8089963
-165.84827 -61.84 11.349216 8484721
-116.22691 -62.310097 -89.354416 9734531
-115.69802 -61.956749 -90.116493 8089963
-114.93252 -62.041061 -90.80545 8089963
-114.23811 -61.95467 -91.514473 8550513
-166.07576 -60.820007 12.149604 9932421
-166.16837 -61.067184 11.351501 7564651
-115.14827 -61.305363 -90.975372 8089963
-114.53924 -61.080223 -91.694267 8089963
-113.93299 -60.910347 -92.339798 8156012
-113.54259 -60.637051 -92.856567 13024949
-166.58366 -59.574795 13.937816 10261903
-166.52477 -59.863758 13.124621 9866886
-166.41754 -60.251255 12.443515 10458507
-114.8777 -60.390942 -91.888672 9274492
-114.25743 -60.000359 -92.58287 7827559
-113.54134 -59.90852 -93.311577 10130057
-113.05263 -59.645908 -93.978531 7235421
-171.16394 -58.642365 22.687319 7038307
-171.23987 -58.932323 22.193647 9011323
-171.22897 -59.087578 21.437006 8089963
-169.97441 -59.088512 20.236525 9931910
-170.07196 -59.090012 19.416616 6643541
-168.82361 -59.090908 18.240339 7038307
-168.91118 -59.092392 17.42594 7038307
-167.70853 -59.093987 15.869105 14077894
-167.66466 -59.163715 14.845267 9143675
-167.28712 -59.357803 13.998145 9143676
-113.91147 -59.314934 -93.843277 7564642
-113.21877 -59.271935 -94.514282 7103836
-112.77129 -59.100765 -95.204277 8287598
-112.46294 -58.816837 -96.107452 8814454
-111.80287 -58.699474 -96.831062 9669507
-111.27921 -58.594494 -97.436798 7762277
-171.41762 -57.875454 22.803991 9275265
-171.59807 -58.05743 22.323629 7827822
-112.1009 -58.41729 -97.440994 9866630
-111.40652 -58.36145 -98.020645 6907480
-110.71148 -58.30658 -98.597504 8222570
-110.59996 -58.136902 -99.69429 8024680
-109.87243 -58.007038 -100.00288 7761253
-109.3292 -58.064728 -102.42583 7959406
-108.5446 -57.910149 -102.67798 7564651
-108.58943 -57.903896 -104.20988 7564651
-107.79099 -57.812748 -104.69757 6643541
-107.46274 -57.683945 -106.14755 11380382
-106.8065 -57.606102 -106.52071 9011838
-171.59082 -56.447308 23.583933 9011320
-171.67551 -56.925938 23.054094 8683130
-106.61961 -57.492767 -107.87569 6510930
-105.95572 -57.414795 -108.24184 6510930
-105.75247 -57.299889 -109.60088 9604483
-105.08092 -57.221867 -109.95983 12959154
-104.8614 -57.105423 -111.32288 12038310
-104.40741 -57.007496 -112.18439 11578016
-103.7746 -56.889797 -113.12756 10261637
-103.701 -56.789993 -114.41669 11380124
-103.00716 -56.711617 -114.75648 10524558
-102.74535 -56.590794 -116.13538 7038307
-171.73727 -55.794067 23.814207 9077372
-172.02553 -55.860275 23.220861 7301479
-102.39466 -56.551567 -116.30207 7038307
-101.86868 -56.492813 -116.55025 9011579
-101.76547 -56.389961 -117.84985 8814456
-101.05695 -56.311581 -118.17486 8682867
-100.8101 -56.214474 -119.61759 9011832
-100.1175 -56.149113 -119.96298 9735812
-100.04523 -56.07613 -121.34654 7366238
-99.344406 -56.010582 -121.68506 7037274
-99.081551 -55.919739 -123.1609 8813427
-98.371086 -55.853107 -123.48999 8352618
-98.26387 -55.773914 -124.88281 9405304
-97.541252 -55.704712 -125.19998 10260611
-97.23761 -55.606613 -126.67899 9536632
-172.06042 -54.952374 23.858084 8880509
-96.506989 -55.537247 -126.98808 9141875
-96.370049 -55.454983 -128.39651 8878961
-95.480682 -55.301651 -130.11588 6906455
-95.134544 -55.199287 -131.61885 11380380
-94.380722 -55.129208 -131.90808 10459793
-94.397064 -55.060375 -133.27455 11380380
-93.635689 -54.99007 -133.55721 10854036
-93.256699 -54.884541 -135.07353 10854036
-92.679916 -54.831726 -135.27951 10854036
-92.284348 -54.724743 -136.80205 5393473
-91.701797 -54.671764 -137.00243 4340785
-91.68161 -54.598557 -138.40077 9736326
-172.17482 -53.835506 24.507734 7761773
-172.37584 -53.993805 24.007013 9077630
-91.28949 -54.563126 -138.53156 9736326
-90.897285 -54.527798 -138.6613 9736326
-90.470016 -54.417694 -140.19801 11381405
-89.631653 -54.270576 -141.86925 8486769
-88.774246 -54.121826 -143.54478 8617073
-87.897606 -53.971489 -145.22462 9603455
-87.412697 -53.855358 -146.79665 9209467
-86.78875 -53.796963 -146.95242 6906712
-86.708344 -53.719845 -148.43422 6906199
-86.063721 -53.651875 -148.55925 6510930
-172.43292 -52.84943 24.785635 7301479
-85.760345 -53.553104 -150.1006 8287336
-85.09668 -53.476624 -150.19518 9208435
-84.555527 -53.350185 -151.77419 10655628
-84.001389 -53.221928 -153.36351 9866626
-83.207382 -53.066021 -154.98822 9998211
-172.51259 -51.858597 25.402876 7038307
-172.80403 -51.919216 24.80789 7959151
-172.85602 -50.868935 25.523195 8024944
-172.94876 -51.266617 25.0408 9537667
-172.92781 -49.674007 26.314016 7038307
-173.15285 -49.854137 25.750933 8287859
-173.34184 -48.772949 26.233603 8090987
-173.36479 -49.079426 25.95265 8090987
-173.57182 -47.986668 26.410406 8090987
-173.81367 -47.353069 26.44655 16248807
-164.26472 -69.671364 6.2646513 8089963
-164.0804 -69.983032 5.5973349 9142907
-163.87292 -70.122414 4.600997 10853012
-162.85895 -70.159264 3.7839613 9077116
-162.71317 -70.088898 2.7985144 8353651
-162.56187 -70.018867 1.815177 8156529
-161.44482 -70.011528 1.2156477 7761509
-161.28737 -69.942413 0.24154943 6841693
-161.09195 -69.859879 -0.92492777 9538691
-160.45418 -69.822754 -1.6969881 8288883
-159.81438 -69.78624 -2.4627848 9209214
-159.64015 -69.718689 -3.4235163 9340027
-159.431 -69.638634 -4.381341 9734784
-158.5235 -69.567154 -5.2515154 9734784
-157.96616 -69.493027 -6.0613222 9538432
-157.81007 -69.435013 -6.6275415 11380380
-123.91217 -69.522743 -74.054779 9208956
-123.58115 -69.537186 -74.666748 7564651
-164.55586 -68.691498 7.13626 9734788
-164.64682 -68.942238 6.5306196 8418928
-157.65205 -69.377083 -7.1927233 12433332
-157.43904 -69.300201 -7.9446306 15329254
-157.16588 -69.203316 -8.881753 9999497
-156.39847 -69.12262 -9.7868128 8881019
-155.68608 -69.062157 -10.498242 6511954
-155.4019 -68.966331 -11.421182 9866885
-155.11357 -68.871017 -12.341424 9405307
-154.8206 -68.776138 -13.258431 10523273
-154.46347 -68.662827 -14.355031 8353390
-153.86537 -68.587105 -15.175057 7563619
-153.03168 -68.548981 -15.716016 9932167
-152.72577 -68.456375 -16.616388 9340030
-130.96718 -68.501465 -59.924702 10459276
-130.69333 -68.509674 -60.562428 10459276
-130.32326 -68.507698 -61.34692 10459276
-129.7998 -68.656815 -62.327122 12367527
-129.37152 -68.697235 -63.198627 8288109
-128.92474 -68.703636 -64.138313 8288109
-128.47693 -68.713089 -65.077667 10130055
-128.0282 -68.725708 -66.01693 9143159
-127.57853 -68.74147 -66.956123 9537664
-127.1276 -68.760269 -67.895233 9340285
-126.75095 -68.778168 -68.677849 8879479
-126.37336 -68.798332 -69.460487 8025453
-125.85558 -68.965988 -70.413963 8288114
-125.40424 -69.041397 -71.305634 10063753
-124.94743 -69.074501 -72.24498 9011579
-124.48927 -69.11071 -73.184677 9406334
-124.08833 -68.9636 -74.159813 8814200
-123.55586 -68.966423 -75.058029 7696235
-123.11149 -68.752434 -75.806557 9340286
-122.80966 -68.736801 -76.233978 9340289
-164.80595 -67.875572 7.3321028 8089963
-164.98692 -67.985367 6.623271 8089963
-152.54022 -68.400993 -17.155142 9340030
-152.35295 -68.345795 -17.692717 8682099
-152.04266 -68.256432 -18.586851 7234653
-151.69862 -68.164879 -19.660234 8616562
-151.35275 -68.075798 -20.730322 8485488
-150.63393 -68.02433 -21.374449 10722450
-149.91405 -67.973305 -22.012087 11380639
-149.55626 -67.885704 -23.066526 8486520
-149.19191 -67.798386 -24.117067 8486520
-148.88342 -67.725868 -24.98955 11643552
-148.57014 -67.653687 -25.859098 10327694
-148.18852 -67.567329 -26.899004 9866629
-147.86575 -67.495682 -27.762648 9405822
-147.20219 -67.462173 -28.191423 10195594
-131.50491 -67.778824 -58.930771 8945269
-131.20297 -67.933861 -59.841679 9340542
-130.87744 -67.95253 -60.647625 9275003
-130.50682 -67.95063 -61.433231 10064518
-130.06125 -67.950958 -62.375504 11051668
-129.61465 -67.954269 -63.317272 7235421
-129.16718 -67.960724 -64.258774 9735555
-128.71884 -67.970268 -65.20005 12630191
-128.2695 -67.982887 -66.141167 8748660
-127.81905 -67.998512 -67.082176 9077369
-127.38554 -68.052948 -67.953903 9406078
-127.04733 -67.995552 -68.719482 8419699
-126.61568 -67.976524 -69.650208 7301734
-126.21618 -67.89579 -70.56559 7630698
-125.75962 -67.925484 -71.50737 7827820
-125.30174 -67.958199 -72.449425 8420724
-124.84245 -67.993904 -73.391891 8946811
-124.38168 -68.032677 -74.33477 7959151
-123.94852 -68.041 -75.091995 8156785
-123.44472 -68.013329 -75.806557 9801093
-122.83985 -67.982758 -76.662735 8814202
-122.29208 -67.769318 -77.554008 8419702
-121.84435 -67.562828 -78.302414 8419699
-165.06305 -66.690781 7.9538298 7563619
-165.12386 -67.021332 7.3587561 8484721
-147.16991 -67.415146 -28.675989 9076600
-146.68732 -67.338501 -29.379427 8484721
-145.84651 -67.25795 -30.128092 8155756
-145.38156 -67.146317 -31.13093 9011321
-144.99002 -67.053719 -31.962965 10524812
-144.59435 -66.96154 -32.791374 9998210
-144.11479 -66.851479 -33.781151 8683124
-143.62982 -66.741966 -34.765984 7104091
-143.22166 -66.651207 -35.582996 5920074
-142.80959 -66.560837 -36.396374 5920074
-142.47758 -66.488861 -37.044899 11380380
-132.34175 -66.822342 -57.119144 8879475
-132.10384 -66.831451 -58.009571 10589066
-131.80934 -66.94075 -58.971878 8353646
-131.51262 -67.007561 -59.982784 8616819
-131.10973 -67.024323 -60.947071 8879991
-130.73819 -67.022667 -61.734463 8354159
-130.36595 -67.023315 -62.521469 10854290
-129.91866 -67.026756 -63.465607 9012087
-129.47043 -67.033287 -64.409447 10590608
-129.02121 -67.042801 -65.353027 10064520
-128.57085 -67.055275 -66.296341 9735299
-128.1194 -67.070732 -67.239571 9208955
-127.74229 -67.085823 -68.025513 9011320
-127.36429 -67.103127 -68.811478 8485235
-126.94343 -67.079079 -69.723618 7038307
-126.51297 -66.967285 -70.731194 8683893
-126.05547 -66.996651 -71.675278 7433572
-125.59666 -67.028976 -72.619637 7368295
-125.13641 -67.064316 -73.564369 7894638
-124.75184 -67.095963 -74.352005 9341568
-124.3338 -67.112503 -75.120552 9406590
-123.79337 -66.897583 -76.020187 9669762
-123.12886 -67.053246 -76.842712 8156529
-122.52205 -67.026085 -77.699516 8090994
-121.91477 -67.001884 -78.555008 7695206
-121.35893 -66.944885 -79.359879 7958633
-120.95824 -66.782539 -80.015602 8090219
-165.29271 -65.861732 8.2304487 8155756
-165.46837 -66.052391 7.4400778 7563619
-142.22681 -66.434967 -37.529602 9077628
-141.89059 -66.363419 -38.174034 7958888
-141.59874 -66.248573 -39.19643 9734787
-141.26605 -66.14798 -40.095757 7564388
-140.86702 -66.04583 -41.01194 8683130
-140.46239 -65.944046 -41.925217 10590352
-140.2377 -65.818451 -43.038185 6116946
-139.66588 -65.673325 -43.786358 7234653
-133.76758 -65.638954 -54.325996 7564392
-133.48761 -65.662994 -55.150902 11709090
-132.99306 -65.933716 -56.129047 8747889
-132.65459 -66.081596 -57.064693 9865856
-132.41364 -65.952522 -58.097996 9800580
-132.12038 -66.016663 -59.110905 9143164
-131.83147 -66.11557 -60.05135 8748661
-131.35468 -66.282715 -61.060829 10590353
-130.98245 -66.281151 -61.849709 8682867
-130.60989 -66.281967 -62.638313 11183254
-130.16193 -66.285477 -63.584301 13683642
-129.71295 -66.291977 -64.529892 8682867
-129.41302 -66.29789 -65.160172 8682867
-123.3556 -66.229454 -77.042931 8156527
-122.80918 -66.09787 -77.881218 8879480
-122.20044 -66.073952 -78.738663 8089963
-121.59121 -66.053032 -79.594894 8419440
-120.98141 -66.035049 -80.450043 8090219
-120.51569 -65.948547 -81.148567 7563874
-120.09878 -65.734535 -81.859039 7103835
-119.66795 -65.633774 -82.518158 6511954
-165.47775 -64.821541 8.9053068 9734788
-165.5974 -65.0522 8.2449408 9142651
-137.27658 -64.713417 -47.258827 9800578
-137.17322 -64.64695 -48.086899 11445146
-136.69991 -64.714233 -48.910149 9405818
-136.1929 -64.857666 -49.842499 5525315
-135.83891 -64.862045 -50.829185 9669762
-135.46892 -64.86216 -51.810055 7695972
-134.94899 -64.962341 -52.779495 10129797
-134.55046 -65.001511 -53.701252 9866374
-134.26285 -64.971832 -54.606831 7564392
-133.90514 -65.068192 -55.36974 10722453
-133.49048 -65.215462 -56.283829 10195593
-133.14998 -65.249001 -57.276657 8419182
-132.69397 -65.444824 -58.220398 9341060
-132.40695 -65.476799 -59.047485 9341060
-122.83552 -65.347511 -78.312935 9734531
-122.43372 -65.182434 -78.972076 8353135
-121.89215 -64.986435 -79.843887 7958377
-121.36245 -64.977676 -80.582458 7234653
-120.90082 -64.866112 -81.290909 7300702
-120.29974 -64.900101 -82.101608 8156010
-119.68655 -64.890099 -82.956421 6906456
-119.17513 -64.883904 -83.668129 9011320
-165.8019 -63.84943 9.0554647 9208186
-165.86879 -64.330956 8.257987 8287600
-137.19107 -64.432663 -48.526443 13155762
-136.95883 -64.43399 -49.188103 8879474
-136.66681 -64.437057 -50.014572 6643282
-136.31425 -64.442642 -51.005783 9406076
-136.0186 -64.448898 -51.831146 7038298
-121.64815 -64.185257 -80.681465 7037274
-121.14124 -64.023491 -81.484009 7037274
-120.57939 -63.974731 -82.291946 8287595
-119.96478 -63.964874 -83.148758 7958888
-119.29412 -64.142845 -83.965813 8156267
-118.71781 -64.092537 -84.794823 7367781
-118.19542 -63.859966 -85.662903 7367781
-165.95039 -62.794086 9.8653364 10128515
-166.12589 -62.877483 9.2062788 10851980
-120.72371 -63.3265 -82.496712 9866879
-120.18159 -63.145584 -83.35984 7432800
-119.62598 -63.033466 -84.198761 7301214
-119.00853 -63.029362 -85.055832 8551284
-118.43361 -63.080883 -85.819389 8485748
-117.96553 -62.982689 -86.528442 7564904
-117.41854 -62.926426 -87.320572 8287599
-116.94909 -62.667591 -88.131844 8616307
-166.12804 -61.659801 10.678855 7563619
-166.27464 -61.930508 9.8838263 9536894
-119.74403 -62.293411 -84.497124 6511954
-119.35109 -62.176277 -85.155548 9405822
-118.88602 -62.11253 -85.835251 9998217
-118.3351 -61.936123 -86.743973 9340541
-117.70261 -61.933838 -87.593842 8287601
-117.06983 -61.934559 -88.44342 8024170
-116.49895 -61.833271 -89.276955 9537665
-116.10351 -61.563519 -89.927872 8089963
-166.56305 -60.43576 11.512889 7564651
-166.57506 -60.734077 10.774184 8748664
-166.5428 -61.097229 10.100612 8089963
-118.02599 -61.250187 -87.833351 7893614
-117.46006 -61.073605 -88.736862 7629668
-116.9297 -60.947796 -89.541603 8683124
-116.34347 -60.876221 -90.261612 8551025
-115.64909 -60.816814 -90.918625 8089963
-167.55217 -59.412937 12.597674 9011579
-167.08479 -59.761478 11.780459 8748664
-167.00388 -60.113407 10.936912 11247763
-116.66195 -60.209957 -90.582611 8091246
-116.00924 -60.154865 -91.200371 10196106
-115.29772 -59.990826 -91.931381 10065035
-114.7773 -59.664734 -92.489136 7038307
-171.9182 -58.675335 21.243204 8617337
-171.57744 -59.019264 20.780729 8748149
-171.40715 -59.090233 19.991194 9538433
-170.14265 -59.091137 18.801397 5920074
-170.23296 -59.092632 17.980597 7367264
-170.31993 -59.094128 17.159491 9011576
-169.01581 -59.094242 16.407457 9735556
-169.11388 -59.096088 15.388305 11183002
-168.07234 -59.154999 13.657294 7564642
-167.83208 -59.287804 13.02595 8485230
-115.62434 -59.448872 -92.255066 12104103
-115.03897 -59.298466 -93.063332 10327951
-114.64206 -59.117023 -93.842537 8682867
-114.17992 -58.927837 -94.662628 6709077
-113.61133 -58.696239 -95.769417 7827559
-172.00757 -57.927082 21.654406 8814716
-113.07175 -58.497486 -96.624115 8090987
-112.51718 -58.451321 -97.091721 8090987
-112.52622 -58.517715 -98.998199 6512978
-111.77693 -58.376324 -99.298874 7959654
-111.25961 -58.307495 -101.25557 9603711
-110.31603 -58.196754 -101.86357 6774358
-110.34378 -58.106747 -103.12143 9538177
-109.54715 -58.014347 -103.61929 8814715
-109.39977 -57.904396 -104.98222 7564651
-108.75948 -57.833172 -105.37828 7696748
-108.33418 -57.72607 -106.49165 9011838
-107.61438 -57.610008 -107.32036 9011838
-172.17659 -56.738251 22.256907 9143680
-172.37865 -56.940369 21.720324 8617337
-107.59649 -57.515495 -108.5966 9208958
-106.75889 -57.417286 -109.05631 8419183
-106.72659 -57.321209 -110.3385 7564643
-105.8793 -57.222881 -110.78918 11774880
-105.83245 -57.125202 -112.07732 7565675
-105.14706 -57.046532 -112.43113 10262414
-104.91414 -56.927662 -113.81285 13287605
-104.2211 -56.848873 -114.15916 11380124
-104.14658 -56.748234 -115.45935 9143675
-103.27101 -56.649685 -115.8835 9011579
-103.53547 -56.586941 -117.02242 8287859
-172.41061 -55.949989 22.427134 9406080
-103.00476 -56.527695 -117.27293 9537667
-102.47377 -56.468536 -117.52174 7038307
-102.19711 -56.347599 -118.92091 10130057
-101.50208 -56.279968 -119.26918 8682867
-101.26994 -56.1912 -120.74509 8353387
-100.79926 -56.113411 -121.66119 8813678
-100.3208 -56.035198 -122.57277 7234652
-99.837257 -55.956444 -123.48835 8813678
-99.345253 -55.877029 -124.39847 8221032
-98.515121 -55.72839 -126.12925 6905430
-98.398857 -55.647133 -127.54839 9141875
-97.845871 -55.594585 -127.78258 8615275
-172.51164 -54.595997 23.285303 8813944
-172.72049 -54.872768 22.678225 10260616
-97.292603 -55.54213 -128.01483 9141875
-97.344818 -55.476807 -129.36418 8288109
-96.599396 -55.406654 -129.66751 8353131
-96.641205 -55.339939 -131.02834 10260100
-95.88797 -55.269566 -131.32513 8550509
-95.538818 -55.166168 -132.84297 11380380
-94.968002 -55.113228 -133.05968 11380380
-94.602402 -55.008266 -134.58412 10854036
-93.833481 -54.937504 -134.8651 10130313
-93.837616 -54.866413 -136.25749 6511954
-93.061043 -54.795475 -136.53169 6511954
-92.858047 -54.705238 -138.00247 6840154
-92.073822 -54.634083 -138.26915 9736326
-172.83614 -53.752575 23.328039 10457738
-91.855896 -54.542236 -139.74875 9736326
-91.261887 -54.488731 -139.94298 9736326
-90.830902 -54.377621 -141.49547 9473408
-89.984848 -54.22916 -143.18192 8748917
-89.119537 -54.07909 -144.87288 8090730
-89.057281 -53.999454 -146.33682 8090987
-88.234863 -53.927345 -146.56839 8814709
-88.160637 -53.846191 -148.04446 8288365
-87.538223 -53.791965 -148.21291 6511954
-87.034996 -53.673161 -149.81107 9208435
-86.406876 -53.61882 -149.97333 7366237
-172.85307 -52.613319 24.178286 7038307
-173.10559 -52.942162 23.448664 10326152
-86.097 -53.516518 -151.52609 7892584
-85.44825 -53.452755 -151.65584 9208184
-85.126984 -53.350674 -153.22412 10260871
-84.342667 -53.195484 -154.86005 10326917
-83.770111 -53.063953 -156.47816 7038298
-173.27426 -51.789993 24.023394 10853012
-173.3069 -52.253872 23.60293 9142651
-173.27165 -50.422928 25.086733 9537667
-173.44496 -50.91354 24.38106 9011324
-173.61198 -49.809196 24.921827 8287859
-173.82497 -50.079769 24.311811 8287859
-173.83775 -48.944744 25.167067 8090987
-173.96004 -47.742706 25.86894 8617331
-174.15305 -47.983505 25.31904 8090987
-174.25307 -46.755249 26.0832 11248795
-174.56424 -45.68816 26.559488 7564651
-174.51463 -45.974926 26.26507 10590868
-174.87477 -45.30246 26.606684 7564651
-164.67604 -69.627907 5.0220594 10261388
-164.62715 -69.838341 4.226306 9011320
-164.02267 -70.054504 3.4181013 7695978
-163.65982 -70.012352 2.2249365 7630186
-163.53552 -69.956093 1.4338751 8813945
-162.37373 -69.935226 0.63754171 8419697
-162.2115 -69.865814 -0.34166056 9538691
-162.04378 -69.796829 -1.3187456 7828589
-160.88945 -69.777779 -2.0885897 10854036
-160.74998 -69.723312 -2.8625994 9406080
-160.53047 -69.640053 -4.0212755 8157041
-160.29311 -69.549828 -4.9831934 10590091
-159.42653 -69.497986 -5.663949 9472126
-158.91457 -69.443138 -6.2871103 7696485
-164.89253 -68.89032 5.8242712 8089963
-165.06697 -69.00145 5.1135359 8945272
-158.80896 -69.404282 -6.6668596 7696485
-158.59541 -69.326714 -7.424737 8880759
-158.32329 -69.229485 -8.3696756 8288627
-158.0435 -69.131485 -9.311368 7038307
-157.41208 -69.038666 -10.291783 7828077
-156.54585 -68.990143 -10.932981 9538947
-156.25679 -68.894028 -11.860494 9668222
-155.96353 -68.798302 -12.785138 10062979
-155.66562 -68.70311 -13.706552 9603198
-155.30257 -68.589386 -14.80837 8814710
-154.99535 -68.495094 -15.723237 9537921
-154.09309 -68.466377 -16.197515 8221549
-165.28932 -67.799919 5.8870649 8550771
-165.29066 -68.329384 5.2396307 8089963
-153.48355 -68.365227 -17.258329 8288116
-153.19615 -68.285378 -18.162489 8617080
-152.91376 -68.210251 -19.064901 6840154
-152.56882 -68.120461 -20.144423 7827558
-152.27635 -68.045906 -21.04109 7498593
-151.69284 -67.986649 -21.769812 9801348
-150.76152 -67.92823 -22.50522 9604743
-150.39796 -67.840195 -23.564909 9341571
-150.09009 -67.76709 -24.445093 9933707
-149.77736 -67.694191 -25.32226 11446431
-149.39629 -67.607101 -26.371305 10327694
-149.07396 -67.534775 -27.242521 10459022
-148.81277 -67.47715 -27.937387 10129801
-165.38826 -66.840111 6.7382727 8616822
-165.61926 -66.803566 6.0480299 8090479
-148.61218 -67.432709 -28.456812 10129801
-148.30417 -67.356552 -29.140284 9010550
-147.91602 -67.261673 -29.991922 11050132
-147.06346 -67.180702 -30.745054 9011065
-146.71323 -67.072998 -31.707743 8879734
-146.1907 -66.974983 -32.593544 8419440
-145.66518 -66.877655 -33.4739 8288624
-145.42332 -66.775841 -34.379452 6775388
-144.88893 -66.679436 -35.251694 6839895
-144.35167 -66.583687 -36.11853 7695973
-143.91693 -66.489159 -36.969917 8419953
-125.23574 -66.513046 -73.825462 8092016
-124.92757 -66.53846 -74.45652 8090984
-124.50898 -66.554832 -75.226196 9603969
-165.73735 -65.833015 6.8515005 8090478
-165.79849 -66.164642 6.2541723 7564392
-144.24875 -66.426949 -37.499146 8617080
-143.58699 -66.374207 -37.994854 8617080
-143.0002 -66.294029 -38.727409 9274752
-142.72884 -66.194344 -39.615765 9932425
-142.52216 -66.066917 -40.744293 7564651
-141.993 -65.96019 -41.706783 8551545
-141.54828 -65.871788 -42.505066 16776175
-141.09987 -65.783768 -43.299606 9866885
-140.5573 -65.678703 -44.248379 7958632
-140.0125 -65.575546 -45.192871 6971481
-139.64026 -65.504013 -45.817802 6511954
-132.23398 -65.496864 -59.54388 8419696
-131.95105 -65.624977 -60.278366 9077370
-131.53841 -65.727089 -61.146126 9867144
-131.16597 -65.7257 -61.936203 8748921
-130.79286 -65.726463 -62.72596 8682867
-130.34424 -65.729996 -63.673271 10920083
-129.89465 -65.736443 -64.620216 9077881
-129.37996 -65.885162 -65.583351 10261899
-128.93208 -65.943359 -66.482346 9735555
-128.47943 -65.958641 -67.428238 9142906
-128.10133 -65.973518 -68.216446 8089963
-127.72237 -65.990608 -69.004631 9011065
-127.26653 -66.013718 -69.950569 8551540
-126.80942 -66.039764 -70.896675 9078137
-126.35095 -66.068771 -71.842964 11709340
-125.89123 -66.100739 -72.789619 9671045
-125.48565 -66.027878 -73.711288 7170656
-125.10332 -65.981285 -74.561043 7696482
-124.68401 -65.997543 -75.331726 9735811
-124.08362 -65.968811 -76.198044 9998727
-123.6345 -65.758141 -76.951027 8682867
-165.90724 -64.805862 7.5588942 7695203
-166.05856 -64.948654 6.9042883 8156528
-133.82965 -64.735092 -56.426083 9933195
-133.49005 -64.769279 -57.422222 7695718
-133.06587 -64.898521 -58.437347 10327954
-132.80161 -64.843704 -59.414162 7762030
-132.44678 -64.881226 -60.407444 8025198
-131.99626 -64.875626 -61.358021 8485751
-131.59526 -64.860909 -62.138145 7959408
-131.19524 -64.849091 -62.918236 8946297
-130.72174 -64.841026 -63.857067 9801860
-130.24745 -64.835884 -64.795258 9867909
-129.74733 -64.932861 -65.66407 10064777
-129.23283 -65.017715 -66.637192 9932678
-128.77917 -65.032791 -67.58532 9076858
-128.40024 -65.047516 -68.375351 7563619
-128.08008 -64.879288 -69.197586 9734788
-127.62309 -64.902107 -70.146225 9604482
-127.16484 -64.927803 -71.095009 9078136
-126.70527 -64.956429 -72.044067 10919825
-126.2444 -64.987946 -72.993431 10196616
-125.80952 -65.07196 -73.842865 8090984
-125.46849 -65.002213 -74.624931 8879987
-124.97556 -65.069283 -75.5075 10589579
-124.37357 -65.040909 -76.375725 9341053
-123.76372 -65.011566 -77.23806 8420464
-123.19324 -64.939774 -78.072304 8616307
-122.67935 -64.685471 -78.942192 9142651
-122.24925 -64.576897 -79.605156 7563619
-166.17918 -63.836624 7.8714056 8024683
-166.35681 -64.026131 7.0766439 8090469
-137.21733 -64.32074 -50.588646 10260614
-136.66171 -64.175842 -51.134476 11642011
-136.16599 -64.240135 -52.168369 7827557
-135.88339 -64.224419 -53.142288 9011573
-135.55161 -64.189087 -54.097748 10326922
-135.09763 -64.274529 -54.997604 8419959
-134.67207 -64.308182 -55.940929 8222580
-134.276 -64.360275 -56.689129 10064525
-133.93178 -64.336678 -57.610966 11577760
-133.59259 -64.318459 -58.535858 9341060
-133.35643 -64.216896 -59.468567 8156787
-129.87328 -64.492966 -65.980186 10788244
-129.51952 -64.359322 -66.863411 8748149
-129.08179 -64.32383 -67.743568 9405823
-128.67937 -64.327171 -68.523575 7826791
-128.366 -64.162666 -69.351547 9735556
-127.87039 -64.166489 -70.281876 9736836
-127.40156 -64.187096 -71.22715 7894120
-126.94129 -64.215446 -72.178001 8551536
-126.47963 -64.246704 -73.129211 8288624
-126.09396 -64.274887 -73.922218 8090984
-125.70718 -64.305237 -74.715538 9734526
-125.1887 -64.232719 -75.738945 10523530
-124.65894 -64.032867 -76.609703 8288878
-124.10949 -63.899509 -77.453392 8946295
-123.49389 -63.980446 -78.254837 8090731
-122.828 -64.035393 -79.142097 9734531
-122.31761 -64.018143 -79.859276 8813685
-121.88613 -63.911949 -80.522682 8156010
-121.4542 -63.807205 -81.185745 7037274
-166.35594 -62.871624 8.481883 8879479
-166.53441 -63.00425 7.753562 8221804
-124.14317 -63.153458 -77.890083 9209467
-123.65196 -63.198257 -78.553581 8485744
-123.17303 -63.173901 -79.243965 9997957
-122.70731 -63.056828 -79.955139 11050641
-122.09357 -63.080238 -80.764824 9471868
-121.4743 -63.062653 -81.622566 7695458
-120.96693 -62.828976 -82.470551 8024423
-120.45673 -62.672047 -83.274551 7367006
-166.68227 -61.88063 8.6486502 9536894
-166.75615 -62.305473 7.8975515 8287600
-122.95719 -62.418297 -80.275299 10590091
-122.41872 -62.308781 -81.084846 10590091
-121.89071 -62.12989 -81.961983 9866624
-121.33195 -62.011223 -82.80365 8682351
-120.68503 -61.987144 -83.646164 8024935
-120.14271 -61.913998 -84.417122 6972249
-119.75269 -61.709019 -85.151413 7958888
-119.1518 -61.610657 -86.026215 9143165
-166.9211 -60.831253 9.4506903 9340027
-167.00296 -61.005325 8.8495932 11445142
-121.49542 -61.341759 -83.343445 8287850
-121.1713 -61.330139 -83.766136 6511954
-120.65946 -61.176891 -84.576477 7630179
-120.08282 -61.055294 -85.447174 8156267
-119.51 -60.941914 -86.283546 9471874
-118.85624 -60.927147 -87.124115 9208956
-118.29094 -60.748047 -88.029541 8617078
-117.83295 -60.572681 -88.795044 7827820
-117.50478 -60.56876 -89.214661 8091246
-167.77477 -59.461967 11.394572 11905692
-167.55627 -59.753078 10.432761 9932163
-167.43613 -60.121399 9.54737 9340027
-119.31767 -60.310013 -87.460297 9735041
-118.71197 -60.270367 -88.119865 9735041
-118.29519 -60.115616 -88.918808 8484976
-117.69297 -59.99078 -89.859184 8617331
-117.1457 -59.839184 -90.666504 8222831
-116.63795 -59.571754 -91.465332 9275262
-172.44707 -58.685463 20.240526 11577503
-171.47987 -59.091366 19.371161 8814710
-171.57291 -59.092873 18.543875 7367264
-171.66254 -59.094387 17.716532 10262156
-170.38229 -59.095249 16.543348 8353646
-170.46202 -59.096737 15.721469 6510930
-169.2238 -59.098293 14.164504 12301482
-169.30878 -59.10014 13.144164 6511954
-168.33754 -59.210747 12.249961 11182484
-168.48647 -59.243572 11.444362 10788500
-116.91548 -59.393509 -91.680679 8551796
-116.44508 -59.181568 -92.540329 11249052
-115.90541 -59.047916 -93.277588 10064780
-115.26078 -58.928566 -94.022263 8288367
-115.28413 -58.861721 -95.431412 7563619
-114.56625 -58.730202 -95.77153 7563619
-114.00225 -58.729099 -98.125053 10261388
-113.22315 -58.632412 -98.647339 11906465
-172.51357 -57.589355 20.964182 10064524
-172.67928 -57.978191 20.351507 12301226
-112.98382 -58.51162 -100.12124 13023917
-112.201 -58.418655 -100.63995 10853518
-112.09114 -58.311012 -102.00705 16247774
-111.45654 -58.236568 -102.41507 7827303
-111.0759 -58.144875 -103.30385 9538177
-110.68792 -58.052906 -104.1889 9670020
-109.88324 -57.96003 -104.68633 10064779
-109.90108 -57.870754 -105.96692 8092016
-109.10184 -57.785892 -106.47104 10328462
-108.93432 -57.673347 -107.84882 9406850
-108.09857 -57.57457 -108.3181 9011838
-172.75891 -56.955605 20.99338 9340801
-172.96617 -57.238068 20.384768 10130057
-107.91116 -57.459373 -109.69783 9472640
-107.23451 -57.380299 -110.06548 7564643
-107.03058 -57.263496 -111.44946 8748917
-106.58182 -57.164906 -112.32596 8683898
-106.12572 -57.066032 -113.19798 9867657
-105.66472 -56.966583 -114.0728 11709087
-105.1965 -56.866898 -114.94313 11380124
-104.94991 -56.745655 -116.34398 8090987
-104.24289 -56.666199 -116.68472 9275517
-173.04118 -55.407131 21.661367 7564651
-173.02458 -55.996445 21.236261 7827820
-103.97942 -56.543282 -118.08957 7038307
-103.26488 -56.463837 -118.4225 8682616
-103.18996 -56.372826 -119.77797 9077371
-102.31795 -56.290154 -120.22092 8682867
-102.26407 -56.217426 -121.62632 8813680
-101.55803 -56.151031 -121.97381 9011057
-101.49069 -56.076866 -123.38846 7037274
-100.77635 -56.010235 -123.72888 9208435
-100.51468 -55.91787 -125.23701 9011064
-99.790565 -55.850243 -125.56778 7168603
-99.504066 -55.752518 -127.07352 6510930
-98.951569 -55.699776 -127.31184 6510930
-98.834427 -55.617695 -128.74551 8288109
-98.462234 -55.582424 -128.90152 8288109
-173.12094 -54.872944 21.924891 9800323
-173.48036 -54.818264 21.291269 9011573
-97.903595 -55.529564 -129.13382 8288109
-97.770401 -55.445877 -130.5753 6510930
-97.205841 -55.392906 -130.80273 7103322
-96.870041 -55.290089 -132.32849 7761250
-96.109459 -55.219154 -132.62383 6511954
-96.139511 -55.150276 -134.01057 6709078
-95.371033 -55.079224 -134.29919 10854036
-95.002167 -54.973248 -135.83894 9998727
-94.419945 -54.919781 -136.04939 7959144
-94.230278 -54.830109 -137.52736 6510930
-93.642288 -54.776482 -137.7327 6510930
-93.241623 -54.667465 -139.28723 11905695
-92.449799 -54.595837 -139.55266 8617592
-173.41862 -53.88308 22.131483 9602945
-92.430054 -54.521019 -140.98351 7564651
-91.630493 -54.449207 -141.24171 7564651
-91.397522 -54.354961 -142.74725 7696742
-90.545547 -54.205177 -144.45113 9012087
-90.291267 -54.108067 -145.98161 9537918
-89.674225 -54.053715 -146.16019 8814452
-89.406143 -53.955124 -147.70068 9537918
-88.783264 -53.900608 -147.87358 9209467
-88.501328 -53.800476 -149.4245 7367263
-87.872772 -53.745792 -149.5916 7367263
-87.576599 -53.64402 -151.15314 9734788
-87.153656 -53.607517 -151.26099 9734788
-173.51225 -52.90905 22.709497 10457738
-173.82671 -52.825413 22.182779 9866374
-86.730896 -53.571121 -151.36781 9734788
-86.631859 -53.485958 -152.88658 8287342
-85.991913 -53.431095 -153.04193 8747635
-85.882248 -53.344532 -154.57442 11445141
-85.236557 -53.289459 -154.72473 9208435
-84.898895 -53.182999 -156.3197 9997953
-84.228874 -53.116177 -156.42934 7038298
-84.461609 -53.018288 -157.76051 7038298
-173.80699 -51.846485 22.977736 8747893
-173.93515 -50.710899 23.615961 7892584
-174.16953 -50.83606 23.078283 7563619
-174.15797 -49.873993 23.844809 8813686
-174.41412 -50.200775 23.110079 8616307
-174.39326 -48.598747 24.389887 7893614
-174.44402 -49.01902 23.968771 7696235
-174.55139 -47.85553 24.668539 8156782
-174.83485 -48.001686 24.021696 7893614
-174.72942 -46.616489 25.294157 8090987
-174.86966 -46.915432 24.798502 8551538
-175.01591 -45.85746 25.507185 7893615
-175.19972 -46.024139 24.930834 9340545
-175.4727 -44.747414 26.481485 9340545
-175.28999 -45.227203 25.949842 7564651
-165.04509 -69.648613 3.6401625 7563618
-164.90073 -69.821709 2.8411474 9077117
-164.60968 -69.934128 1.8429937 8748407
-163.99472 -69.910339 1.0434446 9998985
-163.34216 -69.872093 0.2498464 9538433
-163.1758 -69.802505 -0.73479182 8682867
-163.00395 -69.733177 -1.7173357 10196622
-161.87143 -69.728127 -2.293992 7894126
-161.69362 -69.659843 -3.267087 9077372
-161.46457 -69.574318 -4.4318895 9734788
-161.21359 -69.479889 -5.3986139 7959144
-160.54268 -69.436089 -5.9593859 8156780
-165.43031 -68.617126 4.4461088 8089962
-165.43933 -68.991829 3.8481169 8484721
-165.45647 -69.335556 3.0509596 8089962
-159.92529 -69.412308 -6.3244028 7696485
-159.76468 -69.353661 -6.8973551 7696485
-159.49255 -69.255951 -7.849824 8156523
-159.21301 -69.157227 -8.7993822 5392706
-158.92819 -69.058907 -9.7456522 6445912
-158.28839 -68.965851 -10.730065 8880507
-157.41261 -68.91748 -11.372613 9932934
-157.11848 -68.820976 -12.304601 10261386
-156.82022 -68.724907 -13.233678 10062979
-156.51732 -68.629288 -14.159543 8814710
-156.15817 -68.519478 -15.26751 9077882
-155.93808 -68.456482 -16.006163 8814710
-165.65602 -67.857384 4.6513395 7760998
-165.8297 -68.057007 3.8567076 7037274
-155.8284 -68.425819 -16.374945 8089963
-155.00233 -68.39373 -16.794069 7695979
-154.36678 -68.317039 -17.731962 11182232
-154.08464 -68.241257 -18.641932 8617080
-153.79733 -68.165779 -19.549009 9735558
-153.44658 -68.075539 -20.63405 8485488
-153.14929 -68.000595 -21.535288 9472383
-152.55826 -67.941147 -22.26671 10985364
-151.61621 -67.882668 -23.00382 12038052
-151.30898 -67.808884 -23.891687 8092019
-150.9968 -67.735382 -24.776628 8486520
-150.61638 -67.647507 -25.834959 7367528
-150.29456 -67.574532 -26.713827 9341060
-149.9679 -67.501839 -27.589685 10129803
-165.78387 -66.861664 5.4540854 7564392
-165.96571 -66.974091 4.73944 7761771
-149.55148 -67.406563 -28.633554 10786702
-149.16397 -67.311394 -29.493219 10457481
-148.77095 -67.216118 -30.348932 10457481
-148.29434 -67.102272 -31.371389 10655628
-147.89301 -67.007896 -32.219715 7958890
-147.48753 -66.91394 -33.064289 7958890
-146.99615 -66.801735 -34.073338 7761512
-146.58253 -66.708649 -34.910469 8616307
-146.16495 -66.616058 -35.743774 8616307
-145.659 -66.505478 -36.739212 8090221
-166.16925 -65.88443 5.4156713 7038049
-166.23862 -66.31958 4.6665564 8813945
-145.14772 -66.395485 -37.729576 8090737
-144.71777 -66.304382 -38.551079 9735046
-144.28395 -66.213608 -39.368774 8617080
-143.75865 -66.105309 -40.345428 9735816
-143.31711 -66.015495 -41.155449 10591383
-142.8718 -65.926117 -41.961693 9538696
-142.33286 -65.819458 -42.924599 14800843
-141.78889 -65.713417 -43.882271 10393228
-141.35135 -65.634445 -44.682571 7958632
-140.91554 -65.558548 -45.481007 8221803
-140.53673 -65.485123 -46.108521 7563619
-166.27795 -64.812912 6.3714933 8616822
-166.45276 -64.895439 5.7153349 6906719
-140.24626 -65.428116 -46.575878 8813427
-139.75937 -65.333359 -47.351685 7103834
-139.26929 -65.238899 -48.123768 6511954
-139.0636 -65.01078 -50.123646 8879217
-138.65984 -64.935699 -50.735249 7563871
-166.51245 -63.613556 7.0829039 8090469
-166.6568 -63.892967 6.2845297 6249038
-137.1797 -64.219582 -52.836788 7038298
-136.79137 -64.098129 -53.067078 7038298
-135.75363 -63.855186 -55.507423 7433065
-135.29556 -63.798386 -56.274231 7564651
-134.97443 -63.783966 -57.21143 10722452
-134.58884 -63.844913 -57.968323 12959409
-134.24013 -63.823009 -58.894344 7367272
-133.72847 -63.88517 -59.881126 7498857
-133.23116 -63.968521 -60.763012 9275264
-132.74219 -63.945934 -61.702698 9538436
-132.32341 -63.878197 -62.56358 10130316
-131.836 -63.934322 -63.272762 10196365
-131.39336 -63.879543 -64.183357 10262411
-130.88853 -63.860928 -65.112473 9999495
-130.39337 -63.850086 -66.045753 9801348
-129.98817 -63.752617 -66.968384 8353135
-129.51871 -63.680302 -67.971634 9537409
-129.10645 -63.679451 -68.749802 9866374
-128.69269 -63.680294 -69.527122 9670531
-128.19418 -63.683289 -70.458832 9736836
-127.69386 -63.688667 -71.389694 8815478
-127.19173 -63.696552 -72.319771 7433057
-126.69623 -63.711098 -73.253975 8288624
-126.29245 -63.73037 -74.038177 8683123
-125.88824 -63.751972 -74.82283 9734526
-125.43425 -63.735397 -75.701721 9734528
-124.939 -63.562759 -76.515388 8880503
-166.73483 -62.914013 7.2259474 8090469
-166.99129 -62.8423 6.4978819 6249038
-131.4836 -63.28899 -65.406494 9209467
-130.94102 -63.256577 -66.321335 9603202
-130.39505 -63.225578 -67.233246 9537409
-129.93845 -63.201241 -67.991478 10261132
-129.51468 -63.195026 -68.76622 9735300
-129.15207 -63.046871 -69.773888 10131082
-128.62961 -63.039104 -70.696846 9736836
-128.12636 -63.043877 -71.630249 11512732
-127.62328 -63.052029 -72.563896 7564901
-127.20229 -63.060413 -73.341141 8288624
-126.83926 -62.950008 -74.203621 9143675
-126.37836 -62.923466 -75.112663 9537406
-125.83754 -62.925354 -76.026436 9208700
-125.20509 -62.884838 -76.884666 8288109
-124.62679 -62.847595 -77.656006 8946551
-124.03255 -62.811562 -78.445816 7565667
-167.06682 -61.48103 7.9116087 8090469
-167.11534 -61.90567 7.2413931 7564382
-125.52112 -62.230766 -77.28569 9011321
-124.94146 -62.193218 -78.053589 8354927
-124.52099 -62.118248 -78.66317 7827047
-123.95956 -62.070919 -79.446854 8155756
-123.35595 -62.006832 -80.262733 8747892
-122.78653 -61.873184 -81.13623 10326919
-122.28333 -61.715271 -81.950386 11247763
-167.29985 -60.865952 8.124362 9077113
-167.45592 -60.988781 7.3905058 8222321
-124.16286 -61.497208 -79.998169 9011065
-123.69138 -61.455009 -80.540154 8813685
-123.18371 -61.279015 -81.482208 9932165
-122.50469 -61.235065 -82.311409 10853266
-122.1991 -61.034176 -83.084831 8353644
-121.65142 -60.880611 -83.880295 6511954
-121.09415 -60.773956 -84.684387 6511954
-120.51631 -60.659595 -85.473808 6511954
-168.02922 -59.521019 9.9882841 8089963
-168.0258 -59.689877 9.0938482 8813684
-167.744 -60.209236 8.3486128 7300962
-121.95467 -60.491402 -84.520988 6511954
-121.4861 -60.461315 -85.065155 6643543
-120.94277 -60.284077 -85.992538 6511954
-120.23824 -60.265137 -86.71801 9997960
-120.10001 -59.956825 -87.587425 10326924
-119.38008 -59.914093 -88.390289 9208441
-118.83295 -59.747917 -89.32029 8484720
-118.34345 -59.718212 -89.847481 9143417
-172.8586 -58.604546 19.529177 13024949
-172.9213 -58.894821 19.03002 10393229
-173.02377 -59.094646 18.282057 7564643
-171.72688 -59.095512 17.095354 10262156
-171.80928 -59.097019 16.267038 9603970
-170.51936 -59.097855 15.104949 7761253
-170.57426 -59.098965 14.488044 9275003
-170.64415 -59.100445 13.665248 11182484
-169.35683 -59.101234 12.531714 8814451
-169.41695 -59.102695 11.714835 10787985
-168.91356 -59.219452 10.724422 9538691
-168.77844 -59.311222 9.8301077 9932163
-119.08227 -59.499683 -89.730324 8089963
-118.45995 -59.459106 -90.38446 9537403
-117.84665 -59.424774 -91.043976 7039331
-117.42773 -59.175026 -92.308197 8090987
-117.03691 -59.090431 -92.458572 10064780
-116.53404 -59.089378 -94.820427 5920074
-115.82084 -58.959705 -95.17244 7563619
-115.69392 -58.934345 -96.943047 7563619
-115.07965 -58.85957 -97.375587 11182489
-114.58234 -58.750969 -98.383209 10722193
-114.0769 -58.642193 -99.38575 11906465
-113.45268 -58.567451 -99.807465 7565675
-173.06862 -57.882755 19.693029 10590608
-173.24754 -58.076527 19.008947 11051159
-113.35734 -58.460434 -101.18011 10853518
-112.56647 -58.367008 -101.69861 13550518
-112.61337 -58.277084 -102.9735 7630184
-111.81217 -58.183453 -103.48387 8090475
-111.68298 -58.073269 -104.86674 10262156
-110.87105 -57.979626 -105.36736 9407619
-110.89838 -57.891964 -106.66562 8092016
-110.09538 -57.808178 -107.17635 9144702
-109.93745 -57.697685 -108.57471 8092016
-109.26262 -57.618019 -108.95244 8025194
-173.29443 -56.3918 20.422647 8682867
-173.37897 -56.876312 19.888517 8880246
-173.4742 -57.359314 19.174242 10130057
-108.58725 -57.538551 -109.32721 7170141
-108.90995 -57.482113 -110.44112 7170141
-108.05626 -57.382584 -110.90272 9933191
-108.02655 -57.284866 -112.20998 13024949
-107.33586 -57.205067 -112.57255 13420475
-107.11858 -57.085838 -113.97583 8947070
-106.42007 -57.006016 -114.33081 9867657
-106.1861 -56.885231 -115.73837 8946554
-105.47983 -56.80534 -116.0858 8090987
-105.22894 -56.682892 -117.49746 9671043
-104.51508 -56.603035 -117.83711 8617847
-173.5034 -55.670769 20.587923 6511954
-173.77028 -55.889408 19.91242 8156521
-104.42749 -56.49905 -119.1691 7827565
-103.71263 -56.422489 -119.50938 8287859
-103.67382 -56.350536 -120.92036 8813681
-102.96932 -56.283905 -121.27519 7432031
-102.73894 -56.193752 -122.78317 9734779
-102.02592 -56.126904 -123.13043 8287337
-101.77782 -56.035191 -124.64523 8353134
-101.05626 -55.968124 -124.9847 9011064
-100.79044 -55.874805 -126.50628 6510930
-100.05633 -55.805305 -126.8327 7497567
-100.13652 -55.74152 -128.19156 7367264
-99.392601 -55.670742 -128.50938 7367264
-99.274666 -55.587784 -129.95813 7366751
-173.81393 -54.942921 20.56735 7959143
-98.898712 -55.552212 -130.11394 7366751
-98.334656 -55.49905 -130.3455 7366751
-98.390457 -55.432331 -131.72624 8288109
-97.630417 -55.361111 -132.02924 10260100
-97.291748 -55.257309 -133.5703 6840919
-96.715698 -55.20377 -133.79167 6840919
-96.554321 -55.116261 -135.26744 5919562
-95.77832 -55.044662 -135.55513 9208955
-95.406265 -54.93771 -137.11046 5920074
-94.818321 -54.883835 -137.32018 6510930
-94.627281 -54.793285 -138.81427 10457481
-94.033447 -54.739254 -139.01863 10457481
-93.629372 -54.629131 -140.58926 11380377
-173.80788 -53.971699 21.330709 9011573
-174.10045 -54.039246 20.728117 9011573
-92.810364 -54.481335 -142.30118 8484979
-91.971916 -54.331932 -144.01784 10854036
-91.114128 -54.180824 -145.73958 8617078
-90.236717 -54.027973 -147.46617 9537918
-89.758736 -53.910034 -149.08328 8090987
-89.129913 -53.855206 -149.2549 7367263
-88.845657 -53.753899 -150.82375 8089962
-88.211021 -53.698914 -150.98944 8616306
-174.16179 -52.900188 21.494692 11642525
-174.24913 -53.380836 20.958174 14076861
-87.912415 -53.596058 -152.56903 8287342
-87.271988 -53.541004 -152.72885 8616307
-86.95903 -53.43652 -154.3194 9208955
-86.528214 -53.399704 -154.42221 11905692
-86.202576 -53.293629 -156.02492 10063744
-85.550613 -53.238235 -156.1736 10984590
-85.277252 -53.055202 -157.46019 9077108
-84.983124 -52.743847 -158.2739 9143163
-174.23524 -51.766876 22.233934 9734531
-174.52956 -51.831059 21.63064 11050389
-84.986183 -52.140793 -158.73466 9735299
-174.53949 -50.868488 22.357141 8945015
-174.6772 -51.173458 21.862101 9734531
-174.57729 -49.776886 23.131239 8616307
-174.87312 -49.83799 22.527597 9011322
-174.92546 -48.780598 23.247789 8485749
-175.10159 -48.968681 22.770781 8814713
-174.99796 -47.577488 24.043661 8814713
-175.25665 -47.901962 23.30533 8814713
-175.24275 -46.940651 24.076727 9275262
-175.48039 -47.062332 23.535288 9406848
-175.62172 -45.432526 24.990732 9340545
-175.66426 -45.94178 24.187609 9669506
-175.884 -44.594799 25.893778 7564651
-176.02312 -44.883335 25.13442 8551030
-176.95628 -44.19014 26.926313 9603201
-176.65895 -44.328426 26.226885 7564651
-165.261 -69.729752 2.2503767 10261132
-165.47713 -69.624786 1.5351553 8748408
-164.88625 -69.807175 0.6537351 8682867
-164.31911 -69.808357 -0.14253718 10459536
-164.1136 -69.724525 -1.3303461 9933195
-163.93686 -69.655037 -2.3179827 7564393
-162.79121 -69.650482 -2.8936968 9406080
-162.6086 -69.581955 -3.8717623 8814457
-162.40274 -69.50618 -4.8471231 7959146
-162.19557 -69.42907 -5.624795 7235421
-165.8015 -68.679222 3.1903372 8418927
-165.85834 -69.01767 2.3727942 8221805
-162.08766 -69.389336 -6.0126848 6511954
-161.25479 -69.357559 -6.5029497 7301470
-160.675 -69.282913 -7.3224115 6775383
-160.39503 -69.18364 -8.2795534 5392706
-160.10997 -69.084343 -9.2338839 6445912
-159.82002 -68.985603 -10.184793 7827565
-159.21561 -68.876328 -11.304917 9341053
-158.28615 -68.844093 -11.817067 9538432
-157.987 -68.7472 -12.753522 9209467
-157.6837 -68.650772 -13.687081 7300958
-157.40564 -68.567726 -14.620049 8156780
-157.07996 -68.47467 -15.73737 8880246
-166.05525 -67.857826 3.3813086 7826791
-166.24648 -68.057747 2.5304785 7366239
-156.80333 -68.397301 -16.665609 9932678
-155.55067 -68.349205 -17.29492 7564651
-155.32507 -68.288063 -18.02899 11905953
-155.03856 -68.211899 -18.944056 10656399
-154.68872 -68.120842 -20.038649 9998727
-154.39206 -68.045258 -20.947866 8288365
-154.09044 -67.969887 -21.854101 11116950
-153.43124 -67.895172 -22.769266 12037793
-152.47823 -67.836586 -23.508032 8090987
-152.16603 -67.762482 -24.400347 8091503
-151.84895 -67.688576 -25.289698 8157043
-151.46254 -67.600311 -26.353247 10130319
-151.13571 -67.526993 -27.236513 11709349
-150.87085 -67.468521 -27.94095 9341060
-166.24654 -66.793564 4.0657988 7893358
-166.4268 -66.97863 3.2677069 8747893
-150.6595 -67.419884 -28.466135 9208435
-150.34666 -67.342766 -29.158926 10457481
-149.95241 -67.246628 -30.022158 10457481
-149.554 -67.150871 -30.881651 11115665
