# .PCD v0.7 - Point Cloud Data file format
VERSION 0.7
FIELDS x y z rgb
SIZE 4 4 4 4
TYPE F F F U
COUNT 1 1 1 1
WIDTH 1189
HEIGHT 1
VIEWPOINT 0 0 0 1 0 0 0
POINTS 1189
DATA ascii
-2.8589828 -46.929905 -135.03363 9669247
-1.877547 -46.965733 -134.97047 10392968
-0.7948826 -47.160778 -134.84401 8945526
0.28920478 -47.110523 -134.80713 9867141
1.2555974 -47.094715 -134.76367 9472639
2.2213957 -47.081089 -134.71945 8617848
3.1867507 -47.069637 -134.67445 7631211
4.1516809 -47.060299 -134.62868 9209984
5.1163187 -47.05312 -134.58217 10130571
6.0784941 -47.212379 -134.47493 10195851
7.1048622 -47.308029 -134.38768 10657429
33.375786 -47.316231 -130.37 13024949
34.034229 -46.987686 -130.19051 9275774
34.89212 -46.891926 -129.82242 8354165
35.765358 -47.000237 -129.36465 8551543
36.460541 -46.904472 -129.0737 8814715
-18.214827 -46.559818 -137.32298 7563619
-17.540476 -46.514008 -137.27808 7498591
-16.531174 -46.446667 -137.20917 9208435
-15.524495 -46.381126 -137.13788 8682349
-14.479554 -46.243317 -137.30006 10589576
-13.538333 -46.132526 -137.18324 9931904
-12.536763 -46.069572 -137.09698 8814197
-11.536567 -46.004971 -136.99864 8485745
-10.613206 -46.050823 -136.65794 8354159
-9.6715193 -46.096352 -136.31238 8485745
-8.6828356 -46.040607 -136.22083 10262156
-7.6692381 -46.044613 -136.06453 9011319
-6.7590837 -46.076927 -135.90042 9471612
-5.777936 -46.029678 -135.81342 8616818
-4.7449903 -45.987011 -135.7352 10459278
-3.7643783 -46.095955 -135.54791 9077112
-2.7521522 -46.070213 -135.46214 10524298
-1.7045772 -46.064045 -135.38541 11116433
-0.68242913 -46.148682 -135.23192 8550770
0.28736228 -46.126053 -135.17426 9142907
1.2562783 -46.108341 -135.1241 9208957
2.1782334 -46.189461 -135.04745 10788501
3.1269209 -46.28154 -134.96547 8749433
4.1573353 -46.403076 -134.86856 9275777
35.042061 -46.159599 -130.07677 10392975
35.945919 -45.980198 -129.75847 10788244
36.7644 -45.987267 -129.3699 9537923
37.600864 -46.008228 -128.95894 8682356
38.415623 -45.746197 -128.72586 9143423
36.965691 -45.131359 -129.7912 10787988
37.775112 -45.170483 -129.40027 11511711
38.669136 -45.130699 -129.01859 9406336
39.632183 -44.928913 -128.86816 8025199
40.699261 -44.711227 -128.73706 7762028
41.612133 -44.585545 -128.71803 7564392
42.666348 -44.561939 -128.30432 8089962
43.568005 -44.542942 -127.94703 9011576
42.070469 -44.377689 -129.08435 8682099
42.674732 -44.364326 -128.84677 8682099
43.580139 -44.345169 -128.48819 10722451
44.633968 -44.324512 -128.06635 8354414
45.59956 -44.23885 -128.17418 8288877
46.706947 -43.985668 -128.24196 6050892
47.641987 -43.902157 -127.92369 7170400
48.692535 -43.831654 -127.53487 9209986
49.624027 -43.817017 -127.16405 11379355
50.390804 -43.634232 -126.92474 9602937
47.842228 -43.107334 -128.18227 8616046
48.609188 -42.919914 -127.94016 8749177
49.590733 -42.899757 -127.54393 10589837
50.638523 -42.829636 -127.13999 10457990
51.515881 -42.748657 -126.81052 10195590
52.251499 -42.526535 -126.5951 10065289
48.964069 -42.214661 -128.07172 9208435
49.70023 -41.988098 -127.85773 9405558
50.579563 -41.90501 -127.52834 9800316
51.62981 -41.83712 -127.12254 10524044
52.612972 -41.82362 -126.72293 9143931
53.3829 -41.644272 -126.47649 7564643
50.827984 -41.099159 -127.74328 9208435
51.59893 -40.916504 -127.49768 9142650
52.534275 -40.905834 -127.11671 8550769
53.541256 -40.87236 -126.71517 8288623
54.451069 -40.732021 -126.39575 8881020
55.259556 -40.545605 -126.13617 9012606
51.960102 -40.212063 -127.62637 8089962
52.653099 -40.081997 -127.40834 8089962
53.571407 -39.928368 -127.10848 7761767
54.506523 -39.919662 -126.71917 9275521
55.466965 -39.850353 -126.3394 9998986
56.306557 -39.640469 -126.06543 10130059
54.606316 -39.267944 -127.12193 10327949
55.554001 -39.109989 -126.8156 9275777
56.502296 -38.953434 -126.50727 9142910
57.377899 -38.911514 -126.1347 8287858
58.301853 -38.765453 -125.827 10129802
59.001743 -38.643719 -125.60389 9735812
57.818661 -38.393223 -126.60373 8287859
58.655907 -38.304428 -126.23695 11578020
59.515549 -38.231609 -125.91727 12039085
60.508453 -37.948982 -125.90096 10393743
61.499489 -37.701363 -125.81355 10065803
62.409771 -37.644405 -125.39047 9472379
63.519299 -37.557415 -124.98981 9208435
62.869148 -37.338104 -125.93839 8815739
63.378979 -37.283379 -125.45599 9208435
64.522636 -37.245865 -125.0364 7367005
65.436691 -37.062256 -125.04538 6380368
65.910843 -36.992451 -124.50002 7367005
67.408997 -36.872883 -124.79709 9143165
69.62114 -36.646061 -124.23843 8089963
69.851418 -36.610786 -123.95418 8089963
71.726067 -36.590137 -124.48561 7564643
71.962898 -36.558968 -124.20985 7564643
73.670265 -36.367294 -124.06327 8616307
74.137695 -36.30545 -123.50294 9010553
75.503525 -36.158901 -123.75925 9208699
75.966461 -36.097404 -123.19068 6511954
77.459038 -35.934025 -123.29157 11445399
78.383659 -35.828609 -123.12287 9537918
79.306114 -35.723354 -122.94639 9274749
80.709946 -35.57209 -123.17442 9537918
81.160782 -35.511456 -122.58157 10984849
82.591461 -35.364761 -122.81953 8092011
83.027252 -35.300255 -122.20325 8157547
84.565849 -35.191254 -122.56669 8814451
84.995331 -35.126381 -121.93938 8814199
86.551788 -35.015598 -122.29216 8814201
86.975479 -34.950817 -121.65469 8222065
88.544144 -34.836105 -121.98865 10590606
88.940613 -34.763 -121.31223 6446162
90.492737 -34.633633 -121.58945 8616819
90.785507 -34.57888 -121.07482 8879479
92.449715 -34.429226 -121.16743 10459279
92.737228 -34.374516 -120.64577 9735556
94.320312 -34.241028 -120.89915 9275773
94.603485 -34.186367 -120.37027 7893352
96.295731 -34.032494 -120.43418 9209467
96.573471 -33.977982 -119.89823 9209467
98.188065 -33.840271 -120.1274 9734014
100.09275 -33.645859 -119.80231 11379348
102.00906 -33.449375 -119.45884 8353907
103.8513 -33.268909 -119.28515 9405823
105.53901 -33.12252 -119.47919 8089963
105.79415 -33.068085 -118.9068 7300958
107.74911 -32.86517 -118.5097 9931906
109.63564 -32.678043 -118.28921 8221549
111.37872 -32.524746 -118.45055 9734531
111.61832 -32.470604 -117.85641 7432289
113.30141 -32.333015 -118.20649 9932160
-72.646713 -52.16576 -147.21214 9209467
-71.818291 -52.077007 -147.31235 8682616
-69.548958 -51.889721 -146.22554 7563619
-68.936172 -51.824306 -146.29364 9734788
-67.916397 -51.715618 -146.40257 8287342
23.877983 -51.647701 -131.94783 10920088
25.064201 -51.840508 -131.817 10459277
26.162846 -51.985527 -131.70811 8749429
26.955223 -51.963379 -131.54272 9736324
-66.898178 -51.607327 -146.50604 9735040
-66.288239 -51.542606 -146.5654 13023917
-64.508018 -51.407291 -145.42847 7038298
-63.90591 -51.343575 -145.4825 8287853
-62.903873 -51.237671 -145.56798 8024683
-61.903538 -51.132179 -145.6483 7564392
-60.905186 -51.0271 -145.72267 7564392
-59.004761 -50.879066 -144.59723 7893358
-58.020916 -50.776379 -144.66164 7893358
-57.047085 -50.681297 -144.7417 7564393
20.40173 -50.529011 -132.53371 9735555
21.034883 -50.714798 -132.43349 9275263
22.031656 -50.873207 -132.32487 9407363
22.953747 -50.948681 -132.25038 11051673
23.919641 -50.986694 -132.18733 9275778
25.048376 -51.034119 -132.11256 8683383
26.179047 -51.084618 -132.03651 7104091
27.119825 -51.07357 -131.82318 7696485
27.987495 -50.956314 -131.45882 9406850
28.797066 -50.600624 -131.21811 7893615
-56.078876 -50.59013 -144.82603 8419700
-55.305126 -50.517372 -144.88986 11906725
-53.668102 -50.387695 -143.71779 11379356
-53.095081 -50.333851 -143.7598 8616818
-52.141048 -50.244339 -143.82518 8089963
-50.998062 -50.137276 -143.89659 10260872
-50.0471 -50.048267 -143.95018 8681835
-49.287495 -49.977226 -143.98877 9931902
-47.16861 -49.802681 -142.83313 8682867
-46.043499 -49.69643 -142.87061 9143418
-45.293964 -49.625172 -142.88974 10130057
17.22703 -49.782391 -132.96811 9866374
18.24678 -49.939266 -132.85887 8617075
19.185753 -50.068325 -132.7639 8354159
20.106894 -50.024582 -132.73302 9077625
21.080284 -49.890194 -132.73254 8617331
22.046282 -49.922894 -132.67148 9472642
23.013554 -49.957912 -132.60945 9472900
23.982149 -49.995255 -132.54649 8683641
25.114012 -50.041851 -132.47185 8683128
26.247845 -50.091469 -132.39601 7301475
27.192398 -50.082825 -132.18797 7169888
28.096802 -50.004833 -131.79033 9998987
28.998322 -49.929329 -131.39313 7235685
29.760675 -49.703712 -131.12236 7367012
-44.91972 -49.589596 -142.89783 10984849
-44.171909 -49.518574 -142.91132 9537918
-43.052204 -49.412357 -142.92551 11511705
-42.120876 -49.324135 -142.93163 12893356
-39.331257 -49.040089 -141.59248 9405819
-38.219826 -48.920116 -141.53191 6972255
-37.295906 -48.820419 -141.47577 7630181
-36.374531 -48.720921 -141.41386 8223089
-35.638813 -48.64146 -141.36101 7039331
13.260226 -48.722725 -133.55724 10327691
14.138663 -48.817547 -133.47791 7761766
15.017247 -48.914173 -133.39786 9142907
16.133169 -49.099854 -133.27319 9537409
17.256329 -49.124027 -133.20723 9405560
18.219938 -49.14727 -133.14969 8945525
19.184467 -49.172722 -133.09128 10261388
20.131659 -48.935822 -133.12965 11840675
21.134773 -48.900703 -133.09143 8222573
22.060635 -48.972687 -133.01801 9011832
23.06337 -49.132305 -132.90863 9209728
23.948015 -49.248558 -132.82109 9144191
24.833496 -49.366783 -132.73283 8354163
27.54319 -49.396275 -132.29819 7038307
28.207783 -49.10603 -132.0999 8551543
29.075672 -48.941128 -131.75465 7433064
30.001352 -48.932774 -131.31888 9143934
30.804367 -48.935989 -130.93658 9999752
-35.088192 -48.582039 -141.31876 10261132
-34.172314 -48.483089 -141.24425 8550514
-33.258587 -48.384342 -141.16489 8813686
-32.347446 -48.285927 -141.07991 9998216
-31.257198 -48.168133 -140.97139 8091762
-30.170414 -48.050655 -140.85558 8090474
-29.267401 -47.953041 -140.75362 9274229
-28.367086 -47.85569 -140.64633 8287596
-27.290009 -47.739243 -140.51112 8419952
-26.395073 -47.642464 -140.39328 9274232
9.4405718 -47.704506 -134.12381 8091507
10.32094 -47.790958 -134.04745 8354161
11.201179 -47.879223 -133.97035 9866885
12.159013 -48.052311 -133.85837 11972002
13.121758 -48.063324 -133.80528 10985620
14.08501 -48.07653 -133.75146 8946297
15.048775 -48.091957 -133.69678 9471873
16.174032 -48.112789 -133.6319 9800324
17.300243 -48.136536 -133.56587 9931646
18.266495 -48.159309 -133.50839 9471607
19.233643 -48.184315 -133.45 10524558
20.201803 -48.211555 -133.39079 9735555
20.847822 -48.230896 -133.35089 9735555
29.209053 -48.193897 -131.9924 10327952
30.05644 -47.882217 -131.71603 9604742
30.929768 -48.142715 -131.19679 8617847
31.792397 -47.985855 -130.85074 8880758
32.45248 -47.705605 -130.65056 9210491
-25.859411 -47.584522 -140.32016 9405046
-25.324709 -47.52663 -140.24506 9405558
-24.435696 -47.430504 -140.1161 10129281
-23.372215 -47.315441 -139.95514 9274231
-22.312586 -47.200729 -139.78725 8945784
-21.256832 -47.086487 -139.61247 8616557
-20.379904 -46.991547 -139.46185 8813686
-19.505865 -46.89687 -139.30626 8550514
-18.460585 -46.783676 -139.11359 8550514
-17.407131 -46.639355 -138.82043 8813686
6.0853167 -46.719582 -134.65469 10788243
7.2778072 -46.857178 -134.54362 10920602
8.3306799 -47.044781 -134.42143 12959669
9.2949505 -47.046921 -134.37154 9012095
10.259393 -47.051258 -134.32088 8222579
11.22405 -47.057732 -134.26941 10590865
12.189012 -47.06636 -134.21712 10196105
13.154363 -47.077145 -134.16403 9209467
14.1202 -47.090076 -134.11015 8289139
15.152377 -47.073429 -134.06375 8486263
16.208092 -47.290192 -133.9308 9668992
17.252506 -47.394081 -133.83968 10260355
18.136089 -47.496666 -133.75719 9537144
30.260235 -47.212589 -131.88918 8683899
31.011854 -47.15667 -131.55531 9144192
31.911491 -47.091713 -131.15494 10131082
32.808552 -47.029095 -130.7549 12104359
33.52433 -46.763535 -130.52281 10460046
-16.350748 -46.472721 -138.45256 8550766
-15.473325 -46.328781 -138.12503 9603193
-14.945203 -46.231091 -137.89188 9208435
-10.097068 -45.778889 -137.57433 8090987
-9.5184851 -45.72583 -137.3457 8814710
-8.567771 -45.718815 -136.94157 9866627
-7.5745173 -45.653915 -136.81248 9143161
-6.583415 -45.590477 -136.68048 11050385
-1.0115325 -45.566013 -135.69351 8089963
2.3873398 -45.764065 -135.19225 8025968
3.2747405 -45.836239 -135.12068 8815226
4.1615362 -45.91013 -135.04848 9933193
5.1273861 -46.067402 -134.9418 9407106
6.2120562 -46.032154 -134.8994 10327437
7.3185635 -46.092083 -134.82111 10196366
8.3503485 -46.059128 -134.78064 11117980
9.3172159 -46.061199 -134.73068 9472644
10.284235 -46.065407 -134.67989 9669766
11.25147 -46.071751 -134.62837 8353905
12.170049 -46.173698 -134.54434 8946295
13.115936 -46.287262 -134.4547 9669761
14.143681 -46.432362 -134.34937 9209472
31.217171 -46.488373 -131.7278 8355191
32.036289 -46.205246 -131.4812 10064778
32.905212 -46.058849 -131.14998 10723219
33.909 -46.023563 -130.69254 9406592
34.878849 -45.73143 -130.40546 10919062
35.639622 -45.584763 -130.13223 11379356
-8.5980997 -45.493004 -137.38785 9866627
-7.6006956 -45.425652 -137.25012 9143161
-6.6085787 -45.375671 -137.15747 11576217
-5.6066523 -45.427444 -136.80284 8682867
-4.6190405 -45.368279 -136.66873 11906725
-3.633496 -45.309036 -136.52736 8813942
-2.6503208 -45.251232 -136.38306 7563619
-1.6700313 -45.19899 -136.24838 10064007
-0.65019876 -45.255116 -136.01576 9274493
0.28508109 -45.250687 -135.87169 8155756
1.2586682 -45.21307 -135.76033 8617591
2.2309487 -45.183353 -135.66591 7828847
3.2022078 -45.156715 -135.57391 8946555
4.2379198 -45.103912 -135.50548 10262156
5.3469534 -45.138546 -135.36656 9143935
6.3857594 -45.185925 -135.25592 9537667
7.3996763 -45.249832 -135.16634 8879995
8.3037052 -45.283279 -135.11041 9472643
9.332056 -45.403919 -134.97011 9209472
10.300823 -45.408058 -134.9193 7959408
33.135693 -45.423553 -131.40991 9210491
33.908104 -45.222012 -131.16585 9801096
34.984005 -45.083878 -130.80574 11116184
35.954594 -44.985825 -130.47401 10656146
36.87151 -44.781387 -130.35228 10787988
37.979748 -44.679939 -130.10809 10195851
38.890774 -44.654434 -129.76457 8946296
39.49675 -44.638042 -129.53426 8090987
37.969124 -44.483456 -130.65607 8353135
39.036026 -44.453526 -130.25383 8090987
40.069393 -44.346901 -130.07898 9801347
40.936073 -44.305893 -129.80188 8748920
41.907589 -44.225521 -129.63695 7300703
42.99847 -43.968193 -129.70055 8353390
43.885242 -43.917442 -129.39453 10195596
44.799969 -43.904449 -129.0444 6643288
45.748936 -43.74284 -128.7932 6577492
46.462101 -43.676189 -128.52589 6248271
43.379696 -43.295609 -129.94595 8682099
44.063641 -43.148521 -129.72218 9603460
44.937496 -42.932796 -129.44724 7564393
45.848454 -42.91634 -129.07855 6314065
46.758533 -42.901924 -128.70944 5985867
47.580685 -42.78054 -128.41861 8089959
48.315613 -42.551582 -128.20609 10851980
45.167503 -42.267994 -129.61423 7564651
46.000687 -41.964417 -129.39064 6709339
46.880062 -41.909485 -129.05013 5920074
47.791798 -41.897243 -128.67946 8287337
48.670204 -41.84602 -128.33783 10589321
49.43961 -41.659805 -128.09438 9537400
47.038319 -41.114124 -129.29811 5920074
47.916096 -40.904491 -129.02007 7629921
48.829258 -40.894169 -128.64714 10063745
49.742146 -40.885971 -128.27438 10129538
50.567822 -40.769947 -127.98006 9602938
51.306782 -40.545502 -127.76412 9142651
49.033352 -40.175175 -128.95695 9142901
49.942215 -40.01852 -128.66521 9011314
50.826035 -39.917591 -128.33992 9603456
51.703285 -39.867836 -127.98106 9274237
52.618298 -39.665745 -127.71513 8089962
53.316177 -39.582077 -127.4607 7037274
51.144329 -39.313229 -128.69823 8090474
51.898129 -39.301338 -128.35674 8418928
52.863712 -39.151169 -128.09683 8024169
53.786274 -39.075069 -127.72973 8419440
54.717197 -38.833767 -127.62321 9538177
55.727882 -38.682037 -127.21397 8354421
55.026867 -38.466091 -128.10603 7761253
55.733524 -38.385864 -127.85242 7696234
56.664547 -38.322231 -127.4581 8090480
57.624065 -38.104576 -127.25106 9077373
58.519291 -38.003613 -126.93589 9142908
59.65929 -37.779335 -126.85091 15065823
60.549801 -37.584457 -126.54194 9735812
62.139374 -37.444813 -126.7414 8815739
62.505009 -37.391365 -126.34016 8157811
64.722809 -37.168388 -125.86527 7367005
66.878525 -37.159882 -126.32728 7761765
67.123337 -37.12801 -126.06071 7761765
68.943619 -36.922436 -125.83382 9010808
69.426445 -36.859161 -125.2915 8681843
70.891556 -36.69989 -125.44999 9471359
71.36953 -36.636993 -124.89915 9010808
72.726181 -36.491989 -125.18215 8616307
73.199753 -36.42944 -124.62297 8287598
74.685905 -36.267323 -124.75291 9077625
75.154472 -36.205265 -124.18537 10853012
76.534744 -36.057133 -124.44393 8091242
76.998703 -35.995342 -123.868 12432037
78.391251 -35.845676 -124.1153 9011831
79.798508 -35.694332 -124.35911 12432037
80.255508 -35.633049 -123.76697 10984849
81.710411 -35.495228 -124.05228 9537918
81.931931 -35.462536 -123.74436 9537918
82.262611 -35.413651 -123.28202 8092011
84.132324 -35.256371 -123.1936 11446682
86.123955 -35.080826 -122.92924 9998215
88.127281 -34.903233 -122.6429 10590606
90.098831 -34.707043 -122.2757 7498594
91.672661 -34.576061 -122.55953 8089963
92.062729 -34.502434 -121.86343 9142651
93.652069 -34.36932 -122.13409 7037274
93.939758 -34.314201 -121.60477 8354159
95.640015 -34.160534 -121.68585 9736836
95.922333 -34.105564 -121.14927 8354159
97.543762 -33.968124 -121.39599 8090217
97.821411 -33.913197 -120.8521 10851980
99.550797 -33.755253 -120.90398 8813428
99.822945 -33.700428 -120.35288 9010808
101.38781 -33.57692 -120.7611 7564651
101.65565 -33.522137 -120.20266 8814200
103.15227 -33.414661 -120.79328 7563619
103.41614 -33.359867 -120.2273 9340030
105.28145 -33.177101 -120.05209 8089963
107.24708 -32.974003 -119.66949 11576728
109.14307 -32.786789 -119.46381 8616307
111.05557 -32.597309 -119.24397 9734531
112.98522 -32.405479 -119.00967 7038298
113.1438 -32.369144 -118.60799 9932160
-73.297668 -52.178806 -148.5137 9143416
-72.879028 -52.134022 -148.56381 9143416
-70.784264 -51.966366 -147.43285 7630187
-69.752029 -51.85622 -147.54701 9011066
-68.721519 -51.746464 -147.65573 8616307
-68.10408 -51.680782 -147.71817 8287342
-67.487396 -51.615307 -147.77827 8682867
-65.678848 -51.477932 -146.62247 13023917
-64.867447 -51.392017 -146.69539 9537664
-63.854839 -51.285042 -146.78133 8287853
-62.646061 -51.160336 -146.88623 8485235
-61.849796 -51.084236 -146.97141 8616822
-59.913864 -50.926785 -145.8044 8813936
-58.932873 -50.834229 -145.9012 7893358
-57.757401 -50.723438 -146.0099 8353908
-56.974785 -50.649799 -146.07793 8090736
-56.583805 -50.61293 -146.1104 10261132
-54.725555 -50.462872 -144.93495 9011838
-53.95348 -50.390385 -144.99199 8288116
-52.989628 -50.299995 -145.05803 9275007
-51.834919 -50.191776 -145.13004 8616306
-50.874241 -50.10186 -145.18404 11379095
-50.298489 -50.04805 -145.21371 9931902
-48.718349 -49.924114 -144.01559 11181969
-47.9604 -49.853401 -144.04773 9142388
-47.014145 -49.764931 -144.0831 8813683
-46.067966 -49.675179 -144.10777 8748147
-44.934498 -49.567528 -144.1297 8090987
-43.803402 -49.460262 -144.14401 8090987
-41.191471 -49.236198 -142.93219 11182485
-40.07233 -49.123669 -142.90469 8945526
-38.948643 -49.002354 -142.84306 7958890
-38.014748 -48.901527 -142.78584 7630180
-37.083233 -48.800964 -142.72292 7367007
-35.96841 -48.680595 -142.64052 7695972
22.445887 -48.613815 -133.12956 10262156
23.0933 -48.636951 -133.08815 9406848
24.121931 -48.808067 -132.97327 8354420
25.069836 -48.950256 -132.87305 8288370
26.154129 -49.091259 -132.76636 7893614
27.230186 -49.053993 -132.58464 7039075
28.045753 -48.697968 -132.34119 7038307
-35.04195 -48.580505 -142.56624 9537409
-34.118031 -48.480679 -142.48631 9537409
-33.012455 -48.361267 -142.3837 9735044
-32.093765 -48.261997 -142.29259 9537665
-31.177723 -48.16296 -142.196 8089963
-30.081686 -48.044529 -142.07355 7959143
-28.989353 -47.926434 -141.94376 8484716
-28.081779 -47.828251 -141.83031 8617331
19.589628 -47.533951 -133.66963 9340801
20.22776 -47.717052 -133.57022 10788243
21.231941 -47.871193 -133.46272 8485745
22.160587 -47.94268 -133.38937 8287597
23.133179 -47.976429 -133.32755 8156011
24.107128 -48.012413 -133.26483 7959147
25.082525 -48.050625 -133.2012 8880506
26.17588 -48.126377 -133.11786 8551542
27.277275 -48.069756 -132.94719 8091248
28.246729 -48.025719 -132.51674 7630186
29.108177 -47.759857 -132.21518 9407107
-20.740492 -47.033848 -140.71268 9208955
-20.210567 -46.976482 -140.61812 9208955
-19.329666 -46.881107 -140.45676 9537409
-18.276091 -46.766998 -140.25725 9997960
-17.226646 -46.653294 -140.05104 9734788
16.389914 -46.799599 -134.10083 9340024
17.417522 -46.952759 -133.99255 9931646
18.363596 -47.078239 -133.89854 9800318
19.291128 -47.030952 -133.86862 8749178
20.270945 -46.892738 -133.86928 9538179
21.243744 -46.921444 -133.80928 7498081
22.217733 -46.952377 -133.74838 6510930
23.193022 -46.985462 -133.68668 8287597
24.169632 -47.02079 -133.62404 7827558
25.147713 -47.0583 -133.56056 7563874
26.116039 -47.263538 -133.43628 9143677
27.296259 -47.22084 -133.26514 9143422
28.321743 -47.03577 -132.88004 9471872
29.230389 -46.96418 -132.47787 8486262
30.100784 -46.804127 -132.12964 8947070
30.765814 -46.521179 -131.92867 8092019
-16.181301 -46.540047 -139.83826 8945272
-15.140113 -46.4272 -139.61897 9537406
-14.275573 -46.333485 -139.43147 9208435
-13.414102 -46.240082 -139.23914 8879216
-12.384112 -46.128399 -139.00278 8681835
-11.348752 -45.979515 -138.64638 8682352
-10.484567 -45.832165 -138.27335 8090988
12.390517 -45.752941 -134.68689 8814453
13.275868 -45.845131 -134.60815 11445404
14.161315 -45.938988 -134.52881 10261646
15.286016 -46.120975 -134.40506 9012092
16.417461 -46.141266 -134.34003 10326660
17.399513 -46.007164 -134.37523 10260355
18.372236 -46.03038 -134.32179 10063751
19.318935 -45.957153 -134.30887 8749178
20.274303 -46.003021 -134.21671 7630954
21.289551 -46.097343 -134.11089 6510930
22.266724 -46.129749 -134.05588 6905688
23.232908 -46.324696 -133.9261 9143418
24.04813 -46.35355 -133.8741 9209467
28.45587 -46.290211 -133.12762 9077626
29.350929 -46.026764 -132.84616 8551539
30.227852 -45.925293 -132.48892 8881277
31.136097 -45.863194 -132.09633 9144192
31.853745 -45.712078 -131.84607 9604741
-6.1761427 -45.40155 -138.40227 10985881
-5.3292818 -45.247204 -137.97182 9801864
-4.4864054 -45.082527 -137.50487 14077894
-3.6559303 -44.988232 -137.24739 9340286
-2.6686885 -44.944939 -137.14543 7563619
-1.6827381 -44.895187 -137.01672 9011320
-0.46669465 -44.751282 -137.08398 7958376
0.54413146 -44.689579 -136.86981 9735043
1.588342 -44.717175 -136.49921 11906725
2.5648224 -44.666748 -136.33777 9472900
3.5390484 -44.617699 -136.17343 9208700
4.5110874 -44.570477 -136.00758 8090477
6.6083336 -44.822414 -135.58102 7630187
7.4195395 -44.828934 -135.56485 8682616
8.4700317 -44.906307 -135.46645 8946299
9.3654203 -44.838554 -135.48918 7630700
10.338841 -44.846684 -135.45044 9538436
11.301702 -44.995342 -135.27232 9143419
12.274789 -45.00687 -135.22968 8419440
13.215856 -45.05986 -135.15579 10459023
14.330981 -45.157116 -135.03886 10064267
15.441098 -45.230099 -134.93214 10458764
16.471615 -45.373405 -134.80363 10195074
17.45874 -45.243248 -134.85222 9208435
30.387514 -45.214474 -132.83122 10854294
31.233063 -45.081757 -132.51706 9407363
32.165527 -45.139217 -132.04898 9801864
33.064907 -44.921432 -131.93303 9407362
34.071804 -44.702335 -131.80698 10261388
34.950214 -44.625122 -131.63075 9735047
35.981091 -44.543499 -131.39357 10590609
36.899654 -44.515026 -131.05482 9406334
0.93747824 -44.55024 -137.12694 10459537
1.5922291 -44.515915 -137.02003 10920087
2.5724261 -44.465519 -136.8573 10459537
3.5502188 -44.416492 -136.69179 8089963
4.526124 -44.368793 -136.52342 8089963
5.4921961 -44.436977 -136.13692 8748921
6.4658117 -44.41869 -136.04523 9077373
7.4388857 -44.40258 -135.95325 9077373
8.4140291 -44.403996 -135.90814 8091760
9.4003172 -44.277912 -136.03127 8617847
10.053276 -44.289696 -136.02615 11380380
35.499767 -44.361034 -132.11667 10064011
36.115986 -44.341377 -131.89102 9406334
37.038174 -44.312855 -131.5506 8419183
38.076263 -44.239033 -131.32217 7169374
39.026524 -44.062096 -131.2262 8090987
39.891239 -43.971878 -130.97951 12104355
40.889561 -43.855244 -130.74966 10590605
41.892612 -43.803814 -130.35698 10063494
42.734081 -43.64082 -130.07503 6510930
39.415779 -43.40506 -131.53481 8090987
40.152241 -43.161694 -131.32765 12433063
40.978577 -43.027119 -131.04041 10459018
41.951336 -43.033566 -130.63728 10327176
42.968029 -42.909081 -130.26765 7432032
43.97823 -42.704613 -129.93211 9340289
41.202541 -42.359753 -131.211 10261382
42.036617 -42.048199 -130.99019 9143159
42.919556 -41.985046 -130.65144 6445907
43.942493 -41.992134 -130.22737 10326669
44.954609 -41.817822 -129.87917 8419702
45.702763 -41.597694 -129.65778 7038307
43.082912 -41.240601 -130.89005 7300446
43.99033 -41.071892 -130.60228 11247255
44.876575 -40.961552 -130.28842 10655377
45.895229 -40.969074 -129.84839 8090993
46.860058 -40.661705 -129.58122 6775134
45.161175 -40.343857 -130.61261 11642270
46.009323 -40.20121 -130.33864 8288372
46.937111 -40.040554 -130.06558 9012094
47.863277 -40.006336 -129.64265 6577750
48.756123 -39.806808 -129.39221 7103833
49.702377 -39.638172 -129.09367 8287849
48.958012 -39.420635 -129.93199 5920074
49.903316 -39.246964 -129.61855 7959142
50.840923 -39.053028 -129.39835 9011833
51.920383 -38.83316 -129.19188 6971481
52.789188 -38.700283 -128.91649 8682355
53.716068 -38.599094 -128.59596 7761253
54.425968 -38.475651 -128.39519 6510930
54.20702 -38.279797 -129.16656 6510930
54.830647 -38.267902 -128.49583 6510930
55.602024 -38.178234 -128.17891 7103323
56.945217 -37.991608 -128.32997 6840669
57.451572 -37.919941 -127.8189 8287859
59.422382 -37.737053 -127.69353 11182489
62.127842 -37.713554 -127.87352 9407875
63.943687 -37.509613 -127.70884 8089963
64.567734 -37.428745 -127.05471 10260871
66.015747 -37.272175 -127.25909 9471867
66.509857 -37.207882 -126.72689 5920074
67.845512 -37.065865 -127.05129 5920074
68.457275 -36.985981 -126.37536 8287854
69.804756 -36.842457 -126.68692 9274492
70.410484 -36.763039 -126.00009 10853012
71.769821 -36.61795 -126.29871 9734788
72.249542 -36.554794 -125.74074 9734788
73.740128 -36.392433 -125.88663 8156012
74.21479 -36.329681 -125.32012 8288621
75.59816 -36.18153 -125.59441 8288621
76.068237 -36.119068 -125.01948 7039322
77.580444 -35.953842 -125.13663 8551280
78.990669 -35.802387 -125.39434 10261383
79.453407 -35.740505 -124.80293 10984593
81.040421 -35.593807 -124.97558 8089963
81.376297 -35.544468 -124.51411 9537406
83.034271 -35.420315 -124.7589 8092011
83.475952 -35.354561 -124.1331 14012094
85.040169 -35.244781 -124.52041 8682867
85.476158 -35.179024 -123.88421 8682867
87.380753 -35.017933 -123.77495 8419698
89.398262 -34.835224 -123.47344 8090987
91.278336 -34.650021 -123.25612 9208957
93.167648 -34.461655 -123.01694 8089963
93.459068 -34.406132 -122.48715 7038307
94.876755 -34.308208 -123.118 7038307
95.259933 -34.234268 -122.40177 8485745
96.887939 -34.097179 -122.66609 7564643
97.170296 -34.04171 -122.12154 7564643
99.092598 -33.847107 -121.82312 7892583
100.75522 -33.70565 -122.06545 10853012
101.02763 -33.650314 -121.50616 10853012
102.70755 -33.506622 -121.73746 8945787
102.97514 -33.451378 -121.17072 7563619
104.67288 -33.30545 -121.39069 9340030
104.93507 -33.250309 -120.81672 9340030
106.65105 -33.102039 -121.02518 10853262
106.90812 -33.046993 -120.44375 6511954
108.55806 -32.914749 -120.83693 8879991
108.81036 -32.859753 -120.24804 8616563
110.56468 -32.706806 -120.43573 8616307
110.72935 -32.670174 -120.03823 9734531
112.58451 -32.496567 -120.01537 11182228
112.82568 -32.441814 -119.41174 11182228
114.56139 -32.30851 -119.80232 9340539
-72.460724 -52.089249 -148.6129 9734528
-71.624992 -51.999977 -148.70792 9734528
-70.581795 -51.888718 -148.82191 9208187
-69.540642 -51.777882 -148.9295 8484721
-68.708885 -51.689468 -149.01193 9011065
-66.666077 -51.528236 -147.85522 8682867
-65.642113 -51.420467 -147.94815 10460046
-64.630447 -51.321342 -148.05937 11381404
-63.825848 -51.245163 -148.15233 10460046
-61.452579 -51.046673 -147.01363 8616822
-60.658833 -50.971745 -147.09489 10063748
-59.667698 -50.878223 -147.19182 7367005
-58.677944 -50.784969 -147.2823 7498336
-57.887035 -50.710457 -147.35103 9208443
-55.802616 -50.539528 -146.17232 7169893
-54.63245 -50.429676 -146.25865 9472388
-53.658836 -50.338295 -146.32448 9011838
-52.686768 -50.247269 -146.3842 10459019
-51.910099 -50.174541 -146.42836 9867139
-49.723431 -49.994286 -145.24112 9273972
-48.766224 -49.904942 -145.28247 9076593
-47.810444 -49.815891 -145.31863 8089963
-46.855541 -49.726063 -145.34624 8089963
-46.091785 -49.653549 -145.36211 8813683
-45.519867 -49.599266 -145.37132 8551281
-44.948376 -49.544975 -145.37898 9011576
-42.862728 -49.371094 -144.1501 7564130
-41.923985 -49.282314 -144.15062 10129798
-40.799793 -49.176041 -144.14442 7695205
-39.864895 -49.087807 -144.13365 10984852
-38.931747 -48.999531 -144.11644 10326918
-37.805401 -48.882515 -144.05521 9275515
-36.865864 -48.781097 -143.98615 9210491
-35.928913 -48.679878 -143.91129 7564388
-34.807728 -48.558788 -143.81467 9537666
-34.061977 -48.478222 -143.74625 10261132
-27.176987 -47.730392 -141.71143 8617331
-26.274666 -47.632824 -141.58792 8617331
-25.734556 -47.574421 -141.51144 8814198
-25.016003 -47.496647 -141.40633 9734785
-24.120052 -47.399704 -141.27107 10129281
-23.227007 -47.303078 -141.13062 9471869
-22.158766 -47.187428 -140.95596 8945784
-21.271507 -47.09137 -140.80533 9208699
26.149973 -46.766914 -133.61606 7696747
27.122852 -46.792664 -133.50526 9143422
-15.977147 -46.521214 -140.98328 8747893
-15.102338 -46.426441 -140.79529 9011065
-14.23076 -46.331936 -140.60245 8353391
-13.188647 -46.218967 -140.36533 8813939
-12.150847 -46.106453 -140.12183 9208440
-11.117444 -45.994347 -139.87199 7761770
-10.088397 -45.882702 -139.61595 7564648
-9.2340631 -45.790051 -139.39795 7827304
-8.3830881 -45.697701 -139.17545 8682867
-7.5349741 -45.605595 -138.94893 10129542
20.522873 -45.623337 -134.472 7038302
21.336098 -45.644115 -134.41382 6510930
22.312904 -45.670845 -134.34297 6510930
23.274149 -45.851555 -134.17183 8551537
24.294781 -45.955235 -134.07069 8288109
25.220415 -46.079422 -133.96031 7103579
26.201584 -46.115841 -133.88855 7038557
27.235859 -46.109531 -133.77286 9406337
28.205044 -45.892761 -133.46376 9406591
29.048401 -45.697559 -133.17999 9932934
-7.0275717 -45.550552 -138.81111 10129542
-6.6867304 -45.493904 -138.65727 11576217
-4.2142706 -45.248352 -139.17795 10788500
-3.3747776 -45.157162 -138.92606 10261899
-2.3701332 -45.024689 -138.54626 9340286
-1.3687351 -44.834949 -137.98257 8747891
13.606202 -44.585991 -135.51791 10261644
14.41918 -44.596092 -135.4704 10393231
15.557837 -44.611485 -135.40047 11905694
16.519218 -44.76918 -135.21053 11510934
17.49507 -44.785385 -135.14456 10524039
18.4587 -44.956032 -134.97961 9603713
19.435104 -44.9758 -134.91032 8617592
20.412243 -44.997368 -134.83919 7169374
21.390141 -45.020702 -134.76622 6839895
22.368931 -45.045773 -134.69144 6905944
23.348631 -45.072647 -134.61485 8024681
24.329277 -45.101261 -134.53635 8353902
25.31123 -45.132072 -134.45724 7564642
26.250271 -45.204456 -134.36372 7564642
27.319609 -45.24004 -134.22012 8682868
28.311905 -45.158508 -133.85672 9998728
29.378689 -45.036987 -133.47778 9538176
30.43453 -44.754318 -133.41014 15131094
31.308121 -44.657784 -133.20146 10591636
32.285572 -44.670403 -132.72232 9867656
1.9318383 -44.521534 -138.18948 8090987
2.5858386 -44.389603 -137.77327 9012092
3.5621417 -44.222363 -137.2392 8418927
4.5412617 -44.166359 -137.04373 8089963
5.6085587 -44.0933 -137.07474 7958888
6.5078344 -43.991188 -137.01242 8090733
7.4855108 -43.960388 -136.87378 9011580
8.4614067 -43.929745 -136.72865 8617847
9.4358788 -43.900406 -136.58047 8617847
10.443601 -43.98378 -136.34218 8880248
11.378047 -44.019207 -136.24049 9209212
12.476306 -43.996021 -136.1846 8024426
13.598768 -44.078865 -136.12373 11051416
14.649148 -44.070469 -136.11212 10853781
15.58095 -44.182045 -136.03352 11708571
16.51885 -44.345837 -135.90402 13681847
17.574734 -44.438076 -135.77795 10524039
18.555479 -44.455235 -135.70804 10786699
31.629799 -44.497208 -133.49922 9407363
32.406719 -44.468166 -133.22626 10327950
33.399685 -44.332821 -133.14909 8618099
34.398754 -44.251244 -132.89603 8157548
35.348949 -44.013088 -132.82599 8748919
36.27483 -43.890633 -132.63588 10261899
37.222088 -43.977852 -132.21129 7234653
38.08326 -43.913105 -131.88229 6577237
38.77 -43.756882 -131.66139 8090987
35.764584 -43.207802 -133.11646 10064262
36.48843 -43.123737 -132.85143 8748404
37.303192 -43.147881 -132.50635 7958632
38.224228 -43.114655 -132.14014 7170660
39.109734 -43.043243 -131.80367 8223088
39.881062 -42.839436 -131.56639 10985619
37.442417 -42.348068 -132.76418 8946297
38.323616 -42.118214 -132.49173 11116950
39.245495 -42.087612 -132.12411 9933191
40.165958 -42.058994 -131.75633 10985105
41.051495 -41.938847 -131.43893 10524554
41.733143 -41.684082 -131.25856 12432037
38.718639 -41.465366 -132.67458 9209726
39.421829 -41.361958 -132.43382 10788242
40.334541 -41.187447 -132.15457 12038822
41.224113 -41.069031 -131.8407 10656140
42.138905 -41.038879 -131.45168 8551023
43.028446 -40.827389 -131.20271 7234653
43.87603 -40.68095 -130.93047 8287341
41.511887 -40.461617 -132.21194 9867397
42.274227 -40.434715 -131.87924 8156265
43.24506 -40.273872 -131.6564 7234653
44.224239 -40.131588 -131.32358 8879478
45.180347 -39.887367 -131.17859 11774625
46.117561 -39.695473 -130.99124 8617337
46.719543 -39.741753 -130.56345 10261903
46.499119 -39.218578 -131.4357 8617337
47.204391 -39.335258 -130.93584 9275009
48.173782 -39.175598 -130.68355 7630179
49.12804 -39.005108 -130.38603 6446161
50.090298 -38.842289 -130.10805 8156522
51.060146 -38.620144 -130.30486 8880247
51.718746 -38.529999 -129.6994 7563874
53.818333 -38.333847 -129.53967 7761253
56.837845 -38.332977 -129.75482 9011576
59.166805 -38.064384 -129.15402 8747893
60.983288 -37.861076 -129.02815 11182490
61.62112 -37.778893 -128.38731 11578273
63.061684 -37.623699 -128.62245 10262411
63.566975 -37.558323 -128.10075 8089963
64.8927 -37.417988 -128.4536 9537151
65.518623 -37.336773 -127.79046 14603206
66.980652 -37.178665 -127.99582 6183246
67.476166 -37.114079 -127.45644 5920074
68.825874 -36.970573 -127.78368 7367263
69.317108 -36.906281 -127.23569 8090986
70.800888 -36.745274 -127.41288 8748404
71.40818 -36.66547 -126.71692 7893352
72.782013 -36.518871 -127.0182 8485233
73.26284 -36.455505 -126.45271 7893352
74.768265 -36.291508 -126.5994 7433827
76.287811 -36.125824 -126.73891 8288621
76.760483 -36.062984 -126.15667 10064008
78.173431 -35.911457 -126.42832 9735043
78.524773 -35.86467 -125.98537 10327178
80.135117 -35.726105 -126.20454 9537150
80.589233 -35.659809 -125.59031 8550513
82.139954 -35.552624 -126.00885 10459278
82.588577 -35.486393 -125.38407 8354414
84.600151 -35.310898 -125.15607 8485744
86.623917 -35.133427 -124.90606 12432294
88.659935 -34.953846 -124.63389 8090987
90.68045 -34.7616 -124.30133 9867657
92.677399 -34.554539 -123.90033 11379868
94.294563 -34.419971 -124.1932 8814715
94.586617 -34.364037 -123.65553 7893615
96.50779 -34.171432 -123.39262 8354157
98.53537 -33.95808 -122.92727 8814707
100.3882 -33.779709 -122.81178 8089963
102.34769 -33.580582 -122.49358 9735046
104.14213 -33.416344 -122.53998 10261132
104.40849 -33.360806 -121.96513 9800581
106.21794 -33.19429 -121.99522 8946044
108.21851 -32.988422 -121.62301 10261641
110.23215 -32.78038 -121.23177 8221805
112.17789 -32.588367 -121.02293 9932419
114.16763 -32.40131 -120.82719 11182228
114.32593 -32.364067 -120.41702 11182228
-73.959236 -52.1922 -149.83656 8090987
-73.32502 -52.124317 -149.91013 8353647
-72.269394 -52.011646 -150.02789 9339771
-71.2155 -51.899372 -150.14006 8353135
-70.377853 -51.812748 -150.2336 8550257
-68.293564 -51.645477 -149.05153 8682867
-67.472466 -51.564056 -149.14664 8682867
-66.453552 -51.467415 -149.27458 9275004
-65.436081 -51.371029 -149.39584 8682867
-63.222874 -51.188065 -148.21964 7565675
-62.41975 -51.112156 -148.30548 8616822
-61.416946 -51.017448 -148.40797 9734788
-60.415516 -50.923 -148.5041 8287849
-59.615257 -50.847618 -148.57704 5920074
-57.491962 -50.673286 -147.38367 8484976
-57.097126 -50.636211 -147.41551 7761509
-56.505299 -50.580597 -147.4614 8484976
-55.520054 -50.488041 -147.53319 9011580
-54.536289 -50.395805 -147.59956 10459281
-53.750309 -50.322197 -147.6483 11972003
-51.522144 -50.13826 -146.4489 9867139
-50.747181 -50.065899 -146.48703 9998725
-49.586399 -49.957474 -146.53787 9210491
-48.620747 -49.867489 -146.57428 8617331
-47.656719 -49.777519 -146.60413 9274232
-46.69289 -49.686337 -146.6245 9866367
-44.567814 -49.508984 -145.38275 9932166
-43.807648 -49.436932 -145.38768 9011576
-42.669403 -49.329243 -145.38899 7037274
-41.722843 -49.239773 -145.38438 7037274
-40.778271 -49.150555 -145.37405 7037792
-39.647163 -49.043919 -145.35503 9011579
-38.70665 -48.955315 -145.3335 10984852
-37.955727 -48.884701 -145.31238 9078399
-33.689854 -48.437988 -143.71068 8090736
-32.946949 -48.357716 -143.63666 9537665
-31.835339 -48.237549 -143.5199 9011321
-30.911787 -48.137722 -143.41704 7300958
-29.990877 -48.038162 -143.30862 6511954
-28.889219 -47.919071 -143.17209 9011576
-27.791342 -47.800312 -143.02824 8748917
-26.879299 -47.701683 -142.90306 8880503
-26.15173 -47.622944 -142.79912 8090987
-25.607082 -47.56403 -142.71924 8814198
-24.882616 -47.485645 -142.60954 9537665
-23.979284 -47.387928 -142.46854 9537665
-23.078854 -47.290443 -142.32236 8813936
-22.002005 -47.17387 -142.14072 8617075
-20.929186 -47.05772 -141.95224 9537664
-20.038145 -46.961243 -141.79002 10261132
-19.150179 -46.865025 -141.62292 8879988
-18.088268 -46.750004 -141.41637 9471614
-17.030582 -46.63538 -141.20311 9274237
-12.95934 -46.19746 -141.50661 8683125
-11.91361 -46.084068 -141.25586 8485232
-11.045522 -45.989872 -141.04221 8682867
-10.180699 -45.896072 -140.8239 7169892
-9.1469107 -45.783867 -140.55647 7366499
-8.1176519 -45.672199 -140.28278 8485233
-7.433814 -45.597961 -140.09715 8682867
-6.9225245 -45.542408 -139.95598 8354675
-6.0727453 -45.450184 -139.71727 9538950
-5.0571585 -45.339874 -139.42551 9538950
-2.9016159 -45.109116 -139.96141 11314844
-2.0600841 -45.017662 -139.69846 10590608
-1.054467 -44.908356 -139.37773 11774108
-0.05362016 -44.799557 -139.05138 11774108
0.77692908 -44.709255 -138.77516 8090987
1.4383957 -44.620483 -138.49892 8617331
22.483305 -44.536598 -135.39629 7827046
23.466698 -44.560162 -135.31024 8879990
24.450581 -44.585033 -135.22101 7959144
25.43519 -44.611198 -135.12856 7169885
26.479197 -44.694492 -134.9053 6775126
27.300999 -44.748325 -134.74124 7761765
28.350079 -44.629128 -134.62508 10459022
29.289894 -44.589748 -134.30667 9932934
30.071396 -44.557995 -134.03935 13946820
3.9306967 -44.369595 -138.85745 10260358
4.7514153 -44.274963 -138.54155 9142392
5.3967295 -44.123875 -138.0489 7564386
7.8776188 -43.792191 -138.07915 8419955
8.6667576 -43.60004 -137.42941 7302245
9.6469316 -43.574478 -137.29036 9407106
10.791901 -43.55909 -137.16524 9011321
15.812711 -43.772316 -136.21713 11181969
16.69599 -43.930599 -136.15015 11971485
17.618034 -43.994556 -136.12544 10129281
18.65671 -43.907959 -136.16071 11246994
19.591431 -44.043896 -136.02689 9997955
20.5828 -44.078144 -135.99612 9406590
21.575006 -44.112972 -135.95984 7958889
22.512777 -44.205547 -135.98857 8945783
23.553524 -44.354923 -135.82066 8419183
24.541246 -44.379757 -135.73138 7169373
25.52965 -44.405846 -135.63882 7169885
26.353764 -44.428596 -135.55936 8090987
28.456444 -44.425564 -135.13934 10919829
29.399935 -44.386276 -134.81915 10327692
30.443361 -44.25462 -134.6521 11183513
31.352112 -44.041672 -134.48485 10262412
32.340755 -44.024178 -134.08131 9670018
33.403545 -43.808094 -133.85094 9012601
34.426319 -43.728462 -133.46127 7565667
35.117214 -43.56591 -133.24115 8618099
10.826905 -43.336456 -137.63643 9011321
11.785048 -43.410248 -137.20842 8747893
12.764766 -43.395218 -137.08035 9800837
13.743381 -43.380623 -136.94685 12959669
14.718802 -43.360264 -136.78798 9603973
15.697473 -43.353893 -136.66592 9143422
16.677763 -43.354137 -136.55775 9471865
17.661625 -43.365532 -136.47781 9866365
18.5758 -43.313068 -136.49229 10129025
19.656651 -43.266499 -136.4975 9735040
20.31781 -43.284756 -136.46469 10262155
31.740288 -43.390438 -134.70129 9209467
32.426327 -43.119518 -134.52591 8682356
33.321301 -42.982349 -134.21144 8354415
34.360435 -42.965843 -133.79004 8289134
35.390881 -42.818115 -133.42393 9077625
36.358723 -42.604343 -133.10954 10458505
33.534401 -42.308281 -134.38927 8813942
34.391769 -42.147533 -134.1369 10656397
35.345516 -41.952621 -133.86366 9143675
36.366398 -41.875023 -133.45883 10458762
37.344433 -41.715034 -133.12257 9209469
36.324875 -41.27219 -133.94308 7696744
37.279453 -41.080574 -133.66498 9143418
38.360687 -41.040298 -133.22667 9867398
39.32798 -40.822124 -132.99641 9473412
40.186584 -40.646942 -132.74609 15262936
39.651752 -40.29974 -133.51091 13683904
40.387169 -40.329453 -133.07011 13683904
41.276257 -40.15815 -132.85289 12433581
42.292156 -39.916203 -132.66888 9472382
43.233753 -39.762859 -132.38931 7695204
44.218613 -39.62513 -132.06853 9274236
45.029194 -39.542133 -131.76646 12432812
44.416271 -39.331024 -132.55878 10853012
45.132244 -39.263794 -132.07014 11511710
45.891605 -39.23769 -131.71619 9143422
47.482975 -39.012859 -131.71201 9406590
47.753918 -38.976494 -131.47758 9406590
53.442413 -38.736412 -131.28302 7761509
53.842861 -38.68552 -130.9214 6840151
55.521923 -38.500809 -130.98579 6510930
56.050278 -38.43351 -130.49406 8156011
57.091022 -38.315407 -130.33081 11512479
58.129078 -38.197357 -130.159 11709858
58.649677 -38.13068 -129.65707 9340286
60.082386 -37.976913 -129.92314 9340286
61.528599 -37.821507 -130.18288 10261132
62.042538 -37.755295 -129.66357 12630192
62.55389 -37.689308 -129.14339 13156536
64.008423 -37.53257 -129.37996 11840415
65.476677 -37.374207 -129.60994 8089963
65.980888 -37.308708 -129.07254 11182230
66.482567 -37.243481 -128.53467 12432037
67.958984 -37.083771 -128.74113 6183248
69.44928 -36.92244 -128.94102 5920074
69.94339 -36.857738 -128.38583 7367263
71.321808 -36.710995 -128.71121 8288365
71.93322 -36.630619 -128.00638 8419440
73.445717 -36.466316 -128.17561 8813942
73.929291 -36.402466 -127.60294 7564651
75.332512 -36.252499 -127.90196 12960183
75.811432 -36.189007 -127.3207 9802117
77.227516 -36.037437 -127.60854 8617075
77.701782 -35.974342 -127.01864 9340542
79.215729 -35.859306 -127.43129 9405046
79.676872 -35.792599 -126.81817 9931392
81.68718 -35.619274 -126.63309 8024425
83.597847 -35.460529 -126.58485 10459278
84.045662 -35.393856 -125.95016 8288621
85.855659 -35.249756 -126.0359 12695466
87.902557 -35.070202 -125.78225 9669504
88.228661 -35.020233 -125.29018 8682867
89.961655 -34.888557 -125.50624 12761775
90.277512 -34.836372 -124.99841 9867657
91.981773 -34.685532 -125.13786 9867657
92.281479 -34.629246 -124.60736 13550517
93.901505 -34.494953 -124.91057 9143422
95.930962 -34.283482 -124.48329 10327693
97.874825 -34.088581 -124.21706 9406843
98.159477 -34.032532 -123.66401 8814707
99.831093 -33.891571 -123.93242 9340541
101.80077 -33.692284 -123.62917 9010808
102.07545 -33.63633 -123.06112 9010808
103.78323 -33.490822 -123.30731 8617080
105.77937 -33.287113 -122.96658 9735046
107.78857 -33.081104 -122.60694 9735046
109.72678 -32.891441 -122.42767 8748405
111.76582 -32.680782 -122.03211 7038307
113.7674 -32.494778 -121.85374 10524555
114.00835 -32.438652 -121.23751 9932419
115.87563 -32.33049 -121.75237 9275004
116.11108 -32.274166 -121.12726 9340539
-74.204567 -52.160076 -151.22952 10458243
-73.140373 -52.048264 -151.35297 9208185
-72.30265 -51.967781 -151.47249 8681843
-69.345642 -51.714615 -150.37355 10195082
-68.31456 -51.616711 -150.50761 8090216
-67.284882 -51.519062 -150.63492 7038041
-64.419746 -51.274818 -149.51146 9999239
-63.404808 -51.178864 -149.62048 9407105
-62.188591 -51.064041 -149.74345 9340801
-61.176609 -50.968613 -149.83952 8681835
-59.215588 -50.809944 -148.612 7367005
-58.416809 -50.734818 -148.67867 8090473
-57.618916 -50.659832 -148.74219 8484976
-57.220276 -50.622345 -148.77235 7761509
-56.423943 -50.547619 -148.82954 7498596
-55.231094 -50.43576 -148.90887 9669251
-53.16151 -50.267017 -147.68256 13550517
-52.377354 -50.19368 -147.72462 9867139
-51.398457 -50.102234 -147.77255 8617843
-50.421345 -50.011044 -147.81444 10656141
-49.445755 -49.920025 -147.85109 10524555
-48.471851 -49.829353 -147.88177 8089963
-46.115192 -49.631542 -146.63335 10853012
-45.538189 -49.576797 -146.64006 9932166
-44.577969 -49.485786 -146.64685 9011576
-43.428047 -49.376949 -146.64795 8813937
-42.471809 -49.286594 -146.64311 8287592
-41.517609 -49.196537 -146.63264 7432545
-40.565201 -49.106724 -146.61713 7038307
-39.80476 -49.035107 -146.60072 7038307
-37.393246 -48.831799 -145.29445 7565675
-36.642757 -48.759071 -145.26012 8552049
-35.699081 -48.658688 -145.18387 8616823
-34.756748 -48.556862 -145.09705 9143166
-33.629242 -48.435043 -144.9859 9669509
-32.692371 -48.333775 -144.88777 8486006
-31.758282 -48.2328 -144.78395 10722453
-30.640839 -48.112003 -144.65282 9406590
-29.712345 -48.011623 -144.53799 8682867
-28.786833 -47.911541 -144.41772 8157039
-27.679655 -47.791759 -144.26697 9077372
-26.759895 -47.692291 -144.13591 9734788
-26.209459 -47.632668 -144.05489 9537665
-25.659931 -47.573238 -143.97188 9866630
-24.746506 -47.474392 -143.82959 9537665
-23.65399 -47.356171 -143.6525 10590088
-22.746567 -47.257923 -143.49976 10261123
-21.842236 -47.159992 -143.3418 9932417
-20.760662 -47.042862 -143.14621 9011576
-19.86249 -46.945618 -142.97813 8945783
-18.967411 -46.848671 -142.80502 9142646
-17.897097 -46.732689 -142.59131 9866113
-17.008375 -46.636395 -142.40819 9405560
-16.476542 -46.578751 -142.29626 9734788
-15.945848 -46.521255 -142.18228 9011065
-15.063899 -46.42564 -141.9888 8024170
-14.009421 -46.311317 -141.75095 7695720
-10.972375 -45.985313 -142.22954 9208443
-9.9262991 -45.871826 -141.96085 8222319
-8.884778 -45.75877 -141.68597 8287598
-7.8478441 -45.646248 -141.40491 9735812
-6.9871511 -45.55283 -141.16615 9735812
-6.1299391 -45.459736 -140.9229 10130571
-5.1054449 -45.348438 -140.62563 11906982
-4.0855684 -45.237717 -140.32245 9538432
-3.4081371 -45.164131 -140.11729 10262155
-1.9128597 -45.005039 -140.84674 11577503
-1.0680072 -44.913166 -140.57423 11051159
-0.058462918 -44.803417 -140.24216 12432295
0.94619673 -44.694195 -139.90431 10261899
1.7797406 -44.603603 -139.61867 10261899
2.2783234 -44.549324 -139.4455 11380380
2.9407437 -44.477253 -139.21196 9537659
4.2919264 -44.333614 -139.92221 9537659
4.9533443 -44.260525 -139.67392 8879989
5.9412231 -44.149632 -139.2921 8616819
6.9241257 -44.040989 -138.91034 8616819
9.2714796 -43.781921 -139.16176 7563619
9.7448015 -43.663113 -138.75327 9143678
22.696838 -43.778179 -136.19884 9406334
23.609371 -43.902985 -136.15176 8156011
24.612156 -43.950367 -136.13307 8222321
25.617123 -43.999874 -136.1136 8156782
26.657227 -43.94014 -136.09033 8419695
27.604134 -44.057022 -135.92453 8616307
28.591946 -43.890949 -135.79372 9603714
29.479445 -43.937447 -135.41551 9735555
30.383242 -43.876308 -135.06761 9801604
10.203916 -43.491611 -138.17563 10261132
12.836974 -43.092937 -137.89227 7695717
13.799636 -43.007469 -137.53038 9340286
14.875048 -42.927723 -137.65094 8946301
15.788667 -42.869461 -137.48708 11313816
16.77507 -42.870335 -137.38072 8420214
17.7582 -42.864895 -137.24698 9866881
18.739849 -42.85844 -137.10307 10129281
19.723042 -42.858101 -136.97159 9801347
20.735245 -42.97398 -136.75331 9209467
21.678009 -43.02565 -136.63092 9801348
22.674055 -43.056625 -136.57758 9866885
23.673649 -43.093441 -136.53549 8419183
24.674957 -43.132305 -136.49257 7893615
25.678791 -43.174431 -136.45261 8748924
26.682491 -43.215332 -136.40115 8419186
27.688622 -43.259148 -136.35178 9537664
28.715611 -43.085522 -136.06741 9340286
29.599445 -43.008644 -135.75449 9143162
30.520838 -43.120453 -135.31015 9143674
31.420998 -43.032555 -134.97423 9209467
32.26252 -42.700024 -134.75879 8813942
17.821951 -42.464577 -137.75537 9670535
18.812038 -42.469238 -137.64684 10063488
19.802212 -42.475571 -137.53641 9867398
20.627474 -42.48209 -137.44296 9209467
29.964386 -42.508083 -135.87268 8682867
30.612686 -42.320007 -135.72716 9340541
31.572107 -42.115055 -135.45135 9406334
32.503918 -42.063301 -135.06219 8484977
