# .PCD v0.7 - Point Cloud Data file format
VERSION 0.7
FIELDS x y z rgb
SIZE 4 4 4 4
TYPE F F F U
COUNT 1 1 1 1
WIDTH 1191
HEIGHT 1
VIEWPOINT 0 0 0 1 0 0 0
POINTS 1191
DATA ascii
-116.08478 -26.362623 113.04198 11050900
-116.53245 -26.742966 112.66163 9011576
-116.11681 -25.577541 113.34341 11248277
-116.79453 -25.813999 112.91257 10590347
-115.84135 -24.313835 113.98258 9933187
-116.29266 -24.734333 113.60391 10590603
-116.00332 -23.560486 114.21306 8946806
-116.61037 -23.831417 113.82052 13023917
-115.4866 -22.385962 114.91245 9341307
-116.06718 -22.671862 114.54112 8815220
-115.79288 -21.5716 115.10366 10195848
-116.41225 -21.842028 114.72136 9341307
-115.27334 -20.39632 115.80467 8682867
-115.85574 -20.680031 115.43342 9274748
-115.51943 -19.515387 116.04916 8945783
-116.00954 -19.836706 115.70362 8748148
-115.11137 -18.204992 116.75512 7564643
-115.56134 -18.672369 116.36871 8616562
-115.16591 -17.543638 116.99614 7104091
-115.76707 -17.701843 116.66696 7695460
-114.89202 -16.202976 117.65496 6511954
-115.48728 -16.675497 117.20226 6709333
-114.99704 -15.545593 117.94991 7696228
-115.57264 -15.697716 117.59272 8288365
-114.82852 -14.342044 119.15318 9011576
-115.18908 -14.874803 118.41051 9867398
-114.46331 -13.893013 120.64879 7761253
-115.01483 -13.908164 120.35638 8353646
-129.65466 -75.311317 54.835571 6906712
-129.79974 -75.301071 53.88662 7103579
-130.10226 -75.255196 52.913197 8287341
-129.37685 -74.595802 55.808846 7432801
-129.83607 -75.001541 55.250031 6314319
-130.39813 -75.209732 51.938515 9076857
-130.65796 -75.147736 50.951088 8156267
-130.87485 -75.065414 49.949043 10591121
-131.0643 -75.00502 49.118977 11380380
-131.25847 -74.950523 48.29232 8551538
-131.48538 -74.885399 47.299774 9538177
-131.70546 -74.820671 46.306683 10196106
-131.91876 -74.756271 45.313126 6775382
-132.12529 -74.692299 44.319145 9472636
-132.32509 -74.62867 43.324772 11314840
-132.51816 -74.565483 42.330017 9142907
-132.70436 -74.502602 41.33498 8089963
-132.88387 -74.440163 40.339699 7103324
-133.05667 -74.378082 39.344185 5919050
-133.22278 -74.316399 38.34848 5919050
-133.33003 -74.275536 37.684563 6445650
-128.75096 -73.550697 58.610756 8748662
-129.06598 -73.732643 58.068283 7761254
-129.1935 -73.945946 56.852577 7365984
-129.62796 -74.070221 56.268845 7234398
-133.37262 -74.225204 37.176754 6182222
-133.72771 -74.080589 36.408955 5919050
-133.92841 -73.952026 35.511684 7104096
-134.20288 -73.845154 34.46233 8485749
-134.28435 -73.757416 33.450603 9012091
-134.35904 -73.670097 32.439644 9472128
-134.80084 -73.567589 31.51687 8748661
-134.93279 -73.483597 30.588957 7301476
-135.28954 -73.378799 29.575197 11446178
-135.33354 -73.309364 28.731812 14604238
-128.85541 -72.727943 58.906281 8353906
-135.35936 -73.268707 28.226456 14604238
-135.39081 -73.214638 27.552963 9668995
-135.8125 -73.119392 26.61788 9142651
-136.03445 -73.038193 25.726261 8353135
-136.25481 -72.943932 24.664778 9537409
-136.27609 -72.864105 23.652704 9537409
-136.6723 -72.769249 22.705009 8616821
-136.87003 -72.688828 21.806622 11181971
-137.06161 -72.595512 20.738312 9471869
-137.07845 -72.529182 19.728479 8090987
-137.48383 -72.453049 18.773567 9143163
-137.80482 -72.336586 17.803646 9209212
-128.46407 -71.68457 59.600376 7301477
-129.06688 -71.928322 59.126465 7301220
-137.92265 -72.220352 16.72155 9209467
-138.12645 -72.123489 15.885816 10261644
-138.34467 -72.0037 14.831274 13353147
-138.55692 -71.884033 13.774023 7630186
-138.74371 -71.787621 12.932135 6840151
-138.82504 -71.673111 11.844307 8682867
-139.18405 -71.558472 10.929331 7959400
-139.38477 -71.448578 9.8645992 8880502
-139.49902 -71.365112 8.8598175 11051418
-140.07368 -71.321335 8.5573406 7564651
-128.72409 -70.76313 59.844215 7893356
-140.02547 -71.282555 8.0466385 9341059
-139.94131 -71.218163 7.1964679 9341059
-140.1514 -71.126038 6.1240058 12366760
-140.53049 -71.039177 5.1911864 8617072
-140.60582 -70.951553 4.091413 9406589
-140.90964 -70.876793 3.2509191 11446174
-140.97047 -70.790031 2.1484678 8880502
-141.33252 -70.704994 1.2001072 8945781
-141.50328 -70.615471 0.11085478 8352877
-141.60788 -70.524254 -0.79919463 7169635
-141.98738 -70.426689 -1.5993503 10261901
-141.83224 -70.355576 -2.2813017 8090736
-128.30725 -69.738632 60.545612 7564900
-128.97627 -69.858208 60.085564 8287857
-142.13307 -70.290924 -2.7999613 9735301
-142.34918 -70.190628 -3.6620429 7697005
-142.52042 -70.072327 -4.6980481 8815227
-142.68297 -69.95414 -5.7355809 9144191
-143.04063 -69.854866 -6.5559068 8485237
-143.03427 -69.734772 -7.6491876 12432295
-143.64935 -69.62011 -8.550211 12236458
-143.36255 -69.514809 -9.5734787 9867654
-144.0177 -69.416718 -10.314529 7367008
-128.0047 -68.515442 61.264137 8420208
-128.57372 -68.727539 60.824406 8617075
-143.81863 -69.346634 -10.997202 10984593
-143.93489 -69.278793 -11.587833 7037274
-144.26218 -69.177261 -12.430489 7958890
-144.37025 -69.055351 -13.49227 10196879
-144.46931 -68.933426 -14.55501 11972775
-145.10474 -68.83046 -15.325642 8288110
-144.94948 -68.707291 -16.458199 9011833
-145.27423 -68.585228 -17.470377 6841181
-145.57356 -68.48011 -18.337416 7368296
-145.59888 -68.392357 -19.112947 8354932
-128.08751 -67.690529 61.572662 9405822
-128.75682 -67.802849 61.114693 8682099
-145.41498 -68.33976 -19.623632 9736326
-145.84814 -68.25161 -20.308846 8748404
-145.98695 -68.128288 -21.37483 7103835
-146.26643 -68.022141 -22.255951 10195594
-146.54416 -67.915428 -23.142082 10655633
-146.69131 -67.803337 -24.223059 9801349
-147.04837 -67.712067 -25.283388 8354165
-147.02515 -67.630211 -26.253227 7564651
-147.34772 -67.552063 -27.165924 10064265
-147.66919 -67.473396 -28.084623 8879478
-147.69402 -67.40535 -28.888632 9735043
-127.77716 -66.478203 62.289169 11380380
-128.36375 -66.751411 61.811829 9931910
-147.48016 -67.35675 -29.400568 10129801
-148.09332 -67.255356 -30.265192 10918031
-148.3438 -67.149139 -31.186384 10391946
-148.22292 -67.039085 -32.156269 10655628
-148.8299 -66.935631 -33.039433 6775130
-148.69977 -66.825035 -34.014671 7169631
-148.93069 -66.7174 -34.949165 7498592
-149.44487 -66.592911 -36.020737 10654858
-149.38391 -66.500587 -36.832329 9340028
-149.78029 -66.429398 -37.440472 7169629
-127.85537 -65.658188 62.597664 9932937
-128.45216 -65.874916 62.138596 10064009
-149.51418 -66.372704 -37.948513 7761766
-150.01601 -66.246124 -39.038776 8288113
-149.65312 -66.170555 -39.715363 8090995
-150.21024 -66.071075 -40.832645 11379351
-150.70872 -65.967476 -42.140041 9537920
-150.35992 -65.905403 -42.8246 9340027
-151.0242 -65.831787 -43.801121 8682870
-151.60077 -65.741692 -44.959846 8813945
-151.23618 -65.679337 -45.64547 8156529
-151.80463 -65.588165 -46.816093 10064266
-151.42737 -65.524361 -47.499851 9011838
-152.14003 -65.446823 -48.327728 11906725
-127.53888 -64.457161 63.312973 8485494
-128.12721 -64.723221 62.8377 9472387
-128.6566 -65.143661 62.331406 8485494
-151.81885 -65.384949 -48.830307 10459281
-152.41443 -65.282143 -49.833088 9143675
-152.49385 -65.188988 -50.674175 9143675
-152.45667 -65.075111 -51.682514 8880502
-152.93338 -64.949181 -52.87281 7565675
-152.59386 -64.887253 -53.373581 7762277
-153.17769 -64.780838 -54.407009 7038558
-153.64607 -64.652603 -55.617409 9142647
-153.74075 -64.572472 -56.491486 11313557
-153.74695 -64.486755 -57.545986 10788502
-127.65476 -63.578674 63.623863 10525072
-128.2115 -63.852051 63.164665 10064522
-154.42097 -64.416695 -58.647682 8618105
-154.0844 -64.365868 -59.157722 8618105
-154.64127 -64.27774 -60.442009 7695979
-154.18291 -64.20977 -61.120941 7038307
-154.84764 -64.137398 -62.248669 9998214
-155.39665 -64.046944 -63.558693 8090987
-155.04005 -63.995655 -64.067734 11906725
-155.70271 -63.921051 -65.22094 9735811
-155.21776 -63.852516 -65.898674 10262412
-156.1226 -63.811111 -66.726662 9735297
-127.29111 -62.451904 64.335785 10787727
-127.88092 -62.711002 63.862556 10130056
-128.41258 -63.123909 63.358166 9143675
-127.49113 -61.563057 64.599655 8221805
-127.94141 -61.968925 64.148003 9274749
-127.38738 -60.326767 65.40963 7958377
-127.73024 -60.782787 64.843262 8484977
-127.2322 -59.399754 66.568207 10919055
-127.55856 -59.831718 65.755196 7760998
-124.7898 -58.4347 77.220711 12301478
-125.15446 -58.75211 76.533363 11905692
-125.19839 -58.888523 75.487587 11905692
-125.74024 -58.89072 74.580841 7893867
-125.73806 -58.892475 73.560638 7565675
-125.72852 -58.894226 72.541924 10460307
-126.24904 -58.896404 71.631454 10723220
-126.67799 -58.898216 70.869942 9209467
-126.20298 -58.899834 69.610161 8222572
-126.71091 -58.90596 68.70092 9406589
-126.9933 -59.074703 67.750465 9340284
-124.38999 -57.432343 77.885529 7564651
-124.99819 -57.661179 77.430931 9604485
-124.54218 -56.617184 78.145782 7828591
-125.0537 -56.793201 77.776154 8092019
-124.72755 -55.625912 78.458237 7960177
-125.23038 -56.058441 77.988846 8092019
-124.3287 -54.578442 79.095879 8814459
-124.79366 -54.823948 78.760345 7564651
-124.53801 -53.667446 79.36702 9011581
-124.12852 -52.592354 80.017525 8090737
-124.58226 -52.869003 79.674751 12958639
-123.71596 -51.185307 80.80677 8090987
-124.27873 -51.668507 80.323723 9340540
-124.84187 -52.154591 79.839287 14076861
-123.81429 -50.570965 81.011162 8288624
-124.43169 -50.631504 80.675346 9275777
-124.01188 -49.679638 81.280075 8354933
-123.8083 -48.361881 81.927223 8617335
-124.16499 -48.738224 81.592087 7565675
-123.86164 -47.696453 82.1754 9471359
-123.45483 -46.511959 82.869728 7695204
-124.08869 -46.763252 82.446754 10392461
-123.72398 -45.537155 83.248459 8616306
-124.11127 -45.958279 82.768036 9734531
-123.57742 -44.183681 85.012459 10984852
-123.47434 -44.607635 84.2145 9011575
-123.8027 -45.018612 83.640709 8288622
-121.101 -43.173977 94.52552 9735812
-121.3354 -43.563919 94.106255 8879993
-121.606 -43.854012 93.050507 7630442
-122.16404 -43.85593 92.31662 7826275
-121.57741 -43.857979 90.728897 10063235
-122.01267 -43.859501 90.141945 10918030
-122.66061 -43.86179 89.257988 11313304
-122.58569 -43.865646 86.965446 8092011
-123.15973 -43.950218 86.041878 8946297
-123.15148 -44.14045 85.376381 9735555
-120.96606 -42.647007 94.809929 7104095
-121.63124 -42.666798 94.467476 9011065
-120.63604 -41.20583 95.567978 8287859
-121.16389 -41.699604 95.099823 7958895
-120.8419 -40.562172 95.729057 8879995
-121.3811 -40.785351 95.366364 9537667
-120.51748 -39.284325 96.417191 9537150
-120.97588 -39.76086 95.99102 9537409
-120.66314 -38.537621 96.650864 8089963
-121.16471 -38.688999 96.336586 9537151
-120.66511 -37.665707 97.008156 8879477
-120.37093 -36.472282 97.646614 12102560
-120.93585 -36.811119 97.223579 10195335
-120.56488 -35.66605 97.881912 11444887
-120.08565 -34.570091 98.574562 10129030
-120.6792 -34.723446 98.213715 10129030
-120.3631 -33.590763 98.839706 8681843
-119.9725 -32.495384 99.487686 7563619
-120.37099 -32.785805 99.16803 8681843
-120.06397 -31.565962 99.825462 9274493
-120.66173 -31.85743 99.405388 8747892
-119.90221 -30.469353 100.48418 10130058
-120.28272 -30.776516 100.06641 9274493
-119.50665 -29.470448 101.5463 9209470
-119.91219 -29.81526 101.03294 11379868
-117.5386 -28.418652 111.46856 9275261
-118.21232 -28.660013 111.03201 8090987
-117.83321 -28.821466 109.3486 10985623
-118.4892 -28.823463 108.63702 10262414
-118.86063 -28.830452 104.83533 10985110
-119.48973 -28.832426 104.11787 10524816
-119.36768 -29.058565 102.75433 10064521
-120.00911 -29.095663 102.30437 10853012
-117.08517 -27.406223 112.1121 9340539
-117.67545 -27.67964 111.70408 9275261
-117.33672 -26.521582 112.35012 8419695
-117.84062 -26.927889 111.93072 9801604
-116.90411 -25.426149 113.01733 9340539
-117.49647 -25.697189 112.60931 9077367
-117.09926 -24.5161 113.29408 10787726
-117.61819 -24.874538 112.88685 9932675
-117.21498 -23.665932 113.58593 11182228
-116.81367 -22.576178 114.23516 10064517
-117.37048 -22.782719 113.87144 9472380
-117.02748 -21.674789 114.49657 9406075
-116.60854 -20.462376 115.1879 9668992
-117.07372 -20.842659 114.81579 9734526
-116.72648 -19.632265 115.46865 9405823
-117.33897 -19.899706 115.07331 10853004
-116.35018 -18.392082 116.13233 7563619
-116.81524 -18.812176 115.75828 7760998
-116.51286 -17.627104 116.3672 7695205
-117.13879 -17.894197 115.98341 7563619
-116.23506 -16.254963 117.04028 8288365
-116.60085 -16.803587 116.65855 7366496
-116.33504 -15.62077 117.30849 9341053
-116.92423 -15.88049 116.8858 9537664
-115.54843 -14.267311 118.89326 9011576
-116.17199 -14.544443 118.29409 10722194
-116.4979 -14.946158 117.77294 10919573
-115.56721 -13.923518 120.06316 7761253
-116.12038 -13.938975 119.76888 8089963
-130.52106 -75.269806 54.185612 7629669
-130.72456 -75.239075 53.533119 8287856
-130.63795 -74.628006 55.156563 6181966
-131.19604 -75.171387 54.279823 8682355
-131.1012 -75.208054 53.196434 8879735
-131.12184 -75.178017 52.226257 10655885
-131.37437 -75.111137 51.23 8749177
-131.59793 -75.031967 50.224537 9012606
-131.83524 -74.964989 49.22654 7236451
-132.06728 -74.899277 48.228592 7959401
-132.29253 -74.833939 47.230057 11446174
-132.51094 -74.768974 46.231087 9867396
-132.72253 -74.704414 45.231644 5920074
-132.89377 -74.650856 44.398457 7235933
-133.06001 -74.597687 43.56501 10459277
-133.25346 -74.534103 42.564507 10590865
-133.44008 -74.47094 41.563766 8418928
-133.61996 -74.408173 40.562805 7367008
-133.79309 -74.345779 39.561554 5919050
-134.13155 -74.280754 38.697487 5919050
-129.9863 -73.612251 57.817608 7629412
-130.29523 -73.720825 57.205536 7168605
-130.52812 -73.972137 56.037411 7695205
-130.75645 -74.099625 55.576775 6642517
-134.7296 -74.240547 38.605759 6511443
-134.44041 -74.178001 37.648499 6314064
-134.80112 -74.010216 36.700665 6445650
-134.86418 -73.903831 35.672787 7169634
-134.95187 -73.815125 34.654346 8025200
-135.34001 -73.708679 33.643608 8222320
-135.48427 -73.623535 32.710876 9209212
-135.92842 -73.520187 31.780066 9735812
-135.98883 -73.433083 30.759254 7564651
-136.04811 -73.349403 29.740772 9077889
-136.08562 -73.294724 29.062544 9867404
-129.50847 -72.569839 58.577209 8419440
-130.11699 -72.708473 58.145752 7629412
-136.37003 -73.239708 28.550943 10327182
-136.53429 -73.17141 27.78528 10524304
-136.9583 -73.075378 26.842033 9932166
-136.99228 -72.994278 25.822006 8221549
-137.01952 -72.913628 24.802925 10261388
-137.42529 -72.817963 23.851795 8353647
-137.82359 -72.722321 22.895887 9405819
-137.82991 -72.642593 21.874504 9471872
-137.83211 -72.564621 20.854691 8814199
-138.26814 -72.498665 19.89942 9471358
-138.62961 -72.397675 18.929684 8484976
-138.57877 -72.314789 18.073103 9209467
-129.64536 -71.66748 58.887749 7169634
-130.31174 -71.702576 58.466225 7365985
-138.5462 -72.265236 17.559858 9209467
-138.96555 -72.182556 17.000698 12236201
-139.19208 -72.061691 15.940376 14077638
-139.10976 -71.963593 14.913132 13353147
-139.62944 -71.867996 14.288422 11905959
-139.72762 -71.7603 13.278673 6182222
-139.86731 -71.633278 12.102716 7432544
-140.30264 -71.5299 11.289282 8288365
-140.22188 -71.451172 10.263266 8288365
-140.63037 -71.36393 9.3395786 8485745
-129.30487 -70.489922 59.609451 9734788
-129.93533 -70.678558 59.142754 7235685
-140.85547 -71.271049 8.2645454 7564651
-140.94981 -71.180595 7.1626906 8419959
-141.26846 -71.103394 6.3260112 10787985
-141.34781 -71.01358 5.2212787 9472380
-141.51683 -70.93821 4.3169684 10393225
-141.96831 -70.862755 3.5322568 11249051
-141.81375 -70.775749 2.3321512 8288365
-142.52536 -70.686729 1.4851204 8418925
-142.3786 -70.612511 0.45449606 7958120
-142.63332 -70.520859 -0.57616264 8747892
-142.82913 -70.404289 -1.6088756 8946556
-129.43706 -69.593185 59.920349 7761772
-130.06874 -69.778946 59.453941 7038307
-143.21054 -70.305573 -2.4187853 8946556
-143.2346 -70.184723 -3.5120852 7893356
-143.56459 -70.067551 -4.5014501 7564392
-143.61722 -69.964439 -5.4266248 7893356
-144.01366 -69.847618 -6.3978028 7696234
-143.92995 -69.725906 -7.5233445 10655888
-144.59933 -69.628258 -8.2571831 9143675
-144.50223 -69.506363 -9.3877468 8683380
-144.92558 -69.405861 -10.204163 7300958
-129.08928 -68.427086 60.640175 7037274
-129.67897 -68.710579 60.15654 7038307
-130.20761 -69.150024 59.642342 7038307
-144.77536 -69.352982 -10.719538 7037274
-144.89413 -69.284637 -11.313747 8352876
-145.22672 -69.182526 -12.161209 8813941
-145.33827 -69.059784 -13.22958 9604999
-145.4407 -68.937019 -14.299021 8684155
-146.08453 -68.833443 -15.073338 8288110
-145.9301 -68.709389 -16.21353 9143419
-146.26064 -68.58651 -17.231594 8683127
-146.56512 -68.480705 -18.103664 8157555
-146.59239 -68.39238 -18.884214 8420727
-129.28046 -67.606209 60.880005 8287341
-129.77335 -67.825188 60.483521 8156013
-146.40767 -68.33934 -19.398611 7565675
-146.84706 -68.250618 -20.087387 9208443
-146.98996 -68.126465 -21.160032 7367007
-147.27451 -68.0196 -22.046402 9537664
-147.56531 -67.91584 -22.939045 9538179
-147.54021 -67.826973 -23.906538 9866885
-148.10974 -67.724457 -25.098555 10919830
-148.08891 -67.641922 -26.075073 8354165
-148.41766 -67.563286 -26.993542 10590865
-148.56512 -67.482307 -27.946348 10129801
-148.77267 -67.415649 -28.727573 10129801
-128.86137 -66.380547 61.668804 7037274
-129.48453 -66.772346 61.117538 7958376
-148.56439 -67.369537 -29.244656 10129801
-148.98029 -67.301636 -29.824076 9471100
-148.94814 -67.210228 -30.62682 9734015
-149.4046 -67.06897 -31.847462 10721163
-149.85654 -66.926567 -33.077965 7695970
-149.52211 -66.850304 -33.760452 8024682
-150.047 -66.725952 -34.829784 8484973
-150.28143 -66.616989 -35.77589 8484973
-150.22058 -66.524345 -36.590694 9142648
-150.91362 -66.436043 -37.337555 9734788
-129.18753 -65.567589 61.822609 8813685
-129.57951 -66.050262 61.37326 8287341
-150.64589 -66.378868 -37.84951 7761766
-150.76701 -66.286644 -38.653675 8222321
-150.80328 -66.180504 -39.631622 9143423
-151.48334 -66.10762 -40.591335 9143423
-151.36786 -66.020897 -41.604687 9011835
-151.6436 -65.940872 -42.598133 9537920
-152.23193 -65.851204 -43.754013 9537920
-151.87227 -65.788567 -44.443878 7038307
-152.45245 -65.697739 -45.611855 9011579
-152.08342 -65.635063 -46.301048 9734788
-152.65082 -65.541107 -47.479588 9735560
-153.38857 -65.468666 -48.317581 7038307
-128.78149 -64.39212 62.581619 10261899
-129.37744 -64.718323 62.075508 9340281
-153.1731 -65.427094 -48.655571 9011838
-152.84871 -65.364883 -49.161282 10459281
-153.34177 -65.240524 -50.340431 7696228
-153.83279 -65.115074 -51.529804 11906725
-153.69666 -65.017433 -52.378208 7565675
-153.86554 -64.90519 -53.402248 7565675
-154.34474 -64.777191 -54.612091 10195594
-153.996 -64.714806 -55.115669 9208443
-154.62292 -64.622002 -56.181366 11577245
-155.20018 -64.535629 -57.451141 10195594
-154.75586 -64.467644 -58.135902 8618105
-128.99611 -63.665054 62.766327 10525328
-129.46976 -63.984707 62.337822 10524811
-155.32419 -64.379913 -59.418663 8749177
-156.00716 -64.308319 -60.542858 9011579
-155.54512 -64.239853 -61.227219 9011579
-156.22368 -64.167007 -62.364948 9341054
-155.87019 -64.115479 -62.877594 8683124
-156.42569 -64.024246 -64.199097 8880503
-156.61359 -63.880142 -66.045906 9735297
-157.2859 -63.803928 -67.223434 9735297
-128.54016 -62.507561 63.547958 10985622
-129.15704 -62.757107 63.062393 10525328
-128.74536 -61.652069 63.794239 8946040
-129.29095 -61.788326 63.401463 8814453
-128.36699 -60.545078 64.61618 10459279
-128.90639 -60.760757 64.148376 9669507
-128.2092 -59.432594 65.861877 8156012
-128.67705 -59.824306 65.078041 9801092
-126.04485 -58.525757 76.410789 9867911
-126.37806 -58.781731 75.866562 10065803
-126.82567 -58.891598 74.811913 7630699
-126.36427 -58.893284 73.51815 7565675
-126.80422 -58.895119 72.755684 13354427
-127.32632 -58.897312 71.83744 11905695
-127.48197 -58.899197 70.850197 8551023
-127.2704 -58.900761 69.799271 7762021
-127.77111 -58.902935 68.877693 9142905
-128.04578 -58.956329 67.757828 9932163
-128.30377 -59.11919 66.790848 10721676
-128.77272 -59.188641 66.248604 9406590
-125.48027 -57.258415 77.311104 10065291
-126.05048 -57.753719 76.744698 10197132
-125.82288 -56.617519 77.380959 9078655
-126.42333 -56.763439 76.948692 10394255
-125.42239 -55.518417 78.107063 11052184
-125.90482 -55.799286 77.688271 10065291
-125.58295 -54.589336 78.414528 10722963
-126.11026 -54.780392 78.007446 13025456
-125.14447 -53.35957 79.189018 9735302
-125.66932 -53.729607 78.736687 8222578
-125.43951 -52.53973 79.373344 10590349
-125.86991 -52.981651 78.941063 7564643
-125.5296 -51.661797 79.692741 11182228
-125.13191 -50.627872 80.324295 10788242
-125.7119 -50.788059 79.966118 9932419
-124.70485 -49.464195 81.020226 10065035
-125.3662 -49.689976 80.594009 9012605
-124.84872 -48.653946 81.282692 8025969
-125.4 -48.825577 80.934265 7828847
-125.05664 -47.664925 81.5868 8815226
-124.75765 -46.566769 82.191216 9933192
-125.18242 -46.762909 81.896278 11249052
-124.51847 -45.299892 83.037773 10065291
-124.84602 -45.748295 82.534889 10460048
-124.42927 -44.271412 84.280457 10656401
-124.69016 -44.68084 83.512573 8749691
-125.08988 -45.030552 82.983505 10065291
-122.0982 -43.493839 93.892982 8616307
-122.62873 -43.562946 93.597984 8287342
-122.49673 -43.857086 91.874718 8088931
-122.93751 -43.858624 91.283379 9273721
-123.48485 -43.860542 90.541527 9536894
-123.30212 -43.864071 88.369286 10261131
-123.93725 -43.866352 87.476028 12366504
-124.35728 -43.867878 86.878136 7038307
-124.16072 -43.987041 85.412979 11642780
-124.73215 -44.045292 84.924034 13023917
-122.39833 -42.572117 94.120964 9011065
-121.89062 -41.485359 94.822662 8287859
-122.37865 -41.7244 94.479195 9142652
-122.05067 -40.555302 95.124428 9340288
-122.58294 -40.866062 94.729271 8287859
-121.57877 -39.405376 95.834175 9537667
-122.14702 -39.701118 95.42704 10326669
-121.87498 -38.625313 96.005814 10589837
-122.46853 -38.932354 95.58136 11905692
-121.39964 -37.663425 96.639961 9339771
-122.05267 -37.59803 96.33889 10655371
-121.67526 -36.608864 96.93602 9340283
-122.05225 -36.776672 96.677773 9340283
-121.27522 -35.164894 97.732643 10984081
-121.78638 -35.684574 97.261833 9734784
-121.45202 -34.60865 97.873604 10523787
-121.98941 -34.661983 97.58213 11904668
-120.96874 -33.223431 98.68766 8681843
-121.50824 -33.705063 98.218391 10655373
-121.27523 -32.486729 98.838135 10129287
-121.72334 -32.783623 98.490845 12892331
-120.83675 -31.299385 99.547997 10260875
-121.33551 -31.726355 99.121773 9734787
-120.97253 -30.434959 99.984009 9866117
-121.48684 -30.847853 99.429245 9866374
-120.81143 -29.142927 101.73898 9143163
-120.81792 -29.517633 100.91935 9471616
-121.41396 -29.73835 100.34693 9471616
-118.81684 -28.503347 110.79388 11052184
-119.27099 -28.825861 107.77813 9999241
-119.91779 -28.827862 107.0582 9538432
-119.86509 -28.833609 103.68559 10853012
-120.53095 -28.84605 102.99924 9998215
-120.32999 -29.114527 102.07858 9209467
-118.36343 -27.486885 111.43895 12039079
-118.93732 -27.655357 111.08245 12368044
-118.52367 -26.650518 111.7029 12565679
-119.13749 -26.745234 111.35659 12039079
-118.24172 -25.305786 112.39733 9340539
-118.63903 -25.659031 112.05303 9670018
-118.32291 -24.58444 112.6534 9932675
-118.96119 -24.753057 112.26458 9143934
-117.87652 -23.304771 113.40339 7828331
-118.43702 -23.589764 113.00553 10327435
-118.0983 -22.52235 113.61423 9340542
-118.78151 -22.756477 113.17591 12432037
-117.69193 -21.309473 114.31664 9010806
-118.25439 -21.592531 113.91867 9866369
-117.91328 -20.523521 114.52923 9602941
-118.59868 -20.754978 114.09095 9931905
-117.50426 -19.308674 115.23377 9010807
-118.06864 -19.58987 114.83556 9142391
-117.66222 -18.476234 115.4972 8682100
-118.22697 -18.739941 115.10602 8089963
-117.80131 -17.570747 115.79848 8814199
-117.34173 -16.619829 116.40469 8090734
-117.90693 -16.521261 116.17902 8354163
-117.31749 -15.106176 117.27677 9537664
-117.6018 -15.623294 116.75614 8748663
-117.01669 -14.310194 118.106 11380380
-117.35789 -14.63521 117.6551 10459022
-115.39271 -13.791255 125.20306 15197142
-115.99416 -13.792921 124.64565 15197142
-116.85927 -13.959871 119.37504 8813685
-117.41425 -13.975781 119.07868 8681843
-131.33089 -74.462234 54.890709 7366240
-131.92654 -74.716949 54.441132 7103583
-132.20511 -75.152634 53.396362 9143163
-132.26147 -75.118141 52.494587 7498598
-132.50513 -75.045807 51.486019 9341314
-132.746 -74.976189 50.478477 9341314
-132.88689 -74.919281 49.545444 9933192
-133.17857 -74.85453 48.633751 8156779
-133.40466 -74.788712 47.626503 8551538
-133.6239 -74.723228 46.618774 7564899
-133.83624 -74.658157 45.610573 5919050
-134.04172 -74.593491 44.602013 8091498
-134.24036 -74.52919 43.593086 10985109
-134.43213 -74.465263 42.583851 10261387
-134.67987 -74.402718 41.664513 7630184
-134.76593 -74.349113 40.732418 6642517
-134.84669 -74.295891 39.801712 6445394
-131.01726 -73.656471 57.18309 7168861
-131.53952 -73.70974 56.595966 7103068
-131.67671 -73.999886 55.332237 6313808
-135.39691 -74.238525 39.326565 7366240
-135.47885 -74.207298 38.820118 6182734
-135.52594 -74.108749 37.951923 7169884
-135.53619 -73.969215 36.900414 6511954
-135.62 -73.873947 35.872402 7038298
-136.08823 -73.769501 34.945683 8288365
-136.35239 -73.680191 34.051743 8354158
-136.62239 -73.576393 32.985218 9735812
-136.68913 -73.48848 31.957584 8946296
-136.75497 -73.404091 30.932249 7893358
-137.00972 -73.314163 29.950573 8090736
-131.23773 -72.702751 57.465065 6708056
-137.60945 -73.26516 29.734159 7893358
-137.33121 -73.227028 29.05127 9932167
-137.69102 -73.127609 28.020271 10853012
-137.73103 -73.04567 26.993254 10195338
-137.76427 -72.964134 25.967245 7696229
-138.17976 -72.867683 25.012589 8617331
-138.58777 -72.771233 24.053219 8354160
-138.60005 -72.690681 23.024658 8879733
-138.80122 -72.595787 21.942286 8682354
-139.02196 -72.528442 21.034376 8484719
-139.453 -72.45787 20.069674 7892583
-139.4006 -72.359528 19.034733 8287340
-130.90105 -71.646759 58.131355 7234914
-131.48453 -71.826805 57.697044 7038307
-139.53163 -72.249893 18.026203 9209211
-140.06703 -72.154076 17.4095 15197142
-139.99181 -72.054718 16.373581 13552062
-140.2159 -71.933121 15.304586 12762546
-140.59927 -71.816704 14.387453 10788500
-140.69041 -71.70002 13.284071 6445394
-141.00523 -71.602676 12.457277 7498337
-141.1203 -71.506454 11.354904 7893614
-141.23764 -71.415108 10.251585 7038301
-141.78902 -71.338097 9.5194778 7565159
-131.10832 -70.717888 58.410168 9998732
-141.74219 -71.298729 9.0018616 8092011
-141.67691 -71.246475 8.3125706 7564651
-141.8615 -71.168556 7.4088969 8288883
-142.32756 -71.090904 6.6313376 8420206
-142.21219 -71.013298 5.5961928 8617072
-142.60088 -70.927162 4.6479926 7104090
-142.79887 -70.836357 3.55282 6511954
-142.99088 -70.74556 2.4544637 6511954
-143.3602 -70.659325 1.4937035 8352877
-143.2117 -70.584709 0.45701757 7563619
-143.73877 -70.513908 -0.23396525 11049359
-143.75719 -70.417732 -1.2730163 7960175
-143.59987 -70.345818 -1.9637893 8486262
-130.75388 -69.662865 59.085609 8814713
-131.40724 -69.70517 58.667763 9209217
-144.37567 -70.286713 -2.3222792 7499625
-144.12914 -70.178726 -3.3604643 8222321
-144.50578 -70.078796 -4.1825147 7169891
-144.51662 -69.957138 -5.2861867 8616822
-145.15627 -69.84201 -6.1854138 7564648
-144.88089 -69.734879 -7.223105 7564648
-145.51094 -69.618805 -8.1333275 8419696
-145.49492 -69.49675 -9.2468643 9275005
-145.84221 -69.395012 -10.092115 5525066
-130.34586 -68.521996 59.830826 8222577
-131.0361 -68.722275 59.321754 8814713
-145.86298 -69.290634 -11.03594 9407106
-146.14769 -69.169975 -12.06094 8092018
-146.4256 -69.047203 -13.091217 9407107
-146.42189 -68.940857 -14.039328 9473413
-146.96008 -68.800636 -15.163626 8814454
-146.94585 -68.693962 -16.117266 7366752
-147.25711 -68.587967 -16.989351 11577760
-147.39906 -68.481293 -17.906588 11183260
-147.59613 -68.39241 -18.652056 8420727
-130.56583 -67.651306 60.074577 8156785
-131.11316 -67.807503 59.672131 8748663
-147.41068 -68.339027 -19.170145 7565675
-147.85637 -68.249756 -19.862635 10458767
-148.00328 -68.124741 -20.942049 9208443
-148.29297 -68.017166 -21.833651 9012093
-148.43793 -67.92234 -22.769814 9736329
-148.6035 -67.840187 -23.711475 8092019
-148.97667 -67.748291 -24.784542 8881021
-148.86728 -67.664421 -25.780628 11643552
-149.49936 -67.574753 -26.818258 10656916
-149.46939 -67.491432 -27.805407 11117209
-149.86333 -67.42614 -28.563744 9405822
-130.20091 -66.5522 60.775284 8287341
-130.6844 -66.819855 60.363388 8288113
-149.66058 -67.382553 -29.08597 8681843
-149.89821 -67.312141 -29.695168 11180946
-149.97203 -67.203056 -30.64889 10918031
-150.59998 -67.099274 -31.533739 7629922
-150.47974 -66.987434 -32.519402 7104090
-150.64154 -66.859863 -33.63163 9274487
-151.17592 -66.73465 -34.70805 8485229
-151.22575 -66.623558 -35.68029 7761763
-151.26819 -66.512489 -36.652626 8156008
-152.06009 -66.44281 -37.232529 8813680
-130.33475 -65.596939 61.108482 7234653
-130.92683 -65.858604 60.632843 7826789
-151.79066 -66.385178 -37.748425 7695461
-151.72902 -66.293839 -38.575356 7433060
-151.99214 -66.201469 -39.552635 8090995
-152.59996 -66.113258 -40.693428 9735302
-152.25465 -66.050392 -41.38813 12170154
-152.85458 -65.961121 -42.541061 10327949
-152.49991 -65.898262 -43.235172 9537920
-153.18286 -65.823578 -44.226791 8353392
-153.25159 -65.73848 -45.248871 10984852
-153.31221 -65.653252 -46.27145 7695979
-153.896 -65.560684 -47.460487 7038307
-154.01962 -65.479599 -48.313038 8814715
-129.96434 -64.508888 61.807686 8353130
-130.44934 -64.770325 61.397614 8024166
-153.99974 -65.365456 -49.326462 7301731
-154.50153 -65.240211 -50.514954 6775130
-154.16776 -65.177536 -51.023293 6511954
-154.77492 -65.071968 -52.052414 7565675
-155.26868 -64.944298 -53.26123 12499119
-155.12521 -64.845528 -54.118782 8749177
-155.29175 -64.731651 -55.15731 11182745
-155.97145 -64.654968 -56.246178 11182745
-155.64188 -64.60376 -56.763611 10195594
-156.22571 -64.516655 -58.044327 9208443
-130.08519 -63.622337 62.119015 9076853
-130.68729 -63.813541 61.667847 7432031
-155.77654 -64.448227 -58.733185 9208443
-156.46616 -64.376968 -59.855125 8813941
-157.04279 -64.287544 -61.161995 8089963
-156.57564 -64.218582 -61.850426 9011579
-157.26224 -64.145126 -62.998699 10525329
-156.90482 -64.093292 -63.514378 10591121
-157.46712 -64.001297 -64.847633 11708829
-158.02916 -63.90823 -66.19474 11905951
-157.65811 -63.85603 -66.709839 10787728
-158.46437 -63.796577 -67.726654 8681843
-129.71802 -62.481735 62.839096 10261899
-130.19591 -62.800186 62.408566 9735040
-130.07228 -61.594322 63.008102 9735814
-130.41179 -62.071419 62.593208 9537661
-129.61977 -60.438377 63.946945 7959406
-129.97678 -60.859928 63.411804 8288115
-129.12462 -59.241707 65.840706 6511954
-129.55713 -59.516129 64.951965 8156523
-130.00549 -59.836323 64.265656 7564650
-127.14353 -58.51125 75.742912 8026225
-127.77947 -58.739491 75.235512 9669511
-127.36263 -58.89381 73.893417 8617081
-127.89293 -58.896027 72.971107 11313821
-128.41653 -58.898235 72.044937 10063747
-128.01236 -58.900238 70.607338 6510930
-128.35052 -58.901699 69.98967 8616304
-128.8526 -58.903889 69.060272 9932163
-129.34796 -58.906078 68.127327 8155755
-128.85216 -58.952679 67.075653 8156012
-129.55902 -59.057484 66.258347 7959144
-126.75474 -57.503635 76.421913 10065803
-127.33892 -57.666321 75.992226 8618361
-126.91405 -56.68317 76.682648 10855061
-127.48808 -56.741699 76.304787 9605253
-126.44489 -55.51445 77.481354 10065291
-127.13823 -55.682331 76.982491 10525842
-126.74097 -54.689064 77.660347 11183000
-127.4127 -54.729362 77.230515 9932678
-126.44827 -53.593571 78.318787 10196106
-127.036 -53.74625 77.891335 10393229
-126.48001 -52.704784 78.687668 9143162
-127.09289 -52.747402 78.292931 9011320
-126.18686 -51.443798 79.418671 8419695
-126.71212 -51.771427 78.953171 7893352
-126.50601 -50.542313 79.616806 9077367
-126.8633 -50.983707 79.204659 9340539
-126.05949 -49.322758 80.396774 9998727
-126.43402 -49.76696 79.995338 9537918
-126.24403 -48.591331 80.604103 9472641
-126.75505 -48.866119 80.196533 9735297
-125.76584 -47.556797 81.274498 8288365
-126.30832 -47.775715 80.908363 9472639
-125.94634 -46.541245 81.603294 9604226
-126.47498 -46.978333 81.15654 7104091
-125.81085 -45.314697 82.375557 13025456
-126.14458 -45.647884 81.945366 10393740
-125.39159 -44.48748 83.327293 8092019
-125.90529 -44.795578 82.776947 9473412
-123.3323 -43.65416 93.198463 8023913
-123.92427 -43.657356 92.665306 8220517
-124.32135 -43.859276 91.846931 8088931
-123.81111 -43.861694 90.094833 9536894
-124.24331 -43.863235 89.497185 9734788
-124.88656 -43.86554 88.597092 13484727
-124.67014 -43.869022 86.4282 7038307
-125.18795 -43.870926 85.675789 9669251
-125.31095 -44.018505 84.730492 9340800
-125.7319 -44.148895 84.062622 8092019
-123.46427 -42.708511 93.529198 7958377
-123.29305 -41.530331 94.099388 9142651
-123.70911 -41.678764 93.829369 8615792
-122.76281 -40.311337 94.866859 8287859
-123.32691 -40.716007 94.417038 9011064
-122.88416 -39.479908 95.147499 9208435
-123.47999 -39.703964 94.756027 9142645
-123.12476 -38.623272 95.378601 9471607
-122.76823 -37.429821 96.049187 11642520
-123.26621 -37.805367 95.644501 11116176
-122.90617 -36.59383 96.325096 9866625
-123.48798 -36.93161 95.893898 10063744
-122.46945 -35.477901 97.004707 9340283
-122.94914 -35.719666 96.664375 9800576
-122.79858 -34.599018 97.202446 9603454
-122.24548 -33.472446 97.944771 10524300
-122.70708 -33.773029 97.589264 9866367
-122.40251 -32.536366 98.252449 10261130
-122.9453 -32.834534 97.85717 9734782
-121.91605 -31.394754 98.967552 9734788
-122.49535 -31.677397 98.56044 10195338
-121.69966 -30.248926 99.765099 10260875
-122.27319 -30.619518 99.194115 10195338
-122.82184 -30.899088 98.72393 9734788
-121.77595 -29.200737 101.05662 8089963
-122.12996 -29.557796 100.21436 9340030
-122.45737 -29.943815 99.647682 10326924
-119.42295 -28.346355 110.55503 12039079
-120.01709 -28.623978 110.14336 12432810
-120.30384 -28.82906 106.62438 9538432
-120.81573 -28.830662 106.04344 9604226
-121.32528 -28.832268 105.46045 9209467
-121.63107 -28.904551 102.17828 10458254
-122.27805 -28.942833 101.72152 10260875
-119.69378 -27.414263 110.80296 10327949
-120.14475 -27.800587 110.41828 10262414
-119.24981 -26.356186 111.46052 12039079
-119.84602 -26.631317 111.04889 10195851
-119.34967 -25.489958 111.76693 10064265
-119.96963 -25.686039 111.37591 10985367
-119.57172 -24.589621 112.02616 9603972
-119.17209 -23.493376 112.67724 8486262
-119.79405 -23.686737 112.28635 7762283
-119.29342 -22.544306 113.00698 9472641
-119.89411 -22.815182 112.59487 7565675
-118.98782 -21.372261 113.64216 10984850
-119.44408 -21.754072 113.25669 10459021
-119.11176 -20.539513 113.92272 8090219
-119.71442 -20.808189 113.51046 6511954
-118.76051 -19.296535 114.60993 10984592
-119.20719 -19.716831 114.21342 8945269
-118.92713 -18.528967 114.84232 11642779
-119.53178 -18.795589 114.42992 8813683
-118.57348 -17.283262 115.53184 9406848
-119.0219 -17.702888 115.13477 9405819
-118.65383 -16.548954 115.79377 8485749
-119.34634 -16.776575 115.35348 8813683
-118.39864 -15.24201 116.65977 7433064
-118.80779 -15.790435 116.05378 7367271
-118.04198 -14.540807 117.43246 8681843
-118.69589 -14.60156 117.06361 8222321
-116.83794 -13.31855 126.77005 11051415
-116.89175 -13.795424 123.80448 9208443
-117.48689 -13.797095 123.24038 9932678
-118.15582 -13.997205 118.68165 10130057
-132.52748 -74.467606 54.268768 6511962
-133.12772 -74.724976 53.813934 8221806
-133.41241 -75.056808 52.765308 8485748
-133.66325 -74.988091 51.750618 9012606
-133.90881 -74.920723 50.735954 8354677
-134.1474 -74.853729 49.720745 6644055
-134.37909 -74.787102 48.70491 9406846
-134.6037 -74.720886 47.688686 6906712
-134.78572 -74.666008 46.841434 5919050
-134.96272 -74.611366 45.993881 6972506
-135.16898 -74.546219 44.976513 8420720
-135.36821 -74.481415 43.95874 8485237
-135.56061 -74.41703 42.94072 9932423
-135.74609 -74.352997 41.922447 10984849
-135.92471 -74.289436 40.903931 5919050
-132.36089 -73.634438 56.369961 7498338
-132.75002 -73.811577 55.732307 6971737
-132.76671 -73.999969 54.739075 6906203
-136.09641 -74.226212 39.885292 7563619
-136.23981 -74.151764 38.860359 8156524
-136.25516 -74.036308 37.97876 8617331
-136.6893 -73.903862 37.036552 6643540
-136.69597 -73.825661 36.085804 7038298
-137.23772 -73.723358 35.240341 8288365
-137.31723 -73.633736 34.204803 9209468
-137.39032 -73.544945 33.170284 9012088
-137.46275 -73.459839 32.138149 6840919
-137.9211 -73.36203 31.195612 8353651
-137.9622 -73.30629 30.506823 9734788
-131.951 -72.722633 57.021576 7234909
-132.60936 -72.777313 56.59639 7037530
-138.38139 -73.250275 30.075289 9274238
-138.42499 -73.180916 29.21283 8288111
-138.47116 -73.098091 28.178745 9932166
-138.71001 -73.001244 27.097662 9208955
-138.93581 -72.918442 26.187696 8946296
-139.35362 -72.821213 25.22472 8617331
-139.37177 -72.739754 24.189026 7893610
-139.38319 -72.658775 23.154556 8419184
-139.78253 -72.575378 22.356392 10129283
-140.21964 -72.514503 21.560898 8353134
-140.24994 -72.453743 20.52915 8945012
-140.19835 -72.354683 19.487629 9339513
-132.12479 -71.695038 57.364044 7038307
-132.72974 -71.736732 56.976562 7234909
-140.96286 -72.282272 19.247547 10854292
-140.6104 -72.237282 18.578541 9933190
-140.84901 -72.114471 17.506437 11578015
-140.96214 -71.996117 16.400372 12762546
-141.28532 -71.892838 15.57597 10196107
-141.38327 -71.77523 14.467466 7037787
-141.77588 -71.662918 13.541517 6774358
-142.0222 -71.562805 12.461065 7696231
-141.94606 -71.483147 11.421247 7893614
-142.29366 -71.405106 10.586882 9275262
-142.65051 -71.340164 9.9224014 7038307
-131.74821 -70.618446 58.062485 8090994
-132.42227 -70.736488 57.599102 7038307
-142.60414 -71.300545 9.4014511 8092011
-142.53934 -71.24791 8.7076569 8092011
-142.94527 -71.15921 7.7646766 8486769
-143.16161 -71.065117 6.670095 6840926
-143.04558 -70.987572 5.6289115 7169891
-143.80678 -70.910942 4.964889 8090221
-143.65878 -70.822357 3.7473543 8089963
-144.09586 -70.732918 2.7742422 8156011
-144.25137 -70.656723 1.8504635 8089963
-144.30287 -70.568237 0.72075051 8944757
-144.79602 -70.478165 -0.23574862 8880248
-144.61365 -70.394081 -1.2806877 7039331
-131.96243 -69.668289 58.344387 8090994
-132.44478 -69.812607 57.986824 7038307
-145.32146 -70.299599 -1.9873203 7828075
-145.07422 -70.190849 -3.0328448 7038561
-145.49266 -70.073166 -4.0065675 8090479
-145.42535 -69.949738 -5.1441712 7893356
-146.11769 -69.852005 -5.8737683 7893612
-146.03687 -69.72831 -7.0166841 8419698
-146.4321 -69.609245 -8.008009 8814454
-146.46596 -69.504364 -8.9543304 6840408
-146.81874 -69.401924 -9.8043766 5525066
-131.53241 -68.531357 59.101299 9735812
-132.01836 -68.808029 58.683998 9077630
-146.95404 -69.280052 -10.881372 6709854
-147.0786 -69.157455 -11.959486 6643805
-147.41484 -69.051895 -12.821754 11642012
-147.41316 -68.944763 -13.776039 9668995
-147.76677 -68.820892 -14.797655 7433063
-147.9472 -68.696205 -15.86644 9143420
-148.26376 -68.589485 -16.743635 9538693
-148.24036 -68.481949 -17.706532 11183260
-148.61028 -68.392693 -18.416552 9341571
-131.74451 -67.667404 59.346985 9077627
-132.2686 -67.838554 58.95224 9406591
-148.3614 -68.321037 -19.111961 11775912
-149.06859 -68.230972 -19.750879 12564914
-149.02715 -68.123131 -20.720797 9208443
-149.32706 -68.016998 -21.618465 11906726
-149.32486 -67.932014 -22.598736 11906726
-149.67845 -67.853577 -23.513229 8486520
-149.85002 -67.772469 -24.466509 9341571
-149.95041 -67.676704 -25.595989 10262416
-150.593 -67.586472 -26.640049 7762030
-150.26413 -67.513458 -27.516201 9341060
-150.89813 -67.422218 -28.572422 9275006
-131.306 -66.461792 60.138901 9406847
-131.78426 -66.796173 59.701263 9143419
-150.82497 -67.322891 -29.563742 9602938
-151.08852 -67.21521 -30.497883 8352875
-151.64381 -67.091347 -31.561623 6972250
-151.31235 -67.013901 -32.254059 9537659
-151.85915 -66.888962 -33.327774 8287850
-151.91853 -66.777649 -34.301781 9932160
-151.9704 -66.666298 -35.27594 7498592
-152.59442 -66.558487 -36.19632 9011058
-152.63898 -66.446152 -37.179981 8353130
-131.64812 -65.625771 60.293022 9011833
-132.00966 -66.058815 59.883842 9735812
-152.67642 -66.333908 -38.163773 8221544
-153.28214 -66.23941 -39.29734 9735302
-152.9424 -66.176262 -39.996563 8090995
-153.55608 -66.087418 -41.146263 13551032
-153.64377 -66.002968 -42.163765 9999496
-153.72343 -65.91835 -43.181835 7037274
-154.32724 -65.827347 -44.355751 7038307
-153.96054 -65.763878 -45.054489 9011579
-154.55634 -65.6717 -46.240723 7695979
-154.18016 -65.608238 -46.938782 7038307
-154.85773 -65.528122 -47.961033 8814715
-131.20114 -64.378319 61.108345 7563617
-131.66399 -64.817398 60.634567 7826790
-155.38528 -65.408058 -49.15173 11381404
-155.26279 -65.309982 -50.006157 7498857
-155.45116 -65.197807 -51.032368 7038307
-155.95581 -65.070442 -52.240372 7564651
-155.61302 -65.007317 -52.75174 7565675
-156.22591 -64.899712 -53.799591 8748665
-156.73463 -64.774818 -55.0326 11182745
-156.2995 -64.706299 -55.727116 9208443
-156.89499 -64.619652 -57.006123 12498861
-157.2637 -64.497421 -58.645351 12169896
-131.43654 -63.630562 61.289322 7760996
-131.93329 -64.045738 60.805233 7892581
-156.92303 -64.445717 -59.165115 15197142
-157.8541 -64.408562 -59.950356 8089963
-157.50734 -64.356651 -60.470673 8089963
-157.97292 -64.249123 -61.962524 7827819
-157.61835 -64.197052 -62.481548 9012606
-158.31325 -64.122932 -63.640587 10459537
-158.52141 -63.977955 -65.504936 9340539
-159.09044 -63.884129 -66.86412 9208442
-158.71529 -63.831585 -67.382301 8681843
-159.65851 -63.789162 -68.236641 11379612
-130.99341 -62.613068 62.002312 8287596
-131.55902 -62.759678 61.592831 8485235
-131.07903 -61.736866 62.330688 7959150
-131.68553 -62.003857 61.843834 7038307
-130.81567 -60.550671 63.132759 7498857
-131.34106 -60.875408 62.582741 7564650
-130.73485 -59.236095 64.885956 7893358
-130.76405 -59.473457 64.274208 8090480
-131.02054 -59.881428 63.593201 8024943
-128.46324 -58.548077 74.875343 10261391
-128.61284 -58.856792 74.204781 10261391
-128.99478 -58.896946 73.188133 10655886
-129.43298 -58.8988 72.410027 6510930
-128.93343 -58.900444 71.115067 7695202
-129.44363 -58.902653 70.181419 10852750
-129.94705 -58.904854 69.244164 7563619
-130.36159 -58.906693 68.460449 7563619
-129.8365 -58.908268 67.190796 8419438
-130.3661 -58.931934 66.275024 6511954
-130.53571 -59.104153 65.493309 6511954
-128.0099 -57.360832 75.714027 8815739
-128.44194 -57.835785 75.241318 10261646
-128.20554 -56.621449 75.917084 10855065
-128.77945 -56.992809 75.402603 8617591
-127.79663 -55.573708 76.625969 12433840
-128.29182 -55.796627 76.224632 13881285
-127.91241 -54.573105 76.992165 8749434
-128.49757 -54.833508 76.519295 10262929
-127.54546 -53.40411 77.728218 9011320
-128.12875 -53.701824 77.240166 8682870
-127.75394 -52.632729 77.937431 8616562
-128.39061 -52.976471 77.396492 9011320
-127.39404 -51.584061 78.616585 8484976
-128.09868 -51.704849 78.131416 8090220
-127.53553 -50.665257 78.931328 10524300
-128.06528 -50.994095 78.46254 7038307
-127.14969 -49.692627 79.593178 9735297
-127.75409 -49.654449 79.238945 12300451
-127.3902 -48.691223 79.883217 9143417
-127.1016 -47.395908 80.626427 10064777
-127.53989 -47.781204 80.189079 9143417
-127.19219 -46.647884 80.89669 7104091
-127.78398 -46.928047 80.412148 9735297
-126.86549 -45.566654 81.65551 7367263
-127.38379 -45.856838 81.160431 7301470
-126.30329 -44.208973 83.567177 8092019
-126.91039 -44.396507 82.787941 9209214
-127.07724 -44.88026 82.114716 9867910
-124.71016 -43.451801 92.597672 8088931
-124.65226 -43.860443 91.397087 8418153
-125.19993 -43.862377 90.644745 9405565
-125.74341 -43.864315 89.88932 11314074
-125.52325 -43.867847 87.692421 9537924
-126.15336 -43.870152 86.783058 8419952
-126.5701 -43.871693 86.174538 8617331
-126.04221 -43.920948 84.709312 8092019
-126.76069 -43.995743 84.088684 8681843
-124.23933 -42.615582 93.17794 7826275
-124.87254 -42.736942 92.809799 8088931
-124.4609 -41.621758 93.474983 8483948
-124.94307 -41.99678 93.078575 8220774
-124.51898 -40.634502 93.851494 8878964
-124.19861 -39.657127 94.414131 9405564
-124.86002 -39.597958 94.106049 9405822
-123.72322 -38.499008 95.129036 9208435
-124.38392 -38.623505 94.746468 9668990
-124.01528 -37.606586 95.351006 9405815
-124.50841 -37.816669 95.017036 9932161
-123.73006 -36.187176 96.079872 10261132
-124.13591 -36.66497 95.679176 9603195
-123.73101 -35.609039 96.318016 9997957
-124.37481 -35.741306 95.940636 9537403
-123.85276 -34.657532 96.649742 9734783
-124.45686 -35.105885 96.161842 10261132
-123.57048 -33.600971 97.227425 9537402
-124.01414 -33.773262 96.93383 9866369
-123.12488 -32.273949 97.998558 9734788
-123.73093 -32.716522 97.512047 10063749
-123.27386 -31.516861 98.236366 9734788
-123.85013 -31.646734 97.89386 9405817
-123.47801 -30.660856 98.553032 9471612
-122.742 -29.259752 100.36979 9274236
-123.25236 -29.644894 99.556084 9800579
-123.70025 -30.044897 98.93824 9537403
-120.71216 -28.433792 109.87371 14866894
-121.18047 -28.689074 109.39686 12235431
-121.65568 -28.827229 108.6095 9209467
-121.70534 -28.833467 105.0214 9340542
-122.33528 -28.835478 104.28663 9537409
-122.83642 -28.837082 103.69639 10261132
-122.76374 -28.971943 101.37729 9735043
-123.24963 -29.00136 101.0322 9406078
-120.87781 -27.594141 110.13625 10459278
-121.43922 -27.887434 109.73463 8682867
-120.35748 -26.425293 110.87763 9537665
-121.04176 -26.667624 110.43542 9340797
-120.70748 -25.594572 111.0442 10722195
-121.27082 -25.885469 110.64252 8682867
-120.1839 -24.425817 111.78709 9537665
-120.78458 -24.699915 111.3737 8945272
-120.51115 -23.513855 111.99853 7958891
-120.9558 -23.938175 111.60136 8089963
-120.00717 -22.422033 112.69994 9143934
-120.60984 -22.693674 112.28653 7498852
-120.20975 -21.499409 112.97818 9537405
-120.73719 -21.859972 112.56581 7235163
-119.82732 -20.413141 113.61645 6511954
-120.43199 -20.682585 113.20296 10260100
-119.9268 -19.535517 113.9278 7366494
-120.49337 -19.742069 113.55923 10128514
-120.15006 -18.621305 114.19219 9142391
-119.74326 -17.517271 114.85004 8813683
-120.3116 -17.721685 114.48145 8353132
-119.96626 -16.598562 115.11661 8813684
-119.5554 -15.339929 115.99776 8288114
-119.98386 -15.892552 115.40936 8287857
-119.46657 -14.388763 116.86221 10985366
-119.85689 -14.698267 116.40051 9471871
-117.38813 -13.264244 126.54888 9998212
-117.78049 -13.555688 126.25945 6511962
-117.93138 -13.798349 122.81509 9471871
-118.66851 -13.800443 122.10276 7563619
-119.25426 -14.028021 118.06686 10327182
-117.45742 -12.495432 126.82521 7958630
-117.47893 -11.65344 127.15293 6248014
-117.55624 -10.599227 127.54139 7826787
-117.84635 -11.029119 127.24123 5919050
-133.88603 -74.663284 53.449173 8089963
-134.41087 -74.592392 52.83115 9405823
-134.51627 -74.898987 52.080219 10129289
-134.6658 -74.890785 51.022316 8879222
-134.90501 -74.823425 50.001102 8616560
-135.13727 -74.756493 48.979294 12366501
-135.36253 -74.689919 47.9571 6314319
-135.58076 -74.623741 46.934364 5919050
-135.79207 -74.557945 45.911301 7696485
-135.963 -74.50341 45.058441 10262154
-136.12877 -74.449181 44.205357 9932423
-136.32153 -74.384476 43.181381 9932423
-136.50742 -74.32016 42.157166 9142650
-136.65715 -74.2668 41.303539 6642517
-133.48329 -73.584045 55.711411 6642516
-133.86206 -73.859291 54.813831 8089963
-134.17232 -74.041664 53.81176 9406079
-136.74466 -74.234993 40.791237 6642517
-136.85838 -74.192665 40.108181 7103068
-137.17224 -74.085136 39.036243 8354159
-137.38588 -73.952751 38.11512 7038298
-137.86598 -73.84346 37.177147 7433056
-137.95641 -73.752563 36.134029 8880502
-138.0267 -73.677162 35.265438 7827814
-138.09251 -73.602554 34.397587 7498849
-138.37541 -73.502686 33.319164 7959400
-138.63998 -73.418045 32.412949 6577750
-139.10095 -73.319473 31.462021 8024686
-133.1447 -72.483665 56.398285 6510930
-133.74716 -72.793419 55.895256 6774358
-139.16023 -73.235291 30.419945 8485237
-139.21263 -73.151588 29.378773 8024940
-139.46008 -73.053848 28.291838 8551281
-139.77045 -72.972687 27.46192 10919570
-140.12114 -72.872162 26.410694 10459278
-140.14534 -72.789856 25.367781 8222573
-140.16275 -72.707985 24.326029 7827303
-140.57077 -72.623878 23.525414 9735039
-140.78181 -72.558868 22.776569 10326919
-141.0424 -72.495087 21.687222 9602685
-141.04057 -72.417824 20.644657 10062978
-141.26073 -72.325691 19.866447 10720907
-133.29004 -71.706345 56.647259 7103323
-133.77565 -71.858528 56.284214 7958888
