# .PCD v0.7 - Point Cloud Data file format
VERSION 0.7
FIELDS x y z rgb
SIZE 4 4 4 4
TYPE F F F U
COUNT 1 1 1 1
WIDTH 1186
HEIGHT 1
VIEWPOINT 0 0 0 1 0 0 0
POINTS 1186
DATA ascii
-149.2052 -70.364059 0.18573339 6510930
-148.86258 -69.612793 36.513748 8748659
-149.3699 -69.832191 35.749561 8748663
-149.75116 -70.160614 35.079788 8814457
-149.12109 -70.325508 -0.35332984 6905944
-149.18608 -70.247353 -1.3422064 7498337
-149.71771 -70.164459 -2.1580892 7037274
-149.5079 -70.075226 -3.0558732 6840666
-149.2404 -69.963997 -4.1298113 7038817
-149.42006 -69.83989 -5.2163777 8090991
-149.63838 -69.734238 -6.1259828 5920082
-149.39796 -69.642357 -7.0177255 7234653
-149.10382 -69.532639 -8.084507 11971487
-149.47433 -69.428169 -8.9477177 9077368
-149.11324 -68.754517 36.700424 8814451
-149.58115 -68.902748 36.027264 8814453
-149.6057 -69.35759 -9.5582972 6972762
-149.39798 -69.284927 -10.268061 7301727
-149.13425 -69.194077 -11.153003 7828074
-149.56763 -69.08744 -12.00111 10064009
-149.43149 -68.959984 -13.16814 12299684
-149.09082 -68.850296 -14.224857 7959407
-149.76299 -68.743675 -15.017164 7038307
-149.40855 -68.634384 -16.07325 9143420
-149.24356 -68.507851 -17.239002 8354159
-149.64467 -68.399765 -18.107285 8090987
-148.8853 -67.657349 37.626625 8222314
-149.3533 -67.840759 36.93272 8814451
-149.45793 -68.345711 -18.633017 8617331
-149.26961 -68.291763 -19.15756 16777207
-149.40379 -68.183441 -20.090538 9800837
-149.46637 -68.057419 -21.199106 10656403
-149.09952 -67.963638 -22.247602 12433069
-149.75455 -67.875061 -23.267698 8092019
-149.44765 -67.802208 -24.142683 9341571
-149.07358 -67.71505 -25.189125 9341571
-149.77568 -67.639839 -26.050091 10591380
-149.38715 -67.552795 -27.096273 10327694
-149.05859 -67.480476 -27.965067 10459022
-149.81567 -67.418411 -28.667339 8681843
-149.11076 -66.718498 37.891983 9406333
-149.60397 -66.789055 37.232162 11380120
-149.60176 -67.370132 -29.187197 10260359
-149.20743 -67.274368 -30.044193 9931394
-149.67046 -67.132935 -31.26417 11378581
-149.1819 -67.018486 -32.289124 8288106
-149.71313 -66.894989 -33.34882 8616814
-149.29373 -66.799995 -34.200455 6840922
-149.81514 -66.675331 -35.270359 8484973
-149.38411 -66.580658 -36.119778 10391942
-149.42215 -66.470604 -37.083313 8419440
-149.07803 -65.691139 38.532314 7301479
-149.41142 -65.921257 37.979687 8354676
-149.45284 -66.360512 -38.046936 8419440
-149.48015 -66.250053 -39.014381 8879995
-149.50098 -66.14006 -39.982121 9998215
-149.31685 -66.038383 -41.092133 9011063
-149.4705 -65.938873 -42.297401 8157040
-149.53859 -65.856087 -43.29137 8879991
-149.59889 -65.773186 -44.285927 7368040
-149.15248 -65.696419 -45.132572 7893358
-149.70531 -65.6063 -46.284885 7301478
-149.24274 -65.528008 -47.128517 8618106
-149.93607 -65.451126 -47.943192 7039331
-148.87341 -64.582054 39.435455 8288371
-149.24916 -64.837219 38.814701 8748921
-149.71997 -65.013069 38.120682 8618104
-149.62071 -65.390366 -48.438965 9736329
-149.1983 -65.309494 -49.097683 13814722
-149.6627 -65.187386 -50.250622 9998987
-149.1232 -65.086479 -51.070946 7038307
-149.57645 -64.96312 -52.233868 9406596
-149.52567 -64.850441 -53.228996 12958900
-149.467 -64.737747 -54.223312 9998215
-149.90675 -64.611847 -55.406017 9209467
-149.33426 -64.511284 -56.218773 7498081
-148.99825 -63.730331 39.774223 7235686
-149.53473 -63.781849 39.069977 8288371
-149.76701 -64.386032 -57.413128 8090474
-149.32994 -64.318642 -58.072262 11378584
-149.73729 -64.216141 -59.478916 8352877
-149.29384 -64.150497 -60.137123 13022893
-149.91385 -64.079529 -61.226948 11379352
-149.34756 -63.997314 -62.04752 7563619
-149.84579 -63.9086 -63.3144 10326923
-149.38257 -63.842735 -63.96851 10590353
-149.75356 -63.736317 -65.410919 8090987
-149.27988 -63.670387 -66.062164 8420721
-149.87831 -63.595623 -67.191231 9406847
-149.39493 -63.529434 -67.840736 11379348
-148.91612 -62.494362 40.596798 9538432
-149.3045 -62.799137 39.931274 8617333
-149.74191 -63.420235 -69.306732 9734788
-149.248 -63.353985 -69.953079 9142651
-149.70662 -63.259979 -71.269539 7168860
-149.203 -63.193707 -71.913544 5920074
-149.77997 -63.115055 -73.08165 8683123
-149.26697 -63.048561 -73.723824 6972762
-149.5775 -62.935486 -75.225189 9010808
-149.61639 -62.787865 -77.05854 8221549
-149.911 -62.672222 -78.58493 9537406
-149.50491 -62.6222 -79.061844 7761509
-149.92441 -62.522015 -80.44146 9537667
-149.64903 -62.488632 -80.758514 10853012
-149.06584 -61.724964 40.85638 8420467
-149.56969 -61.8862 40.12933 7367263
-149.37329 -62.455238 -81.07486 10853012
-149.7825 -62.353767 -82.467117 8287859
-149.3607 -62.303127 -82.939484 8287859
-149.7278 -62.186306 -84.325684 11906207
-149.25085 -62.115768 -84.768837 9406846
-149.60815 -61.997334 -86.165688 9077882
-149.96249 -61.877472 -87.575706 9735812
-149.47177 -61.806568 -88.014748 8354159
-149.81625 -61.685043 -89.435661 7038298
-149.35376 -61.628632 -89.892853 7629667
-149.92284 -61.556232 -91.220688 8353389
-149.15233 -60.60886 41.585545 7433064
-149.48802 -60.898617 40.878742 7038306
-149.31041 -61.486584 -91.836395 9735040
-149.71788 -61.395367 -93.332603 10261902
-149.64949 -61.250378 -95.302559 7169634
-149.56464 -61.103874 -97.28479 7563874
-149.78935 -60.990963 -98.976906 9143675
-149.67619 -60.841347 -100.98537 9801605
-149.83356 -60.655975 -102.40872 8682608
-149.38846 -60.62635 -102.89811 10853262
-149.16635 -59.367065 43.568676 9340804
-149.11598 -59.682877 42.859814 8420212
-149.40639 -59.957603 42.043179 8091248
-149.78181 -60.038074 -103.1692 11576728
-149.36444 -59.822224 -103.94577 13023917
-148.90817 -58.617104 57.703709 13157818
-149.27217 -58.798992 56.937069 8420726
-149.53239 -58.95911 56.089668 7565675
-148.79642 -58.961071 54.590038 10919830
-149.05786 -58.962521 53.872536 10261643
-149.37961 -58.964329 52.973919 9472128
-149.63361 -58.965775 52.25375 10261643
-148.87558 -58.967659 50.784653 9472900
-149.239 -58.969807 49.7075 8486519
-149.53598 -58.971592 48.80801 11380377
-149.71167 -58.972668 48.267365 9209467
-148.93091 -58.974483 46.829895 14275009
-149.26573 -58.976608 45.752464 8813941
-149.2856 -59.098492 44.777016 7827307
-149.31073 -59.245747 44.001793 9340804
-150.15637 -59.440193 -103.42752 13023917
-149.61966 -59.42627 -104.12354 10129540
-150.03413 -59.090912 -105.30752 9669762
-148.85529 -57.418575 58.645382 9735812
-149.21393 -57.729889 57.820423 9078140
-149.57196 -58.043167 56.995049 7565675
-148.97495 -56.682751 58.967514 9143675
-149.50148 -56.779213 58.012897 8419953
-148.96729 -55.611919 59.7421 9998727
-149.46536 -55.764107 58.795807 7563874
-148.83348 -54.565178 60.711964 10129798
-149.26343 -54.67387 59.91114 10985363
-149.58359 -54.909012 59.20509 8617075
-148.82338 -53.616913 61.403984 8616566
-149.21202 -53.652218 60.724709 9734531
-149.49951 -53.984222 60.004559 10392459
-148.93794 -52.7654 61.817287 7893356
-149.43855 -52.792713 60.955208 9668738
-148.8748 -51.696915 62.684193 8683124
-149.37221 -51.752991 61.807121 7630185
-149.55502 -52.058624 61.281727 8616566
-148.80757 -50.512192 63.640656 7696228
-149.1754 -50.810741 62.809032 7893607
-149.49986 -51.039776 62.099922 7038307
-148.79132 -49.568752 64.339645 6511954
-149.01909 -49.787613 63.800465 6183246
-149.45697 -49.8619 63.010567 5985867
-148.93565 -48.714424 64.704811 9537664
-149.40929 -48.857162 63.806046 6051660
-148.79825 -47.754459 65.619484 10064265
-149.19258 -47.781395 64.936623 10261644
-149.58698 -47.809208 64.252998 7761766
-148.80032 -46.546139 66.476112 10064265
-149.1295 -46.768768 65.763565 10064265
-149.54099 -46.897148 64.979607 10393229
-148.81641 -45.560913 67.343376 7892581
-149.00441 -45.762886 66.781197 7892581
-149.43666 -45.82777 65.983253 9998472
-148.91663 -44.54052 68.687531 7498337
-149.17526 -44.833424 67.813843 6971737
-149.47052 -45.130482 66.880875 8946039
-148.90154 -43.579777 78.499199 7235421
-149.38245 -43.721615 78.14093 6971992
-148.90944 -43.924843 75.773895 7564651
-149.45346 -43.927147 74.695992 7827300
-149.01147 -43.931736 71.801933 7827045
-149.21472 -44.004322 70.722786 6510930
-149.25905 -44.194584 69.719063 6313551
-149.64676 -44.211727 69.023987 5919050
-149.11725 -42.809914 78.702919 8089959
-148.90724 -41.473045 79.416954 8813680
-149.22408 -41.868793 79.048645 9076851
-149.02245 -40.646572 79.707245 8945269
-149.51834 -40.925442 79.279839 8813680
-149.16924 -39.733532 80.01487 8550256
-149.01218 -38.666397 80.576942 9274237
-149.51732 -38.815956 80.20002 9011320
-149.13202 -37.713676 80.918228 8748149
-149.01186 -36.436771 81.548935 9537664
-149.28241 -36.960495 81.153732 8089963
-149.12289 -35.608849 81.841286 9603457
-148.73244 -34.513054 82.559875 7563619
-149.23312 -34.780136 82.13443 9735300
-149.16547 -33.660671 82.664101 9275005
-148.71587 -32.411354 83.486023 10064777
-149.21857 -32.674706 83.061096 8683124
-149.21829 -31.706734 83.483131 8945781
-149.63847 -32.087456 83.057945 6511954
-148.86301 -30.342718 84.510109 8682867
-149.17775 -30.782242 83.978348 8682867
-149.0495 -29.367462 85.56633 12431013
-149.19344 -29.805592 84.791595 9143161
-149.00786 -28.57103 94.609406 8090987
-149.06952 -28.802528 93.728188 8090987
-149.25594 -28.896004 92.761765 10524556
-149.59044 -28.897205 92.221977 10260358
-148.81038 -28.903257 88.312408 9405051
-149.12869 -28.904444 87.774132 9932166
-149.09743 -29.037853 86.792068 9668478
-149.07765 -29.194241 86.060165 10851980
-149.1067 -27.715233 94.922462 9735298
-148.97687 -26.552822 95.511208 11314844
-149.47511 -26.662331 95.155022 12960181
-149.0782 -25.724144 95.810875 13157816
-148.92673 -24.385868 96.489883 11709090
-149.29404 -24.873234 96.049553 12499374
-149.13057 -23.604933 96.705322 11379356
-148.90703 -22.505985 97.324173 9735046
-149.1911 -22.849478 96.998306 8879995
-149.00372 -21.643253 97.641731 9208702
-149.52242 -21.892139 97.211998 9537410
-148.85167 -20.330149 98.310081 9208435
-149.13689 -20.672672 97.983757 9668992
-148.96437 -19.610788 98.554771 8418923
-149.46774 -19.710648 98.199448 9274232
-149.14989 -18.675537 98.847603 8418923
-148.87589 -17.606604 99.483231 7563619
-149.33517 -17.738054 99.141403 7695204
-149.10603 -16.633463 99.764832 8353129
-148.84062 -15.74806 100.36591 9011574
-149.33209 -15.841477 100.00139 9340025
-148.99571 -14.399599 101.69083 7564643
-149.19864 -14.900747 100.86719 9011574
-148.82199 -13.876698 103.7763 8288109
-149.39102 -13.884768 103.10692 8682867
-149.82437 -72.345955 33.581444 9341059
-150.04929 -72.556313 32.79805 9341059
-150.34265 -72.640762 31.801355 9933195
-150.12259 -72.677597 30.81146 8288371
-150.14815 -72.603493 29.87537 8288371
-150.20641 -72.531456 28.759804 9077885
-150.28452 -72.488571 27.837385 8419959
-150.35057 -72.442741 26.914061 7564651
-150.3354 -72.346024 25.791277 7367013
-150.0157 -71.762596 33.813 9209471
-150.50145 -71.953636 33.047752 8946302
-150.30077 -72.257797 24.85417 7037274
-150.29077 -72.184357 23.923426 7037274
-150.27255 -72.096741 22.80805 7366240
-150.25191 -72.023994 21.879759 10260871
-150.22586 -71.951622 20.952719 9932163
-150.18791 -71.865089 19.841749 10327179
-150.15085 -71.793198 18.917297 11971488
-150.10846 -71.721687 17.994162 9011579
-150.05106 -71.636177 16.887941 10853012
-149.98637 -71.551079 15.783668 9669250
-150.21811 -71.458076 14.710408 8288371
-150.22125 -71.394424 13.907634 7959407
-150.71692 -71.328651 13.294853 7038307
-150.03113 -70.533524 34.511143 9011834
-150.38139 -70.83918 33.893513 9274236
-150.59079 -71.28524 33.370541 9341059
-150.67256 -71.286453 12.742399 7564651
-150.59467 -71.2164 11.822697 8221549
-150.51213 -71.146675 10.904383 11511711
-150.42426 -71.077209 9.9876184 12103844
-150.31361 -70.994797 8.8894501 7958884
-150.19937 -70.914337 7.7936749 7367005
-150.09915 -70.847778 6.8821473 8156521
-149.99373 -70.78154 5.972239 9011574
-150.41376 -70.690468 4.9727664 9406075
-150.62547 -70.594551 3.8178341 11379607
-150.50221 -70.528885 2.9076419 11182994
-150.37378 -70.463455 1.9992684 9472380
-150.21352 -70.385384 0.91126293 8288109
-149.82657 -69.318497 35.476768 8814457
-150.17686 -69.730499 34.7971 8682871
-150.66974 -69.784332 34.147648 9734788
-150.04625 -70.307709 -0.17432849 7037786
-150.42632 -70.216827 -1.1896297 8551281
-150.62402 -70.13472 -2.170814 7563618
-150.4218 -70.049652 -3.0741355 7366239
-150.15117 -69.93782 -4.1546512 8485232
-150.48483 -69.808418 -5.2532134 8090475
-150.55237 -69.706657 -6.1629815 7103323
-150.30923 -69.614189 -7.0601339 8024168
-150.21567 -69.487396 -8.2353983 11905950
-150.72495 -69.401192 -8.9003754 9209467
-150.00331 -68.65139 35.644634 9406080
-150.45378 -68.897301 34.936222 8091248
-150.57001 -69.346077 -9.4373703 5920074
-150.36108 -69.272888 -10.151907 6446418
-150.09451 -69.181175 -11.042425 8485745
-150.67833 -69.038071 -12.180619 7039331
-150.34018 -68.927109 -13.247764 9012093
-150.05383 -68.835205 -14.133976 7761772
-150.67467 -68.709412 -15.108114 7498857
-150.31659 -68.599579 -16.170481 7827817
-150.29787 -68.490501 -17.146158 8946296
-150.67987 -68.399857 -17.863783 9143675
-150.21367 -67.761604 35.899872 8156783
-150.64079 -68.116852 35.15686 8222577
-150.49223 -68.34536 -18.393322 8617331
-150.23952 -68.272926 -19.097549 10853524
-150.57463 -68.146553 -20.15486 10853524
-150.47203 -68.051033 -21.156401 10065035
-150.17606 -67.97757 -22.037958 12433069
-150.56903 -67.885086 -23.115646 9999501
-150.47122 -67.800354 -24.121603 9341571
-150.15773 -67.72728 -24.999792 10131086
-150.74091 -67.622314 -26.21736 7367528
-150.34859 -67.534691 -27.270052 9341060
-150.31721 -67.450829 -28.263159 10393232
-150.05615 -66.664223 36.737118 9209725
-150.45978 -66.918793 36.081684 8025194
-150.62842 -67.362663 -29.198523 9602938
-150.1534 -67.247978 -30.234066 10457481
-150.78484 -67.144089 -31.117418 7563874
-150.2934 -67.02877 -32.150249 6511954
-150.54346 -66.920357 -33.089817 8879986
-150.41191 -66.808708 -34.074799 8814193
-150.464 -66.698219 -35.041084 7761507
-150.50873 -66.587799 -36.007507 8945267
-150.36124 -66.475899 -36.995235 8814198
-149.90579 -65.628609 37.528877 8289140
-150.41983 -65.838417 36.760605 9736070
-150.76265 -66.404114 -37.607391 7169629
-150.40477 -66.328171 -38.288635 8419440
-150.43793 -66.219276 -39.26376 9077371
-150.49493 -66.124008 -40.247265 11379609
-150.07115 -66.046684 -41.104031 10524044
-150.65359 -65.95829 -42.239712 9471870
-150.21727 -65.881004 -43.09491 9340027
-150.7903 -65.791504 -44.243008 8222577
-150.25081 -65.698715 -45.266567 7301478
-150.81293 -65.607964 -46.427673 7893358
-150.34389 -65.528023 -47.27631 7630444
-150.16588 -64.706497 37.738636 8618104
-150.58337 -64.923431 37.087555 9736070
-150.83789 -65.410866 -48.431103 7564651
-150.30579 -65.309029 -49.260643 7894639
-150.77829 -65.186073 -50.42247 10591124
-150.23404 -65.084488 -51.248344 8814715
-150.69547 -64.960182 -52.420368 8354670
-150.25073 -64.879051 -53.078499 9012600
-150.70244 -64.753525 -54.260273 8617330
-150.24866 -64.672447 -54.916172 9208443
-150.57521 -64.525368 -56.271385 8222060
-149.91327 -63.688622 38.648449 7959407
-150.34518 -63.834908 38.020489 8815226
-150.11174 -64.444572 -56.924072 7761253
-150.7256 -64.364441 -57.987904 7563618
-150.17812 -64.281929 -58.81802 8945015
-150.70003 -64.195084 -60.07058 8287854
-150.25185 -64.129005 -60.732529 15195086
-150.65041 -64.024292 -62.162769 9603712
-150.61783 -63.93832 -63.21376 9077368
-150.57668 -63.852135 -64.26429 11445406
-150.10736 -63.785866 -64.920761 10590353
-150.71786 -63.711704 -66.047287 8156527
-150.23915 -63.645329 -66.702232 9209214
-150.60049 -63.536549 -68.168449 8946298
-150.11092 -63.469955 -68.820221 9734788
-150.07256 -62.780277 38.976913 7433058
-150.58989 -62.981274 38.209682 7564643
-150.58267 -63.376503 -70.135483 7826790
-151.05336 -63.281868 -71.464027 10261132
-150.54558 -63.214993 -72.113152 8551025
-150.87744 -63.102409 -73.616264 9011320
-150.35899 -63.035488 -74.261925 9735043
-150.93999 -62.955013 -75.454651 10853012
-150.41216 -62.887978 -76.098328 10063496
-150.8535 -62.789433 -77.464996 7563619
-150.3157 -62.722439 -78.106117 8550512
-150.88368 -62.639397 -79.325478 8550512
-150.33624 -62.572235 -79.964378 9866373
-151.03752 -62.504761 -81.037682 8092019
-150.09302 -61.73436 39.559853 7235677
-150.50565 -61.919964 38.933239 8419951
-150.75958 -62.471172 -81.356728 9537667
-150.34163 -62.420746 -81.83374 7630187
-150.75658 -62.318363 -83.238945 11116693
-150.18954 -62.25111 -83.872574 11906207
-150.72487 -62.158733 -85.12516 10788753
-150.61546 -61.97234 -86.986496 8024681
-150.80989 -61.827557 -88.557137 8814710
-150.31343 -61.756248 -88.997398 8945527
-150.84102 -61.66246 -90.292587 9537664
-150.38086 -61.60857 -90.756767 9537664
-150.95831 -61.535549 -92.098732 7958632
-149.92514 -60.594311 40.609917 6643543
-150.32275 -60.838779 39.867626 6511954
-150.73767 -61.051952 39.146744 9209467
-150.64902 -61.50042 -92.408585 7564651
-150.33916 -61.465393 -92.717644 7564651
-150.75336 -61.373329 -94.229164 7564651
-150.28108 -61.32053 -94.690674 7564651
-150.68648 -61.227127 -96.217026 8485488
-150.20656 -61.174168 -96.676163 6510930
-150.76538 -61.097012 -98.064484 9867142
-150.66789 -60.947681 -100.07812 10788244
-150.77403 -60.688183 -101.19804 10261900
-150.24341 -60.67194 -101.89474 8682608
-149.98586 -59.350094 42.634712 8091248
-150.19052 -59.516258 41.794937 9012603
-150.34138 -59.881592 40.980499 6840922
-150.57272 -60.212894 40.266033 8288365
-150.99535 -60.278423 -101.34676 8090986
-150.58255 -60.060818 -102.12517 7498592
-149.71028 -58.606594 56.36158 10065803
-150.07751 -58.556053 55.675552 10591890
-150.29347 -58.75555 54.933857 10986391
-150.39265 -58.963848 53.741661 10590864
-150.65041 -58.965309 53.016602 9736323
-149.82147 -58.966854 51.712742 11906725
-150.1302 -58.968655 50.809547 9472900
-150.49377 -58.970818 49.723335 9801863
-149.88512 -58.97374 47.726162 11380377
-150.16986 -58.975525 46.822651 10656656
-150.50465 -58.977661 45.736256 9340286
-150.29022 -59.009892 44.68478 8419184
-150.11208 -59.079479 43.845127 7300963
-150.53622 -59.144836 42.986942 7038307
-150.96062 -59.463268 -102.38175 6511954
-150.75632 -59.379009 -103.12884 7235420
-150.82843 -59.104652 -104.24728 7367521
-150.46349 -58.960052 -104.88967 7565417
-149.90096 -57.670578 56.706562 8355189
-150.38077 -57.746258 55.845325 11184025
-151.0667 -58.397541 -104.59148 7039331
-150.59636 -58.192471 -105.23427 7959918
-150.32729 -57.907318 -105.69428 8617590
-149.81468 -56.567596 57.636391 7563874
-150.13274 -56.807892 56.930271 9407875
-150.56049 -56.925297 56.126961 7565675
-150.92755 -57.142635 -105.43964 7039331
-150.59619 -57.013435 -105.88403 8617590
-149.83565 -55.342876 58.472355 7563874
-150.08702 -55.7785 57.739525 7235167
-150.52431 -55.908363 56.911308 8815739
-151.00757 -55.974491 -105.99313 9078140
-149.8976 -54.696014 58.828289 10655885
-150.42744 -54.791805 57.868587 7629412
-151.13437 -55.224159 -106.26384 8288365
-149.91515 -53.474453 59.667873 11708059
-150.22043 -53.807262 58.917355 11181972
-150.54749 -54.054516 58.191135 9011063
-149.81071 -52.487801 60.545998 11904668
-150.13315 -52.721401 59.836895 12234402
-150.56558 -52.831024 59.031094 9011063
-149.82397 -51.270164 61.390354 7038307
-150.04384 -51.637779 60.758602 10260617
-150.43272 -51.84774 59.954636 9865858
-149.8824 -50.625973 61.750599 7629926
-150.41766 -50.712875 60.787796 8682352
-149.9277 -49.386242 62.556866 6709334
-150.17345 -49.727314 61.900425 7761248
-150.57399 -49.81184 61.166042 9208695
-149.78094 -48.430038 63.48457 5920074
-150.05107 -48.740105 62.809177 6577748
-150.54498 -48.760273 61.96347 9932675
-149.94264 -47.71384 63.722157 7893096
-150.40169 -47.718174 62.94651 7629924
-149.86784 -46.737999 64.542694 9735300
-150.32591 -46.736073 63.773132 9077114
-149.98048 -45.347767 65.705025 9735812
-150.19675 -45.694759 64.886017 9078140
-150.51315 -45.924526 64.075424 8287598
-150.07811 -44.365829 67.477188 7761509
-150.06071 -44.600079 66.862381 8353903
-150.35651 -44.750435 65.955116 9143933
-150.68649 -44.921227 65.150085 7039331
-150.05881 -43.642799 77.72876 6511954
-150.24344 -43.924004 76.909462 7433056
-150.61275 -43.925552 76.185028 6511954
-149.90097 -43.929058 73.794853 10458505
-150.34274 -43.930973 72.8908 12432295
-149.75391 -43.951271 70.390053 8484976
-150.13214 -43.964756 69.686707 7958888
-150.17172 -44.098694 68.827858 5919050
-150.11459 -44.229618 68.1465 6379600
-149.74371 -42.435802 78.48053 7892581
-150.24022 -42.719391 78.050636 6971992
-150.14488 -41.604809 78.596741 8616301
-149.67155 -40.524326 79.360291 8813680
-150.25427 -40.68869 78.929039 7826789
-150.03983 -39.56004 79.553307 7563876
-150.28542 -39.973625 79.221466 7300705
-150.06984 -38.634487 79.938164 8419441
-149.89905 -37.810127 80.402847 8089963
-150.41896 -37.770275 80.099449 8156013
-150.02826 -36.710606 80.802368 10459022
-149.96848 -35.497524 81.368042 8089963
-150.24031 -35.846375 81.04821 9932678
-150.08057 -34.666328 81.661133 8682356
-150.50807 -35.138378 81.191582 8089963
-150.08861 -33.75275 82.054329 10064264
-149.99181 -32.757469 82.547897 8288365
-150.57399 -32.820221 82.161263 10064777
-150.17824 -31.721956 82.884148 7498849
-150.0374 -30.658203 83.512871 8288365
-150.48299 -30.907965 83.050865 6511954
-149.7341 -29.24288 85.480347 8288365
-150.11703 -29.458181 84.743423 7893607
-150.25154 -29.930868 84.026131 8485488
-149.74255 -28.198242 94.31794 8090987
-150.25764 -28.456528 93.886269 8486001
-149.92271 -28.898409 91.680954 8616048
-150.36292 -28.900013 90.957718 8616048
-149.79434 -28.913464 86.714523 8485232
-150.42793 -28.956514 86.116577 7827814
-149.85864 -27.485857 94.557625 9999240
-150.35847 -27.597454 94.199646 9736836
-150.1685 -26.758467 94.684044 12499374
-149.77078 -25.817755 95.341492 12960181
-150.3008 -25.748058 95.044106 13026230
-150.10046 -24.683811 95.633499 12169897
-149.79575 -23.431761 96.369522 11906725
-150.18173 -23.718206 96.005508 11775396
-150.05525 -22.687168 96.534653 10130059
-150.33994 -23.032188 96.207619 9538950
-149.74399 -21.252428 97.354744 9405566
-150.19083 -21.715017 96.875931 9405566
-150.00323 -20.504332 97.521439 9010808
-150.28909 -20.848356 97.194122 9405566
-150.16777 -19.792833 97.729935 7958120
-149.83577 -18.637943 98.438995 9208435
-150.29637 -18.771338 98.095497 7695204
-150.11057 -17.600887 98.720818 9010803
-149.70279 -16.66066 99.383255 8681835
-150.30154 -16.688213 99.000244 10457478
-150.07999 -15.692097 99.631477 10260099
-150.32373 -16.029913 99.273384 10851980
-149.67036 -14.284142 101.44801 9011574
-150.07317 -14.63697 100.67024 10063747
-150.23096 -15.158053 99.991707 10128513
-150.13626 -13.909178 102.55711 9011574
-151.21753 -72.327286 31.605637 7564651
-151.21101 -72.485962 30.844872 7235685
-151.26492 -72.508987 29.971476 8288371
-151.12964 -72.510925 28.936747 8025200
-151.2224 -72.459106 27.822989 7564651
-151.25529 -72.397697 26.888136 7564651
-151.2314 -72.326729 26.132689 7038302
-151.01212 -71.526009 32.701744 7564651
-151.29106 -71.93309 32.000504 9142909
-151.6786 -72.045761 31.320389 7038307
-151.22847 -72.281738 25.569651 6511954
-151.22279 -72.222618 24.819798 8090730
-151.21143 -72.148972 23.883362 7301214
-151.1945 -72.075539 22.948181 10327693
-151.16759 -71.987801 21.827414 10524299
-151.13962 -71.915024 20.894785 9340027
-151.10625 -71.842506 19.963343 9011579
-151.05957 -71.755852 18.847248 9669251
-151.01529 -71.683922 17.91851 6775130
-150.96555 -71.61232 16.991152 9405822
-151.12389 -71.513397 15.811291 9405822
-151.38327 -71.432175 14.898952 7038307
-151.67831 -71.345352 13.93257 7038307
-150.89972 -70.506882 33.437603 10062979
-151.35016 -70.770462 32.718929 9471100
-151.6682 -71.182945 32.079281 11378324
-151.63513 -71.302872 13.376169 7038307
-151.59003 -71.260483 12.820213 8090479
-151.51068 -71.190033 11.894907 8418928
-151.40909 -71.105919 10.786328 10392974
-151.31912 -71.036125 9.8641739 8419439
-151.22618 -70.967667 8.9437485 7367005
-151.11044 -70.886963 7.8412671 8550763
-150.98763 -70.806664 6.7409668 9011574
-151.33836 -70.725838 5.8435969 8551280
-151.68225 -70.644859 4.9422903 9537661
-151.5387 -70.565239 3.8413308 9735297
-151.38802 -70.486023 2.7427509 10787727
-151.25731 -70.42025 1.8290366 9734783
-151.14909 -70.367966 1.0992788 8288109
-151.08517 -69.778732 33.62999 10062979
-151.50136 -69.904968 33.034229 11115152
-151.06609 -70.328781 0.5526672 7366751
-151.16623 -70.262444 -0.26661175 7827302
-151.71898 -70.180435 -1.089456 9143419
-151.56589 -70.115639 -2.0013666 9143419
-151.34477 -70.023849 -3.0926719 7037274
-151.07097 -69.911324 -4.1797323 7958888
-151.47121 -69.806068 -5.0432248 7958888
-151.5238 -69.697357 -6.0194001 6906456
-151.22946 -69.585762 -7.1029506 8551025
-151.3916 -69.460098 -8.2080622 7695717
-151.64883 -69.371353 -8.9544497 5920074
-150.89867 -68.551559 34.5797 7433832
-151.27498 -68.824768 33.947762 9011064
-151.74814 -69.01992 33.239708 10062979
-151.54471 -69.33448 -9.3148146 5920074
-151.33394 -69.260803 -10.033957 5920074
-151.21378 -69.132271 -11.216284 7301988
-151.59969 -69.00547 -12.254674 10130059
-151.3154 -68.91246 -13.149631 10721166
-151.22838 -68.802155 -14.152502 7300957
-151.59544 -68.674904 -15.200005 7564128
-151.23372 -68.564407 -16.268684 10854036
-151.38902 -68.45472 -17.208828 9735555
-151.66347 -68.381706 -17.794661 8617331
-151.03369 -67.683464 34.915314 8025455
-151.55165 -67.876274 34.152134 8551283
-151.47426 -68.326859 -18.327658 8682099
-151.15565 -68.235748 -19.213526 7958376
-151.79579 -68.125175 -20.224281 8682099
-151.50244 -68.050926 -21.114582 9143418
-151.1445 -67.962189 -22.17948 9143418
-151.81706 -67.872459 -23.212626 13222069
-151.50594 -67.798584 -24.099657 10065035
-151.12665 -67.710274 -25.160551 8486520
-151.78201 -67.619278 -26.209579 8156787
-151.45311 -67.545769 -27.093096 10130319
-151.11996 -67.47245 -27.973913 10525076
-151.89635 -67.409676 -28.685123 7037274
-151.0041 -66.641838 35.558678 7564643
-151.43048 -66.869659 34.890213 8813939
-151.67122 -67.357086 -29.210573 7760994
-151.27063 -67.259995 -30.079403 8879217
-151.83006 -67.136063 -31.141903 7563618
-151.41748 -67.039261 -32.008774 8288106
-151.56026 -66.904335 -33.185566 8287850
-151.45755 -66.798363 -34.119385 7761763
-151.35027 -66.69223 -35.054916 8485229
-151.47075 -66.556793 -36.237003 8551022
-151.118 -66.480339 -36.923431 7169629
-150.87697 -65.32193 36.486755 7565675
-151.19078 -65.835648 35.793262 10063235
-151.65627 -65.964493 35.133308 8813939
-151.90785 -66.410187 -37.503868 7037274
-151.5477 -66.333664 -38.190445 7564387
-151.0945 -66.238396 -39.045628 8090995
-151.68376 -66.144867 -40.173122 9143423
-151.17177 -66.05146 -41.208969 8551287
-151.76367 -65.962479 -42.353188 9537920
-151.32375 -65.884613 -43.214298 9143419
-151.81609 -65.778877 -44.543362 7038307
-151.45348 -65.716576 -45.230457 8485237
-151.51115 -65.632027 -46.24371 8813945
-151.55844 -65.546341 -47.256561 9472388
-151.15543 -65.472122 -47.931328 7564651
-150.98631 -64.711487 36.704506 9144191
-151.50699 -64.894508 35.943604 9011318
-151.96329 -65.411224 -48.589989 11906725
-151.53423 -65.329117 -49.258545 8748664
-151.50529 -65.216049 -50.260418 8551542
-151.46846 -65.102898 -51.261642 8025198
-151.42784 -64.989281 -52.266842 9143932
-151.37929 -64.875595 -53.271332 7301726
-151.83937 -64.749138 -54.462376 7762277
-151.26668 -64.647148 -55.287292 6511187
-151.83194 -64.539772 -56.323921 8089960
-151.48814 -64.481384 -56.819923 8090474
-150.77913 -63.594116 37.615211 7565675
-151.25572 -63.771683 36.912834 9406848
-151.63713 -64.032211 36.281845 8748403
-151.16101 -64.430527 -57.321156 7761253
-151.9201 -64.377625 -58.236656 6510930
-151.36783 -64.294487 -59.072769 6510930
-151.89983 -64.207054 -60.336067 9275261
-151.33415 -64.123863 -61.16893 7893608
-151.85539 -64.035072 -62.445148 8814710
-151.39256 -63.968384 -63.109215 7827819
-151.90479 -63.878365 -64.398186 10590353
-151.43172 -63.811573 -65.059883 10590353
-151.93481 -63.720203 -66.361687 7564648
-151.33061 -63.636635 -67.185661 8090991
-151.94545 -63.560551 -68.335846 7564648
-151.57558 -63.510239 -68.828957 8551281
-150.75995 -62.320389 38.380581 7564643
-151.12045 -62.713715 37.698586 7827815
-151.46741 -62.923737 37.140255 8617075
-151.20448 -63.460026 -69.320572 9734788
-151.93593 -63.399338 -70.320175 8090987
-151.43245 -63.332195 -70.974892 8089962
-151.90697 -63.236736 -72.315041 9011320
-151.39314 -63.16946 -72.966881 9011320
-151.85805 -63.072678 -74.320122 7563619
-151.33424 -63.00536 -74.969513 9142393
-151.92245 -62.92411 -76.173401 7563619
-151.38913 -62.856728 -76.820816 9734531
-151.70064 -62.740475 -78.361183 9537406
-151.29283 -62.689911 -78.844292 7563619
-151.72997 -62.589161 -80.236366 8092019
-151.31497 -62.53854 -80.717705 8092019
-150.92966 -61.66013 38.551579 9208955
-151.38918 -61.887444 37.841656 8617075
-151.60327 -62.419594 -82.282776 8552056
-151.59947 -62.265545 -84.180298 10065544
-151.57286 -62.10722 -86.08503 8879478
-151.47043 -61.923031 -87.966301 7827046
-151.83353 -61.801003 -89.402916 10327694
-151.33162 -61.729095 -89.845299 8287853
-151.72939 -61.623501 -91.320129 10195338
-151.26709 -61.570675 -91.787971 10854036
-151.00555 -60.309891 39.603546 7367263
-151.24916 -60.716408 38.841724 9801092
-151.57137 -61.116859 38.06699 10064009
-151.69458 -61.479118 -93.300201 7958632
-151.22453 -61.426224 -93.765755 7564651
-151.80234 -61.350956 -95.137756 10064264
-151.16562 -61.280087 -95.756088 8485488
-151.73715 -61.203472 -97.143875 9143418
-151.73659 -60.962292 -99.215759 8617847
-151.56949 -60.714619 -100.15163 8617331
-151.31985 -59.420139 40.659786 8354159
-151.14204 -59.878208 39.962738 8222573
-151.60347 -60.048073 39.174973 9341054
-151.96414 -60.174728 -100.23768 8091245
-151.46056 -60.047867 -101.02589 8683124
-150.90561 -58.340462 54.539524 11381404
-151.15007 -58.619637 53.929573 10065288
-151.35811 -58.766418 53.060982 11183770
-151.0295 -58.967491 51.926529 9407107
-151.40106 -58.969673 50.833832 7631211
-151.64473 -58.971127 50.103977 8815227
-150.79086 -58.972622 48.816296 12433064
-151.08218 -58.974419 47.907303 9209467
-151.4248 -58.976578 46.814327 8090219
-151.64908 -58.978016 46.08437 9340286
-150.83183 -58.979801 44.647598 7563619
-151.04512 -58.981224 43.92038 7695720
-151.37657 -58.990196 42.832718 8485747
-151.20299 -59.176399 41.998047 8485747
-151.37833 -59.278755 41.262569 8090987
-151.89775 -59.493351 -101.15913 8880502
-151.69017 -59.354179 -102.07841 10525071
-151.73737 -59.06625 -103.17484 8090986
-151.36813 -58.867462 -103.9931 6775642
-151.01619 -57.735138 54.784027 10526095
-151.49866 -57.795799 53.929077 10920853
-151.94104 -58.443737 -103.58137 8090986
-151.71417 -58.052689 -104.05226 6709854
-151.20193 -57.950417 -104.68546 7039331
-150.89099 -56.552826 55.835846 7565675
-151.36102 -56.746265 54.907238 9012344
-151.6097 -57.189724 54.17334 11381404
-151.83798 -57.074364 -104.45184 6907489
-151.38275 -56.960644 -105.02729 6380889
-150.88834 -55.593521 56.52272 9011579
-151.31796 -55.711353 55.715981 8485748
-151.63702 -55.954914 55.005901 9735812
-151.81113 -55.937157 -105.1087 6643803
-151.29276 -55.685253 -105.83138 8288365
-151.08569 -54.709251 56.819733 7563619
-151.51761 -54.788372 56.036644 7695205
-151.96167 -55.111385 -105.39414 7169117
-151.52878 -54.901852 -105.99709 7432545
-150.70941 -53.389843 58.391541 8089963
-150.97578 -53.690041 57.729755 8221549
-151.3752 -53.800865 56.978794 7300447
-151.76503 -54.117992 -106.16289 7300702
-150.87103 -52.725197 58.592331 8089963
-151.36122 -52.755573 57.745934 9208186
-151.62621 -53.076065 57.072144 6839896
-151.91225 -53.291084 -106.44817 8617075
-151.80479 -52.983223 -106.73684 8617075
-150.80246 -51.358406 59.68063 7564643
-151.05817 -51.790821 58.942417 7827303
-151.50064 -51.916286 58.108479 9998469
-152.05772 -52.080379 -106.91547 7563874
-151.00587 -50.766144 59.759838 8288108
-151.49637 -50.812366 58.901424 8880503
-150.90013 -49.657173 60.727295 9537916
-151.34503 -49.778278 59.89217 8683123
-151.60233 -50.209976 59.151772 9341054
-150.85262 -48.650284 61.52404 10196104
-151.29005 -48.755169 60.713028 9471867
-151.6165 -48.987434 59.998222 7564643
-150.77507 -47.290733 62.622288 8419440
-151.03572 -47.717384 61.879906 10787729
-151.51756 -47.892731 60.944099 10853521
-150.97676 -46.697849 62.704887 9011577
-151.47198 -46.736526 61.843853 13023917
-151.70158 -46.95837 61.299492 13023917
-150.82462 -45.306919 64.349838 10262156
-150.94817 -45.619884 63.716728 9933191
-151.32437 -45.772141 62.901028 8682356
-151.57536 -46.135002 62.098022 13023917
-150.85886 -44.260098 66.738815 7894382
-151.17668 -44.347179 65.793869 7236709
-151.1759 -44.6488 64.85775 7630697
-151.48346 -44.878174 63.876907 9340542
-151.25797 -43.549789 77.060501 9406590
-150.88707 -43.926712 75.64032 7563619
-151.33992 -43.928654 74.730331 8879477
-150.86591 -43.933273 71.802582 11116952
-151.38118 -43.935574 70.710609 9340285
-150.69731 -43.98587 68.629936 6840151
-151.0723 -44.000721 67.923744 8024937
-151.53922 -44.019993 67.03968 9275262
-151.00089 -42.745762 77.570427 6775126
-151.58623 -42.917336 77.134827 10854036
-151.11331 -41.827389 77.902512 6775126
-150.95877 -40.595081 78.53511 6445910
-151.32466 -40.964684 78.148247 7564390
-151.11848 -39.704754 78.8246 7235427
-150.74796 -38.764942 79.462883 10853012
-151.32831 -38.841167 79.071556 6314583
-151.13446 -37.75536 79.664398 5920082
-150.74527 -36.647354 80.387459 10854036
-151.32735 -36.719059 79.99707 7104096
-151.13074 -35.635101 80.590797 10918805
-151.36494 -36.087307 80.249184 11379356
-150.81496 -34.327747 81.355484 9142651
-151.1409 -34.717979 80.984299 9339773
-150.94145 -33.636475 81.578735 8418928
-151.43564 -33.762352 81.21891 8089963
-151.17381 -32.612934 81.881454 9866629
-150.92917 -31.517897 82.509712 9867141
-151.4249 -31.640043 82.150543 9801091
-151.09843 -30.721691 82.821259 9274491
-150.88506 -29.329584 84.459084 6511954
-151.07022 -29.819328 83.658043 8748661
-151.41327 -30.176973 83.088005 9537406
-150.84839 -28.505007 93.499619 9736836
-151.35014 -28.619093 93.139351 9801087
-150.69099 -28.901217 90.414062 8616048
-151.12473 -28.902786 89.686996 8485232
-151.55571 -28.904428 88.958275 9932166
-151.0878 -29.005014 85.530708 8748916
-151.58322 -29.041681 85.089653 6511954
-151.14844 -27.660294 93.683495 11578528
-150.7314 -26.540766 94.431061 13551549
-151.25046 -26.798038 93.997429 13551549
-151.07364 -25.57168 94.643173 12301995
-151.27721 -26.1469 94.265663 13551549
-150.68605 -24.362043 95.411903 11906725
-151.20685 -24.616266 94.978561 12433324
-151.06775 -23.661537 95.482155 11775139
-151.23283 -23.963776 95.247902 12433069
-151.14943 -22.710564 95.847534 10722966
-150.92418 -21.650532 96.450508 8815484
-151.38531 -21.788586 96.104858 8815484
-151.06589 -20.718786 96.769859 9142651
-150.73462 -19.561432 97.479614 7958120
-151.25949 -19.809488 97.04631 8616563
-151.10132 -18.648994 97.650162 7498082
-150.67874 -17.365084 98.471596 10851980
-151.20532 -17.610514 98.038307 8880503
-151.10266 -16.725384 98.487694 9602942
-151.02199 -15.190452 99.471909 10128513
-151.20601 -15.777753 98.89933 9536636
-150.97162 -14.329078 100.4833 9997442
-151.22716 -14.658295 99.867264 9076855
-151.07034 -13.940186 101.86651 10853012
-151.8335 -72.430916 29.640638 9538435
-152.02396 -72.455666 28.91823 11906724
-152.14929 -72.435478 27.993732 8156787
-152.16539 -72.351074 26.861061 8156787
-152.04216 -71.51973 31.394539 10853012
-152.29401 -71.744698 30.791538 7366499
-152.48044 -72.054764 29.957005 8879992
-152.65591 -72.272514 28.847729 10459281
-152.16348 -72.276421 25.916555 6511954
-152.15591 -72.202065 24.973164 7564386
-152.1402 -72.113159 23.842562 9801093
-152.12157 -72.039406 22.901609 9012606
-152.09734 -71.965866 21.961941 9933193
-152.06163 -71.878082 20.835844 8683898
-152.02635 -71.805168 19.898758 10196109
-151.98558 -71.73259 18.96306 9011579
-151.93015 -71.645798 17.841812 9274237
-152.3333 -71.547157 16.77331 9405822
-152.28679 -71.489677 16.025848 8090476
-152.67578 -71.391129 14.952516 8090737
-152.6209 -71.333862 14.204885 11905701
-152.10069 -70.753609 31.787209 8353134
-152.63872 -70.900497 31.005804 8616307
-152.5773 -71.291138 13.644832 11050650
-152.5164 -71.234207 12.898904 9142909
-152.43575 -71.163445 11.967809 9142651
-152.33238 -71.078812 10.852457 10260875
-152.24118 -71.008682 9.9245987 10853012
-152.14801 -70.940498 8.9985723 8024680
-152.03046 -70.859306 7.8892856 8879471
-152.26813 -70.761818 6.7248139 9603454
-152.72246 -70.682793 5.8974586 9932161
-152.60641 -70.615715 4.9727187 9208953
-152.46086 -70.53566 3.865052 10261384
-152.30823 -70.455963 2.7597656 10261384
-152.17587 -70.389893 1.8404459 8616560
-152.09406 -70.350365 1.2896881 9734270
-151.92897 -69.65657 32.641788 10062979
-152.4789 -69.804359 31.864538 8155756
-152.01036 -70.310989 0.73962384 9142647
-152.43285 -70.231895 -0.10298316 8287596
-152.64096 -70.148567 -1.095739 8616307
-152.48605 -70.083389 -2.0131228 10261643
-152.27396 -69.996353 -3.1112602 9143419
-152.21091 -69.868423 -4.3029113 8287853
-152.69987 -69.763245 -5.1447554 8090474
-152.45665 -69.669296 -6.0560451 7761509
-152.15898 -69.557106 -7.1461725 6906456
-152.37395 -69.449188 -8.0768576 7564389
-152.68666 -69.378593 -8.6462278 8092019
-152.20129 -68.719986 32.844578 9339514
-152.60092 -68.840218 32.272331 7563875
-152.52933 -69.322739 -9.1904325 5919050
-152.26338 -69.229973 -10.095152 5919306
-152.40199 -69.101471 -11.211719 9604228
-152.58722 -68.991348 -12.149153 8157298
-152.30055 -68.897743 -13.049899 8485232
-152.41769 -68.768806 -14.170815 9734270
-152.58592 -68.658524 -15.113248 8090216
-152.28246 -68.565865 -16.009972 9603202
-152.26547 -68.45533 -16.998152 9735044
-152.03853 -67.628075 33.684624 8879732
-152.3969 -67.906906 33.071877 8353645
-152.72037 -68.381958 -17.545399 9340030
-152.46648 -68.308273 -18.260832 8287600
-152.14742 -68.217278 -19.153 7563618
-152.51067 -68.130386 -20.132919 7169116
-152.48485 -68.035957 -21.250929 7169628
-152.18423 -67.961494 -22.144297 8485488
-152.53612 -67.876541 -23.134869 12169381
-152.48907 -67.781967 -24.255472 8090987
-152.17049 -67.70787 -25.145445 8091503
-152.50491 -67.622131 -26.145613 7630956
-152.43663 -67.527489 -27.268446 10919834
-152.10028 -67.453728 -28.154753 14077894
-151.89395 -66.677666 34.419472 11378324
-152.36105 -66.811462 33.754513 10721420
-152.75218 -67.141556 33.070896 9011574
-152.72318 -67.35051 -29.221767 8484714
-152.23831 -67.233299 -30.271246 7958372
-152.80402 -67.108429 -31.341084 7037274
-152.38736 -67.011078 -32.213215 9998726
-152.45477 -66.899536 -33.18837 9341307
-152.51474 -66.78801 -34.163837 9406074
-152.08258 -66.691345 -35.030361 7761763
-152.62027 -66.564041 -36.12286 9011058
-152.17621 -66.467781 -36.987137 9274229
-152.0945 -65.728348 34.719868 9405819
-152.57326 -65.877251 34.031471 10786957
-152.70427 -66.339478 -38.090218 8221544
-152.18947 -66.238716 -39.132282 8090995
-152.80174 -66.150421 -40.271687 8090995
-152.37207 -66.071899 -41.141357 11906724
-152.4563 -65.987999 -42.151184 10788243
-152.53256 -65.903969 -43.161598 8682355
-152.08607 -65.825653 -44.026299 8288113
-152.67076 -65.734787 -45.192932 10327179
-152.21146 -65.656532 -46.05584 9340287
-152.78647 -65.564384 -47.235168 9998731
-152.28348 -65.472923 -48.086407 10459281
-151.95383 -64.544678 35.585541 8813939
-152.3364 -64.809868 34.950363 8879989
-152.77805 -65.349548 -49.255478 9735557
-152.23494 -65.246429 -50.094597 10064777
-152.71841 -65.121651 -51.274185 8880502
-152.16295 -65.018829 -52.109558 8025193
-152.63521 -64.892647 -53.299568 7696743
-152.18137 -64.810524 -53.965225 7762277
-152.75948 -64.703621 -54.999207 7366238
-152.18074 -64.601059 -55.828548 8089960
-152.68622 -64.49437 -57.05859 7695974
-152.03616 -63.782879 35.925358 8682867
-152.54506 -63.919273 35.20647 8682867
-152.2496 -64.427628 -57.732914 7039331
-152.68474 -64.324013 -59.162365 7695975
-152.23735 -64.257126 -59.834251 8089962
-152.65915 -64.152138 -61.27615 8156780
-152.2009 -64.085205 -61.945366 9735812
-152.72626 -63.995602 -63.232857 7564651
-152.25775 -63.928555 -63.899776 7564651
-152.77403 -63.837658 -65.200111 8222064
-152.29555 -63.7705 -65.86515 7564648
-152.80272 -63.678326 -67.178551 10854036
-152.31381 -63.611008 -67.84095 5920082
-152.81126 -63.517357 -69.167091 8354159
-152.04085 -62.732445 36.530884 8617075
-152.50676 -62.91127 35.841183 8682867
-152.31206 -63.44981 -69.827286 9011576
-152.80016 -63.354858 -71.166489 8814453
-152.29062 -63.287266 -71.823944 8814197
-152.76907 -63.19096 -73.176132 10260873
-152.24945 -63.123314 -73.831146 6511954
-152.71838 -63.025646 -75.196564 8352878
-152.32106 -62.974854 -75.686012 9142393
-152.64734 -62.858932 -77.227104 10327692
-152.10736 -62.79113 -77.876549 9537406
-152.69368 -62.707829 -79.106041 13551032
-152.14391 -62.639877 -79.753326 9537406
-152.72475 -62.555321 -80.996696 12302515
-151.83514 -61.53421 37.48674 8617075
-152.22031 -61.790619 36.853451 8879990
-152.70255 -61.967323 36.144485 8682867
-152.59492 -62.461391 -82.109238 8092019
-152.45599 -62.367374 -83.220444 10326663
-153.02965 -62.280327 -84.491905 9010805
-152.45126 -62.212078 -85.13311 9472895
-153.01907 -62.123718 -86.418724 6510930
-152.42874 -62.054565 -87.05619 6774102
-152.99281 -61.965729 -88.357277 8287341
-152.50168 -61.897095 -88.809814 8684154
-152.70128 -61.749851 -90.408592 8551541
-152.19337 -61.67754 -90.852203 8287853
-152.78679 -61.603149 -92.205978 8419183
-152.16353 -61.532204 -92.832741 10854036
-152.03091 -60.705814 37.844467 9143163
-152.52371 -60.865139 37.071362 8879992
-152.75395 -61.457581 -94.204041 7958632
-152.70459 -61.310383 -96.214928 7038044
-153.09175 -61.153656 -97.491234 10459278
-152.6001 -61.021465 -98.214127 7433832
-152.4967 -60.748623 -98.928375 8618105
-151.97659 -59.463856 39.759113 9933191
-152.31035 -59.700314 38.770508 9998473
-152.43417 -60.138165 38.021858 9406081
-153.12299 -60.356102 -98.551422 7039331
-152.80347 -60.069954 -99.302032 7565418
-152.57065 -59.787815 -99.93631 8091761
-151.85492 -58.602119 52.755898 12038823
-152.28171 -58.729744 51.946945 10262415
-152.62732 -58.970329 51.041431 12433069
-151.82483 -58.972218 49.55574 10261391
-152.06197 -58.97366 48.823776 9406340
-152.3533 -58.975475 47.90712 7695978
-152.63947 -58.977287 46.988899 7563619
-151.75975 -58.978733 45.71899 11182489
-151.97816 -58.980167 44.987259 12367019
-152.29964 -58.982319 43.887882 7762027
-152.61317 -58.98447 42.786221 7762027
-151.93781 -59.071972 41.611439 8617331
-152.35847 -59.140491 40.741974 8485745
-152.69362 -59.195934 40.044533 9341054
-152.43272 -59.512051 -100.45918 7894126
-152.87329 -59.23111 -101.01343 9077884
-152.67851 -59.043179 -102.12145 9077884
-152.38762 -58.923489 -102.81404 11380380
-151.78828 -57.833122 53.415157 9736323
-152.24438 -57.685978 52.752373 8289138
-152.60245 -58.01128 51.918377 8223091
-152.96191 -58.50106 -102.39995 8814456
-152.64171 -57.970398 -103.05299 9078141
-152.21341 -57.548676 -103.76772 8092019
-151.98328 -56.771866 53.841976 7235421
-152.54001 -56.7295 52.935371 8156782
-152.8567 -56.900761 -103.40018 6644316
-152.3429 -56.797512 -104.03576 6841696
-151.93466 -55.681511 54.699497 6840408
-152.31349 -55.872528 53.926155 6906201
-152.60751 -56.075069 53.287308 9735812
-152.69032 -55.981518 -104.09402 5985875
-151.84216 -54.64045 55.595768 6116173
-152.24574 -54.790764 54.809795 6182222
-152.60762 -55.109756 53.973896 5919050
-152.84247 -55.15485 -104.37817 5393738
-152.4962 -54.985817 -104.86124 6116687
-152.00583 -53.733593 55.965469 5392706
-152.49379 -53.7892 55.10482 5919050
-153.1678 -54.412487 -104.42083 9208955
-152.64687 -54.15913 -105.14597 7563874
-152.00027 -52.654678 56.742313 6181965
-152.47006 -52.816097 55.837036 7695461
-152.91939 -53.212627 -105.3345 9735812
-152.47838 -52.858597 -106.02631 8814453
-151.86716 -51.598755 57.717541 6906201
-152.30194 -51.712158 56.905308 5721670
-152.62549 -51.951996 56.190304 6642772
-152.75076 -51.925606 -106.19823 7563874
-152.47639 -51.640358 -106.66251 6510930
-151.79079 -50.840893 58.385494 9341054
-152.24469 -50.630199 57.771584 7892839
-152.54228 -51.019279 56.99382 5261119
-152.95923 -50.974144 -106.45336 6510930
-152.5204 -50.956886 -106.96748 7563874
-151.97696 -49.785988 58.823105 9998984
-152.49612 -49.682625 58.022923 9538177
-153.14998 -50.295876 -106.58666 6510930
-152.77393 -50.05275 -107.14602 7037274
-151.91574 -48.708504 59.69313 10196106
-152.36508 -48.783699 58.883327 7959403
-152.60292 -49.078907 58.272926 9341054
-152.95757 -49.221619 -107.3671 6839895
-151.85083 -47.513737 60.652874 9077626
-152.22202 -47.817791 59.811756 8749177
-152.54948 -48.051407 59.094215 10065291
-153.07111 -48.463699 -107.63084 7563874
-151.83696 -46.562489 61.353405 13023917
-152.06657 -46.785072 60.808426 10656142
-152.5092 -46.863514 60.007683 8551798
-151.79959 -45.373196 62.615967 9537921
-152.01321 -45.725502 61.796082 11511193
-152.41992 -45.937027 60.877205 8683125
-151.96472 -44.309952 64.61853 8089963
-152.18039 -44.445663 63.716934 9340542
-152.18303 -44.831146 62.773045 9209213
-152.54353 -45.04718 61.84996 8288624
-152.0204 -43.550892 76.590309 7169373
-152.51071 -43.696316 76.224579 7563619
-151.78767 -43.93058 73.817825 10590094
-152.22955 -43.932518 72.902443 9010808
-152.57948 -43.934067 72.168419 8616307
-151.80476 -43.937485 69.797913 8682867
-152.22244 -43.9394 68.882523 11051415
-152.55302 -43.940937 68.148628 8617080
-151.81841 -44.031937 66.508247 8814969
-152.18924 -44.048527 65.798744 8814458
-152.5591 -44.065582 65.088043 8682867
-152.14536 -42.744183 76.865913 7169886
-151.94238 -41.477558 77.543556 8024687
-152.30966 -41.849979 77.154541 7630185
-152.15547 -40.612545 77.789062 10589583
-151.67641 -39.52486 78.558678 5920082
-152.26732 -39.689804 78.122192 8222065
-152.12238 -38.672386 78.655083 6709341
-151.67789 -37.399673 79.484146 5920082
-152.1846 -37.676762 79.050629 6643546
-152.18471 -36.612423 79.514481 6050893
-152.4192 -37.067726 79.171364 6643287
-151.67473 -35.275482 80.411789 11379356
-152.10551 -35.751797 79.938431 5919050
-151.90758 -34.66547 80.534065 9734531
-152.40401 -34.794331 80.17157 5919050
-152.17929 -33.775379 80.754372 8616307
-151.82233 -32.743698 81.424286 8748150
-152.31311 -32.797379 81.098061 7564393
-152.11597 -31.755243 81.673912 8485490
-151.94734 -30.364767 82.589478 9931906
-152.26595 -30.810724 82.052017 8814198
-151.87376 -29.405264 83.577156 8288368
-152.16525 -29.735132 83.023346 10523272
-152.13049 -28.568007 92.678963 9405814
-151.76958 -28.905233 88.592995 9932166
-152.19466 -28.906805 87.860741 9143418
-152.61671 -28.908447 87.126839 9209467
-152.07953 -29.078903 84.647301 7367265
-152.57771 -29.116625 84.20417 8288368
-152.14001 -27.740002 93.035156 10458246
-152.12048 -26.647238 93.525162 12630960
-152.56665 -27.119167 93.042763 13023917
-152.11638 -25.700617 93.941734 12234918
-151.96222 -24.59683 94.519829 12827055
-152.32724 -24.91456 94.155052 12432040
-152.1062 -23.804943 94.777031 12893363
-151.91768 -22.405735 95.505569 10985881
-152.20847 -22.935846 95.093849 11775139
-152.15619 -21.573187 95.721939 10657173
-151.63524 -20.488932 96.517403 8092019
-152.16159 -20.739164 96.082184 8288628
-152.13655 -19.638641 96.577362 7235685
-152.58888 -20.104446 96.094109 7038307
-152.02547 -18.664402 97.070816 8419696
-152.00919 -17.650291 97.522926 7958889
-152.53862 -17.897598 97.087173 8419696
-152.10898 -16.772612 97.843643 8617075
-152.06448 -15.450552 98.591141 8024682
-152.25951 -15.969644 98.1119 9011577
-152.09152 -14.368482 99.650543 8485235
-152.12056 -14.801468 99.147476 7761771
-151.81953 -13.965358 101.31168 9932163
-152.38278 -13.984443 100.89369 10655627
-152.99449 -72.306793 27.387526 9341059
-153.07225 -72.313187 27.021158 9341059
-152.95555 -71.561867 29.858299 7563619
-153.2659 -71.75415 28.907372 9144449
-153.36081 -72.051056 27.943281 8025969
-153.49194 -72.178909 26.841175 9669764
-153.10577 -72.24115 25.887556 10787475
-153.09645 -72.166321 24.938261 7301214
-153.08157 -72.091896 23.990284 10064264
-153.05698 -72.002853 22.854187 9275777
-153.03093 -71.929016 21.908697 9933193
-152.9993 -71.8554 20.964586 8355190
-152.95467 -71.767502 19.833202 9144449
