# .PCD v0.7 - Point Cloud Data file format
VERSION 0.7
FIELDS x y z rgb
SIZE 4 4 4 4
TYPE F F F U
COUNT 1 1 1 1
WIDTH 1196
HEIGHT 1
VIEWPOINT 0 0 0 1 0 0 0
POINTS 1196
DATA ascii
150.65825 -44.040936 -31.024336 13157306
150.8362 -44.039974 -30.119818 16776692
150.97502 -44.039211 -29.395548 16776175
152.60046 -44.037163 -28.565912 9208443
152.73125 -44.0364 -27.832994 10195335
152.92125 -44.035255 -26.732542 10458762
154.64638 -44.0326 -25.308996 11182228
154.78981 -44.031647 -24.380518 9340539
154.90105 -44.030884 -23.63714 7037274
156.51897 -44.028942 -22.91601 9932678
156.64803 -44.027988 -21.976324 11313816
156.74765 -44.027233 -21.224012 9931390
158.40459 -44.025059 -20.279936 8681835
158.49542 -44.0243 -19.519171 9405822
158.58324 -44.02354 -18.758116 9405822
160.25272 -44.021328 -17.778158 7563619
160.31221 -44.020756 -17.200926 8682355
160.40677 -44.019814 -16.238585 7827815
161.76167 -43.939041 -15.584623 7892581
162.12346 -43.80249 -14.83293 7168859
162.47234 -43.74324 -13.841894 7958634
163.02383 -43.569012 -12.941069 10590097
163.39693 -43.648617 -11.983023 8287859
163.69643 -43.501034 -11.411459 10065801
103.17454 -42.6987 -96.432686 8616821
103.68204 -42.978031 -95.866936 8353906
104.40161 -43.050865 -95.209122 9274238
105.33557 -42.787991 -94.515198 7498600
105.99615 -43.027241 -93.834312 7761770
106.52139 -43.192055 -93.304253 9734788
162.4285 -43.234776 -14.663374 7432031
162.87511 -42.904675 -13.914061 8090220
163.24834 -42.770439 -13.1555 8879995
163.6226 -42.848495 -12.196241 10261388
164.07303 -42.731602 -11.238462 9078906
164.38905 -42.714264 -10.505705 9276285
164.75136 -42.451321 -9.8923473 10065801
102.02986 -41.621895 -97.908508 6510930
102.56719 -41.870052 -97.33075 7037790
103.2173 -42.008221 -96.704208 8485750
103.98063 -42.037064 -96.028046 8156529
104.74467 -42.067909 -95.350426 9077116
105.38186 -42.0951 -94.784637 7038307
163.47287 -42.182854 -13.172873 7630187
163.90817 -41.933262 -12.375044 8748409
164.32112 -41.812408 -11.509375 8092011
164.7522 -41.811539 -10.488066 9078906
165.07188 -41.835197 -9.5922756 9934215
101.40378 -40.682705 -98.872307 8682355
101.98492 -40.886784 -98.276176 9011318
102.70697 -40.952892 -97.619217 8025200
103.47183 -40.979103 -96.942978 9209472
104.19469 -41.048958 -96.283691 7762029
104.78951 -41.375736 -95.620796 9734788
164.60124 -41.000488 -11.60388 8486769
165.01205 -40.922421 -10.702627 8947320
165.39632 -40.818127 -9.8150616 9342078
165.63176 -40.780552 -8.8783779 14275272
100.23349 -39.503597 -100.41613 7564643
100.77431 -39.746326 -99.837761 7761765
101.4274 -39.878292 -99.211327 9471869
102.19333 -39.900024 -98.536118 9208696
102.95968 -39.923676 -97.859673 9275006
103.62453 -40.153538 -97.179321 8156786
165.71819 -39.920452 -9.8672466 10591889
166.00441 -39.777912 -8.8783092 13617855
166.24861 -39.619827 -8.0425167 9341822
56.840836 -39.296516 -161.90881 9735555
57.495338 -39.214775 -161.30096 8682867
58.308319 -39.112957 -160.53918 11314588
58.953861 -39.031849 -159.92816 10392971
61.68861 -38.563778 -154.68127 8089963
99.590195 -38.459251 -101.45573 9471871
100.18467 -38.77079 -100.78822 8748660
100.90865 -38.830051 -100.13055 6972505
101.67622 -38.849384 -99.455032 13352628
102.40168 -38.912571 -98.796448 10195334
103.00029 -39.233032 -98.13311 9472127
166.27972 -38.918098 -9.0777645 10855061
166.54892 -38.795788 -8.0695248 8749173
166.78212 -38.689072 -7.1972098 9143417
62.148933 -38.504948 -154.22504 8813683
62.606613 -38.446323 -153.76797 8813683
63.213646 -38.368328 -153.1575 10063747
63.966591 -38.271278 -152.39273 11775133
64.713669 -38.174606 -151.62613 11511962
65.306824 -38.09753 -151.01141 9340539
65.749146 -38.039963 -150.54967 7038307
68.412949 -37.570461 -145.15018 8090987
68.692383 -37.533463 -144.84402 9340539
99.013405 -37.879955 -102.24445 7892843
99.59317 -37.946053 -101.70175 9274751
100.40086 -37.789055 -101.06633 10196106
101.16537 -37.804298 -100.38556 7630179
101.82648 -38.025181 -99.697617 10326921
166.84309 -37.884426 -8.2701015 11511964
167.08446 -37.838326 -7.2595496 9866882
167.38982 -37.520241 -6.416265 10261383
68.970688 -37.496464 -144.5377 9340539
69.386383 -37.441116 -144.07761 9340539
70.074348 -37.349178 -143.3096 8682867
70.75679 -37.257591 -142.54019 9209211
71.432869 -37.166504 -141.76921 10393227
72.103424 -37.075768 -140.99693 11050899
72.767715 -36.985474 -140.22313 9998725
73.426468 -36.895618 -139.448 8814709
74.079041 -36.80616 -138.67165 9406590
74.726089 -36.717125 -137.89398 9143934
75.111557 -36.663849 -137.42688 8420470
97.853783 -36.725773 -103.8252 9867395
98.392593 -36.959667 -103.23726 11774880
99.044601 -37.082062 -102.60361 8880251
99.810234 -37.093513 -101.92363 9932681
100.61972 -36.936062 -101.28686 8946040
101.21416 -37.119049 -100.67458 8682867
167.44008 -36.782757 -7.4249625 11313814
167.64833 -36.819359 -6.4252982 11379352
167.81488 -36.84948 -5.6243491 9340030
96.828384 -35.691864 -105.22943 8616307
97.319572 -35.78067 -104.75374 8551539
97.853439 -36.041679 -104.15701 8157296
98.621063 -36.049553 -103.47699 9999244
99.388718 -36.059181 -102.79617 8024945
100.02754 -36.240013 -102.14581 7893615
100.49547 -36.419201 -101.64681 9735302
167.70312 -36.18898 -7.2340827 13024175
167.95506 -35.891026 -6.5976996 14734535
168.18535 -35.84597 -5.6354041 9208956
168.47961 -35.613136 -4.6993766 9208956
89.250511 -34.53931 -117.52603 9143166
89.534454 -34.486633 -117.02708 8090736
96.196617 -34.776573 -106.22945 7563618
96.782478 -34.964432 -105.62234 8287597
97.509834 -35.011749 -104.95877 10130313
98.279526 -35.01812 -104.2776 9538950
98.988022 -35.123455 -103.60248 8683898
99.604225 -35.376183 -102.93727 7564651
168.31441 -35.013077 -6.4488959 10788244
168.51453 -34.833382 -5.8480048 10261899
168.72444 -34.87009 -4.8405814 10393486
169.08377 -34.504459 -3.8338294 11906468
89.816193 -34.434113 -116.52824 7300957
90.188904 -34.364311 -115.8634 8879475
90.650055 -34.277672 -115.03255 10655371
91.196419 -34.174408 -114.03618 10130054
91.646233 -34.088844 -113.20605 9340795
92.099899 -33.909107 -111.84335 8089963
92.546936 -33.877293 -111.29839 8089963
93.374001 -33.770287 -110.53516 7564130
94.084885 -33.652691 -110.00998 7367007
94.647858 -33.638321 -109.23345 8091242
95.225067 -33.706051 -108.32169 10656399
95.636292 -33.923519 -107.41508 10130312
96.295364 -34.003887 -106.67957 8814194
97.047318 -33.999664 -105.97495 10919828
97.723267 -34.089741 -105.26095 10590605
98.407822 -34.247829 -104.53922 9012863
168.77953 -34.2365 -5.6535392 9735555
169.05159 -33.91544 -4.965116 10590865
169.30841 -33.77589 -4.0416541 10788244
169.50928 -33.719223 -3.2312369 11906468
96.055237 -33.443745 -107.95779 13550517
169.39557 -33.054085 -4.8578467 11906725
169.60779 -32.918037 -4.1293845 10262156
169.90843 -32.711269 -3.1208549 10262156
170.18239 -32.471405 -2.287786 10459022
169.93947 -32.070126 -4.054769 10459278
170.1814 -31.823324 -3.3780646 10985879
170.46227 -31.684025 -2.3452125 10590866
170.67613 -31.547934 -1.6094794 8092019
170.48553 -31.083164 -3.246717 10459278
170.76067 -30.840816 -2.4987388 9538692
171.01434 -30.652657 -1.7758079 9670278
171.48555 -29.952379 -1.8196921 9078399
134.71675 -51.630039 -53.846172 9077884
135.2072 -51.766979 -53.241459 8814970
135.75243 -51.89299 -52.583317 9735813
136.28406 -51.901047 -51.765362 9800836
136.61304 -51.638042 -51.089588 9011320
132.75981 -50.678276 -56.479347 13024949
133.41356 -50.599907 -55.814861 9077369
134.06044 -50.894043 -54.95557 8484977
134.70543 -51.00407 -54.198315 9801604
135.44832 -50.757896 -53.528458 8880505
136.09859 -50.871967 -52.763325 9012089
136.62987 -50.930401 -51.842506 9275260
136.97047 -50.875946 -50.895824 9209467
137.37358 -50.55616 -50.064964 11182742
131.13014 -49.684959 -58.781071 9932675
131.78574 -49.68008 -58.074711 8946038
132.30461 -49.865898 -57.412678 10261899
132.89436 -49.959316 -56.724121 11577759
133.74522 -49.771797 -55.905727 9801604
134.39897 -49.878914 -55.140533 10591632
135.00844 -49.880455 -54.480556 10328973
135.64256 -49.934059 -53.765614 9538176
136.36436 -50.015316 -52.940868 8682867
136.95958 -49.960129 -51.966862 9012088
137.29684 -49.849022 -51.094379 9406846
137.6364 -49.841057 -50.09803 11840159
137.99165 -49.568348 -49.355541 9537664
129.39015 -48.701527 -61.196751 10261387
129.91733 -48.593658 -60.685246 8090987
130.55733 -48.867676 -59.844318 8222316
131.26045 -48.97086 -59.027851 9143417
131.97125 -48.783211 -58.361004 8814452
132.5627 -48.799309 -57.712597 9077625
133.27299 -48.909012 -56.884827 9669763
133.9882 -48.915798 -56.107632 10985878
134.58458 -48.993668 -55.420418 12630956
135.17955 -49.215137 -54.656654 12170405
135.65903 -49.294716 -54.094906 9932934
137.58101 -49.014702 -51.199303 9867140
137.92703 -48.7701 -50.452335 11577500
138.26678 -48.764034 -49.45327 9537664
138.60699 -48.715614 -48.501022 9011064
138.95403 -48.40123 -47.82983 9405822
127.77458 -47.520874 -63.585033 7433056
128.18002 -47.633076 -63.085621 9143416
128.74501 -47.842949 -62.360683 6709333
129.39952 -47.97633 -61.580379 9011831
130.22072 -47.829552 -60.771923 8551282
130.92574 -47.824303 -60.012302 9077369
131.54655 -47.965565 -59.264164 8222573
132.13904 -47.894741 -58.661831 9340541
132.81602 -47.953136 -57.897991 9800581
133.52557 -48.208462 -56.991978 10195851
138.22792 -48.053658 -50.374191 8682867
138.57256 -47.870003 -49.561893 9274745
138.91222 -47.866188 -48.560463 9603453
139.2408 -47.828888 -47.629776 8880246
125.32993 -46.414703 -66.994263 8682867
125.88689 -46.473156 -66.325645 9537144
126.53568 -46.681137 -65.433372 11116180
127.16055 -46.864475 -64.624321 9603969
127.7785 -46.89043 -63.950504 7959144
128.43742 -46.726086 -63.354847 10261640
129.08041 -46.850842 -62.56995 9143416
129.77257 -46.939796 -61.757008 6972506
130.45346 -46.984085 -60.981953 9143419
131.17346 -46.98254 -60.201374 11972518
131.76106 -47.211357 -59.441624 8090987
132.1156 -47.261997 -59.030659 8090987
138.87257 -47.213032 -49.418671 8090987
139.1937 -47.018074 -48.704929 9208952
139.52666 -46.972279 -47.776703 9011576
139.84189 -46.921822 -46.906425 8485232
140.14137 -46.736923 -46.243099 10064008
121.74564 -45.426121 -71.9879 9078650
122.3018 -45.473526 -71.331993 8486002
122.96955 -45.532249 -70.542519 10064010
123.53259 -45.746391 -69.691162 7893615
124.2009 -45.809456 -68.896584 8092011
124.97662 -45.720661 -68.156731 8353646
125.58189 -45.846981 -67.359322 9011059
126.31808 -45.856857 -66.550987 9997695
126.93476 -45.963772 -65.763191 11115922
127.50317 -46.031677 -65.071518 8551281
128.05685 -46.129227 -64.362564 6840919
128.78624 -46.128922 -63.573254 10919314
129.46156 -46.208111 -62.753174 13484982
139.87657 -46.296764 -47.957443 9735043
140.34138 -46.065968 -47.12524 8945783
140.73093 -45.975311 -46.186451 9603714
141.0845 -45.938564 -45.228294 10064521
141.55408 -45.741901 -44.305279 8090731
114.77694 -44.496872 -81.755493 8681835
115.41396 -44.517361 -80.967072 9865600
116.04858 -44.539036 -80.175682 8156524
116.68083 -44.561916 -79.381493 8090987
117.31086 -44.585926 -78.584312 11445918
118.19286 -44.515491 -77.950371 11577760
118.81972 -44.541912 -77.145599 10525584
119.35097 -44.586666 -76.35923 10591377
119.80711 -44.693596 -75.365158 8354670
120.32359 -44.825375 -74.411034 6906455
120.81199 -44.912247 -73.677917 8879987
121.38388 -44.89146 -73.073006 9341309
121.95274 -44.959957 -72.306206 7564643
122.61427 -45.013317 -71.513023 8683382
123.28412 -45.071583 -70.721764 9340545
123.9546 -45.131878 -69.927582 7893615
124.62561 -45.19421 -69.130478 8089963
125.4045 -45.10437 -68.388336 8287341
125.85314 -45.148262 -67.852974 8089963
141.50876 -45.248539 -45.595913 8616819
141.95946 -45.107281 -44.656891 7301471
142.36659 -45.026634 -43.715969 9275519
142.84207 -44.845612 -42.814499 8486774
143.60786 -44.607693 -42.143017 8419697
144.15939 -44.531918 -41.25473 9339772
144.47762 -44.540234 -40.224262 9405563
145.69077 -44.350792 -38.496555 10589324
106.94267 -43.562042 -92.772842 8616822
107.46778 -43.729622 -92.241753 8682867
108.173 -43.803734 -91.595886 10458252
108.89703 -43.810768 -90.963631 9274491
109.57842 -43.887157 -90.337494 8551279
110.17261 -44.100185 -89.726036 9011573
111.30267 -44.176342 -86.734932 10458251
112.00727 -44.209755 -85.999268 8813685
112.68682 -44.235264 -85.242668 9471357
113.33624 -44.251099 -84.462303 7827815
113.98331 -44.268082 -83.679199 9340286
114.62813 -44.286224 -82.893105 8879473
115.27042 -44.305599 -82.104233 9602425
115.91041 -44.326077 -81.312553 10326151
116.54803 -44.347752 -80.518021 8419696
117.18336 -44.370625 -79.720535 9340286
117.81645 -44.394627 -78.919983 11051159
145.00552 -44.328945 -40.742397 9339772
145.32413 -44.338455 -39.706764 8813171
145.99416 -44.205791 -39.011169 11181204
146.48563 -44.145718 -38.139969 11379609
146.79652 -44.158424 -37.095726 10196106
148.00665 -44.047955 -36.453819 7827818
148.21725 -44.046982 -35.565063 8617330
148.42297 -44.046013 -34.675182 7301470
150.16949 -44.043446 -33.370945 6511954
150.39944 -44.042286 -32.288948 10129541
150.54883 -44.041512 -31.566622 9537662
152.18604 -44.039478 -30.760588 16777207
152.32738 -44.038708 -30.029707 15920610
152.49968 -44.037743 -29.115137 12959412
154.27878 -44.034897 -27.533628 8814968
154.43564 -44.033936 -26.607294 10196106
154.5575 -44.033165 -25.865725 13023917
156.21483 -44.031044 -24.980452 7038307
156.32832 -44.030277 -24.230143 7037533
156.43877 -44.029518 -23.47946 7037274
158.21097 -44.026585 -21.799955 11050896
158.33372 -44.025631 -20.850107 10261124
159.85095 -43.984814 -20.067465 10789009
160.12424 -43.927444 -19.320868 9407614
160.53352 -43.690807 -18.476171 7828071
161.02368 -43.584206 -17.664213 9010806
161.39232 -43.656086 -16.723883 8024169
161.76166 -43.659679 -15.845808 8155752
106.22913 -42.568626 -93.836876 7827307
106.90756 -42.819523 -93.135269 8484978
107.63055 -42.900497 -92.470924 9603202
108.39741 -42.942181 -91.785965 11445403
109.12198 -43.027222 -91.118423 11905951
109.71498 -43.369278 -90.450302 6511954
160.72812 -43.112671 -18.804785 8092011
161.25789 -42.838249 -17.806593 10129285
161.61258 -42.864113 -16.942198 7563619
162.0569 -42.741302 -16.004683 8616302
162.44312 -42.73354 -15.097174 8813680
162.80043 -42.608883 -14.367414 7564132
105.6384 -41.845848 -94.67321 7169892
106.36259 -41.79174 -94.0681 7827305
107.12975 -41.828388 -93.385216 7563618
107.89778 -41.8671 -92.7006 8879479
108.56161 -42.111961 -92.014381 10853267
161.61095 -42.23872 -17.530569 9010806
161.96606 -41.97184 -16.938803 8089962
162.35196 -41.752506 -16.229818 7892581
162.72478 -41.823963 -15.279989 9405815
163.15805 -41.782463 -14.292547 7695976
163.56902 -41.659348 -13.434278 7367015
163.99818 -41.443684 -12.619246 8287859
104.57843 -40.67355 -96.118088 7893358
105.06458 -40.940689 -95.576302 8682359
105.77032 -41.069496 -94.905548 7827049
106.58183 -40.931545 -94.262108 7497825
107.33304 -40.891903 -93.627182 8287341
107.81939 -41.164822 -93.082642 9011064
162.64845 -41.181164 -16.06143 9734788
163.02159 -40.972267 -15.372824 9537408
163.43877 -40.791706 -14.553457 8617075
163.84682 -40.78019 -13.597853 10789012
164.22362 -40.854256 -12.635702 9933194
164.752 -40.464996 -11.746611 8683892
165.05504 -40.384171 -11.103605 10263180
103.85434 -39.693893 -97.185127 8090993
104.49419 -39.976723 -96.502731 7827820
105.26243 -40.006123 -95.822136 8484719
106.0314 -40.037464 -95.139984 8221547
106.73943 -40.167542 -94.46669 7497568
163.69453 -40.119698 -14.575583 7564392
164.14607 -39.836521 -13.770414 12433581
164.5239 -39.855804 -12.856665 11183770
164.92427 -39.812466 -11.947691 9209980
165.35844 -39.807022 -10.923452 9539201
165.66298 -39.654804 -10.343359 9341822
57.481182 -38.903347 -163.31876 11576728
57.809307 -39.114346 -162.79683 10853262
58.357922 -39.09063 -162.49228 9340539
59.754784 -38.930813 -159.16226 9603458
60.549713 -38.830139 -158.39441 8879991
61.180908 -38.749977 -157.77856 11050644
61.807926 -38.670021 -157.16141 9076855
62.585831 -38.570518 -156.38806 10195595
102.78416 -38.534557 -98.633118 9208696
103.27332 -38.796677 -98.090973 8485234
103.98165 -38.918568 -97.421036 7564646
104.75127 -38.94537 -96.740387 7564642
105.52161 -38.974045 -96.05825 8945012
106.16308 -39.260365 -95.372948 8352876
164.90038 -38.941242 -12.81848 8092011
165.28001 -38.730663 -12.115011 8420464
165.62347 -38.8493 -11.189741 8749429
166.02147 -38.812111 -10.25025 9605250
166.30144 -38.639618 -9.4462185 9736836
57.493694 -38.404476 -163.77345 10853262
63.203987 -38.491199 -155.76816 10063747
66.188988 -37.982441 -150.08722 8090736
66.77224 -37.906071 -149.46977 9143166
67.495476 -37.811028 -148.6963 9142905
68.213036 -37.716373 -147.9213 10458509
68.782455 -37.640961 -147.30008 11379348
69.488579 -37.547077 -146.52208 10853262
102.06055 -37.56686 -99.712074 8879732
102.69736 -37.840965 -99.02269 7695714
103.46611 -37.862801 -98.34153 7498080
104.23685 -37.886955 -97.660385 6643540
104.94727 -38.010181 -96.988083 7367263
105.43715 -38.27586 -96.44368 9735555
165.65904 -37.95425 -11.94171 9341822
165.96497 -37.869789 -11.295156 9077880
166.33427 -37.868073 -10.383024 9868422
166.65697 -37.711697 -9.3984432 9999752
166.90694 -37.470978 -8.6748638 9736836
70.18898 -37.453579 -145.74265 9340539
70.882965 -37.360554 -144.96161 9735296
75.494705 -36.610821 -136.9592 9670021
76.002396 -36.540306 -136.33505 8090992
101.53007 -36.724937 -100.58728 10130313
102.19704 -36.796726 -99.964973 9668735
102.96431 -36.815029 -99.280258 7695203
103.73192 -36.835133 -98.594345 7892582
104.36761 -37.111828 -97.90036 6511954
166.57724 -37.133385 -10.531294 10459020
166.93864 -36.790569 -9.6717815 10327692
167.19026 -36.740589 -8.6216793 9209210
167.31519 -36.761398 -8.0237255 9801090
76.631699 -36.452477 -135.55374 8419957
77.255585 -36.365143 -134.77147 9735296
77.873306 -36.278179 -133.98793 8946554
78.485741 -36.191597 -133.20349 6973280
79.09201 -36.105522 -132.41792 7431776
79.692978 -36.019814 -131.63145 8221292
80.287918 -35.934505 -130.84401 8352875
80.877548 -35.849648 -130.05574 9405046
81.461227 -35.765213 -129.26646 9012347
82.039612 -35.68119 -128.47646 9012347
82.61203 -35.597572 -127.68556 8485488
83.179276 -35.514355 -126.89395 10459278
100.41425 -35.731464 -102.05163 9011581
100.97791 -36.041561 -101.40482 8748405
101.7055 -36.000347 -100.78389 9668479
102.62216 -35.872517 -100.03833 9734272
103.16637 -36.045269 -99.475304 8616304
103.65657 -36.143791 -98.995697 8616304
167.20219 -36.107239 -9.6289043 11380380
167.51643 -35.733215 -8.839056 9867141
167.72551 -35.767006 -7.8402534 10853521
167.97736 -35.525146 -7.1102271 13024175
83.740555 -35.431576 -126.10152 8354158
84.40699 -35.332787 -125.14973 8485744
84.95652 -35.250996 -124.35584 8682867
85.500183 -35.16954 -123.56126 8748407
86.038712 -35.088493 -122.76611 10590351
86.571472 -35.007862 -121.97031 8222065
87.201843 -34.910961 -121.01198 5393730
87.703568 -34.823597 -120.18857 6972506
88.192886 -34.734207 -119.35632 8419442
88.677086 -34.645271 -118.52425 8616823
88.964951 -34.592186 -118.02516 10261132
99.263687 -34.685478 -103.57193 9538950
99.880424 -34.938591 -102.90599 9998473
100.58891 -35.04718 -102.22932 9274751
101.35894 -35.060207 -101.54472 8945528
102.08595 -35.117065 -100.87675 9339515
102.66887 -35.315926 -100.26688 9339515
167.8111 -34.931553 -8.8537655 8682867
168.05281 -34.75721 -8.0566616 9011832
168.30272 -34.755051 -6.9340262 11050900
92.425621 -34.096992 -114.72298 12828082
92.784782 -34.028053 -114.0496 8089963
93.228661 -33.942444 -113.20852 8418927
93.754669 -33.840343 -112.1999 9865857
94.101479 -33.772724 -111.5279 10260358
98.063858 -33.672901 -105.30257 8681835
98.675812 -33.79887 -104.59813 7960176
99.317734 -34.002502 -103.87679 8091761
100.08099 -34.00898 -103.18331 10392971
100.85197 -34.019672 -102.49695 9406077
101.50841 -34.144985 -101.85704 8616564
102.04967 -34.384422 -101.26376 9339515
168.31665 -34.16106 -7.8660254 8682867
168.62025 -33.729832 -7.2200065 9340541
168.85217 -33.767189 -6.112287 10130313
96.263794 -33.230965 -108.71268 13550517
96.597794 -33.260769 -108.04528 10985362
97.050446 -33.288654 -107.25541 9932676
97.720718 -33.255611 -106.45256 10261640
98.301056 -33.257221 -105.70778 9537659
98.995224 -33.215763 -105.03607 8485748
99.638222 -33.233437 -104.31122 9932680
100.33034 -33.348091 -103.44031 9076600
100.82426 -33.347832 -102.96004 9932163
168.9304 -32.979118 -7.0798545 9800578
169.16348 -32.75946 -6.3972678 10853520
169.38365 -32.79472 -5.3459067 10459021
169.47221 -31.995411 -6.285665 10918799
169.71999 -31.758707 -5.565412 10721677
169.92662 -31.79154 -4.5794272 10590607
170.08043 -30.875547 -5.4202476 11905692
170.26196 -30.832054 -4.6751838 10919829
170.4735 -30.822477 -3.7379203 10788243
170.98503 -30.302504 -2.8434958 9538176
170.62167 -30.245852 -4.6835227 10459278
171.01923 -29.950029 -3.9392905 9998727
171.30765 -29.851738 -2.9843268 8617847
171.74693 -29.562223 -2.0275626 8749691
172.43282 -29.242153 -2.2392173 8354933
172.52306 -29.256071 -1.6184287 8092019
136.13985 -49.375622 -53.531048 8682867
136.64955 -49.556755 -52.88142 8682867
137.00211 -49.504177 -52.358166 8682867
134.83502 -48.537682 -55.397076 14604230
135.37294 -48.686771 -54.734318 11184024
136.06645 -48.88121 -53.878792 10590864
136.76096 -48.804596 -53.169216 10130314
137.24272 -48.788231 -52.449627 8814709
137.58911 -48.66029 -51.577412 9209467
133.18065 -47.54071 -57.727528 7563619
133.71509 -47.682724 -57.072418 10195851
134.24812 -47.949635 -56.351013 12433069
134.91039 -47.867386 -55.679394 12565163
135.6954 -47.805737 -54.863918 10263180
136.33159 -47.961834 -54.091122 10064520
136.94081 -47.900955 -53.465305 11774623
137.54857 -47.894665 -52.565792 10787728
137.89081 -47.884205 -51.564491 9932163
138.23424 -47.787186 -50.65773 9274747
131.04144 -46.401379 -60.825741 13551549
131.38077 -46.444386 -60.41003 13551549
131.85683 -46.681671 -59.674473 10064265
132.53197 -46.911072 -58.787846 10129545
133.29536 -46.824711 -58.029522 8090219
133.93658 -46.796783 -57.356144 7563619
134.52583 -46.883263 -56.656277 9340286
135.22148 -46.94083 -55.854519 10591888
135.95682 -46.95174 -55.044815 10525327
136.56349 -46.972687 -54.377308 8880246
137.16504 -47.294224 -53.552212 11314071
137.80237 -47.213905 -52.586613 9603712
138.19957 -46.991028 -51.67918 9208954
138.54231 -46.983147 -50.675903 9735041
138.88974 -46.859558 -49.799404 9471867
127.88178 -45.692005 -65.043015 7959144
128.44228 -45.586731 -64.554611 7695972
129.11885 -45.663124 -63.736164 10590349
129.79655 -45.741726 -62.914227 12168866
130.30641 -46.013676 -62.056877 10919314
131.01917 -45.820362 -61.50227 8420983
131.72318 -45.805466 -60.756809 8881277
132.40588 -45.891865 -59.920689 9997959
132.97412 -46.137413 -59.029751 9932166
133.54517 -46.155754 -58.391029 8813941
134.23268 -46.133457 -57.671677 7563619
134.9203 -46.228138 -56.82085 7170403
138.87535 -46.227005 -51.079063 9274747
139.31447 -46.071384 -50.147144 9800575
139.70764 -45.975288 -49.211258 9208696
140.09987 -45.881058 -48.273865 9800578
140.56583 -45.649498 -47.440418 9143163
119.90977 -44.483265 -76.230583 9736324
120.22169 -44.4977 -75.824135 8618099
120.7401 -44.522453 -75.145096 7893349
121.36022 -44.553226 -74.327446 7893349
122.16185 -44.539619 -73.516991 8683125
122.85957 -44.521847 -72.839218 8617332
123.47439 -44.556114 -72.010246 9538434
124.08685 -44.591572 -71.1782 9538179
124.69695 -44.628201 -70.342735 8814458
125.30484 -44.665989 -69.503967 9142647
125.8166 -44.722126 -68.689453 8616305
126.37856 -44.856812 -67.842239 9011059
126.93855 -44.902905 -67.15255 9208435
127.47182 -44.993507 -66.377518 9866109
128.1223 -45.055767 -65.55014 7958888
128.88924 -44.966297 -64.777451 8550769
129.56497 -45.040516 -63.954525 9537149
130.17749 -45.144112 -63.174263 10129541
130.66183 -45.223217 -62.560463 12234402
140.22549 -45.326458 -49.203106 7563618
140.58157 -45.195053 -48.459515 8945525
140.98885 -45.098213 -47.55463 9340540
141.40324 -44.974552 -46.732456 9406076
141.84254 -44.830387 -45.870594 7893096
142.62375 -44.593002 -45.216537 7169629
143.18353 -44.513977 -44.337627 7762537
143.51237 -44.518749 -43.311317 7368295
110.46587 -43.650402 -89.672272 8156521
111.01227 -43.796257 -89.092453 7433063
111.73738 -43.830627 -88.363525 8024427
112.46142 -43.866421 -87.63163 10260870
113.0729 -43.981594 -86.872993 9142647
113.37206 -44.120079 -85.757286 10523272
113.98132 -44.118858 -84.939438 9011577
114.58463 -44.117634 -84.117279 9932167
115.182 -44.116413 -83.290726 9339768
115.7776 -44.116787 -82.46283 9602425
116.41026 -44.133427 -81.660751 10326151
117.05096 -44.15509 -80.862885 8682868
117.68934 -44.177925 -80.062042 9669504
118.32533 -44.201923 -79.258446 9933191
118.95914 -44.227158 -78.45166 8748917
119.59055 -44.253559 -77.642014 11051672
120.11517 -44.276413 -76.965004 9736324
120.63792 -44.300167 -76.285835 9012601
121.26344 -44.329723 -75.467865 7893349
121.8866 -44.360489 -74.647064 7893349
122.40424 -44.387028 -73.960663 8156778
144.02904 -44.30772 -43.840652 9868423
144.358 -44.313625 -42.809284 9341310
144.99974 -44.215096 -41.866138 10787214
145.58594 -44.116314 -41.090195 10260871
145.85333 -44.12394 -40.223743 7629154
146.65784 -44.090973 -39.497711 8418671
147.43318 -44.050491 -38.758259 10195854
147.70227 -44.049316 -37.695702 9472390
147.87758 -44.048531 -36.986416 7564651
149.51814 -44.046558 -36.24831 8090986
149.6859 -44.045776 -35.530102 8617330
149.93156 -44.044609 -34.451397 8353644
151.70122 -44.042004 -33.131195 6511954
151.89186 -44.041027 -32.220257 9537662
152.07733 -44.040058 -31.308367 13157306
153.84413 -44.037415 -29.93725 8092011
154.04933 -44.036247 -28.828672 8749428
154.18201 -44.035477 -28.088858 10064262
155.85182 -44.033367 -27.227724 7038298
155.97615 -44.032589 -26.479155 9932937
156.12701 -44.031628 -25.542738 9209215
157.69716 -44.006519 -24.821566 5393730
157.96115 -43.941772 -24.086405 5393730
158.3916 -43.706799 -23.24444 7235933
158.99571 -43.666378 -22.370016 13288113
159.38217 -43.652786 -21.487955 11774618
159.7623 -43.720936 -20.52392 10788495
160.14243 -43.625359 -19.712927 10789009
109.51228 -42.655842 -90.945282 11511449
109.99712 -42.935429 -90.399078 7893350
110.69433 -42.97871 -89.773964 8748401
111.50872 -42.729546 -89.17775 7234654
112.05802 -42.917171 -88.616646 7432031
112.62438 -43.090614 -88.047028 8484461
158.93834 -42.99894 -23.062693 8617331
159.25633 -42.918911 -22.457796 13156784
159.65773 -42.832005 -21.602236 11511447
160.05486 -42.725132 -20.761538 11314582
160.43303 -42.851635 -19.74761 13486007
160.87372 -42.655964 -18.886686 8947319
161.16844 -42.572037 -18.267157 9010806
108.79835 -41.652626 -92.014 10787474
109.43702 -41.950603 -91.325928 12695210
110.20832 -41.995453 -90.635727 9537917
110.98085 -42.042381 -89.943535 9932675
111.71329 -42.000671 -89.32579 9603197
159.69638 -42.310677 -21.997759 11511447
160.36919 -41.850052 -20.834784 9933959
160.72279 -41.870316 -19.978285 9999238
161.16513 -41.741901 -19.050642 10196103
161.53539 -41.808769 -18.111227 11115922
161.90541 -41.599396 -17.430479 8747890
107.61183 -40.456738 -93.579437 9011064
108.20844 -40.791512 -92.911469 9340030
108.93645 -40.872784 -92.242577 10063752
109.70882 -40.914574 -91.552811 11314330
110.43865 -40.999752 -90.880646 9998211
111.12346 -41.259933 -90.16938 10524554
160.94052 -41.185551 -20.102613 8420464
161.45618 -40.757923 -19.280722 8288622
161.82779 -40.823162 -18.339712 10786701
162.27432 -40.833878 -17.272078 7827301
162.68933 -40.651356 -16.459623 8550771
163.09477 -40.427399 -15.708807 7564392
107.01749 -39.731976 -94.419769 7760997
107.67194 -39.861462 -93.793304 9668995
108.43283 -39.798122 -93.160492 9077113
109.20627 -39.836948 -92.47113 9340797
109.86443 -39.988361 -91.831581 11183001
110.40662 -40.2519 -91.242722 11183001
161.74992 -40.187542 -19.118116 9012601
162.08466 -40.141777 -18.368048 10655115
162.5359 -39.790066 -17.62792 8879475
162.94215 -39.772568 -16.682081 7432804
163.31764 -39.840351 -15.729406 7695978
163.7686 -39.713295 -14.779974 7828073
164.14438 -39.36261 -14.217123 8092011
58.355541 -38.772984 -163.09969 7367005
59.147491 -38.881237 -162.4865 8551281
59.809402 -39.023418 -161.65414 8485488
60.649391 -38.94202 -160.96048 8222573
61.131039 -38.880817 -160.491 8419696
106.39638 -38.800076 -95.375931 8353133
107.06464 -39.037079 -94.689392 8221291
107.81642 -39.026833 -94.040817 9866373
108.65601 -38.935093 -93.352318 9011576
109.2439 -39.022068 -92.802681 8682867
162.86372 -39.133564 -17.464781 9405819
163.29796 -38.875263 -16.677786 8222064
163.62511 -38.908958 -15.87145 6906720
164.0343 -38.802311 -15.001661 7235938
164.44473 -38.786644 -14.043196 12104616
164.74789 -38.772106 -13.337835 12565167
57.78447 -37.905396 -163.85129 10590090
58.643852 -38.029224 -163.44678 7893092
63.511425 -38.451672 -155.45764 10063747
63.970474 -38.392437 -154.99124 10063747
64.730522 -38.294144 -154.21249 11709081
65.484657 -38.196217 -153.43207 9340539
66.08326 -38.118229 -152.80634 8682867
66.825653 -38.021164 -152.0226 8419697
67.562164 -37.924427 -151.23721 9143166
68.146675 -37.847343 -150.60773 7564643
105.22318 -37.573238 -96.943642 8880502
105.824 -37.899166 -96.275948 9602685
106.55424 -37.97081 -95.609451 9536892
107.32836 -38.002438 -94.922737 8814453
108.05994 -38.077713 -94.253456 9340285
108.64732 -38.293648 -93.646629 10853012
163.9866 -37.935913 -15.924269 10128771
164.36461 -37.861851 -15.097189 9537406
164.78143 -37.742569 -14.220304 9209212
165.1244 -37.856419 -13.300642 10130570
165.50565 -37.784775 -12.463682 8222572
165.96388 -37.586666 -11.562178 9537918
58.054375 -36.951645 -164.11859 8550765
58.803516 -37.151505 -163.73941 8813936
71.571281 -37.267914 -144.17912 9735297
72.117439 -37.194115 -143.55215 8880246
72.79454 -37.102253 -142.76711 9735297
73.465981 -37.010815 -141.98087 11050899
74.131104 -36.919823 -141.19312 11905951
74.790649 -36.829239 -140.40424 11511449
75.443802 -36.739082 -139.61406 8748921
76.09153 -36.649372 -138.82278 9340801
76.605164 -36.577843 -138.18884 8420470
76.988083 -36.524406 -137.71298 8090992
104.60598 -36.653069 -97.912643 6577491
105.26985 -36.881012 -97.219719 8617330
106.04184 -36.907291 -96.532188 10853009
106.81605 -36.935947 -95.844521 9801347
107.47661 -37.078354 -95.20694 9209467
108.02178 -37.333755 -94.619141 9011576
165.04306 -36.859318 -14.425085 8156012
165.42479 -36.855373 -13.523703 9011833
165.88356 -36.724747 -12.55789 9669503
166.22969 -36.839668 -11.629858 10064004
166.6907 -36.551384 -10.806051 9340540
57.791248 -35.918415 -164.62976 10853012
58.141838 -36.225899 -164.36833 8090470
77.368713 -36.471172 -137.23671 7038307
77.873062 -36.400402 -136.60101 7564651
78.497948 -36.312286 -135.80544 7367527
79.117462 -36.224617 -135.00891 6446677
79.73082 -36.13736 -134.2114 6446677
80.338669 -36.050503 -133.41296 7630440
80.940445 -35.964157 -132.61362 7564651
81.536804 -35.878159 -131.81339 7564651
82.127083 -35.792595 -131.01227 8025456
103.55801 -35.537811 -99.376205 11445142
104.14333 -35.768536 -98.748764 8221546
104.79465 -35.872986 -98.124466 7498336
105.54479 -35.852173 -97.47374 9471357
106.27251 -35.91872 -96.800476 11378839
106.86627 -36.242184 -96.120735 9209467
165.72777 -36.275211 -13.34738 9340798
166.20119 -35.765228 -12.701216 10458505
166.57127 -35.786903 -11.803457 11116177
166.91151 -35.889336 -10.900213 9537918
167.28226 -35.69677 -9.9554806 9538176
57.865841 -35.295151 -164.84451 10853012
85.217667 -35.338028 -126.67343 12695466
85.661583 -35.271748 -126.02895 13550517
86.21122 -35.189304 -125.22275 12432294
86.755714 -35.107265 -124.41605 9537921
87.294258 -35.025661 -123.6087 9143419
87.827675 -34.944454 -122.80098 9340796
88.343849 -34.859215 -121.97706 9274748
88.937981 -34.750496 -120.96346 7498594
89.427071 -34.660507 -120.11906 9669253
89.910225 -34.571068 -119.27493 9143166
90.388283 -34.482113 -118.43121 7038307
102.47505 -34.737488 -100.71798 9339515
103.00488 -34.886787 -100.17889 8287342
103.71588 -34.937878 -99.52784 9142647
104.5332 -34.785854 -98.881546 7893351
105.26221 -34.849075 -98.208763 8748148
105.8457 -35.053745 -97.595596 8089963
166.8765 -35.062016 -11.756948 11050384
167.26306 -34.845032 -11.043104 10458250
167.56734 -34.84174 -10.102758 9538176
167.85347 -34.655472 -9.1252728 10854035
90.860413 -34.393684 -117.58781 6643543
91.419952 -34.288258 -116.57619 7039331
91.880371 -34.200993 -115.73352 11512480
92.154091 -34.148918 -115.22816 12828082
95.001076 -33.760056 -112.86155 9537143
95.346474 -33.691975 -112.18016 12234140
95.773041 -33.607449 -111.32928 9998215
96.278923 -33.506592 -110.3087 8288621
101.85454 -33.806587 -101.71695 8485235
102.43918 -34.004089 -101.10504 9142137
103.16857 -34.062199 -100.43427 8418928
103.94175 -34.079731 -99.744682 8945783
104.70019 -33.960098 -99.134575 8748660
167.64745 -34.059795 -10.865156 11378324
167.88538 -33.884647 -10.272741 9668479
168.16185 -33.765987 -9.2253628 9076857
168.40163 -33.663952 -8.3154659 8879734
96.612434 -33.439709 -109.62866 8288621
98.552208 -32.887596 -106.84218 8681835
99.092979 -32.855656 -106.14946 9274492
99.73893 -32.818325 -105.31786 10721939
100.31446 -32.853352 -104.41618 10195595
100.69354 -32.928833 -103.71411 9405821
101.33913 -33.005779 -102.92986 10063749
102.00175 -33.038208 -102.18849 8156271
102.73232 -33.037853 -101.45474 8747893
103.40335 -33.137695 -100.73174 8814202
104.08232 -33.305462 -99.999458 8880250
168.14862 -33.288101 -10.085531 10260358
168.42313 -32.903667 -9.4923916 7826791
168.70857 -32.73291 -8.4921017 8484721
168.93074 -32.694988 -7.5540137 9471616
168.76144 -32.104004 -9.3073254 8287342
169.01585 -31.856827 -8.5744762 8616307
169.27866 -31.699663 -7.6533484 9537409
169.47795 -31.675743 -6.7953391 9603199
169.59052 -30.839512 -7.717443 8550514
169.83337 -30.725075 -6.8289008 9076855
170.01884 -30.723516 -5.9635673 11445142
170.17752 -30.181358 -6.922956 9076853
170.60133 -29.888338 -6.0498099 10261125
170.91277 -29.720606 -5.2378287 9669246
171.30165 -29.493452 -4.287519 9340537
172.09544 -29.193022 -4.5099921 10985105
172.21915 -29.210512 -3.6850867 9209210
172.34178 -29.228436 -2.8594337 7565675
173.59387 -28.996496 -2.0394797 10065034
136.18495 -46.407738 -55.250137 10854036
136.76154 -46.492035 -54.531219 8748660
137.37538 -46.767685 -53.633739 9208954
137.92233 -46.734818 -52.802227 9340540
133.20689 -45.651791 -59.323025 10853012
133.89577 -45.56929 -58.669956 8748405
134.58443 -45.660973 -57.821392 8814713
135.27467 -45.754913 -56.968624 7499625
135.81955 -45.961353 -56.146912 8879734
136.54829 -45.758015 -55.586277 9274748
137.24358 -45.857868 -54.721397 8551025
137.83923 -45.995651 -53.921772 9801090
138.35951 -45.959023 -53.205231 10064262
138.67114 -45.992424 -52.23217 10984338
139.13223 -45.791 -51.342606 11904926
139.53545 -45.655998 -50.468304 9011574
126.63782 -44.408791 -69.25087 8089963
127.14541 -44.442219 -68.542839 8418925
127.75224 -44.483265 -67.690048 9208435
128.35696 -44.525574 -66.833809 8682351
128.95944 -44.569084 -65.974251 8616306
129.55992 -44.613865 -65.111084 9142649
130.05872 -44.65213 -64.389221 6971738
130.55594 -44.691261 -63.664768 6708309
131.20619 -44.805801 -62.689884 11050129
131.85751 -44.826523 -61.968884 10657430
132.42761 -44.92543 -61.126793 10262672
133.06462 -44.962578 -60.408047 10392974
133.65891 -44.98653 -59.666119 9932422
134.37447 -44.942001 -58.877792 8617076
135.05536 -45.028942 -58.021702 8223090
135.63306 -45.106167 -57.309269 8091761
135.97691 -45.327812 -56.687946 8486004
139.21471 -45.261925 -52.339539 11773598
139.5912 -45.173756 -51.434269 11510684
140.03984 -45.055614 -50.506767 9208187
140.44133 -44.913181 -49.781448 7234910
141.01338 -44.729591 -48.983521 8484719
141.60664 -44.588646 -48.277779 10919056
142.17383 -44.506054 -47.407501 9077368
142.51408 -44.507565 -46.385525 7959145
113.575 -43.630875 -86.979614 9471355
114.16827 -43.851357 -86.355171 9602941
114.93422 -43.907986 -85.644188 8879991
115.7334 -43.786201 -84.954285 9273978
116.35902 -43.913914 -84.195686 9866371
116.79048 -44.115021 -83.178421 8945525
117.38101 -44.113792 -82.336029 8747889
117.9655 -44.112564 -81.489342 11314326
118.54381 -44.111332 -80.638458 8616561
119.11594 -44.110104 -79.783478 7564643
119.68192 -44.108875 -78.924347 8748917
120.14893 -44.107857 -78.205399 10459534
120.61138 -44.106834 -77.483498 9012601
121.17078 -44.109276 -76.619843 9736324
121.79045 -44.135635 -75.793121 7893349
122.41674 -44.166389 -74.968864 10260358
123.04083 -44.198311 -74.141434 8419444
123.66276 -44.231468 -73.310867 9604228
124.28241 -44.26585 -72.477127 9801607
124.89995 -44.301407 -71.640091 8617336
125.41285 -44.331997 -70.940254 8617336
125.92422 -44.363388 -70.237839 10064004
126.3323 -44.389122 -69.674522 8089963
142.90752 -44.296772 -47.268623 8682867
143.13481 -44.297947 -46.584194 7169629
143.47305 -44.300617 -45.556454 7959145
144.09557 -44.176632 -44.917511 7433831
144.65839 -44.096596 -44.028698 9144702
144.98888 -44.102467 -42.992954 10065032
146.58015 -44.054031 -41.933765 10196107
146.87224 -44.052845 -40.877289 8879735
147.10985 -44.051861 -39.995438 8089963
148.9478 -44.049114 -38.576412 14801362
149.17123 -44.048126 -37.682037 13353917
149.38966 -44.047146 -36.786369 11380380
151.09627 -44.044945 -35.856598 6511954
151.26207 -44.044163 -35.130936 8353644
151.46507 -44.043179 -34.222614 8485229
151.58423 -44.042587 -33.677055 8485229
153.33461 -44.040146 -32.517921 10592151
153.44736 -44.039558 -31.965666 10592151
153.63091 -44.038578 -31.044294 16776687
155.46117 -43.903881 -29.599005 8092011
155.86 -43.740501 -28.722704 9998727
156.18745 -43.73455 -27.863447 7695972
156.80406 -43.650665 -27.001802 9932934
157.20555 -43.718044 -26.100069 10261901
157.58995 -43.743275 -25.269945 7301478
158.00206 -43.65197 -24.480249 5393730
112.43625 -42.489086 -88.479332 8484461
112.97681 -42.762001 -87.887733 9340025
113.63547 -42.926979 -87.241722 9274233
114.41216 -42.984234 -86.539558 9668734
115.18539 -43.041801 -85.831238 9997702
115.82012 -42.971848 -85.302422 9273721
156.68941 -42.890354 -27.88637 9669762
157.04175 -42.920277 -27.119696 9801350
157.51956 -42.704571 -26.296885 10525073
157.92787 -42.874504 -25.294054 9669764
158.35643 -42.838497 -24.422888 6709590
158.76706 -42.763786 -23.622099 6972762
159.16455 -42.628868 -22.899847 11511447
111.97675 -41.753361 -89.207489 9208182
112.56295 -41.741257 -88.703529 9668989
113.16232 -41.876282 -88.122452 10063490
113.92007 -41.88493 -87.460159 8617074
114.65562 -41.982388 -86.777557 9603711
115.25278 -42.337185 -86.096146 10064007
157.30144 -42.314281 -27.086191 7563619
157.84795 -41.996948 -26.204794 14604230
158.2092 -41.812073 -25.601133 11906466
158.68031 -41.843594 -24.583174 8156786
159.11427 -41.741756 -23.756372 7433065
159.53441 -41.87252 -22.756491 12432811
159.98613 -41.743782 -21.841253 9736329
160.27913 -41.587681 -21.293077 9736329
110.83207 -40.627377 -90.705299 9735296
111.36411 -40.799625 -90.165985 9275003
112.03328 -41.052082 -89.471771 9406075
112.91482 -40.856567 -88.793236 10853006
113.55414 -40.797829 -88.264061 11182742
114.09586 -41.047161 -87.681961 9472383
158.54005 -41.29612 -25.341589 8617337
158.85628 -41.143932 -24.805075 8617337
159.40874 -40.826618 -23.911047 8354165
159.87801 -40.782124 -22.961157 10065037
160.27342 -40.765114 -22.075407 10065293
160.64265 -40.825909 -21.144091 9736582
161.07028 -40.650532 -20.295149 8815222
110.21371 -39.656479 -91.676529 11577759
110.80039 -39.879078 -91.067284 11576986
111.53368 -39.965263 -90.391617 9340795
112.3121 -40.01199 -89.69442 8288110
113.01753 -40.055996 -89.061813 9932935
160.00258 -40.173965 -23.213652 8815228
160.56058 -39.785648 -22.310503 9736329
160.93114 -39.844872 -21.377539 9407874
161.37614 -39.848961 -20.319723 8157036
161.78909 -39.662033 -19.516333 8749172
162.19316 -39.572533 -18.642965 9142647
60.447872 -38.739689 -162.18814 10590347
61.370789 -38.709114 -161.70062 11378324
61.450844 -38.840176 -160.17764 7564643
61.928291 -38.779274 -159.70691 9340286
62.718895 -38.678062 -158.92061 8747893
63.503433 -38.577351 -158.13248 8550514
109.04862 -38.429192 -93.23732 9011576
109.59254 -38.689304 -92.648453 9669762
110.25314 -38.840031 -92.007156 11577759
111.03115 -38.88171 -91.312538 10327434
111.81049 -38.925358 -90.615936 8617074
112.48321 -39.176144 -89.919334 7564643
160.85161 -39.216 -22.15344 9736329
161.1851 -39.165836 -21.410517 9604483
161.63371 -38.81076 -20.679777 9472384
162.06857 -38.833931 -19.628172 9472383
162.45715 -38.815308 -18.725157 9273976
162.86128 -38.716957 -17.860014 9537149
163.23563 -38.503101 -17.1733 8616306
59.1394 -37.562172 -163.44333 5920074
59.853367 -37.965126 -162.97449 8156522
60.699642 -38.056961 -162.56992 10129284
64.126259 -38.497078 -157.50064 9537665
64.898705 -38.397198 -156.70905 9143672
65.512489 -38.317535 -156.07458 10459273
68.871559 -37.751511 -149.81934 8091502
69.590561 -37.656025 -149.02937 7564651
70.302979 -37.560974 -148.23787 8353907
108.45082 -37.702026 -94.081833 9932166
108.98482 -37.866352 -93.544365 10853012
109.758 -37.863159 -92.87397 9603713
110.52569 -37.801258 -92.234642 10130056
111.2619 -37.883526 -91.558197 8748402
111.86487 -38.224262 -90.882065 8617331
162.03334 -38.167217 -20.334768 10853012
162.39029 -37.893261 -19.745237 10063753
162.71616 -37.921989 -18.946508 8747634
163.12344 -37.810547 -18.086096 8418670
163.56291 -37.83609 -17.021414 9076342
163.90916 -37.644005 -16.380552 10128771
164.43719 -37.315281 -15.435583 10851980
59.298195 -36.898895 -163.63998 6775125
60.182983 -36.93343 -163.27119 8090214
71.009598 -37.466362 -147.44493 10064264
71.570351 -37.390991 -146.80945 12169123
72.265472 -37.297199 -146.01389 11379865
72.954865 -37.203796 -145.21693 8091503
73.501785 -37.129383 -144.57843 9735297
74.179756 -37.036755 -143.77902 10591379
74.718231 -36.963013 -143.13875 9537918
107.82365 -36.743439 -95.055069 9209467
108.41298 -36.957535 -94.447418 9340285
109.14772 -37.033791 -93.77494 9669250
109.90583 -37.025188 -93.120071 8945525
110.69179 -36.966873 -92.463257 8616301
163.07466 -37.090969 -18.873884 9734014
163.45013 -36.87397 -18.187529 9734014
163.86505 -36.750015 -17.320372 9208440
164.21794 -36.919659 -16.325155 9471612
164.66148 -36.724655 -15.455725 9734528
165.04129 -36.57893 -14.691267 7563619
58.567387 -35.910919 -164.32104 7367005
59.317699 -36.111694 -163.9411 6380368
60.067078 -36.313038 -163.56126 6511954
82.712051 -35.70752 -130.21042 8617847
83.290924 -35.622814 -129.40775 9472641
83.864502 -35.538551 -128.60442 9274492
84.20594 -35.488197 -128.12204 8089963
106.66666 -35.542057 -96.635765 11707548
107.15202 -35.806484 -96.080139 9998469
107.86203 -35.931641 -95.39502 9341053
108.63798 -35.96225 -94.700661 9077625
109.4166 -35.995136 -94.006027 8549996
110.09157 -36.236004 -93.31147 9076853
164.20033 -36.02227 -17.205359 9011575
164.54839 -35.827454 -16.562124 9077111
164.97052 -35.787937 -15.598051 9142904
165.3797 -35.742702 -14.670156 8090219
165.7401 -35.77116 -13.788984 8946040
166.10716 -35.495712 -13.176062 9537918
57.940529 -34.671291 -165.05933 8287341
58.668213 -35.079933 -164.60689 7103579
59.529617 -35.176388 -164.22311 6643540
84.545158 -35.437984 -127.63937 8089963
84.882545 -35.387981 -127.15649 13550517
91.260307 -34.477516 -119.86545 11906725
105.65565 -34.47084 -98.045502 8089963
106.18626 -34.625309 -97.503204 9536894
106.72424 -34.850262 -96.920311 12628392
107.39018 -34.915916 -96.301865 12628648
108.14487 -34.899227 -95.64521 12168610
108.8568 -35.025379 -94.95697 10721678
109.34312 -35.293404 -94.398697 8813168
164.80305 -35.282818 -16.4671 9405819
165.33435 -34.808598 -15.650373 9471869
165.64095 -34.78746 -14.94309 9537920
166.02586 -34.849648 -13.972319 9603970
166.47275 -34.796452 -12.962484 9340541
166.81227 -34.683765 -12.262663 9340540
167.18265 -34.406773 -11.643194 9537664
58.210079 -34.044819 -165.19705 8287341
58.989208 -34.037819 -164.88708 7037274
91.546494 -34.423775 -119.3519 9011833
92.018951 -34.334705 -118.49635 9341312
92.578827 -34.228504 -117.47021 12367276
93.039505 -34.140568 -116.61561 10262415
93.494324 -34.053196 -115.76155 9669250
93.944061 -33.966301 -114.90797 12828082
94.388062 -33.880013 -114.05495 8089963
94.739853 -33.811279 -113.37286 9142392
105.0648 -33.761787 -98.909531 8090987
105.59216 -33.875015 -98.390129 10392458
106.35701 -33.797901 -97.753754 8484464
107.13323 -33.821747 -97.058441 10655375
107.84624 -33.944523 -96.370872 11971745
108.33395 -34.210087 -95.812584 12432037
165.94276 -34.065037 -14.902441 9932678
166.32774 -33.985458 -14.063917 9471871
166.75729 -33.792755 -13.225431 8485232
167.17842 -33.770023 -12.248137 9537664
167.49008 -33.82111 -11.461439 9273977
167.80104 -33.659988 -10.87467 11378324
58.335297 -33.002106 -165.55614 7629411
58.895546 -33.205647 -165.25128 7037274
97.54171 -33.423405 -110.94509 8288621
97.87336 -33.356216 -110.256 10787728
98.28289 -33.272701 -109.39551 9209467
98.768051 -33.17321 -108.36389 7893610
100.39996 -32.576069 -105.50713 8681843
100.82928 -32.552124 -104.94977 8681843
101.47094 -32.517017 -104.11333 10392714
102.11883 -32.486122 -103.28625 10392712
102.68182 -32.469143 -102.62194 10261132
103.24528 -32.453758 -101.95937 10655633
103.78265 -32.580379 -101.03151 9997961
104.36379 -32.856884 -100.05391 9077372
105.00187 -33.070866 -99.324997 9669248
105.74772 -33.04406 -98.661812 11444888
106.59079 -32.937092 -97.968719 8353649
107.17927 -33.012222 -97.411926 9012606
167.01678 -32.968945 -13.379782 7104092
167.43867 -32.873768 -12.468374 9274492
167.86174 -32.758995 -11.572477 8418926
168.17961 -32.869476 -10.608259 11049360
168.48627 -32.48941 -9.9016933 10786445
58.265068 -31.959126 -165.99371 8484205
102.67173 -32.24593 -103.59541 10261132
103.20248 -32.218739 -102.89432 9734786
103.84018 -32.188141 -102.05614 10129544
104.31169 -32.258011 -101.22144 9735046
104.62665 -32.355995 -100.52116 9208958
105.29166 -32.414501 -99.598724 9866627
106.03307 -32.422951 -98.868469 9866627
106.52726 -32.429344 -98.380966 9734788
168.1405 -31.907894 -11.706663 9208442
168.51225 -31.815947 -10.837156 10655115
168.74844 -31.848076 -9.7942638 9405307
169.14299 -31.308453 -8.9199505 9011065
168.82375 -31.124952 -10.666273 10983823
169.09439 -30.87866 -9.9355145 9010805
169.33766 -30.789787 -8.9875774 8747891
169.63911 -30.527843 -8.1277905 9734788
169.60985 -30.106239 -9.7594051 7037274
169.84407 -29.996616 -9.0902157 8484716
170.13414 -29.895098 -8.2173443 8484716
170.57063 -29.603111 -7.3474708 9142643
170.87404 -29.432825 -6.5375495 10129539
171.78056 -29.151329 -6.5674338 10129539
171.90733 -29.167721 -5.7450995 11643037
172.03311 -29.184443 -4.9218955 9208435
173.56894 -28.998394 -4.123487 9208435
173.58171 -28.997635 -3.2899222 10065034
129.93208 -44.403881 -65.68544 10260872
130.53439 -44.449448 -64.816429 7366240
131.13464 -44.496281 -63.943813 6708309
131.63333 -44.536263 -63.214016 9471355
132.81882 -44.388973 -62.609417 7564651
133.31691 -44.430943 -61.871006 8748923
133.91295 -44.48243 -60.981449 9340799
134.50684 -44.535149 -60.088299 8419183
135.00021 -44.580082 -59.341194 7958632
135.49211 -44.625942 -58.591347 7960175
136.08063 -44.68206 -57.687954 8486262
136.49924 -44.882919 -56.711819 8813941
137.27977 -44.875988 -55.990395 8484720
137.90196 -44.867344 -55.315956 9274235
138.49289 -44.986355 -54.447468 11379095
138.98775 -45.076477 -53.539566 11247766
139.46353 -44.845062 -52.832207 10195339
140.2356 -44.619034 -52.049603 9997959
140.71431 -44.563202 -51.174255 8550513
141.24933 -44.508015 -50.126858 6445394
141.48299 -44.50668 -49.447823 7563618
116.7539 -43.517731 -84.207191 9142135
117.34347 -43.743065 -83.569427 9406590
118.1154 -43.807617 -82.847176 8418410
118.88913 -43.874413 -82.1222 9669504
119.67361 -43.86359 -81.400696 9603455
120.0747 -44.110104 -80.62764 9209211
120.55161 -44.10907 -79.906136 9341054
121.11847 -44.107838 -79.036629 9143418
121.67899 -44.106602 -78.163048 7170653
122.23315 -44.105366 -77.285484 7170653
122.78099 -44.104134 -76.403915 8089704
123.3225 -44.102901 -75.518402 9668478
123.85757 -44.101669 -74.629051 9669762
124.38622 -44.100441 -73.735817 9341057
124.90839 -44.099216 -72.838837 9472386
