# .PCD v0.7 - Point Cloud Data file format
VERSION 0.7
FIELDS x y z rgb
SIZE 4 4 4 4
TYPE F F F U
COUNT 1 1 1 1
WIDTH 1199
HEIGHT 1
VIEWPOINT 0 0 0 1 0 0 0
POINTS 1199
DATA ascii
-60.125877 -58.758911 100.66991 9144448
-60.741741 -58.763615 99.992027 10459792
-61.542889 -58.877396 99.254189 11051671
-62.340187 -58.947708 98.891869 8814969
-63.514503 -58.956848 98.524452 9538947
-48.912796 -57.278336 108.52837 7498597
-49.573399 -57.556675 108.30869 7038299
-50.472069 -57.571461 108.144 6643797
-48.052132 -56.256901 109.05741 12433069
-48.817127 -56.525913 108.82275 9077110
-49.695057 -56.529537 108.66584 6576978
-50.30238 -56.802364 108.45763 5920074
-47.937859 -55.52187 109.34874 9274751
-48.856709 -55.494862 109.19591 7103321
-49.607677 -55.637878 109.01012 8089957
-47.284725 -54.45726 109.857 8813686
-48.133644 -54.493549 109.69321 7630182
-48.973553 -54.693489 109.47068 6971735
-46.454071 -53.324089 110.42203 8089963
-47.150784 -53.540791 110.21867 7892842
-48.070934 -53.574379 110.04325 7564648
-45.723476 -52.338585 110.91483 10984598
-46.396816 -52.519123 110.72895 9668995
-47.411442 -52.523758 110.54749 5920082
-44.9221 -51.149021 111.49554 9471616
-45.55714 -51.465767 111.2662 9800324
-46.532642 -51.513737 111.07575 10261387
-47.254375 -51.85532 110.82191 5920082
-44.728104 -50.392349 111.80901 9471872
-45.796734 -50.532463 111.56804 9076858
-46.519783 -50.870388 111.3153 9406846
-43.983162 -49.317131 112.33756 7893614
-44.847225 -49.540161 112.10223 8683128
-45.714054 -49.681385 111.89663 9011577
-43.166683 -48.374252 112.83001 7038307
-44.068863 -48.539429 112.60928 7827821
-44.972244 -48.707371 112.38731 9998729
-42.529167 -47.318039 113.33252 9142651
-43.240009 -47.537674 113.12563 7827307
-44.179516 -47.633198 112.92398 7696235
-41.598461 -46.247948 113.89211 10984852
-42.365963 -46.523403 113.65457 8353135
-43.375126 -46.594982 113.44941 8484721
-40.82616 -45.14838 114.61643 10590354
-41.643776 -45.397419 114.2959 11445404
-42.471745 -45.601543 114.02866 8353135
-43.27409 -45.7467 113.78017 8616307
-38.59676 -44.01733 116.41281 9208443
-39.304451 -44.102036 116.0192 9142908
-40.046043 -44.30304 115.54956 8617849
-40.941166 -44.525917 115.08123 9801607
-41.829647 -44.773666 114.73074 10788499
-24.838757 -43.033905 126.51984 7958888
-25.572216 -43.273468 126.23624 9340544
-26.556213 -43.35297 125.94645 8682874
-27.396698 -43.454979 125.56638 9472387
-28.064259 -43.69416 124.61275 7038307
-29.112682 -43.695782 124.37149 7367263
-29.472305 -43.6973 123.23545 7169373
-30.508953 -43.698917 122.98194 7563619
-31.270153 -43.700584 122.2703 8353134
-32.023609 -43.702248 121.55311 9800581
-33.046116 -43.703861 121.27859 9866371
-33.646179 -43.705521 120.33932 9340023
-34.517658 -43.707153 119.8331 9734531
-35.38168 -43.708538 119.58022 8681843
-35.958477 -43.710407 118.38389 9339773
-36.953991 -43.712017 118.07597 9208187
-37.600452 -43.780003 117.45922 8747636
-38.409908 -43.881168 116.88191 9208443
-39.333244 -43.87291 116.74807 9208443
-24.81699 -42.285591 126.80605 9340545
-25.725468 -42.419968 126.51567 9735559
-26.582836 -42.480705 126.26638 9472388
-23.976933 -41.354992 127.37682 10787478
-24.889149 -41.487873 127.08602 11511198
-25.768604 -41.486713 126.85409 9472642
-23.289078 -40.494972 127.88091 7564907
-24.110008 -40.523647 127.65327 10919063
-24.97897 -40.547348 127.41482 13682363
-25.602531 -40.813248 127.15044 9735812
-21.777832 -38.992786 128.84331 8486262
-22.401535 -39.373947 128.53563 9735814
-23.262497 -39.592602 128.2262 8288883
-24.204422 -39.644363 127.95794 11643039
-21.601242 -38.318336 129.14273 9867142
-22.555199 -38.368389 128.8719 10722708
-23.46442 -38.639645 128.53001 9933449
-24.219353 -38.941525 128.21741 10591118
-20.756058 -37.327255 129.73752 8156524
-21.682945 -37.382053 129.47209 10458505
-22.613018 -37.526146 129.17233 10788243
-20.093884 -36.370388 130.27251 7235684
-20.898056 -36.506157 130.0081 6643541
-21.894939 -36.49379 129.74904 6972504
-22.530987 -36.757717 129.48206 8485229
-19.284821 -35.374062 130.86261 8090736
-20.077713 -35.576107 130.576 7367266
-21.028061 -35.560673 130.32956 8616815
-21.667229 -35.823921 130.06075 6511954
-18.481934 -34.312256 131.47566 8880250
-19.242912 -34.494724 131.20496 8880250
-20.196335 -34.586369 130.91733 8946296
-20.907196 -34.781563 130.65511 9735555
-17.570404 -33.272968 132.10909 9275773
-18.462852 -33.32296 131.85336 9209724
-19.452526 -33.456841 131.54022 9077882
-20.077576 -33.95192 131.18787 9735555
-16.892414 -32.198128 132.69395 9144187
-17.706764 -32.444756 132.38486 9275773
-18.720715 -32.428585 132.12178 8880503
-19.370049 -32.692017 131.8502 9209467
-16.146626 -31.336802 133.21632 9276035
-16.862595 -31.509045 132.96141 9144190
-17.870945 -31.449322 132.71623 9538944
-18.482513 -31.754091 132.43906 9209467
-14.481304 -29.965324 134.31549 9735812
-15.298286 -30.346954 133.83659 8684155
-16.027046 -30.539186 133.56433 10328208
-17.038689 -30.511673 133.30946 9407620
-17.746021 -30.810452 132.99002 10263180
-13.651199 -29.212896 135.14128 9143675
-14.601864 -29.340771 134.81383 8551797
-15.397194 -29.672415 134.30867 8552568
-16.338249 -29.798626 133.96693 10657173
-4.3361783 -28.646147 142.42885 9734788
-5.0215116 -28.647085 142.40572 8945529
-6.4797368 -28.65073 140.54909 9011323
-7.3251119 -28.651899 140.5071 9734788
-8.9020233 -28.655693 138.65952 7761253
-9.735981 -28.656862 138.60262 7366495
-10.485577 -28.787018 137.44649 9011323
-11.296249 -28.749262 137.19388 9668993
-12.339584 -28.785759 136.59261 10261124
-13.016048 -28.89765 136.04518 8485745
-13.82708 -28.883905 135.89397 8354159
-117.9368 -76.086441 58.818462 9931907
-118.16833 -76.055328 58.224983 7959661
-118.87146 -75.996483 57.577961 7302246
-119.64854 -75.930122 56.820015 9275005
-120.55145 -75.864952 56.325756 7432288
-121.24913 -75.805779 55.65839 7827303
-122.1544 -75.739983 55.150089 8682868
-122.80424 -75.680275 54.378559 7629924
-123.71005 -75.614006 53.854984 7893096
-124.49596 -75.554741 53.34293 8024170
-125.28349 -75.495163 52.82481 10459279
-126.07303 -75.427696 52.052303 9077114
-126.83549 -75.367714 51.475075 9011321
-127.74733 -75.29998 50.915138 8155755
-128.53658 -75.239532 50.370392 8682099
-128.70547 -75.198357 49.722759 9143675
-129.47649 -75.135429 49.662022 9472640
-130.11143 -75.047462 49.06805 8748917
-130.75639 -74.966095 48.473351 10590864
-131.62106 -74.882767 47.863972 8419952
-132.56099 -74.79287 47.213905 10788244
-133.29755 -74.715508 46.57346 8551793
-134.1866 -74.641159 46.159477 6445650
-134.92607 -74.562965 45.506733 6709078
-135.66441 -74.484482 44.847366 9210491
-136.44389 -74.410332 44.315926 10261385
-137.04225 -74.359596 44.02412 8090986
-82.34938 -68.145081 84.742607 9011838
-82.875137 -68.243973 84.465858 9669767
-83.91584 -68.33181 83.961815 9537660
-84.769463 -68.442924 83.532524 8813936
-85.567085 -68.602219 83.109032 8287849
-86.187805 -68.897423 82.710152 10262156
-80.572914 -67.270386 85.896225 9735044
-81.169189 -67.555542 85.512421 8090479
-82.086258 -67.597488 85.082596 7433064
-83.05098 -67.609879 84.643295 10656660
-83.896912 -67.669838 84.238174 8748404
-84.794518 -67.860176 83.757095 7367005
-78.900818 -66.218742 87.074547 11775139
-79.570396 -66.461479 86.674904 11314076
-80.404053 -66.566101 86.257248 9405822
-81.382309 -66.642555 85.785927 10261388
-82.345627 -66.534767 85.395866 7893357
-83.208725 -66.840279 84.883705 11380380
-83.756073 -67.07534 84.542084 8813942
-77.979279 -65.287498 87.866226 10919829
-78.804871 -65.549797 87.38842 11380380
-79.760414 -65.64109 86.921326 10919829
-80.717819 -65.539803 86.531265 9735044
-81.594582 -65.731575 86.058983 9471872
-82.16568 -65.790283 85.778145 9208443
-76.364624 -64.280792 89.000465 8748917
-77.215126 -64.58567 88.494247 9538176
-78.094864 -64.526176 88.122253 11051415
-79.050163 -64.611618 87.657639 10261898
-79.943939 -64.715103 87.213432 9472382
-80.709351 -64.800774 86.83416 9405822
-74.923531 -63.352425 90.024979 9735812
-75.678772 -63.422447 89.656578 11183002
-76.476219 -63.57233 89.236938 7893608
-77.445686 -63.623043 88.779991 8880503
-78.378448 -63.533108 88.396492 9472383
-79.1922 -63.84457 87.904091 10985107
-79.868988 -64.091438 87.499496 10261641
-73.344513 -62.186535 91.207504 9735812
-74.050194 -62.383972 90.809959 8945784
-74.858856 -62.640366 90.342178 9537919
-75.759262 -62.557232 89.970482 10393226
-76.710823 -62.641865 89.507866 9143675
-77.530838 -62.724892 89.105103 7695973
-78.277184 -62.871208 88.709946 8616048
-72.556862 -61.265213 91.934944 8092011
-73.234749 -61.538506 91.519203 9341308
-74.180428 -61.609898 91.064583 9275004
-75.070343 -61.572838 90.678932 8288365
-75.989395 -61.609695 90.250328 9077368
-76.821198 -61.935898 89.743874 7959401
-70.91893 -60.247234 93.264099 8879989
-71.744843 -60.413113 92.760178 9341307
-72.544533 -60.579163 92.288651 8420719
-73.504799 -60.582939 91.853485 9143929
-74.351089 -60.710777 91.384323 9801091
-75.273132 -60.847404 90.881187 8485488
-66.331413 -59.065353 96.896408 9932166
-66.96283 -59.122257 96.418724 9077112
-67.663712 -59.198296 95.843864 9866372
-68.522499 -59.316608 95.248901 10326924
-69.312378 -59.421593 94.750099 9866629
-70.11998 -59.616123 94.179176 9340797
-71.137367 -59.609161 93.70298 8222573
-72.0103 -59.787933 93.158844 9472381
-72.793106 -59.912491 92.702881 10130309
-73.470314 -60.074333 92.2631 8092011
-51.819469 -58.304771 107.63491 8419952
-52.643764 -58.441635 107.43837 9142651
-53.426849 -58.610172 106.99397 9339773
-54.118656 -58.745827 106.19785 9537152
-54.967525 -58.74752 105.59211 9670275
-55.854473 -58.749134 105.12443 15526108
-56.64687 -58.750881 104.36315 8617331
-57.437836 -58.752419 103.84442 10393225
-58.157093 -58.753937 103.23098 13813689
-58.993973 -58.755688 102.54101 11314327
-59.855251 -58.757298 102.03979 12169637
-60.712162 -58.758911 101.53101 9933706
-61.460949 -58.760632 100.7366 9406595
-62.220108 -58.762154 100.18223 10064779
-63.068157 -58.77005 99.664597 8288627
-63.790146 -58.79995 99.125984 8486005
-64.496849 -58.918346 98.221085 9012089
-65.356041 -58.951229 97.725235 9340285
-66.189919 -58.969727 97.290466 9143163
-67.196831 -58.952259 96.903313 8880246
-68.052078 -58.990055 96.392387 9406078
-51.005112 -57.29665 108.15087 7696228
-51.789822 -57.594688 107.90195 7893609
-52.70731 -57.622822 107.72903 8814199
-50.287987 -56.280636 108.65258 6971735
-50.928989 -56.558281 108.43662 7827814
-51.920498 -56.596382 108.2469 7564393
-50.156536 -55.508327 108.96063 7760992
-51.211452 -55.5737 108.7496 7893095
-51.778507 -55.869915 108.53989 7038307
-49.309822 -54.416687 109.51313 6050636
-50.251774 -54.567741 109.29057 7168858
-51.04248 -54.760166 109.0795 8287338
-48.583485 -53.416664 110.01058 7564648
-49.525993 -53.563351 109.78948 6577495
-50.317364 -53.751877 109.57977 6576723
-47.932774 -52.223862 110.56575 6709597
-48.501698 -52.612846 110.32153 7235684
-49.522404 -52.578156 110.15354 6775132
-47.054569 -51.222813 111.0906 8682867
-47.777889 -51.565823 110.83596 8880249
-48.741123 -51.568413 110.66433 8551542
-49.33292 -51.735298 110.49794 7564648
-46.317963 -50.240276 111.5835 8682867
-46.965439 -50.49852 111.37353 10130825
-47.883492 -50.591667 111.17655 10130825
-48.598347 -50.742367 110.99432 9209214
-46.264549 -49.44804 111.88521 9275260
-47.130131 -49.509575 111.70918 10130825
-47.973099 -49.661995 111.50359 10855060
-45.499081 -48.339649 112.42963 14539212
-46.194721 -48.54594 112.23031 12565422
-47.052197 -48.562763 112.07224 10065288
-44.600853 -47.15506 113.0257 9209727
-45.34444 -47.499298 112.76701 10460303
-46.37751 -47.527599 112.57359 10197130
-43.851025 -46.190006 113.5145 9866374
-44.613514 -46.417397 113.29556 9933191
-45.564659 -46.580357 113.06696 9407870
-46.213573 -46.865479 112.84686 9210491
-43.139507 -45.272545 114.11182 8089963
-43.816875 -45.463093 113.86347 9932166
-44.744884 -45.581684 113.62497 9077882
-45.463703 -45.895031 113.33762 9210491
-40.743935 -44.077923 115.84616 10261646
-41.31625 -44.095291 115.69146 10459278
-42.216713 -44.295399 115.14265 11906722
-43.008125 -44.616238 114.66302 8879735
-43.999096 -44.791416 114.33327 9011832
-27.831257 -43.148018 125.68642 9867145
-28.618248 -43.478897 125.35825 8024938
-29.622265 -43.399437 125.18557 8419951
-30.158875 -43.697407 124.12098 6774870
-31.203022 -43.699043 123.86211 8287342
-31.82869 -43.700748 122.91035 8089963
-32.723068 -43.7024 122.4101 9734788
-33.605736 -43.703804 122.17004 9208435
-34.211716 -43.705719 120.95412 9208435
-35.083817 -43.707115 120.70339 9537664
-35.954758 -43.708752 120.18689 9800580
-36.530785 -43.710396 119.23332 10063753
-37.533466 -43.712017 118.92055 9208699
-38.337376 -43.713642 118.32028 9011320
-38.937206 -43.715252 117.43543 9208443
-39.92223 -43.790073 116.91227 9208443
-40.637478 -43.843533 116.61606 9274749
-41.632877 -43.939819 116.13451 12433065
-27.067028 -42.180111 126.25112 10130317
-27.860229 -42.445957 125.94191 9472385
-28.784027 -42.510063 125.67873 7696228
-29.365135 -42.830948 125.441 8288365
-26.32309 -41.275696 126.7867 10591123
-27.002857 -41.455841 126.53956 10985625
-28.030529 -41.412537 126.28427 8682611
-28.69772 -41.7215 125.99222 8090730
-25.540131 -40.288139 127.36372 9735812
-26.231289 -40.488213 127.10612 10130570
-27.199539 -40.475502 126.85506 11774881
-27.86985 -40.783421 126.56253 6511954
-24.697266 -39.354492 127.93634 13024433
-25.391499 -39.553608 127.6783 11445916
-26.41497 -39.509823 127.42434 11314585
-27.095253 -39.740208 127.15824 15393234
-23.870308 -38.10429 128.62344 12301478
-24.587906 -38.41737 128.31651 9275260
-25.573174 -38.573898 127.99755 10261899
-26.35582 -38.828384 127.69537 11709087
-23.015263 -37.17062 129.19936 9933193
-23.779861 -37.335411 128.93556 14735561
-24.85857 -37.427372 128.6161 8485744
-25.599754 -37.732216 128.30603 8485745
-22.263813 -36.128574 129.78848 6511954
-23.016624 -36.367161 129.50014 9998469
-24.024075 -36.443398 129.20541 14406852
-24.788681 -36.609955 128.94095 8090987
-21.551922 -35.191025 130.32974 10458505
-22.242264 -35.493824 130.03252 6446161
-23.228821 -35.474003 129.77885 8682612
-23.916401 -35.540783 129.57219 10721681
-20.83548 -34.252575 130.87344 9735555
-21.477261 -34.516613 130.60359 10261641
-22.364506 -34.537483 130.36018 8682609
-23.181656 -34.627373 130.10945 8287854
-19.967346 -33.156769 131.5166 9735555
-20.602425 -33.417404 131.24986 9735555
-21.558468 -33.567238 130.93965 10327691
-22.351021 -33.773785 130.65144 11642523
-19.092213 -32.059055 132.16243 9209467
-19.8083 -32.290588 131.88509 10064520
-20.833652 -32.367226 131.58403 10130312
-21.677673 -32.776363 131.20586 10458763
-18.973392 -31.35714 132.45833 9209467
-20.002548 -31.428883 132.1581 9604225
-20.766327 -31.45982 131.9437 10722450
-17.629299 -30.185631 133.33076 8684155
-18.280067 -30.441725 133.01894 12367531
-19.183144 -30.460289 132.77371 10327692
-20.04776 -30.626335 132.44838 11775394
-15.852779 -29.061321 134.83124 11051161
-16.701801 -29.251234 134.38158 11775396
-17.524979 -29.541691 133.8846 10459792
-18.44693 -29.700045 133.50055 12433068
-19.242195 -29.854034 133.17426 10656657
-4.3929105 -28.644548 144.26788 9011323
-5.7067685 -28.648027 142.37987 8813942
-6.3919187 -28.648972 142.35027 9011323
-7.0769124 -28.649916 142.31786 7564651
-8.0012054 -28.652838 140.4702 9931907
-8.6771469 -28.65378 140.42949 9406589
-9.5217743 -28.654959 140.37457 7037274
-11.069557 -28.658739 138.50191 8287598
-12.069107 -28.660152 138.41841 7367005
-13.406853 -28.679852 136.65376 6906969
-14.367519 -28.718899 136.31242 7236194
-15.12252 -28.863363 135.64793 8946043
-16.092655 -28.848934 135.46068 9537923
-114.89874 -75.28392 61.689228 9143681
-115.64967 -75.426643 61.198009 7696232
-116.44691 -75.471695 60.784401 7432289
-117.23039 -75.65641 60.238503 8682100
-117.92407 -75.891853 59.566936 10260875
-118.76924 -75.9235 59.054218 9274235
-119.45007 -75.967117 58.355385 8485491
-120.30681 -75.914291 57.772282 8353903
-121.18007 -75.854408 57.117043 7366752
-121.88466 -75.794785 56.447742 8814454
-122.67789 -75.735733 55.95562 7432545
-123.48017 -75.668427 55.211292 7234653
-124.25018 -75.60881 54.659916 7300702
-125.01979 -75.549049 54.10207 7300958
-125.96243 -75.481735 53.611294 11380637
-126.66173 -75.421196 52.902393 11643809
-127.55745 -75.353203 52.30468 10920086
-128.1526 -75.300095 51.649395 9537408
-129.10011 -75.231621 51.12933 9537408
-110.88329 -74.234787 65.155785 6774359
-111.74144 -74.445244 64.399544 8682612
-112.55112 -74.570656 63.787376 8616819
-113.24144 -74.669136 63.280983 8419440
-113.98188 -74.858772 62.618481 8880251
-114.69158 -74.971878 62.112133 8748923
-115.70546 -75.020363 61.583569 10064263
-116.52632 -75.098518 61.123024 7300958
-129.85928 -75.162544 50.527149 10195594
-130.66557 -75.055717 49.828316 9538433
-131.51575 -74.958488 49.175022 9209727
-132.26039 -74.88131 48.54747 8156779
-132.96671 -74.814919 48.080826 9012088
-133.89845 -74.729568 47.507637 7104091
-134.83327 -74.643631 46.926601 6116684
-135.50563 -74.571236 46.307899 6248271
-136.17632 -74.498596 45.683739 8024938
-136.84529 -74.425804 45.054153 10985366
-137.75146 -74.349174 44.617691 7038298
-138.59789 -74.294228 44.52264 6511954
-110.2338 -74.114731 65.850372 5919050
-92.008904 -70.173218 79.573326 8288618
-92.283859 -70.237427 79.423607 8288618
-87.526871 -69.17662 81.994362 10590351
-88.199692 -69.320221 81.633324 8222065
-89.193504 -69.364853 81.167854 7301217
-90.203941 -69.514526 80.652405 8419696
-90.944565 -69.681328 80.251503 10853520
-91.584732 -69.959366 79.850815 8156778
-85.837631 -68.150581 83.169983 5920074
-86.619751 -68.580116 82.644089 10195591
-87.534836 -68.566238 82.237724 10919315
-88.389702 -68.678535 81.807457 8814201
-89.298164 -68.531807 81.457886 7104096
-90.002106 -68.890465 80.995804 8090987
-84.286873 -67.175911 84.262573 7563619
-84.970665 -67.451172 83.843292 7564128
-85.841782 -67.545403 83.41301 7761763
-86.735458 -67.690788 82.951866 8485488
-87.726723 -67.520958 82.574333 9077628
-88.626892 -67.877495 82.024849 9077372
-83.446274 -66.43544 84.940552 9406335
-84.198822 -66.492172 84.57885 8484977
-85.176826 -66.626396 84.084244 7564130
-86.160126 -66.533218 83.679291 9012089
-86.922287 -66.725441 83.258369 9867398
-87.642715 -66.827606 82.892715 8419952
-82.029984 -65.272064 86.048904 8748405
-82.559929 -65.488884 85.722618 8156782
-83.48848 -65.645737 85.241112 9669251
-84.464546 -65.543533 84.843086 9866886
-85.267273 -65.693268 84.421135 8222317
-86.144897 -65.793564 83.985458 8683124
-80.263336 -64.155243 87.296188 9209467
-81.050049 -64.518806 86.794899 10459023
-81.892021 -64.575859 86.392784 9340799
-82.774338 -64.578674 85.994415 8288368
-83.705742 -64.660431 85.542068 9472384
-84.623131 -64.77607 85.082268 9932679
-85.177605 -65.010559 84.737778 9735812
-79.507866 -63.384098 87.948326 11314071
-80.297142 -63.509258 87.542351 10327690
-81.088974 -63.637794 87.133888 9604226
-82.038589 -63.561924 86.737083 7762025
-82.96946 -63.719833 86.25412 6578010
-83.597351 -63.953911 85.876747 7301475
-77.844574 -62.227436 89.165154 7563619
-78.662239 -62.56617 88.659981 9339770
-79.461197 -62.610706 88.282326 9932933
-80.412628 -62.552719 87.877434 9801347
-81.339508 -62.700516 87.400383 9209467
-82.091232 -62.74168 87.045311 8354160
-76.50013 -61.331028 90.133133 9340539
-77.09771 -61.414227 89.830452 7761510
-77.897095 -61.557217 89.412735 8023912
-78.815422 -61.629906 88.969894 9010805
-79.689651 -61.534851 88.614815 9340027
-80.528946 -61.719963 88.162056 9340796
-81.240349 -62.033978 87.714714 9209467
-73.97879 -60.128365 91.989395 9734788
-74.615067 -60.197681 91.645462 10524815
-75.439461 -60.427731 91.080643 8880245
-76.308517 -60.566616 90.60994 8748403
-77.224525 -60.531536 90.220512 8155755
-78.076241 -60.611019 89.77404 8023912
-78.904747 -60.821926 89.27018 8616048
-79.62928 -60.816414 88.932663 8616048
-69.999786 -59.082607 95.206078 10129545
-70.606277 -59.113361 94.829842 9274748
-71.574944 -59.164257 94.222954 8419951
-72.400154 -59.271858 93.594215 9932419
-73.240845 -59.373547 93.09938 10590093
-73.977226 -59.534119 92.531647 9866374
-74.831337 -59.693253 91.971039 10327437
-75.735725 -59.740341 91.525421 9077368
-76.51178 -59.786957 91.137772 9273979
-77.311913 -59.950283 90.641502 8089963
-53.949406 -58.292778 107.26192 10063496
-54.858982 -58.504574 106.94617 9011579
-55.561832 -58.685177 106.46326 10130828
-56.331932 -58.749233 105.71424 12565423
-57.219791 -58.750862 105.23504 8748917
-58.103886 -58.752491 104.74863 11511449
-58.87957 -58.754253 103.94656 11972000
-59.672939 -58.755787 103.43091 10459019
-60.353432 -58.75729 102.77493 10525070
-61.214111 -58.759075 102.09007 10591378
-62.071339 -58.760693 101.56987 10261902
-62.924377 -58.762318 101.04279 10261902
-63.772732 -58.763939 100.50816 7235684
-64.504189 -58.765659 99.68821 9406590
-65.231026 -58.76709 99.187775 9801348
-65.988113 -58.768681 98.557846 9537664
-66.895271 -58.773411 98.0783 8682868
-67.664856 -58.795116 97.468994 10196106
-68.481102 -58.811821 96.998398 9669506
-69.037498 -58.959641 96.05954 9011576
-69.86882 -58.984371 95.604332 9537664
-70.877296 -58.973747 95.192749 9340540
-71.728386 -59.018185 94.660507 9011831
-72.456482 -59.057678 94.200195 9998212
-53.235096 -57.260376 107.76918 8485235
-53.955486 -57.567429 107.5283 9602945
-54.915527 -57.724426 107.30029 8946556
-52.454281 -56.258759 108.27681 7038307
-53.156586 -56.496593 108.06467 8222064
-54.178459 -56.617096 107.83919 8617075
-54.737133 -56.842133 107.65723 9209727
-51.758888 -55.086365 108.83228 6510930
-52.333607 -55.423161 108.6063 8485235
-53.312527 -55.572735 108.37771 7103842
-54.106789 -55.874092 108.12582 6642772
-51.546474 -54.370319 109.13395 7103066
-52.554482 -54.519901 108.90024 10524041
-53.28278 -54.863808 108.64438 8880247
-50.737686 -53.288536 109.67623 8024166
-51.606762 -53.539371 109.42971 8089959
-52.481148 -53.707401 109.21287 9471610
-50.047134 -52.215729 110.19426 8090987
-50.842381 -52.500584 109.94833 10458505
-51.824093 -52.638683 109.72348 9603196
-49.314098 -51.2187 110.69186 8090987
-49.964043 -51.485588 110.47829 9406333
-50.944138 -51.608192 110.25947 10327434
-51.672832 -51.962482 109.99966 11905692
-48.398685 -50.108749 111.2634 10855060
-49.126766 -50.453609 111.00728 8551538
-50.165688 -50.576847 110.77779 8090987
-50.792252 -50.945374 110.53087 8090987
-48.384743 -49.360477 111.54195 10328462
-49.258244 -49.596443 111.30016 9735557
-50.063961 -49.702351 111.11842 10919314
-47.568867 -48.400066 112.04074 10328460
-48.481365 -48.578037 111.81344 9472386
-49.395481 -48.75885 111.58484 11972516
-46.942219 -47.456322 112.49982 12170920
-47.590458 -47.583973 112.33795 10196622
-48.528793 -47.632187 112.15391 7038307
-46.006916 -46.239254 113.11446 9210491
-46.740444 -46.571613 112.86194 10394510
-47.802448 -46.610477 112.65948 9472645
-45.248535 -45.125572 113.85284 7301470
-46.006123 -45.4375 113.49928 9473407
-46.910942 -45.678238 113.1991 10130572
-47.563221 -45.743427 113.02163 7564651
-43.722549 -44.132114 115.1571 9143675
-44.450008 -44.300827 114.78061 9670019
-45.290905 -44.563526 114.28978 7498850
-46.272984 -44.758068 113.95715 9735555
-30.170448 -43.240997 125.14697 8025193
-30.850086 -43.334301 124.99223 8814453
-31.793301 -43.426342 124.79131 9866117
-32.393574 -43.700916 123.55526 8287342
-33.28455 -43.702324 123.31759 9011065
-34.178608 -43.703991 122.80679 8616561
-34.779892 -43.705673 121.84016 9537664
-35.804558 -43.707317 121.54206 10195338
-36.534218 -43.708969 120.79805 8616819
-37.111553 -43.710384 120.09397 9866116
-38.121452 -43.712029 119.77622 8682867
-38.929623 -43.713665 119.16731 9800834
-39.530792 -43.71529 118.2701 10524557
-40.52541 -43.71693 117.93246 9208443
-41.317448 -43.735588 117.29238 9406078
-42.096188 -43.787895 116.54156 14603975
-42.921017 -43.909233 116.00917 11446172
-43.643963 -44.004654 115.5777 8814713
-29.418518 -42.200512 125.66428 9209467
-30.016632 -42.36956 125.4959 9209467
-30.992645 -42.421112 125.30399 10261387
-28.598824 -41.091675 126.25436 9735043
-29.220863 -41.368847 126.00865 9735043
-30.207417 -41.454224 125.80004 9603713
-30.990383 -41.757221 125.54946 10853012
-27.76886 -40.153351 126.82537 9735043
-28.38924 -40.423321 126.5603 8485232
-29.372841 -40.434368 126.32665 10261131
-30.159763 -40.713348 126.08198 9406079
-27.605938 -39.478676 127.12135 11183254
-28.537525 -39.485905 126.87251 6840663
-29.380314 -39.619835 126.62498 8616818
-26.787262 -38.480259 127.7119 10656654
-27.702984 -38.546345 127.44517 9012086
-28.620888 -38.701633 127.14446 6709589
-26.027416 -37.330372 128.34363 8683124
-26.914581 -37.477108 128.05424 9012086
-27.847435 -37.624882 127.7524 9012086
-28.552986 -37.934521 127.44992 9012086
-25.192863 -36.256367 128.96671 8551537
-26.120312 -36.407703 128.66496 8485745
-27.041996 -36.472855 128.39703 8090986
-24.46664 -35.361286 129.49406 9406590
-25.319149 -35.470413 129.22795 8419951
-26.263054 -35.46516 128.98055 9275261
-26.894249 -35.734947 128.71265 7893608
-23.674973 -34.321522 130.09367 8419439
-24.462433 -34.530697 129.80656 8353646
-25.409748 -34.524143 129.5587 8419439
-26.043941 -34.793385 129.29022 9735812
-22.845272 -33.466778 130.63589 10721426
-23.664352 -33.557957 130.38411 9340285
-24.592442 -33.542454 130.14357 6248270
-25.188053 -33.851509 129.86935 8682099
-21.993999 -32.20726 131.33629 9734529
-22.831146 -32.483864 131.00986 9537150
-23.879143 -32.662109 130.66451 9340029
-24.636768 -32.904812 130.37199 6510930
-21.27253 -31.262447 131.88367 9471613
-22.139767 -31.381044 131.60878 8352878
-23.180191 -31.492674 131.29054 8945014
-23.771004 -31.96192 130.95695 10984593
-19.839931 -30.139681 132.79646 13551549
-20.518997 -30.245661 132.53862 13814717
-21.317585 -30.448 132.22185 10656138
-22.26936 -30.486639 131.94223 9471356
-22.920204 -30.697439 131.65913 9537150
-18.100334 -29.030802 134.38707 11972517
-18.968113 -29.191967 133.92339 11051415
-19.70467 -29.434174 133.42021 10985621
-20.610798 -29.605246 133.01764 13748921
-21.451027 -29.81395 132.63635 11314323
-5.260632 -28.645737 144.23796 9340287
-6.1282849 -28.646931 144.20386 9734787
-7.7617154 -28.650867 142.28156 8485238
-8.6175499 -28.65206 142.2321 8616563
-10.197201 -28.655909 140.32686 7037274
-11.041145 -28.657097 140.26242 8485490
-12.568619 -28.660862 138.37376 7367005
-13.40073 -28.662048 138.29486 5788490
-14.232494 -28.663237 138.21184 5393738
-15.041531 -28.665966 136.40446 9537923
-15.697735 -28.666912 136.32994 9537923
-16.537426 -28.726088 135.94389 7828333
-17.222488 -28.833382 135.23856 11577759
-18.189476 -28.820951 135.04546 12762033
-118.32396 -75.306343 60.080437 8616307
-119.21839 -75.445854 59.526802 7893097
-120.10183 -75.554657 58.995155 7827814
-121.04751 -75.560272 58.557045 7367263
-121.80893 -75.637321 58.022964 6643028
-122.62313 -75.72081 57.327744 8288110
-123.32079 -75.720757 56.751148 7366752
-124.03786 -75.663895 56.070122 6774870
-124.94006 -75.596428 55.502068 6906712
-125.59911 -75.535645 54.711582 7367263
-126.49772 -75.475632 54.379013 9143419
-127.27829 -75.414864 53.808483 11051416
-128.10896 -75.346191 53.071041 7630435
-128.93759 -75.277412 52.32616 7629411
-129.66711 -75.223724 51.895798 8682099
-129.86095 -75.1931 51.249035 10853012
-111.94489 -74.206772 64.695763 7893096
-112.73866 -74.263283 64.251564 8616819
-113.64481 -74.343666 63.684734 7827047
-114.42879 -74.3936 63.221771 9735813
-115.29974 -74.466843 62.67971 11182486
-116.05961 -74.576836 62.130119 12366759
-116.87776 -74.724663 61.485756 8353646
-117.73874 -74.808502 60.976555 8813686
-118.63377 -74.898552 60.41666 8550771
-119.43822 -74.961418 59.923027 8025453
-119.99634 -75.131996 59.481663 7564642
-121.12621 -75.1353 58.954853 6511954
-130.62148 -75.151222 51.366962 8550769
-131.35896 -75.063797 50.745483 8749433
-132.09224 -74.974342 50.116417 9012606
-132.84566 -74.896645 49.488941 10459536
-133.59805 -74.81871 48.854919 7762021
-134.50206 -74.744011 48.451717 9604226
-135.2576 -74.665184 47.805336 7761763
-136.01213 -74.586075 47.152355 6511442
-136.89554 -74.497437 46.462975 9208700
-137.74728 -74.407768 45.718285 9077113
-138.46675 -74.338791 45.217453 6511954
-139.35344 -74.272301 44.949947 8090986
-107.70272 -73.82177 69.001617 10263180
-108.20229 -73.826508 68.224251 9406846
-109.01265 -73.884964 67.457764 10919829
-109.71178 -73.92662 66.902573 7498850
-110.54971 -73.97699 66.291039 7169117
-111.33902 -74.007133 65.784248 8221548
-112.07941 -74.069 65.169342 6840152
-113.09287 -74.066582 64.693573 8682868
-113.80334 -74.120232 64.133461 8682868
-115.10838 -74.142273 63.415298 6510930
-96.317459 -71.219742 77.210182 6643029
-97.005478 -71.386719 76.807106 10327695
-97.945793 -71.459084 76.298355 10985367
-98.915939 -71.848076 75.642921 7563619
-92.835144 -70.367371 79.122818 9472378
-93.716194 -70.402687 78.711876 9735557
-94.612457 -70.544319 78.251091 8024939
-95.440781 -70.647087 77.836594 8748916
-96.266029 -70.675591 77.453545 8683127
-97.099091 -70.912651 76.956245 10261902
-91.247612 -69.305717 80.267067 10524556
-92.012886 -69.480331 79.851913 8157034
-92.806648 -69.699036 79.406059 8288621
-93.7864 -69.577728 79.014084 8156528
-94.7397 -69.69529 78.537369 8683126
-95.606766 -69.895401 78.066063 9209467
-90.432434 -68.48513 80.96611 8748660
-91.262787 -68.585396 80.551743 10195591
-92.20047 -68.600449 80.123528 8354160
-93.064278 -68.682098 79.701591 7696234
-93.949753 -68.713234 79.29039 7564648
-94.59687 -69.039284 78.867104 8354163
-88.860718 -67.331657 82.140457 8353904
-89.585861 -67.569504 81.717743 7959144
-90.438461 -67.638161 81.306122 8090729
-91.418961 -67.654419 80.858162 8682867
-92.366241 -67.703537 80.411812 9340543
-93.265839 -68.035408 79.872536 7893613
-87.375961 -66.268631 83.239014 9341054
-87.984474 -66.517235 82.864456 7762024
-88.914856 -66.579887 82.420265 7103836
-89.873024 -66.608986 81.977142 7433056
-90.698265 -66.669418 81.581169 8090730
-91.507378 -66.819923 81.156029 9208956
-92.076805 -67.080597 80.794228 10984852
-85.715042 -65.11084 84.455276 7893608
-86.407837 -65.385353 84.032265 8222573
-87.274414 -65.63266 83.542084 9077882
-88.150391 -65.581337 83.16851 8748665
-89.060944 -65.610558 82.746742 7893354
-89.936012 -65.701149 82.316154 7959144
-90.61425 -66.083969 81.855919 9406590
-84.281616 -64.184799 85.475227 8813942
-84.863037 -64.372322 85.137581 9735812
-85.625145 -64.539627 84.726837 8880503
-86.524948 -64.627205 84.286331 8090987
-87.519928 -64.604065 83.847778 8748920
-88.38324 -64.661034 83.436081 8353653
-88.929306 -64.894485 83.095802 7893359
-83.251472 -63.345833 86.278526 6117203
-83.964661 -63.42815 85.92411 7367267
-84.860077 -63.627453 85.440392 8946296
-85.847885 -63.540577 85.030876 8025194
-86.70565 -63.631657 84.607834 8156781
-87.415604 -63.819851 84.212074 10130060
-81.772308 -62.119144 87.440842 9209467
-82.486153 -62.439568 86.989784 7433060
-83.333458 -62.638214 86.527962 6183251
-84.180603 -62.520054 86.194397 7564899
-85.123901 -62.684029 85.703377 8025193
-86.052261 -62.716625 85.272255 7367263
-86.613853 -62.950512 84.924774 7038307
-80.920074 -61.416191 88.108894 9209467
-81.656219 -61.515495 87.737328 9406589
-82.519135 -61.621399 87.305984 9012088
-83.499748 -61.586262 86.878769 7170141
-84.377151 -61.663002 86.452766 6972762
-85.118317 -61.942127 86.006104 6972762
-78.597397 -60.105915 89.933403 8616048
-79.235687 -60.306129 89.477356 9471099
-80.060822 -60.543972 88.927788 9406847
-80.954277 -60.589432 88.506462 10656911
-81.927032 -60.516537 88.110359 10985619
-82.704102 -60.695385 87.636429 8156012
-83.445572 -60.891895 87.184097 7827559
-74.390785 -59.168869 92.955109 9734788
-75.24678 -59.181564 92.530571 9866630
-76.102119 -59.195793 92.101028 10721937
-76.915771 -59.345749 91.449364 9865859
-77.748222 -59.501728 90.878174 9339515
-78.548721 -59.643353 90.353668 9405564
-79.523079 -59.658527 89.892815 9208954
-80.352036 -59.844479 89.364578 9275261
-81.208794 -59.87521 88.954086 9735810
-56.069572 -58.326206 106.86567 8683641
-56.946918 -58.516758 106.55603 7696486
-57.773228 -58.657791 106.14944 8222314
-58.596096 -58.752617 105.3356 9866624
-59.480927 -58.75425 104.83768 8682867
-60.36137 -58.755886 104.33191 8682867
-61.046295 -58.757568 103.49525 9866883
-61.890156 -58.759098 103.05433 9341058
-62.591408 -58.76062 102.41914 8748923
-63.318726 -58.762264 101.67474 8090995
-64.172394 -58.763901 101.13676 7235421
-65.021713 -58.765537 100.59203 7959144
-65.866173 -58.76717 100.03977 9735555
-66.706184 -58.768803 99.480743 9472383
-67.541206 -58.770435 98.914352 9932934
-68.371719 -58.772072 98.341293 9077625
-69.180939 -58.77383 97.589615 8945783
-69.799744 -58.775322 96.871933 9274748
-70.624557 -58.786762 96.295609 7563874
-71.458008 -58.809116 95.730309 8813939
-72.169525 -58.82896 95.24102 10984849
-73.00087 -58.856579 94.670486 9997957
-73.84996 -58.90163 94.121025 9734788
-74.7006 -58.951294 93.570923 9734788
-75.33931 -59.016071 93.062668 9734788
-55.429008 -57.338566 107.35159 9012605
-56.235252 -57.47543 107.15827 9406850
-57.109257 -57.753933 106.90073 6380884
-54.871479 -56.069866 107.91812 6971994
-55.315437 -56.496891 107.68206 8486262
-56.391529 -56.60215 107.45257 8749176
-57.119595 -56.983253 107.18305 8617072
-54.582264 -55.432137 108.20456 8222573
-55.568478 -55.523434 107.99616 7893609
-56.221008 -55.813606 107.77354 7499625
-53.764122 -54.448017 108.71246 8748916
-54.697369 -54.476223 108.53674 8683124
-55.497955 -54.779537 108.28306 7695972
-53.04427 -53.485592 109.19495 8945525
-53.892719 -53.470516 109.05022 8748660
-54.66909 -53.766445 108.80354 7498594
-52.382721 -52.190327 109.7899 10327175
-52.920918 -52.55827 109.55887 7760996
-53.935734 -52.549831 109.38225 8550767
-51.477795 -51.321976 110.27052 10459020
-52.199352 -51.482937 110.08336 11248533
-53.203259 -51.535709 109.88605 8090217
-53.7869 -51.869827 109.65944 7037274
-50.742016 -50.321438 110.76994 8090987
-51.339588 -50.491119 110.60149 9077625
-52.318542 -50.502106 110.42405 10327433
-53.05238 -50.858284 110.16267 10590604
-50.636456 -49.476765 111.1002 12235172
-51.58918 -49.444683 110.94328 8814453
-52.232967 -49.741009 110.71995 8682867
-49.794342 -48.267258 111.69552 12762030
-50.615452 -48.539619 111.44961 13616824
-51.508465 -48.639751 111.25449 9538175
-49.043491 -47.318455 112.1785 7038307
-49.843685 -47.46286 111.98351 9340800
-50.764599 -47.645557 111.753 12300452
-48.289906 -46.208305 112.72144 9011838
-49.012295 -46.440022 112.50806 7630187
-49.974812 -46.611713 112.27425 10590351
-50.678173 -46.917995 112.03668 10984852
-47.416794 -45.172985 113.43345 8025201
-48.161713 -45.502407 113.06947 7696236
-49.177269 -45.633709 112.80899 8419701
-49.929256 -45.930637 112.53349 7038307
-45.080154 -44.05479 115.16833 7762021
-45.823391 -44.125248 114.82346 9604226
-46.684963 -44.283119 114.37582 10853781
-47.465782 -44.654224 113.82723 8880252
-48.353352 -44.852474 113.51602 8090994
-48.967014 -45.004162 113.28992 9011838
-32.294422 -43.157581 124.80175 8747893
-33.051384 -43.355686 124.59109 8747893
-33.958546 -43.517998 124.32331 9405567
-34.758026 -43.704182 123.44845 8156012
-35.356544 -43.705627 122.73808 7827558
-36.388737 -43.707287 122.43507 7301470
-37.023319 -43.708954 121.53217 7761509
-37.846333 -43.710617 120.92033 9406332
-38.863262 -43.712273 120.59682 9143161
-39.42963 -43.713684 119.88209 11643548
-40.133106 -43.715321 119.11576 12629930
-41.134769 -43.716976 118.77308 10655630
-41.978504 -43.718616 118.2132 9866628
-42.505653 -43.720215 117.23178 12630188
-43.491241 -43.721867 116.86871 9012091
-44.269276 -43.797901 116.20197 8025199
-45.102551 -43.847706 115.8398 6643542
-45.990662 -43.920074 115.44168 9011832
-31.560684 -42.243942 125.26881 10853012
-32.223034 -42.386173 125.09898 8617075
-33.2253 -42.506851 124.87699 8945528
-30.739601 -41.119732 125.82926 9735043
-31.36726 -41.40963 125.61107 9735043
-32.399998 -41.472931 125.40478 9143162
-33.138046 -41.807861 125.15035 8814201
-30.599369 -40.379101 126.12749 9208700
-31.564438 -40.504375 125.91032 9472128
-32.417126 -40.734581 125.67434 10458510
-29.883484 -39.443382 126.59975 8682356
-30.685139 -39.508301 126.43378 9208700
-31.615753 -39.691395 126.20137 9406079
-29.025303 -38.352146 127.1686 7498851
-29.840839 -38.543633 126.93945 8418928
-30.853199 -38.660709 126.71692 9208444
-28.214546 -37.093903 127.85446 9012086
-29.041492 -37.552185 127.46879 7762026
-30.00843 -37.567261 127.2702 7498342
-30.708397 -37.953812 127.00353 9340286
-27.372475 -36.152218 128.42989 7696227
-28.222618 -36.354977 128.12927 8814710
-29.230766 -36.543438 127.79986 7959406
-29.886761 -36.671753 127.62239 7038307
-26.788864 -35.101612 128.97786 8814710
-27.470581 -35.411316 128.6817 8222573
-28.45171 -35.401848 128.42599 8353903
-29.149284 -35.607735 128.16457 8617078
-25.936497 -34.159195 129.55637 9735812
-26.621342 -34.468433 129.25948 9341054
-27.605839 -34.457474 129.00348 9011830
-28.306324 -34.662579 128.74153 8287850
-25.221973 -33.373703 130.04005 6510930
-25.828491 -33.524406 129.82286 6642516
-26.81871 -33.480377 129.57768 7433057
-27.60342 -33.694668 129.29005 9537916
-24.370712 -32.271271 130.68121 8682099
-25.010284 -32.540623 130.41002 8945271
-25.962238 -32.535431 130.15929 9077113
-26.750099 -32.748837 129.87013 8484719
-23.523495 -31.007198 131.38232 9931137
-24.197556 -31.395948 131.05693 10391686
-25.16428 -31.498339 130.76176 9471871
-26.011673 -31.716221 130.45471 9405822
-22.671215 -30.091532 132.10358 11445144
-23.475315 -30.346828 131.71568 9734015
-24.402592 -30.435863 131.42046 9602429
-25.339558 -30.663111 131.04512 8353135
-20.181137 -29.006872 133.96169 12432804
-21.109962 -29.073299 133.57549 12959148
-21.869152 -29.370584 132.93286 9603193
-22.749462 -29.496527 132.55307 8616558
-23.60667 -29.663143 132.20073 8616049
-4.6269193 -28.643148 146.14751 9340801
-5.1543698 -28.643871 146.12971 9340801
-6.6487317 -28.647646 144.18051 8879479
-7.5159078 -28.648848 144.13737 9734787
-9.130825 -28.652773 142.2 9735812
-9.9860497 -28.653971 142.14159 9406847
-12.222015 -28.658766 140.16373 10262157
-13.233555 -28.660206 140.07187 6446934
-14.731224 -28.663952 138.15929 6446423
-15.728123 -28.665388 138.04851 7433831
-17.172962 -28.669048 136.15152 7037274
-17.991745 -28.670242 136.04515 7432800
-18.817692 -28.718693 135.59465 8025193
-19.476852 -28.80588 134.78377 7235678
-20.441067 -28.795584 134.58444 11051413
-122.5535 -75.232597 58.195404 5919050
-122.98582 -75.370026 57.857174 6972250
-123.84164 -75.462372 57.351254 8090986
-124.70564 -75.478851 56.877911 7235677
-125.43742 -75.547882 56.337914 7169883
-126.29759 -75.519424 55.558548 8748144
-127.08869 -75.461853 54.99535 8156010
-127.99948 -75.401024 54.658417 6511954
-128.66338 -75.339249 53.845863 8025193
-129.4503 -75.277695 53.261162 7037786
-130.23689 -75.215965 52.669804 8550513
-116.68266 -74.238548 62.46257 9537918
-117.31976 -74.322533 61.987633 9537918
-118.2953 -74.358253 61.504158 8485235
-119.13252 -74.452728 60.922428 8749433
-119.97957 -74.530144 60.374474 7828076
-120.67852 -74.686188 59.81852 7367263
-121.40606 -74.797165 59.296806 7235677
-122.41385 -74.855774 58.748791 6511442
-123.21579 -74.955345 58.218235 7170141
-124.00327 -74.984337 57.788124 8814709
-124.57683 -75.164291 57.327053 8090986
-131.20644 -75.146088 52.144302 10655885
-131.89841 -75.076912 51.562313 7893613
-132.71271 -74.979736 50.899845 10525330
-133.54936 -74.894897 50.239029 8354677
-134.23396 -74.822662 49.637238 6644055
-135.18491 -74.736252 49.065208 12169122
-136.13908 -74.649231 48.485252 8156521
-136.82628 -74.575806 47.86459 7301214
-137.51172 -74.502235 47.238476 9011320
-138.34508 -74.394974 46.656982 7761509
-139.13805 -74.331139 45.992851 7301470
-104.0631 -73.178024 72.470451 8946302
-104.77057 -73.37072 72.030281 8090993
-105.68269 -73.437279 71.538277 8090993
-106.52061 -73.662888 70.98893 8091249
-107.14117 -73.791779 70.229309 7368295
-107.93893 -73.837173 69.703476 10393230
-108.65837 -73.82653 68.877304 9077369
-109.48262 -73.829575 68.405861 8880246
-110.26007 -73.821747 67.678864 8485488
-111.08545 -73.826286 67.194908 10327692
-111.8672 -73.824829 66.458832 10524816
-112.72862 -73.865646 65.87352 7103067
-113.31944 -73.88855 65.306252 8353647
-114.32959 -73.922783 64.688438 8945784
-115.01851 -74.004082 64.016838 6510930
-116.02837 -73.991127 63.557205 6840663
-116.65331 -74.076141 62.880527 8485487
-117.64394 -74.059029 62.430393 9537918
-118.4021 -74.086082 61.921673 7038307
-119.34809 -74.111282 61.321545 8288627
-119.924 -74.142921 60.889679 8288627
-139.34727 -74.016655 46.247395 6840663
-140.13286 -73.964638 45.448734 7629667
-140.54692 -73.736603 45.146545 7827046
-100.56919 -72.26152 74.629677 12432045
-101.50206 -72.355591 74.115707 12234923
-102.29439 -72.524979 73.641998 8946302
-103.19258 -72.57901 73.162315 7038307
-104.0963 -72.636612 72.678322 7959409
-104.93105 -72.783134 72.19252 8617337
-105.8607 -72.931618 71.657593 8090993
-140.8779 -72.999168 45.251625 7563874
-98.936462 -71.423965 75.808601 8813942
-99.806229 -71.674133 75.261925 8287599
-100.7911 -71.596634 74.79274 12432045
-101.70074 -71.586197 74.333969 10787990
-102.57793 -71.690453 73.844147 8946302
-103.47925 -71.742699 73.363594 7433065
-104.12833 -72.09594 72.886444 7564651
-96.636726 -70.23719 77.46373 9538694
-97.431793 -70.424301 76.989647 12301739
-98.142609 -70.591782 76.558235 11314332
-99.02021 -70.623566 76.098274 8682099
-99.902443 -70.658844 75.634476 7103325
-100.79506 -70.591255 75.208138 9867146
-101.60212 -70.719757 74.743919 10590612
-102.5232 -70.951942 74.178619 7433575
-95.017067 -69.139008 78.637627 9209214
-95.778778 -69.439301 78.17318 7761771
-96.706772 -69.547791 77.709465 8091250
-97.569046 -69.631668 77.248848 10657174
-98.462708 -69.60363 76.805519 9735300
-99.309189 -69.625404 76.365547 6839895
-100.17508 -69.832169 75.838882 6510930
-94.102646 -68.227272 79.418221 7564648
-94.953995 -68.525253 78.91436 9932679
-95.833817 -68.669098 78.460083 9143163
-96.812256 -68.595726 78.047951 7038307
-97.678596 -68.678444 77.58886 9209730
-98.552811 -68.776337 77.103165 12827571
-99.228325 -69.074158 76.635635 6510930
-92.631744 -67.20295 80.49485 7038307
-93.478333 -67.490715 79.997307 8485493
-94.306335 -67.579987 79.588455 8485748
-95.200912 -67.612259 79.172646 10853264
-96.100464 -67.647957 78.75325 12300452
-96.83847 -67.822281 78.349915 7038307
-97.510254 -67.977249 77.965637 7038307
-91.165901 -66.200188 81.56057 7038307
-91.763947 -66.413429 81.205025 8485493
-92.552071 -66.498367 80.815865 9406336
-93.444511 -66.694679 80.334633 9208958
-94.518341 -66.558113 79.906525 11445143
-95.380852 -66.727051 79.449837 9011573
-96.024513 -66.932747 79.076859 10853262
-90.300095 -65.424835 82.264053 10459278
-91.083168 -65.502106 81.880272 7827565
-91.914696 -65.677032 81.43515 8485237
-92.848648 -65.534622 81.072319 9011579
-93.688629 -65.716393 80.620621 10655632
-94.532455 -65.901985 80.165672 13483958
-88.795547 -64.363754 83.37075 7038307
-89.422676 -64.487549 83.038361 8551031
-90.215576 -64.680138 82.60347 9406594
-91.233887 -64.515053 82.21183 7630443
-92.207542 -64.716301 81.692085 7564650
-93.000656 -64.797966 81.302002 7235685
-93.607094 -65.012596 80.942162 7564643
-87.9011 -63.466759 84.136406 8222067
-88.661652 -63.633991 83.726326 7038307
-89.579292 -63.576878 83.336334 7301479
-90.454559 -63.681931 82.899818 8945787
-91.334991 -63.689243 82.500496 7893358
-91.983391 -63.990238 82.086784 8813945
-86.17688 -62.276264 85.394379 8222320
-87.02137 -62.651787 84.862228 7367271
-87.840851 -62.578075 84.523109 7038307
-88.847549 -62.699768 84.020699 7038307
-89.790924 -62.58675 83.641716 7038307
-90.59832 -62.952854 83.130142 9866887
-84.662094 -61.289589 86.475548 6446418
-85.415131 -61.472691 86.062485 8946295
-86.290756 -61.570145 85.628822 9077372
-87.303795 -61.629631 85.148689 8353908
-88.159561 -61.573334 84.78624 7498857
-88.940178 -61.883179 84.309441 7761772
-83.154953 -60.233913 87.776962 7563619
-83.892151 -60.436031 87.283867 7498594
-84.803749 -60.565483 86.788757 7038298
-85.589043 -60.6054 86.41153 9998213
-86.496536 -60.666759 85.954796 9076856
-87.298073 -60.762989 85.520691 10393487
-88.065735 -60.893291 85.103615 8485494
-78.356125 -59.10458 91.415024 11707548
-79.078629 -59.154499 90.920898 9406593
-79.799805 -59.205654 90.422974 9538176
-80.777534 -59.262333 89.904114 9341054
-81.548599 -59.38147 89.324615 9801605
-82.357689 -59.612064 88.698624 10459277
-83.274384 -59.64109 88.226295 7761254
-84.063736 -59.728436 87.79451 7958633
-84.897446 -59.907143 87.269974 6577491
-85.694336 -59.926582 86.895462 8813683
-58.411938 -58.38739 106.42897 8353899
-59.225018 -58.512066 106.16224 8288107
-59.916103 -58.647938 105.80044 7498592
-60.742664 -58.755798 104.98954 8682867
-61.624523 -58.757454 104.47353 8682867
-62.501797 -58.759102 103.94978 14076864
-63.337215 -58.760887 103.21903 9143164
-64.017715 -58.762329 102.63729 8089964
-64.803741 -58.76395 102.01315 8813684
-65.547066 -58.7654 101.51053 8814453
-66.280556 -58.767155 100.66786 9472382
-67.125816 -58.768795 100.10534 11314328
-67.966103 -58.770435 99.5354 12433069
-68.801765 -58.772083 98.958717 9932934
-69.632347 -58.773727 98.374657 8617075
-70.458199 -58.775372 97.784027 9406847
-71.278793 -58.777016 97.186073 7432289
-72.094589 -58.778656 96.581581 8879989
-72.789688 -58.780067 96.057838 8419182
-73.595604 -58.7817 95.440346 7761254
-74.396637 -58.783344 94.816368 9734788
-75.192101 -58.784985 94.185417 10064009
-75.921959 -58.852371 93.382103 10590608
-76.691849 -58.914562 92.812782 10524814
-77.540489 -58.969296 92.246033 10457739
-78.405907 -58.97855 91.829254 11510426
-79.385788 -59.01342 91.272995 9209985
-80.109962 -59.064644 90.77356 9538176
-57.580837 -57.361439 106.96189 6577747
-58.353416 -57.513443 106.76898 8682608
-59.34444 -57.644764 106.54496 9866624
-56.935974 -56.325157 107.4582 8617072
-57.517582 -56.463226 107.30429 8288364
-58.523952 -56.560089 107.09028 8551279
-59.257309 -56.947845 106.81736 7893349
-56.781731 -55.49992 107.78992 8617072
-57.801926 -55.51302 107.60436 9340538
-58.535934 -55.896008 107.3331 8617072
-56.025055 -54.457245 108.30856 7498849
-56.872581 -54.533894 108.13013 8880501
-57.631664 -54.723186 107.9259 11314070
-55.121067 -53.477989 108.82989 7432801
-56.070114 -53.535236 108.64066 7104348
-56.904377 -53.686352 108.43716 8880759
-54.510147 -52.495171 109.30065 7563874
-55.265083 -52.543354 109.14915 8683124
-56.046772 -52.589031 108.99384 7696485
-53.593731 -51.225521 109.93126 7037274
-54.370861 -51.541897 109.67698 6774358
-55.348427 -51.583904 109.48832 7959145
-52.857292 -50.216473 110.43394 8682867
-53.593189 -50.573994 110.17173 8287596
-54.555233 -50.546162 110.01161 5722439
-55.185032 -50.76915 109.81771 7169629
-52.753193 -49.540482 110.70176 8880246
-53.751842 -49.559544 110.51782 8551281
-54.446682 -49.754601 110.32282 7169629
-52.03532 -48.482338 111.21922 8682867
-52.95314 -48.505524 111.04811 10261898
-53.645954 -48.739998 110.8389 10459537
-51.212128 -47.350563 111.78251 9472129
-52.010273 -47.582924 111.55543 8880246
-52.855015 -47.599655 111.39962 8946041
-50.476162 -46.284172 112.30627 9011579
-51.259663 -46.505634 112.08577 8551286
-52.181168 -46.535229 111.91164 9537922
-49.66087 -45.190353 113.02388 8813683
-50.415798 -45.458622 112.71128 7498600
-51.296497 -45.59565 112.45825 7235429
-52.062748 -45.803093 112.20265 7038307
-47.808262 -44.15876 114.36385 8024943
-48.791752 -44.366386 113.90625 8814200
-49.682537 -44.560841 113.51429 9471613
-50.503586 -44.727711 113.23282 7432032
-34.436485 -43.217041 124.40066 9537153
-35.279198 -43.378555 124.14723 9405567
-36.121693 -43.565651 123.78918 9932422
-37.130196 -43.707493 123.29579 7563619
-37.56546 -43.709187 122.07865 7892584
-38.445477 -43.710613 121.8034 9735297
-39.469845 -43.712284 121.47478 8682867
-40.029987 -43.713943 120.48306 11643038
-40.888653 -43.715599 119.9237 12103073
-41.753178 -43.71703 119.62479 10129543
-42.501511 -43.718594 119.00369 9208957
-43.129124 -43.720291 118.06197 7038307
-44.121674 -43.721958 117.69363 8354163
-45.111271 -43.723625 117.31739 7301478
