# .PCD v0.7 - Point Cloud Data file format
VERSION 0.7
FIELDS x y z rgb
SIZE 4 4 4 4
TYPE F F F U
COUNT 1 1 1 1
WIDTH 1217
HEIGHT 1
VIEWPOINT 0 0 0 1 0 0 0
POINTS 1217
DATA ascii
2.3729942 -54.345562 120.55475 7762030
3.1881282 -53.904041 121.08169 10524303
2.288758 -53.593372 120.8131 9340802
1.5975654 -53.353851 120.60699 7038307
2.2934215 -52.736855 121.15086 6775127
1.3443992 -52.516087 120.82546 6380116
1.9700515 -51.820496 121.36972 6643542
1.2035186 -51.704617 121.08245 7038048
0.57898402 -51.372211 120.94164 7103324
1.2138069 -50.81583 121.4353 8814715
0.31128192 -50.600506 121.12793 8485749
1.0190647 -50.07901 121.63961 10591124
0.24606013 -49.686962 121.45773 8881021
-0.67131543 -49.562332 121.12585 8551797
0.040695906 -48.924484 121.66747 8420983
-0.63367391 -48.602188 121.51435 10723476
-1.4898808 -48.53297 121.24731 9275775
-0.82733083 -47.741535 121.76723 9736840
-1.7664769 -47.598728 121.51092 7828847
-2.5932896 -47.313412 121.34928 9011579
-1.0397294 -47.070042 121.94785 8092019
-1.6634228 -46.741901 121.86899 7960176
-2.648742 -46.606815 121.60294 9077372
-3.4766419 -46.342388 121.4846 9471873
-1.9255307 -45.923698 122.09338 9011579
-2.6984112 -45.739704 121.95717 8419956
-3.6817009 -45.648102 121.76306 8748920
-4.4896898 -45.399681 121.75443 9341054
-3.6628296 -44.94302 122.29543 8617333
-4.6391745 -44.819393 122.17595 8419952
-5.6057234 -44.542095 122.25973 8156781
-6.5961294 -44.328304 122.32752 8682614
-7.6930265 -44.229576 122.36342 9011320
-6.8414297 -44.090473 122.994 10064011
-7.578784 -44.071857 122.89373 9800580
-8.6219816 -43.993019 122.92039 8090474
-9.5210371 -43.927284 122.98752 8287853
-10.57393 -43.879005 123.0839 8682611
-11.561213 -43.879864 123.23975 9341315
-12.451674 -43.879181 123.89033 8486520
-13.496078 -43.880878 123.77934 8486519
-14.539584 -43.882607 123.6599 9736836
-15.452046 -43.881985 124.29903 11643548
-16.457479 -43.882969 124.41926 13550517
-17.506191 -43.884769 124.27446 8814451
-18.479301 -43.885006 124.64214 8353901
-19.306753 -43.885006 125.02545 9405822
-20.360472 -43.886887 124.85664 8945271
-21.370777 -43.887714 125.03256 7367013
-22.34383 -43.887516 125.55323 7038307
-23.401934 -43.889473 125.35921 7104097
-24.304142 -43.665524 125.97126 8354158
-25.29907 -43.488026 125.99777 7893607
-26.330084 -43.539337 125.83806 9998215
-27.063753 -43.346104 125.80816 8747893
-25.26564 -42.673382 126.29931 9012088
-26.248438 -42.588951 126.19564 10721426
-27.32708 -42.614365 126.03876 8024938
-28.194725 -42.399288 125.99848 9142651
-26.355888 -41.85323 126.44922 10064008
-27.247442 -41.662872 126.3966 9077369
-28.329943 -41.69009 126.23852 9011579
-29.164448 -41.607216 126.15457 8879480
-27.35705 -40.926502 126.65009 10458510
-28.207651 -40.765057 126.59257 9735301
-29.279287 -40.732983 126.4576 7498600
-30.17664 -40.684605 126.35244 8024943
-28.364117 -40.000198 126.85001 9998215
-29.167057 -39.841354 126.79809 7038307
-30.245434 -39.649025 126.72066 7827048
-31.245481 -39.587029 126.60641 8222322
-31.972052 -39.256382 126.62757 9340289
-29.377167 -39.074165 127.04906 9406336
-30.186852 -38.606182 127.10888 7695205
-31.20134 -38.624744 126.96331 9274493
-32.245632 -38.557335 126.84499 8156272
-33.001118 -38.333977 126.82307 8617080
-30.519102 -37.939304 127.30659 7563619
-31.210314 -37.68045 127.3064 10590609
-32.177097 -37.70155 127.1664 9142393
-33.224445 -37.639389 127.04576 7761513
-34.036823 -37.411186 127.01785 8617080
-32.299755 -36.822544 127.47011 10786703
-33.150749 -36.742668 127.38279 8418671
-34.098461 -36.773808 127.24174 9274750
-34.857498 -36.586563 127.20615 8089963
-33.336147 -35.895939 127.66615 9076600
-34.190948 -35.81683 127.57803 9537408
-35.158527 -35.689274 127.49212 9537665
-36.033321 -35.452744 127.45864 9274750
-34.260303 -35.098274 127.83054 9932167
-35.103992 -34.628792 127.88628 9734788
-36.165745 -34.568771 127.76286 8879993
-37.089375 -34.526821 127.65177 7893358
-35.333069 -33.929668 128.10986 9011064
-36.103806 -33.705383 128.08615 9011836
-37.12505 -33.669468 127.9595 7828077
-38.07935 -33.566029 127.86662 7894124
-36.389751 -32.999409 128.30444 8091248
-37.100815 -32.741531 128.30115 9274751
-38.090504 -32.768562 128.15585 9275004
-39.006214 -32.67765 128.06369 8157548
-39.677357 -32.472 128.04686 8092011
-37.453411 -32.067558 128.49864 9143422
-38.168446 -31.809475 128.4949 8682867
-39.101639 -31.802507 128.36971 9209467
-40.084995 -31.731142 128.2612 9275773
-40.890926 -31.329214 128.29749 10262156
-39.094563 -31.015062 128.65779 9998727
-40.064548 -30.767508 128.67255 9340802
-41.058281 -30.595448 128.63818 11183516
-42.079067 -30.428413 128.61505 10525843
-42.918922 -30.35853 128.55455 9012606
-41.27599 -29.894728 129.13449 9867145
-42.065628 -29.806709 129.09526 9407106
-43.009914 -29.723 129.02872 8420469
-44.015263 -29.579475 129.10486 8618105
-44.923218 -29.337021 129.33604 8025969
-45.944016 -29.305073 129.25043 7565675
-46.010624 -29.087729 129.93126 7565675
-46.991665 -29.115906 129.7121 10394512
-47.870594 -28.964348 130.0764 12565423
-49.037449 -28.954767 129.94968 10459534
-49.696468 -28.975142 129.79782 10129545
-51.003227 -28.910286 130.84087 9405566
-51.947849 -28.912605 130.46764 9735046
-54.834637 -28.914251 131.22749 9603970
-55.624645 -28.91625 130.8947 8617331
-57.938766 -28.916441 131.89789 9932421
-58.732571 -28.918499 131.5461 9011579
-60.944267 -28.918369 132.61421 8813686
-61.423187 -28.919636 132.39264 8617081
83.840103 -73.392433 106.82112 7038307
83.137268 -73.477814 107.13265 7038307
82.077621 -73.511597 107.56115 6971997
81.238876 -73.520508 107.97971 7300704
80.250389 -73.801338 107.90136 7827048
79.231583 -73.802628 108.26124 7432808
78.366348 -73.804047 108.16546 9537667
77.223251 -73.804451 108.55256 8748408
76.239319 -73.805939 108.4885 7893358
75.227165 -73.806335 108.81782 8551029
74.232849 -73.807297 108.94007 9734788
73.327286 -73.8078 109.18367 9932167
72.364548 -73.808807 109.27523 10392969
71.329803 -73.80928 109.59201 9208435
70.372116 -73.810318 109.67037 9537403
69.379211 -73.811096 109.85806 9143162
68.38681 -73.811897 110.03645 7170141
67.356171 -73.812454 110.3215 9143160
66.409012 -73.813553 110.3738 11050642
65.38073 -73.81414 110.64307 8485494
64.438942 -73.815277 110.68259 7564651
63.503841 -73.81498 111.21977 12432296
62.967625 -73.814819 111.52328 13551031
85.639145 -72.107315 106.45274 9341057
84.873276 -72.486389 106.67715 9341057
84.004463 -72.671402 107.03027 8288366
83.126076 -72.581375 107.49879 9077882
82.319801 -72.624001 107.87841 7893612
81.585594 -72.798164 108.16965 7564651
86.777252 -71.123787 106.28822 8419958
86.009125 -71.556534 106.49225 8748922
85.133369 -71.683609 106.87206 8354164
84.199921 -71.549393 107.38546 7104091
83.379425 -71.723755 107.71914 8354159
87.827103 -70.224983 106.13322 8091249
86.971695 -70.554329 106.42165 10657426
86.121231 -70.683067 106.7884 10130570
85.166641 -70.663795 107.26596 8090991
84.41436 -70.872177 107.55234 6511954
88.918289 -69.393829 105.93024 8946042
88.11158 -69.531189 106.27226 8551798
87.114838 -69.684578 106.7011 10262413
86.250145 -69.637772 107.14547 9538436
85.54734 -69.885834 107.39148 10262156
29.630453 -69.931648 117.52782 10260876
28.997149 -69.57296 117.39471 9735300
28.09993 -69.378952 117.08231 9012856
90.535927 -68.224258 105.60311 8485747
89.872284 -68.411507 105.8548 8485747
89.054352 -68.608528 106.17863 8814455
88.073555 -68.642754 106.64803 9143419
87.304321 -68.876228 106.93304 9604227
86.687424 -68.902306 107.2261 9341059
28.842123 -68.929405 117.58108 7959400
28.092548 -68.64801 117.36713 8551793
27.310759 -68.509811 117.08281 8156779
91.705162 -67.251137 105.41795 8682867
90.985641 -67.49044 105.67631 8025198
90.125664 -67.5429 106.07887 8354161
89.118561 -67.69313 106.5146 8616819
88.361763 -67.855408 106.82226 8419184
27.930759 -67.791588 117.63432 8815477
27.142092 -67.558044 117.38463 8748916
92.785896 -66.416695 105.22067 11051412
91.933334 -66.574722 105.57719 8617075
90.99025 -66.533714 106.05824 7498856
90.06443 -66.692543 106.45052 8222576
89.440033 -66.991646 106.63799 8814455
26.998644 -66.64019 117.68398 6709333
26.103441 -66.507195 117.34849 10064777
93.905746 -65.538025 105.02191 8025196
93.008232 -65.516998 105.47247 8287853
92.120399 -65.555588 105.89435 9011832
91.131477 -65.76767 106.29633 7235685
90.452843 -65.998688 106.53782 7762027
26.834202 -65.757851 117.96026 6511954
26.075907 -65.648064 117.67494 8551537
25.358503 -65.444809 117.44418 11906724
95.569901 -64.379959 104.6673 9406590
94.83548 -64.615005 104.93461 7761765
93.94062 -64.553642 105.4001 6643028
93.048264 -64.495064 105.86321 7037530
92.124939 -64.896561 106.15678 9537920
26.047342 -64.790512 118.00033 9209211
25.124884 -64.617691 117.66875 11840931
96.525848 -63.500938 104.52976 7960175
95.80249 -63.619038 104.85822 7433057
94.928474 -63.559959 105.31252 7959144
94.128082 -63.588684 105.69527 7038043
93.504944 -63.762566 105.9324 5919050
25.034929 -63.711937 117.98648 9669251
24.186443 -63.475231 117.71214 10590352
98.34008 -62.092533 104.12489 7564643
97.709778 -62.517792 104.29169 8946556
96.940491 -62.680664 104.64124 9275520
96.025482 -62.578568 105.16512 8288367
95.169388 -62.60067 105.57912 7235421
24.82884 -62.828758 118.24506 8089963
24.034437 -62.615891 117.98473 8418928
23.325222 -62.469246 117.73518 8551798
99.536652 -61.111053 103.87969 8617331
98.732819 -61.541634 104.13808 7762022
97.823067 -61.663956 104.57999 9472643
96.91037 -61.565582 105.11398 10459025
96.135048 -61.726917 105.45435 10130057
24.036037 -61.715694 118.33996 9537665
23.185173 -61.576729 118.02605 10525587
100.60021 -60.284317 103.81693 8156780
99.865807 -60.378162 104.13924 8485745
98.942291 -60.686676 104.4259 10656658
98.093903 -60.697243 104.86908 9077375
97.244438 -60.860538 105.22188 10261391
23.004911 -60.733624 118.31918 10657173
22.064451 -60.441544 118.11559 8289141
105.06731 -59.091221 103.00629 6511954
103.65892 -59.207851 103.34989 6511954
102.8727 -59.25378 103.70682 8946807
101.81978 -59.509254 103.88627 8486001
100.86347 -59.632458 104.25596 9933959
99.887108 -59.769543 104.64739 8288366
99.20462 -60.035191 104.78686 9933191
22.712454 -60.123871 118.65057 8092019
22.076294 -59.796318 118.63873 8617847
21.230717 -59.605171 118.46013 7564901
20.289482 -59.263206 118.5751 7564901
105.49532 -58.907448 103.42689 8089963
104.85808 -58.971127 103.54601 7762277
103.94026 -59.016846 103.88087 8552050
19.999163 -59.040577 119.18514 5657419
19.216465 -59.026722 118.897 8354420
18.29261 -58.9151 118.93397 8354166
17.210878 -58.853321 119.21777 7564651
16.205084 -58.854256 119.3566 7893614
15.198168 -58.855209 119.48735 8484977
14.190209 -58.856201 119.60922 7827565
13.155937 -58.856354 120.03157 7827822
12.265952 -58.857212 120.14584 10196109
11.283133 -58.857929 120.3494 10458507
10.41363 -58.858471 120.5626 8681843
9.3387499 -58.8591 120.8391 8880761
8.2530041 -58.814369 121.01355 9012603
7.3435946 -58.558514 121.04155 9868167
6.5584707 -58.383133 120.78605 11380895
7.2996683 -57.774616 121.34703 9605254
6.4650507 -57.634029 121.04066 12368048
5.6845102 -57.289345 120.83804 11380895
6.3674173 -56.697666 121.36657 9539207
5.4986315 -56.535389 121.05312 8683899
6.083724 -55.821293 121.58701 8815485
5.4128485 -55.698296 121.34402 8551799
4.7456312 -55.500465 121.13197 11181971
5.389535 -54.809471 121.6823 9143165
4.427228 -54.572128 121.35765 11510935
5.138278 -54.111469 121.84693 9011579
4.3979807 -53.675461 121.69646 9800836
3.5382831 -53.466431 121.4052 10195080
4.2574015 -52.96217 121.91502 8024943
3.4429386 -52.620766 121.69534 8550769
2.7783191 -52.332378 121.51987 6511954
3.4095142 -51.742241 122.02523 9537408
2.4877727 -51.584976 121.68676 6775126
3.0862281 -50.859428 122.23093 9405822
2.4343593 -50.663956 122.0246 7893097
1.6913784 -50.48621 121.77179 8025200
2.276017 -49.742504 122.31709 12433069
1.4511249 -49.586224 122.02032 7827822
0.72572589 -49.429325 121.76695 7038307
1.3497188 -48.68269 122.33046 8814715
0.52980494 -48.627762 121.99612 8222835
1.1700752 -47.982815 122.52686 8748663
0.45824885 -47.631542 122.35557 10131340
-0.25562787 -47.624947 122.04827 10986647
0.25317454 -46.70163 122.6311 8748923
-0.60150838 -46.608841 122.29965 8683898
-1.3362553 -46.435619 122.09177 8288627
-0.55622792 -45.739021 122.702 8090995
-1.4552109 -45.616074 122.4518 8419956
-2.3250287 -45.293594 122.39552 9011579
-1.5262558 -44.953819 122.92803 7762540
-2.5044987 -44.706493 122.81044 8748407
-3.422725 -44.449821 122.88056 8288367
-4.3717527 -44.286743 122.89989 8814710
-4.6244116 -44.150826 123.28082 11051416
-5.5241232 -44.044693 123.42606 9670020
-6.3561392 -44.006126 123.36942 8814203
-7.4633436 -43.9132 123.42733 9735047
-8.2499952 -43.878262 124.01539 7630186
-9.313199 -43.874229 124.16975 7301475
-10.360133 -43.875851 124.08558 8682611
-11.256902 -43.877266 124.00619 8157297
-12.251359 -43.875999 124.90907 8092019
-13.30437 -43.877708 124.79973 8815227
-14.356467 -43.87944 124.68186 9077882
-15.340806 -43.879139 125.24035 9077882
-16.28861 -43.879772 125.45815 11183001
-17.195145 -43.881321 125.336 8024936
-18.213673 -43.882351 125.44901 8353901
-19.160282 -43.88179 126.08249 8419183
-20.222897 -43.883675 125.91485 6511954
-21.23243 -43.866772 126.04494 7695977
-22.116066 -43.537209 126.56143 9538180
-23.097826 -43.530098 126.34557 8880250
-23.874159 -43.489513 126.19215 8288365
-22.307127 -42.767529 126.8029 9472388
-23.184 -42.669514 126.64399 8551282
-24.165359 -42.626808 126.46854 8222572
-24.9807 -42.351723 126.45564 9209467
-23.280712 -41.811119 126.93918 9735043
-24.116655 -41.629025 126.84253 9537664
-25.180296 -41.586491 126.70733 9603713
-26.071014 -41.530663 126.6058 9866630
-24.262959 -40.863739 127.0964 10261131
-25.059029 -40.698708 127.04763 9537664
-26.127127 -40.659328 126.91586 9274749
-27.072027 -40.603127 126.80701 10524302
-25.259331 -39.932362 127.29966 9340286
-26.058493 -39.768456 127.25008 9208700
-27.130451 -39.730762 127.11712 10129801
-28.078831 -39.675972 127.00731 9998215
-26.261393 -39.00145 127.50198 10590609
-27.003929 -38.805531 127.47178 9669251
-28.073757 -38.702763 127.36282 8485237
-29.088305 -38.537117 127.28441 9866886
-29.865398 -38.239601 127.28658 9011321
-27.269245 -38.070801 127.70341 8485493
-28.136122 -37.666615 127.73211 9011579
-29.039377 -37.614071 127.62767 10261130
-30.081749 -37.54546 127.51007 7826791
-30.888437 -37.312782 127.48452 7563619
-29.154041 -36.736511 127.93195 9734273
-30.000671 -36.651588 127.84707 8550257
-31.056265 -36.708996 127.68169 8287085
-31.910696 -36.465126 127.65368 11575962
-30.178053 -35.806023 128.13112 9865601
-31.028191 -35.722004 128.04541 9734273
-32.035816 -35.782143 127.8856 11115411
-32.87867 -35.583332 127.84275 10128774
-31.158648 -34.958908 128.3058 11246996
-32.001583 -34.75808 128.26369 12036254
-33.050968 -34.756283 128.12071 10063237
-33.922321 -34.562092 128.0723 8813685
-34.663792 -34.229137 128.09222 9011064
-32.127041 -34.073353 128.49619 11444375
-32.958271 -33.69603 128.52 8682870
-34.027447 -33.535019 128.4324 7366239
-35.009575 -33.557518 128.28979 7958376
-35.716625 -33.299068 128.28732 8091248
-33.19183 -32.900318 128.77812 7565675
-33.960331 -32.672565 128.75607 8157297
-34.980007 -32.63184 128.63138 7432804
-36.001961 -32.592701 128.5058 7959662
-36.776531 -32.367512 128.48196 9143422
-34.241634 -31.965744 128.9753 10788759
-34.950165 -31.7047 128.9735 7960176
-35.938595 -31.727076 128.83009 7565161
-36.953762 -31.691732 128.70406 8485749
-37.682137 -31.428682 128.70026 8682867
-35.298222 -31.029577 129.17207 7039331
-36.021679 -30.924086 129.12067 9407107
-36.954781 -30.767281 129.09053 9866886
-37.974182 -30.688421 129.00888 8814453
-38.921349 -30.435122 129.04073 10919830
-39.82645 -30.249294 129.05966 11708831
-37.753181 -30.033039 129.50848 8682867
-38.880001 -29.787071 129.5434 11248536
-39.921192 -29.654478 129.54652 10853781
-40.80859 -29.59531 129.46133 8551545
-41.800541 -29.338995 129.69084 8946040
-42.858128 -29.221804 129.92384 7893865
-43.669518 -29.242702 129.74986 13024949
-41.560619 -29.189528 130.19829 8814456
-43.235096 -29.013178 130.5349 7564643
-43.887619 -29.030075 130.39497 10656657
-44.86705 -29.056147 130.18274 10196363
-45.744907 -28.945963 130.67921 9538691
-46.765064 -28.905487 130.55704 9209983
-48.947018 -28.905319 131.62523 10065033
-49.739204 -28.907221 131.32692 9932422
-50.529797 -28.909132 131.02478 10129545
-52.772121 -28.909105 132.07195 8222579
-53.725658 -28.91147 131.68628 10064010
-55.865276 -28.911142 132.79074 9340285
-56.664413 -28.913172 132.45108 10129543
-57.302372 -28.914803 132.17635 10458507
-59.662712 -28.91501 133.196 9537409
-60.464302 -28.917105 132.83382 9142651
80.923889 -73.103172 108.37265 8090992
80.174683 -73.548218 108.56233 9340030
79.354965 -73.511795 108.98035 8880249
78.385826 -73.558891 109.2975 9932423
77.597 -73.62146 109.67571 8091506
76.531921 -73.80275 109.4665 7893358
75.382385 -73.803215 109.83431 8616564
74.508057 -73.804146 109.91405 8813686
73.604782 -73.804276 110.28632 9011065
72.629318 -73.805832 110.19512 9669243
71.58812 -73.805801 110.6895 10458761
70.620659 -73.807358 110.58635 12695726
69.478951 -73.807976 110.90348 13418933
68.619362 -73.808975 110.94839 9405821
67.576912 -73.809052 111.40799 7563874
66.625732 -73.810669 111.28149 7629922
65.583015 -73.810776 111.72378 7564651
64.66246 -73.812103 111.68711 7893615
63.597355 -73.812584 112.01105 12432296
62.608006 -73.813515 112.14474 9208443
61.620045 -73.814461 112.27 10655887
60.807323 -73.814285 112.71036 9406333
60.263966 -73.814163 113.0008 10853521
82.107758 -72.236092 108.13884 7564651
81.283546 -72.549637 108.41834 8156785
80.420837 -72.690575 108.78619 8682871
79.54866 -72.613594 109.24638 9143419
78.689743 -72.759941 109.61021 9998472
83.227509 -71.243446 107.98711 7564642
82.371513 -71.56266 108.27999 7959404
81.385689 -71.679802 108.71795 8551540
80.443802 -71.676353 109.18289 8551284
79.703339 -71.895958 109.45898 8090987
84.873398 -70.184036 107.60328 9735812
84.174728 -70.43502 107.84616 8222572
83.218193 -70.648872 108.23083 7564642
82.355835 -70.671631 108.64606 8419955
81.54744 -70.7192 109.0248 8485748
80.811951 -70.897003 109.31519 8617333
31.273336 -70.446159 118.037 9735045
30.448969 -70.186943 117.78186 8616307
86.009583 -69.198898 107.44042 9341059
85.307007 -69.448105 107.68591 10130572
84.404945 -69.586891 108.074 8814969
83.427666 -69.638763 108.53412 7828588
82.60569 -69.817398 108.86678 8157041
31.101515 -69.953636 118.15659 10260876
30.224072 -69.581009 117.92317 9011065
29.373219 -69.199989 117.70457 8616307
87.059723 -68.353622 107.2635 9406851
86.175369 -68.481987 107.64719 8748923
85.182449 -68.643478 108.07089 9933194
84.338821 -68.711166 108.45885 9078399
83.491638 -68.950233 108.77963 8092019
30.024281 -68.665855 118.19706 8155755
29.208475 -68.499214 117.90923 7432033
88.146675 -67.46434 107.08524 8748405
87.320023 -67.499527 107.47832 8617336
86.382179 -67.586563 107.90536 8288373
85.47393 -67.724731 108.29702 9341059
84.770554 -67.975967 108.54213 9933193
29.855597 -67.881615 118.43285 8089963
29.205418 -67.632439 118.24931 7432032
28.324827 -67.47834 117.92847 7959144
89.762131 -66.290558 106.76086 9209467
89.046722 -66.534714 107.01522 9275005
88.171143 -66.487572 107.46548 8945784
87.228935 -66.573555 107.89508 9275008
86.403061 -66.966278 108.14421 8288374
29.037733 -66.82682 118.49397 7826790
28.303228 -66.611168 118.26064 7695717
27.637943 -66.577827 117.98555 7761509
91.080879 -65.331863 106.49627 7564651
90.209229 -65.557709 106.83495 8222322
89.27684 -65.466591 107.33083 9340797
88.381279 -65.592751 107.72134 9932419
87.581535 -65.938072 107.97662 9472128
28.151423 -65.641548 118.57677 9734530
27.315838 -65.642479 118.21439 8814453
91.943794 -64.568733 106.37767 9143165
91.102226 -64.597946 106.78051 7696237
90.190376 -64.499176 107.26935 8090994
89.290421 -64.624367 107.66242 8682867
88.507217 -65.056236 107.87474 9932419
27.82699 -64.705727 118.80482 11444374
27.200338 -64.625031 118.56511 10392714
26.434713 -64.474106 118.29279 9406333
93.593765 -63.403458 106.03291 7695717
92.971848 -63.578705 106.26884 8616818
92.176697 -63.612534 106.64697 9472128
91.312729 -63.563889 107.09209 7762029
90.592857 -63.685566 107.39783 8682873
89.668442 -64.0774 107.6959 8682867
27.052286 -63.753296 118.84429 9669761
26.267197 -63.631916 118.55193 9669505
25.623816 -63.455402 118.34267 9866630
94.986481 -62.270981 105.80167 7959144
94.052315 -62.671509 106.10094 10261643
93.155762 -62.616478 106.56469 9077370
92.261673 -62.564167 107.02612 7893097
91.534508 -62.807194 107.28668 7564651
26.214403 -62.687443 118.90105 9077881
25.417763 -62.568661 118.60268 8090987
95.944244 -61.383614 105.68616 10459022
94.991913 -61.611851 106.06367 8946039
94.140579 -61.621132 106.47929 10853779
93.339096 -61.655102 106.86047 9340545
92.715805 -61.832275 107.09638 9340545
26.104118 -61.84235 119.18611 9735812
25.256708 -61.666069 118.88838 8156780
24.380936 -61.491943 118.57755 7564643
97.731064 -60.335606 105.3241 10261391
96.974915 -60.393246 105.69253 10458770
96.100601 -60.572231 106.01189 9406334
95.208267 -60.692532 106.36935 8814453
94.319504 -60.814491 106.72416 8090991
25.141417 -60.835865 119.17833 8288366
24.281906 -60.647129 118.93658 7959401
23.402893 -60.338989 118.77072 9538433
101.97175 -59.100681 104.64502 9341822
100.71682 -59.229877 104.85941 8090987
99.947403 -59.286213 105.21697 8551538
99.032402 -59.532719 105.36379 9932936
98.153816 -59.646881 105.69517 8024944
97.29731 -59.773567 106.04424 9011582
96.235519 -59.973087 106.41749 10656146
24.030985 -60.006828 119.31313 7367264
23.267878 -59.707138 119.22419 6709590
22.285942 -59.336563 119.28043 7038556
21.343061 -59.186855 119.26376 7367780
105.7785 -58.779049 104.206 8879990
104.96098 -58.81477 104.39954 10263180
104.07972 -58.814724 104.52282 7762277
103.21114 -58.889462 104.75294 8749429
102.07085 -58.951122 105.12568 9144443
100.9847 -59.040833 105.39257 8617587
22.030418 -59.120232 119.78221 8618105
21.428846 -59.053162 119.74725 7039331
20.450436 -58.992607 119.52701 4933954
19.339224 -58.850651 119.66788 8354420
18.329037 -58.850113 119.82164 8814715
17.372324 -58.849873 120.3504 8090993
16.412098 -58.850914 120.42789 8946298
15.430588 -58.851536 120.66638 8288370
14.468403 -58.852631 120.72871 8287855
13.560615 -58.853165 120.961 7563877
12.46924 -58.853546 121.33395 8024427
11.592028 -58.854462 121.41929 9866115
10.567932 -58.855553 121.51073 9537407
9.5258589 -58.654572 121.85315 8880507
8.6294708 -58.514877 121.63171 8354419
9.2869606 -57.987392 122.12466 9012603
8.483263 -57.67268 121.90022 8946810
7.6799688 -57.464188 121.63415 8683896
8.2759705 -56.721546 122.18497 7762029
7.4962816 -56.705139 121.85336 8092019
6.8982439 -56.436718 121.69934 8092019
7.5189123 -55.717323 122.25073 8946813
6.581996 -55.536167 121.91505 9013120
7.2323771 -54.951588 122.42651 10261901
6.5225153 -54.695381 122.21883 12697011
5.7353201 -54.294346 122.03436 8288115
6.5479231 -53.848984 122.56163 11248280
5.5971518 -53.57774 122.2553 7564650
5.521369 -52.673019 122.57703 6313553
4.6734228 -52.573669 122.24791 7367015
5.2721376 -51.882893 122.77857 6116173
4.5436163 -51.61742 122.56643 6839895
3.9011428 -51.449802 122.35328 9142650
4.4846163 -50.730175 122.8886 6839895
3.6312282 -50.628441 122.55805 8024169
3.5311344 -49.724739 122.86887 8353134
2.7982299 -49.573944 122.60982 11248539
3.4031322 -48.775826 123.18528 11380380
2.6553848 -48.660828 122.90576 11643296
1.8115642 -48.48238 122.60945 11577503
2.3995845 -47.672012 123.18238 8354158
1.6825874 -47.654301 122.87806 9406334
1.0228755 -47.355835 122.70869 9932937
2.2164562 -46.923187 123.39649 6511954
1.5599487 -46.676155 123.20829 8880247
0.81172824 -46.677235 122.88307 9275009
1.4230945 -45.804047 123.51089 10854036
0.57911181 -45.713192 123.22031 9538180
-0.16328168 -45.420704 123.09286 8551288
0.43038821 -44.959488 123.73029 9932937
-0.40307164 -44.860882 123.45104 9011837
-1.2571499 -44.465752 123.51431 7696747
-2.3097394 -44.274654 123.51455 8814457
-3.1424077 -44.199261 123.47295 8814457
-2.2625782 -44.081306 124.14135 9077372
-3.305589 -44.032738 123.97332 7433064
-4.2745848 -43.922554 124.18821 8090990
-5.1876135 -43.896141 124.24952 9012089
-6.3185701 -43.869713 124.36226 7564651
-7.3671999 -43.871269 124.30332 9208960
-8.3329515 -43.869877 125.23685 8682617
-9.23808 -43.871262 125.17211 11905701
-10.142701 -43.872662 125.10078 8617081
-11.197412 -43.874321 125.00916 9341058
-12.047647 -43.87278 125.94173 11314333
-13.109359 -43.874493 125.83405 9669765
-14.170142 -43.876228 125.71784 8222060
-15.120496 -43.876823 125.94908 9077882
-16.116711 -43.876534 126.51141 10985881
-17.030853 -43.87809 126.39041 9012863
-17.944059 -43.879662 126.2628 9603710
-19.120323 -43.657715 127.18356 8879734
-19.994427 -43.568192 127.02207 10129289
-21.000977 -43.457516 126.83894 8748666
-20.086052 -42.693626 127.32443 9472128
-21.011738 -42.602722 127.15197 9275009
-21.953342 -42.426231 127.00757 10196110
-21.044884 -41.671745 127.48814 10130316
-21.983311 -41.643131 127.28986 10854038
-22.927094 -41.468872 127.14416 8353646
-21.304148 -40.991547 127.68147 9735812
-21.970089 -40.706799 127.63828 11774881
-23.002586 -40.656357 127.42716 8090730
-23.977211 -40.545322 127.26027 10524303
-22.280226 -40.031841 127.81837 16248798
-22.948095 -39.74855 127.77425 7498849
-23.984697 -39.703606 127.57201 8090474
-24.972023 -39.610626 127.45627 9077114
-23.260448 -39.073952 127.95371 5393730
-23.931126 -38.793072 127.91253 7498593
-24.936188 -38.794426 127.75878 8747893
-25.901953 -38.647305 127.68029 9537665
-24.151461 -38.014816 128.15498 7038307
-24.928543 -37.751251 128.14018 7629927
-25.926096 -37.718994 128.01547 10327180
-26.931435 -37.534584 127.94512 10195336
-27.848446 -37.342335 127.88975 9011579
-26.018845 -36.669998 128.38524 9340541
-26.862057 -36.580051 128.30267 9932421
-27.9144 -36.630856 128.14014 9537664
-28.763529 -36.382343 128.1145 9405565
-27.031609 -35.735207 128.58749 10130057
-27.878031 -35.646305 128.5041 9274750
-28.882252 -35.700306 128.34697 10786445
-29.719881 -35.496941 128.30652 10589067
-28.050241 -34.800152 128.78905 9208957
-28.899958 -34.712135 128.70488 10852237
-29.847368 -34.73407 128.56723 10457481
-30.699608 -34.648643 128.48172 11378581
-29.025713 -33.948673 128.96603 8682870
-29.867311 -33.743973 128.92551 8945272
-30.87899 -33.8004 128.76649 10786703
-31.812977 -33.584259 128.71748 11444375
-32.524914 -33.202797 128.75919 10260617
-29.98185 -33.138802 129.13052 7367528
-30.909595 -32.782082 129.13362 8616566
-31.856207 -32.572491 129.08049 10129288
-32.866299 -32.529953 128.95776 7565675
-33.571106 -32.268311 128.95673 12433069
-31.809361 -31.685747 129.41022 8748665
-32.784885 -31.632847 129.29602 8815485
-33.851791 -31.561035 129.17618 12038312
-34.624073 -31.33234 129.15385 13551549
-32.810734 -30.836025 129.60495 9144449
-33.79829 -30.709368 129.55865 11117467
-34.813515 -30.670385 129.43839 11380639
-35.705177 -30.49976 129.42805 9209985
-36.364815 -30.443388 129.3817 13551549
-34.171562 -30.084841 129.95634 11380639
-34.904202 -29.983454 129.93462 9209985
-35.844334 -29.827742 129.92575 8486263
-36.833355 -29.799517 129.83958 10064265
-37.708656 -29.510172 130.01807 7695205
-38.776012 -29.340384 130.08679 10195850
-38.968811 -29.130072 130.73058 9735812
-39.778408 -29.147945 130.56645 10459024
-40.766384 -29.083637 130.63887 8748923
-41.604931 -28.972973 130.87822 10261642
-42.582798 -28.99682 130.67316 8879989
-43.763603 -28.898544 131.59581 7828327
-44.713837 -28.900721 131.27489 8946807
-47.675846 -28.902304 132.09167 9406847
-48.470837 -28.904184 131.80164 10065033
-50.856636 -28.904423 132.82271 9735556
-51.496273 -28.905975 132.57539 8880251
-52.134895 -28.907539 132.32539 8617080
-54.421581 -28.907518 133.38957 9274492
-55.224545 -28.909529 133.05891 9208443
-57.730412 -28.910019 134.04622 9734788
-58.375759 -28.911674 133.7657 11181972
-59.020046 -28.913338 133.4827 10261132
-60.560078 -28.733137 134.61571 8550514
-61.42038 -28.719772 134.50026 9208437
-62.27507 -28.529148 134.40587 9931646
-61.404457 -27.897871 134.80434 9208435
-62.325153 -27.696249 134.75171 9405814
-62.425343 -27.0742 134.96455 9340021
-62.866032 -26.648165 135.05943 9208435
77.348358 -73.253639 110.07172 10525588
76.563522 -73.46077 110.35933 10064781
75.601013 -73.603622 110.79086 7827303
74.603584 -73.584343 111.13415 6905688
73.836693 -73.764404 111.21497 7958374
72.750259 -73.802475 111.31193 10458761
71.735291 -73.803268 111.50688 12169382
70.736252 -73.804329 111.59692 9405821
69.712112 -73.804878 111.87598 9076857
68.703835 -73.805717 112.05025 9077112
67.696686 -73.80658 112.21582 8222317
66.78476 -73.807228 112.40864 6708309
65.824692 -73.808403 112.4478 6511698
64.78196 -73.808662 112.8344 10130314
63.926838 -73.809769 112.84721 14143168
62.873779 -73.809959 113.26427 10655887
61.954342 -73.811348 113.20541 10195336
60.881695 -73.811913 113.50368 9406333
59.889477 -73.812904 113.6135 10853521
58.898777 -73.813942 113.71495 8090734
57.938168 -73.813805 114.20493 8090734
57.249798 -73.813736 114.55051 8090734
79.04451 -72.205269 109.65872 9143419
78.375153 -72.296242 109.95158 10064267
77.59819 -72.589813 110.21584 9078656
76.554703 -72.633591 110.71172 9210242
75.734787 -72.723389 111.07912 7695204
75.057411 -72.993744 111.30376 6510930
80.149719 -71.204308 109.51748 8090987
79.462486 -71.465302 109.75072 9274749
78.635635 -71.547058 110.12476 9603972
77.641327 -71.683174 110.55932 9276035
76.869606 -71.791542 110.8955 11643554
76.144089 -71.980766 111.17641 9735299
33.612835 -71.192764 118.75663 12432037
81.332848 -70.334831 109.285 8617333
80.516991 -70.425919 109.64988 9011833
79.603493 -70.586075 110.03503 9603713
78.621902 -70.714668 110.46636 8617591
77.837112 -70.92614 110.76745 8092019
33.105324 -70.763855 118.70565 11379607
32.345425 -70.54995 118.46066 11050643
31.641741 -70.232841 118.28071 10459281
82.288696 -69.350471 109.21059 8880507
81.468674 -69.532883 109.54079 10064777
80.498077 -69.595161 109.99338 10853520
79.607597 -69.748985 110.36973 9537661
78.919342 -70.011627 110.60277 7564643
32.360531 -69.689308 118.80618 11182228
31.478872 -69.523666 118.48943 10524045
84.096252 -68.276863 108.75298 9012606
83.404556 -68.472916 109.01446 10327693
82.537361 -68.498283 109.43103 10130570
81.672089 -68.526306 109.8456 9143678
80.763573 -68.829948 110.17053 10327434
80.026649 -69.011375 110.46023 10458505
32.144424 -68.9076 119.02043 9932419
31.482409 -68.648727 118.83556 9997703
30.667868 -68.552132 118.5207 9800324
85.081802 -67.275543 108.67075 9012606
84.415962 -67.531738 108.89534 9012606
83.515282 -67.494133 109.35372 9472899
82.517776 -67.613106 109.79674 9604228
81.657875 -67.936768 110.08971 7696236
31.138792 -67.779655 119.029 10524047
30.332354 -67.536644 118.77532 9471359
86.278969 -66.442024 108.41587 10327952
85.393227 -66.575531 108.79855 10920086
84.498627 -66.491776 109.27283 8881275
83.617348 -66.630127 109.65104 9012606
82.704964 -67.058403 109.9278 8617335
30.972582 -67.076096 119.23405 9142651
30.257509 -66.646469 119.09348 9866374
29.438295 -66.513229 118.79102 9142394
87.364159 -65.550407 108.23934 10460307
86.484001 -65.549316 108.6734 8749948
85.536827 -65.495735 109.16149 10065547
84.750931 -65.641525 109.49008 9999493
83.982666 -66.08123 109.69198 11183510
30.097368 -65.679459 119.40498 9931910
29.41852 -65.644371 119.12466 8747893
28.678137 -65.430611 118.8881 9471359
88.977722 -64.372284 107.91772 8682867
88.261887 -64.619812 108.1709 8682867
87.384163 -64.578514 108.61985 7828589
86.508438 -64.539963 109.06673 7565675
85.798767 -64.791901 109.31512 7565675
29.397692 -64.777023 119.45726 8681843
28.444849 -64.591751 119.11744 10589582
90.837296 -63.100075 107.51253 9340289
90.215424 -63.523708 107.6488 9011581
89.422241 -63.640228 107.99269 8682867
88.487495 -63.555565 108.48716 9998469
87.608292 -63.610462 108.8982 8223089
86.945717 -63.807453 109.14554 7565675
28.331217 -63.725121 119.40952 10721166
27.528519 -63.501972 119.14961 10064006
92.014091 -62.124252 107.32478 8091248
91.300583 -62.476727 107.53467 8485494
90.312576 -62.679379 107.94001 9932423
89.398468 -62.587017 108.42741 10590350
88.559944 -62.626217 108.8247 11445401
28.156761 -62.779797 119.70627 10064006
27.360786 -62.657845 119.40942 9406846
26.605505 -62.39999 119.18374 9209467
92.964211 -61.246792 107.20911 9340545
92.275597 -61.479401 107.45493 8090993
91.344193 -61.641716 107.84853 9276031
90.518761 -61.648918 108.25228 8617847
89.798065 -61.774696 108.55677 9537667
27.309681 -61.711201 119.76013 8946296
26.502142 -61.592003 119.45721 9406847
25.837765 -61.138939 119.34772 9012089
94.795822 -60.268349 106.8746 10130057
94.183746 -60.339954 107.11481 9143166
93.327705 -60.459194 107.4543 9143166
92.357079 -60.660789 107.78966 9209471
91.472794 -60.716171 108.18811 9736838
90.737625 -60.894321 108.44756 9144446
26.508881 -60.737324 119.83482 8945783
25.561192 -60.448669 119.61993 8748917
99.027847 -59.131348 106.12466 9472388
98.223282 -59.136871 106.53928 7432808
97.206184 -59.342796 106.56082 9603462
96.31588 -59.416107 106.95899 10261643
95.326248 -59.663303 107.12647 11051159
94.430923 -59.741142 107.50034 11905953
93.588928 -59.825329 107.84263 10261388
92.670113 -60.066692 108.08958 9340545
25.375887 -59.855789 120.01301 9012089
24.483879 -59.550316 119.93994 7696229
23.520369 -59.236996 120.015 8814710
22.63298 -59.186348 119.81198 5920074
106.79847 -58.776257 104.70807 10854036
106.16542 -58.775265 105.3471 9735555
104.89618 -58.777679 105.0917 9144702
104.26112 -58.776722 105.71955 7893867
102.88042 -58.77895 105.57984 7564643
102.10146 -58.802391 106.04864 10129287
101.11098 -58.841763 106.03472 8486001
100.24256 -58.914783 106.24371 10262156
99.287605 -58.942646 106.66091 8946298
97.615448 -59.053486 107.1664 9670535
23.179213 -59.103268 120.32361 10262156
22.465487 -58.947407 120.52137 7959916
21.568239 -58.878723 120.53546 9736071
20.538948 -58.845036 120.63951 9209985
19.521025 -58.845718 120.80633 7893871
18.501734 -58.846615 120.96454 7564651
17.535982 -58.846367 121.49866 8288371
16.657499 -58.847179 121.62063 8485749
15.631451 -58.848152 121.75469 7630443
14.604356 -58.849155 121.88055 7695720
13.723169 -58.850033 121.98137 6510930
12.694217 -58.851086 122.09068 7498081
11.603033 -58.822639 122.3325 8946296
10.64788 -58.559647 122.44913 10788242
9.8863382 -58.420444 122.21384 14077885
10.525639 -57.699379 122.77502 8814711
9.7276487 -57.606716 122.46558 8947068
9.0007629 -57.306957 122.26859 9012603
9.6888409 -56.676075 122.81535 9012606
8.8181858 -56.544735 122.48968 9341571
9.4267521 -55.830906 123.03429 9341571
8.7392206 -55.699436 122.78745 9341571
8.0564222 -55.492538 122.57217 12432039
8.6755276 -54.798607 123.11295 10919315
7.7396975 -54.552525 122.80317 14010814
8.4744816 -54.095196 123.30142 8089960
7.6770716 -53.667995 123.12272 10458250
6.8836946 -53.497227 122.84529 10260871
7.5227938 -52.869175 123.3689 8089960
6.699111 -52.615726 123.11073 6379600
6.0667086 -52.582569 122.84922 5721671
6.6546564 -51.644234 123.47223 5984843
5.7803354 -51.641411 123.09383 5524292
6.4008837 -50.945976 123.63577 6116173
5.7695055 -50.644527 123.47992 5984587
4.9889975 -50.608662 123.15517 6642517
5.6082563 -49.789307 123.74519 7366240
4.7935419 -49.67202 123.43752 8879734
3.9992359 -49.326817 123.22803 8484976
4.611846 -48.672771 123.75034 9537664
3.791455 -48.639946 123.40714 10524815
3.8410404 -47.698727 123.7976 8156267
2.9924285 -47.585716 123.47353 7367007
3.5222785 -46.760426 124.02702 7761764
2.8186042 -46.707321 123.74242 6511954
2.1191967 -46.402756 123.55821 7235421
2.7875564 -45.835518 124.09612 9471612
1.924504 -45.574211 123.89153 7827560
1.0270145 -45.297966 123.70914 10854036
1.6796386 -44.931576 124.29397 8682874
0.83010936 -44.620102 124.2345 9209216
-0.12542844 -44.340096 124.20899 9867143
-0.76847005 -44.168312 124.41653 7894126
-1.2200711 -44.060081 124.59623 9077372
-2.1233761 -43.928307 124.69659 9274494
-3.2531674 -43.87447 124.76167 8090736
-4.1039095 -43.863663 125.45252 8485749
-5.0107241 -43.864964 125.41832 8156785
-6.0682745 -43.866501 125.36987 8748407
-7.1254644 -43.868057 125.31303 8814203
-8.0758696 -43.867565 125.92732 7630187
-9.0095415 -43.868023 126.19952 11905701
-9.9216108 -43.869427 126.1299 9669511
-10.985007 -43.87109 126.04006 8617849
-11.993354 -43.869755 126.97413 11052442
-12.910886 -43.871227 126.88258 10065034
-13.980542 -43.872971 126.76799 7037274
-14.896575 -43.874489 126.66241 7629667
-15.941722 -43.873249 127.57926 9012863
-16.925863 -43.623966 127.62952 9341571
-17.915684 -43.600414 127.45285 8025714
-18.73407 -43.323448 127.39285 8617081
-17.240345 -42.803394 127.91712 10985881
-17.858482 -42.631424 127.84299 9011838
-18.882061 -42.638954 127.6125 8485239
-19.699976 -42.358246 127.53402 8617081
-18.100697 -41.889046 128.06306 8024945
-18.824793 -41.663818 127.98504 10721685
-19.8932 -41.644577 127.75439 11050903
-20.665127 -41.474255 127.64545 9735812
-19.069231 -40.921822 128.20441 11379614
-19.79496 -40.69841 128.12538 14142657
-20.825268 -40.65369 127.91264 9735812
-21.648727 -40.355247 127.83955 13682362
-20.041649 -39.956741 128.34418 13024689
-20.769136 -39.734974 128.2641 11051158
-21.801338 -39.692703 128.05003 13682874
-22.627062 -39.396053 127.97576 9012086
-20.922062 -38.88937 128.54208 10722449
-21.806736 -38.80426 128.37666 10327945
-22.825596 -38.698456 128.189 7564641
-23.609529 -38.438465 128.11047 9012086
-21.902689 -37.927444 128.67883 9012086
-22.784966 -37.690849 128.56984 9012086
-23.73749 -37.686249 128.36131 8419697
-24.937931 -37.180439 128.34706 7038307
-23.004082 -36.754494 128.86656 9012086
-23.772223 -36.732288 128.70494 8485492
-24.768827 -36.622429 128.57362 7695978
-25.626474 -36.31892 128.56696 8419699
-23.898106 -35.69009 129.06038 8879993
-24.737101 -35.589542 128.95461 11708313
-25.790619 -35.635475 128.7937 10393227
-26.638699 -35.383003 128.7697 10130313
-24.901579 -34.7439 129.24043 10129798
-25.748152 -34.651108 129.15842 8222316
-26.753355 -34.700466 129.0029 9669762
-27.590063 -34.49324 128.96394 8814711
-25.866993 -33.888374 129.42027 7367007
-26.764978 -33.712276 129.36162 7433056
-27.712889 -33.729889 129.22548 9012349
-28.56477 -33.640614 129.14143 9275778
-27.03223 -32.972069 129.59492 7038557
-27.787741 -32.772839 129.56418 9670536
-28.738997 -32.791634 129.42717 10656916
-29.653463 -32.7197 129.32826 8025713
-30.478043 -32.295837 129.36995 7038307
-27.996401 -32.136959 129.76752 10985881
-28.763386 -31.773232 129.79517 10985881
-29.738623 -31.654316 129.70506 8354164
-30.754574 -31.553455 129.60281 8814458
-31.518225 -31.357239 129.56984 9735558
-29.62281 -30.810158 130.04854 7038307
-30.686409 -30.665783 130.00391 12169894
-31.709192 -30.628017 129.89355 12432294
-32.624935 -30.406582 129.91924 10721936
-31.695017 -29.952457 130.39548 12366244
-32.653584 -29.786097 130.39253 9405563
-33.586163 -29.770193 130.27762 11972259
-34.610043 -29.480688 130.49652 9472901
-35.603153 -29.336403 130.57895 7039331
-36.522259 -29.29365 130.53374 8616563
-36.541935 -29.080322 131.20993 11183002
-37.512394 -29.09955 131.02043 8287342
-38.448483 -28.974499 131.29175 9077628
-39.650925 -28.928041 131.2793 8814713
-40.302021 -28.942547 131.14709 8090995
-41.696465 -28.89389 132.26692 11511449
-42.492641 -28.89567 132.01219 10524555
-43.287476 -28.897463 131.75362 7564643
-45.600544 -28.897463 132.82399 8092011
-46.400051 -28.899315 132.54605 8419952
-47.038433 -28.900805 132.32065 8090987
-49.412945 -28.900955 133.36694 12433069
-50.376217 -28.903265 133.00595 9735556
-52.48711 -28.902742 134.16399 10261132
-53.294453 -28.904728 133.84435 9669252
-56.272984 -28.906321 134.66481 8747893
-57.276379 -28.702471 134.77589 8221549
-58.148571 -28.548607 135.01312 8748149
-59.235508 -28.604212 134.84402 8748405
-60.092754 -28.589684 134.73193 8813686
-58.321938 -27.883007 135.23184 8617075
-59.188972 -27.712894 135.17506 8222317
-60.221165 -27.765154 135.01472 9208699
-60.989147 -27.566582 134.98184 9208435
-59.376045 -26.89085 135.44888 8617075
-60.212048 -26.738428 135.38991 9274492
-61.241989 -26.74494 135.24654 8813682
-62.142597 -26.521465 135.20462 9273974
-60.374882 -25.986349 135.64157 9010806
-61.204273 -25.712521 135.62781 8550256
-62.217731 -25.7619 135.47107 8418927
-62.932446 -25.662224 135.40953 7893352
-62.111736 -24.677059 135.88081 10524558
-62.998928 -24.673944 135.7605 9208700
-62.557381 -23.931248 136.09149 10459023
-63.198505 -23.67123 136.09846 8682356
73.746933 -73.415321 111.77949 7762540
72.861816 -73.458397 112.15659 12629159
71.91687 -73.467842 112.60217 10721935
70.850853 -73.755562 112.75585 8418928
69.845482 -73.802361 112.69569 8287342
69.02948 -73.802002 113.19542 8222061
68.058533 -73.80368 113.06438 9012089
66.998016 -73.80378 113.51576 8946040
66.059021 -73.805138 113.47678 9143674
64.974937 -73.805626 113.80708 9143674
63.96714 -73.80658 113.94264 11906208
62.960773 -73.807541 114.06956 9405565
61.938122 -73.808281 114.28625 8813941
61.112427 -73.808952 114.43179 9406077
59.973839 -73.809952 114.61071 9208954
59.150444 -73.810654 114.74464 8485490
58.131001 -73.811478 114.93049 8090734
57.05196 -73.812157 115.1945 8551282
56.223774 -73.813065 115.25923 9011832
55.171421 -73.813591 115.56072 12827827
54.19556 -73.813568 116.01968 12433069
53.636257 -73.813568 116.27831 11315100
75.492134 -72.297775 111.36974 6510930
74.814758 -72.569244 111.59393 6510930
73.878082 -72.521027 112.07451 8222832
72.904129 -72.574989 112.53241 12234916
72.105492 -72.689804 112.87967 9735814
76.563065 -71.376045 111.21351 10525330
75.742905 -71.550026 111.54714 10788243
74.820335 -71.56469 111.99534 10393229
73.922989 -71.574944 112.43299 9472899
73.253197 -71.792412 112.67531 8092019
35.442623 -71.676186 119.359 8879477
34.588161 -71.397438 119.09858 10195335
78.259995 -70.323235 110.80191 8092019
77.530045 -70.510132 111.08595 8223605
76.729187 -70.572815 111.45489 10459794
75.857071 -70.512383 111.90836 11380380
75.05864 -70.580109 112.2741 13551293
35.184185 -70.921165 119.5444 8879477
34.39333 -70.610596 119.32409 9800577
33.608498 -70.52597 119.01735 11445400
79.363892 -69.321075 110.66181 9011574
78.675667 -69.584854 110.89439 8485746
77.826035 -69.566254 111.32001 8749691
76.950287 -69.503441 111.77625 9341570
76.093803 -69.715546 112.11243 10788499
34.239285 -69.728554 119.60471 8879989
33.454411 -69.646927 119.29681 9669247
32.79771 -69.275482 119.15852 9932419
80.546509 -68.449028 110.43063 10458505
79.728546 -68.54464 110.79467 9011574
78.782249 -68.552223 111.25734 10985364
77.838593 -68.618263 111.69517 9209985
77.097466 -68.791466 111.99023 8618105
33.446529 -68.761169 119.64229 8879989
32.63409 -68.564804 119.36759 9011575
81.500511 -67.463997 110.35738 7827821
80.678909 -67.65049 110.68668 9866626
79.743576 -67.540543 111.19121 10261126
78.933723 -67.599785 111.56591 10853778
33.291641 -68.107109 119.83285 7039331
32.564468 -67.665306 119.69173 8616819
31.72876 -67.521614 119.38624 9866117
83.308105 -66.38472 109.90198 10459537
82.615341 -66.584099 110.16269 9209472
81.745842 -66.614685 110.57827 7499113
80.857742 -66.542984 111.04419 9208954
79.987946 -66.74633 111.39045 9932675
32.301826 -66.600876 119.99716 8419440
31.498262 -66.609665 119.64558 9011065
30.710457 -66.346336 119.40793 9142651
84.2911 -65.382141 109.82078 11183510
83.624977 -65.641357 110.04478 9736579
82.721779 -65.609612 110.50229 10262415
81.763168 -65.611153 110.97344 7828847
81.010887 -65.832275 111.25469 9011576
32.126034 -66.111748 120.11372 8419440
31.441553 -65.624641 120.00899 9011832
30.547842 -65.602066 119.63066 9668738
86.261551 -64.107346 109.36202 7565675
85.487335 -64.545235 109.5676 10262923
84.600044 -64.683609 109.9491 9868164
83.702759 -64.605858 110.42235 8947321
82.880524 -64.657593 110.80663 9209985
31.223349 -64.868851 120.2121 9209467
30.552498 -64.67598 119.99744 7892839
29.801842 -64.46138 119.75671 8089962
87.260605 -63.10923 109.27077 9078913
86.547882 -63.527931 109.45374 11644581
85.640511 -63.687592 109.83659 12038822
84.739021 -63.608162 110.31258 9868164
83.951775 -63.75808 110.64017 8881527
30.396612 -63.740768 120.29823 6643540
29.637062 -63.607769 120.02155 8418671
28.868093 -63.339527 119.79399 9932166
88.339142 -62.240673 109.08829 9932424
87.596062 -62.517155 109.34333 8288629
86.586617 -62.683811 109.77366 13420217
85.708649 -62.650833 110.21938 13682875
84.847977 -62.893223 110.54597 11249049
29.615139 -62.742493 120.35283 7103579
28.768736 -62.523113 120.07252 8748151
90.040276 -61.190407 108.67211 8287859
89.424118 -61.373512 108.90212 9735046
88.612953 -61.573456 109.22138 10261132
87.598694 -61.641365 109.69376 8617080
86.806854 -61.718773 110.05273 9735558
86.143661 -61.918911 110.29908 14077885
29.242001 -61.943584 120.50579 8156269
28.477823 -61.629791 120.29833 9340287
27.707045 -61.4231 120.04576 9734788
91.453133 -60.28196 108.50509 9144446
90.535789 -60.490768 108.80299 7696235
89.603737 -60.417645 109.31728 9011580
88.616737 -60.702534 109.61033 9669252
87.698044 -60.879688 109.95334 8617336
28.306503 -60.845379 120.55068 9406080
27.618166 -60.574413 120.42677 8616822
26.846966 -60.310429 120.28178 8681843
95.935379 -59.15556 107.63824 10130057
95.361626 -59.121742 108.03632 9012095
94.502106 -59.222313 108.10539 11248281
93.509506 -59.419086 108.31425 9274751
92.572014 -59.583733 108.60842 8025456
91.615372 -59.646553 108.96355 9868423
90.673904 -59.759941 109.32999 7630699
89.94722 -59.827991 109.62929 7038307
27.372606 -59.926201 120.81726 8616822
26.525755 -59.674793 120.66655 8879222
25.54743 -59.359138 120.62868 9734787
24.951714 -59.157497 120.89198 9405566
108.3658 -58.769775 106.24938 9209211
107.32259 -58.772633 105.7317 8617330
106.68392 -58.771645 106.37443 7301986
105.27354 -58.773903 106.2361 7697260
104.63187 -58.772953 106.86644 7039331
103.36578 -58.77541 106.5921 13549494
102.72231 -58.774494 107.21124 15194062
101.34321 -58.776775 107.05112 7893352
100.33822 -58.777473 107.27338 8551281
99.463127 -58.778358 107.36749 7894124
98.587921 -58.848373 107.55843 11314846
97.4832 -58.893665 107.80061 8946557
96.575554 -58.951309 108.04327 7564651
95.747971 -58.943008 108.4754 7564651
94.356171 -59.06403 108.72869 8354422
24.643885 -59.032146 121.1683 7893356
23.624727 -58.933586 121.0743 9867399
22.638 -58.839725 121.45884 9670277
21.759644 -58.840439 121.61766 8618105
20.733442 -58.84129 121.79469 11906725
19.705873 -58.842163 121.96349 9143679
18.823957 -58.842937 122.10113 8946044
17.793793 -58.843868 122.25346 8222065
16.762499 -58.844822 122.39751 8089963
15.729898 -58.845798 122.53243 7433064
14.696274 -58.846806 122.65908 8353393
13.809472 -58.847687 122.76052 8221549
12.715218 -58.653011 123.17797 7169373
11.827116 -58.501957 123.01855 7170141
12.69485 -58.052334 123.57619 7170141
11.849051 -57.642101 123.37119 7170141
11.069659 -57.641037 123.03378 7170141
11.620183 -56.636292 123.66817 7170141
10.901206 -56.681561 123.33868 8025451
10.25661 -56.460434 123.14639 8420727
10.825264 -55.710705 123.68807 10196365
9.9415894 -55.548561 123.36843 10525587
10.616143 -54.965477 123.88987 9998472
9.8484087 -54.663136 123.67516 10196366
9.0042744 -54.426659 123.40147 11774625
9.6673098 -53.797081 123.93605 8156526
8.8599682 -53.513401 123.6968 8089961
8.1842833 -53.421482 123.43949 8089960
8.8549089 -52.68018 124.02122 7234653
8.0290136 -52.596405 123.69557 7958375
8.6359787 -51.847122 124.25278 6642517
7.892602 -51.62281 124.018 7037274
7.2284918 -51.627235 123.72801 7826789
7.7589102 -50.62048 124.3529 5721926
6.9427423 -50.6521 123.9862 6248015
6.8089304 -49.678482 124.30979 5327680
5.9175749 -49.532444 123.98013 6971481
6.7483644 -48.846123 124.6098 4867385
5.9829054 -48.722885 124.32583 6445649
5.1222734 -48.381504 124.0861 8287341
5.8066149 -47.810905 124.60682 5919050
4.9298677 -47.636143 124.29474 10129289
4.3259439 -47.237431 124.18887 8287341
5.5492926 -47.117756 124.76677 5919050
4.9426737 -46.718426 124.66005 8287341
4.0680056 -46.548904 124.34686 8353390
4.7486143 -45.974091 124.8676 5919050
